//X Y Z R G B PointSourceId ScanDirectionFlag NumberOfReturns ReturnNumber GpsTime Intensity Classification Nx Ny Nz
9.94999981 -15.30000019 0.05000000 52 104 177 0.000000 0.000000 0.000000 0.000000 0.000000 0.000000 136.000000 -0.149097 0.923844 -0.352538
9.93999958 -15.30000019 0.06000000 52 104 177 0.000000 0.000000 0.000000 0.000000 0.000000 0.000000 136.000000 -0.478171 0.864217 -0.156466
9.93000031 -15.31000042 0.01000000 52 104 177 0.000000 0.000000 0.000000 0.000000 0.000000 0.000000 136.000000 -0.472933 0.810515 -0.345544
9.93999958 -15.28999996 -0.02000000 52 104 177 0.000000 0.000000 0.000000 0.000000 0.000000 0.000000 136.000000 -0.458928 0.875871 0.149115
9.94999981 -15.28999996 0.00000000 52 104 177 0.000000 0.000000 0.000000 0.000000 0.000000 0.000000 136.000000 -0.482030 0.828343 -0.285474
9.96000004 -15.27999973 -0.01000000 52 104 177 0.000000 0.000000 0.000000 0.000000 0.000000 0.000000 136.000000 -0.109709 0.961571 -0.251686
9.96000004 -15.27999973 -0.01000000 52 104 177 0.000000 0.000000 0.000000 0.000000 0.000000 0.000000 136.000000 -0.109709 0.961571 -0.251686
9.93999958 -15.28999996 -0.02000000 52 104 177 0.000000 0.000000 0.000000 0.000000 0.000000 0.000000 136.000000 -0.458928 0.875871 0.149115
9.96000004 -15.30000019 0.00000000 52 104 177 0.000000 0.000000 0.000000 0.000000 0.000000 0.000000 136.000000 -0.115980 0.945173 -0.305282
9.93000031 -15.30000019 0.00000000 52 104 177 0.000000 0.000000 0.000000 0.000000 0.000000 0.000000 136.000000 -0.489321 0.866595 -0.097864
9.94999981 -15.31000042 -0.01000000 52 104 177 0.000000 0.000000 0.000000 0.000000 0.000000 0.000000 136.000000 -0.227544 0.832292 -0.505484
9.93000031 -15.30000019 -0.05000000 52 104 177 0.000000 0.000000 0.000000 0.000000 0.000000 0.000000 136.000000 -0.425790 0.801771 -0.419363
9.88000011 -15.31999969 -0.01000000 52 104 177 0.000000 0.000000 0.000000 0.000000 0.000000 0.000000 136.000000 -0.671747 0.678190 0.298017
9.88000011 -15.42000008 0.05000000 52 104 177 0.000000 0.000000 0.000000 0.000000 0.000000 0.000000 136.000000 0.968373 0.194706 0.156023
9.88000011 -15.39000034 0.07000000 52 104 177 0.000000 0.000000 0.000000 0.000000 0.000000 0.000000 136.000000 0.981291 0.026901 -0.190644
9.88000011 -15.40999985 0.05000000 52 104 177 0.000000 0.000000 0.000000 0.000000 0.000000 0.000000 136.000000 0.995694 0.092647 0.003195
9.88000011 -15.39000034 0.09000000 52 104 177 0.000000 0.000000 0.000000 0.000000 0.000000 0.000000 136.000000 0.994429 0.104961 -0.009739
9.89000034 -15.42000008 0.05000000 52 104 177 0.000000 0.000000 0.000000 0.000000 0.000000 0.000000 136.000000 0.951748 0.305515 0.028917
9.88000011 -15.39000034 0.09000000 52 104 177 0.000000 0.000000 0.000000 0.000000 0.000000 0.000000 136.000000 0.994429 0.104961 -0.009739
9.88000011 -15.40999985 0.07000000 52 104 177 0.000000 0.000000 0.000000 0.000000 0.000000 0.000000 136.000000 0.977148 0.037077 -0.209303
9.88000011 -15.39000034 0.07000000 52 104 177 0.000000 0.000000 0.000000 0.000000 0.000000 0.000000 136.000000 0.981291 0.026901 -0.190644
9.88000011 -15.40999985 0.01000000 52 104 177 0.000000 0.000000 0.000000 0.000000 0.000000 0.000000 136.000000 0.976198 0.216803 -0.005860
9.88000011 -15.40999985 0.02000000 52 104 177 0.000000 0.000000 0.000000 0.000000 0.000000 0.000000 136.000000 0.974979 0.215445 -0.054774
9.88000011 -15.35000038 0.00000000 52 104 177 0.000000 0.000000 0.000000 0.000000 0.000000 0.000000 136.000000 -0.597530 0.724526 -0.343539
9.88000011 -15.38000011 -0.04000000 52 104 177 0.000000 0.000000 0.000000 0.000000 0.000000 0.000000 136.000000 -0.661805 0.731789 0.162789
10.00000000 -15.28999996 -0.08000000 52 104 177 0.000000 0.000000 0.000000 0.000000 0.000000 0.000000 136.000000 0.217799 0.970652 -0.101975
10.00000000 -15.31999969 -0.13000000 52 104 177 0.000000 0.000000 0.000000 0.000000 0.000000 0.000000 136.000000 0.197002 0.980402 -0.001152
9.98999977 -15.31999969 -0.14000000 52 104 177 0.000000 0.000000 0.000000 0.000000 0.000000 0.000000 136.000000 -0.003079 0.998730 -0.050296
9.98999977 -15.35999966 -0.12000000 52 104 177 0.000000 0.000000 0.000000 0.000000 0.000000 0.000000 136.000000 0.355275 0.751106 -0.556435
9.97999954 -15.34000015 -0.16000000 52 104 177 0.000000 0.000000 0.000000 0.000000 0.000000 0.000000 136.000000 0.303595 0.871120 -0.385978
10.00000000 -15.34000015 -0.19000000 52 104 177 0.000000 0.000000 0.000000 0.000000 0.000000 0.000000 136.000000 0.549053 0.630144 -0.549053
9.97000027 -15.35000038 -0.25000000 52 104 177 0.000000 0.000000 0.000000 0.000000 0.000000 0.000000 136.000000 0.092718 0.848724 -0.520645
10.00000000 -15.35000038 -0.20999999 52 104 177 0.000000 0.000000 0.000000 0.000000 0.000000 0.000000 136.000000 0.558877 0.609530 -0.562254
9.93000031 -15.32999992 -0.12000000 52 104 177 0.000000 0.000000 0.000000 0.000000 0.000000 0.000000 136.000000 -0.438124 0.898750 -0.017207
9.94999981 -15.31999969 -0.14000000 52 104 177 0.000000 0.000000 0.000000 0.000000 0.000000 0.000000 136.000000 -0.319322 0.944931 -0.071684
9.94999981 -15.31999969 -0.15000001 52 104 177 0.000000 0.000000 0.000000 0.000000 0.000000 0.000000 136.000000 -0.346128 0.936505 -0.056164
9.94999981 -15.31999969 -0.15000001 52 104 177 0.000000 0.000000 0.000000 0.000000 0.000000 0.000000 136.000000 -0.346128 0.936505 -0.056164
9.90999985 -15.32999992 -0.12000000 52 104 177 0.000000 0.000000 0.000000 0.000000 0.000000 0.000000 136.000000 -0.629454 0.775042 -0.055666
9.92000008 -15.31999969 -0.17000000 52 104 177 0.000000 0.000000 0.000000 0.000000 0.000000 0.000000 136.000000 -0.392842 0.912005 0.117991
9.93000031 -15.31999969 -0.20000000 52 104 177 0.000000 0.000000 0.000000 0.000000 0.000000 0.000000 136.000000 -0.406831 0.911677 0.057735
9.93000031 -15.32999992 -0.23999999 52 104 177 0.000000 0.000000 0.000000 0.000000 0.000000 0.000000 136.000000 -0.439190 0.885580 -0.151197
9.89000034 -15.35999966 -0.17000000 52 104 177 0.000000 0.000000 0.000000 0.000000 0.000000 0.000000 136.000000 -0.155703 0.946405 -0.282974
9.88000011 -15.35000038 -0.23000000 52 104 177 0.000000 0.000000 0.000000 0.000000 0.000000 0.000000 136.000000 -0.393128 0.878137 0.272629
9.97000027 -15.42000008 -0.41999999 52 104 177 0.000000 0.000000 0.000000 0.000000 0.000000 0.000000 136.000000 0.370941 0.915365 -0.156557
9.89999962 -15.35000038 -0.36000001 52 104 177 0.000000 0.000000 0.000000 0.000000 0.000000 0.000000 136.000000 0.067446 0.974907 0.212150
9.88000011 -15.39000034 -0.37000000 52 104 177 0.000000 0.000000 0.000000 0.000000 0.000000 0.000000 136.000000 -0.078601 0.992193 0.096827
9.88000011 -15.39999962 -0.41000000 52 104 177 0.000000 0.000000 0.000000 0.000000 0.000000 0.000000 136.000000 -0.216758 0.942965 0.252654
9.93000031 -15.36999989 -0.43000001 52 104 177 0.000000 0.000000 0.000000 0.000000 0.000000 0.000000 136.000000 0.415124 0.847350 -0.331166
9.93000031 -15.39999962 -0.49000001 52 104 177 0.000000 0.000000 0.000000 0.000000 0.000000 0.000000 136.000000 0.521407 0.753506 -0.400454
9.88000011 -15.38000011 -0.44999999 52 104 177 0.000000 0.000000 0.000000 0.000000 0.000000 0.000000 136.000000 -0.224940 0.942541 0.247020
9.88000011 -15.38000011 -0.44999999 52 104 177 0.000000 0.000000 0.000000 0.000000 0.000000 0.000000 136.000000 -0.224940 0.942541 0.247020
9.90999985 -15.39000034 -0.50000000 52 104 177 0.000000 0.000000 0.000000 0.000000 0.000000 0.000000 136.000000 0.239138 0.946987 -0.214541
9.92000008 -15.39000034 -0.56000000 52 104 177 0.000000 0.000000 0.000000 0.000000 0.000000 0.000000 136.000000 0.144183 0.979704 0.139254
9.90999985 -15.39999962 -0.58999997 52 104 177 0.000000 0.000000 0.000000 0.000000 0.000000 0.000000 136.000000 0.258827 0.826077 -0.500606
9.89000034 -15.43000031 0.07000000 52 104 177 0.000000 0.000000 0.000000 0.000000 0.000000 0.000000 136.000000 0.883491 0.411306 -0.224214
9.89000034 -15.43000031 0.07000000 52 104 177 0.000000 0.000000 0.000000 0.000000 0.000000 0.000000 136.000000 0.883491 0.411306 -0.224214
9.88000011 -15.43999958 0.07000000 52 104 177 0.000000 0.000000 0.000000 0.000000 0.000000 0.000000 136.000000 0.892859 0.410861 -0.184379
9.89000034 -15.43000031 0.03000000 52 104 177 0.000000 0.000000 0.000000 0.000000 0.000000 0.000000 136.000000 0.928022 0.347836 -0.133360
9.88000011 -15.43000031 0.02000000 52 104 177 0.000000 0.000000 0.000000 0.000000 0.000000 0.000000 136.000000 0.844473 0.206964 -0.493994
9.89000034 -15.43000031 0.04000000 52 104 177 0.000000 0.000000 0.000000 0.000000 0.000000 0.000000 136.000000 0.956222 0.226016 0.185895
9.89999962 -15.47000027 0.01000000 52 104 177 0.000000 0.000000 0.000000 0.000000 0.000000 0.000000 136.000000 0.612503 0.639353 -0.464831
9.89000034 -15.43999958 -0.02000000 52 104 177 0.000000 0.000000 0.000000 0.000000 0.000000 0.000000 136.000000 0.981309 0.131086 -0.140887
9.88000011 -15.44999981 -0.03000000 52 104 177 0.000000 0.000000 0.000000 0.000000 0.000000 0.000000 136.000000 0.939427 0.232421 -0.251906
9.89000034 -15.43000031 -0.01000000 52 104 177 0.000000 0.000000 0.000000 0.000000 0.000000 0.000000 136.000000 0.964634 0.165776 -0.204936
9.88000011 -15.44999981 -0.07000000 52 104 177 0.000000 0.000000 0.000000 0.000000 0.000000 0.000000 136.000000 0.952539 0.265856 0.148291
9.88000011 -15.47000027 -0.12000000 52 104 177 0.000000 0.000000 0.000000 0.000000 0.000000 0.000000 136.000000 0.766108 0.410006 -0.494948
9.97000027 -15.43000031 -0.58999997 52 104 177 0.000000 0.000000 0.000000 0.000000 0.000000 0.000000 136.000000 0.842374 0.348514 -0.411028
9.86999989 -15.35999966 0.09000000 52 104 177 0.000000 0.000000 0.000000 0.000000 0.000000 0.000000 136.000000 0.813838 -0.521292 -0.256756
9.86999989 -15.36999989 0.05000000 52 104 177 0.000000 0.000000 0.000000 0.000000 0.000000 0.000000 136.000000 0.890628 -0.406432 -0.203949
9.86999989 -15.36999989 0.04000000 52 104 177 0.000000 0.000000 0.000000 0.000000 0.000000 0.000000 136.000000 0.873858 -0.485175 0.031258
9.86999989 -15.38000011 0.02000000 52 104 177 0.000000 0.000000 0.000000 0.000000 0.000000 0.000000 136.000000 0.997385 0.063072 0.035277
9.86999989 -15.35000038 -0.02000000 52 104 177 0.000000 0.000000 0.000000 0.000000 0.000000 0.000000 136.000000 -0.607573 0.788242 -0.097620
9.85999966 -15.42000008 -0.01000000 52 104 177 0.000000 0.000000 0.000000 0.000000 0.000000 0.000000 136.000000 0.987192 -0.105474 -0.119696
9.85999966 -15.42000008 -0.02000000 52 104 177 0.000000 0.000000 0.000000 0.000000 0.000000 0.000000 136.000000 0.956976 0.062273 0.283407
9.86999989 -15.39999962 -0.04000000 52 104 177 0.000000 0.000000 0.000000 0.000000 0.000000 0.000000 136.000000 0.982396 0.115362 -0.146934
9.71000004 -15.28999996 0.03000000 52 104 177 0.000000 0.000000 0.000000 0.000000 0.000000 0.000000 136.000000 0.736693 -0.658032 -0.155810
9.71000004 -15.31000042 0.03000000 52 104 177 0.000000 0.000000 0.000000 0.000000 0.000000 0.000000 136.000000 0.735099 -0.623961 -0.265144
9.72000027 -15.31000042 -0.07000000 52 104 177 0.000000 0.000000 0.000000 0.000000 0.000000 0.000000 136.000000 -0.674710 0.717549 -0.172885
9.71000004 -15.31000042 -0.06000000 52 104 177 0.000000 0.000000 0.000000 0.000000 0.000000 0.000000 136.000000 0.755481 -0.633874 -0.165689
9.72000027 -15.31000042 -0.07000000 52 104 177 0.000000 0.000000 0.000000 0.000000 0.000000 0.000000 136.000000 -0.674710 0.717549 -0.172885
9.85999966 -15.40999985 -0.11000000 52 104 177 0.000000 0.000000 0.000000 0.000000 0.000000 0.000000 136.000000 0.994699 -0.065719 0.079086
9.86999989 -15.39999962 -0.11000000 52 104 177 0.000000 0.000000 0.000000 0.000000 0.000000 0.000000 136.000000 0.921057 -0.360898 0.146310
9.85999966 -15.40999985 -0.09000000 52 104 177 0.000000 0.000000 0.000000 0.000000 0.000000 0.000000 136.000000 0.989446 0.132464 -0.058745
9.85999966 -15.42000008 -0.11000000 52 104 177 0.000000 0.000000 0.000000 0.000000 0.000000 0.000000 136.000000 0.998197 -0.051649 -0.030568
9.85000038 -15.40999985 -0.14000000 52 104 177 0.000000 0.000000 0.000000 0.000000 0.000000 0.000000 136.000000 0.838651 -0.493414 -0.230667
9.85000038 -15.42000008 -0.14000000 52 104 177 0.000000 0.000000 0.000000 0.000000 0.000000 0.000000 136.000000 0.833608 -0.451994 -0.317490
9.84000015 -15.42000008 -0.14000000 52 104 177 0.000000 0.000000 0.000000 0.000000 0.000000 0.000000 136.000000 0.865768 -0.467544 -0.178463
9.84000015 -15.42000008 -0.14000000 52 104 177 0.000000 0.000000 0.000000 0.000000 0.000000 0.000000 136.000000 0.865768 -0.467544 -0.178463
9.85000038 -15.40999985 -0.15000001 52 104 177 0.000000 0.000000 0.000000 0.000000 0.000000 0.000000 136.000000 0.940398 -0.331052 -0.077817
9.86999989 -15.35000038 -0.23999999 52 104 177 0.000000 0.000000 0.000000 0.000000 0.000000 0.000000 136.000000 -0.294595 0.921149 0.254358
9.86999989 -15.35999966 -0.23000000 52 104 177 0.000000 0.000000 0.000000 0.000000 0.000000 0.000000 136.000000 -0.294538 0.941153 0.165764
9.85999966 -15.35999966 -0.23999999 52 104 177 0.000000 0.000000 0.000000 0.000000 0.000000 0.000000 136.000000 -0.394108 0.915040 0.085913
9.85999966 -15.35999966 -0.23000000 52 104 177 0.000000 0.000000 0.000000 0.000000 0.000000 0.000000 136.000000 -0.342195 0.937430 0.064243
9.75000000 -15.28999996 -0.13000000 52 104 177 0.000000 0.000000 0.000000 0.000000 0.000000 0.000000 136.000000 -0.583355 0.779362 0.228675
9.75000000 -15.31999969 -0.11000000 52 104 177 0.000000 0.000000 0.000000 0.000000 0.000000 0.000000 136.000000 -0.636781 0.736914 -0.226863
9.75000000 -15.30000019 -0.16000000 52 104 177 0.000000 0.000000 0.000000 0.000000 0.000000 0.000000 136.000000 -0.481969 0.874174 -0.059383
9.73999977 -15.30000019 -0.13000000 52 104 177 0.000000 0.000000 0.000000 0.000000 0.000000 0.000000 136.000000 -0.567383 0.820501 0.069679
9.75000000 -15.31000042 -0.23999999 52 104 177 0.000000 0.000000 0.000000 0.000000 0.000000 0.000000 136.000000 -0.450893 0.892530 -0.009256
9.71000004 -15.30000019 -0.22000000 52 104 177 0.000000 0.000000 0.000000 0.000000 0.000000 0.000000 136.000000 0.754329 -0.512158 -0.410708
9.73999977 -15.31999969 -0.25000000 52 104 177 0.000000 0.000000 0.000000 0.000000 0.000000 0.000000 136.000000 -0.566746 0.767901 0.298540
9.71000004 -15.31000042 -0.25000000 52 104 177 0.000000 0.000000 0.000000 0.000000 0.000000 0.000000 136.000000 -0.590934 0.781260 -0.201071
9.71000004 -15.30000019 -0.22000000 52 104 177 0.000000 0.000000 0.000000 0.000000 0.000000 0.000000 136.000000 0.754329 -0.512158 -0.410708
9.75000000 -15.36999989 -0.14000000 52 104 177 0.000000 0.000000 0.000000 0.000000 0.000000 0.000000 136.000000 0.745769 -0.620166 -0.243356
9.76000023 -15.35000038 -0.13000000 52 104 177 0.000000 0.000000 0.000000 0.000000 0.000000 0.000000 136.000000 0.890497 -0.213425 -0.401827
9.73999977 -15.39000034 -0.09000000 52 104 177 0.000000 0.000000 0.000000 0.000000 0.000000 0.000000 136.000000 0.818182 -0.320021 -0.477667
9.78999996 -15.34000015 -0.19000000 52 104 177 0.000000 0.000000 0.000000 0.000000 0.000000 0.000000 136.000000 -0.590757 0.798915 -0.112874
9.71000004 -15.35000038 -0.18000001 52 104 177 0.000000 0.000000 0.000000 0.000000 0.000000 0.000000 136.000000 -0.746216 0.523171 0.411649
9.72999954 -15.36999989 -0.23000000 52 104 177 0.000000 0.000000 0.000000 0.000000 0.000000 0.000000 136.000000 -0.715035 0.684928 0.139996
9.68999958 -15.31999969 0.01000000 52 104 177 0.000000 0.000000 0.000000 0.000000 0.000000 0.000000 136.000000 0.744661 -0.664001 0.067696
9.68000031 -15.30000019 -0.20999999 52 104 177 0.000000 0.000000 0.000000 0.000000 0.000000 0.000000 136.000000 0.605972 -0.769414 -0.201991
9.85000038 -15.36999989 -0.31000000 52 104 177 0.000000 0.000000 0.000000 0.000000 0.000000 0.000000 136.000000 -0.310237 0.948732 -0.060503
9.86999989 -15.38000011 -0.33000001 52 104 177 0.000000 0.000000 0.000000 0.000000 0.000000 0.000000 136.000000 -0.433718 0.896536 0.090069
9.86999989 -15.38000011 -0.31999999 52 104 177 0.000000 0.000000 0.000000 0.000000 0.000000 0.000000 136.000000 -0.356700 0.916620 -0.180482
9.81999969 -15.34000015 -0.28999999 52 104 177 0.000000 0.000000 0.000000 0.000000 0.000000 0.000000 136.000000 -0.304697 0.946025 -0.110436
9.86999989 -15.35999966 -0.41000000 52 104 177 0.000000 0.000000 0.000000 0.000000 0.000000 0.000000 136.000000 -0.184253 0.982289 0.034034
9.84000015 -15.39000034 -0.41999999 52 104 177 0.000000 0.000000 0.000000 0.000000 0.000000 0.000000 136.000000 -0.463552 0.873337 -0.149673
9.84000015 -15.39000034 -0.41000000 52 104 177 0.000000 0.000000 0.000000 0.000000 0.000000 0.000000 136.000000 -0.399819 0.907660 -0.127662
9.84000015 -15.42000008 -0.41999999 52 104 177 0.000000 0.000000 0.000000 0.000000 0.000000 0.000000 136.000000 0.817135 -0.478901 -0.320848
9.82999992 -15.39000034 -0.38000000 52 104 177 0.000000 0.000000 0.000000 0.000000 0.000000 0.000000 136.000000 -0.338267 0.938461 0.069759
9.72000027 -15.31999969 -0.34000000 52 104 177 0.000000 0.000000 0.000000 0.000000 0.000000 0.000000 136.000000 -0.688660 0.606087 0.398003
9.71000004 -15.32999992 -0.34000000 52 104 177 0.000000 0.000000 0.000000 0.000000 0.000000 0.000000 136.000000 0.674913 -0.703100 -0.223927
9.84000015 -15.42000008 -0.47999999 52 104 177 0.000000 0.000000 0.000000 0.000000 0.000000 0.000000 136.000000 -0.500539 0.848093 0.173777
9.85000038 -15.40999985 -0.50000000 52 104 177 0.000000 0.000000 0.000000 0.000000 0.000000 0.000000 136.000000 -0.481599 0.823581 -0.299627
9.85000038 -15.42000008 -0.50000000 52 104 177 0.000000 0.000000 0.000000 0.000000 0.000000 0.000000 136.000000 -0.389796 0.920747 0.016835
9.81000042 -15.35999966 -0.43000001 52 104 177 0.000000 0.000000 0.000000 0.000000 0.000000 0.000000 136.000000 -0.448456 0.865416 -0.223478
9.82999992 -15.39999962 -0.43000001 52 104 177 0.000000 0.000000 0.000000 0.000000 0.000000 0.000000 136.000000 -0.277003 0.960194 0.036023
9.84000015 -15.39000034 -0.54000002 52 104 177 0.000000 0.000000 0.000000 0.000000 0.000000 0.000000 136.000000 -0.475920 0.828569 0.294914
9.84000015 -15.39999962 -0.54000002 52 104 177 0.000000 0.000000 0.000000 0.000000 0.000000 0.000000 136.000000 -0.199719 0.874326 -0.442341
9.85000038 -15.39999962 -0.51999998 52 104 177 0.000000 0.000000 0.000000 0.000000 0.000000 0.000000 136.000000 -0.501739 0.852811 0.144817
9.86999989 -15.39999962 -0.50999999 52 104 177 0.000000 0.000000 0.000000 0.000000 0.000000 0.000000 136.000000 -0.342151 0.936623 0.075300
9.84000015 -15.40999985 -0.55000001 52 104 177 0.000000 0.000000 0.000000 0.000000 0.000000 0.000000 136.000000 -0.379427 0.820768 -0.427054
9.85999966 -15.39999962 -0.58999997 52 104 177 0.000000 0.000000 0.000000 0.000000 0.000000 0.000000 136.000000 -0.239732 0.815088 -0.527410
9.81999969 -15.39999962 -0.54000002 52 104 177 0.000000 0.000000 0.000000 0.000000 0.000000 0.000000 136.000000 -0.322560 0.856560 -0.402815
9.82999992 -15.42000008 -0.58999997 52 104 177 0.000000 0.000000 0.000000 0.000000 0.000000 0.000000 136.000000 -0.413969 0.823180 -0.388592
9.77000046 -15.36999989 -0.44999999 52 104 177 0.000000 0.000000 0.000000 0.000000 0.000000 0.000000 136.000000 -0.434796 0.900174 0.025263
9.68999958 -15.30000019 -0.56999999 52 104 177 0.000000 0.000000 0.000000 0.000000 0.000000 0.000000 136.000000 0.714159 -0.610045 -0.343252
9.64999962 -15.38000011 -0.47999999 52 104 177 0.000000 0.000000 0.000000 0.000000 0.000000 0.000000 136.000000 0.770039 -0.624074 -0.132560
9.86999989 -15.43999958 -0.05000000 52 104 177 0.000000 0.000000 0.000000 0.000000 0.000000 0.000000 136.000000 0.983168 0.115168 -0.141838
9.85999966 -15.46000004 -0.12000000 52 104 177 0.000000 0.000000 0.000000 0.000000 0.000000 0.000000 136.000000 0.950099 0.310827 0.026427
9.85999966 -15.43999958 -0.08000000 52 104 177 0.000000 0.000000 0.000000 0.000000 0.000000 0.000000 136.000000 0.885946 0.114819 -0.449352
9.85999966 -15.44999981 -0.12000000 52 104 177 0.000000 0.000000 0.000000 0.000000 0.000000 0.000000 136.000000 0.968446 0.224659 0.107887
9.85999966 -15.44999981 -0.09000000 52 104 177 0.000000 0.000000 0.000000 0.000000 0.000000 0.000000 136.000000 0.830504 0.439679 -0.341972
9.85999966 -15.44999981 -0.15000001 52 104 177 0.000000 0.000000 0.000000 0.000000 0.000000 0.000000 136.000000 0.959904 0.280326 -0.001214
9.85999966 -15.44999981 -0.17000000 52 104 177 0.000000 0.000000 0.000000 0.000000 0.000000 0.000000 136.000000 0.951622 0.047009 -0.303655
9.85999966 -15.43999958 -0.19000000 52 104 177 0.000000 0.000000 0.000000 0.000000 0.000000 0.000000 136.000000 0.931994 0.285362 -0.223510
9.85999966 -15.43999958 -0.18000001 52 104 177 0.000000 0.000000 0.000000 0.000000 0.000000 0.000000 136.000000 0.962503 0.264782 -0.058980
9.85000038 -15.43999958 -0.19000000 52 104 177 0.000000 0.000000 0.000000 0.000000 0.000000 0.000000 136.000000 0.986642 0.112793 -0.117542
9.85000038 -15.43000031 -0.18000001 52 104 177 0.000000 0.000000 0.000000 0.000000 0.000000 0.000000 136.000000 0.924708 0.136840 -0.355232
9.85000038 -15.44999981 -0.20999999 52 104 177 0.000000 0.000000 0.000000 0.000000 0.000000 0.000000 136.000000 0.941333 0.334438 -0.045194
9.85000038 -15.44999981 -0.20999999 52 104 177 0.000000 0.000000 0.000000 0.000000 0.000000 0.000000 136.000000 0.941333 0.334438 -0.045194
9.84000015 -15.44999981 -0.23999999 52 104 177 0.000000 0.000000 0.000000 0.000000 0.000000 0.000000 136.000000 0.929564 -0.045888 -0.365794
9.84000015 -15.44999981 -0.27000001 52 104 177 0.000000 0.000000 0.000000 0.000000 0.000000 0.000000 136.000000 0.983266 -0.008013 0.182001
9.84000015 -15.46000004 -0.25999999 52 104 177 0.000000 0.000000 0.000000 0.000000 0.000000 0.000000 136.000000 0.993893 0.059387 0.093002
9.84000015 -15.44999981 -0.27000001 52 104 177 0.000000 0.000000 0.000000 0.000000 0.000000 0.000000 136.000000 0.983266 -0.008013 0.182001
9.84000015 -15.44999981 -0.25999999 52 104 177 0.000000 0.000000 0.000000 0.000000 0.000000 0.000000 136.000000 0.999036 -0.043880 0.001020
9.84000015 -15.43999958 -0.25999999 52 104 177 0.000000 0.000000 0.000000 0.000000 0.000000 0.000000 136.000000 0.999739 -0.015102 0.017115
9.85999966 -15.43000031 -0.31000000 52 104 177 0.000000 0.000000 0.000000 0.000000 0.000000 0.000000 136.000000 0.691581 -0.666026 -0.279507
9.84000015 -15.44999981 -0.30000001 52 104 177 0.000000 0.000000 0.000000 0.000000 0.000000 0.000000 136.000000 0.999584 0.027344 -0.009115
9.85999966 -15.47999954 -0.28999999 52 104 177 0.000000 0.000000 0.000000 0.000000 0.000000 0.000000 136.000000 0.882620 0.394107 -0.256245
9.85999966 -15.47000027 -0.30000001 52 104 177 0.000000 0.000000 0.000000 0.000000 0.000000 0.000000 136.000000 0.843735 -0.009511 -0.536675
9.84000015 -15.47000027 -0.31999999 52 104 177 0.000000 0.000000 0.000000 0.000000 0.000000 0.000000 136.000000 0.979323 0.104445 0.173255
9.84000015 -15.48999977 -0.31999999 52 104 177 0.000000 0.000000 0.000000 0.000000 0.000000 0.000000 136.000000 0.989784 0.119517 0.077744
9.85000038 -15.50000000 -0.31999999 52 104 177 0.000000 0.000000 0.000000 0.000000 0.000000 0.000000 136.000000 0.813524 0.429937 -0.391578
9.85999966 -15.48999977 -0.30000001 52 104 177 0.000000 0.000000 0.000000 0.000000 0.000000 0.000000 136.000000 0.913516 0.294823 -0.280300
9.84000015 -15.47999954 -0.31000000 52 104 177 0.000000 0.000000 0.000000 0.000000 0.000000 0.000000 136.000000 0.948932 0.298762 -0.101342
9.82999992 -15.46000004 -0.25999999 52 104 177 0.000000 0.000000 0.000000 0.000000 0.000000 0.000000 136.000000 0.922474 -0.119605 -0.367065
9.81999969 -15.48999977 -0.28000000 52 104 177 0.000000 0.000000 0.000000 0.000000 0.000000 0.000000 136.000000 0.992931 0.059734 -0.102562
9.85000038 -15.43000031 -0.34000000 52 104 177 0.000000 0.000000 0.000000 0.000000 0.000000 0.000000 136.000000 0.854147 -0.382893 -0.351890
9.84000015 -15.47999954 -0.34999999 52 104 177 0.000000 0.000000 0.000000 0.000000 0.000000 0.000000 136.000000 0.928213 0.001270 -0.372047
9.85000038 -15.47000027 -0.34000000 52 104 177 0.000000 0.000000 0.000000 0.000000 0.000000 0.000000 136.000000 0.947318 0.286211 -0.143777
9.85000038 -15.50000000 -0.37000000 52 104 177 0.000000 0.000000 0.000000 0.000000 0.000000 0.000000 136.000000 0.937822 0.255009 -0.235501
9.84000015 -15.47000027 -0.34000000 52 104 177 0.000000 0.000000 0.000000 0.000000 0.000000 0.000000 136.000000 0.948572 0.191892 -0.251773
9.84000015 -15.48999977 -0.38000000 52 104 177 0.000000 0.000000 0.000000 0.000000 0.000000 0.000000 136.000000 0.864976 0.385629 -0.321101
9.85000038 -15.50000000 -0.37000000 52 104 177 0.000000 0.000000 0.000000 0.000000 0.000000 0.000000 136.000000 0.937822 0.255009 -0.235501
9.84000015 -15.47000027 -0.41000000 52 104 177 0.000000 0.000000 0.000000 0.000000 0.000000 0.000000 136.000000 0.990237 -0.060955 -0.125361
9.84000015 -15.48999977 -0.38999999 52 104 177 0.000000 0.000000 0.000000 0.000000 0.000000 0.000000 136.000000 0.864536 0.333222 -0.376219
9.84000015 -15.50000000 -0.41000000 52 104 177 0.000000 0.000000 0.000000 0.000000 0.000000 0.000000 136.000000 0.995981 -0.011768 -0.088793
9.85999966 -15.50000000 -0.38999999 52 104 177 0.000000 0.000000 0.000000 0.000000 0.000000 0.000000 136.000000 0.999559 0.005043 0.029250
9.84000015 -15.47000027 -0.38999999 52 104 177 0.000000 0.000000 0.000000 0.000000 0.000000 0.000000 136.000000 0.986863 0.142325 -0.076455
9.82999992 -15.47000027 -0.36000001 52 104 177 0.000000 0.000000 0.000000 0.000000 0.000000 0.000000 136.000000 0.971406 0.236547 -0.020413
9.82999992 -15.47999954 -0.38000000 52 104 177 0.000000 0.000000 0.000000 0.000000 0.000000 0.000000 136.000000 0.967854 0.251281 0.010821
9.82999992 -15.47000027 -0.41999999 52 104 177 0.000000 0.000000 0.000000 0.000000 0.000000 0.000000 136.000000 0.999324 0.021568 0.029785
9.82999992 -15.47000027 -0.41999999 52 104 177 0.000000 0.000000 0.000000 0.000000 0.000000 0.000000 136.000000 0.999324 0.021568 0.029785
9.86999989 -15.52999973 -0.34999999 52 104 177 0.000000 0.000000 0.000000 0.000000 0.000000 0.000000 136.000000 0.751122 0.461849 -0.471711
9.85999966 -15.52000046 -0.34999999 52 104 177 0.000000 0.000000 0.000000 0.000000 0.000000 0.000000 136.000000 0.517732 0.688634 -0.507679
9.85000038 -15.53999996 -0.40000001 52 104 177 0.000000 0.000000 0.000000 0.000000 0.000000 0.000000 136.000000 0.505350 0.676598 -0.535570
9.85999966 -15.52000046 -0.40000001 52 104 177 0.000000 0.000000 0.000000 0.000000 0.000000 0.000000 136.000000 0.705683 0.576776 -0.411511
9.84000015 -15.51000023 -0.40000001 52 104 177 0.000000 0.000000 0.000000 0.000000 0.000000 0.000000 136.000000 0.997737 -0.039483 -0.054422
9.84000015 -15.50000000 -0.43000001 52 104 177 0.000000 0.000000 0.000000 0.000000 0.000000 0.000000 136.000000 0.831913 0.459041 -0.311772
9.84000015 -15.50000000 -0.43000001 52 104 177 0.000000 0.000000 0.000000 0.000000 0.000000 0.000000 136.000000 0.831913 0.459041 -0.311772
9.84000015 -15.47000027 -0.44999999 52 104 177 0.000000 0.000000 0.000000 0.000000 0.000000 0.000000 136.000000 0.999110 0.036162 0.021697
9.84000015 -15.50000000 -0.43000001 52 104 177 0.000000 0.000000 0.000000 0.000000 0.000000 0.000000 136.000000 0.831913 0.459041 -0.311772
9.84000015 -15.47000027 -0.43000001 52 104 177 0.000000 0.000000 0.000000 0.000000 0.000000 0.000000 136.000000 0.988281 -0.152643 -0.001114
9.84000015 -15.50000000 -0.43000001 52 104 177 0.000000 0.000000 0.000000 0.000000 0.000000 0.000000 136.000000 0.831913 0.459041 -0.311772
9.81999969 -15.46000004 -0.46000001 52 104 177 0.000000 0.000000 0.000000 0.000000 0.000000 0.000000 136.000000 0.801649 -0.547354 -0.240340
9.82999992 -15.47000027 -0.44000000 52 104 177 0.000000 0.000000 0.000000 0.000000 0.000000 0.000000 136.000000 0.995430 -0.080294 0.051696
9.82999992 -15.47000027 -0.44999999 52 104 177 0.000000 0.000000 0.000000 0.000000 0.000000 0.000000 136.000000 0.971663 -0.050111 -0.230999
9.82999992 -15.47999954 -0.43000001 52 104 177 0.000000 0.000000 0.000000 0.000000 0.000000 0.000000 136.000000 0.997486 -0.039557 -0.058801
9.82999992 -15.50000000 -0.44999999 52 104 177 0.000000 0.000000 0.000000 0.000000 0.000000 0.000000 136.000000 0.951984 0.304785 0.028848
9.82999992 -15.47999954 -0.44999999 52 104 177 0.000000 0.000000 0.000000 0.000000 0.000000 0.000000 136.000000 0.952603 -0.225652 -0.204033
9.82999992 -15.50000000 -0.44000000 52 104 177 0.000000 0.000000 0.000000 0.000000 0.000000 0.000000 136.000000 0.844749 0.398172 -0.357574
9.82999992 -15.47999954 -0.43000001 52 104 177 0.000000 0.000000 0.000000 0.000000 0.000000 0.000000 136.000000 0.997486 -0.039557 -0.058801
9.81999969 -15.48999977 -0.49000001 52 104 177 0.000000 0.000000 0.000000 0.000000 0.000000 0.000000 136.000000 0.999778 -0.009025 -0.019053
9.82999992 -15.48999977 -0.49000001 52 104 177 0.000000 0.000000 0.000000 0.000000 0.000000 0.000000 136.000000 0.987160 0.021633 0.158264
9.81999969 -15.47999954 -0.49000001 52 104 177 0.000000 0.000000 0.000000 0.000000 0.000000 0.000000 136.000000 0.986763 0.081346 0.140292
9.81999969 -15.48999977 -0.49000001 52 104 177 0.000000 0.000000 0.000000 0.000000 0.000000 0.000000 136.000000 0.999778 -0.009025 -0.019053
9.81999969 -15.48999977 -0.50000000 52 104 177 0.000000 0.000000 0.000000 0.000000 0.000000 0.000000 136.000000 0.991934 -0.120473 -0.039407
9.81999969 -15.48999977 -0.50000000 52 104 177 0.000000 0.000000 0.000000 0.000000 0.000000 0.000000 136.000000 0.991934 -0.120473 -0.039407
9.84000015 -15.50000000 -0.54000002 52 104 177 0.000000 0.000000 0.000000 0.000000 0.000000 0.000000 136.000000 0.982330 0.179361 0.053452
9.82999992 -15.47999954 -0.51999998 52 104 177 0.000000 0.000000 0.000000 0.000000 0.000000 0.000000 136.000000 0.896132 -0.403911 -0.183859
9.82999992 -15.47000027 -0.52999997 52 104 177 0.000000 0.000000 0.000000 0.000000 0.000000 0.000000 136.000000 0.897105 -0.389475 -0.208595
9.81999969 -15.47999954 -0.50999999 52 104 177 0.000000 0.000000 0.000000 0.000000 0.000000 0.000000 136.000000 0.950389 -0.191162 -0.245393
9.82999992 -15.50000000 -0.58999997 52 104 177 0.000000 0.000000 0.000000 0.000000 0.000000 0.000000 136.000000 0.964057 -0.038266 0.262925
9.82999992 -15.48999977 -0.56000000 52 104 177 0.000000 0.000000 0.000000 0.000000 0.000000 0.000000 136.000000 0.921497 -0.373802 -0.105431
9.84000015 -15.51000023 -0.43000001 52 104 177 0.000000 0.000000 0.000000 0.000000 0.000000 0.000000 136.000000 0.896525 0.337498 -0.286947
9.85999966 -15.55000019 -0.49000001 52 104 177 0.000000 0.000000 0.000000 0.000000 0.000000 0.000000 136.000000 0.722780 0.643701 -0.251471
9.82999992 -15.55000019 -0.50000000 52 104 177 0.000000 0.000000 0.000000 0.000000 0.000000 0.000000 136.000000 0.582967 0.572829 -0.576208
9.84000015 -15.52000046 -0.50999999 52 104 177 0.000000 0.000000 0.000000 0.000000 0.000000 0.000000 136.000000 0.766312 0.413384 -0.491812
9.84000015 -15.53999996 -0.52999997 52 104 177 0.000000 0.000000 0.000000 0.000000 0.000000 0.000000 136.000000 0.619299 0.632726 -0.464894
9.84000015 -15.52999973 -0.55000001 52 104 177 0.000000 0.000000 0.000000 0.000000 0.000000 0.000000 136.000000 0.999630 -0.019243 -0.019243
9.84000015 -15.52999973 -0.56000000 52 104 177 0.000000 0.000000 0.000000 0.000000 0.000000 0.000000 136.000000 0.998859 -0.011339 0.046387
9.84000015 -15.57999992 -0.54000002 52 104 177 0.000000 0.000000 0.000000 0.000000 0.000000 0.000000 136.000000 0.538419 0.639689 -0.548546
9.84000015 -15.56000042 -0.54000002 52 104 177 0.000000 0.000000 0.000000 0.000000 0.000000 0.000000 136.000000 0.591581 0.632031 -0.500569
9.85000038 -15.56000042 -0.52999997 52 104 177 0.000000 0.000000 0.000000 0.000000 0.000000 0.000000 136.000000 0.554326 0.652049 -0.517258
9.84000015 -15.57999992 -0.57999998 52 104 177 0.000000 0.000000 0.000000 0.000000 0.000000 0.000000 136.000000 0.601665 0.797029 -0.052380
9.82999992 -15.51000023 -0.54000002 52 104 177 0.000000 0.000000 0.000000 0.000000 0.000000 0.000000 136.000000 0.988454 0.066363 -0.136218
9.81999969 -15.52000046 -0.52999997 52 104 177 0.000000 0.000000 0.000000 0.000000 0.000000 0.000000 136.000000 0.969818 0.102419 -0.221275
9.82999992 -15.51000023 -0.52999997 52 104 177 0.000000 0.000000 0.000000 0.000000 0.000000 0.000000 136.000000 0.983458 0.171602 -0.057990
9.82999992 -15.52000046 -0.54000002 52 104 177 0.000000 0.000000 0.000000 0.000000 0.000000 0.000000 136.000000 0.983188 0.070484 0.168444
9.82999992 -15.52000046 -0.52999997 52 104 177 0.000000 0.000000 0.000000 0.000000 0.000000 0.000000 136.000000 0.953721 0.120040 -0.275695
9.81999969 -15.52000046 -0.56999999 52 104 177 0.000000 0.000000 0.000000 0.000000 0.000000 0.000000 136.000000 0.999904 -0.012908 0.004965
9.81999969 -15.51000023 -0.58999997 52 104 177 0.000000 0.000000 0.000000 0.000000 0.000000 0.000000 136.000000 0.990695 0.130206 -0.039628
9.82999992 -15.56000042 -0.56999999 52 104 177 0.000000 0.000000 0.000000 0.000000 0.000000 0.000000 136.000000 0.609142 0.781906 -0.132552
9.78999996 -15.44999981 -0.51999998 52 104 177 0.000000 0.000000 0.000000 0.000000 0.000000 0.000000 136.000000 0.699499 -0.654680 0.286523
9.93000031 -15.39999962 -0.63000000 52 104 177 0.000000 0.000000 0.000000 0.000000 0.000000 0.000000 136.000000 0.478800 0.695678 -0.535522
9.92000008 -15.39999962 -0.63999999 52 104 177 0.000000 0.000000 0.000000 0.000000 0.000000 0.000000 136.000000 0.504039 0.753595 -0.421948
9.94999981 -15.42000008 -0.64999998 52 104 177 0.000000 0.000000 0.000000 0.000000 0.000000 0.000000 136.000000 0.723384 0.555309 -0.410302
9.90999985 -15.39999962 -0.61000001 52 104 177 0.000000 0.000000 0.000000 0.000000 0.000000 0.000000 136.000000 0.320199 0.938981 -0.125648
9.89999962 -15.39999962 -0.66000003 52 104 177 0.000000 0.000000 0.000000 0.000000 0.000000 0.000000 136.000000 0.051420 0.851912 -0.521154
9.90999985 -15.42000008 -0.63999999 52 104 177 0.000000 0.000000 0.000000 0.000000 0.000000 0.000000 136.000000 0.459008 0.814780 -0.354183
9.90999985 -15.40999985 -0.68000001 52 104 177 0.000000 0.000000 0.000000 0.000000 0.000000 0.000000 136.000000 0.290078 0.911049 -0.292993
9.90999985 -15.39999962 -0.66000003 52 104 177 0.000000 0.000000 0.000000 0.000000 0.000000 0.000000 136.000000 0.501801 0.771377 -0.391373
9.89999962 -15.39999962 -0.66000003 52 104 177 0.000000 0.000000 0.000000 0.000000 0.000000 0.000000 136.000000 0.051420 0.851912 -0.521154
9.89999962 -15.39000034 -0.64999998 52 104 177 0.000000 0.000000 0.000000 0.000000 0.000000 0.000000 136.000000 0.227370 0.960736 -0.159027
9.92000008 -15.42000008 -0.69000000 52 104 177 0.000000 0.000000 0.000000 0.000000 0.000000 0.000000 136.000000 0.442535 0.772394 -0.455598
9.90999985 -15.40999985 -0.69000000 52 104 177 0.000000 0.000000 0.000000 0.000000 0.000000 0.000000 136.000000 0.208703 0.965737 -0.154259
9.90999985 -15.42000008 -0.75999999 52 104 177 0.000000 0.000000 0.000000 0.000000 0.000000 0.000000 136.000000 0.369692 0.779744 -0.505300
9.89000034 -15.42000008 -0.73000002 52 104 177 0.000000 0.000000 0.000000 0.000000 0.000000 0.000000 136.000000 0.035364 0.969464 -0.242671
9.92000008 -15.42000008 -0.81999999 52 104 177 0.000000 0.000000 0.000000 0.000000 0.000000 0.000000 136.000000 0.402679 0.891752 -0.206465
9.92000008 -15.42000008 -0.76999998 52 104 177 0.000000 0.000000 0.000000 0.000000 0.000000 0.000000 136.000000 0.142096 0.851110 -0.505392
9.90999985 -15.42000008 -0.76999998 52 104 177 0.000000 0.000000 0.000000 0.000000 0.000000 0.000000 136.000000 0.230699 0.794286 -0.562039
9.93999958 -15.43000031 -0.63000000 52 104 177 0.000000 0.000000 0.000000 0.000000 0.000000 0.000000 136.000000 0.511522 0.704801 -0.491528
9.96000004 -15.44999981 -0.61000001 52 104 177 0.000000 0.000000 0.000000 0.000000 0.000000 0.000000 136.000000 0.922630 0.279802 -0.265453
9.93999958 -15.46000004 -0.70999998 52 104 177 0.000000 0.000000 0.000000 0.000000 0.000000 0.000000 136.000000 0.747495 0.520782 -0.412355
9.94999981 -15.43999958 -0.69000000 52 104 177 0.000000 0.000000 0.000000 0.000000 0.000000 0.000000 136.000000 0.567899 0.740384 -0.359615
9.93000031 -15.43999958 -0.69999999 52 104 177 0.000000 0.000000 0.000000 0.000000 0.000000 0.000000 136.000000 0.377984 0.867680 -0.322893
9.93999958 -15.44999981 -0.75999999 52 104 177 0.000000 0.000000 0.000000 0.000000 0.000000 0.000000 136.000000 0.586448 0.705390 -0.398124
9.93000031 -15.43999958 -0.75000000 52 104 177 0.000000 0.000000 0.000000 0.000000 0.000000 0.000000 136.000000 0.408031 0.904399 -0.124793
9.94999981 -15.44999981 -0.74000001 52 104 177 0.000000 0.000000 0.000000 0.000000 0.000000 0.000000 136.000000 0.848795 0.381569 -0.365994
9.94999981 -15.43999958 -0.74000001 52 104 177 0.000000 0.000000 0.000000 0.000000 0.000000 0.000000 136.000000 0.543844 0.681060 -0.490296
9.93000031 -15.43000031 -0.74000001 52 104 177 0.000000 0.000000 0.000000 0.000000 0.000000 0.000000 136.000000 0.674301 0.651444 -0.347763
9.93999958 -15.43999958 -0.75999999 52 104 177 0.000000 0.000000 0.000000 0.000000 0.000000 0.000000 136.000000 0.473325 0.879424 0.050762
9.94999981 -15.44999981 -0.74000001 52 104 177 0.000000 0.000000 0.000000 0.000000 0.000000 0.000000 136.000000 0.848795 0.381569 -0.365994
9.94999981 -15.47999954 -0.75999999 52 104 177 0.000000 0.000000 0.000000 0.000000 0.000000 0.000000 136.000000 0.683216 0.644082 -0.344054
9.92000008 -15.43000031 -0.81999999 52 104 177 0.000000 0.000000 0.000000 0.000000 0.000000 0.000000 136.000000 0.368719 0.870545 -0.325880
9.93000031 -15.44999981 -0.85000002 52 104 177 0.000000 0.000000 0.000000 0.000000 0.000000 0.000000 136.000000 0.491349 0.754278 -0.435477
9.92000008 -15.43000031 -0.81999999 52 104 177 0.000000 0.000000 0.000000 0.000000 0.000000 0.000000 136.000000 0.368719 0.870545 -0.325880
9.93000031 -15.43999958 -0.85000002 52 104 177 0.000000 0.000000 0.000000 0.000000 0.000000 0.000000 136.000000 0.490217 0.858978 -0.147797
9.89000034 -15.43999958 -0.80000001 52 104 177 0.000000 0.000000 0.000000 0.000000 0.000000 0.000000 136.000000 0.045986 0.963225 -0.264732
9.89000034 -15.43999958 -0.80000001 52 104 177 0.000000 0.000000 0.000000 0.000000 0.000000 0.000000 136.000000 0.045986 0.963225 -0.264732
9.89000034 -15.46000004 -0.85000002 52 104 177 0.000000 0.000000 0.000000 0.000000 0.000000 0.000000 136.000000 0.451219 0.874513 -0.177842
9.88000011 -15.43000031 -0.85000002 52 104 177 0.000000 0.000000 0.000000 0.000000 0.000000 0.000000 136.000000 -0.047579 0.890404 -0.452678
9.90999985 -15.43000031 -0.82999998 52 104 177 0.000000 0.000000 0.000000 0.000000 0.000000 0.000000 136.000000 0.178196 0.910938 -0.372073
9.89000034 -15.43999958 -0.81000000 52 104 177 0.000000 0.000000 0.000000 0.000000 0.000000 0.000000 136.000000 0.079404 0.990829 -0.109325
9.92000008 -15.44999981 -0.89999998 52 104 177 0.000000 0.000000 0.000000 0.000000 0.000000 0.000000 136.000000 0.318017 0.913393 -0.254124
9.93999958 -15.47000027 -0.91000003 52 104 177 0.000000 0.000000 0.000000 0.000000 0.000000 0.000000 136.000000 0.389606 0.803261 -0.450532
9.93999958 -15.48999977 -0.93000001 52 104 177 0.000000 0.000000 0.000000 0.000000 0.000000 0.000000 136.000000 0.790221 0.418542 -0.447630
9.89000034 -15.43999958 -0.87000000 52 104 177 0.000000 0.000000 0.000000 0.000000 0.000000 0.000000 136.000000 0.021446 0.944874 -0.326732
9.90999985 -15.44999981 -0.87000000 52 104 177 0.000000 0.000000 0.000000 0.000000 0.000000 0.000000 136.000000 0.481128 0.811407 -0.331867
9.89999962 -15.44999981 -0.87000000 52 104 177 0.000000 0.000000 0.000000 0.000000 0.000000 0.000000 136.000000 0.118545 0.992948 0.001088
9.90999985 -15.44999981 -0.87000000 52 104 177 0.000000 0.000000 0.000000 0.000000 0.000000 0.000000 136.000000 0.481128 0.811407 -0.331867
9.88000011 -15.44999981 -0.87000000 52 104 177 0.000000 0.000000 0.000000 0.000000 0.000000 0.000000 136.000000 0.006112 0.957099 -0.289697
9.88000011 -15.44999981 -0.87000000 52 104 177 0.000000 0.000000 0.000000 0.000000 0.000000 0.000000 136.000000 0.006112 0.957099 -0.289697
9.88000011 -15.43999958 -0.88000000 52 104 177 0.000000 0.000000 0.000000 0.000000 0.000000 0.000000 136.000000 0.105034 0.993952 -0.032063
9.89999962 -15.47000027 -0.93000001 52 104 177 0.000000 0.000000 0.000000 0.000000 0.000000 0.000000 136.000000 0.453827 0.864219 -0.217178
9.89000034 -15.52000046 -0.88999999 52 104 177 0.000000 0.000000 0.000000 0.000000 0.000000 0.000000 136.000000 0.416203 0.864423 -0.282043
9.90999985 -15.52999973 -0.92000002 52 104 177 0.000000 0.000000 0.000000 0.000000 0.000000 0.000000 136.000000 0.600504 0.693144 -0.398682
9.92000008 -15.44999981 -0.95999998 52 104 177 0.000000 0.000000 0.000000 0.000000 0.000000 0.000000 136.000000 0.330883 0.928428 -0.168932
9.93999958 -15.48999977 -0.94999999 52 104 177 0.000000 0.000000 0.000000 0.000000 0.000000 0.000000 136.000000 0.806995 0.325017 -0.493075
9.94999981 -15.48999977 -0.97000003 52 104 177 0.000000 0.000000 0.000000 0.000000 0.000000 0.000000 136.000000 0.603716 0.781369 -0.158080
9.93000031 -15.48999977 -0.94999999 52 104 177 0.000000 0.000000 0.000000 0.000000 0.000000 0.000000 136.000000 0.479655 0.696920 -0.533136
9.96000004 -15.48999977 -0.95999998 52 104 177 0.000000 0.000000 0.000000 0.000000 0.000000 0.000000 136.000000 0.699023 0.707853 -0.101542
9.93999958 -15.48999977 -0.94000000 52 104 177 0.000000 0.000000 0.000000 0.000000 0.000000 0.000000 136.000000 0.735115 0.547636 -0.399626
9.94999981 -15.50000000 -0.94000000 52 104 177 0.000000 0.000000 0.000000 0.000000 0.000000 0.000000 136.000000 0.864642 0.336335 -0.373194
9.93000031 -15.48999977 -1.00000000 52 104 177 0.000000 0.000000 0.000000 0.000000 0.000000 0.000000 136.000000 0.396735 0.842083 -0.365373
9.94999981 -15.48999977 -1.00999999 52 104 177 0.000000 0.000000 0.000000 0.000000 0.000000 0.000000 136.000000 0.553194 0.821678 -0.137192
9.89000034 -15.46000004 -0.97000003 52 104 177 0.000000 0.000000 0.000000 0.000000 0.000000 0.000000 136.000000 0.057639 0.915524 -0.398112
9.89000034 -15.46000004 -0.94000000 52 104 177 0.000000 0.000000 0.000000 0.000000 0.000000 0.000000 136.000000 0.288141 0.921765 -0.259470
9.89000034 -15.46000004 -0.94000000 52 104 177 0.000000 0.000000 0.000000 0.000000 0.000000 0.000000 136.000000 0.288141 0.921765 -0.259470
9.89000034 -15.44999981 -0.95999998 52 104 177 0.000000 0.000000 0.000000 0.000000 0.000000 0.000000 136.000000 0.378329 0.851629 -0.362760
9.89999962 -15.46000004 -0.99000001 52 104 177 0.000000 0.000000 0.000000 0.000000 0.000000 0.000000 136.000000 0.108135 0.993280 -0.041247
9.89000034 -15.44999981 -1.00000000 52 104 177 0.000000 0.000000 0.000000 0.000000 0.000000 0.000000 136.000000 0.310312 0.904464 -0.292664
9.89999962 -15.47000027 -0.94000000 52 104 177 0.000000 0.000000 0.000000 0.000000 0.000000 0.000000 136.000000 0.506176 0.856054 -0.104677
9.93999958 -15.47000027 -1.07000005 52 104 177 0.000000 0.000000 0.000000 0.000000 0.000000 0.000000 136.000000 0.638504 0.537422 -0.550899
9.93000031 -15.47999954 -1.09000003 52 104 177 0.000000 0.000000 0.000000 0.000000 0.000000 0.000000 136.000000 0.402930 0.820194 -0.406115
9.92000008 -15.48999977 -1.09000003 52 104 177 0.000000 0.000000 0.000000 0.000000 0.000000 0.000000 136.000000 0.690814 0.543619 -0.476712
9.90999985 -15.47999954 -1.07000005 52 104 177 0.000000 0.000000 0.000000 0.000000 0.000000 0.000000 136.000000 0.234923 0.954457 -0.183911
9.90999985 -15.47999954 -1.10000002 52 104 177 0.000000 0.000000 0.000000 0.000000 0.000000 0.000000 136.000000 0.621512 0.658170 -0.424894
9.90999985 -15.47999954 -1.10000002 52 104 177 0.000000 0.000000 0.000000 0.000000 0.000000 0.000000 136.000000 0.621512 0.658170 -0.424894
9.89999962 -15.47999954 -1.11000001 52 104 177 0.000000 0.000000 0.000000 0.000000 0.000000 0.000000 136.000000 0.330637 0.913943 -0.235344
9.89999962 -15.47999954 -1.10000002 52 104 177 0.000000 0.000000 0.000000 0.000000 0.000000 0.000000 136.000000 0.209583 0.946548 -0.245198
9.93999958 -15.52999973 -0.95999998 52 104 177 0.000000 0.000000 0.000000 0.000000 0.000000 0.000000 136.000000 0.685698 0.514693 -0.514693
9.93999958 -15.52999973 -0.95999998 52 104 177 0.000000 0.000000 0.000000 0.000000 0.000000 0.000000 136.000000 0.685698 0.514693 -0.514693
9.93000031 -15.52000046 -1.07000005 52 104 177 0.000000 0.000000 0.000000 0.000000 0.000000 0.000000 136.000000 0.787171 0.344688 -0.511421
9.93000031 -15.51000023 -1.10000002 52 104 177 0.000000 0.000000 0.000000 0.000000 0.000000 0.000000 136.000000 0.641721 0.638387 -0.425036
9.93999958 -15.52000046 -1.07000005 52 104 177 0.000000 0.000000 0.000000 0.000000 0.000000 0.000000 136.000000 0.651809 0.604892 -0.457439
9.93999958 -15.50000000 -1.19000006 52 104 177 0.000000 0.000000 0.000000 0.000000 0.000000 0.000000 136.000000 0.780261 0.565886 -0.266392
9.92000008 -15.50000000 -1.15999997 52 104 177 0.000000 0.000000 0.000000 0.000000 0.000000 0.000000 136.000000 0.627393 0.740607 -0.240579
9.90999985 -15.48999977 -1.14999998 52 104 177 0.000000 0.000000 0.000000 0.000000 0.000000 0.000000 136.000000 0.400751 0.916186 -0.001289
9.92000008 -15.48999977 -1.20000005 52 104 177 0.000000 0.000000 0.000000 0.000000 0.000000 0.000000 136.000000 0.520711 0.845611 -0.117486
9.92000008 -15.50000000 -1.25999999 52 104 177 0.000000 0.000000 0.000000 0.000000 0.000000 0.000000 136.000000 0.579409 0.815008 -0.006849
9.92000008 -15.50000000 -1.26999998 52 104 177 0.000000 0.000000 0.000000 0.000000 0.000000 0.000000 136.000000 0.637617 0.737391 -0.222932
9.88000011 -15.43999958 -1.27999997 52 104 177 0.000000 0.000000 0.000000 0.000000 0.000000 0.000000 136.000000 0.120979 0.991572 0.046356
9.89999962 -15.47000027 -1.20000005 52 104 177 0.000000 0.000000 0.000000 0.000000 0.000000 0.000000 136.000000 0.454248 0.800953 -0.390043
9.89999962 -15.50000000 -1.27999997 52 104 177 0.000000 0.000000 0.000000 0.000000 0.000000 0.000000 136.000000 0.399375 0.850032 -0.343432
9.89000034 -15.47999954 -1.27999997 52 104 177 0.000000 0.000000 0.000000 0.000000 0.000000 0.000000 136.000000 0.350801 0.832169 -0.429456
9.93999958 -15.52000046 -1.16999996 52 104 177 0.000000 0.000000 0.000000 0.000000 0.000000 0.000000 136.000000 0.730616 0.646494 -0.219652
9.96000004 -15.52000046 -1.19000006 52 104 177 0.000000 0.000000 0.000000 0.000000 0.000000 0.000000 136.000000 0.773370 0.384253 -0.504231
9.92000008 -15.52000046 -1.16999996 52 104 177 0.000000 0.000000 0.000000 0.000000 0.000000 0.000000 136.000000 0.734646 0.567756 -0.371414
9.93999958 -15.52999973 -1.19000006 52 104 177 0.000000 0.000000 0.000000 0.000000 0.000000 0.000000 136.000000 0.880945 0.454081 0.133216
9.93000031 -15.52999973 -1.21000004 52 104 177 0.000000 0.000000 0.000000 0.000000 0.000000 0.000000 136.000000 0.799219 0.585698 0.134933
9.93000031 -15.52000046 -1.25000000 52 104 177 0.000000 0.000000 0.000000 0.000000 0.000000 0.000000 136.000000 0.855100 0.518447 -0.004040
9.93000031 -15.52000046 -1.26999998 52 104 177 0.000000 0.000000 0.000000 0.000000 0.000000 0.000000 136.000000 0.827902 0.529314 0.185486
9.90999985 -15.51000023 -1.27999997 52 104 177 0.000000 0.000000 0.000000 0.000000 0.000000 0.000000 136.000000 0.736609 0.629351 -0.247639
9.84000015 -15.42000008 -0.62000000 52 104 177 0.000000 0.000000 0.000000 0.000000 0.000000 0.000000 136.000000 -0.537196 0.828859 0.156248
9.85999966 -15.40999985 -0.66000003 52 104 177 0.000000 0.000000 0.000000 0.000000 0.000000 0.000000 136.000000 -0.284805 0.937772 0.198669
9.75000000 -15.35000038 -0.75000000 52 104 177 0.000000 0.000000 0.000000 0.000000 0.000000 0.000000 136.000000 -0.494697 0.855812 0.151198
9.78999996 -15.42000008 -0.75999999 52 104 177 0.000000 0.000000 0.000000 0.000000 0.000000 0.000000 136.000000 -0.222787 0.974241 -0.034923
9.86999989 -15.42000008 -0.81999999 52 104 177 0.000000 0.000000 0.000000 0.000000 0.000000 0.000000 136.000000 0.102774 0.976974 -0.186975
9.68000031 -15.30000019 -0.72000003 52 104 177 0.000000 0.000000 0.000000 0.000000 0.000000 0.000000 136.000000 -0.522217 0.782522 0.339040
9.68000031 -15.31000042 -0.70999998 52 104 177 0.000000 0.000000 0.000000 0.000000 0.000000 0.000000 136.000000 0.659481 -0.666027 -0.348559
