//X Y Z R G B PointSourceId ScanDirectionFlag NumberOfReturns ReturnNumber GpsTime Intensity Classification Nx Ny Nz
15.27000046 -0.14000000 -1.42999995 100 83 164 97.000000 1.000000 4.000000 1.000000 0.000000 114.000000 238.000000 0.598533 0.474467 0.645476
15.26000023 -0.13000000 -1.37000000 100 83 164 97.000000 1.000000 4.000000 1.000000 0.000000 114.000000 238.000000 0.816848 -0.004091 0.576839
15.27999973 -0.15000001 -1.45000005 100 83 164 97.000000 1.000000 4.000000 1.000000 0.000000 114.000000 238.000000 0.922326 0.351296 0.160952
15.27999973 -0.17000000 -1.37000000 100 83 164 97.000000 1.000000 4.000000 1.000000 0.000000 114.000000 238.000000 0.841347 0.426137 0.332480
15.26000023 -0.13000000 -1.38000000 100 83 164 97.000000 1.000000 4.000000 1.000000 0.000000 114.000000 238.000000 0.850752 0.144965 0.505180
15.35000038 -0.23999999 -1.48000002 100 83 164 97.000000 1.000000 4.000000 1.000000 0.000000 114.000000 238.000000 0.885212 0.223898 0.407761
15.26000023 -0.13000000 -1.50999999 100 83 164 97.000000 1.000000 4.000000 1.000000 0.000000 114.000000 238.000000 0.936191 -0.132184 0.325691
15.36999989 -0.27000001 -1.46000004 100 83 164 97.000000 1.000000 4.000000 1.000000 0.000000 114.000000 238.000000 0.991979 0.044013 0.118496
15.27000046 -0.13000000 -1.47000003 100 83 164 97.000000 1.000000 4.000000 1.000000 0.000000 114.000000 238.000000 0.909109 0.404202 0.100706
15.11999989 -0.04000000 -1.28999996 100 83 164 97.000000 1.000000 4.000000 1.000000 0.000000 114.000000 238.000000 0.416074 0.852256 0.317083
15.17000008 -0.04000000 -1.41999996 100 83 164 97.000000 1.000000 4.000000 1.000000 0.000000 114.000000 238.000000 0.851431 0.387580 0.353336
15.17000008 -0.03000000 -1.41999996 100 83 164 97.000000 1.000000 4.000000 1.000000 0.000000 114.000000 238.000000 0.593771 0.593771 0.543021
15.11999989 -0.02000000 -1.37000000 100 83 164 97.000000 1.000000 4.000000 1.000000 0.000000 114.000000 238.000000 0.400755 0.720699 0.565675
15.14000034 -0.03000000 -1.39999998 100 83 164 97.000000 1.000000 4.000000 1.000000 0.000000 114.000000 238.000000 0.636551 0.646523 0.420489
15.13000011 -0.02000000 -1.42999995 100 83 164 97.000000 1.000000 4.000000 1.000000 0.000000 114.000000 238.000000 0.325541 0.825648 0.460790
15.14999962 -0.02000000 -1.45000005 100 83 164 97.000000 1.000000 4.000000 1.000000 0.000000 114.000000 238.000000 0.573004 0.789232 0.220861
15.11999989 -0.02000000 -1.42999995 100 83 164 97.000000 1.000000 4.000000 1.000000 0.000000 114.000000 238.000000 0.593911 0.798205 0.100688
15.14999962 -0.02000000 -1.42999995 100 83 164 97.000000 1.000000 4.000000 1.000000 0.000000 114.000000 238.000000 0.228634 0.820936 0.523251
15.17000008 -0.07000000 -1.30999994 100 83 164 97.000000 1.000000 4.000000 1.000000 0.000000 114.000000 238.000000 0.322597 0.799341 0.506938
15.18999958 -0.12000000 -1.30999994 100 83 164 97.000000 1.000000 4.000000 1.000000 0.000000 114.000000 238.000000 0.422278 0.787928 0.448164
15.19999981 -0.09000000 -1.34000003 100 83 164 97.000000 1.000000 4.000000 1.000000 0.000000 114.000000 238.000000 0.627352 0.732175 0.265235
15.18999958 -0.09000000 -1.33000004 100 83 164 97.000000 1.000000 4.000000 1.000000 0.000000 114.000000 238.000000 0.725420 0.636528 0.261913
15.19999981 -0.09000000 -1.34000003 100 83 164 97.000000 1.000000 4.000000 1.000000 0.000000 114.000000 238.000000 0.627352 0.732175 0.265235
15.14999962 -0.06000000 -1.32000005 100 83 164 97.000000 1.000000 4.000000 1.000000 0.000000 114.000000 238.000000 0.344604 0.857647 0.381692
15.18000031 -0.07000000 -1.40999997 100 83 164 97.000000 1.000000 4.000000 1.000000 0.000000 114.000000 238.000000 0.427310 0.737480 0.523000
15.14000034 -0.05000000 -1.38999999 100 83 164 97.000000 1.000000 4.000000 1.000000 0.000000 114.000000 238.000000 0.352897 0.861438 0.365225
15.17000008 -0.05000000 -1.39999998 100 83 164 97.000000 1.000000 4.000000 1.000000 0.000000 114.000000 238.000000 0.584543 0.800602 0.131707
15.17000008 -0.05000000 -1.39999998 100 83 164 97.000000 1.000000 4.000000 1.000000 0.000000 114.000000 238.000000 0.584543 0.800602 0.131707
15.17000008 -0.05000000 -1.37000000 100 83 164 97.000000 1.000000 4.000000 1.000000 0.000000 114.000000 238.000000 0.768470 0.518270 0.375299
15.18000031 -0.06000000 -1.38999999 100 83 164 97.000000 1.000000 4.000000 1.000000 0.000000 114.000000 238.000000 0.733422 0.615180 0.289214
15.07999992 -0.02000000 -1.29999995 100 83 164 97.000000 1.000000 4.000000 1.000000 0.000000 114.000000 238.000000 0.205731 0.910684 0.358231
15.09000015 -0.01000000 -1.34000003 100 83 164 97.000000 1.000000 4.000000 1.000000 0.000000 114.000000 238.000000 0.383807 0.915872 0.117775
15.10999966 -0.03000000 -1.36000001 100 83 164 97.000000 1.000000 4.000000 1.000000 0.000000 114.000000 238.000000 0.523088 0.810397 0.263886
15.03999996 0.00000000 -1.28999996 100 83 164 97.000000 1.000000 4.000000 1.000000 0.000000 114.000000 238.000000 -0.116380 0.794033 0.596630
15.10000038 0.00000000 -1.40999997 100 83 164 97.000000 1.000000 4.000000 1.000000 0.000000 114.000000 238.000000 0.202666 0.818283 0.537903
15.09000015 0.00000000 -1.39999998 100 83 164 97.000000 1.000000 4.000000 1.000000 0.000000 114.000000 238.000000 0.392588 0.892513 0.222025
15.09000015 0.00000000 -1.40999997 100 83 164 97.000000 1.000000 4.000000 1.000000 0.000000 114.000000 238.000000 0.225087 0.828381 0.512953
15.07999992 0.00000000 -1.40999997 100 83 164 97.000000 1.000000 4.000000 1.000000 0.000000 114.000000 238.000000 0.296976 0.869608 0.394446
15.09000015 0.00000000 -1.40999997 100 83 164 97.000000 1.000000 4.000000 1.000000 0.000000 114.000000 238.000000 0.225087 0.828381 0.512953
15.10999966 0.01000000 -1.42999995 100 83 164 97.000000 1.000000 4.000000 1.000000 0.000000 114.000000 238.000000 0.284261 0.902859 0.322555
15.07999992 0.02000000 -1.42999995 100 83 164 97.000000 1.000000 4.000000 1.000000 0.000000 114.000000 238.000000 0.554804 0.645867 0.524450
15.10000038 -0.01000000 -1.40999997 100 83 164 97.000000 1.000000 4.000000 1.000000 0.000000 114.000000 238.000000 0.306967 0.836758 0.453439
15.05000019 0.03000000 -1.38999999 100 83 164 97.000000 1.000000 4.000000 1.000000 0.000000 114.000000 238.000000 0.366002 0.912869 0.180865
15.03999996 0.03000000 -1.40999997 100 83 164 97.000000 1.000000 4.000000 1.000000 0.000000 114.000000 238.000000 0.195143 0.918737 0.343280
15.06000042 0.03000000 -1.42999995 100 83 164 97.000000 1.000000 4.000000 1.000000 0.000000 114.000000 238.000000 0.164750 0.943568 0.287291
15.05000019 0.04000000 -1.41999996 100 83 164 97.000000 1.000000 4.000000 1.000000 0.000000 114.000000 238.000000 0.373734 0.922783 0.093773
15.03999996 0.04000000 -1.41999996 100 83 164 97.000000 1.000000 4.000000 1.000000 0.000000 114.000000 238.000000 0.195375 0.952623 0.233103
15.06000042 0.02000000 -1.41999996 100 83 164 97.000000 1.000000 4.000000 1.000000 0.000000 114.000000 238.000000 0.286694 0.887100 0.361745
15.06000042 -0.01000000 -1.38000000 100 83 164 97.000000 1.000000 4.000000 1.000000 0.000000 114.000000 238.000000 0.118291 0.911536 0.393839
15.19999981 0.00000000 -1.52999997 100 83 164 97.000000 1.000000 4.000000 1.000000 0.000000 114.000000 238.000000 0.288250 0.852418 0.436228
15.18999958 0.00000000 -1.52999997 100 83 164 97.000000 1.000000 4.000000 1.000000 0.000000 114.000000 238.000000 0.330096 0.836973 0.436478
15.18999958 0.00000000 -1.51999998 100 83 164 97.000000 1.000000 4.000000 1.000000 0.000000 114.000000 238.000000 0.481900 0.619586 0.619586
15.17000008 0.00000000 -1.50999999 100 83 164 97.000000 1.000000 4.000000 1.000000 0.000000 114.000000 238.000000 0.621931 0.749746 0.226015
15.19999981 -0.02000000 -1.49000001 100 83 164 97.000000 1.000000 4.000000 1.000000 0.000000 114.000000 238.000000 0.669709 0.659932 0.340558
15.18000031 -0.03000000 -1.47000003 100 83 164 97.000000 1.000000 4.000000 1.000000 0.000000 114.000000 238.000000 0.407052 0.828359 0.384878
15.18000031 -0.01000000 -1.49000001 100 83 164 97.000000 1.000000 4.000000 1.000000 0.000000 114.000000 238.000000 0.591893 0.713223 0.375467
15.18999958 -0.04000000 -1.46000004 100 83 164 97.000000 1.000000 4.000000 1.000000 0.000000 114.000000 238.000000 0.406583 0.735800 0.541562
15.18999958 -0.01000000 -1.51999998 100 83 164 97.000000 1.000000 4.000000 1.000000 0.000000 114.000000 238.000000 0.492452 0.633633 0.596657
15.18999958 -0.01000000 -1.50999999 100 83 164 97.000000 1.000000 4.000000 1.000000 0.000000 114.000000 238.000000 0.721653 0.479443 0.499351
15.14000034 0.00000000 -1.48000002 100 83 164 97.000000 1.000000 4.000000 1.000000 0.000000 114.000000 238.000000 0.532037 0.806637 0.257437
15.15999985 0.00000000 -1.49000001 100 83 164 97.000000 1.000000 4.000000 1.000000 0.000000 114.000000 238.000000 0.249885 0.755943 0.605068
15.14000034 0.00000000 -1.46000004 100 83 164 97.000000 1.000000 4.000000 1.000000 0.000000 114.000000 238.000000 0.559523 0.730169 0.392158
15.14999962 -0.01000000 -1.48000002 100 83 164 97.000000 1.000000 4.000000 1.000000 0.000000 114.000000 238.000000 0.718619 0.632193 0.289688
15.15999985 -0.02000000 -1.47000003 100 83 164 97.000000 1.000000 4.000000 1.000000 0.000000 114.000000 238.000000 0.596968 0.798355 0.079116
15.15999985 -0.02000000 -1.48000002 100 83 164 97.000000 1.000000 4.000000 1.000000 0.000000 114.000000 238.000000 0.754897 0.649767 0.089069
15.18999958 -0.05000000 -1.48000002 100 83 164 97.000000 1.000000 4.000000 1.000000 0.000000 114.000000 238.000000 0.724556 0.687399 0.050019
15.35999966 -0.01000000 -1.65999997 100 83 164 97.000000 1.000000 4.000000 1.000000 0.000000 114.000000 238.000000 0.777202 0.161477 0.608179
15.35999966 -0.01000000 -1.65999997 100 83 164 97.000000 1.000000 4.000000 1.000000 0.000000 114.000000 238.000000 0.777202 0.161477 0.608179
15.35999966 -0.02000000 -1.66999996 100 83 164 97.000000 1.000000 4.000000 1.000000 0.000000 114.000000 238.000000 0.735463 0.216130 0.642170
15.32999992 -0.04000000 -1.64999998 100 83 164 97.000000 1.000000 4.000000 1.000000 0.000000 114.000000 238.000000 0.929523 0.183109 0.320091
15.30000019 -0.08000000 -1.63000000 100 83 164 97.000000 1.000000 4.000000 1.000000 0.000000 114.000000 238.000000 0.824914 0.318967 0.466666
15.27000046 0.04000000 -1.63999999 100 83 164 97.000000 1.000000 4.000000 1.000000 0.000000 114.000000 238.000000 0.543396 0.651066 0.529937
15.27999973 0.04000000 -1.63999999 100 83 164 97.000000 1.000000 4.000000 1.000000 0.000000 114.000000 238.000000 0.809726 0.266788 0.522655
15.27000046 0.04000000 -1.63999999 100 83 164 97.000000 1.000000 4.000000 1.000000 0.000000 114.000000 238.000000 0.543396 0.651066 0.529937
15.27999973 0.02000000 -1.63000000 100 83 164 97.000000 1.000000 4.000000 1.000000 0.000000 114.000000 238.000000 0.693322 0.512891 0.506209
15.35000038 -0.34000000 -1.32000005 100 83 164 97.000000 1.000000 4.000000 1.000000 0.000000 114.000000 238.000000 0.881132 -0.025560 0.472179
15.34000015 -0.34000000 -1.30999994 100 83 164 97.000000 1.000000 4.000000 1.000000 0.000000 114.000000 238.000000 0.863600 0.051125 0.501579
15.35000038 -0.37000000 -1.33000004 100 83 164 97.000000 1.000000 4.000000 1.000000 0.000000 114.000000 238.000000 0.949438 -0.237699 0.205100
15.35999966 -0.36000001 -1.34000003 100 83 164 97.000000 1.000000 4.000000 1.000000 0.000000 114.000000 238.000000 0.861101 -0.137950 0.489361
15.35999966 -0.36000001 -1.34000003 100 83 164 97.000000 1.000000 4.000000 1.000000 0.000000 114.000000 238.000000 0.861101 -0.137950 0.489361
15.35999966 -0.36000001 -1.33000004 100 83 164 97.000000 1.000000 4.000000 1.000000 0.000000 114.000000 238.000000 0.889513 -0.163439 0.426677
15.31999969 -0.31000000 -1.28999996 100 83 164 97.000000 1.000000 4.000000 1.000000 0.000000 114.000000 238.000000 0.781872 0.023693 0.622989
15.35999966 -0.34999999 -1.38000000 100 83 164 97.000000 1.000000 4.000000 1.000000 0.000000 114.000000 238.000000 0.803931 -0.233899 0.546797
15.36999989 -0.31000000 -1.42999995 100 83 164 97.000000 1.000000 4.000000 1.000000 0.000000 114.000000 238.000000 0.901290 0.055568 0.429638
15.36999989 -0.41000000 -1.36000001 100 83 164 97.000000 1.000000 4.000000 1.000000 0.000000 114.000000 238.000000 -0.765343 0.588604 -0.260374
15.35999966 -0.38999999 -1.36000001 100 83 164 97.000000 1.000000 4.000000 1.000000 0.000000 114.000000 238.000000 0.846848 -0.388334 0.363380
15.32999992 -0.40000001 -1.29999995 100 83 164 97.000000 1.000000 4.000000 1.000000 0.000000 114.000000 238.000000 0.860147 -0.335102 0.384518
15.34000015 -0.46000001 -1.38000000 100 83 164 97.000000 1.000000 4.000000 1.000000 0.000000 114.000000 238.000000 0.760355 -0.556948 0.334169
15.36999989 -0.38999999 -1.37000000 100 83 164 97.000000 1.000000 4.000000 1.000000 0.000000 114.000000 238.000000 0.888048 -0.366900 0.277047
15.35000038 -0.47999999 -1.39999998 100 83 164 97.000000 1.000000 4.000000 1.000000 0.000000 114.000000 238.000000 -0.693505 0.702610 -0.159339
15.35999966 -0.47999999 -1.38999999 100 83 164 97.000000 1.000000 4.000000 1.000000 0.000000 114.000000 238.000000 0.781160 -0.618841 0.082609
14.80000019 0.05000000 -1.02999997 100 83 164 97.000000 1.000000 4.000000 1.000000 0.000000 114.000000 117.000000 -0.010462 0.979987 0.198787
14.76000023 0.05000000 -1.12000000 100 83 164 97.000000 1.000000 4.000000 1.000000 0.000000 114.000000 117.000000 0.078772 0.980403 0.180569
14.77000046 0.08000000 -1.20000005 100 83 164 97.000000 1.000000 4.000000 1.000000 0.000000 114.000000 117.000000 0.005929 0.971163 0.238344
14.97999954 0.05000000 -1.42999995 100 83 164 97.000000 1.000000 4.000000 1.000000 0.000000 114.000000 238.000000 0.198556 0.758822 0.620294
14.97999954 0.05000000 -1.42999995 100 83 164 97.000000 1.000000 4.000000 1.000000 0.000000 114.000000 238.000000 0.198556 0.758822 0.620294
15.00000000 0.07000000 -1.51999998 100 83 164 97.000000 1.000000 4.000000 1.000000 0.000000 114.000000 238.000000 -0.011204 0.949861 0.312471
15.00000000 0.07000000 -1.51999998 100 83 164 97.000000 1.000000 4.000000 1.000000 0.000000 114.000000 238.000000 -0.011204 0.949861 0.312471
14.97999954 0.07000000 -1.47000003 100 83 164 97.000000 1.000000 4.000000 1.000000 0.000000 114.000000 238.000000 -0.097323 0.809085 0.579578
14.96000004 0.08000000 -1.52999997 100 83 164 97.000000 1.000000 4.000000 1.000000 0.000000 114.000000 238.000000 0.290799 0.881437 0.372162
14.97000027 0.05000000 -1.50999999 100 83 164 97.000000 1.000000 4.000000 1.000000 0.000000 114.000000 238.000000 0.003997 0.875279 0.483602
14.97999954 0.07000000 -1.51999998 100 83 164 97.000000 1.000000 4.000000 1.000000 0.000000 114.000000 238.000000 0.238131 0.792213 0.561864
15.01000023 0.10000000 -1.57000005 100 83 164 97.000000 1.000000 4.000000 1.000000 0.000000 114.000000 238.000000 0.252946 0.774549 0.579734
15.01000023 0.06000000 -1.54999995 100 83 164 97.000000 1.000000 4.000000 1.000000 0.000000 114.000000 238.000000 0.357709 0.903763 0.235066
15.00000000 0.08000000 -1.54999995 100 83 164 97.000000 1.000000 4.000000 1.000000 0.000000 114.000000 238.000000 0.247300 0.729298 0.637939
14.97000027 0.09000000 -1.57000005 100 83 164 97.000000 1.000000 4.000000 1.000000 0.000000 114.000000 238.000000 -0.222705 0.745984 0.627623
14.93999958 0.07000000 -1.54999995 100 83 164 97.000000 1.000000 4.000000 1.000000 0.000000 114.000000 238.000000 0.491528 -0.704801 -0.511522
14.90999985 0.09000000 -1.54999995 100 83 164 97.000000 1.000000 4.000000 1.000000 0.000000 114.000000 238.000000 -0.515649 0.742996 0.426687
14.90999985 0.06000000 -1.58000004 100 83 164 97.000000 1.000000 4.000000 1.000000 0.000000 114.000000 238.000000 -0.426150 0.698089 0.575385
14.89999962 0.09000000 -1.60000002 100 83 164 97.000000 1.000000 4.000000 1.000000 0.000000 114.000000 238.000000 -0.502832 0.640733 0.580191
15.01000023 -0.11000000 -0.69000000 100 83 164 97.000000 1.000000 4.000000 1.000000 0.000000 114.000000 238.000000 0.499766 0.523166 0.690312
14.96000004 -0.10000000 -0.88999999 100 83 164 97.000000 1.000000 4.000000 1.000000 0.000000 114.000000 238.000000 0.447637 0.882320 0.145374
14.96000004 -0.09000000 -0.89999998 100 83 164 97.000000 1.000000 4.000000 1.000000 0.000000 114.000000 238.000000 0.467456 0.611546 0.638354
14.88000011 -0.09000000 -0.86000001 100 83 164 97.000000 1.000000 4.000000 1.000000 0.000000 114.000000 238.000000 0.322893 0.867680 0.377984
14.93999958 -0.12000000 -0.87000000 100 83 164 97.000000 1.000000 4.000000 1.000000 0.000000 114.000000 238.000000 0.310775 0.887284 0.340801
14.97999954 -0.13000000 -0.63999999 100 83 164 97.000000 1.000000 4.000000 1.000000 0.000000 114.000000 238.000000 0.258425 0.824794 0.502923
14.94999981 -0.14000000 -0.68000001 100 83 164 97.000000 1.000000 4.000000 1.000000 0.000000 114.000000 238.000000 0.150329 0.862566 0.483095
15.02000046 -0.16000000 -0.72000003 100 83 164 97.000000 1.000000 4.000000 1.000000 0.000000 114.000000 238.000000 0.522052 0.837365 0.162119
14.93999958 -0.14000000 -0.61000001 100 83 164 97.000000 1.000000 4.000000 1.000000 0.000000 114.000000 238.000000 0.482650 0.778415 0.401396
14.92000008 -0.18000001 -0.66000003 100 83 164 97.000000 1.000000 4.000000 1.000000 0.000000 114.000000 238.000000 0.144019 0.818085 0.556773
14.89999962 -0.17000000 -0.64999998 100 83 164 97.000000 1.000000 4.000000 1.000000 0.000000 114.000000 238.000000 0.206064 0.655378 0.726648
14.88000011 -0.19000000 -0.66000003 100 83 164 97.000000 1.000000 4.000000 1.000000 0.000000 114.000000 238.000000 0.347134 0.705677 0.617671
14.89999962 -0.18000001 -0.63999999 100 83 164 97.000000 1.000000 4.000000 1.000000 0.000000 114.000000 238.000000 0.445041 0.845114 0.296177
14.93999958 -0.14000000 -0.70999998 100 83 164 97.000000 1.000000 4.000000 1.000000 0.000000 114.000000 238.000000 0.542893 0.810494 0.219925
14.93999958 -0.16000000 -0.73000002 100 83 164 97.000000 1.000000 4.000000 1.000000 0.000000 114.000000 238.000000 0.471711 0.751122 0.461849
14.89999962 -0.19000000 -0.70999998 100 83 164 97.000000 1.000000 4.000000 1.000000 0.000000 114.000000 238.000000 -0.016117 0.953403 0.301270
14.86999989 -0.22000000 -0.75999999 100 83 164 97.000000 1.000000 4.000000 1.000000 0.000000 114.000000 238.000000 0.430879 0.889139 0.154194
15.02000046 -0.13000000 -0.79000002 100 83 164 97.000000 1.000000 4.000000 1.000000 0.000000 114.000000 238.000000 0.384046 0.637879 0.667547
15.00000000 -0.13000000 -0.81000000 100 83 164 97.000000 1.000000 4.000000 1.000000 0.000000 114.000000 238.000000 0.492897 0.802353 0.336574
14.92000008 -0.15000001 -0.81999999 100 83 164 97.000000 1.000000 4.000000 1.000000 0.000000 114.000000 238.000000 0.151960 0.878472 0.452985
14.89999962 -0.13000000 -0.85000002 100 83 164 97.000000 1.000000 4.000000 1.000000 0.000000 114.000000 238.000000 0.394695 0.678744 0.619292
14.86999989 -0.19000000 -0.77999997 100 83 164 97.000000 1.000000 4.000000 1.000000 0.000000 114.000000 238.000000 0.045639 0.994033 0.099069
14.86999989 -0.17000000 -0.87000000 100 83 164 97.000000 1.000000 4.000000 1.000000 0.000000 114.000000 238.000000 0.090993 0.945536 0.312541
14.88000011 -0.17000000 -0.88000000 100 83 164 97.000000 1.000000 4.000000 1.000000 0.000000 114.000000 238.000000 0.130277 0.982556 0.132712
14.89999962 -0.15000001 -0.92000002 100 83 164 97.000000 1.000000 4.000000 1.000000 0.000000 114.000000 238.000000 0.239746 0.763114 0.600149
14.86999989 -0.20000000 -0.88000000 100 83 164 97.000000 1.000000 4.000000 1.000000 0.000000 114.000000 238.000000 -0.285228 0.900018 0.329563
14.77999973 0.03000000 -0.92000002 100 83 164 97.000000 1.000000 4.000000 1.000000 0.000000 114.000000 117.000000 -0.056508 0.931719 0.358758
14.77000046 0.03000000 -0.92000002 100 83 164 97.000000 1.000000 4.000000 1.000000 0.000000 114.000000 117.000000 -0.030375 0.991130 0.129376
14.77000046 0.02000000 -0.89999998 100 83 164 97.000000 1.000000 4.000000 1.000000 0.000000 114.000000 117.000000 0.210549 0.963819 0.163470
14.85000038 -0.19000000 -0.67000002 100 83 164 97.000000 1.000000 4.000000 1.000000 0.000000 114.000000 238.000000 0.259921 0.961580 0.088348
14.78999996 -0.25000000 -0.63000000 100 83 164 97.000000 1.000000 4.000000 1.000000 0.000000 114.000000 238.000000 -0.323499 0.876334 0.356913
14.80000019 -0.25000000 -0.68000001 100 83 164 97.000000 1.000000 4.000000 1.000000 0.000000 114.000000 238.000000 0.099657 0.921482 0.375419
14.81000042 -0.23999999 -0.63999999 100 83 164 97.000000 1.000000 4.000000 1.000000 0.000000 114.000000 238.000000 -0.104879 0.692791 0.713471
14.78999996 -0.25000000 -0.64999998 100 83 164 97.000000 1.000000 4.000000 1.000000 0.000000 114.000000 238.000000 0.165962 0.977052 0.133518
14.81000042 -0.25000000 -0.66000003 100 83 164 97.000000 1.000000 4.000000 1.000000 0.000000 114.000000 238.000000 -0.060569 0.832468 0.550753
14.85000038 -0.22000000 -0.72000003 100 83 164 97.000000 1.000000 4.000000 1.000000 0.000000 114.000000 238.000000 -0.176813 0.941634 0.286465
14.81999969 -0.23000000 -0.70999998 100 83 164 97.000000 1.000000 4.000000 1.000000 0.000000 114.000000 238.000000 -0.133518 0.977052 0.165962
14.81999969 -0.25000000 -0.75000000 100 83 164 97.000000 1.000000 4.000000 1.000000 0.000000 114.000000 238.000000 0.384127 0.886332 0.258576
14.80000019 -0.23000000 -0.74000001 100 83 164 97.000000 1.000000 4.000000 1.000000 0.000000 114.000000 238.000000 -0.143630 0.949033 0.280549
14.81000042 -0.23000000 -0.74000001 100 83 164 97.000000 1.000000 4.000000 1.000000 0.000000 114.000000 238.000000 0.069604 0.995443 0.065184
14.76000023 -0.19000000 -0.74000001 100 83 164 97.000000 1.000000 4.000000 1.000000 0.000000 114.000000 238.000000 0.181322 0.926290 0.330316
14.69999981 -0.30000001 -0.67000002 100 83 164 97.000000 1.000000 4.000000 1.000000 0.000000 114.000000 238.000000 -0.490351 0.864905 0.107220
14.77000046 -0.25000000 -0.63000000 100 83 164 97.000000 1.000000 4.000000 1.000000 0.000000 114.000000 238.000000 0.022820 0.884600 0.465791
14.75000000 -0.25999999 -0.68000001 100 83 164 97.000000 1.000000 4.000000 1.000000 0.000000 114.000000 238.000000 0.180556 0.793537 0.581118
14.84000015 -0.20000000 -0.83999997 100 83 164 97.000000 1.000000 4.000000 1.000000 0.000000 114.000000 238.000000 0.451900 0.750976 0.481479
14.85000038 -0.16000000 -0.89999998 100 83 164 97.000000 1.000000 4.000000 1.000000 0.000000 114.000000 238.000000 0.095142 0.933995 0.344386
14.81999969 -0.15000001 -0.93000001 100 83 164 97.000000 1.000000 4.000000 1.000000 0.000000 114.000000 238.000000 0.114459 0.917051 0.381990
14.80000019 -0.23999999 -0.76999998 100 83 164 97.000000 1.000000 4.000000 1.000000 0.000000 114.000000 238.000000 0.128871 0.961976 0.240819
14.81000042 -0.23999999 -0.77999997 100 83 164 97.000000 1.000000 4.000000 1.000000 0.000000 114.000000 238.000000 -0.187982 0.942655 0.275799
14.80000019 -0.23999999 -0.81999999 100 83 164 97.000000 1.000000 4.000000 1.000000 0.000000 114.000000 238.000000 -0.415161 0.841289 0.346229
14.80000019 -0.23999999 -0.81999999 100 83 164 97.000000 1.000000 4.000000 1.000000 0.000000 114.000000 238.000000 -0.415161 0.841289 0.346229
14.80000019 -0.25000000 -0.81000000 100 83 164 97.000000 1.000000 4.000000 1.000000 0.000000 114.000000 238.000000 0.221986 0.906804 0.358369
14.78999996 -0.25000000 -0.81000000 100 83 164 97.000000 1.000000 4.000000 1.000000 0.000000 114.000000 238.000000 -0.165901 0.911747 0.375759
14.81000042 -0.30000001 -0.80000001 100 83 164 97.000000 1.000000 4.000000 1.000000 0.000000 114.000000 238.000000 -0.252494 0.962552 0.098690
14.77999973 -0.23000000 -0.91000003 100 83 164 97.000000 1.000000 4.000000 1.000000 0.000000 114.000000 238.000000 -0.145079 0.978355 0.147559
14.78999996 -0.25000000 -0.89999998 100 83 164 97.000000 1.000000 4.000000 1.000000 0.000000 114.000000 238.000000 -0.082854 0.962382 0.258760
14.77999973 -0.23000000 -0.91000003 100 83 164 97.000000 1.000000 4.000000 1.000000 0.000000 114.000000 238.000000 -0.145079 0.978355 0.147559
14.78999996 -0.25999999 -0.86000001 100 83 164 97.000000 1.000000 4.000000 1.000000 0.000000 114.000000 238.000000 0.004159 0.702929 0.711248
14.76000023 -0.28000000 -0.82999998 100 83 164 97.000000 1.000000 4.000000 1.000000 0.000000 114.000000 238.000000 -0.116638 0.984805 0.128662
14.77000046 -0.28000000 -0.85000002 100 83 164 97.000000 1.000000 4.000000 1.000000 0.000000 114.000000 238.000000 -0.225717 0.927001 0.299536
14.72999954 -0.30000001 -0.85000002 100 83 164 97.000000 1.000000 4.000000 1.000000 0.000000 114.000000 238.000000 0.529509 -0.777365 -0.339594
14.76000023 -0.27000001 -0.89999998 100 83 164 97.000000 1.000000 4.000000 1.000000 0.000000 114.000000 238.000000 -0.514597 0.771085 0.374991
14.96000004 -0.09000000 -1.01999998 100 83 164 97.000000 1.000000 4.000000 1.000000 0.000000 114.000000 238.000000 0.307638 0.939322 0.151768
14.92000008 -0.09000000 -0.95999998 100 83 164 97.000000 1.000000 4.000000 1.000000 0.000000 114.000000 238.000000 0.197081 0.932289 0.303308
15.00000000 -0.01000000 -1.19000006 100 83 164 97.000000 1.000000 4.000000 1.000000 0.000000 114.000000 238.000000 -0.189674 0.814839 0.547778
14.93000031 -0.06000000 -1.25999999 100 83 164 97.000000 1.000000 4.000000 1.000000 0.000000 114.000000 238.000000 -0.230123 0.883374 0.408282
14.93000031 -0.05000000 -1.25999999 100 83 164 97.000000 1.000000 4.000000 1.000000 0.000000 114.000000 238.000000 -0.323610 0.836384 0.442424
14.92000008 -0.05000000 -1.26999998 100 83 164 97.000000 1.000000 4.000000 1.000000 0.000000 114.000000 238.000000 -0.365892 0.788198 0.494840
14.88000011 -0.10000000 -1.25999999 100 83 164 97.000000 1.000000 4.000000 1.000000 0.000000 114.000000 238.000000 0.151900 0.971394 0.182535
14.89000034 -0.14000000 -0.94999999 100 83 164 97.000000 1.000000 4.000000 1.000000 0.000000 114.000000 238.000000 0.304140 0.837556 0.453871
14.80000019 0.04000000 -1.10000002 100 83 164 97.000000 1.000000 4.000000 1.000000 0.000000 114.000000 117.000000 0.142854 0.951914 0.271022
14.84000015 -0.17000000 -0.99000001 100 83 164 97.000000 1.000000 4.000000 1.000000 0.000000 114.000000 238.000000 -0.026475 0.801222 0.597781
14.84000015 -0.17000000 -1.00999999 100 83 164 97.000000 1.000000 4.000000 1.000000 0.000000 114.000000 238.000000 0.149792 0.955750 0.253188
14.84000015 -0.18000001 -0.98000002 100 83 164 97.000000 1.000000 4.000000 1.000000 0.000000 114.000000 238.000000 0.119546 0.783691 0.609538
14.82999992 -0.18000001 -0.95999998 100 83 164 97.000000 1.000000 4.000000 1.000000 0.000000 114.000000 238.000000 0.345881 0.883582 0.315673
14.81999969 -0.20000000 -0.97000003 100 83 164 97.000000 1.000000 4.000000 1.000000 0.000000 114.000000 238.000000 0.006762 0.845309 0.534235
14.81999969 -0.19000000 -1.01999998 100 83 164 97.000000 1.000000 4.000000 1.000000 0.000000 114.000000 238.000000 -0.059418 0.930877 0.360467
14.81999969 -0.19000000 -1.01999998 100 83 164 97.000000 1.000000 4.000000 1.000000 0.000000 114.000000 238.000000 -0.059418 0.930877 0.360467
14.82999992 -0.16000000 -1.02999997 100 83 164 97.000000 1.000000 4.000000 1.000000 0.000000 114.000000 238.000000 0.265045 0.943451 0.199127
14.82999992 -0.20999999 -1.03999996 100 83 164 97.000000 1.000000 4.000000 1.000000 0.000000 114.000000 238.000000 -0.295867 0.821852 0.486849
14.81999969 -0.18000001 -1.04999995 100 83 164 97.000000 1.000000 4.000000 1.000000 0.000000 114.000000 238.000000 -0.001173 0.974588 0.224003
14.81999969 -0.18000001 -1.04999995 100 83 164 97.000000 1.000000 4.000000 1.000000 0.000000 114.000000 238.000000 -0.001173 0.974588 0.224003
14.82999992 -0.19000000 -1.07000005 100 83 164 97.000000 1.000000 4.000000 1.000000 0.000000 114.000000 238.000000 0.054571 0.976221 0.209797
14.78999996 -0.20999999 -1.05999994 100 83 164 97.000000 1.000000 4.000000 1.000000 0.000000 114.000000 238.000000 -0.089583 0.905475 0.414837
14.80000019 -0.20999999 -1.08000004 100 83 164 97.000000 1.000000 4.000000 1.000000 0.000000 114.000000 238.000000 0.040358 0.930829 0.363219
14.77999973 -0.23000000 -0.94000000 100 83 164 97.000000 1.000000 4.000000 1.000000 0.000000 114.000000 238.000000 -0.237242 0.927659 0.288384
14.78999996 -0.22000000 -1.01999998 100 83 164 97.000000 1.000000 4.000000 1.000000 0.000000 114.000000 238.000000 -0.006348 0.933196 0.359312
14.76000023 -0.28000000 -0.95999998 100 83 164 97.000000 1.000000 4.000000 1.000000 0.000000 114.000000 238.000000 -0.416347 0.698335 0.582222
14.73999977 -0.28999999 -0.99000001 100 83 164 97.000000 1.000000 4.000000 1.000000 0.000000 114.000000 238.000000 -0.202708 0.977124 0.064332
14.75000000 -0.28000000 -1.03999996 100 83 164 97.000000 1.000000 4.000000 1.000000 0.000000 114.000000 238.000000 -0.251133 0.962032 0.106892
14.72999954 -0.25999999 -1.02999997 100 83 164 97.000000 1.000000 4.000000 1.000000 0.000000 114.000000 238.000000 -0.328788 0.781072 0.530872
14.72999954 -0.25999999 -1.02999997 100 83 164 97.000000 1.000000 4.000000 1.000000 0.000000 114.000000 238.000000 -0.328788 0.781072 0.530872
14.81999969 -0.15000001 -1.12000000 100 83 164 97.000000 1.000000 4.000000 1.000000 0.000000 114.000000 238.000000 -0.117649 0.914896 0.386166
14.85000038 -0.13000000 -1.13999999 100 83 164 97.000000 1.000000 4.000000 1.000000 0.000000 114.000000 238.000000 0.207342 0.886716 0.413213
14.76000023 -0.31999999 -0.64999998 100 83 164 97.000000 1.000000 4.000000 1.000000 0.000000 114.000000 238.000000 0.127642 0.990085 0.058646
14.73999977 -0.36000001 -0.68000001 100 83 164 97.000000 1.000000 4.000000 1.000000 0.000000 114.000000 238.000000 -0.085592 0.876970 0.472862
14.72999954 -0.36000001 -0.60000002 100 83 164 97.000000 1.000000 4.000000 1.000000 0.000000 114.000000 238.000000 0.185111 0.772570 0.607347
14.73999977 -0.36000001 -0.75999999 100 83 164 97.000000 1.000000 4.000000 1.000000 0.000000 114.000000 238.000000 -0.294674 0.955533 0.011097
14.72999954 -0.31000000 -0.73000002 100 83 164 97.000000 1.000000 4.000000 1.000000 0.000000 114.000000 238.000000 -0.231439 0.894799 0.381800
14.72999954 -0.36000001 -0.69000000 100 83 164 97.000000 1.000000 4.000000 1.000000 0.000000 114.000000 238.000000 -0.178878 0.861865 0.474543
14.72999954 -0.34999999 -0.69999999 100 83 164 97.000000 1.000000 4.000000 1.000000 0.000000 114.000000 238.000000 -0.467536 0.756259 0.457693
14.72000027 -0.37000000 -0.69000000 100 83 164 97.000000 1.000000 4.000000 1.000000 0.000000 114.000000 238.000000 0.391277 -0.668638 -0.632317
14.72000027 -0.36000001 -0.69000000 100 83 164 97.000000 1.000000 4.000000 1.000000 0.000000 114.000000 238.000000 -0.515711 0.844826 0.142518
14.72999954 -0.38000000 -0.72000003 100 83 164 97.000000 1.000000 4.000000 1.000000 0.000000 114.000000 238.000000 -0.118801 0.992913 -0.003270
14.72000027 -0.36000001 -0.70999998 100 83 164 97.000000 1.000000 4.000000 1.000000 0.000000 114.000000 238.000000 -0.199340 0.956564 0.212718
14.73999977 -0.40000001 -0.67000002 100 83 164 97.000000 1.000000 4.000000 1.000000 0.000000 114.000000 238.000000 -0.174785 0.782734 0.597309
14.71000004 -0.41000000 -0.60000002 100 83 164 97.000000 1.000000 4.000000 1.000000 0.000000 114.000000 238.000000 0.135405 0.784161 0.605604
14.71000004 -0.41000000 -0.61000001 100 83 164 97.000000 1.000000 4.000000 1.000000 0.000000 114.000000 238.000000 0.096564 0.923480 0.371296
14.71000004 -0.46000001 -0.63000000 100 83 164 97.000000 1.000000 4.000000 1.000000 0.000000 114.000000 238.000000 -0.047994 0.937836 0.343744
14.69999981 -0.44999999 -0.68000001 100 83 164 97.000000 1.000000 4.000000 1.000000 0.000000 114.000000 238.000000 -0.375419 0.921482 0.099657
14.71000004 -0.44000000 -0.64999998 100 83 164 97.000000 1.000000 4.000000 1.000000 0.000000 114.000000 238.000000 -0.540813 0.819551 0.189360
14.69999981 -0.44999999 -0.63999999 100 83 164 97.000000 1.000000 4.000000 1.000000 0.000000 114.000000 238.000000 -0.520760 0.778721 0.349860
14.72999954 -0.43000001 -0.69999999 100 83 164 97.000000 1.000000 4.000000 1.000000 0.000000 114.000000 238.000000 -0.266129 0.926472 0.266129
14.72999954 -0.43000001 -0.69999999 100 83 164 97.000000 1.000000 4.000000 1.000000 0.000000 114.000000 238.000000 -0.266129 0.926472 0.266129
14.68999958 -0.40000001 -0.74000001 100 83 164 97.000000 1.000000 4.000000 1.000000 0.000000 114.000000 238.000000 0.239227 -0.871148 -0.428803
14.72999954 -0.44999999 -0.72000003 100 83 164 97.000000 1.000000 4.000000 1.000000 0.000000 114.000000 238.000000 -0.185784 0.902994 0.387409
14.69999981 -0.44000000 -0.69999999 100 83 164 97.000000 1.000000 4.000000 1.000000 0.000000 114.000000 238.000000 -0.534062 0.820113 0.205409
14.68999958 -0.47000000 -0.73000002 100 83 164 97.000000 1.000000 4.000000 1.000000 0.000000 114.000000 238.000000 -0.537774 0.735123 0.412787
14.69999981 -0.46000001 -0.75000000 100 83 164 97.000000 1.000000 4.000000 1.000000 0.000000 114.000000 238.000000 0.753896 -0.573861 -0.319883
14.73999977 -0.34000000 -0.83999997 100 83 164 97.000000 1.000000 4.000000 1.000000 0.000000 114.000000 238.000000 0.588824 -0.649216 -0.481460
14.73999977 -0.38000000 -0.77999997 100 83 164 97.000000 1.000000 4.000000 1.000000 0.000000 114.000000 238.000000 -0.130321 0.693547 0.708526
14.72999954 -0.38000000 -0.85000002 100 83 164 97.000000 1.000000 4.000000 1.000000 0.000000 114.000000 238.000000 -0.583297 0.702270 0.408143
14.72999954 -0.38000000 -0.85000002 100 83 164 97.000000 1.000000 4.000000 1.000000 0.000000 114.000000 238.000000 -0.583297 0.702270 0.408143
14.71000004 -0.34000000 -0.86000001 100 83 164 97.000000 1.000000 4.000000 1.000000 0.000000 114.000000 238.000000 -0.615506 0.675232 0.406466
14.69999981 -0.37000000 -0.86000001 100 83 164 97.000000 1.000000 4.000000 1.000000 0.000000 114.000000 238.000000 -0.561810 0.825025 -0.060851
14.72000027 -0.40000001 -0.76999998 100 83 164 97.000000 1.000000 4.000000 1.000000 0.000000 114.000000 238.000000 -0.528508 0.735959 0.423135
14.72000027 -0.38999999 -0.77999997 100 83 164 97.000000 1.000000 4.000000 1.000000 0.000000 114.000000 238.000000 -0.575397 0.665985 0.474745
14.69999981 -0.41999999 -0.83999997 100 83 164 97.000000 1.000000 4.000000 1.000000 0.000000 114.000000 238.000000 -0.647231 0.610437 0.456573
14.69999981 -0.43000001 -0.88000000 100 83 164 97.000000 1.000000 4.000000 1.000000 0.000000 114.000000 238.000000 0.561078 -0.635214 -0.530749
14.69999981 -0.47000000 -0.88000000 100 83 164 97.000000 1.000000 4.000000 1.000000 0.000000 114.000000 238.000000 -0.629050 0.764169 0.142625
14.68999958 -0.47000000 -0.89999998 100 83 164 97.000000 1.000000 4.000000 1.000000 0.000000 114.000000 238.000000 0.691416 -0.700615 0.176303
14.69999981 -0.44000000 -0.93000001 100 83 164 97.000000 1.000000 4.000000 1.000000 0.000000 114.000000 238.000000 -0.656815 0.740983 0.139780
14.68999958 -0.49000001 -0.60000002 100 83 164 97.000000 1.000000 4.000000 1.000000 0.000000 114.000000 238.000000 -0.347526 0.767790 0.538261
14.69999981 -0.50000000 -0.67000002 100 83 164 97.000000 1.000000 4.000000 1.000000 0.000000 114.000000 238.000000 -0.322922 0.929624 0.177537
14.68999958 -0.58999997 -0.61000001 100 83 164 97.000000 1.000000 4.000000 1.000000 0.000000 114.000000 238.000000 -0.481185 0.852941 0.202367
14.69999981 -0.56999999 -0.69000000 100 83 164 97.000000 1.000000 4.000000 1.000000 0.000000 114.000000 238.000000 -0.545007 0.778354 0.311661
14.68999958 -0.50000000 -0.76999998 100 83 164 97.000000 1.000000 4.000000 1.000000 0.000000 114.000000 238.000000 -0.569080 0.820436 -0.055072
14.68999958 -0.50000000 -0.76999998 100 83 164 97.000000 1.000000 4.000000 1.000000 0.000000 114.000000 238.000000 -0.569080 0.820436 -0.055072
14.68999958 -0.54000002 -0.77999997 100 83 164 97.000000 1.000000 4.000000 1.000000 0.000000 114.000000 238.000000 0.926403 -0.299343 0.228409
14.68999958 -0.54000002 -0.88999999 100 83 164 97.000000 1.000000 4.000000 1.000000 0.000000 114.000000 238.000000 0.892055 -0.449422 -0.047522
14.68999958 -0.54000002 -0.88999999 100 83 164 97.000000 1.000000 4.000000 1.000000 0.000000 114.000000 238.000000 0.892055 -0.449422 -0.047522
14.69999981 -0.52999997 -0.88999999 100 83 164 97.000000 1.000000 4.000000 1.000000 0.000000 114.000000 238.000000 0.841756 -0.139558 0.521507
14.67000008 -0.46000001 -0.82999998 100 83 164 97.000000 1.000000 4.000000 1.000000 0.000000 114.000000 238.000000 0.707712 -0.650200 0.276375
14.68000031 -0.44000000 -0.88000000 100 83 164 97.000000 1.000000 4.000000 1.000000 0.000000 114.000000 238.000000 -0.661751 0.717805 0.216431
14.68000031 -0.47999999 -0.63999999 100 83 164 97.000000 1.000000 4.000000 1.000000 0.000000 114.000000 238.000000 -0.484643 0.714473 0.504628
14.68000031 -0.54000002 -0.75000000 100 83 164 97.000000 1.000000 4.000000 1.000000 0.000000 114.000000 238.000000 0.768315 -0.634695 0.082786
14.65999985 -0.52999997 -0.74000001 100 83 164 97.000000 1.000000 4.000000 1.000000 0.000000 114.000000 238.000000 0.892265 -0.413489 0.181355
14.68000031 -0.57999998 -0.74000001 100 83 164 97.000000 1.000000 4.000000 1.000000 0.000000 114.000000 238.000000 0.859044 -0.434862 0.270072
14.68000031 -0.52999997 -0.85000002 100 83 164 97.000000 1.000000 4.000000 1.000000 0.000000 114.000000 238.000000 0.792868 -0.608933 -0.023688
14.67000008 -0.52999997 -0.85000002 100 83 164 97.000000 1.000000 4.000000 1.000000 0.000000 114.000000 238.000000 0.862089 -0.144411 0.485745
15.01000023 0.03000000 -1.36000001 100 83 164 97.000000 1.000000 4.000000 1.000000 0.000000 114.000000 238.000000 -0.187800 0.839840 0.509313
15.01000023 -0.02000000 -1.30999994 100 83 164 97.000000 1.000000 4.000000 1.000000 0.000000 114.000000 238.000000 -0.058635 0.893161 0.445899
14.97999954 0.00000000 -1.32000005 100 83 164 97.000000 1.000000 4.000000 1.000000 0.000000 114.000000 238.000000 -0.276152 0.822215 0.497697
14.96000004 -0.01000000 -1.30999994 100 83 164 97.000000 1.000000 4.000000 1.000000 0.000000 114.000000 238.000000 -0.180997 0.783306 0.594704
14.98999977 0.02000000 -1.37000000 100 83 164 97.000000 1.000000 4.000000 1.000000 0.000000 114.000000 238.000000 0.128244 0.977395 0.168087
15.02999973 0.01000000 -1.38000000 100 83 164 97.000000 1.000000 4.000000 1.000000 0.000000 114.000000 238.000000 0.447125 0.782062 0.434118
15.01000023 0.03000000 -1.44000006 100 83 164 97.000000 1.000000 4.000000 1.000000 0.000000 114.000000 238.000000 0.232545 0.846584 0.478768
15.02000046 0.02000000 -1.42999995 100 83 164 97.000000 1.000000 4.000000 1.000000 0.000000 114.000000 238.000000 0.265320 0.729234 0.630732
14.97000027 0.02000000 -1.42999995 100 83 164 97.000000 1.000000 4.000000 1.000000 0.000000 114.000000 238.000000 -0.174086 0.899204 0.401405
14.92000008 -0.03000000 -1.32000005 100 83 164 97.000000 1.000000 4.000000 1.000000 0.000000 114.000000 238.000000 -0.234485 0.879694 0.413710
14.93999958 -0.01000000 -1.45000005 100 83 164 97.000000 1.000000 4.000000 1.000000 0.000000 114.000000 238.000000 -0.115512 0.877038 0.466327
14.93000031 -0.07000000 -1.34000003 100 83 164 97.000000 1.000000 4.000000 1.000000 0.000000 114.000000 238.000000 -0.325581 0.727293 0.604187
14.90999985 -0.07000000 -1.38000000 100 83 164 97.000000 1.000000 4.000000 1.000000 0.000000 114.000000 238.000000 -0.282788 0.863649 0.417303
14.89000034 -0.07000000 -1.38999999 100 83 164 97.000000 1.000000 4.000000 1.000000 0.000000 114.000000 238.000000 -0.236391 0.868776 0.435141
14.86999989 -0.06000000 -1.38999999 100 83 164 97.000000 1.000000 4.000000 1.000000 0.000000 114.000000 238.000000 -0.315089 0.778927 0.542210
14.88000011 -0.05000000 -1.44000006 100 83 164 97.000000 1.000000 4.000000 1.000000 0.000000 114.000000 238.000000 -0.131066 0.817320 0.561079
14.89000034 -0.06000000 -1.44000006 100 83 164 97.000000 1.000000 4.000000 1.000000 0.000000 114.000000 238.000000 0.598305 -0.718944 -0.353766
14.96000004 0.02000000 -1.46000004 100 83 164 97.000000 1.000000 4.000000 1.000000 0.000000 114.000000 238.000000 -0.466924 0.811140 0.352185
14.97000027 0.03000000 -1.46000004 100 83 164 97.000000 1.000000 4.000000 1.000000 0.000000 114.000000 238.000000 -0.116095 0.902188 0.415426
14.93999958 0.00000000 -1.47000003 100 83 164 97.000000 1.000000 4.000000 1.000000 0.000000 114.000000 238.000000 -0.054085 0.863970 0.500631
14.93999958 0.04000000 -1.52999997 100 83 164 97.000000 1.000000 4.000000 1.000000 0.000000 114.000000 238.000000 -0.287200 0.659438 0.694736
14.86999989 -0.04000000 -1.51999998 100 83 164 97.000000 1.000000 4.000000 1.000000 0.000000 114.000000 238.000000 -0.439646 0.786820 0.433157
14.76000023 0.03000000 -1.40999997 100 83 164 97.000000 1.000000 4.000000 1.000000 0.000000 114.000000 117.000000 0.840831 -0.502687 -0.200773
15.03999996 -0.81000000 0.20000000 100 83 164 97.000000 1.000000 4.000000 1.000000 0.000000 114.000000 238.000000 0.961546 0.273850 0.020876
15.21000004 -0.70999998 -0.07000000 100 83 164 97.000000 1.000000 4.000000 1.000000 0.000000 114.000000 238.000000 0.939746 0.212380 0.267904
15.21000004 -0.70999998 -0.07000000 100 83 164 97.000000 1.000000 4.000000 1.000000 0.000000 114.000000 238.000000 0.939746 0.212380 0.267904
15.22000027 -0.69999999 -0.09000000 100 83 164 97.000000 1.000000 4.000000 1.000000 0.000000 114.000000 238.000000 0.741406 0.293039 0.603693
15.21000004 -0.69000000 -0.09000000 100 83 164 97.000000 1.000000 4.000000 1.000000 0.000000 114.000000 238.000000 0.903932 0.377482 0.201034
15.21000004 -0.69000000 -0.13000000 100 83 164 97.000000 1.000000 4.000000 1.000000 0.000000 114.000000 238.000000 0.977164 -0.165558 0.133193
15.18999958 -0.66000003 0.01000000 100 83 164 97.000000 1.000000 4.000000 1.000000 0.000000 114.000000 238.000000 0.888334 -0.082021 0.451813
15.14000034 -0.73000002 0.01000000 100 83 164 97.000000 1.000000 4.000000 1.000000 0.000000 114.000000 238.000000 0.688634 0.507679 0.517732
15.19999981 -0.67000002 -0.02000000 100 83 164 97.000000 1.000000 4.000000 1.000000 0.000000 114.000000 238.000000 0.965207 0.223535 0.135672
15.18000031 -0.64999998 -0.02000000 100 83 164 97.000000 1.000000 4.000000 1.000000 0.000000 114.000000 238.000000 0.983929 0.176899 -0.024280
15.19999981 -0.68000001 -0.01000000 100 83 164 97.000000 1.000000 4.000000 1.000000 0.000000 114.000000 238.000000 0.972566 0.151288 0.176715
15.18999958 -0.66000003 -0.05000000 100 83 164 97.000000 1.000000 4.000000 1.000000 0.000000 114.000000 238.000000 0.930969 -0.144817 0.335149
15.15999985 -0.70999998 -0.06000000 100 83 164 97.000000 1.000000 4.000000 1.000000 0.000000 114.000000 238.000000 0.887402 0.093631 0.451387
15.14999962 -0.74000001 0.01000000 100 83 164 97.000000 1.000000 4.000000 1.000000 0.000000 114.000000 238.000000 0.881491 0.441474 0.167556
15.14999962 -0.74000001 -0.03000000 100 83 164 97.000000 1.000000 4.000000 1.000000 0.000000 114.000000 238.000000 0.743639 0.335367 0.578386
15.07999992 -0.81000000 0.06000000 100 83 164 97.000000 1.000000 4.000000 1.000000 0.000000 114.000000 238.000000 0.971304 -0.109887 0.210933
15.06000042 -0.75000000 0.03000000 100 83 164 97.000000 1.000000 4.000000 1.000000 0.000000 114.000000 238.000000 0.934043 0.289875 0.208654
15.18999958 -0.66000003 -0.09000000 100 83 164 97.000000 1.000000 4.000000 1.000000 0.000000 114.000000 238.000000 0.876771 0.202559 0.436168
15.18000031 -0.66000003 -0.08000000 100 83 164 97.000000 1.000000 4.000000 1.000000 0.000000 114.000000 238.000000 0.951717 0.060203 0.301014
15.18999958 -0.64999998 -0.13000000 100 83 164 97.000000 1.000000 4.000000 1.000000 0.000000 114.000000 238.000000 0.794268 0.035021 0.606557
15.19999981 -0.68000001 -0.13000000 100 83 164 97.000000 1.000000 4.000000 1.000000 0.000000 114.000000 238.000000 0.879231 0.450479 0.154988
15.18000031 -0.72000003 -0.09000000 100 83 164 97.000000 1.000000 4.000000 1.000000 0.000000 114.000000 238.000000 0.801250 0.396611 0.447994
15.19999981 -0.69000000 -0.13000000 100 83 164 97.000000 1.000000 4.000000 1.000000 0.000000 114.000000 238.000000 0.975082 0.172369 0.139657
15.19999981 -0.66000003 -0.17000000 100 83 164 97.000000 1.000000 4.000000 1.000000 0.000000 114.000000 238.000000 0.828889 -0.004083 0.559398
15.18000031 -0.72000003 -0.23999999 100 83 164 97.000000 1.000000 4.000000 1.000000 0.000000 114.000000 238.000000 0.897131 -0.237173 0.372700
15.15999985 -0.73000002 -0.23999999 100 83 164 97.000000 1.000000 4.000000 1.000000 0.000000 114.000000 238.000000 0.820832 0.488105 0.296629
15.17000008 -0.75000000 -0.16000000 100 83 164 97.000000 1.000000 4.000000 1.000000 0.000000 114.000000 238.000000 0.995273 -0.080638 -0.054127
15.14999962 -0.74000001 -0.20000000 100 83 164 97.000000 1.000000 4.000000 1.000000 0.000000 114.000000 238.000000 0.974070 0.225336 0.020268
15.18999958 -0.75999999 -0.17000000 100 83 164 97.000000 1.000000 4.000000 1.000000 0.000000 114.000000 238.000000 0.990728 0.032686 0.131872
15.10000038 -0.76999998 -0.23999999 100 83 164 97.000000 1.000000 4.000000 1.000000 0.000000 114.000000 238.000000 0.814029 0.150305 0.561040
15.05000019 -0.81999999 0.03000000 100 83 164 97.000000 1.000000 4.000000 1.000000 0.000000 114.000000 238.000000 0.970564 0.237466 -0.040186
15.21000004 -0.68000001 -0.28999999 100 83 164 97.000000 1.000000 4.000000 1.000000 0.000000 114.000000 238.000000 0.979461 -0.154392 0.129689
15.21000004 -0.68000001 -0.38000000 100 83 164 97.000000 1.000000 4.000000 1.000000 0.000000 114.000000 238.000000 0.932410 -0.158855 0.324617
15.21000004 -0.70999998 -0.38000000 100 83 164 97.000000 1.000000 4.000000 1.000000 0.000000 114.000000 238.000000 0.942289 0.133840 0.306886
15.21000004 -0.73000002 -0.36000001 100 83 164 97.000000 1.000000 4.000000 1.000000 0.000000 114.000000 238.000000 0.917310 -0.144249 0.371126
15.22000027 -0.66000003 -0.41999999 100 83 164 97.000000 1.000000 4.000000 1.000000 0.000000 114.000000 238.000000 0.894526 -0.052939 0.443870
15.21000004 -0.64999998 -0.34000000 100 83 164 97.000000 1.000000 4.000000 1.000000 0.000000 114.000000 238.000000 0.960645 0.244409 0.132007
15.22000027 -0.68000001 -0.44000000 100 83 164 97.000000 1.000000 4.000000 1.000000 0.000000 114.000000 238.000000 0.944429 0.300439 0.133379
15.22000027 -0.66000003 -0.43000001 100 83 164 97.000000 1.000000 4.000000 1.000000 0.000000 114.000000 238.000000 0.998611 -0.050918 -0.013509
15.21000004 -0.72000003 -0.52999997 100 83 164 97.000000 1.000000 4.000000 1.000000 0.000000 114.000000 238.000000 0.930529 -0.341240 -0.132933
15.22000027 -0.64999998 -0.54000002 100 83 164 97.000000 1.000000 4.000000 1.000000 0.000000 114.000000 238.000000 0.886939 -0.248939 0.389061
15.21000004 -0.64999998 -0.57999998 100 83 164 97.000000 1.000000 4.000000 1.000000 0.000000 114.000000 238.000000 0.805482 -0.297918 0.512293
15.18999958 -0.69999999 -0.28999999 100 83 164 97.000000 1.000000 4.000000 1.000000 0.000000 114.000000 238.000000 0.878600 -0.171042 0.445878
15.15999985 -0.70999998 -0.31000000 100 83 164 97.000000 1.000000 4.000000 1.000000 0.000000 114.000000 238.000000 0.824406 -0.238847 0.513135
15.18999958 -0.68000001 -0.36000001 100 83 164 97.000000 1.000000 4.000000 1.000000 0.000000 114.000000 238.000000 0.971174 -0.003557 0.238347
15.18999958 -0.67000002 -0.41999999 100 83 164 97.000000 1.000000 4.000000 1.000000 0.000000 114.000000 238.000000 0.989012 0.126976 -0.075719
15.18000031 -0.69999999 -0.34000000 100 83 164 97.000000 1.000000 4.000000 1.000000 0.000000 114.000000 238.000000 0.864005 -0.269716 0.425145
15.18999958 -0.69000000 -0.34999999 100 83 164 97.000000 1.000000 4.000000 1.000000 0.000000 114.000000 238.000000 0.948045 0.183624 0.259794
15.18000031 -0.70999998 -0.34000000 100 83 164 97.000000 1.000000 4.000000 1.000000 0.000000 114.000000 238.000000 0.911812 -0.196722 0.360417
15.15999985 -0.69000000 -0.41000000 100 83 164 97.000000 1.000000 4.000000 1.000000 0.000000 114.000000 238.000000 0.994050 -0.088335 0.063735
15.15999985 -0.69999999 -0.41000000 100 83 164 97.000000 1.000000 4.000000 1.000000 0.000000 114.000000 238.000000 0.998329 -0.053426 0.021999
15.06000042 -0.79000002 -0.27000001 100 83 164 97.000000 1.000000 4.000000 1.000000 0.000000 114.000000 238.000000 0.842167 -0.167839 0.512430
15.10999966 -0.74000001 -0.36000001 100 83 164 97.000000 1.000000 4.000000 1.000000 0.000000 114.000000 238.000000 0.989372 -0.138398 -0.044608
