//X Y Z R G B PointSourceId ScanDirectionFlag NumberOfReturns ReturnNumber GpsTime Intensity Classification Nx Ny Nz
-20.52000046 2.16000009 -0.06000000 124 171 108 0.000000 0.000000 0.000000 0.000000 0.000000 0.000000 232.000000 0.922002 0.385802 -0.032695
-20.53000069 2.13000011 0.00000000 124 171 108 0.000000 0.000000 0.000000 0.000000 0.000000 0.000000 232.000000 0.914791 0.398962 -0.063135
-20.50000000 2.20000005 -0.20999999 124 171 108 0.000000 0.000000 0.000000 0.000000 0.000000 0.000000 232.000000 0.713922 0.325393 0.620028
-20.48999977 2.18000007 -0.14000000 124 171 108 0.000000 0.000000 0.000000 0.000000 0.000000 0.000000 232.000000 0.883991 0.455389 -0.105741
-20.53000069 2.19000006 -0.13000000 124 171 108 0.000000 0.000000 0.000000 0.000000 0.000000 0.000000 232.000000 0.835113 0.544886 -0.075402
-20.48999977 2.15000010 -0.20000000 124 171 108 0.000000 0.000000 0.000000 0.000000 0.000000 0.000000 232.000000 0.671053 0.424612 0.607777
-20.53000069 2.17000008 -0.19000000 124 171 108 0.000000 0.000000 0.000000 0.000000 0.000000 0.000000 232.000000 0.755073 0.515940 0.404562
-20.53000069 2.10999990 -0.17000000 124 171 108 0.000000 0.000000 0.000000 0.000000 0.000000 0.000000 232.000000 0.704686 0.707545 0.052887
-20.52000046 2.13000011 -0.18000001 124 171 108 0.000000 0.000000 0.000000 0.000000 0.000000 0.000000 232.000000 0.784369 0.427099 0.449835
-20.57999992 2.21000004 0.06000000 124 171 108 0.000000 0.000000 0.000000 0.000000 0.000000 0.000000 232.000000 0.953712 0.001227 -0.300720
-20.62000084 2.25000000 0.03000000 124 171 108 0.000000 0.000000 0.000000 0.000000 0.000000 0.000000 232.000000 0.848383 -0.123269 -0.514831
-20.62000084 2.23000002 0.05000000 124 171 108 0.000000 0.000000 0.000000 0.000000 0.000000 0.000000 232.000000 0.967569 0.228188 -0.108357
-20.57999992 2.19000006 0.04000000 124 171 108 0.000000 0.000000 0.000000 0.000000 0.000000 0.000000 232.000000 0.988783 -0.042393 -0.143219
-20.54999924 2.19000006 0.01000000 124 171 108 0.000000 0.000000 0.000000 0.000000 0.000000 0.000000 232.000000 0.710132 0.196485 -0.676096
-20.55999947 2.13000011 0.09000000 124 171 108 0.000000 0.000000 0.000000 0.000000 0.000000 0.000000 232.000000 0.870489 -0.039630 -0.490590
-20.59000015 2.19000006 0.03000000 124 171 108 0.000000 0.000000 0.000000 0.000000 0.000000 0.000000 232.000000 0.832347 0.217597 -0.509755
-20.59000015 2.13000011 0.04000000 124 171 108 0.000000 0.000000 0.000000 0.000000 0.000000 0.000000 232.000000 0.761729 0.613401 -0.208587
-20.55999947 2.19000006 0.00000000 124 171 108 0.000000 0.000000 0.000000 0.000000 0.000000 0.000000 232.000000 0.977814 0.122691 -0.169785
-20.54999924 2.16000009 -0.02000000 124 171 108 0.000000 0.000000 0.000000 0.000000 0.000000 0.000000 232.000000 0.875092 0.247668 -0.415781
-20.54999924 2.15000010 -0.06000000 124 171 108 0.000000 0.000000 0.000000 0.000000 0.000000 0.000000 232.000000 0.882031 0.012009 -0.471039
-20.54000092 2.16000009 -0.05000000 124 171 108 0.000000 0.000000 0.000000 0.000000 0.000000 0.000000 232.000000 0.825125 0.416522 -0.381680
-20.61000061 2.11999989 -0.03000000 124 171 108 0.000000 0.000000 0.000000 0.000000 0.000000 0.000000 232.000000 0.916983 0.380347 -0.120328
-20.63999939 2.22000003 -0.01000000 124 171 108 0.000000 0.000000 0.000000 0.000000 0.000000 0.000000 232.000000 0.964188 0.200164 -0.173999
-20.64999962 2.21000004 -0.02000000 124 171 108 0.000000 0.000000 0.000000 0.000000 0.000000 0.000000 232.000000 0.948730 0.289556 -0.126764
-20.62999916 2.10999990 0.02000000 124 171 108 0.000000 0.000000 0.000000 0.000000 0.000000 0.000000 232.000000 0.926688 0.180851 -0.329458
-20.64999962 2.15000010 -0.01000000 124 171 108 0.000000 0.000000 0.000000 0.000000 0.000000 0.000000 232.000000 0.995218 0.060887 -0.076385
-20.67000008 2.19000006 -0.07000000 124 171 108 0.000000 0.000000 0.000000 0.000000 0.000000 0.000000 232.000000 0.838418 0.538473 0.084270
-20.69000053 2.13000011 -0.01000000 124 171 108 0.000000 0.000000 0.000000 0.000000 0.000000 0.000000 232.000000 0.784632 0.507514 -0.356065
-20.56999969 2.15000010 -0.10000000 124 171 108 0.000000 0.000000 0.000000 0.000000 0.000000 0.000000 232.000000 0.852837 0.475476 -0.215851
-20.54000092 2.10999990 -0.08000000 124 171 108 0.000000 0.000000 0.000000 0.000000 0.000000 0.000000 232.000000 0.811193 0.574412 0.109621
-20.54999924 2.14000010 -0.10000000 124 171 108 0.000000 0.000000 0.000000 0.000000 0.000000 0.000000 232.000000 0.838144 0.473868 0.270120
-20.54000092 2.10999990 -0.08000000 124 171 108 0.000000 0.000000 0.000000 0.000000 0.000000 0.000000 232.000000 0.811193 0.574412 0.109621
-20.54999924 2.11999989 -0.13000000 124 171 108 0.000000 0.000000 0.000000 0.000000 0.000000 0.000000 232.000000 0.857943 0.363273 0.363273
-20.64999962 2.22000003 -0.08000000 124 171 108 0.000000 0.000000 0.000000 0.000000 0.000000 0.000000 232.000000 0.972350 -0.062693 -0.224956
-20.68000031 2.20000005 -0.08000000 124 171 108 0.000000 0.000000 0.000000 0.000000 0.000000 0.000000 232.000000 0.933412 0.307428 -0.185013
-20.52000046 2.26999998 -0.31999999 124 171 108 0.000000 0.000000 0.000000 0.000000 0.000000 0.000000 232.000000 0.763525 0.319877 0.560990
-20.51000023 2.11999989 -0.33000001 124 171 108 0.000000 0.000000 0.000000 0.000000 0.000000 0.000000 232.000000 0.580941 0.631457 0.513585
-20.53000069 2.19000006 -0.44000000 124 171 108 0.000000 0.000000 0.000000 0.000000 0.000000 0.000000 232.000000 0.641653 0.199454 0.740607
-20.53000069 2.15000010 -0.49000001 124 171 108 0.000000 0.000000 0.000000 0.000000 0.000000 0.000000 232.000000 0.380940 0.621707 0.684372
-20.53000069 2.10999990 -0.58999997 124 171 108 0.000000 0.000000 0.000000 0.000000 0.000000 0.000000 232.000000 0.403116 0.464636 0.788423
-20.63999939 2.28999996 -0.28999999 124 171 108 0.000000 0.000000 0.000000 0.000000 0.000000 0.000000 232.000000 0.882872 0.371498 0.287272
-20.63999939 2.29999995 -0.41000000 124 171 108 0.000000 0.000000 0.000000 0.000000 0.000000 0.000000 232.000000 0.828435 0.530739 0.178918
-20.54999924 2.25000000 -0.31000000 124 171 108 0.000000 0.000000 0.000000 0.000000 0.000000 0.000000 232.000000 0.728028 0.237435 0.643118
-20.59000015 2.24000001 -0.31999999 124 171 108 0.000000 0.000000 0.000000 0.000000 0.000000 0.000000 232.000000 0.906371 0.231321 0.353528
-20.60000038 2.25999999 -0.31000000 124 171 108 0.000000 0.000000 0.000000 0.000000 0.000000 0.000000 232.000000 0.891737 0.041948 0.450605
-20.62000084 2.23000002 -0.30000001 124 171 108 0.000000 0.000000 0.000000 0.000000 0.000000 0.000000 232.000000 0.633564 0.268352 0.725661
-20.55999947 2.26999998 -0.38999999 124 171 108 0.000000 0.000000 0.000000 0.000000 0.000000 0.000000 232.000000 0.746893 0.356361 0.561390
-20.54999924 2.25999999 -0.38999999 124 171 108 0.000000 0.000000 0.000000 0.000000 0.000000 0.000000 232.000000 0.440129 0.466307 0.767362
-20.62000084 2.25000000 -0.37000000 124 171 108 0.000000 0.000000 0.000000 0.000000 0.000000 0.000000 232.000000 0.788102 0.533362 0.307280
-20.61000061 2.20000005 -0.34000000 124 171 108 0.000000 0.000000 0.000000 0.000000 0.000000 0.000000 232.000000 0.603223 0.488964 0.630108
-20.61000061 2.23000002 -0.36000001 124 171 108 0.000000 0.000000 0.000000 0.000000 0.000000 0.000000 232.000000 0.528010 0.501191 0.685575
-20.54999924 2.14000010 -0.33000001 124 171 108 0.000000 0.000000 0.000000 0.000000 0.000000 0.000000 232.000000 0.759338 0.023773 0.650262
-20.55999947 2.10999990 -0.31999999 124 171 108 0.000000 0.000000 0.000000 0.000000 0.000000 0.000000 232.000000 0.622322 0.706815 0.336346
-20.61000061 2.18000007 -0.25999999 124 171 108 0.000000 0.000000 0.000000 0.000000 0.000000 0.000000 232.000000 0.802485 0.302317 0.514414
-20.60000038 2.18000007 -0.31999999 124 171 108 0.000000 0.000000 0.000000 0.000000 0.000000 0.000000 232.000000 0.745664 0.165534 0.645432
-20.60000038 2.18000007 -0.31999999 124 171 108 0.000000 0.000000 0.000000 0.000000 0.000000 0.000000 232.000000 0.745664 0.165534 0.645432
-20.61000061 2.11999989 -0.33000001 124 171 108 0.000000 0.000000 0.000000 0.000000 0.000000 0.000000 232.000000 0.739204 0.429693 0.518595
-20.61000061 2.11999989 -0.33000001 124 171 108 0.000000 0.000000 0.000000 0.000000 0.000000 0.000000 232.000000 0.739204 0.429693 0.518595
-20.63999939 2.24000001 -0.28000000 124 171 108 0.000000 0.000000 0.000000 0.000000 0.000000 0.000000 232.000000 0.917578 0.074325 0.390545
-20.65999985 2.25000000 -0.27000001 124 171 108 0.000000 0.000000 0.000000 0.000000 0.000000 0.000000 232.000000 0.896759 -0.006565 0.442471
-20.60000038 2.25000000 -0.46000001 124 171 108 0.000000 0.000000 0.000000 0.000000 0.000000 0.000000 232.000000 0.904962 0.219341 0.364600
-20.61000061 2.23000002 -0.55000001 124 171 108 0.000000 0.000000 0.000000 0.000000 0.000000 0.000000 232.000000 0.753843 0.006916 0.657019
-20.59000015 2.22000003 -0.58999997 124 171 108 0.000000 0.000000 0.000000 0.000000 0.000000 0.000000 232.000000 0.316653 0.383961 0.867355
-20.62000084 2.22000003 -0.57999998 124 171 108 0.000000 0.000000 0.000000 0.000000 0.000000 0.000000 232.000000 0.705005 -0.077042 0.705005
-20.60000038 2.22000003 -0.57999998 124 171 108 0.000000 0.000000 0.000000 0.000000 0.000000 0.000000 232.000000 0.534294 0.271064 0.800658
-20.57999992 2.19000006 -0.47999999 124 171 108 0.000000 0.000000 0.000000 0.000000 0.000000 0.000000 232.000000 0.742658 0.502241 0.442960
-20.54000092 2.10999990 -0.50000000 124 171 108 0.000000 0.000000 0.000000 0.000000 0.000000 0.000000 232.000000 0.507237 -0.017584 0.861627
-20.59000015 2.17000008 -0.50000000 124 171 108 0.000000 0.000000 0.000000 0.000000 0.000000 0.000000 232.000000 0.506633 -0.028677 0.861685
-20.60000038 2.15000010 -0.47999999 124 171 108 0.000000 0.000000 0.000000 0.000000 0.000000 0.000000 232.000000 0.875079 0.146088 0.461405
-20.59000015 2.10999990 -0.49000001 124 171 108 0.000000 0.000000 0.000000 0.000000 0.000000 0.000000 232.000000 0.316806 0.570894 0.757439
-20.55999947 2.10999990 -0.56000000 124 171 108 0.000000 0.000000 0.000000 0.000000 0.000000 0.000000 232.000000 0.255165 0.257984 0.931845
-20.59000015 2.15000010 -0.54000002 124 171 108 0.000000 0.000000 0.000000 0.000000 0.000000 0.000000 232.000000 0.623245 0.639954 0.449472
-20.61000061 2.17000008 -0.56999999 124 171 108 0.000000 0.000000 0.000000 0.000000 0.000000 0.000000 232.000000 0.783057 0.458810 0.419900
-20.61000061 2.17000008 -0.56999999 124 171 108 0.000000 0.000000 0.000000 0.000000 0.000000 0.000000 232.000000 0.783057 0.458810 0.419900
-20.59000015 2.13000011 -0.56999999 124 171 108 0.000000 0.000000 0.000000 0.000000 0.000000 0.000000 232.000000 0.343678 0.601029 0.721561
-20.62999916 2.21000004 -0.50000000 124 171 108 0.000000 0.000000 0.000000 0.000000 0.000000 0.000000 232.000000 0.609386 0.107193 0.785594
-20.62999916 2.21000004 -0.55000001 124 171 108 0.000000 0.000000 0.000000 0.000000 0.000000 0.000000 232.000000 0.474850 0.531499 0.701446
-20.69000053 2.20000005 -0.51999998 124 171 108 0.000000 0.000000 0.000000 0.000000 0.000000 0.000000 232.000000 0.652047 0.175610 0.737561
-20.69000053 2.22000003 -0.56999999 124 171 108 0.000000 0.000000 0.000000 0.000000 0.000000 0.000000 232.000000 0.441152 0.236385 0.865741
-20.68000031 2.23000002 -0.56000000 124 171 108 0.000000 0.000000 0.000000 0.000000 0.000000 0.000000 232.000000 0.854543 0.122904 0.504629
-20.62999916 2.19000006 -0.50000000 124 171 108 0.000000 0.000000 0.000000 0.000000 0.000000 0.000000 232.000000 0.611230 0.424696 0.667856
-20.62999916 2.10999990 -0.47000000 124 171 108 0.000000 0.000000 0.000000 0.000000 0.000000 0.000000 232.000000 0.543973 0.093294 0.833900
-20.70999908 2.15000010 -0.46000001 124 171 108 0.000000 0.000000 0.000000 0.000000 0.000000 0.000000 232.000000 0.656200 0.471591 0.589070
-20.70999908 2.16000009 -0.47000000 124 171 108 0.000000 0.000000 0.000000 0.000000 0.000000 0.000000 232.000000 0.560918 0.210536 0.800653
-20.70000076 2.15000010 -0.47999999 124 171 108 0.000000 0.000000 0.000000 0.000000 0.000000 0.000000 232.000000 0.651247 0.294267 0.699488
-20.67000008 2.11999989 -0.44999999 124 171 108 0.000000 0.000000 0.000000 0.000000 0.000000 0.000000 232.000000 0.552830 0.417511 0.721155
-20.67000008 2.14000010 -0.49000001 124 171 108 0.000000 0.000000 0.000000 0.000000 0.000000 0.000000 232.000000 0.810216 0.072877 0.581583
-20.71999931 2.27999997 0.30000001 124 171 108 0.000000 0.000000 0.000000 0.000000 0.000000 0.000000 232.000000 -0.634549 0.162045 0.755704
-20.78000069 2.19000006 0.28999999 124 171 108 0.000000 0.000000 0.000000 0.000000 0.000000 0.000000 232.000000 0.718510 0.189244 -0.669276
-20.81999969 2.11999989 0.28000000 124 171 108 0.000000 0.000000 0.000000 0.000000 0.000000 0.000000 232.000000 -0.613713 -0.188246 0.766759
-20.76000023 2.17000008 0.19000000 124 171 108 0.000000 0.000000 0.000000 0.000000 0.000000 0.000000 232.000000 0.645722 0.391397 -0.655631
-20.86000061 2.21000004 0.19000000 124 171 108 0.000000 0.000000 0.000000 0.000000 0.000000 0.000000 232.000000 0.855323 0.364793 -0.367898
-20.82999992 2.23000002 0.14000000 124 171 108 0.000000 0.000000 0.000000 0.000000 0.000000 0.000000 232.000000 0.991711 0.072062 -0.106377
-20.84000015 2.19000006 0.18000001 124 171 108 0.000000 0.000000 0.000000 0.000000 0.000000 0.000000 232.000000 0.824722 -0.049174 -0.563396
-20.84000015 2.19000006 0.18000001 124 171 108 0.000000 0.000000 0.000000 0.000000 0.000000 0.000000 232.000000 0.824722 -0.049174 -0.563396
-20.87999916 2.13000011 0.18000001 124 171 108 0.000000 0.000000 0.000000 0.000000 0.000000 0.000000 232.000000 0.870564 0.088891 -0.483960
-20.81999969 2.16000009 0.15000001 124 171 108 0.000000 0.000000 0.000000 0.000000 0.000000 0.000000 232.000000 0.792878 -0.001369 -0.609379
-20.89999962 2.22000003 0.16000000 124 171 108 0.000000 0.000000 0.000000 0.000000 0.000000 0.000000 232.000000 0.960546 -0.030985 -0.276389
-20.89999962 2.15000010 0.14000000 124 171 108 0.000000 0.000000 0.000000 0.000000 0.000000 0.000000 232.000000 0.848579 0.196750 -0.491124
-20.90999985 2.15000010 0.14000000 124 171 108 0.000000 0.000000 0.000000 0.000000 0.000000 0.000000 232.000000 0.830240 0.442690 -0.338713
-20.89999962 2.17000008 0.16000000 124 171 108 0.000000 0.000000 0.000000 0.000000 0.000000 0.000000 232.000000 0.622361 0.406609 -0.668831
-20.88999939 2.17000008 0.10000000 124 171 108 0.000000 0.000000 0.000000 0.000000 0.000000 0.000000 232.000000 0.910652 -0.127295 -0.393077
-20.89999962 2.13000011 0.15000001 124 171 108 0.000000 0.000000 0.000000 0.000000 0.000000 0.000000 232.000000 0.767143 -0.026647 -0.640922
-20.88999939 2.13000011 0.16000000 124 171 108 0.000000 0.000000 0.000000 0.000000 0.000000 0.000000 232.000000 0.833993 0.072459 -0.546997
-20.90999985 2.10999990 0.10000000 124 171 108 0.000000 0.000000 0.000000 0.000000 0.000000 0.000000 232.000000 0.700752 0.330052 -0.632465
-20.87999916 2.20000005 0.09000000 124 171 108 0.000000 0.000000 0.000000 0.000000 0.000000 0.000000 232.000000 0.941475 0.266820 -0.205991
-20.95999908 2.27999997 0.08000000 124 171 108 0.000000 0.000000 0.000000 0.000000 0.000000 0.000000 232.000000 0.824010 0.379457 -0.420737
-20.95000076 2.26999998 0.09000000 124 171 108 0.000000 0.000000 0.000000 0.000000 0.000000 0.000000 232.000000 0.930367 0.357421 -0.081658
-20.93000031 2.14000010 0.09000000 124 171 108 0.000000 0.000000 0.000000 0.000000 0.000000 0.000000 232.000000 0.990344 0.032823 -0.134687
-20.85000038 2.28999996 -0.52999997 124 171 108 0.000000 0.000000 0.000000 0.000000 0.000000 0.000000 177.000000 0.578551 0.471225 0.665752
-20.84000015 2.28999996 -0.54000002 124 171 108 0.000000 0.000000 0.000000 0.000000 0.000000 0.000000 177.000000 0.601083 0.402378 0.690500
-20.86000061 2.28999996 -0.51999998 124 171 108 0.000000 0.000000 0.000000 0.000000 0.000000 0.000000 177.000000 0.779741 0.533170 0.328228
-20.76000023 2.11999989 -0.47000000 124 171 108 0.000000 0.000000 0.000000 0.000000 0.000000 0.000000 232.000000 0.731072 0.539640 0.417520
-20.79999924 2.24000001 -0.55000001 124 171 108 0.000000 0.000000 0.000000 0.000000 0.000000 0.000000 177.000000 0.704944 0.394571 0.589379
-20.82999992 2.25999999 -0.56000000 124 171 108 0.000000 0.000000 0.000000 0.000000 0.000000 0.000000 177.000000 0.859300 0.438044 0.264048
-20.86000061 2.25000000 -0.56000000 124 171 108 0.000000 0.000000 0.000000 0.000000 0.000000 0.000000 177.000000 0.651433 0.377666 0.658030
-20.28000069 2.07999992 0.18000001 124 171 108 0.000000 0.000000 0.000000 0.000000 0.000000 0.000000 158.000000 -0.451705 -0.261836 0.852880
-20.29999924 2.01999998 0.22000000 124 171 108 0.000000 0.000000 0.000000 0.000000 0.000000 0.000000 158.000000 -0.325333 0.340464 0.882181
-20.60000038 2.08999991 0.28999999 124 171 108 0.000000 0.000000 0.000000 0.000000 0.000000 0.000000 232.000000 0.676439 0.427137 -0.599987
-20.65999985 2.07999992 0.22000000 124 171 108 0.000000 0.000000 0.000000 0.000000 0.000000 0.000000 232.000000 0.966370 -0.030543 -0.255337
-20.69000053 2.03999996 0.18000001 124 171 108 0.000000 0.000000 0.000000 0.000000 0.000000 0.000000 232.000000 -0.586549 -0.204753 0.783605
-20.64999962 2.07999992 0.16000000 124 171 108 0.000000 0.000000 0.000000 0.000000 0.000000 0.000000 232.000000 0.793784 0.244841 -0.556740
-20.21999931 2.09999990 0.04000000 124 171 108 0.000000 0.000000 0.000000 0.000000 0.000000 0.000000 158.000000 -0.431569 0.144812 0.890380
-20.27000046 2.07999992 0.06000000 124 171 108 0.000000 0.000000 0.000000 0.000000 0.000000 0.000000 158.000000 -0.695407 0.156050 0.701468
-20.26000023 2.04999995 0.07000000 124 171 108 0.000000 0.000000 0.000000 0.000000 0.000000 0.000000 158.000000 0.779716 0.224769 -0.584399
-20.52000046 2.08999991 -0.10000000 124 171 108 0.000000 0.000000 0.000000 0.000000 0.000000 0.000000 232.000000 0.982132 0.128104 -0.137864
-20.51000023 2.09999990 -0.18000001 124 171 108 0.000000 0.000000 0.000000 0.000000 0.000000 0.000000 232.000000 0.943938 0.329044 0.026679
-20.52000046 2.09999990 -0.19000000 124 171 108 0.000000 0.000000 0.000000 0.000000 0.000000 0.000000 232.000000 0.700615 0.691416 0.176303
-20.53000069 2.08999991 -0.23000000 124 171 108 0.000000 0.000000 0.000000 0.000000 0.000000 0.000000 232.000000 0.716740 0.202792 0.667203
-20.50000000 2.09999990 -0.23000000 124 171 108 0.000000 0.000000 0.000000 0.000000 0.000000 0.000000 232.000000 0.772387 0.273257 0.573367
-20.60000038 2.08999991 -0.06000000 124 171 108 0.000000 0.000000 0.000000 0.000000 0.000000 0.000000 232.000000 0.939071 0.139977 -0.313930
-20.64999962 2.06999993 0.04000000 124 171 108 0.000000 0.000000 0.000000 0.000000 0.000000 0.000000 232.000000 0.790084 0.536751 -0.296084
-20.63999939 2.09999990 0.04000000 124 171 108 0.000000 0.000000 0.000000 0.000000 0.000000 0.000000 232.000000 0.661766 0.477477 -0.577998
-20.62999916 2.08999991 0.04000000 124 171 108 0.000000 0.000000 0.000000 0.000000 0.000000 0.000000 232.000000 0.988844 0.104150 -0.106491
-20.65999985 2.05999994 0.03000000 124 171 108 0.000000 0.000000 0.000000 0.000000 0.000000 0.000000 232.000000 0.979395 0.114571 -0.166312
-20.63999939 2.07999992 0.00000000 124 171 108 0.000000 0.000000 0.000000 0.000000 0.000000 0.000000 232.000000 0.920407 -0.088110 -0.380905
-20.61000061 2.08999991 -0.08000000 124 171 108 0.000000 0.000000 0.000000 0.000000 0.000000 0.000000 232.000000 0.913367 0.405794 0.033045
-20.60000038 2.08999991 -0.14000000 124 171 108 0.000000 0.000000 0.000000 0.000000 0.000000 0.000000 232.000000 0.967599 0.233995 0.094863
-20.54000092 2.08999991 -0.22000000 124 171 108 0.000000 0.000000 0.000000 0.000000 0.000000 0.000000 232.000000 0.772356 0.489430 0.404877
-20.61000061 2.09999990 -0.18000001 124 171 108 0.000000 0.000000 0.000000 0.000000 0.000000 0.000000 232.000000 0.937541 0.334741 0.094688
-20.45000076 2.00999999 -0.30000001 124 171 108 0.000000 0.000000 0.000000 0.000000 0.000000 0.000000 232.000000 0.716186 0.605251 0.347489
-20.47999954 2.04999995 -0.31000000 124 171 108 0.000000 0.000000 0.000000 0.000000 0.000000 0.000000 232.000000 0.684551 0.615271 0.390936
-20.48999977 2.03999996 -0.30000001 124 171 108 0.000000 0.000000 0.000000 0.000000 0.000000 0.000000 232.000000 0.593979 0.657559 0.463471
-20.51000023 2.09999990 -0.36000001 124 171 108 0.000000 0.000000 0.000000 0.000000 0.000000 0.000000 232.000000 0.660049 0.152551 0.735570
-20.50000000 2.04999995 -0.41999999 124 171 108 0.000000 0.000000 0.000000 0.000000 0.000000 0.000000 232.000000 0.617158 0.566432 0.546142
-20.42000008 2.05999994 -0.54000002 124 171 108 0.000000 0.000000 0.000000 0.000000 0.000000 0.000000 232.000000 0.476154 0.312722 0.821877
-20.47999954 2.07999992 -0.44000000 124 171 108 0.000000 0.000000 0.000000 0.000000 0.000000 0.000000 232.000000 0.254371 0.248750 0.934569
-20.50000000 2.06999993 -0.56000000 124 171 108 0.000000 0.000000 0.000000 0.000000 0.000000 0.000000 232.000000 0.421393 0.644582 0.637920
-20.51000023 2.03999996 -0.52999997 124 171 108 0.000000 0.000000 0.000000 0.000000 0.000000 0.000000 232.000000 0.631715 0.520533 0.574440
-20.54999924 2.09999990 -0.44999999 124 171 108 0.000000 0.000000 0.000000 0.000000 0.000000 0.000000 232.000000 0.450720 0.440957 0.776150
-20.56999969 2.09999990 -0.49000001 124 171 108 0.000000 0.000000 0.000000 0.000000 0.000000 0.000000 232.000000 0.731615 0.041198 0.680473
-20.56999969 2.03999996 -0.46000001 124 171 108 0.000000 0.000000 0.000000 0.000000 0.000000 0.000000 232.000000 0.450899 0.557384 0.697146
-20.54999924 2.07999992 -0.55000001 124 171 108 0.000000 0.000000 0.000000 0.000000 0.000000 0.000000 232.000000 0.524763 -0.006745 0.851222
-20.55999947 2.05999994 -0.50999999 124 171 108 0.000000 0.000000 0.000000 0.000000 0.000000 0.000000 232.000000 0.854207 0.212422 0.474560
-20.64999962 2.09999990 -0.44999999 124 171 108 0.000000 0.000000 0.000000 0.000000 0.000000 0.000000 232.000000 0.398276 0.589978 0.702355
-20.63999939 2.06999993 -0.44999999 124 171 108 0.000000 0.000000 0.000000 0.000000 0.000000 0.000000 232.000000 0.607388 0.358539 0.708893
-20.62999916 2.06999993 -0.46000001 124 171 108 0.000000 0.000000 0.000000 0.000000 0.000000 0.000000 232.000000 0.382171 0.420229 0.823015
-20.80999947 2.09999990 0.27000001 124 171 108 0.000000 0.000000 0.000000 0.000000 0.000000 0.000000 232.000000 0.816404 0.510447 -0.270053
-20.78000069 2.06999993 0.19000000 124 171 108 0.000000 0.000000 0.000000 0.000000 0.000000 0.000000 232.000000 0.704526 0.268769 -0.656815
-20.72999954 2.02999997 0.13000000 124 171 108 0.000000 0.000000 0.000000 0.000000 0.000000 0.000000 232.000000 0.877288 0.428995 -0.215240
-20.79000092 2.02999997 0.15000001 124 171 108 0.000000 0.000000 0.000000 0.000000 0.000000 0.000000 232.000000 0.729461 0.545037 -0.413306
-20.81999969 2.08999991 0.25999999 124 171 108 0.000000 0.000000 0.000000 0.000000 0.000000 0.000000 232.000000 0.675790 0.301605 -0.672564
-20.81999969 2.02999997 0.18000001 124 171 108 0.000000 0.000000 0.000000 0.000000 0.000000 0.000000 232.000000 0.824026 0.450763 -0.343212
-20.84000015 2.05999994 0.23999999 124 171 108 0.000000 0.000000 0.000000 0.000000 0.000000 0.000000 232.000000 0.698400 0.089313 -0.710113
-20.75000000 2.01999998 0.03000000 124 171 108 0.000000 0.000000 0.000000 0.000000 0.000000 0.000000 232.000000 0.790757 0.541377 -0.285683
-20.75000000 2.03999996 0.01000000 124 171 108 0.000000 0.000000 0.000000 0.000000 0.000000 0.000000 232.000000 0.997970 -0.005203 -0.063479
-20.75000000 2.03999996 0.01000000 124 171 108 0.000000 0.000000 0.000000 0.000000 0.000000 0.000000 232.000000 0.997970 -0.005203 -0.063479
-20.78000069 2.01999998 0.02000000 124 171 108 0.000000 0.000000 0.000000 0.000000 0.000000 0.000000 232.000000 0.940382 0.333515 -0.066703
-20.75000000 2.02999997 -0.03000000 124 171 108 0.000000 0.000000 0.000000 0.000000 0.000000 0.000000 232.000000 0.713265 0.625926 -0.315389
-20.72999954 2.05999994 -0.05000000 124 171 108 0.000000 0.000000 0.000000 0.000000 0.000000 0.000000 232.000000 0.834433 0.314673 -0.452441
-20.73999977 2.00000000 0.08000000 124 171 108 0.000000 0.000000 0.000000 0.000000 0.000000 0.000000 232.000000 0.803898 0.457307 -0.380287
-20.76000023 1.98000002 0.05000000 124 171 108 0.000000 0.000000 0.000000 0.000000 0.000000 0.000000 232.000000 0.773746 0.630194 -0.064598
-20.77000046 2.00999999 0.06000000 124 171 108 0.000000 0.000000 0.000000 0.000000 0.000000 0.000000 232.000000 0.756480 0.327432 -0.566150
-20.77000046 1.99000001 0.05000000 124 171 108 0.000000 0.000000 0.000000 0.000000 0.000000 0.000000 232.000000 0.983904 0.148128 0.099956
-20.77000046 2.00999999 0.07000000 124 171 108 0.000000 0.000000 0.000000 0.000000 0.000000 0.000000 232.000000 0.827412 0.400259 -0.393931
-20.77000046 2.00999999 0.06000000 124 171 108 0.000000 0.000000 0.000000 0.000000 0.000000 0.000000 232.000000 0.756480 0.327432 -0.566150
-20.78000069 1.99000001 0.01000000 124 171 108 0.000000 0.000000 0.000000 0.000000 0.000000 0.000000 232.000000 0.912715 0.317782 -0.256837
-20.73999977 2.00000000 -0.02000000 124 171 108 0.000000 0.000000 0.000000 0.000000 0.000000 0.000000 232.000000 0.957696 0.287186 -0.018488
-20.77000046 1.98000002 -0.05000000 124 171 108 0.000000 0.000000 0.000000 0.000000 0.000000 0.000000 232.000000 0.942412 0.333586 -0.024099
-20.79999924 2.06999993 0.04000000 124 171 108 0.000000 0.000000 0.000000 0.000000 0.000000 0.000000 232.000000 0.920307 0.283725 -0.269323
-20.81999969 2.04999995 0.04000000 124 171 108 0.000000 0.000000 0.000000 0.000000 0.000000 0.000000 232.000000 0.969976 0.091839 -0.225195
-20.79999924 2.05999994 0.04000000 124 171 108 0.000000 0.000000 0.000000 0.000000 0.000000 0.000000 232.000000 0.841191 0.184432 -0.508313
-20.87000084 2.08999991 0.06000000 124 171 108 0.000000 0.000000 0.000000 0.000000 0.000000 0.000000 232.000000 0.985097 0.165159 0.048025
-20.85000038 2.08999991 0.05000000 124 171 108 0.000000 0.000000 0.000000 0.000000 0.000000 0.000000 232.000000 0.974563 0.221764 0.032366
-20.85000038 2.01999998 0.09000000 124 171 108 0.000000 0.000000 0.000000 0.000000 0.000000 0.000000 232.000000 0.690358 0.503143 -0.519858
-20.85000038 2.03999996 0.05000000 124 171 108 0.000000 0.000000 0.000000 0.000000 0.000000 0.000000 232.000000 0.942308 0.328043 -0.066654
-20.84000015 2.01999998 -0.04000000 124 171 108 0.000000 0.000000 0.000000 0.000000 0.000000 0.000000 232.000000 0.888085 0.459354 -0.017309
-20.80999947 2.00999999 0.03000000 124 171 108 0.000000 0.000000 0.000000 0.000000 0.000000 0.000000 232.000000 0.951469 0.278122 0.131742
-20.84000015 2.00999999 0.03000000 124 171 108 0.000000 0.000000 0.000000 0.000000 0.000000 0.000000 232.000000 0.961746 0.217084 0.167089
-20.79999924 1.99000001 -0.06000000 124 171 108 0.000000 0.000000 0.000000 0.000000 0.000000 0.000000 232.000000 0.863517 0.473827 -0.172703
-20.79000092 1.97000003 -0.12000000 124 171 108 0.000000 0.000000 0.000000 0.000000 0.000000 0.000000 232.000000 0.855735 0.323415 -0.403882
-20.78000069 1.94000006 -0.11000000 124 171 108 0.000000 0.000000 0.000000 0.000000 0.000000 0.000000 232.000000 0.798675 0.498973 0.336368
-20.79999924 1.94000006 -0.10000000 124 171 108 0.000000 0.000000 0.000000 0.000000 0.000000 0.000000 232.000000 0.930303 0.366791 0.001269
-20.79999924 1.99000001 -0.08000000 124 171 108 0.000000 0.000000 0.000000 0.000000 0.000000 0.000000 232.000000 0.970932 0.157345 -0.180371
-20.81999969 1.94000006 -0.25000000 124 171 108 0.000000 0.000000 0.000000 0.000000 0.000000 0.000000 232.000000 0.878773 0.473185 -0.062080
-20.79000092 1.92999995 -0.13000000 124 171 108 0.000000 0.000000 0.000000 0.000000 0.000000 0.000000 232.000000 0.807417 0.490161 0.328360
-20.79000092 1.90999997 -0.22000000 124 171 108 0.000000 0.000000 0.000000 0.000000 0.000000 0.000000 232.000000 0.892310 0.445466 -0.073095
-20.79000092 1.90999997 -0.23000000 124 171 108 0.000000 0.000000 0.000000 0.000000 0.000000 0.000000 232.000000 0.890316 0.455109 0.014595
-20.79000092 1.88000000 -0.23999999 124 171 108 0.000000 0.000000 0.000000 0.000000 0.000000 0.000000 232.000000 0.955177 0.262905 -0.136076
-20.72999954 2.08999991 -0.41999999 124 171 108 0.000000 0.000000 0.000000 0.000000 0.000000 0.000000 232.000000 0.953019 0.133873 0.271723
-20.71999931 2.08999991 -0.41999999 124 171 108 0.000000 0.000000 0.000000 0.000000 0.000000 0.000000 232.000000 0.670102 0.427336 0.606916
-20.80999947 1.94000006 -0.25999999 124 171 108 0.000000 0.000000 0.000000 0.000000 0.000000 0.000000 232.000000 0.666405 0.538831 0.515331
-20.79999924 1.97000003 -0.36000001 124 171 108 0.000000 0.000000 0.000000 0.000000 0.000000 0.000000 232.000000 0.923313 0.380188 0.054313
-20.75000000 2.07999992 -0.44000000 124 171 108 0.000000 0.000000 0.000000 0.000000 0.000000 0.000000 232.000000 0.735394 0.205910 0.645598
-20.76000023 1.88000000 -0.31000000 124 171 108 0.000000 0.000000 0.000000 0.000000 0.000000 0.000000 232.000000 0.861936 0.499612 -0.086335
-20.79999924 1.92999995 -0.25999999 124 171 108 0.000000 0.000000 0.000000 0.000000 0.000000 0.000000 232.000000 0.781177 0.622964 0.040966
-20.79999924 1.92999995 -0.27000001 124 171 108 0.000000 0.000000 0.000000 0.000000 0.000000 0.000000 232.000000 0.797991 0.601649 0.035061
-20.79999924 1.88000000 -0.37000000 124 171 108 0.000000 0.000000 0.000000 0.000000 0.000000 0.000000 232.000000 0.838360 0.544728 0.020582
-20.79999924 1.87000000 -0.36000001 124 171 108 0.000000 0.000000 0.000000 0.000000 0.000000 0.000000 232.000000 0.656634 0.603167 0.452793
-20.79999924 1.88000000 -0.37000000 124 171 108 0.000000 0.000000 0.000000 0.000000 0.000000 0.000000 232.000000 0.838360 0.544728 0.020582
-20.28000069 2.64000010 -0.63000000 124 171 108 0.000000 0.000000 0.000000 0.000000 0.000000 0.000000 232.000000 0.084963 0.198248 0.976463
-20.28000069 2.61999989 -0.64999998 124 171 108 0.000000 0.000000 0.000000 0.000000 0.000000 0.000000 232.000000 -0.012298 -0.144228 0.989468
-20.27000046 2.67000008 -0.62000000 124 171 108 0.000000 0.000000 0.000000 0.000000 0.000000 0.000000 232.000000 0.009072 0.400462 0.916268
-20.29000092 2.68000007 -0.63000000 124 171 108 0.000000 0.000000 0.000000 0.000000 0.000000 0.000000 232.000000 -0.088793 0.480610 0.872427
-20.29999924 2.61999989 -0.63000000 124 171 108 0.000000 0.000000 0.000000 0.000000 0.000000 0.000000 232.000000 -0.184914 -0.091845 0.978453
-20.29999924 2.65000010 -0.62000000 124 171 108 0.000000 0.000000 0.000000 0.000000 0.000000 0.000000 232.000000 -0.197072 0.503963 0.840942
-20.53000069 2.28999996 -0.73000002 124 171 108 0.000000 0.000000 0.000000 0.000000 0.000000 0.000000 232.000000 0.577450 0.284748 0.765161
-20.51000023 2.31999993 -0.75000000 124 171 108 0.000000 0.000000 0.000000 0.000000 0.000000 0.000000 232.000000 0.398909 0.607467 0.686918
-20.51000023 2.29999995 -0.73000002 124 171 108 0.000000 0.000000 0.000000 0.000000 0.000000 0.000000 232.000000 0.421439 -0.009133 0.906811
-20.38999939 2.39000010 -0.87000000 124 171 108 0.000000 0.000000 0.000000 0.000000 0.000000 0.000000 232.000000 -0.312876 0.105179 0.943952
-20.37000084 2.30999994 -0.80000001 124 171 108 0.000000 0.000000 0.000000 0.000000 0.000000 0.000000 232.000000 0.479382 0.360739 0.800038
-20.45000076 2.27999997 -0.77999997 124 171 108 0.000000 0.000000 0.000000 0.000000 0.000000 0.000000 232.000000 0.205496 0.386216 0.899227
-20.40999985 2.29999995 -0.85000002 124 171 108 0.000000 0.000000 0.000000 0.000000 0.000000 0.000000 232.000000 0.406699 -0.038418 0.912754
-20.44000053 2.27999997 -0.81999999 124 171 108 0.000000 0.000000 0.000000 0.000000 0.000000 0.000000 232.000000 0.381814 0.508544 0.771752
-20.45000076 2.29999995 -0.81999999 124 171 108 0.000000 0.000000 0.000000 0.000000 0.000000 0.000000 232.000000 0.429440 0.107710 0.896649
-20.43000031 2.28999996 -0.83999997 124 171 108 0.000000 0.000000 0.000000 0.000000 0.000000 0.000000 232.000000 0.444366 0.310277 0.840397
-20.37999916 2.31999993 -0.86000001 124 171 108 0.000000 0.000000 0.000000 0.000000 0.000000 0.000000 232.000000 -0.211955 0.101588 0.971985
-20.45999908 2.31999993 -0.82999998 124 171 108 0.000000 0.000000 0.000000 0.000000 0.000000 0.000000 232.000000 0.066981 -0.060392 0.995925
-20.45999908 2.31999993 -0.82999998 124 171 108 0.000000 0.000000 0.000000 0.000000 0.000000 0.000000 232.000000 0.066981 -0.060392 0.995925
-20.45999908 2.30999994 -0.79000002 124 171 108 0.000000 0.000000 0.000000 0.000000 0.000000 0.000000 232.000000 0.073012 0.351786 0.933229
-20.38999939 2.19000006 -0.67000002 124 171 108 0.000000 0.000000 0.000000 0.000000 0.000000 0.000000 232.000000 0.512590 -0.051398 0.857094
-20.45000076 2.11999989 -0.75000000 124 171 108 0.000000 0.000000 0.000000 0.000000 0.000000 0.000000 232.000000 -0.031184 0.484025 0.874498
-20.53000069 2.22000003 -0.69000000 124 171 108 0.000000 0.000000 0.000000 0.000000 0.000000 0.000000 232.000000 0.394574 0.124088 0.910447
-20.47999954 2.21000004 -0.72000003 124 171 108 0.000000 0.000000 0.000000 0.000000 0.000000 0.000000 232.000000 0.360178 0.366361 0.857934
-20.46999931 2.15000010 -0.66000003 124 171 108 0.000000 0.000000 0.000000 0.000000 0.000000 0.000000 232.000000 0.571345 0.087788 0.816001
-20.48999977 2.16000009 -0.70999998 124 171 108 0.000000 0.000000 0.000000 0.000000 0.000000 0.000000 232.000000 0.232628 0.430737 0.871980
-20.51000023 2.16000009 -0.69000000 124 171 108 0.000000 0.000000 0.000000 0.000000 0.000000 0.000000 232.000000 0.667184 0.006935 0.744860
-20.50000000 2.16000009 -0.70999998 124 171 108 0.000000 0.000000 0.000000 0.000000 0.000000 0.000000 232.000000 0.637939 0.247300 0.729298
-20.50000000 2.15000010 -0.69999999 124 171 108 0.000000 0.000000 0.000000 0.000000 0.000000 0.000000 232.000000 0.170287 0.083332 0.981865
-20.51000023 2.19000006 -0.73000002 124 171 108 0.000000 0.000000 0.000000 0.000000 0.000000 0.000000 232.000000 0.402442 0.136971 0.905141
-20.50000000 2.13000011 -0.69000000 124 171 108 0.000000 0.000000 0.000000 0.000000 0.000000 0.000000 232.000000 0.219556 0.535839 0.815274
-20.50000000 2.14000010 -0.69999999 124 171 108 0.000000 0.000000 0.000000 0.000000 0.000000 0.000000 232.000000 0.172732 0.214926 0.961234
-20.50000000 2.13000011 -0.69999999 124 171 108 0.000000 0.000000 0.000000 0.000000 0.000000 0.000000 232.000000 0.282805 0.458979 0.842235
-20.51000023 2.11999989 -0.75000000 124 171 108 0.000000 0.000000 0.000000 0.000000 0.000000 0.000000 232.000000 0.717849 0.293885 0.631129
-20.46999931 2.26999998 -0.81999999 124 171 108 0.000000 0.000000 0.000000 0.000000 0.000000 0.000000 232.000000 0.337491 -0.058637 0.939501
-20.52000046 2.25000000 -0.79000002 124 171 108 0.000000 0.000000 0.000000 0.000000 0.000000 0.000000 232.000000 -0.062510 0.376390 0.924350
-20.45999908 2.26999998 -0.81000000 124 171 108 0.000000 0.000000 0.000000 0.000000 0.000000 0.000000 232.000000 0.151388 0.436861 0.886698
-20.59000015 2.36999989 -0.75999999 124 171 108 0.000000 0.000000 0.000000 0.000000 0.000000 0.000000 232.000000 0.115503 0.568741 0.814367
-20.59000015 2.27999997 -0.63999999 124 171 108 0.000000 0.000000 0.000000 0.000000 0.000000 0.000000 232.000000 0.783315 0.317474 0.534441
-20.60000038 2.27999997 -0.63999999 124 171 108 0.000000 0.000000 0.000000 0.000000 0.000000 0.000000 232.000000 0.523303 0.456852 0.719334
-20.54999924 2.29999995 -0.72000003 124 171 108 0.000000 0.000000 0.000000 0.000000 0.000000 0.000000 232.000000 0.633115 -0.029480 0.773496
-20.56999969 2.28999996 -0.69999999 124 171 108 0.000000 0.000000 0.000000 0.000000 0.000000 0.000000 232.000000 0.584447 0.197884 0.786933
-20.54999924 2.29999995 -0.75000000 124 171 108 0.000000 0.000000 0.000000 0.000000 0.000000 0.000000 232.000000 0.532946 0.321688 0.782614
-20.54000092 2.30999994 -0.73000002 124 171 108 0.000000 0.000000 0.000000 0.000000 0.000000 0.000000 232.000000 0.326269 0.177838 0.928398
-20.54999924 2.30999994 -0.75000000 124 171 108 0.000000 0.000000 0.000000 0.000000 0.000000 0.000000 232.000000 0.348386 0.512143 0.785072
-20.54999924 2.20000005 -0.64999998 124 171 108 0.000000 0.000000 0.000000 0.000000 0.000000 0.000000 232.000000 0.425264 0.101784 0.899328
-20.60000038 2.24000001 -0.63000000 124 171 108 0.000000 0.000000 0.000000 0.000000 0.000000 0.000000 232.000000 0.813631 0.303734 0.495732
-20.59000015 2.25999999 -0.66000003 124 171 108 0.000000 0.000000 0.000000 0.000000 0.000000 0.000000 232.000000 0.350909 0.598993 0.719771
-20.61000061 2.20000005 -0.62000000 124 171 108 0.000000 0.000000 0.000000 0.000000 0.000000 0.000000 232.000000 0.814500 0.260079 0.518602
-20.56999969 2.25999999 -0.69999999 124 171 108 0.000000 0.000000 0.000000 0.000000 0.000000 0.000000 232.000000 0.459499 -0.085196 0.884082
-20.54999924 2.26999998 -0.74000001 124 171 108 0.000000 0.000000 0.000000 0.000000 0.000000 0.000000 232.000000 0.458560 0.394201 0.796447
-20.57999992 2.14000010 -0.67000002 124 171 108 0.000000 0.000000 0.000000 0.000000 0.000000 0.000000 232.000000 0.702413 0.185978 0.687043
-20.56999969 2.13000011 -0.67000002 124 171 108 0.000000 0.000000 0.000000 0.000000 0.000000 0.000000 232.000000 0.801464 0.234083 0.550328
-20.57999992 2.14000010 -0.68000001 124 171 108 0.000000 0.000000 0.000000 0.000000 0.000000 0.000000 232.000000 0.741709 0.409502 0.531202
-20.56999969 2.13000011 -0.67000002 124 171 108 0.000000 0.000000 0.000000 0.000000 0.000000 0.000000 232.000000 0.801464 0.234083 0.550328
-20.55999947 2.13000011 -0.69000000 124 171 108 0.000000 0.000000 0.000000 0.000000 0.000000 0.000000 232.000000 0.627116 0.079657 0.774843
-20.44000053 2.02999997 -0.61000001 124 171 108 0.000000 0.000000 0.000000 0.000000 0.000000 0.000000 232.000000 0.423540 -0.128904 0.896659
-20.45000076 2.03999996 -0.61000001 124 171 108 0.000000 0.000000 0.000000 0.000000 0.000000 0.000000 232.000000 0.086632 0.141222 0.986180
-20.45000076 2.02999997 -0.60000002 124 171 108 0.000000 0.000000 0.000000 0.000000 0.000000 0.000000 232.000000 0.638937 0.258429 0.724551
-20.45000076 2.03999996 -0.68000001 124 171 108 0.000000 0.000000 0.000000 0.000000 0.000000 0.000000 232.000000 0.201804 0.614656 0.762543
-20.45000076 2.03999996 -0.63999999 124 171 108 0.000000 0.000000 0.000000 0.000000 0.000000 0.000000 232.000000 0.302571 0.262035 0.916400
-20.44000053 2.02999997 -0.70999998 124 171 108 0.000000 0.000000 0.000000 0.000000 0.000000 0.000000 232.000000 0.595998 0.423341 0.682326
-20.45999908 2.02999997 -0.61000001 124 171 108 0.000000 0.000000 0.000000 0.000000 0.000000 0.000000 232.000000 0.462988 0.208270 0.861548
-20.48999977 2.04999995 -0.63000000 124 171 108 0.000000 0.000000 0.000000 0.000000 0.000000 0.000000 232.000000 0.190727 0.056378 0.980023
-20.47999954 2.01999998 -0.68000001 124 171 108 0.000000 0.000000 0.000000 0.000000 0.000000 0.000000 232.000000 0.715229 0.203243 0.668685
-20.46999931 2.04999995 -0.67000002 124 171 108 0.000000 0.000000 0.000000 0.000000 0.000000 0.000000 232.000000 0.646824 0.398682 0.650132
-20.52000046 2.08999991 -0.60000002 124 171 108 0.000000 0.000000 0.000000 0.000000 0.000000 0.000000 232.000000 0.776727 0.218600 0.590685
-20.51000023 2.01999998 -0.63000000 124 171 108 0.000000 0.000000 0.000000 0.000000 0.000000 0.000000 232.000000 0.271969 0.539221 0.797041
-20.53000069 2.03999996 -0.63000000 124 171 108 0.000000 0.000000 0.000000 0.000000 0.000000 0.000000 232.000000 0.458077 0.554690 0.694611
-20.46999931 2.08999991 -0.74000001 124 171 108 0.000000 0.000000 0.000000 0.000000 0.000000 0.000000 232.000000 0.410703 0.268245 0.871417
-20.45999908 2.03999996 -0.70999998 124 171 108 0.000000 0.000000 0.000000 0.000000 0.000000 0.000000 232.000000 0.216087 0.439626 0.871800
-20.45999908 2.03999996 -0.70999998 124 171 108 0.000000 0.000000 0.000000 0.000000 0.000000 0.000000 232.000000 0.216087 0.439626 0.871800
-20.53000069 2.05999994 -0.69000000 124 171 108 0.000000 0.000000 0.000000 0.000000 0.000000 0.000000 232.000000 0.417840 -0.025044 0.908175
-20.52000046 2.01999998 -0.73000002 124 171 108 0.000000 0.000000 0.000000 0.000000 0.000000 0.000000 232.000000 0.467493 0.635053 0.614946
-20.46999931 2.00999999 -0.62000000 124 171 108 0.000000 0.000000 0.000000 0.000000 0.000000 0.000000 232.000000 0.423752 0.609871 0.669695
-20.47999954 2.00999999 -0.67000002 124 171 108 0.000000 0.000000 0.000000 0.000000 0.000000 0.000000 232.000000 0.569408 0.452520 0.686295
-20.51000023 2.00999999 -0.68000001 124 171 108 0.000000 0.000000 0.000000 0.000000 0.000000 0.000000 232.000000 0.153903 0.266318 0.951519
-20.45000076 2.09999990 -0.79000002 124 171 108 0.000000 0.000000 0.000000 0.000000 0.000000 0.000000 232.000000 0.486755 0.222907 0.844619
-20.45000076 2.07999992 -0.76999998 124 171 108 0.000000 0.000000 0.000000 0.000000 0.000000 0.000000 232.000000 0.432452 0.508090 0.744869
-20.56999969 2.05999994 -0.66000003 124 171 108 0.000000 0.000000 0.000000 0.000000 0.000000 0.000000 232.000000 0.178538 0.300331 0.936977
-20.59000015 2.04999995 -0.69000000 124 171 108 0.000000 0.000000 0.000000 0.000000 0.000000 0.000000 232.000000 0.502288 0.187421 0.844144
-20.28000069 2.66000009 0.22000000 124 171 108 0.000000 0.000000 0.000000 0.000000 0.000000 0.000000 232.000000 0.035504 -0.147743 0.988388
-20.35000038 2.65000010 0.20000000 124 171 108 0.000000 0.000000 0.000000 0.000000 0.000000 0.000000 232.000000 0.037598 0.234079 0.971490
-20.36000061 2.61999989 0.20000000 124 171 108 0.000000 0.000000 0.000000 0.000000 0.000000 0.000000 232.000000 0.069619 0.028919 0.997154
-20.34000015 2.51999998 0.20999999 124 171 108 0.000000 0.000000 0.000000 0.000000 0.000000 0.000000 232.000000 -0.352320 0.292351 0.889045
-20.35000038 2.59999990 0.17000000 124 171 108 0.000000 0.000000 0.000000 0.000000 0.000000 0.000000 232.000000 -0.319948 0.008715 0.947395
-20.34000015 2.50999999 0.20000000 124 171 108 0.000000 0.000000 0.000000 0.000000 0.000000 0.000000 232.000000 -0.449150 0.240454 0.860492
-20.18000031 2.35999990 0.28999999 124 171 108 0.000000 0.000000 0.000000 0.000000 0.000000 0.000000 232.000000 -0.265117 0.178104 0.947624
-20.20000076 2.35999990 0.28999999 124 171 108 0.000000 0.000000 0.000000 0.000000 0.000000 0.000000 232.000000 0.042359 -0.221474 0.974246
-20.20000076 2.35999990 0.31000000 124 171 108 0.000000 0.000000 0.000000 0.000000 0.000000 0.000000 232.000000 -0.213515 0.091150 0.972678
-20.20999908 2.34999990 0.31000000 124 171 108 0.000000 0.000000 0.000000 0.000000 0.000000 0.000000 232.000000 -0.128632 0.143333 0.981279
-20.25000000 2.32999992 0.31000000 124 171 108 0.000000 0.000000 0.000000 0.000000 0.000000 0.000000 232.000000 -0.306099 0.229218 0.923993
-20.26000023 2.33999991 0.31000000 124 171 108 0.000000 0.000000 0.000000 0.000000 0.000000 0.000000 232.000000 -0.066867 0.148984 0.986576
-20.21999931 2.32999992 0.31000000 124 171 108 0.000000 0.000000 0.000000 0.000000 0.000000 0.000000 232.000000 0.093379 0.066378 0.993415
-20.36000061 2.28999996 0.28999999 124 171 108 0.000000 0.000000 0.000000 0.000000 0.000000 0.000000 232.000000 -0.483986 0.212592 0.848860
-20.31999969 2.30999994 0.31000000 124 171 108 0.000000 0.000000 0.000000 0.000000 0.000000 0.000000 232.000000 -0.101544 0.250646 0.962738
-20.36000061 2.27999997 0.30000001 124 171 108 0.000000 0.000000 0.000000 0.000000 0.000000 0.000000 232.000000 -0.585580 0.066964 0.807844
-20.29999924 2.32999992 0.31000000 124 171 108 0.000000 0.000000 0.000000 0.000000 0.000000 0.000000 232.000000 -0.193804 0.095050 0.976425
-20.32999992 2.30999994 0.31000000 124 171 108 0.000000 0.000000 0.000000 0.000000 0.000000 0.000000 232.000000 -0.539182 0.257869 0.801740
-20.34000015 2.30999994 0.27000001 124 171 108 0.000000 0.000000 0.000000 0.000000 0.000000 0.000000 232.000000 -0.392363 0.003859 0.919802
-20.35000038 2.31999993 0.27000001 124 171 108 0.000000 0.000000 0.000000 0.000000 0.000000 0.000000 232.000000 -0.224001 0.003518 0.974582
-20.32999992 2.31999993 0.30000001 124 171 108 0.000000 0.000000 0.000000 0.000000 0.000000 0.000000 232.000000 -0.459135 0.050410 0.886935
-20.29999924 2.31999993 0.31000000 124 171 108 0.000000 0.000000 0.000000 0.000000 0.000000 0.000000 232.000000 -0.288940 0.449634 0.845188
-20.34000015 2.27999997 0.30000001 124 171 108 0.000000 0.000000 0.000000 0.000000 0.000000 0.000000 232.000000 -0.224647 -0.091616 0.970124
-20.35000038 2.42000008 0.20999999 124 171 108 0.000000 0.000000 0.000000 0.000000 0.000000 0.000000 232.000000 -0.569694 0.258952 0.779995
-20.29999924 2.42000008 0.13000000 124 171 108 0.000000 0.000000 0.000000 0.000000 0.000000 0.000000 232.000000 0.220663 -0.118622 0.968110
-20.29999924 2.35999990 0.25000000 124 171 108 0.000000 0.000000 0.000000 0.000000 0.000000 0.000000 232.000000 -0.197466 0.511000 0.836592
-20.29000092 2.34999990 0.25999999 124 171 108 0.000000 0.000000 0.000000 0.000000 0.000000 0.000000 232.000000 -0.029482 0.196938 0.979973
-20.29999924 2.29999995 0.22000000 124 171 108 0.000000 0.000000 0.000000 0.000000 0.000000 0.000000 232.000000 -0.277741 -0.161225 0.947030
-20.27000046 2.26999998 0.31000000 124 171 108 0.000000 0.000000 0.000000 0.000000 0.000000 0.000000 232.000000 -0.150162 -0.097305 0.983861
-20.37000084 2.67000008 0.18000001 124 171 108 0.000000 0.000000 0.000000 0.000000 0.000000 0.000000 232.000000 0.162095 0.200998 0.966087
-20.43000031 2.64000010 0.15000001 124 171 108 0.000000 0.000000 0.000000 0.000000 0.000000 0.000000 232.000000 -0.313713 0.230629 0.921083
-20.37000084 2.61999989 0.20999999 124 171 108 0.000000 0.000000 0.000000 0.000000 0.000000 0.000000 232.000000 -0.220185 -0.115820 0.968558
-20.40999985 2.65000010 0.16000000 124 171 108 0.000000 0.000000 0.000000 0.000000 0.000000 0.000000 232.000000 -0.171509 0.075560 0.982281
-20.37000084 2.61999989 0.20000000 124 171 108 0.000000 0.000000 0.000000 0.000000 0.000000 0.000000 232.000000 0.228380 0.222910 0.947710
-20.43000031 2.67000008 0.17000000 124 171 108 0.000000 0.000000 0.000000 0.000000 0.000000 0.000000 232.000000 -0.424413 0.235452 0.874320
-20.39999962 2.60999990 0.20000000 124 171 108 0.000000 0.000000 0.000000 0.000000 0.000000 0.000000 232.000000 -0.517894 -0.051373 0.853901
-20.42000008 2.57999992 0.15000001 124 171 108 0.000000 0.000000 0.000000 0.000000 0.000000 0.000000 232.000000 -0.489196 -0.144568 0.860109
-20.37000084 2.60999990 0.15000001 124 171 108 0.000000 0.000000 0.000000 0.000000 0.000000 0.000000 232.000000 -0.482771 0.179739 0.857104
-20.46999931 2.49000001 0.23000000 124 171 108 0.000000 0.000000 0.000000 0.000000 0.000000 0.000000 232.000000 -0.087115 0.289951 0.953068
-20.37000084 2.30999994 0.27000001 124 171 108 0.000000 0.000000 0.000000 0.000000 0.000000 0.000000 232.000000 -0.494282 -0.160826 0.854296
-20.52000046 2.31999993 0.28999999 124 171 108 0.000000 0.000000 0.000000 0.000000 0.000000 0.000000 232.000000 -0.643547 -0.276262 0.713811
-20.53000069 2.31999993 0.28000000 124 171 108 0.000000 0.000000 0.000000 0.000000 0.000000 0.000000 232.000000 0.672491 0.366664 -0.642895
-20.52000046 2.32999992 0.31999999 124 171 108 0.000000 0.000000 0.000000 0.000000 0.000000 0.000000 232.000000 -0.126597 -0.030249 0.991493
-20.37000084 2.30999994 0.27000001 124 171 108 0.000000 0.000000 0.000000 0.000000 0.000000 0.000000 232.000000 -0.494282 -0.160826 0.854296
-20.43000031 2.44000006 0.20999999 124 171 108 0.000000 0.000000 0.000000 0.000000 0.000000 0.000000 232.000000 -0.359034 -0.098904 0.928069
-20.39999962 2.39000010 0.17000000 124 171 108 0.000000 0.000000 0.000000 0.000000 0.000000 0.000000 232.000000 -0.381222 -0.244754 0.891496
-20.37999916 2.39000010 0.11000000 124 171 108 0.000000 0.000000 0.000000 0.000000 0.000000 0.000000 232.000000 -0.501183 0.403232 0.765650
-20.40999985 2.36999989 0.12000000 124 171 108 0.000000 0.000000 0.000000 0.000000 0.000000 0.000000 232.000000 -0.513747 -0.120116 0.849492
-20.37999916 2.31999993 0.20999999 124 171 108 0.000000 0.000000 0.000000 0.000000 0.000000 0.000000 232.000000 0.717928 -0.032441 -0.695361
-20.45000076 2.29999995 0.18000001 124 171 108 0.000000 0.000000 0.000000 0.000000 0.000000 0.000000 232.000000 -0.432815 -0.126297 0.892592
