//X Y Z R G B PointSourceId ScanDirectionFlag NumberOfReturns ReturnNumber GpsTime Intensity Classification Nx Ny Nz
0.50000000 -7.80999994 -1.48000002 192 111 104 0.000000 0.000000 0.000000 0.000000 0.000000 0.000000 56.000000 0.589539 0.263949 0.763397
0.47999999 -7.78999996 -1.47000003 192 111 104 0.000000 0.000000 0.000000 0.000000 0.000000 0.000000 56.000000 0.702468 0.114355 0.702468
0.49000001 -7.80000019 -1.48000002 192 111 104 0.000000 0.000000 0.000000 0.000000 0.000000 0.000000 56.000000 0.423279 0.176002 0.888740
0.50999999 -7.78000021 -1.53999996 192 111 104 0.000000 0.000000 0.000000 0.000000 0.000000 0.000000 56.000000 0.692573 0.713247 -0.107799
0.49000001 -7.78000021 -1.53999996 192 111 104 0.000000 0.000000 0.000000 0.000000 0.000000 0.000000 56.000000 0.879500 0.461773 -0.115088
0.50000000 -7.82999992 -1.47000003 192 111 104 0.000000 0.000000 0.000000 0.000000 0.000000 0.000000 56.000000 0.552881 -0.230754 0.800671
0.50999999 -7.82000017 -1.48000002 192 111 104 0.000000 0.000000 0.000000 0.000000 0.000000 0.000000 56.000000 0.734106 0.117160 0.668852
0.49000001 -7.82000017 -1.46000004 192 111 104 0.000000 0.000000 0.000000 0.000000 0.000000 0.000000 56.000000 0.415837 -0.125456 0.900744
0.50999999 -7.82999992 -1.49000001 192 111 104 0.000000 0.000000 0.000000 0.000000 0.000000 0.000000 56.000000 0.786196 -0.046747 0.616207
0.49000001 -7.86000013 -1.49000001 192 111 104 0.000000 0.000000 0.000000 0.000000 0.000000 0.000000 56.000000 0.334214 0.383499 0.860947
0.47999999 -7.82000017 -1.50999999 192 111 104 0.000000 0.000000 0.000000 0.000000 0.000000 0.000000 56.000000 0.824794 0.258425 0.502923
0.50999999 -7.84999990 -1.51999998 192 111 104 0.000000 0.000000 0.000000 0.000000 0.000000 0.000000 56.000000 0.914455 0.217453 0.341301
0.50999999 -7.82999992 -1.53999996 192 111 104 0.000000 0.000000 0.000000 0.000000 0.000000 0.000000 56.000000 0.884212 0.442827 -0.148571
0.47999999 -7.82000017 -1.50000000 192 111 104 0.000000 0.000000 0.000000 0.000000 0.000000 0.000000 56.000000 0.907492 0.035874 0.418536
0.43000001 -7.78000021 -1.47000003 192 111 104 0.000000 0.000000 0.000000 0.000000 0.000000 0.000000 56.000000 -0.145819 -0.181323 0.972553
0.44000000 -7.78000021 -1.49000001 192 111 104 0.000000 0.000000 0.000000 0.000000 0.000000 0.000000 56.000000 0.457383 -0.275662 0.845465
0.43000001 -7.80999994 -1.47000003 192 111 104 0.000000 0.000000 0.000000 0.000000 0.000000 0.000000 56.000000 -0.062946 -0.030940 0.997537
0.44999999 -7.78999996 -1.47000003 192 111 104 0.000000 0.000000 0.000000 0.000000 0.000000 0.000000 56.000000 0.644430 0.043906 0.763402
0.44000000 -7.84000015 -1.48000002 192 111 104 0.000000 0.000000 0.000000 0.000000 0.000000 0.000000 56.000000 -0.015174 -0.201926 0.979283
0.43000001 -7.82999992 -1.48000002 192 111 104 0.000000 0.000000 0.000000 0.000000 0.000000 0.000000 56.000000 -0.131622 -0.581206 0.803041
0.44999999 -7.84999990 -1.48000002 192 111 104 0.000000 0.000000 0.000000 0.000000 0.000000 0.000000 56.000000 0.032383 -0.219483 0.975079
0.44000000 -7.86000013 -1.48000002 192 111 104 0.000000 0.000000 0.000000 0.000000 0.000000 0.000000 56.000000 -0.021016 0.003002 0.999775
0.43000001 -7.84000015 -1.46000004 192 111 104 0.000000 0.000000 0.000000 0.000000 0.000000 0.000000 56.000000 0.160166 -0.299798 0.940462
0.46000001 -7.84000015 -1.49000001 192 111 104 0.000000 0.000000 0.000000 0.000000 0.000000 0.000000 56.000000 -0.173999 -0.200164 0.964188
0.46000001 -7.84999990 -1.48000002 192 111 104 0.000000 0.000000 0.000000 0.000000 0.000000 0.000000 56.000000 -0.239676 -0.397475 0.885759
0.44999999 -7.82999992 -1.46000004 192 111 104 0.000000 0.000000 0.000000 0.000000 0.000000 0.000000 56.000000 -0.129367 -0.032623 0.991060
0.44000000 -7.82000017 -1.47000003 192 111 104 0.000000 0.000000 0.000000 0.000000 0.000000 0.000000 56.000000 -0.357256 -0.423357 0.832549
0.44999999 -7.84000015 -1.51999998 192 111 104 0.000000 0.000000 0.000000 0.000000 0.000000 0.000000 56.000000 -0.348205 -0.274119 0.896444
0.50999999 -7.78000021 -1.54999995 192 111 104 0.000000 0.000000 0.000000 0.000000 0.000000 0.000000 56.000000 0.667452 0.722689 -0.179522
0.38999999 -7.59000015 -1.42999995 192 111 104 0.000000 0.000000 0.000000 0.000000 0.000000 0.000000 56.000000 0.793152 0.265431 0.548139
0.41000000 -7.59000015 -1.41999996 192 111 104 0.000000 0.000000 0.000000 0.000000 0.000000 0.000000 56.000000 0.910948 0.052323 0.409189
0.37000000 -7.55000019 -1.44000006 192 111 104 0.000000 0.000000 0.000000 0.000000 0.000000 0.000000 56.000000 0.778496 0.225313 0.585814
0.34999999 -7.53000021 -1.45000005 192 111 104 0.000000 0.000000 0.000000 0.000000 0.000000 0.000000 56.000000 0.815954 0.492088 0.303428
0.38000000 -7.59999990 -1.39999998 192 111 104 0.000000 0.000000 0.000000 0.000000 0.000000 0.000000 56.000000 -0.022659 0.087399 0.995916
0.38000000 -7.57999992 -1.42999995 192 111 104 0.000000 0.000000 0.000000 0.000000 0.000000 0.000000 56.000000 0.346003 -0.032156 0.937682
0.38999999 -7.63000011 -1.38999999 192 111 104 0.000000 0.000000 0.000000 0.000000 0.000000 0.000000 56.000000 -0.047340 0.032612 0.998346
0.38999999 -7.63999987 -1.42999995 192 111 104 0.000000 0.000000 0.000000 0.000000 0.000000 0.000000 56.000000 0.435968 -0.239858 0.867410
0.41000000 -7.63999987 -1.44000006 192 111 104 0.000000 0.000000 0.000000 0.000000 0.000000 0.000000 56.000000 0.519222 0.360706 0.774790
0.40000001 -7.63999987 -1.42999995 192 111 104 0.000000 0.000000 0.000000 0.000000 0.000000 0.000000 56.000000 0.588273 0.058119 0.806571
0.40000001 -7.67999983 -1.40999997 192 111 104 0.000000 0.000000 0.000000 0.000000 0.000000 0.000000 56.000000 0.010746 -0.239992 0.970715
0.38999999 -7.67000008 -1.40999997 192 111 104 0.000000 0.000000 0.000000 0.000000 0.000000 0.000000 56.000000 0.066414 -0.249364 0.966130
0.40000001 -7.67000008 -1.41999996 192 111 104 0.000000 0.000000 0.000000 0.000000 0.000000 0.000000 56.000000 0.424749 -0.198412 0.883301
0.41000000 -7.65000010 -1.42999995 192 111 104 0.000000 0.000000 0.000000 0.000000 0.000000 0.000000 56.000000 0.570996 0.412110 0.710021
0.37000000 -7.63000011 -1.39999998 192 111 104 0.000000 0.000000 0.000000 0.000000 0.000000 0.000000 56.000000 0.068199 -0.488525 0.869881
0.34999999 -7.63000011 -1.40999997 192 111 104 0.000000 0.000000 0.000000 0.000000 0.000000 0.000000 56.000000 -0.062346 -0.216379 0.974317
0.37000000 -7.65999985 -1.42999995 192 111 104 0.000000 0.000000 0.000000 0.000000 0.000000 0.000000 56.000000 0.380952 -0.201340 0.902407
0.37000000 -7.65000010 -1.42999995 192 111 104 0.000000 0.000000 0.000000 0.000000 0.000000 0.000000 56.000000 0.389239 -0.306812 0.868538
0.34000000 -7.65999985 -1.41999996 192 111 104 0.000000 0.000000 0.000000 0.000000 0.000000 0.000000 56.000000 -0.150475 -0.228983 0.961730
0.36000001 -7.69000006 -1.44000006 192 111 104 0.000000 0.000000 0.000000 0.000000 0.000000 0.000000 56.000000 -0.128023 -0.406578 0.904602
0.37000000 -7.67999983 -1.44000006 192 111 104 0.000000 0.000000 0.000000 0.000000 0.000000 0.000000 56.000000 0.191967 -0.066404 0.979152
0.31999999 -7.55999994 -1.34000003 192 111 104 0.000000 0.000000 0.000000 0.000000 0.000000 0.000000 56.000000 -0.175594 0.001133 0.984462
0.33000001 -7.53999996 -1.38999999 192 111 104 0.000000 0.000000 0.000000 0.000000 0.000000 0.000000 56.000000 0.196952 0.194308 0.960965
0.31999999 -7.57000017 -1.38000000 192 111 104 0.000000 0.000000 0.000000 0.000000 0.000000 0.000000 56.000000 0.273778 -0.056774 0.960116
0.30000001 -7.59000015 -1.38999999 192 111 104 0.000000 0.000000 0.000000 0.000000 0.000000 0.000000 56.000000 -0.144447 -0.570343 0.808606
0.31000000 -7.59000015 -1.38000000 192 111 104 0.000000 0.000000 0.000000 0.000000 0.000000 0.000000 56.000000 -0.044259 -0.422471 0.905295
0.33000001 -7.59000015 -1.38000000 192 111 104 0.000000 0.000000 0.000000 0.000000 0.000000 0.000000 56.000000 -0.215321 -0.356941 0.908972
0.31999999 -7.57999992 -1.38000000 192 111 104 0.000000 0.000000 0.000000 0.000000 0.000000 0.000000 56.000000 0.164503 -0.103576 0.980924
0.31000000 -7.57999992 -1.38000000 192 111 104 0.000000 0.000000 0.000000 0.000000 0.000000 0.000000 56.000000 0.197293 -0.133650 0.971192
0.31999999 -7.57000017 -1.38000000 192 111 104 0.000000 0.000000 0.000000 0.000000 0.000000 0.000000 56.000000 0.273778 -0.056774 0.960116
0.33000001 -7.59000015 -1.40999997 192 111 104 0.000000 0.000000 0.000000 0.000000 0.000000 0.000000 56.000000 0.132796 -0.190973 0.972571
0.28999999 -7.55000019 -1.39999998 192 111 104 0.000000 0.000000 0.000000 0.000000 0.000000 0.000000 56.000000 -0.056897 -0.046162 0.997312
0.25999999 -7.55999994 -1.37000000 192 111 104 0.000000 0.000000 0.000000 0.000000 0.000000 0.000000 56.000000 0.532339 0.472263 -0.702554
0.27000001 -7.57999992 -1.38000000 192 111 104 0.000000 0.000000 0.000000 0.000000 0.000000 0.000000 56.000000 -0.573034 -0.280961 0.769866
0.25999999 -7.57000017 -1.39999998 192 111 104 0.000000 0.000000 0.000000 0.000000 0.000000 0.000000 56.000000 -0.384281 -0.378007 0.842282
0.27000001 -7.57000017 -1.37000000 192 111 104 0.000000 0.000000 0.000000 0.000000 0.000000 0.000000 56.000000 -0.238918 -0.431254 0.870022
0.25999999 -7.59000015 -1.40999997 192 111 104 0.000000 0.000000 0.000000 0.000000 0.000000 0.000000 56.000000 0.503294 0.611022 -0.611022
0.25999999 -7.59000015 -1.38999999 192 111 104 0.000000 0.000000 0.000000 0.000000 0.000000 0.000000 56.000000 0.719085 0.127073 -0.683205
0.31999999 -7.63000011 -1.38999999 192 111 104 0.000000 0.000000 0.000000 0.000000 0.000000 0.000000 56.000000 0.103839 -0.408434 0.906862
0.30000001 -7.63000011 -1.38999999 192 111 104 0.000000 0.000000 0.000000 0.000000 0.000000 0.000000 56.000000 -0.505127 -0.065765 0.860536
0.31000000 -7.61999989 -1.37000000 192 111 104 0.000000 0.000000 0.000000 0.000000 0.000000 0.000000 56.000000 -0.275996 -0.503654 0.818632
0.31999999 -7.63000011 -1.38999999 192 111 104 0.000000 0.000000 0.000000 0.000000 0.000000 0.000000 56.000000 0.103839 -0.408434 0.906862
0.31000000 -7.63999987 -1.38999999 192 111 104 0.000000 0.000000 0.000000 0.000000 0.000000 0.000000 56.000000 -0.121588 -0.552274 0.824748
0.31999999 -7.69000006 -1.44000006 192 111 104 0.000000 0.000000 0.000000 0.000000 0.000000 0.000000 56.000000 0.572176 0.632938 -0.521541
0.30000001 -7.65999985 -1.44000006 192 111 104 0.000000 0.000000 0.000000 0.000000 0.000000 0.000000 56.000000 0.573477 0.644111 -0.506207
0.31999999 -7.69000006 -1.45000005 192 111 104 0.000000 0.000000 0.000000 0.000000 0.000000 0.000000 56.000000 0.705838 0.658254 -0.261715
0.28999999 -7.61000013 -1.39999998 192 111 104 0.000000 0.000000 0.000000 0.000000 0.000000 0.000000 56.000000 -0.333311 -0.658493 0.674752
0.27000001 -7.61000013 -1.42999995 192 111 104 0.000000 0.000000 0.000000 0.000000 0.000000 0.000000 56.000000 0.876183 0.247976 -0.413294
0.28000000 -7.61000013 -1.42999995 192 111 104 0.000000 0.000000 0.000000 0.000000 0.000000 0.000000 56.000000 0.778511 0.290158 -0.556533
0.27000001 -7.61999989 -1.44000006 192 111 104 0.000000 0.000000 0.000000 0.000000 0.000000 0.000000 56.000000 0.920782 0.377862 -0.096853
0.27000001 -7.63000011 -1.41999996 192 111 104 0.000000 0.000000 0.000000 0.000000 0.000000 0.000000 56.000000 0.783965 0.116635 -0.609750
0.28000000 -7.65000010 -1.45000005 192 111 104 0.000000 0.000000 0.000000 0.000000 0.000000 0.000000 56.000000 0.773342 0.601147 -0.201407
0.41000000 -7.53999996 -1.47000003 192 111 104 0.000000 0.000000 0.000000 0.000000 0.000000 0.000000 56.000000 0.736490 0.577161 0.352800
0.41000000 -7.59999990 -1.48000002 192 111 104 0.000000 0.000000 0.000000 0.000000 0.000000 0.000000 56.000000 0.715782 0.469991 0.516492
0.41000000 -7.59999990 -1.48000002 192 111 104 0.000000 0.000000 0.000000 0.000000 0.000000 0.000000 56.000000 0.715782 0.469991 0.516492
0.36000001 -7.57999992 -1.49000001 192 111 104 0.000000 0.000000 0.000000 0.000000 0.000000 0.000000 56.000000 0.738924 0.646751 -0.188956
0.37000000 -7.59000015 -1.50999999 192 111 104 0.000000 0.000000 0.000000 0.000000 0.000000 0.000000 56.000000 0.806892 0.170428 -0.565579
0.37000000 -7.59999990 -1.50000000 192 111 104 0.000000 0.000000 0.000000 0.000000 0.000000 0.000000 56.000000 0.703234 0.283536 -0.651973
0.37000000 -7.59999990 -1.50999999 192 111 104 0.000000 0.000000 0.000000 0.000000 0.000000 0.000000 56.000000 -0.559930 -0.147037 0.815389
0.37000000 -7.59999990 -1.51999998 192 111 104 0.000000 0.000000 0.000000 0.000000 0.000000 0.000000 56.000000 -0.235154 -0.133817 0.962702
0.36000001 -7.59000015 -1.52999997 192 111 104 0.000000 0.000000 0.000000 0.000000 0.000000 0.000000 56.000000 0.163520 -0.114341 0.979891
0.41999999 -7.61000013 -1.47000003 192 111 104 0.000000 0.000000 0.000000 0.000000 0.000000 0.000000 56.000000 0.978998 0.194351 0.061565
0.38999999 -7.61000013 -1.46000004 192 111 104 0.000000 0.000000 0.000000 0.000000 0.000000 0.000000 56.000000 0.568025 0.128359 0.812940
0.38999999 -7.61999989 -1.46000004 192 111 104 0.000000 0.000000 0.000000 0.000000 0.000000 0.000000 56.000000 0.407028 -0.106966 0.907131
0.41000000 -7.61000013 -1.48000002 192 111 104 0.000000 0.000000 0.000000 0.000000 0.000000 0.000000 56.000000 0.988987 0.082902 0.122602
0.41999999 -7.63999987 -1.48000002 192 111 104 0.000000 0.000000 0.000000 0.000000 0.000000 0.000000 56.000000 0.794495 0.607231 0.006885
0.38999999 -7.61999989 -1.51999998 192 111 104 0.000000 0.000000 0.000000 0.000000 0.000000 0.000000 56.000000 0.474292 0.524218 -0.707278
0.41999999 -7.63000011 -1.50999999 192 111 104 0.000000 0.000000 0.000000 0.000000 0.000000 0.000000 56.000000 0.726407 0.679256 -0.104614
0.38999999 -7.63999987 -1.52999997 192 111 104 0.000000 0.000000 0.000000 0.000000 0.000000 0.000000 56.000000 -0.226198 -0.478203 0.848620
0.40000001 -7.63000011 -1.50999999 192 111 104 0.000000 0.000000 0.000000 0.000000 0.000000 0.000000 56.000000 0.588324 0.681656 -0.434993
0.40000001 -7.63000011 -1.50999999 192 111 104 0.000000 0.000000 0.000000 0.000000 0.000000 0.000000 56.000000 0.588324 0.681656 -0.434993
0.41999999 -7.65000010 -1.46000004 192 111 104 0.000000 0.000000 0.000000 0.000000 0.000000 0.000000 56.000000 0.936028 0.129060 0.327406
0.41999999 -7.65999985 -1.46000004 192 111 104 0.000000 0.000000 0.000000 0.000000 0.000000 0.000000 56.000000 0.808971 0.239752 0.536736
0.41999999 -7.65999985 -1.48000002 192 111 104 0.000000 0.000000 0.000000 0.000000 0.000000 0.000000 56.000000 0.918594 0.123310 0.375473
0.41999999 -7.65000010 -1.51999998 192 111 104 0.000000 0.000000 0.000000 0.000000 0.000000 0.000000 56.000000 0.636685 0.488853 -0.596368
0.41999999 -7.65000010 -1.51999998 192 111 104 0.000000 0.000000 0.000000 0.000000 0.000000 0.000000 56.000000 0.636685 0.488853 -0.596368
0.38999999 -7.69000006 -1.51999998 192 111 104 0.000000 0.000000 0.000000 0.000000 0.000000 0.000000 56.000000 0.295164 -0.168861 0.940406
0.38000000 -7.61999989 -1.51999998 192 111 104 0.000000 0.000000 0.000000 0.000000 0.000000 0.000000 56.000000 0.354786 0.632729 -0.688317
0.34999999 -7.61999989 -1.51999998 192 111 104 0.000000 0.000000 0.000000 0.000000 0.000000 0.000000 56.000000 0.430392 0.089953 0.898149
0.31000000 -7.67999983 -1.47000003 192 111 104 0.000000 0.000000 0.000000 0.000000 0.000000 0.000000 56.000000 0.820373 0.561919 -0.105995
0.31000000 -7.67000008 -1.47000003 192 111 104 0.000000 0.000000 0.000000 0.000000 0.000000 0.000000 56.000000 0.841115 0.396280 -0.368086
0.30000001 -7.67000008 -1.47000003 192 111 104 0.000000 0.000000 0.000000 0.000000 0.000000 0.000000 56.000000 0.880574 0.269441 -0.389861
0.31999999 -7.69000006 -1.46000004 192 111 104 0.000000 0.000000 0.000000 0.000000 0.000000 0.000000 56.000000 0.857801 0.499058 -0.122956
0.31000000 -7.67999983 -1.47000003 192 111 104 0.000000 0.000000 0.000000 0.000000 0.000000 0.000000 56.000000 0.820373 0.561919 -0.105995
0.31999999 -7.69000006 -1.47000003 192 111 104 0.000000 0.000000 0.000000 0.000000 0.000000 0.000000 56.000000 0.886579 0.438260 -0.148003
0.31000000 -7.69000006 -1.48000002 192 111 104 0.000000 0.000000 0.000000 0.000000 0.000000 0.000000 56.000000 0.685744 0.562277 -0.462168
0.27000001 -7.63999987 -1.46000004 192 111 104 0.000000 0.000000 0.000000 0.000000 0.000000 0.000000 56.000000 0.854830 0.455605 -0.248373
0.27000001 -7.63000011 -1.46000004 192 111 104 0.000000 0.000000 0.000000 0.000000 0.000000 0.000000 56.000000 0.925595 0.305688 -0.223223
0.25999999 -7.63000011 -1.46000004 192 111 104 0.000000 0.000000 0.000000 0.000000 0.000000 0.000000 56.000000 0.923434 0.073714 -0.376611
0.28999999 -7.65999985 -1.48000002 192 111 104 0.000000 0.000000 0.000000 0.000000 0.000000 0.000000 56.000000 0.868448 0.406087 0.284413
0.27000001 -7.65000010 -1.46000004 192 111 104 0.000000 0.000000 0.000000 0.000000 0.000000 0.000000 56.000000 0.802119 0.390611 -0.451694
0.41000000 -7.73000002 -1.45000005 192 111 104 0.000000 0.000000 0.000000 0.000000 0.000000 0.000000 56.000000 0.264305 -0.250171 0.931428
0.38999999 -7.71000004 -1.42999995 192 111 104 0.000000 0.000000 0.000000 0.000000 0.000000 0.000000 56.000000 -0.277666 -0.473117 0.836099
0.41999999 -7.73000002 -1.45000005 192 111 104 0.000000 0.000000 0.000000 0.000000 0.000000 0.000000 56.000000 -0.099671 -0.220790 0.970215
0.40000001 -7.73000002 -1.44000006 192 111 104 0.000000 0.000000 0.000000 0.000000 0.000000 0.000000 56.000000 0.313624 -0.356046 0.880268
0.38999999 -7.71999979 -1.42999995 192 111 104 0.000000 0.000000 0.000000 0.000000 0.000000 0.000000 56.000000 -0.266646 -0.169192 0.948828
0.41999999 -7.69999981 -1.45000005 192 111 104 0.000000 0.000000 0.000000 0.000000 0.000000 0.000000 56.000000 0.697482 0.136497 0.703482
0.41000000 -7.73999977 -1.42999995 192 111 104 0.000000 0.000000 0.000000 0.000000 0.000000 0.000000 56.000000 0.069798 -0.154975 0.985450
0.38999999 -7.76999998 -1.44000006 192 111 104 0.000000 0.000000 0.000000 0.000000 0.000000 0.000000 56.000000 -0.594022 -0.343394 0.727474
0.38999999 -7.75000000 -1.42999995 192 111 104 0.000000 0.000000 0.000000 0.000000 0.000000 0.000000 56.000000 -0.287964 -0.406807 0.866940
0.38999999 -7.73999977 -1.42999995 192 111 104 0.000000 0.000000 0.000000 0.000000 0.000000 0.000000 56.000000 -0.328415 -0.393173 0.858813
0.38000000 -7.71000004 -1.42999995 192 111 104 0.000000 0.000000 0.000000 0.000000 0.000000 0.000000 56.000000 -0.193757 -0.363115 0.911376
0.34000000 -7.71000004 -1.41999996 192 111 104 0.000000 0.000000 0.000000 0.000000 0.000000 0.000000 56.000000 -0.116380 -0.596630 0.794033
0.34000000 -7.71000004 -1.45000005 192 111 104 0.000000 0.000000 0.000000 0.000000 0.000000 0.000000 56.000000 -0.340714 -0.461153 0.819299
0.37000000 -7.71999979 -1.42999995 192 111 104 0.000000 0.000000 0.000000 0.000000 0.000000 0.000000 56.000000 -0.082031 -0.367123 0.926548
0.37000000 -7.69999981 -1.44000006 192 111 104 0.000000 0.000000 0.000000 0.000000 0.000000 0.000000 56.000000 -0.142184 -0.169866 0.975156
0.37000000 -7.73000002 -1.42999995 192 111 104 0.000000 0.000000 0.000000 0.000000 0.000000 0.000000 56.000000 -0.184011 -0.446042 0.875892
0.34000000 -7.71000004 -1.41999996 192 111 104 0.000000 0.000000 0.000000 0.000000 0.000000 0.000000 56.000000 -0.116380 -0.596630 0.794033
0.37000000 -7.71000004 -1.42999995 192 111 104 0.000000 0.000000 0.000000 0.000000 0.000000 0.000000 56.000000 -0.059573 -0.491822 0.868655
0.38000000 -7.69999981 -1.41999996 192 111 104 0.000000 0.000000 0.000000 0.000000 0.000000 0.000000 56.000000 -0.200970 -0.281358 0.938322
0.36000001 -7.75000000 -1.44000006 192 111 104 0.000000 0.000000 0.000000 0.000000 0.000000 0.000000 56.000000 -0.460970 -0.287136 0.839679
0.41000000 -7.78999996 -1.45000005 192 111 104 0.000000 0.000000 0.000000 0.000000 0.000000 0.000000 56.000000 -0.228342 -0.065417 0.971381
0.41000000 -7.80999994 -1.45000005 192 111 104 0.000000 0.000000 0.000000 0.000000 0.000000 0.000000 56.000000 0.029882 -0.375477 0.926350
0.31000000 -7.69999981 -1.45000005 192 111 104 0.000000 0.000000 0.000000 0.000000 0.000000 0.000000 56.000000 0.582068 0.662585 -0.471358
0.33000001 -7.71999979 -1.45000005 192 111 104 0.000000 0.000000 0.000000 0.000000 0.000000 0.000000 56.000000 0.604700 0.611438 -0.510374
0.33000001 -7.69999981 -1.45000005 192 111 104 0.000000 0.000000 0.000000 0.000000 0.000000 0.000000 56.000000 0.344007 0.686383 -0.640733
0.41999999 -7.76999998 -1.47000003 192 111 104 0.000000 0.000000 0.000000 0.000000 0.000000 0.000000 56.000000 0.141426 -0.138967 0.980146
0.40000001 -7.76999998 -1.50000000 192 111 104 0.000000 0.000000 0.000000 0.000000 0.000000 0.000000 56.000000 0.620374 0.443125 -0.647129
0.34000000 -7.73000002 -1.47000003 192 111 104 0.000000 0.000000 0.000000 0.000000 0.000000 0.000000 56.000000 0.766255 0.442761 -0.465635
0.38000000 -7.76000023 -1.49000001 192 111 104 0.000000 0.000000 0.000000 0.000000 0.000000 0.000000 56.000000 0.870814 0.359651 -0.335164
0.38000000 -7.76000023 -1.49000001 192 111 104 0.000000 0.000000 0.000000 0.000000 0.000000 0.000000 56.000000 0.870814 0.359651 -0.335164
0.38000000 -7.76999998 -1.49000001 192 111 104 0.000000 0.000000 0.000000 0.000000 0.000000 0.000000 56.000000 0.910151 0.344028 -0.230804
0.34000000 -7.73999977 -1.48000002 192 111 104 0.000000 0.000000 0.000000 0.000000 0.000000 0.000000 56.000000 0.617510 0.499729 -0.607414
0.38000000 -7.76000023 -1.50000000 192 111 104 0.000000 0.000000 0.000000 0.000000 0.000000 0.000000 56.000000 0.809963 0.570084 -0.137709
0.38000000 -7.76000023 -1.50999999 192 111 104 0.000000 0.000000 0.000000 0.000000 0.000000 0.000000 56.000000 0.953456 0.148019 -0.262701
0.40000001 -7.80999994 -1.46000004 192 111 104 0.000000 0.000000 0.000000 0.000000 0.000000 0.000000 56.000000 0.398276 0.702355 -0.589978
0.38999999 -7.78000021 -1.46000004 192 111 104 0.000000 0.000000 0.000000 0.000000 0.000000 0.000000 56.000000 -0.352424 -0.101271 0.930345
0.38999999 -7.78000021 -1.49000001 192 111 104 0.000000 0.000000 0.000000 0.000000 0.000000 0.000000 56.000000 0.665818 0.230295 -0.709684
0.41999999 -7.82000017 -1.47000003 192 111 104 0.000000 0.000000 0.000000 0.000000 0.000000 0.000000 56.000000 0.043499 -0.386216 0.921382
0.40000001 -7.84999990 -1.49000001 192 111 104 0.000000 0.000000 0.000000 0.000000 0.000000 0.000000 56.000000 0.795159 0.223880 -0.563560
0.38999999 -7.84999990 -1.49000001 192 111 104 0.000000 0.000000 0.000000 0.000000 0.000000 0.000000 56.000000 0.950522 0.218308 -0.221020
0.38999999 -7.84000015 -1.50999999 192 111 104 0.000000 0.000000 0.000000 0.000000 0.000000 0.000000 56.000000 0.905867 0.335127 -0.259028
0.40000001 -7.82999992 -1.50000000 192 111 104 0.000000 0.000000 0.000000 0.000000 0.000000 0.000000 56.000000 0.895144 0.150384 -0.419644
0.40000001 -7.86000013 -1.50000000 192 111 104 0.000000 0.000000 0.000000 0.000000 0.000000 0.000000 56.000000 0.745967 0.536112 -0.395116
0.41000000 -7.82000017 -1.50000000 192 111 104 0.000000 0.000000 0.000000 0.000000 0.000000 0.000000 56.000000 0.666569 0.599745 -0.442709
0.38000000 -7.78000021 -1.50000000 192 111 104 0.000000 0.000000 0.000000 0.000000 0.000000 0.000000 56.000000 0.821108 0.182301 -0.540877
0.38000000 -7.80000019 -1.50000000 192 111 104 0.000000 0.000000 0.000000 0.000000 0.000000 0.000000 56.000000 0.745037 0.219312 -0.629938
0.37000000 -7.86000013 -1.50999999 192 111 104 0.000000 0.000000 0.000000 0.000000 0.000000 0.000000 56.000000 0.980627 0.043873 -0.190908
0.33000001 -7.71000004 -1.46000004 192 111 104 0.000000 0.000000 0.000000 0.000000 0.000000 0.000000 56.000000 0.729099 0.644429 -0.230489
0.31000000 -7.69999981 -1.48000002 192 111 104 0.000000 0.000000 0.000000 0.000000 0.000000 0.000000 56.000000 0.814457 0.567918 0.118867
0.31000000 -7.69999981 -1.48000002 192 111 104 0.000000 0.000000 0.000000 0.000000 0.000000 0.000000 56.000000 0.814457 0.567918 0.118867
0.56999999 -7.92999983 -1.52999997 192 111 104 0.000000 0.000000 0.000000 0.000000 0.000000 0.000000 56.000000 0.681541 0.514086 0.520785
0.56999999 -7.90999985 -1.52999997 192 111 104 0.000000 0.000000 0.000000 0.000000 0.000000 0.000000 56.000000 0.737622 0.409060 0.537199
0.56999999 -7.92999983 -1.51999998 192 111 104 0.000000 0.000000 0.000000 0.000000 0.000000 0.000000 56.000000 0.634710 0.513492 0.577468
0.56999999 -7.92999983 -1.52999997 192 111 104 0.000000 0.000000 0.000000 0.000000 0.000000 0.000000 56.000000 0.681541 0.514086 0.520785
0.56999999 -7.90999985 -1.53999996 192 111 104 0.000000 0.000000 0.000000 0.000000 0.000000 0.000000 56.000000 0.893154 0.415454 0.172261
0.54000002 -7.88000011 -1.53999996 192 111 104 0.000000 0.000000 0.000000 0.000000 0.000000 0.000000 56.000000 0.863168 0.321572 0.389272
0.51999998 -7.88999987 -1.51999998 192 111 104 0.000000 0.000000 0.000000 0.000000 0.000000 0.000000 56.000000 0.838839 0.267255 0.474261
0.52999997 -7.90000010 -1.51999998 192 111 104 0.000000 0.000000 0.000000 0.000000 0.000000 0.000000 56.000000 0.772353 0.439245 0.458840
0.54000002 -7.90000010 -1.50999999 192 111 104 0.000000 0.000000 0.000000 0.000000 0.000000 0.000000 56.000000 0.645798 0.139349 0.750684
0.54000002 -7.88000011 -1.53999996 192 111 104 0.000000 0.000000 0.000000 0.000000 0.000000 0.000000 56.000000 0.863168 0.321572 0.389272
0.51999998 -7.86999989 -1.51999998 192 111 104 0.000000 0.000000 0.000000 0.000000 0.000000 0.000000 56.000000 0.708058 0.361388 0.606673
0.55000001 -7.92000008 -1.50999999 192 111 104 0.000000 0.000000 0.000000 0.000000 0.000000 0.000000 56.000000 0.517635 0.242593 0.820490
0.51999998 -7.92000008 -1.50999999 192 111 104 0.000000 0.000000 0.000000 0.000000 0.000000 0.000000 56.000000 0.376045 -0.220945 0.899874
0.51999998 -7.92999983 -1.50999999 192 111 104 0.000000 0.000000 0.000000 0.000000 0.000000 0.000000 56.000000 0.143911 -0.026063 0.989247
0.54000002 -7.94000006 -1.50999999 192 111 104 0.000000 0.000000 0.000000 0.000000 0.000000 0.000000 56.000000 0.359312 0.006348 0.933196
0.54000002 -7.88999987 -1.57000005 192 111 104 0.000000 0.000000 0.000000 0.000000 0.000000 0.000000 56.000000 0.707763 0.213107 -0.673541
0.54000002 -7.92999983 -1.54999995 192 111 104 0.000000 0.000000 0.000000 0.000000 0.000000 0.000000 56.000000 0.929564 0.365794 -0.045888
0.55000001 -7.88000011 -1.54999995 192 111 104 0.000000 0.000000 0.000000 0.000000 0.000000 0.000000 56.000000 0.892886 0.293654 0.341354
0.56000000 -7.88999987 -1.55999994 192 111 104 0.000000 0.000000 0.000000 0.000000 0.000000 0.000000 56.000000 0.768692 0.550441 -0.325771
0.55000001 -7.88999987 -1.55999994 192 111 104 0.000000 0.000000 0.000000 0.000000 0.000000 0.000000 56.000000 0.838250 0.469482 -0.277351
0.56000000 -7.88999987 -1.54999995 192 111 104 0.000000 0.000000 0.000000 0.000000 0.000000 0.000000 56.000000 0.755722 0.622814 0.202453
0.58999997 -8.02000046 -1.52999997 192 111 104 0.000000 0.000000 0.000000 0.000000 0.000000 0.000000 56.000000 0.780579 0.228121 0.581943
0.57999998 -8.00000000 -1.51999998 192 111 104 0.000000 0.000000 0.000000 0.000000 0.000000 0.000000 56.000000 0.912058 0.112104 0.394441
0.51999998 -7.96999979 -1.50000000 192 111 104 0.000000 0.000000 0.000000 0.000000 0.000000 0.000000 56.000000 0.305910 0.242717 0.920602
0.51999998 -7.94999981 -1.50999999 192 111 104 0.000000 0.000000 0.000000 0.000000 0.000000 0.000000 56.000000 0.245263 0.123280 0.961586
0.54000002 -7.96000004 -1.50999999 192 111 104 0.000000 0.000000 0.000000 0.000000 0.000000 0.000000 56.000000 0.225849 -0.022704 0.973898
0.52999997 -7.94999981 -1.50999999 192 111 104 0.000000 0.000000 0.000000 0.000000 0.000000 0.000000 56.000000 0.228746 -0.248155 0.941326
0.51999998 -7.98000002 -1.50999999 192 111 104 0.000000 0.000000 0.000000 0.000000 0.000000 0.000000 56.000000 0.166307 -0.186935 0.968193
0.52999997 -7.96000004 -1.51999998 192 111 104 0.000000 0.000000 0.000000 0.000000 0.000000 0.000000 56.000000 0.254337 0.173595 0.951408
0.51999998 -7.96999979 -1.50000000 192 111 104 0.000000 0.000000 0.000000 0.000000 0.000000 0.000000 56.000000 0.305910 0.242717 0.920602
0.51999998 -8.00000000 -1.50000000 192 111 104 0.000000 0.000000 0.000000 0.000000 0.000000 0.000000 56.000000 0.239392 -0.399978 0.884709
0.55000001 -8.01000023 -1.51999998 192 111 104 0.000000 0.000000 0.000000 0.000000 0.000000 0.000000 56.000000 0.372960 -0.126169 0.919229
0.54000002 -8.00000000 -1.50999999 192 111 104 0.000000 0.000000 0.000000 0.000000 0.000000 0.000000 56.000000 0.049086 -0.283189 0.957807
0.47999999 -7.88000011 -1.48000002 192 111 104 0.000000 0.000000 0.000000 0.000000 0.000000 0.000000 56.000000 0.143879 -0.370174 0.917753
0.50000000 -7.86999989 -1.48000002 192 111 104 0.000000 0.000000 0.000000 0.000000 0.000000 0.000000 56.000000 0.498007 -0.326171 0.803494
0.47999999 -7.86999989 -1.48000002 192 111 104 0.000000 0.000000 0.000000 0.000000 0.000000 0.000000 56.000000 0.030997 0.067338 0.997249
0.50000000 -7.86999989 -1.49000001 192 111 104 0.000000 0.000000 0.000000 0.000000 0.000000 0.000000 56.000000 0.540500 -0.192279 0.819078
0.50000000 -7.88000011 -1.50000000 192 111 104 0.000000 0.000000 0.000000 0.000000 0.000000 0.000000 56.000000 0.468584 -0.262714 0.843451
0.50999999 -7.86999989 -1.50000000 192 111 104 0.000000 0.000000 0.000000 0.000000 0.000000 0.000000 56.000000 0.745297 -0.195968 0.637283
0.47999999 -7.94000006 -1.50999999 192 111 104 0.000000 0.000000 0.000000 0.000000 0.000000 0.000000 56.000000 -0.063231 -0.076543 0.995059
0.44999999 -7.88999987 -1.50000000 192 111 104 0.000000 0.000000 0.000000 0.000000 0.000000 0.000000 56.000000 -0.252114 -0.562167 0.787659
0.43000001 -7.88000011 -1.50000000 192 111 104 0.000000 0.000000 0.000000 0.000000 0.000000 0.000000 56.000000 0.679733 0.417147 -0.603284
0.43000001 -7.88000011 -1.50000000 192 111 104 0.000000 0.000000 0.000000 0.000000 0.000000 0.000000 56.000000 0.679733 0.417147 -0.603284
0.43000001 -7.88999987 -1.50000000 192 111 104 0.000000 0.000000 0.000000 0.000000 0.000000 0.000000 56.000000 -0.566056 -0.043328 0.823227
0.43000001 -7.94000006 -1.49000001 192 111 104 0.000000 0.000000 0.000000 0.000000 0.000000 0.000000 56.000000 0.636524 0.548727 -0.541974
0.44999999 -7.92000008 -1.49000001 192 111 104 0.000000 0.000000 0.000000 0.000000 0.000000 0.000000 56.000000 -0.211545 -0.096384 0.972604
0.43000001 -7.92000008 -1.51999998 192 111 104 0.000000 0.000000 0.000000 0.000000 0.000000 0.000000 56.000000 0.700260 0.642039 -0.312125
0.43000001 -7.92000008 -1.50999999 192 111 104 0.000000 0.000000 0.000000 0.000000 0.000000 0.000000 56.000000 0.684372 0.621707 -0.380940
0.46000001 -7.94000006 -1.52999997 192 111 104 0.000000 0.000000 0.000000 0.000000 0.000000 0.000000 56.000000 0.479741 0.683672 -0.549947
0.46000001 -7.94000006 -1.51999998 192 111 104 0.000000 0.000000 0.000000 0.000000 0.000000 0.000000 56.000000 0.736119 0.538503 -0.410053
0.43000001 -7.92000008 -1.52999997 192 111 104 0.000000 0.000000 0.000000 0.000000 0.000000 0.000000 56.000000 0.740798 0.669154 -0.058748
0.46000001 -7.94000006 -1.51999998 192 111 104 0.000000 0.000000 0.000000 0.000000 0.000000 0.000000 56.000000 0.736119 0.538503 -0.410053
0.49000001 -7.94999981 -1.50000000 192 111 104 0.000000 0.000000 0.000000 0.000000 0.000000 0.000000 56.000000 -0.130518 -0.305438 0.943225
0.49000001 -7.96000004 -1.50999999 192 111 104 0.000000 0.000000 0.000000 0.000000 0.000000 0.000000 56.000000 -0.237693 -0.659560 0.713080
0.49000001 -7.96999979 -1.53999996 192 111 104 0.000000 0.000000 0.000000 0.000000 0.000000 0.000000 56.000000 0.550316 0.680786 -0.483408
0.47000000 -8.00000000 -1.51999998 192 111 104 0.000000 0.000000 0.000000 0.000000 0.000000 0.000000 56.000000 0.826108 0.285780 -0.485670
0.46000001 -7.94999981 -1.49000001 192 111 104 0.000000 0.000000 0.000000 0.000000 0.000000 0.000000 56.000000 -0.266401 -0.398849 0.877468
0.46000001 -7.96000004 -1.50999999 192 111 104 0.000000 0.000000 0.000000 0.000000 0.000000 0.000000 56.000000 -0.578150 -0.167558 0.798541
0.46000001 -7.96000004 -1.50999999 192 111 104 0.000000 0.000000 0.000000 0.000000 0.000000 0.000000 56.000000 -0.578150 -0.167558 0.798541
0.49000001 -7.98999977 -1.55999994 192 111 104 0.000000 0.000000 0.000000 0.000000 0.000000 0.000000 56.000000 0.949242 0.199626 -0.243082
0.50000000 -7.96999979 -1.54999995 192 111 104 0.000000 0.000000 0.000000 0.000000 0.000000 0.000000 56.000000 0.778987 0.332475 -0.531639
0.50000000 -8.00000000 -1.55999994 192 111 104 0.000000 0.000000 0.000000 0.000000 0.000000 0.000000 56.000000 0.785517 0.515646 -0.342158
0.46000001 -7.94999981 -1.54999995 192 111 104 0.000000 0.000000 0.000000 0.000000 0.000000 0.000000 56.000000 0.805674 0.515568 -0.291682
0.52999997 -8.03999996 -1.52999997 192 111 104 0.000000 0.000000 0.000000 0.000000 0.000000 0.000000 56.000000 -0.196120 -0.261951 0.944944
0.56999999 -8.06999969 -1.53999996 192 111 104 0.000000 0.000000 0.000000 0.000000 0.000000 0.000000 56.000000 0.469506 -0.411020 0.781426
0.52999997 -8.03999996 -1.57000005 192 111 104 0.000000 0.000000 0.000000 0.000000 0.000000 0.000000 56.000000 0.807660 0.533772 -0.250546
0.41999999 -7.86999989 -1.48000002 192 111 104 0.000000 0.000000 0.000000 0.000000 0.000000 0.000000 56.000000 -0.244203 -0.663287 0.707401
0.40000001 -7.90000010 -1.51999998 192 111 104 0.000000 0.000000 0.000000 0.000000 0.000000 0.000000 56.000000 0.627307 0.760970 -0.165560
0.41000000 -7.90000010 -1.50000000 192 111 104 0.000000 0.000000 0.000000 0.000000 0.000000 0.000000 56.000000 0.496673 0.516740 -0.697349
0.38999999 -7.88999987 -1.51999998 192 111 104 0.000000 0.000000 0.000000 0.000000 0.000000 0.000000 56.000000 0.812716 0.490786 -0.314040
0.40000001 -7.88999987 -1.50999999 192 111 104 0.000000 0.000000 0.000000 0.000000 0.000000 0.000000 56.000000 0.717931 0.358148 -0.596913
0.41999999 -7.90000010 -1.51999998 192 111 104 0.000000 0.000000 0.000000 0.000000 0.000000 0.000000 56.000000 0.836888 0.544329 -0.057668
0.41999999 -7.90000010 -1.51999998 192 111 104 0.000000 0.000000 0.000000 0.000000 0.000000 0.000000 56.000000 0.836888 0.544329 -0.057668
0.40000001 -7.86999989 -1.50000000 192 111 104 0.000000 0.000000 0.000000 0.000000 0.000000 0.000000 56.000000 0.899978 0.061269 -0.431608
0.41000000 -7.90000010 -1.53999996 192 111 104 0.000000 0.000000 0.000000 0.000000 0.000000 0.000000 56.000000 0.841510 0.538288 -0.045901
0.41000000 -7.92000008 -1.53999996 192 111 104 0.000000 0.000000 0.000000 0.000000 0.000000 0.000000 56.000000 0.977171 0.211504 -0.020087
0.41999999 -7.90999985 -1.50999999 192 111 104 0.000000 0.000000 0.000000 0.000000 0.000000 0.000000 56.000000 0.671131 0.409307 -0.618103
0.41999999 -7.92000008 -1.52999997 192 111 104 0.000000 0.000000 0.000000 0.000000 0.000000 0.000000 56.000000 0.909261 0.297230 -0.291374
0.27000001 -8.02000046 -1.52999997 192 111 104 0.000000 0.000000 0.000000 0.000000 0.000000 0.000000 98.000000 0.996003 0.088795 -0.009628
0.25000000 -7.51999998 -1.38999999 192 111 104 0.000000 0.000000 0.000000 0.000000 0.000000 0.000000 56.000000 0.820794 0.238692 -0.518964
0.23000000 -7.53000021 -1.40999997 192 111 104 0.000000 0.000000 0.000000 0.000000 0.000000 0.000000 56.000000 0.769414 0.201991 -0.605972
0.25000000 -7.53999996 -1.39999998 192 111 104 0.000000 0.000000 0.000000 0.000000 0.000000 0.000000 56.000000 0.687171 0.196114 -0.699525
0.23000000 -7.55000019 -1.40999997 192 111 104 0.000000 0.000000 0.000000 0.000000 0.000000 0.000000 56.000000 0.790652 0.135498 -0.597084
0.23999999 -7.55000019 -1.40999997 192 111 104 0.000000 0.000000 0.000000 0.000000 0.000000 0.000000 56.000000 0.759718 0.299089 -0.577386
0.23000000 -7.51999998 -1.39999998 192 111 104 0.000000 0.000000 0.000000 0.000000 0.000000 0.000000 56.000000 0.882977 0.259346 -0.391268
0.22000000 -7.53999996 -1.41999996 192 111 104 0.000000 0.000000 0.000000 0.000000 0.000000 0.000000 56.000000 0.660167 0.596657 -0.456267
0.23000000 -7.51999998 -1.44000006 192 111 104 0.000000 0.000000 0.000000 0.000000 0.000000 0.000000 56.000000 0.823734 0.566231 0.029073
0.23000000 -7.55000019 -1.42999995 192 111 104 0.000000 0.000000 0.000000 0.000000 0.000000 0.000000 56.000000 0.855088 0.518439 -0.006733
0.22000000 -7.55999994 -1.42999995 192 111 104 0.000000 0.000000 0.000000 0.000000 0.000000 0.000000 56.000000 0.907239 0.414855 0.069369
0.25000000 -7.53999996 -1.42999995 192 111 104 0.000000 0.000000 0.000000 0.000000 0.000000 0.000000 56.000000 0.928441 0.316035 -0.195240
0.23999999 -7.55999994 -1.44000006 192 111 104 0.000000 0.000000 0.000000 0.000000 0.000000 0.000000 56.000000 0.818159 0.574511 0.023534
0.23000000 -7.51999998 -1.42999995 192 111 104 0.000000 0.000000 0.000000 0.000000 0.000000 0.000000 56.000000 0.892327 0.407462 -0.194238
0.23000000 -7.55000019 -1.42999995 192 111 104 0.000000 0.000000 0.000000 0.000000 0.000000 0.000000 56.000000 0.855088 0.518439 -0.006733
0.23999999 -7.57000017 -1.39999998 192 111 104 0.000000 0.000000 0.000000 0.000000 0.000000 0.000000 56.000000 0.873648 0.215807 -0.436080
0.25000000 -7.57999992 -1.39999998 192 111 104 0.000000 0.000000 0.000000 0.000000 0.000000 0.000000 56.000000 0.475681 0.360365 -0.802412
0.25000000 -7.57000017 -1.38999999 192 111 104 0.000000 0.000000 0.000000 0.000000 0.000000 0.000000 56.000000 0.294432 0.670918 -0.680572
0.25000000 -7.59000015 -1.40999997 192 111 104 0.000000 0.000000 0.000000 0.000000 0.000000 0.000000 56.000000 0.777840 0.520171 -0.352685
0.23999999 -7.59000015 -1.40999997 192 111 104 0.000000 0.000000 0.000000 0.000000 0.000000 0.000000 56.000000 0.558953 0.535312 -0.633255
0.23999999 -7.57999992 -1.44000006 192 111 104 0.000000 0.000000 0.000000 0.000000 0.000000 0.000000 56.000000 0.964931 0.243463 -0.098150
0.23999999 -7.57000017 -1.46000004 192 111 104 0.000000 0.000000 0.000000 0.000000 0.000000 0.000000 56.000000 0.950137 0.299287 0.087564
0.17000000 -8.10000038 -1.52999997 192 111 104 0.000000 0.000000 0.000000 0.000000 0.000000 0.000000 98.000000 0.986652 0.162361 0.012489
0.22000000 -8.17000008 -1.48000002 192 111 104 0.000000 0.000000 0.000000 0.000000 0.000000 0.000000 98.000000 0.830252 0.298641 -0.470633
0.20999999 -8.17000008 -1.54999995 192 111 104 0.000000 0.000000 0.000000 0.000000 0.000000 0.000000 98.000000 0.874160 0.456781 -0.164908
0.25999999 -7.36999989 -1.42999995 192 111 104 0.000000 0.000000 0.000000 0.000000 0.000000 0.000000 56.000000 0.587327 0.556861 0.587327
0.28999999 -7.40999985 -1.44000006 192 111 104 0.000000 0.000000 0.000000 0.000000 0.000000 0.000000 56.000000 0.965003 0.184121 0.186733
0.27000001 -7.38999987 -1.41999996 192 111 104 0.000000 0.000000 0.000000 0.000000 0.000000 0.000000 56.000000 0.624886 0.326239 0.709286
0.28000000 -7.38999987 -1.44000006 192 111 104 0.000000 0.000000 0.000000 0.000000 0.000000 0.000000 56.000000 0.930950 0.348259 -0.109763
0.31000000 -7.46999979 -1.44000006 192 111 104 0.000000 0.000000 0.000000 0.000000 0.000000 0.000000 56.000000 0.720074 0.290275 0.630265
0.30000001 -7.44000006 -1.44000006 192 111 104 0.000000 0.000000 0.000000 0.000000 0.000000 0.000000 56.000000 0.675746 0.558370 0.481238
0.30000001 -7.44999981 -1.42999995 192 111 104 0.000000 0.000000 0.000000 0.000000 0.000000 0.000000 56.000000 0.446667 0.009223 0.894653
0.30000001 -7.46999979 -1.44000006 192 111 104 0.000000 0.000000 0.000000 0.000000 0.000000 0.000000 56.000000 0.407384 0.184120 0.894505
0.31000000 -7.44999981 -1.44000006 192 111 104 0.000000 0.000000 0.000000 0.000000 0.000000 0.000000 56.000000 0.866281 0.281655 0.412587
0.30000001 -7.48000002 -1.38000000 192 111 104 0.000000 0.000000 0.000000 0.000000 0.000000 0.000000 56.000000 0.161268 0.246567 0.955614
0.28999999 -7.46000004 -1.42999995 192 111 104 0.000000 0.000000 0.000000 0.000000 0.000000 0.000000 56.000000 0.429413 -0.126131 0.894257
0.34999999 -7.50000000 -1.47000003 192 111 104 0.000000 0.000000 0.000000 0.000000 0.000000 0.000000 56.000000 0.890486 0.383753 0.244476
0.28999999 -7.42999983 -1.46000004 192 111 104 0.000000 0.000000 0.000000 0.000000 0.000000 0.000000 56.000000 0.919558 0.197556 -0.339682
0.28999999 -7.42000008 -1.46000004 192 111 104 0.000000 0.000000 0.000000 0.000000 0.000000 0.000000 56.000000 0.860936 0.458264 -0.220868
0.22000000 -7.38000011 -1.37000000 192 111 104 0.000000 0.000000 0.000000 0.000000 0.000000 0.000000 56.000000 0.190365 0.298749 -0.935153
0.22000000 -7.40999985 -1.38000000 192 111 104 0.000000 0.000000 0.000000 0.000000 0.000000 0.000000 56.000000 -0.333512 -0.013844 0.942644
0.19000000 -7.36000013 -1.41999996 192 111 104 0.000000 0.000000 0.000000 0.000000 0.000000 0.000000 56.000000 0.859491 0.322502 -0.396570
0.17000000 -7.38999987 -1.38999999 192 111 104 0.000000 0.000000 0.000000 0.000000 0.000000 0.000000 56.000000 0.839368 0.270515 -0.471468
0.23999999 -7.44999981 -1.38000000 192 111 104 0.000000 0.000000 0.000000 0.000000 0.000000 0.000000 56.000000 -0.531293 -0.232537 0.814650
0.25000000 -7.50000000 -1.37000000 192 111 104 0.000000 0.000000 0.000000 0.000000 0.000000 0.000000 56.000000 -0.549300 -0.012267 0.835535
0.23999999 -7.50000000 -1.38000000 192 111 104 0.000000 0.000000 0.000000 0.000000 0.000000 0.000000 56.000000 -0.505655 -0.036999 0.861942
0.23999999 -7.48000002 -1.38000000 192 111 104 0.000000 0.000000 0.000000 0.000000 0.000000 0.000000 56.000000 -0.083871 -0.342142 0.935898
0.22000000 -7.50000000 -1.44000006 192 111 104 0.000000 0.000000 0.000000 0.000000 0.000000 0.000000 56.000000 0.640356 0.640356 -0.424132
0.23000000 -7.51000023 -1.41999996 192 111 104 0.000000 0.000000 0.000000 0.000000 0.000000 0.000000 56.000000 0.892399 0.339321 -0.297466
0.17000000 -7.46000004 -1.39999998 192 111 104 0.000000 0.000000 0.000000 0.000000 0.000000 0.000000 56.000000 0.762288 0.473766 -0.440979
0.20000000 -7.46999979 -1.41999996 192 111 104 0.000000 0.000000 0.000000 0.000000 0.000000 0.000000 56.000000 -0.613431 -0.379900 0.692371
0.20999999 -7.50000000 -1.38000000 192 111 104 0.000000 0.000000 0.000000 0.000000 0.000000 0.000000 56.000000 -0.473381 -0.513244 0.715885
0.20000000 -7.51000023 -1.40999997 192 111 104 0.000000 0.000000 0.000000 0.000000 0.000000 0.000000 56.000000 0.867923 0.459836 -0.187779
0.20000000 -7.51000023 -1.40999997 192 111 104 0.000000 0.000000 0.000000 0.000000 0.000000 0.000000 56.000000 0.867923 0.459836 -0.187779
0.20999999 -7.50000000 -1.38999999 192 111 104 0.000000 0.000000 0.000000 0.000000 0.000000 0.000000 56.000000 0.644348 0.654287 -0.395885
0.20999999 -7.50000000 -1.45000005 192 111 104 0.000000 0.000000 0.000000 0.000000 0.000000 0.000000 56.000000 0.838015 0.544364 -0.037399
0.13000000 -7.38000011 -1.38999999 192 111 104 0.000000 0.000000 0.000000 0.000000 0.000000 0.000000 56.000000 0.604290 0.386943 -0.696498
0.16000000 -7.42000008 -1.42999995 192 111 104 0.000000 0.000000 0.000000 0.000000 0.000000 0.000000 56.000000 0.961891 0.245341 -0.120723
0.15000001 -7.42999983 -1.42999995 192 111 104 0.000000 0.000000 0.000000 0.000000 0.000000 0.000000 56.000000 0.862391 0.506098 0.012146
0.15000001 -7.42999983 -1.42999995 192 111 104 0.000000 0.000000 0.000000 0.000000 0.000000 0.000000 56.000000 0.862391 0.506098 0.012146
0.11000000 -7.40000010 -1.41999996 192 111 104 0.000000 0.000000 0.000000 0.000000 0.000000 0.000000 56.000000 0.977171 0.211504 -0.020087
0.16000000 -7.46000004 -1.41999996 192 111 104 0.000000 0.000000 0.000000 0.000000 0.000000 0.000000 56.000000 0.937830 0.319869 0.134754
0.61000001 -7.90999985 -1.49000001 192 111 104 0.000000 0.000000 0.000000 0.000000 0.000000 0.000000 56.000000 0.596656 0.529046 0.603417
0.63000000 -7.98000002 -1.52999997 192 111 104 0.000000 0.000000 0.000000 0.000000 0.000000 0.000000 56.000000 0.761625 0.116832 0.637399
0.60000002 -7.98999977 -1.50000000 192 111 104 0.000000 0.000000 0.000000 0.000000 0.000000 0.000000 56.000000 0.663658 0.459713 0.590104
0.63000000 -7.98000002 -1.52999997 192 111 104 0.000000 0.000000 0.000000 0.000000 0.000000 0.000000 56.000000 0.761625 0.116832 0.637399
0.63000000 -7.94999981 -1.48000002 192 111 104 0.000000 0.000000 0.000000 0.000000 0.000000 0.000000 56.000000 0.724551 0.258429 0.638937
0.63999999 -8.02000046 -1.57000005 192 111 104 0.000000 0.000000 0.000000 0.000000 0.000000 0.000000 56.000000 0.897317 0.382055 0.221036
0.62000000 -7.98999977 -1.54999995 192 111 104 0.000000 0.000000 0.000000 0.000000 0.000000 0.000000 56.000000 0.968571 0.209109 0.134702
0.67000002 -8.02999973 -1.54999995 192 111 104 0.000000 0.000000 0.000000 0.000000 0.000000 0.000000 56.000000 0.687954 0.480396 0.544003
0.73000002 -8.07999992 -1.55999994 192 111 104 0.000000 0.000000 0.000000 0.000000 0.000000 0.000000 56.000000 0.860374 0.068550 0.505032
0.66000003 -8.10000038 -1.53999996 192 111 104 0.000000 0.000000 0.000000 0.000000 0.000000 0.000000 56.000000 0.816206 0.078895 0.572349
0.64999998 -8.10000038 -1.53999996 192 111 104 0.000000 0.000000 0.000000 0.000000 0.000000 0.000000 56.000000 0.705670 0.286429 0.648065
0.62000000 -8.05000019 -1.52999997 192 111 104 0.000000 0.000000 0.000000 0.000000 0.000000 0.000000 56.000000 0.554739 -0.031818 0.831416
0.62000000 -8.05000019 -1.53999996 192 111 104 0.000000 0.000000 0.000000 0.000000 0.000000 0.000000 56.000000 0.564306 0.177007 0.806367
0.66000003 -8.09000015 -1.55999994 192 111 104 0.000000 0.000000 0.000000 0.000000 0.000000 0.000000 56.000000 0.946964 -0.044728 0.318211
0.66000003 -8.10000038 -1.55999994 192 111 104 0.000000 0.000000 0.000000 0.000000 0.000000 0.000000 56.000000 0.937585 -0.061631 0.342251
0.63000000 -8.14999962 -1.51999998 192 111 104 0.000000 0.000000 0.000000 0.000000 0.000000 0.000000 56.000000 0.695422 -0.029622 0.717991
0.62000000 -8.15999985 -1.50999999 192 111 104 0.000000 0.000000 0.000000 0.000000 0.000000 0.000000 56.000000 0.431364 0.036058 0.901457
0.68000001 -8.13000011 -1.57000005 192 111 104 0.000000 0.000000 0.000000 0.000000 0.000000 0.000000 56.000000 0.856281 -0.006742 0.516466
0.66000003 -8.11999989 -1.54999995 192 111 104 0.000000 0.000000 0.000000 0.000000 0.000000 0.000000 56.000000 0.933365 0.092399 0.346832
0.63000000 -8.14000034 -1.55999994 192 111 104 0.000000 0.000000 0.000000 0.000000 0.000000 0.000000 56.000000 0.704041 0.254720 0.662906
0.61000001 -8.13000011 -1.54999995 192 111 104 0.000000 0.000000 0.000000 0.000000 0.000000 0.000000 56.000000 0.321848 0.224579 0.919771
0.62000000 -8.14000034 -1.54999995 192 111 104 0.000000 0.000000 0.000000 0.000000 0.000000 0.000000 56.000000 0.398744 0.339786 0.851792
0.62000000 -8.18999958 -1.59000003 192 111 104 0.000000 0.000000 0.000000 0.000000 0.000000 0.000000 56.000000 0.402679 0.206465 0.891752
0.46000001 -7.67999983 -1.50000000 192 111 104 0.000000 0.000000 0.000000 0.000000 0.000000 0.000000 56.000000 0.894676 0.363508 0.259649
0.44000000 -7.65999985 -1.51999998 192 111 104 0.000000 0.000000 0.000000 0.000000 0.000000 0.000000 56.000000 0.799955 0.394344 -0.452288
0.44999999 -7.67000008 -1.50999999 192 111 104 0.000000 0.000000 0.000000 0.000000 0.000000 0.000000 56.000000 0.818076 0.565243 0.106074
0.44999999 -7.67000008 -1.49000001 192 111 104 0.000000 0.000000 0.000000 0.000000 0.000000 0.000000 56.000000 0.986110 0.062293 0.153969
0.46000001 -7.69000006 -1.50999999 192 111 104 0.000000 0.000000 0.000000 0.000000 0.000000 0.000000 56.000000 0.867479 0.491898 0.074275
0.46000001 -7.80999994 -1.45000005 192 111 104 0.000000 0.000000 0.000000 0.000000 0.000000 0.000000 56.000000 0.323133 0.134980 0.936678
0.47000000 -7.80999994 -1.45000005 192 111 104 0.000000 0.000000 0.000000 0.000000 0.000000 0.000000 56.000000 0.496072 0.045347 0.867096
0.47999999 -7.71000004 -1.45000005 192 111 104 0.000000 0.000000 0.000000 0.000000 0.000000 0.000000 56.000000 0.494850 0.254362 0.830917
0.44000000 -7.69999981 -1.45000005 192 111 104 0.000000 0.000000 0.000000 0.000000 0.000000 0.000000 56.000000 0.234100 0.035176 0.971576
0.46000001 -7.73000002 -1.45000005 192 111 104 0.000000 0.000000 0.000000 0.000000 0.000000 0.000000 56.000000 0.461922 0.112283 0.879784
0.44999999 -7.80999994 -1.44000006 192 111 104 0.000000 0.000000 0.000000 0.000000 0.000000 0.000000 56.000000 0.142623 -0.393979 0.907987
