//X Y Z R G B PointSourceId ScanDirectionFlag NumberOfReturns ReturnNumber GpsTime Intensity Classification Nx Ny Nz
-21.50000000 2.92000008 -0.94999999 146 73 146 0.000000 0.000000 0.000000 0.000000 0.000000 0.000000 236.000000 0.634858 0.756072 -0.159093
-21.54999924 2.96000004 -0.95999998 146 73 146 0.000000 0.000000 0.000000 0.000000 0.000000 0.000000 236.000000 0.003849 0.922424 -0.386161
-21.67000008 2.98000002 -0.98000002 146 73 146 0.000000 0.000000 0.000000 0.000000 0.000000 0.000000 236.000000 -0.185990 0.904000 0.384957
-21.61000061 2.91000009 -0.95999998 146 73 146 0.000000 0.000000 0.000000 0.000000 0.000000 0.000000 236.000000 -0.048751 0.961272 0.271256
-21.64999962 2.96000004 -0.98000002 146 73 146 0.000000 0.000000 0.000000 0.000000 0.000000 0.000000 236.000000 0.148859 0.925152 -0.349193
-21.63999939 2.92000008 -0.97000003 146 73 146 0.000000 0.000000 0.000000 0.000000 0.000000 0.000000 236.000000 0.056989 0.976089 0.209768
-21.62999916 2.91000009 -0.98000002 146 73 146 0.000000 0.000000 0.000000 0.000000 0.000000 0.000000 236.000000 0.003319 0.990076 0.140491
-21.62000084 2.92000008 -0.97000003 146 73 146 0.000000 0.000000 0.000000 0.000000 0.000000 0.000000 236.000000 -0.089076 0.969794 0.227080
-21.64999962 2.91000009 -0.98000002 146 73 146 0.000000 0.000000 0.000000 0.000000 0.000000 0.000000 236.000000 -0.250444 0.965279 -0.074252
-21.60000038 2.79999995 -0.98000002 146 73 146 0.000000 0.000000 0.000000 0.000000 0.000000 0.000000 236.000000 0.452982 0.891352 0.017269
-21.62999916 2.84999990 -0.98000002 146 73 146 0.000000 0.000000 0.000000 0.000000 0.000000 0.000000 236.000000 -0.111641 0.937517 0.329543
-21.62999916 2.86999989 -0.99000001 146 73 146 0.000000 0.000000 0.000000 0.000000 0.000000 0.000000 236.000000 0.148842 0.938116 0.312705
-21.63999939 2.82999992 -0.94000000 146 73 146 0.000000 0.000000 0.000000 0.000000 0.000000 0.000000 236.000000 -0.312459 0.942740 0.116669
-21.63999939 2.82999992 -0.94000000 146 73 146 0.000000 0.000000 0.000000 0.000000 0.000000 0.000000 236.000000 -0.312459 0.942740 0.116669
-21.65999985 2.93000007 -0.94999999 146 73 146 0.000000 0.000000 0.000000 0.000000 0.000000 0.000000 236.000000 -0.233743 0.919200 -0.316916
-21.67000008 2.95000005 -1.01999998 146 73 146 0.000000 0.000000 0.000000 0.000000 0.000000 0.000000 236.000000 -0.299486 0.895477 -0.329285
-21.65999985 2.88000011 -0.97000003 146 73 146 0.000000 0.000000 0.000000 0.000000 0.000000 0.000000 236.000000 0.090773 0.981559 0.168233
-21.67000008 2.88000011 -0.95999998 146 73 146 0.000000 0.000000 0.000000 0.000000 0.000000 0.000000 236.000000 -0.207681 0.973740 0.093270
-21.65999985 2.88000011 -0.95999998 146 73 146 0.000000 0.000000 0.000000 0.000000 0.000000 0.000000 236.000000 0.069939 0.960076 0.270856
-21.39999962 2.75000000 -0.60000002 146 73 146 0.000000 0.000000 0.000000 0.000000 0.000000 0.000000 236.000000 0.680355 0.680355 -0.272461
-21.40999985 2.76999998 -0.68000001 146 73 146 0.000000 0.000000 0.000000 0.000000 0.000000 0.000000 236.000000 0.690281 0.553228 -0.466316
-21.40999985 2.77999997 -0.68000001 146 73 146 0.000000 0.000000 0.000000 0.000000 0.000000 0.000000 236.000000 0.651249 0.726212 -0.220206
-21.40999985 2.73000002 -0.63000000 146 73 146 0.000000 0.000000 0.000000 0.000000 0.000000 0.000000 236.000000 0.631326 0.347474 -0.693317
-21.39999962 2.73000002 -0.62000000 146 73 146 0.000000 0.000000 0.000000 0.000000 0.000000 0.000000 236.000000 0.445305 0.688805 -0.572058
-21.39999962 2.73000002 -0.62000000 146 73 146 0.000000 0.000000 0.000000 0.000000 0.000000 0.000000 236.000000 0.445305 0.688805 -0.572058
-21.39999962 2.73000002 -0.64999998 146 73 146 0.000000 0.000000 0.000000 0.000000 0.000000 0.000000 236.000000 0.900247 0.382496 -0.207973
-21.42000008 2.73000002 -0.68000001 146 73 146 0.000000 0.000000 0.000000 0.000000 0.000000 0.000000 236.000000 0.893001 0.449818 -0.014596
-21.44000053 2.76999998 -0.72000003 146 73 146 0.000000 0.000000 0.000000 0.000000 0.000000 0.000000 236.000000 0.789995 0.497166 -0.358796
-21.44000053 2.75999999 -0.69000000 146 73 146 0.000000 0.000000 0.000000 0.000000 0.000000 0.000000 236.000000 0.813345 0.506186 -0.286786
-21.43000031 2.75000000 -0.69000000 146 73 146 0.000000 0.000000 0.000000 0.000000 0.000000 0.000000 236.000000 0.663940 0.587010 -0.463253
-21.42000008 2.77999997 -0.69000000 146 73 146 0.000000 0.000000 0.000000 0.000000 0.000000 0.000000 236.000000 0.632427 0.741736 -0.223302
-21.43000031 2.75000000 -0.69000000 146 73 146 0.000000 0.000000 0.000000 0.000000 0.000000 0.000000 236.000000 0.663940 0.587010 -0.463253
-21.44000053 2.78999996 -0.70999998 146 73 146 0.000000 0.000000 0.000000 0.000000 0.000000 0.000000 236.000000 0.475224 0.754768 -0.452203
-21.42000008 2.77999997 -0.69000000 146 73 146 0.000000 0.000000 0.000000 0.000000 0.000000 0.000000 236.000000 0.632427 0.741736 -0.223302
-21.45000076 2.76999998 -0.69999999 146 73 146 0.000000 0.000000 0.000000 0.000000 0.000000 0.000000 236.000000 0.362027 0.922406 0.134546
-21.46999931 2.77999997 -0.75999999 146 73 146 0.000000 0.000000 0.000000 0.000000 0.000000 0.000000 236.000000 0.399423 0.803658 -0.441130
-21.46999931 2.76999998 -0.75000000 146 73 146 0.000000 0.000000 0.000000 0.000000 0.000000 0.000000 236.000000 0.660161 0.751123 -0.001378
-21.47999954 2.77999997 -0.79000002 146 73 146 0.000000 0.000000 0.000000 0.000000 0.000000 0.000000 236.000000 0.288696 0.935820 -0.202226
-21.47999954 2.77999997 -0.80000001 146 73 146 0.000000 0.000000 0.000000 0.000000 0.000000 0.000000 236.000000 0.379630 0.918015 -0.114579
-21.54000092 2.78999996 -0.82999998 146 73 146 0.000000 0.000000 0.000000 0.000000 0.000000 0.000000 236.000000 0.358810 0.931854 0.053887
-21.53000069 2.77999997 -0.80000001 146 73 146 0.000000 0.000000 0.000000 0.000000 0.000000 0.000000 236.000000 0.309646 0.792376 -0.525604
-21.12999916 2.91000009 0.11000000 146 73 146 0.000000 0.000000 0.000000 0.000000 0.000000 0.000000 236.000000 -0.022349 0.997204 0.071305
-21.10000038 2.83999991 0.25999999 146 73 146 0.000000 0.000000 0.000000 0.000000 0.000000 0.000000 236.000000 -0.367107 0.923910 0.107812
-21.12000084 2.79999995 0.23999999 146 73 146 0.000000 0.000000 0.000000 0.000000 0.000000 0.000000 236.000000 0.167193 0.953670 0.250121
-21.18000031 2.86999989 0.15000001 146 73 146 0.000000 0.000000 0.000000 0.000000 0.000000 0.000000 236.000000 0.118930 0.975224 -0.186532
-21.14999962 2.82999992 0.11000000 146 73 146 0.000000 0.000000 0.000000 0.000000 0.000000 0.000000 236.000000 0.417795 0.894455 -0.159365
-21.12999916 2.98000002 -0.03000000 146 73 146 0.000000 0.000000 0.000000 0.000000 0.000000 0.000000 236.000000 0.554373 0.832241 -0.006810
-21.15999985 2.97000003 0.05000000 146 73 146 0.000000 0.000000 0.000000 0.000000 0.000000 0.000000 236.000000 0.373164 0.890538 -0.260174
-21.15999985 3.00999999 -0.14000000 146 73 146 0.000000 0.000000 0.000000 0.000000 0.000000 0.000000 236.000000 0.613793 0.762217 -0.205628
-21.15999985 3.00999999 -0.14000000 146 73 146 0.000000 0.000000 0.000000 0.000000 0.000000 0.000000 236.000000 0.613793 0.762217 -0.205628
-21.17000008 3.00000000 -0.16000000 146 73 146 0.000000 0.000000 0.000000 0.000000 0.000000 0.000000 236.000000 -0.135920 0.956718 -0.257324
-21.13999939 2.99000001 -0.14000000 146 73 146 0.000000 0.000000 0.000000 0.000000 0.000000 0.000000 236.000000 0.289863 0.955660 0.051897
-21.20000076 2.97000003 -0.12000000 146 73 146 0.000000 0.000000 0.000000 0.000000 0.000000 0.000000 236.000000 0.220030 0.947086 -0.233697
-21.20000076 2.97000003 -0.12000000 146 73 146 0.000000 0.000000 0.000000 0.000000 0.000000 0.000000 236.000000 0.220030 0.947086 -0.233697
-21.15999985 3.01999998 -0.19000000 146 73 146 0.000000 0.000000 0.000000 0.000000 0.000000 0.000000 236.000000 0.367497 0.929702 0.024500
-21.21999931 3.03999996 -0.25000000 146 73 146 0.000000 0.000000 0.000000 0.000000 0.000000 0.000000 236.000000 0.229022 0.954928 0.188843
-21.14999962 2.89000010 0.02000000 146 73 146 0.000000 0.000000 0.000000 0.000000 0.000000 0.000000 236.000000 0.389850 0.916894 -0.085577
-21.21999931 2.93000007 0.09000000 146 73 146 0.000000 0.000000 0.000000 0.000000 0.000000 0.000000 236.000000 -0.058821 0.937208 0.343774
-21.21999931 2.89000010 0.04000000 146 73 146 0.000000 0.000000 0.000000 0.000000 0.000000 0.000000 236.000000 -0.175986 0.984387 -0.003406
-21.18000031 2.96000004 0.00000000 146 73 146 0.000000 0.000000 0.000000 0.000000 0.000000 0.000000 236.000000 -0.182727 0.905004 -0.384159
-21.21999931 2.93000007 -0.06000000 146 73 146 0.000000 0.000000 0.000000 0.000000 0.000000 0.000000 236.000000 0.170434 0.970064 0.172997
-21.21999931 2.90000010 -0.03000000 146 73 146 0.000000 0.000000 0.000000 0.000000 0.000000 0.000000 236.000000 -0.098227 0.952143 -0.289441
-21.19000053 2.91000009 -0.05000000 146 73 146 0.000000 0.000000 0.000000 0.000000 0.000000 0.000000 236.000000 -0.132703 0.987642 0.083380
-21.19000053 2.91000009 -0.05000000 146 73 146 0.000000 0.000000 0.000000 0.000000 0.000000 0.000000 236.000000 -0.132703 0.987642 0.083380
-21.15999985 2.84999990 0.09000000 146 73 146 0.000000 0.000000 0.000000 0.000000 0.000000 0.000000 236.000000 -0.210451 0.967043 0.143313
-21.19000053 2.83999991 0.09000000 146 73 146 0.000000 0.000000 0.000000 0.000000 0.000000 0.000000 236.000000 -0.198073 0.919118 -0.340572
-21.19000053 2.79999995 0.04000000 146 73 146 0.000000 0.000000 0.000000 0.000000 0.000000 0.000000 236.000000 0.143911 0.989247 0.026063
-21.21999931 2.80999994 0.00000000 146 73 146 0.000000 0.000000 0.000000 0.000000 0.000000 0.000000 236.000000 -0.290826 0.947531 0.132681
-21.18000031 2.89000010 -0.14000000 146 73 146 0.000000 0.000000 0.000000 0.000000 0.000000 0.000000 236.000000 0.530380 0.793195 -0.299229
-21.20000076 2.89000010 -0.15000001 146 73 146 0.000000 0.000000 0.000000 0.000000 0.000000 0.000000 236.000000 0.190407 0.962540 -0.193033
-21.21999931 2.81999993 -0.12000000 146 73 146 0.000000 0.000000 0.000000 0.000000 0.000000 0.000000 236.000000 0.133973 0.990955 0.007750
-21.20000076 2.79999995 -0.14000000 146 73 146 0.000000 0.000000 0.000000 0.000000 0.000000 0.000000 236.000000 0.773342 0.601147 -0.201407
-21.21999931 2.85999990 -0.12000000 146 73 146 0.000000 0.000000 0.000000 0.000000 0.000000 0.000000 236.000000 0.349467 0.881987 -0.316184
-21.25000000 2.92000008 -0.06000000 146 73 146 0.000000 0.000000 0.000000 0.000000 0.000000 0.000000 236.000000 -0.165174 0.943268 -0.288031
-21.23999977 2.89000010 -0.13000000 146 73 146 0.000000 0.000000 0.000000 0.000000 0.000000 0.000000 236.000000 -0.193474 0.956695 0.217491
-21.21999931 3.02999997 -0.27000001 146 73 146 0.000000 0.000000 0.000000 0.000000 0.000000 0.000000 236.000000 -0.012583 0.984889 0.172727
-21.20999908 3.02999997 -0.28999999 146 73 146 0.000000 0.000000 0.000000 0.000000 0.000000 0.000000 236.000000 0.265942 0.921454 -0.283192
-21.23999977 3.03999996 -0.25999999 146 73 146 0.000000 0.000000 0.000000 0.000000 0.000000 0.000000 236.000000 0.379550 0.898318 -0.221282
-21.04000092 2.57999992 0.14000000 146 73 146 0.000000 0.000000 0.000000 0.000000 0.000000 0.000000 236.000000 -0.210570 0.904726 0.370313
-21.04999924 2.58999991 0.19000000 146 73 146 0.000000 0.000000 0.000000 0.000000 0.000000 0.000000 236.000000 -0.506761 0.852345 -0.129231
-21.12000084 2.73000002 0.30000001 146 73 146 0.000000 0.000000 0.000000 0.000000 0.000000 0.000000 236.000000 0.869433 -0.106723 -0.482386
-21.12000084 2.74000001 0.27000001 146 73 146 0.000000 0.000000 0.000000 0.000000 0.000000 0.000000 236.000000 -0.447371 0.806551 0.386439
-21.12000084 2.73000002 0.30000001 146 73 146 0.000000 0.000000 0.000000 0.000000 0.000000 0.000000 236.000000 0.869433 -0.106723 -0.482386
-21.12000084 2.73000002 0.28000000 146 73 146 0.000000 0.000000 0.000000 0.000000 0.000000 0.000000 236.000000 0.939273 -0.186199 -0.288264
-21.10000038 2.71000004 0.28000000 146 73 146 0.000000 0.000000 0.000000 0.000000 0.000000 0.000000 236.000000 0.959291 0.028469 -0.280980
-21.12000084 2.74000001 0.27000001 146 73 146 0.000000 0.000000 0.000000 0.000000 0.000000 0.000000 236.000000 -0.447371 0.806551 0.386439
-21.10000038 2.70000005 0.27000001 146 73 146 0.000000 0.000000 0.000000 0.000000 0.000000 0.000000 236.000000 0.735995 0.381931 -0.558963
-21.13999939 2.75999999 0.31000000 146 73 146 0.000000 0.000000 0.000000 0.000000 0.000000 0.000000 236.000000 -0.664083 0.728202 0.169456
-21.14999962 2.72000003 0.28999999 146 73 146 0.000000 0.000000 0.000000 0.000000 0.000000 0.000000 236.000000 0.930926 0.024464 -0.364387
-21.13999939 2.70000005 0.31999999 146 73 146 0.000000 0.000000 0.000000 0.000000 0.000000 0.000000 236.000000 0.922132 0.152061 -0.355739
-21.09000015 2.76999998 0.23999999 146 73 146 0.000000 0.000000 0.000000 0.000000 0.000000 0.000000 236.000000 -0.220700 0.972806 -0.070279
-21.05999947 2.77999997 0.19000000 146 73 146 0.000000 0.000000 0.000000 0.000000 0.000000 0.000000 236.000000 0.677187 0.680389 -0.280160
-21.12000084 2.75999999 0.23000000 146 73 146 0.000000 0.000000 0.000000 0.000000 0.000000 0.000000 236.000000 0.032482 0.973265 0.227376
-21.12000084 2.75999999 0.20999999 146 73 146 0.000000 0.000000 0.000000 0.000000 0.000000 0.000000 236.000000 0.101283 0.993910 0.043407
-21.12999916 2.76999998 0.22000000 146 73 146 0.000000 0.000000 0.000000 0.000000 0.000000 0.000000 236.000000 -0.251602 0.911874 -0.324319
-21.11000061 2.77999997 0.10000000 146 73 146 0.000000 0.000000 0.000000 0.000000 0.000000 0.000000 236.000000 0.636136 0.752074 -0.172382
-21.13999939 2.75999999 0.22000000 146 73 146 0.000000 0.000000 0.000000 0.000000 0.000000 0.000000 236.000000 -0.157816 0.923153 0.350547
-21.14999962 2.78999996 0.18000001 146 73 146 0.000000 0.000000 0.000000 0.000000 0.000000 0.000000 236.000000 -0.523912 0.851185 -0.031627
-21.18000031 2.75000000 0.18000001 146 73 146 0.000000 0.000000 0.000000 0.000000 0.000000 0.000000 236.000000 -0.434442 0.826231 0.358612
-21.14999962 2.71000004 0.22000000 146 73 146 0.000000 0.000000 0.000000 0.000000 0.000000 0.000000 236.000000 0.893974 0.237901 -0.379754
-21.20999908 2.74000001 0.20999999 146 73 146 0.000000 0.000000 0.000000 0.000000 0.000000 0.000000 236.000000 0.965897 -0.257654 0.025643
-21.13999939 2.73000002 0.13000000 146 73 146 0.000000 0.000000 0.000000 0.000000 0.000000 0.000000 236.000000 -0.076532 0.994917 0.065440
-21.20000076 2.78999996 0.10000000 146 73 146 0.000000 0.000000 0.000000 0.000000 0.000000 0.000000 236.000000 -0.515092 0.804930 0.294563
-21.11000061 2.45000005 0.28000000 146 73 146 0.000000 0.000000 0.000000 0.000000 0.000000 0.000000 236.000000 0.073906 0.950405 -0.302107
-21.05999947 2.60999990 0.10000000 146 73 146 0.000000 0.000000 0.000000 0.000000 0.000000 0.000000 236.000000 0.613565 -0.583141 -0.532433
-21.09000015 2.57999992 0.11000000 146 73 146 0.000000 0.000000 0.000000 0.000000 0.000000 0.000000 236.000000 -0.034566 0.940976 0.336703
-21.10000038 2.58999991 0.11000000 146 73 146 0.000000 0.000000 0.000000 0.000000 0.000000 0.000000 236.000000 -0.515007 0.816855 0.259838
-21.11000061 2.44000006 0.28999999 146 73 146 0.000000 0.000000 0.000000 0.000000 0.000000 0.000000 236.000000 0.238700 0.903544 -0.355853
-21.11000061 2.76999998 0.08000000 146 73 146 0.000000 0.000000 0.000000 0.000000 0.000000 0.000000 236.000000 0.713331 0.554445 -0.428660
-21.12000084 2.76999998 0.08000000 146 73 146 0.000000 0.000000 0.000000 0.000000 0.000000 0.000000 236.000000 0.726485 0.582821 -0.364059
-21.11000061 2.78999996 0.08000000 146 73 146 0.000000 0.000000 0.000000 0.000000 0.000000 0.000000 236.000000 0.771371 0.617999 -0.151868
-21.07999992 2.63000011 0.02000000 146 73 146 0.000000 0.000000 0.000000 0.000000 0.000000 0.000000 236.000000 0.772550 -0.280783 -0.569498
-21.07999992 2.65000010 0.03000000 146 73 146 0.000000 0.000000 0.000000 0.000000 0.000000 0.000000 236.000000 0.785075 -0.252289 -0.565692
-21.14999962 2.75999999 -0.03000000 146 73 146 0.000000 0.000000 0.000000 0.000000 0.000000 0.000000 236.000000 0.349434 0.841462 -0.412113
-21.18000031 2.75999999 -0.07000000 146 73 146 0.000000 0.000000 0.000000 0.000000 0.000000 0.000000 236.000000 0.447131 0.795796 -0.408390
-21.18000031 2.75999999 -0.06000000 146 73 146 0.000000 0.000000 0.000000 0.000000 0.000000 0.000000 236.000000 0.598116 0.727789 -0.335529
-21.17000008 2.75999999 -0.06000000 146 73 146 0.000000 0.000000 0.000000 0.000000 0.000000 0.000000 236.000000 0.615769 0.728312 -0.300650
-21.15999985 2.75000000 -0.04000000 146 73 146 0.000000 0.000000 0.000000 0.000000 0.000000 0.000000 236.000000 0.559893 0.742716 -0.367277
-21.20000076 2.76999998 -0.05000000 146 73 146 0.000000 0.000000 0.000000 0.000000 0.000000 0.000000 236.000000 -0.057489 0.998223 0.015679
-21.18000031 2.75000000 -0.11000000 146 73 146 0.000000 0.000000 0.000000 0.000000 0.000000 0.000000 236.000000 0.730169 0.392158 -0.559523
-21.18000031 2.75999999 -0.10000000 146 73 146 0.000000 0.000000 0.000000 0.000000 0.000000 0.000000 236.000000 0.683123 0.469334 -0.559526
-21.15999985 2.75000000 -0.08000000 146 73 146 0.000000 0.000000 0.000000 0.000000 0.000000 0.000000 236.000000 0.851754 0.490766 -0.183478
-21.17000008 2.75000000 -0.10000000 146 73 146 0.000000 0.000000 0.000000 0.000000 0.000000 0.000000 236.000000 0.837244 0.293579 -0.461339
-21.18000031 2.74000001 -0.12000000 146 73 146 0.000000 0.000000 0.000000 0.000000 0.000000 0.000000 236.000000 0.776970 0.526023 -0.345856
-21.17000008 2.72000003 -0.11000000 146 73 146 0.000000 0.000000 0.000000 0.000000 0.000000 0.000000 236.000000 0.824888 0.054993 -0.562616
-21.20000076 2.75000000 -0.12000000 146 73 146 0.000000 0.000000 0.000000 0.000000 0.000000 0.000000 236.000000 0.442561 0.714396 -0.542013
-21.19000053 2.76999998 -0.11000000 146 73 146 0.000000 0.000000 0.000000 0.000000 0.000000 0.000000 236.000000 0.836069 0.540648 -0.093215
-21.20000076 2.77999997 -0.11000000 146 73 146 0.000000 0.000000 0.000000 0.000000 0.000000 0.000000 236.000000 0.657856 0.693242 -0.294347
-21.20000076 2.75000000 -0.14000000 146 73 146 0.000000 0.000000 0.000000 0.000000 0.000000 0.000000 236.000000 0.467746 0.881680 -0.062090
-21.20999908 2.75000000 -0.13000000 146 73 146 0.000000 0.000000 0.000000 0.000000 0.000000 0.000000 236.000000 0.501402 0.812617 -0.297069
-21.20999908 2.75000000 -0.14000000 146 73 146 0.000000 0.000000 0.000000 0.000000 0.000000 0.000000 236.000000 0.434809 0.898241 -0.064063
-21.21999931 2.74000001 -0.16000000 146 73 146 0.000000 0.000000 0.000000 0.000000 0.000000 0.000000 236.000000 0.886074 0.433611 -0.163873
-21.21999931 2.72000003 -0.20000000 146 73 146 0.000000 0.000000 0.000000 0.000000 0.000000 0.000000 236.000000 0.985505 0.144191 -0.089375
-21.21999931 2.74000001 -0.20000000 146 73 146 0.000000 0.000000 0.000000 0.000000 0.000000 0.000000 236.000000 0.951660 0.291912 -0.095559
-21.21999931 2.72000003 -0.19000000 146 73 146 0.000000 0.000000 0.000000 0.000000 0.000000 0.000000 236.000000 0.965173 0.008435 -0.261476
-21.07999992 2.58999991 0.09000000 146 73 146 0.000000 0.000000 0.000000 0.000000 0.000000 0.000000 236.000000 -0.513889 0.854605 -0.074620
-21.09000015 2.60999990 0.02000000 146 73 146 0.000000 0.000000 0.000000 0.000000 0.000000 0.000000 236.000000 0.741184 -0.589395 -0.321341
-21.06999969 2.60999990 0.04000000 146 73 146 0.000000 0.000000 0.000000 0.000000 0.000000 0.000000 236.000000 -0.670021 0.670021 0.319598
-21.10000038 2.57999992 0.07000000 146 73 146 0.000000 0.000000 0.000000 0.000000 0.000000 0.000000 236.000000 -0.705014 0.610140 0.361504
-21.12999916 2.56999993 0.05000000 146 73 146 0.000000 0.000000 0.000000 0.000000 0.000000 0.000000 236.000000 -0.011339 0.998859 0.046387
-21.12000084 2.56999993 0.03000000 146 73 146 0.000000 0.000000 0.000000 0.000000 0.000000 0.000000 236.000000 -0.488649 0.751894 0.442581
-21.14999962 2.57999992 0.09000000 146 73 146 0.000000 0.000000 0.000000 0.000000 0.000000 0.000000 236.000000 -0.099494 0.978968 -0.178106
-21.15999985 2.57999992 0.07000000 146 73 146 0.000000 0.000000 0.000000 0.000000 0.000000 0.000000 236.000000 -0.005970 0.968344 -0.249549
-21.13999939 2.57999992 0.00000000 146 73 146 0.000000 0.000000 0.000000 0.000000 0.000000 0.000000 236.000000 -0.136149 0.970858 0.197225
-21.13999939 2.57999992 0.00000000 146 73 146 0.000000 0.000000 0.000000 0.000000 0.000000 0.000000 236.000000 -0.136149 0.970858 0.197225
-21.15999985 2.57999992 -0.02000000 146 73 146 0.000000 0.000000 0.000000 0.000000 0.000000 0.000000 236.000000 -0.339784 0.927819 0.153943
-21.17000008 2.55999994 -0.06000000 146 73 146 0.000000 0.000000 0.000000 0.000000 0.000000 0.000000 236.000000 -0.478844 0.865995 0.144090
-21.20999908 2.58999991 -0.06000000 146 73 146 0.000000 0.000000 0.000000 0.000000 0.000000 0.000000 236.000000 -0.347839 0.898461 0.267910
-21.17000008 2.57999992 -0.08000000 146 73 146 0.000000 0.000000 0.000000 0.000000 0.000000 0.000000 236.000000 -0.652446 0.727189 0.213330
-21.22999954 2.71000004 -0.10000000 146 73 146 0.000000 0.000000 0.000000 0.000000 0.000000 0.000000 236.000000 0.817008 0.412486 -0.402930
-21.25000000 2.76999998 -0.09000000 146 73 146 0.000000 0.000000 0.000000 0.000000 0.000000 0.000000 236.000000 0.227130 0.970008 0.086585
-21.25000000 2.72000003 -0.23999999 146 73 146 0.000000 0.000000 0.000000 0.000000 0.000000 0.000000 236.000000 0.678638 0.681831 -0.273052
-21.23999977 2.73000002 -0.23999999 146 73 146 0.000000 0.000000 0.000000 0.000000 0.000000 0.000000 236.000000 0.545344 0.602749 -0.582489
-21.26000023 2.63000011 -0.23000000 146 73 146 0.000000 0.000000 0.000000 0.000000 0.000000 0.000000 236.000000 -0.578262 0.789934 0.204002
-21.26000023 2.63000011 -0.23000000 146 73 146 0.000000 0.000000 0.000000 0.000000 0.000000 0.000000 236.000000 -0.578262 0.789934 0.204002
-21.29000092 2.69000006 -0.20999999 146 73 146 0.000000 0.000000 0.000000 0.000000 0.000000 0.000000 236.000000 0.924575 0.104849 -0.366290
-21.28000069 2.67000008 -0.25000000 146 73 146 0.000000 0.000000 0.000000 0.000000 0.000000 0.000000 236.000000 0.845131 -0.421787 -0.328403
-21.28000069 2.67000008 -0.25000000 146 73 146 0.000000 0.000000 0.000000 0.000000 0.000000 0.000000 236.000000 0.845131 -0.421787 -0.328403
-21.28000069 2.64000010 -0.19000000 146 73 146 0.000000 0.000000 0.000000 0.000000 0.000000 0.000000 236.000000 0.209090 0.957551 0.198436
-21.28000069 2.63000011 -0.19000000 146 73 146 0.000000 0.000000 0.000000 0.000000 0.000000 0.000000 236.000000 -0.113023 0.905582 0.408837
-21.29000092 2.69000006 -0.33000001 146 73 146 0.000000 0.000000 0.000000 0.000000 0.000000 0.000000 236.000000 0.901361 -0.006541 -0.433019
-21.29000092 2.68000007 -0.30000001 146 73 146 0.000000 0.000000 0.000000 0.000000 0.000000 0.000000 236.000000 0.968046 0.145271 -0.204408
-21.29000092 2.70000005 -0.33000001 146 73 146 0.000000 0.000000 0.000000 0.000000 0.000000 0.000000 236.000000 0.839314 0.320408 -0.439194
-21.29000092 2.63000011 -0.30000001 146 73 146 0.000000 0.000000 0.000000 0.000000 0.000000 0.000000 236.000000 -0.299824 0.942885 0.145164
-21.30999947 2.61999989 -0.31000000 146 73 146 0.000000 0.000000 0.000000 0.000000 0.000000 0.000000 236.000000 -0.537821 0.747064 0.390697
-21.29999924 2.66000009 -0.33000001 146 73 146 0.000000 0.000000 0.000000 0.000000 0.000000 0.000000 236.000000 0.914043 -0.202323 -0.351555
-21.27000046 2.63000011 -0.33000001 146 73 146 0.000000 0.000000 0.000000 0.000000 0.000000 0.000000 236.000000 0.800146 -0.599766 0.006862
-21.29999924 2.67000008 -0.34999999 146 73 146 0.000000 0.000000 0.000000 0.000000 0.000000 0.000000 236.000000 0.897973 -0.030689 -0.438979
-21.29000092 2.67000008 -0.34000000 146 73 146 0.000000 0.000000 0.000000 0.000000 0.000000 0.000000 236.000000 0.900036 -0.430214 -0.069654
-21.29999924 2.67000008 -0.34000000 146 73 146 0.000000 0.000000 0.000000 0.000000 0.000000 0.000000 236.000000 0.766353 -0.601580 -0.225398
-21.30999947 2.70000005 -0.40000001 146 73 146 0.000000 0.000000 0.000000 0.000000 0.000000 0.000000 236.000000 0.998809 0.036529 -0.032354
-21.31999969 2.72000003 -0.38999999 146 73 146 0.000000 0.000000 0.000000 0.000000 0.000000 0.000000 236.000000 0.757771 0.647233 -0.082904
-21.31999969 2.69000006 -0.31000000 146 73 146 0.000000 0.000000 0.000000 0.000000 0.000000 0.000000 236.000000 0.969048 0.215202 -0.120972
-21.32999992 2.70000005 -0.34999999 146 73 146 0.000000 0.000000 0.000000 0.000000 0.000000 0.000000 236.000000 0.985611 0.123052 -0.115884
-21.29000092 2.71000004 -0.43000001 146 73 146 0.000000 0.000000 0.000000 0.000000 0.000000 0.000000 236.000000 0.871935 0.174975 -0.457288
-21.30999947 2.74000001 -0.52999997 146 73 146 0.000000 0.000000 0.000000 0.000000 0.000000 0.000000 236.000000 0.669135 0.729282 -0.142849
-21.30999947 2.75999999 -0.56000000 146 73 146 0.000000 0.000000 0.000000 0.000000 0.000000 0.000000 236.000000 0.702967 0.671514 -0.234322
-21.30999947 2.67000008 -0.43000001 146 73 146 0.000000 0.000000 0.000000 0.000000 0.000000 0.000000 236.000000 0.959777 0.059433 -0.274402
-21.34000015 2.73000002 -0.49000001 146 73 146 0.000000 0.000000 0.000000 0.000000 0.000000 0.000000 236.000000 0.854040 0.327046 -0.404545
-21.32999992 2.72000003 -0.56999999 146 73 146 0.000000 0.000000 0.000000 0.000000 0.000000 0.000000 236.000000 0.983664 0.148091 -0.102340
-21.34000015 2.72000003 -0.58999997 146 73 146 0.000000 0.000000 0.000000 0.000000 0.000000 0.000000 236.000000 0.830450 0.546387 -0.108698
-21.38999939 2.75000000 -0.58999997 146 73 146 0.000000 0.000000 0.000000 0.000000 0.000000 0.000000 236.000000 0.537901 0.707764 -0.457965
-21.38999939 2.75000000 -0.57999998 146 73 146 0.000000 0.000000 0.000000 0.000000 0.000000 0.000000 236.000000 0.612606 0.675693 -0.410064
-21.37000084 2.72000003 -0.55000001 146 73 146 0.000000 0.000000 0.000000 0.000000 0.000000 0.000000 236.000000 0.849784 0.513924 -0.117261
-21.36000061 2.72000003 -0.52999997 146 73 146 0.000000 0.000000 0.000000 0.000000 0.000000 0.000000 236.000000 0.620285 0.623647 -0.475720
-21.36000061 2.72000003 -0.54000002 146 73 146 0.000000 0.000000 0.000000 0.000000 0.000000 0.000000 236.000000 0.614274 0.660886 -0.431157
-21.31999969 2.69000006 -0.44000000 146 73 146 0.000000 0.000000 0.000000 0.000000 0.000000 0.000000 236.000000 0.975001 0.197989 -0.100862
-21.32999992 2.69000006 -0.47999999 146 73 146 0.000000 0.000000 0.000000 0.000000 0.000000 0.000000 236.000000 0.957327 0.011060 -0.288796
-21.37000084 2.67000008 -0.55000001 146 73 146 0.000000 0.000000 0.000000 0.000000 0.000000 0.000000 236.000000 0.998569 -0.036751 -0.038851
-21.26000023 2.60999990 -0.28999999 146 73 146 0.000000 0.000000 0.000000 0.000000 0.000000 0.000000 236.000000 0.372742 -0.782597 -0.498603
-21.39999962 2.75000000 -0.58999997 146 73 146 0.000000 0.000000 0.000000 0.000000 0.000000 0.000000 236.000000 0.753424 0.484227 -0.444832
-21.30999947 2.97000003 -0.73000002 146 73 146 0.000000 0.000000 0.000000 0.000000 0.000000 0.000000 236.000000 0.348253 0.920684 -0.176241
-21.28000069 2.99000001 -0.75000000 146 73 146 0.000000 0.000000 0.000000 0.000000 0.000000 0.000000 236.000000 0.442892 0.827468 -0.345172
-21.36000061 3.02999997 -0.69999999 146 73 146 0.000000 0.000000 0.000000 0.000000 0.000000 0.000000 236.000000 0.607438 0.735657 -0.299712
-21.29999924 2.93000007 -0.91000003 146 73 146 0.000000 0.000000 0.000000 0.000000 0.000000 0.000000 188.000000 0.761293 0.648407 -0.001377
-21.23999977 2.79999995 -0.92000002 146 73 146 0.000000 0.000000 0.000000 0.000000 0.000000 0.000000 188.000000 0.708245 0.337027 -0.620325
-21.25000000 2.82999992 -0.88000000 146 73 146 0.000000 0.000000 0.000000 0.000000 0.000000 0.000000 188.000000 0.847889 0.302264 -0.435570
-21.25000000 2.83999991 -0.88000000 146 73 146 0.000000 0.000000 0.000000 0.000000 0.000000 0.000000 188.000000 0.759234 0.390230 -0.520851
-21.23999977 2.82999992 -0.88000000 146 73 146 0.000000 0.000000 0.000000 0.000000 0.000000 0.000000 188.000000 0.743518 0.257311 -0.617230
-21.26000023 2.89000010 -0.94999999 146 73 146 0.000000 0.000000 0.000000 0.000000 0.000000 0.000000 188.000000 0.433709 0.689613 -0.579940
-21.27000046 2.88000011 -0.95999998 146 73 146 0.000000 0.000000 0.000000 0.000000 0.000000 0.000000 188.000000 0.700285 0.297822 -0.648770
-21.28000069 2.90000010 -0.95999998 146 73 146 0.000000 0.000000 0.000000 0.000000 0.000000 0.000000 188.000000 0.813291 0.436205 -0.385075
-21.26000023 2.89000010 -0.95999998 146 73 146 0.000000 0.000000 0.000000 0.000000 0.000000 0.000000 188.000000 0.659600 0.629694 -0.410381
-21.27000046 2.88000011 -0.95999998 146 73 146 0.000000 0.000000 0.000000 0.000000 0.000000 0.000000 188.000000 0.700285 0.297822 -0.648770
-21.23999977 2.82999992 -0.94000000 146 73 146 0.000000 0.000000 0.000000 0.000000 0.000000 0.000000 188.000000 0.931793 0.092776 -0.350935
-21.25000000 2.84999990 -0.94000000 146 73 146 0.000000 0.000000 0.000000 0.000000 0.000000 0.000000 188.000000 0.962434 0.268788 -0.038398
-21.32999992 2.95000005 -0.94999999 146 73 146 0.000000 0.000000 0.000000 0.000000 0.000000 0.000000 236.000000 0.684399 0.557225 -0.470211
-21.36000061 2.95000005 -0.94999999 146 73 146 0.000000 0.000000 0.000000 0.000000 0.000000 0.000000 236.000000 0.768784 0.639507 -0.001375
-21.09000015 2.71000004 -0.68000001 146 73 146 0.000000 0.000000 0.000000 0.000000 0.000000 0.000000 107.000000 0.843603 0.352153 -0.405367
-21.09000015 2.73000002 -0.67000002 146 73 146 0.000000 0.000000 0.000000 0.000000 0.000000 0.000000 107.000000 0.823990 -0.034738 -0.565538
-21.05999947 2.72000003 -0.66000003 146 73 146 0.000000 0.000000 0.000000 0.000000 0.000000 0.000000 107.000000 0.932289 0.197081 -0.303308
-21.10000038 2.71000004 -0.70999998 146 73 146 0.000000 0.000000 0.000000 0.000000 0.000000 0.000000 107.000000 0.971447 0.001180 -0.237255
-21.10000038 2.73000002 -0.72000003 146 73 146 0.000000 0.000000 0.000000 0.000000 0.000000 0.000000 107.000000 0.969909 0.030348 -0.241567
-21.10000038 2.72000003 -0.69999999 146 73 146 0.000000 0.000000 0.000000 0.000000 0.000000 0.000000 107.000000 0.924501 -0.059860 -0.376451
-21.12000084 2.71000004 -0.75000000 146 73 146 0.000000 0.000000 0.000000 0.000000 0.000000 0.000000 107.000000 0.881070 -0.079338 -0.466285
-21.10000038 2.71000004 -0.69999999 146 73 146 0.000000 0.000000 0.000000 0.000000 0.000000 0.000000 107.000000 0.765106 0.305084 -0.567041
-21.12999916 2.72000003 -0.75999999 146 73 146 0.000000 0.000000 0.000000 0.000000 0.000000 0.000000 107.000000 0.921848 -0.143213 -0.360119
-21.07999992 2.70000005 -0.67000002 146 73 146 0.000000 0.000000 0.000000 0.000000 0.000000 0.000000 107.000000 0.820660 0.066848 -0.567493
-21.07999992 2.70000005 -0.66000003 146 73 146 0.000000 0.000000 0.000000 0.000000 0.000000 0.000000 107.000000 0.790452 -0.174476 -0.587149
-21.05999947 2.69000006 -0.63999999 146 73 146 0.000000 0.000000 0.000000 0.000000 0.000000 0.000000 107.000000 0.958148 0.157268 -0.239207
-21.09000015 2.70000005 -0.68000001 146 73 146 0.000000 0.000000 0.000000 0.000000 0.000000 0.000000 107.000000 0.937901 0.061480 -0.341412
-21.10000038 2.63000011 -0.73000002 146 73 146 0.000000 0.000000 0.000000 0.000000 0.000000 0.000000 107.000000 0.957959 0.214508 -0.190526
-21.09000015 2.67000008 -0.70999998 146 73 146 0.000000 0.000000 0.000000 0.000000 0.000000 0.000000 107.000000 0.831098 0.314596 -0.458591
-21.10000038 2.65000010 -0.73000002 146 73 146 0.000000 0.000000 0.000000 0.000000 0.000000 0.000000 107.000000 0.842492 0.276708 -0.462211
-21.09000015 2.70000005 -0.69999999 146 73 146 0.000000 0.000000 0.000000 0.000000 0.000000 0.000000 107.000000 0.898855 -0.273951 -0.342068
-21.10000038 2.70000005 -0.70999998 146 73 146 0.000000 0.000000 0.000000 0.000000 0.000000 0.000000 107.000000 0.961599 0.072215 -0.264788
-21.12999916 2.70000005 -0.75000000 146 73 146 0.000000 0.000000 0.000000 0.000000 0.000000 0.000000 107.000000 0.963879 0.212601 -0.160429
-21.13999939 2.65000010 -0.74000001 146 73 146 0.000000 0.000000 0.000000 0.000000 0.000000 0.000000 107.000000 -0.688152 0.372818 0.622458
-21.12000084 2.73000002 -0.76999998 146 73 146 0.000000 0.000000 0.000000 0.000000 0.000000 0.000000 107.000000 0.976934 0.059466 -0.205095
-21.12999916 2.73000002 -0.77999997 146 73 146 0.000000 0.000000 0.000000 0.000000 0.000000 0.000000 107.000000 0.988107 0.085566 -0.127762
-21.13999939 2.73000002 -0.80000001 146 73 146 0.000000 0.000000 0.000000 0.000000 0.000000 0.000000 107.000000 0.904525 -0.185507 -0.383956
-21.14999962 2.74000001 -0.82999998 146 73 146 0.000000 0.000000 0.000000 0.000000 0.000000 0.000000 107.000000 0.949684 -0.224174 -0.218740
-21.14999962 2.72000003 -0.83999997 146 73 146 0.000000 0.000000 0.000000 0.000000 0.000000 0.000000 107.000000 0.937682 0.032156 -0.346003
-21.15999985 2.71000004 -0.88000000 146 73 146 0.000000 0.000000 0.000000 0.000000 0.000000 0.000000 107.000000 0.918936 0.330131 -0.215800
-21.14999962 2.72000003 -0.86000001 146 73 146 0.000000 0.000000 0.000000 0.000000 0.000000 0.000000 107.000000 0.733751 0.374229 -0.567064
-21.20000076 2.75000000 -0.88000000 146 73 146 0.000000 0.000000 0.000000 0.000000 0.000000 0.000000 107.000000 0.666405 0.481759 -0.569046
-21.20999908 2.73000002 -0.89999998 146 73 146 0.000000 0.000000 0.000000 0.000000 0.000000 0.000000 107.000000 0.908584 0.095132 -0.406726
-21.20999908 2.72000003 -0.89999998 146 73 146 0.000000 0.000000 0.000000 0.000000 0.000000 0.000000 107.000000 0.964077 0.103706 -0.244540
-21.20000076 2.72000003 -0.89999998 146 73 146 0.000000 0.000000 0.000000 0.000000 0.000000 0.000000 107.000000 0.847960 0.031610 -0.529116
-21.20999908 2.74000001 -0.91000003 146 73 146 0.000000 0.000000 0.000000 0.000000 0.000000 0.000000 107.000000 0.751422 0.009723 -0.659751
-21.20999908 2.74000001 -0.89999998 146 73 146 0.000000 0.000000 0.000000 0.000000 0.000000 0.000000 107.000000 0.930106 -0.021870 -0.366639
-21.20999908 2.73000002 -0.91000003 146 73 146 0.000000 0.000000 0.000000 0.000000 0.000000 0.000000 107.000000 0.864895 0.059696 -0.498391
-21.18000031 2.69000006 -0.85000002 146 73 146 0.000000 0.000000 0.000000 0.000000 0.000000 0.000000 107.000000 0.777766 0.308232 -0.547790
-21.15999985 2.69000006 -0.83999997 146 73 146 0.000000 0.000000 0.000000 0.000000 0.000000 0.000000 107.000000 0.900850 0.009179 -0.434034
-21.15999985 2.69000006 -0.83999997 146 73 146 0.000000 0.000000 0.000000 0.000000 0.000000 0.000000 107.000000 0.900850 0.009179 -0.434034
-21.15999985 2.63000011 -0.85000002 146 73 146 0.000000 0.000000 0.000000 0.000000 0.000000 0.000000 107.000000 0.861549 -0.172901 -0.477325
-21.15999985 2.66000009 -0.83999997 146 73 146 0.000000 0.000000 0.000000 0.000000 0.000000 0.000000 107.000000 0.959740 -0.124048 -0.252013
-21.15999985 2.70000005 -0.87000000 146 73 146 0.000000 0.000000 0.000000 0.000000 0.000000 0.000000 107.000000 0.871120 0.385978 -0.303595
-21.20000076 2.68000007 -0.91000003 146 73 146 0.000000 0.000000 0.000000 0.000000 0.000000 0.000000 107.000000 0.945258 -0.074522 -0.317701
-21.21999931 2.69000006 -0.92000002 146 73 146 0.000000 0.000000 0.000000 0.000000 0.000000 0.000000 107.000000 0.911049 -0.290078 -0.292993
-21.20000076 2.63000011 -0.88999999 146 73 146 0.000000 0.000000 0.000000 0.000000 0.000000 0.000000 107.000000 0.952768 0.139527 -0.269752
-21.20999908 2.63000011 -0.91000003 146 73 146 0.000000 0.000000 0.000000 0.000000 0.000000 0.000000 107.000000 0.891825 0.285324 -0.351053
-21.21999931 2.66000009 -0.89999998 146 73 146 0.000000 0.000000 0.000000 0.000000 0.000000 0.000000 107.000000 0.805308 -0.017957 -0.592585
-21.20000076 2.61999989 -0.92000002 146 73 146 0.000000 0.000000 0.000000 0.000000 0.000000 0.000000 107.000000 0.973901 0.101006 -0.203260
-21.20999908 2.60999990 -0.87000000 146 73 146 0.000000 0.000000 0.000000 0.000000 0.000000 0.000000 107.000000 0.723417 -0.126785 -0.678670
-21.20000076 2.59999990 -0.89999998 146 73 146 0.000000 0.000000 0.000000 0.000000 0.000000 0.000000 107.000000 0.913880 -0.030331 -0.404850
-21.20000076 2.56999993 -0.89999998 146 73 146 0.000000 0.000000 0.000000 0.000000 0.000000 0.000000 107.000000 0.733422 -0.289214 -0.615180
-21.20000076 2.56999993 -0.92000002 146 73 146 0.000000 0.000000 0.000000 0.000000 0.000000 0.000000 107.000000 0.932790 0.048406 -0.357155
-21.31999969 2.75999999 -0.60000002 146 73 146 0.000000 0.000000 0.000000 0.000000 0.000000 0.000000 236.000000 0.891642 0.282279 -0.353968
-21.32999992 2.77999997 -0.63999999 146 73 146 0.000000 0.000000 0.000000 0.000000 0.000000 0.000000 236.000000 0.837157 0.300878 -0.456773
-21.38999939 2.72000003 -0.63999999 146 73 146 0.000000 0.000000 0.000000 0.000000 0.000000 0.000000 236.000000 0.757472 0.515343 -0.400822
-21.38999939 2.72000003 -0.66000003 146 73 146 0.000000 0.000000 0.000000 0.000000 0.000000 0.000000 236.000000 0.753896 0.573861 -0.319883
-21.27000046 2.61999989 -0.95999998 146 73 146 0.000000 0.000000 0.000000 0.000000 0.000000 0.000000 107.000000 0.961577 -0.272796 -0.030859
-21.25000000 2.59999990 -0.94999999 146 73 146 0.000000 0.000000 0.000000 0.000000 0.000000 0.000000 107.000000 0.804274 -0.219907 -0.552073
-21.26000023 2.57999992 -0.97000003 146 73 146 0.000000 0.000000 0.000000 0.000000 0.000000 0.000000 107.000000 0.909722 -0.415166 0.006507
-21.26000023 2.53999996 -0.95999998 146 73 146 0.000000 0.000000 0.000000 0.000000 0.000000 0.000000 107.000000 0.816206 -0.572349 -0.078895
-21.26000023 2.54999995 -0.94999999 146 73 146 0.000000 0.000000 0.000000 0.000000 0.000000 0.000000 107.000000 0.672983 -0.488374 -0.555504
-21.26000023 2.56999993 -0.99000001 146 73 146 0.000000 0.000000 0.000000 0.000000 0.000000 0.000000 107.000000 0.963331 0.112195 -0.243734
-21.27000046 2.59999990 -1.00000000 146 73 146 0.000000 0.000000 0.000000 0.000000 0.000000 0.000000 107.000000 0.942497 0.003755 -0.334192
-21.27000046 2.59999990 -0.99000001 146 73 146 0.000000 0.000000 0.000000 0.000000 0.000000 0.000000 107.000000 0.892310 0.073095 -0.445466
-21.29000092 2.55999994 -1.00000000 146 73 146 0.000000 0.000000 0.000000 0.000000 0.000000 0.000000 107.000000 0.887415 -0.079159 -0.454123
-21.28000069 2.54999995 -1.02999997 146 73 146 0.000000 0.000000 0.000000 0.000000 0.000000 0.000000 107.000000 0.984354 -0.158306 -0.077368
-21.27000046 2.54999995 -1.02999997 146 73 146 0.000000 0.000000 0.000000 0.000000 0.000000 0.000000 107.000000 0.940027 -0.306975 -0.148713
-21.25000000 2.51999998 -0.97000003 146 73 146 0.000000 0.000000 0.000000 0.000000 0.000000 0.000000 107.000000 0.983205 -0.036242 -0.178871
-21.26000023 2.52999997 -1.00000000 146 73 146 0.000000 0.000000 0.000000 0.000000 0.000000 0.000000 107.000000 0.951873 -0.244382 -0.184974
-21.27000046 2.49000001 -1.00000000 146 73 146 0.000000 0.000000 0.000000 0.000000 0.000000 0.000000 107.000000 0.962413 -0.233115 -0.139348
-21.30999947 2.50000000 -1.05999994 146 73 146 0.000000 0.000000 0.000000 0.000000 0.000000 0.000000 107.000000 0.614738 -0.658053 -0.434815
-21.45000076 2.98000002 -0.92000002 146 73 146 0.000000 0.000000 0.000000 0.000000 0.000000 0.000000 236.000000 0.298630 0.846377 -0.440983
-21.45000076 2.80999994 -0.75999999 146 73 146 0.000000 0.000000 0.000000 0.000000 0.000000 0.000000 236.000000 0.322107 0.858437 -0.399166
-21.51000023 2.83999991 -0.75999999 146 73 146 0.000000 0.000000 0.000000 0.000000 0.000000 0.000000 236.000000 0.463734 0.825289 -0.322256
-21.44000053 2.93000007 -0.93000001 146 73 146 0.000000 0.000000 0.000000 0.000000 0.000000 0.000000 236.000000 0.684433 0.671610 -0.283711
-21.48999977 2.82999992 -0.79000002 146 73 146 0.000000 0.000000 0.000000 0.000000 0.000000 0.000000 236.000000 0.275742 0.958043 -0.078234
-21.51000023 2.82999992 -0.77999997 146 73 146 0.000000 0.000000 0.000000 0.000000 0.000000 0.000000 236.000000 0.480829 0.840299 -0.250400
-21.54000092 2.83999991 -0.82999998 146 73 146 0.000000 0.000000 0.000000 0.000000 0.000000 0.000000 236.000000 0.097591 0.911310 -0.399987
-21.54999924 2.82999992 -0.83999997 146 73 146 0.000000 0.000000 0.000000 0.000000 0.000000 0.000000 236.000000 0.262777 0.950039 -0.168447
-21.54999924 2.82999992 -0.82999998 146 73 146 0.000000 0.000000 0.000000 0.000000 0.000000 0.000000 236.000000 0.252438 0.966653 -0.043099
-21.53000069 2.82999992 -0.85000002 146 73 146 0.000000 0.000000 0.000000 0.000000 0.000000 0.000000 236.000000 0.488236 0.872333 0.025697
-21.54000092 2.82999992 -0.83999997 146 73 146 0.000000 0.000000 0.000000 0.000000 0.000000 0.000000 236.000000 0.372047 0.921193 -0.113948
-21.53000069 2.82999992 -0.82999998 146 73 146 0.000000 0.000000 0.000000 0.000000 0.000000 0.000000 236.000000 0.204610 0.977044 -0.059325
-21.55999947 2.83999991 -0.91000003 146 73 146 0.000000 0.000000 0.000000 0.000000 0.000000 0.000000 236.000000 0.231695 0.823973 -0.517093
-21.55999947 2.84999990 -0.88999999 146 73 146 0.000000 0.000000 0.000000 0.000000 0.000000 0.000000 236.000000 -0.096333 0.972086 -0.213934
-21.57999992 2.83999991 -0.83999997 146 73 146 0.000000 0.000000 0.000000 0.000000 0.000000 0.000000 236.000000 -0.108958 0.980620 0.162825
-21.59000015 2.83999991 -0.89999998 146 73 146 0.000000 0.000000 0.000000 0.000000 0.000000 0.000000 236.000000 0.112795 0.989576 -0.089539
-21.59000015 2.81999993 -0.88999999 146 73 146 0.000000 0.000000 0.000000 0.000000 0.000000 0.000000 236.000000 0.291573 0.880762 -0.373153
-21.59000015 2.81999993 -0.87000000 146 73 146 0.000000 0.000000 0.000000 0.000000 0.000000 0.000000 236.000000 -0.326608 0.943677 0.052929
-21.60000038 2.82999992 -0.91000003 146 73 146 0.000000 0.000000 0.000000 0.000000 0.000000 0.000000 236.000000 0.136076 0.955177 0.262905
-21.62000084 2.81999993 -0.92000002 146 73 146 0.000000 0.000000 0.000000 0.000000 0.000000 0.000000 236.000000 0.222247 0.968996 0.107948
-21.62999916 2.81999993 -0.89999998 146 73 146 0.000000 0.000000 0.000000 0.000000 0.000000 0.000000 236.000000 -0.273042 0.901778 0.335030
-21.68000031 2.96000004 -0.91000003 146 73 146 0.000000 0.000000 0.000000 0.000000 0.000000 0.000000 236.000000 -0.360005 0.834771 0.416599
-21.70999908 2.95000005 -0.93000001 146 73 146 0.000000 0.000000 0.000000 0.000000 0.000000 0.000000 236.000000 -0.602201 0.771618 0.204841
-21.68000031 2.95000005 -0.92000002 146 73 146 0.000000 0.000000 0.000000 0.000000 0.000000 0.000000 236.000000 -0.378326 0.909411 0.172745
-21.45999908 2.98000002 -0.95999998 146 73 146 0.000000 0.000000 0.000000 0.000000 0.000000 0.000000 236.000000 0.502417 0.850131 -0.157650
-21.54999924 3.01999998 -0.98000002 146 73 146 0.000000 0.000000 0.000000 0.000000 0.000000 0.000000 236.000000 0.304859 0.833282 -0.461197
-21.54000092 2.97000003 -0.94999999 146 73 146 0.000000 0.000000 0.000000 0.000000 0.000000 0.000000 236.000000 -0.093913 0.921435 -0.377012
-21.53000069 3.00000000 -0.98000002 146 73 146 0.000000 0.000000 0.000000 0.000000 0.000000 0.000000 236.000000 -0.102396 0.994231 -0.031930
-21.67000008 3.00000000 -0.99000001 146 73 146 0.000000 0.000000 0.000000 0.000000 0.000000 0.000000 236.000000 -0.025331 0.971025 0.237630
-21.56999969 2.79999995 -0.94000000 146 73 146 0.000000 0.000000 0.000000 0.000000 0.000000 0.000000 236.000000 0.487952 0.852050 -0.189510
-21.57999992 2.81999993 -0.97000003 146 73 146 0.000000 0.000000 0.000000 0.000000 0.000000 0.000000 236.000000 0.481475 0.853455 0.199490
-21.62000084 2.83999991 -0.98000002 146 73 146 0.000000 0.000000 0.000000 0.000000 0.000000 0.000000 236.000000 0.016272 0.947552 0.319188
-21.68000031 2.93000007 -1.01999998 146 73 146 0.000000 0.000000 0.000000 0.000000 0.000000 0.000000 236.000000 -0.292682 0.895875 0.334282
-21.65999985 2.92000008 -0.95999998 146 73 146 0.000000 0.000000 0.000000 0.000000 0.000000 0.000000 236.000000 0.090440 0.927347 0.363110
-21.42000008 2.75000000 -0.67000002 146 73 146 0.000000 0.000000 0.000000 0.000000 0.000000 0.000000 236.000000 0.690722 0.668389 -0.275970
-21.43000031 2.73000002 -0.63000000 146 73 146 0.000000 0.000000 0.000000 0.000000 0.000000 0.000000 236.000000 0.518565 0.785072 -0.338753
-21.39999962 2.73000002 -0.63000000 146 73 146 0.000000 0.000000 0.000000 0.000000 0.000000 0.000000 236.000000 0.542415 0.663324 -0.515546
-21.43000031 2.75000000 -0.69000000 146 73 146 0.000000 0.000000 0.000000 0.000000 0.000000 0.000000 236.000000 0.663940 0.587010 -0.463253
-21.48999977 2.77999997 -0.80000001 146 73 146 0.000000 0.000000 0.000000 0.000000 0.000000 0.000000 236.000000 0.607962 0.783364 -0.129322
-21.14999962 2.83999991 0.23000000 146 73 146 0.000000 0.000000 0.000000 0.000000 0.000000 0.000000 236.000000 -0.399966 0.839145 0.368596
-21.15999985 2.82999992 0.13000000 146 73 146 0.000000 0.000000 0.000000 0.000000 0.000000 0.000000 236.000000 -0.294369 0.938387 0.181044
-21.20999908 2.79999995 0.10000000 146 73 146 0.000000 0.000000 0.000000 0.000000 0.000000 0.000000 236.000000 -0.432202 0.774702 0.461560
-21.15999985 2.97000003 -0.01000000 146 73 146 0.000000 0.000000 0.000000 0.000000 0.000000 0.000000 236.000000 0.243473 0.967648 -0.066175
-21.20999908 3.03999996 -0.17000000 146 73 146 0.000000 0.000000 0.000000 0.000000 0.000000 0.000000 236.000000 0.558805 0.819875 -0.124668
-21.15999985 3.01999998 -0.19000000 146 73 146 0.000000 0.000000 0.000000 0.000000 0.000000 0.000000 236.000000 0.367497 0.929702 0.024500
-21.15999985 2.91000009 0.08000000 146 73 146 0.000000 0.000000 0.000000 0.000000 0.000000 0.000000 236.000000 -0.114740 0.993323 0.012020
-21.19000053 2.89000010 0.01000000 146 73 146 0.000000 0.000000 0.000000 0.000000 0.000000 0.000000 236.000000 -0.351796 0.936007 -0.011430
-21.13999939 2.79999995 0.04000000 146 73 146 0.000000 0.000000 0.000000 0.000000 0.000000 0.000000 236.000000 0.368924 0.893418 -0.256321
-21.18000031 2.79999995 -0.04000000 146 73 146 0.000000 0.000000 0.000000 0.000000 0.000000 0.000000 236.000000 0.574832 0.746472 -0.335184
-21.18000031 2.95000005 -0.15000001 146 73 146 0.000000 0.000000 0.000000 0.000000 0.000000 0.000000 236.000000 0.500453 0.864418 0.048253
-21.22999954 2.81999993 -0.13000000 146 73 146 0.000000 0.000000 0.000000 0.000000 0.000000 0.000000 236.000000 0.555584 0.817737 -0.150440
-21.04000092 2.52999997 0.23000000 146 73 146 0.000000 0.000000 0.000000 0.000000 0.000000 0.000000 236.000000 0.045329 0.998291 0.036896
-21.12999916 2.72000003 0.27000001 146 73 146 0.000000 0.000000 0.000000 0.000000 0.000000 0.000000 236.000000 0.819539 -0.515891 -0.249425
-21.10000038 2.72000003 0.28999999 146 73 146 0.000000 0.000000 0.000000 0.000000 0.000000 0.000000 236.000000 0.907762 -0.419467 0.003896
-21.07999992 2.70000005 0.28999999 146 73 146 0.000000 0.000000 0.000000 0.000000 0.000000 0.000000 236.000000 0.144905 0.913043 -0.381255
-21.13999939 2.68000007 0.31999999 146 73 146 0.000000 0.000000 0.000000 0.000000 0.000000 0.000000 236.000000 0.942945 0.179283 -0.280557
-21.12000084 2.75999999 0.20999999 146 73 146 0.000000 0.000000 0.000000 0.000000 0.000000 0.000000 236.000000 0.101283 0.993910 0.043407
-21.05999947 2.65000010 0.12000000 146 73 146 0.000000 0.000000 0.000000 0.000000 0.000000 0.000000 236.000000 0.755045 -0.655660 0.004141
-21.18000031 2.75000000 0.23000000 146 73 146 0.000000 0.000000 0.000000 0.000000 0.000000 0.000000 236.000000 0.789562 -0.606349 -0.094515
-21.18000031 2.75000000 0.23999999 146 73 146 0.000000 0.000000 0.000000 0.000000 0.000000 0.000000 236.000000 0.705716 -0.677798 -0.206286
-21.15999985 2.77999997 0.19000000 146 73 146 0.000000 0.000000 0.000000 0.000000 0.000000 0.000000 236.000000 -0.473464 0.858807 0.195659
-21.14999962 2.78999996 0.18000001 146 73 146 0.000000 0.000000 0.000000 0.000000 0.000000 0.000000 236.000000 -0.523912 0.851185 -0.031627
-21.19000053 2.75000000 0.20000000 146 73 146 0.000000 0.000000 0.000000 0.000000 0.000000 0.000000 236.000000 -0.617548 0.738200 0.271467
-21.20000076 2.66000009 0.25000000 146 73 146 0.000000 0.000000 0.000000 0.000000 0.000000 0.000000 236.000000 0.670400 0.657351 -0.344171
-21.05999947 2.45000005 0.33000001 146 73 146 0.000000 0.000000 0.000000 0.000000 0.000000 0.000000 236.000000 -0.367690 0.927853 -0.062388
