//X Y Z R G B PointSourceId ScanDirectionFlag NumberOfReturns ReturnNumber GpsTime Intensity Classification Nx Ny Nz
15.61999989 10.52999973 0.25999999 151 100 130 0.000000 0.000000 0.000000 0.000000 0.000000 0.000000 120.000000 0.882439 0.466688 0.059196
15.61999989 10.56000042 0.22000000 151 100 130 0.000000 0.000000 0.000000 0.000000 0.000000 0.000000 120.000000 0.914593 0.213931 -0.343152
15.56000042 10.56999969 0.19000000 151 100 130 0.000000 0.000000 0.000000 0.000000 0.000000 0.000000 120.000000 0.881557 0.385963 -0.271826
15.60999966 10.59000015 0.17000000 151 100 130 0.000000 0.000000 0.000000 0.000000 0.000000 0.000000 120.000000 0.798544 0.254721 -0.545385
15.63000011 10.52999973 0.14000000 151 100 130 0.000000 0.000000 0.000000 0.000000 0.000000 0.000000 120.000000 0.693895 0.687658 0.213626
15.60000038 10.53999996 0.14000000 151 100 130 0.000000 0.000000 0.000000 0.000000 0.000000 0.000000 120.000000 0.668504 0.681391 -0.298008
15.59000015 10.60000038 0.15000001 151 100 130 0.000000 0.000000 0.000000 0.000000 0.000000 0.000000 120.000000 0.806583 0.094126 -0.583578
15.57999992 10.60999966 0.13000000 151 100 130 0.000000 0.000000 0.000000 0.000000 0.000000 0.000000 120.000000 0.903482 -0.247469 -0.349971
15.57999992 10.56000042 0.15000001 151 100 130 0.000000 0.000000 0.000000 0.000000 0.000000 0.000000 120.000000 0.962797 -0.040997 -0.267098
15.57999992 10.55000019 0.14000000 151 100 130 0.000000 0.000000 0.000000 0.000000 0.000000 0.000000 120.000000 0.852769 0.515067 -0.086554
15.63000011 10.51000023 0.28000000 151 100 130 0.000000 0.000000 0.000000 0.000000 0.000000 0.000000 120.000000 0.507027 0.749875 -0.424984
15.68000031 10.52000046 0.30000001 151 100 130 0.000000 0.000000 0.000000 0.000000 0.000000 0.000000 120.000000 0.516151 0.825535 -0.228209
15.67000008 10.52000046 0.28999999 151 100 130 0.000000 0.000000 0.000000 0.000000 0.000000 0.000000 120.000000 0.633290 0.676057 -0.376684
15.67000008 10.51000023 0.28000000 151 100 130 0.000000 0.000000 0.000000 0.000000 0.000000 0.000000 120.000000 0.174697 0.977562 -0.117704
15.67000008 10.51000023 0.28999999 151 100 130 0.000000 0.000000 0.000000 0.000000 0.000000 0.000000 120.000000 0.327756 0.903901 -0.274845
15.68999958 10.46000004 0.22000000 151 100 130 0.000000 0.000000 0.000000 0.000000 0.000000 0.000000 120.000000 -0.041481 0.905881 -0.421496
15.67000008 10.47000027 0.23000000 151 100 130 0.000000 0.000000 0.000000 0.000000 0.000000 0.000000 120.000000 0.051091 0.868550 -0.492961
15.65999985 10.47999954 0.23000000 151 100 130 0.000000 0.000000 0.000000 0.000000 0.000000 0.000000 120.000000 0.019878 0.897147 -0.441285
15.64000034 10.47999954 0.22000000 151 100 130 0.000000 0.000000 0.000000 0.000000 0.000000 0.000000 120.000000 0.547401 0.707129 -0.447571
15.64000034 10.47000027 0.20000000 151 100 130 0.000000 0.000000 0.000000 0.000000 0.000000 0.000000 120.000000 0.554251 0.757854 -0.344185
15.65999985 10.47000027 0.22000000 151 100 130 0.000000 0.000000 0.000000 0.000000 0.000000 0.000000 120.000000 0.251533 0.852163 -0.458857
15.64999962 10.47999954 0.22000000 151 100 130 0.000000 0.000000 0.000000 0.000000 0.000000 0.000000 120.000000 0.555611 0.756473 -0.345029
15.68999958 10.44999981 0.15000001 151 100 130 0.000000 0.000000 0.000000 0.000000 0.000000 0.000000 120.000000 0.295826 0.954882 0.026212
15.69999981 10.44999981 0.15000001 151 100 130 0.000000 0.000000 0.000000 0.000000 0.000000 0.000000 120.000000 -0.344055 0.914122 -0.214495
15.68000031 10.44999981 0.16000000 151 100 130 0.000000 0.000000 0.000000 0.000000 0.000000 0.000000 120.000000 0.263482 0.927171 0.266330
15.64999962 10.51000023 0.15000001 151 100 130 0.000000 0.000000 0.000000 0.000000 0.000000 0.000000 120.000000 0.251860 0.967673 -0.013256
15.67000008 10.42000008 0.15000001 151 100 130 0.000000 0.000000 0.000000 0.000000 0.000000 0.000000 120.000000 0.058181 0.991367 -0.117504
15.68000031 10.42000008 0.17000000 151 100 130 0.000000 0.000000 0.000000 0.000000 0.000000 0.000000 120.000000 -0.025697 0.872333 -0.488236
15.63000011 10.50000000 0.23000000 151 100 130 0.000000 0.000000 0.000000 0.000000 0.000000 0.000000 120.000000 0.733644 0.625895 -0.264619
15.63000011 10.52000046 0.25999999 151 100 130 0.000000 0.000000 0.000000 0.000000 0.000000 0.000000 120.000000 0.776291 0.627059 -0.064571
15.63000011 10.52000046 0.25000000 151 100 130 0.000000 0.000000 0.000000 0.000000 0.000000 0.000000 120.000000 0.756096 0.538210 -0.372357
15.60999966 10.52000046 0.22000000 151 100 130 0.000000 0.000000 0.000000 0.000000 0.000000 0.000000 120.000000 0.901764 0.342759 -0.263321
15.56000042 10.48999977 0.18000001 151 100 130 0.000000 0.000000 0.000000 0.000000 0.000000 0.000000 120.000000 0.838122 0.366383 -0.404123
15.59000015 10.48999977 0.18000001 151 100 130 0.000000 0.000000 0.000000 0.000000 0.000000 0.000000 120.000000 0.544789 0.752947 -0.369155
15.59000015 10.50000000 0.19000000 151 100 130 0.000000 0.000000 0.000000 0.000000 0.000000 0.000000 120.000000 0.809857 0.586353 0.017936
15.59000015 10.48999977 0.22000000 151 100 130 0.000000 0.000000 0.000000 0.000000 0.000000 0.000000 120.000000 0.706329 0.691204 0.152761
15.56999969 10.47999954 0.19000000 151 100 130 0.000000 0.000000 0.000000 0.000000 0.000000 0.000000 120.000000 0.812940 0.568025 0.128359
15.55000019 10.47999954 0.18000001 151 100 130 0.000000 0.000000 0.000000 0.000000 0.000000 0.000000 120.000000 0.894671 0.446677 0.006588
15.60000038 10.50000000 0.13000000 151 100 130 0.000000 0.000000 0.000000 0.000000 0.000000 0.000000 120.000000 0.510371 0.844701 0.161248
15.60000038 10.50000000 0.13000000 151 100 130 0.000000 0.000000 0.000000 0.000000 0.000000 0.000000 120.000000 0.510371 0.844701 0.161248
15.55000019 10.51000023 0.16000000 151 100 130 0.000000 0.000000 0.000000 0.000000 0.000000 0.000000 120.000000 0.964151 0.265352 0.001201
15.55000019 10.48999977 0.17000000 151 100 130 0.000000 0.000000 0.000000 0.000000 0.000000 0.000000 120.000000 0.742478 0.668937 -0.035356
15.55000019 10.50000000 0.17000000 151 100 130 0.000000 0.000000 0.000000 0.000000 0.000000 0.000000 120.000000 0.551279 0.833199 0.043265
15.57999992 10.50000000 0.17000000 151 100 130 0.000000 0.000000 0.000000 0.000000 0.000000 0.000000 120.000000 0.585019 0.618737 -0.524325
15.55000019 10.50000000 0.17000000 151 100 130 0.000000 0.000000 0.000000 0.000000 0.000000 0.000000 120.000000 0.551279 0.833199 0.043265
15.56999969 10.44999981 0.15000001 151 100 130 0.000000 0.000000 0.000000 0.000000 0.000000 0.000000 120.000000 0.217841 0.963978 -0.152619
15.55000019 10.47999954 0.15000001 151 100 130 0.000000 0.000000 0.000000 0.000000 0.000000 0.000000 120.000000 0.916094 0.397197 -0.054832
15.56999969 10.44999981 0.15000001 151 100 130 0.000000 0.000000 0.000000 0.000000 0.000000 0.000000 120.000000 0.217841 0.963978 -0.152619
15.56000042 10.47999954 0.16000000 151 100 130 0.000000 0.000000 0.000000 0.000000 0.000000 0.000000 120.000000 0.924985 0.378105 -0.037941
15.57999992 10.40999985 0.16000000 151 100 130 0.000000 0.000000 0.000000 0.000000 0.000000 0.000000 120.000000 0.568884 0.787087 -0.238464
15.57999992 10.40999985 0.16000000 151 100 130 0.000000 0.000000 0.000000 0.000000 0.000000 0.000000 120.000000 0.568884 0.787087 -0.238464
15.56000042 10.36999989 0.13000000 151 100 130 0.000000 0.000000 0.000000 0.000000 0.000000 0.000000 120.000000 0.251789 0.967776 -0.003580
15.51000023 10.61999989 0.31000000 151 100 130 0.000000 0.000000 0.000000 0.000000 0.000000 0.000000 120.000000 0.975906 0.176188 0.128705
15.47999954 10.64000034 0.30000001 151 100 130 0.000000 0.000000 0.000000 0.000000 0.000000 0.000000 120.000000 0.988845 0.147707 -0.019168
15.47999954 10.64999962 0.28000000 151 100 130 0.000000 0.000000 0.000000 0.000000 0.000000 0.000000 120.000000 0.978347 -0.074136 0.193239
15.47999954 10.63000011 0.28000000 151 100 130 0.000000 0.000000 0.000000 0.000000 0.000000 0.000000 120.000000 0.999987 -0.000981 -0.004907
15.52000046 10.59000015 0.31999999 151 100 130 0.000000 0.000000 0.000000 0.000000 0.000000 0.000000 120.000000 0.841368 0.117704 -0.527490
15.53999996 10.57999992 0.28000000 151 100 130 0.000000 0.000000 0.000000 0.000000 0.000000 0.000000 120.000000 0.932086 -0.168081 -0.320882
15.53999996 10.60999966 0.27000001 151 100 130 0.000000 0.000000 0.000000 0.000000 0.000000 0.000000 120.000000 0.944986 -0.290661 -0.150062
15.53999996 10.52999973 0.31000000 151 100 130 0.000000 0.000000 0.000000 0.000000 0.000000 0.000000 120.000000 0.831397 0.427530 -0.354961
15.52000046 10.55000019 0.28000000 151 100 130 0.000000 0.000000 0.000000 0.000000 0.000000 0.000000 120.000000 0.965391 -0.061196 -0.253525
15.52000046 10.52999973 0.27000001 151 100 130 0.000000 0.000000 0.000000 0.000000 0.000000 0.000000 120.000000 0.877668 0.461099 -0.130717
15.53999996 10.52999973 0.28999999 151 100 130 0.000000 0.000000 0.000000 0.000000 0.000000 0.000000 120.000000 0.775716 0.570333 -0.270158
15.52000046 10.55000019 0.27000001 151 100 130 0.000000 0.000000 0.000000 0.000000 0.000000 0.000000 120.000000 0.984805 -0.062659 -0.161967
15.52000046 10.53999996 0.28000000 151 100 130 0.000000 0.000000 0.000000 0.000000 0.000000 0.000000 120.000000 0.938853 0.237843 -0.248970
15.50000000 10.60999966 0.28999999 151 100 130 0.000000 0.000000 0.000000 0.000000 0.000000 0.000000 120.000000 0.863808 -0.006717 -0.503776
15.48999977 10.61999989 0.22000000 151 100 130 0.000000 0.000000 0.000000 0.000000 0.000000 0.000000 120.000000 0.991808 -0.012163 0.127155
15.51000023 10.64999962 0.17000000 151 100 130 0.000000 0.000000 0.000000 0.000000 0.000000 0.000000 120.000000 0.912078 -0.409850 0.011710
15.52999973 10.63000011 0.14000000 151 100 130 0.000000 0.000000 0.000000 0.000000 0.000000 0.000000 120.000000 0.951914 -0.271022 0.142854
15.48999977 10.61999989 0.16000000 151 100 130 0.000000 0.000000 0.000000 0.000000 0.000000 0.000000 120.000000 0.939501 -0.058637 -0.337491
15.48999977 10.61999989 0.15000001 151 100 130 0.000000 0.000000 0.000000 0.000000 0.000000 0.000000 120.000000 0.993814 0.106992 -0.029781
15.48999977 10.63000011 0.15000001 151 100 130 0.000000 0.000000 0.000000 0.000000 0.000000 0.000000 120.000000 0.921601 -0.358323 0.149185
15.48999977 10.61999989 0.13000000 151 100 130 0.000000 0.000000 0.000000 0.000000 0.000000 0.000000 120.000000 0.940675 0.228588 -0.250754
15.47999954 10.63000011 0.12000000 151 100 130 0.000000 0.000000 0.000000 0.000000 0.000000 0.000000 120.000000 0.966207 0.103385 -0.236127
15.47999954 10.63000011 0.11000000 151 100 130 0.000000 0.000000 0.000000 0.000000 0.000000 0.000000 120.000000 0.903097 0.061112 -0.425067
15.47999954 10.63000011 0.11000000 151 100 130 0.000000 0.000000 0.000000 0.000000 0.000000 0.000000 120.000000 0.903097 0.061112 -0.425067
15.50000000 10.63000011 0.11000000 151 100 130 0.000000 0.000000 0.000000 0.000000 0.000000 0.000000 120.000000 0.964975 -0.245376 -0.092811
15.48999977 10.63000011 0.13000000 151 100 130 0.000000 0.000000 0.000000 0.000000 0.000000 0.000000 120.000000 0.848663 -0.492434 -0.193082
15.52999973 10.60000038 0.23000000 151 100 130 0.000000 0.000000 0.000000 0.000000 0.000000 0.000000 120.000000 0.995285 -0.084682 0.047290
15.51000023 10.60999966 0.25000000 151 100 130 0.000000 0.000000 0.000000 0.000000 0.000000 0.000000 120.000000 0.979369 -0.198248 -0.039175
15.51000023 10.53999996 0.23999999 151 100 130 0.000000 0.000000 0.000000 0.000000 0.000000 0.000000 120.000000 0.914214 0.393373 -0.097315
15.51000023 10.55000019 0.23999999 151 100 130 0.000000 0.000000 0.000000 0.000000 0.000000 0.000000 120.000000 0.988935 -0.016876 -0.147384
15.52000046 10.56000042 0.23000000 151 100 130 0.000000 0.000000 0.000000 0.000000 0.000000 0.000000 120.000000 0.843361 0.243365 -0.479078
15.52000046 10.56000042 0.25000000 151 100 130 0.000000 0.000000 0.000000 0.000000 0.000000 0.000000 120.000000 0.841068 0.539996 -0.031764
15.52000046 10.56000042 0.25000000 151 100 130 0.000000 0.000000 0.000000 0.000000 0.000000 0.000000 120.000000 0.841068 0.539996 -0.031764
15.52000046 10.55000019 0.22000000 151 100 130 0.000000 0.000000 0.000000 0.000000 0.000000 0.000000 120.000000 0.997811 0.062297 -0.022174
15.51000023 10.55000019 0.22000000 151 100 130 0.000000 0.000000 0.000000 0.000000 0.000000 0.000000 120.000000 0.949983 0.285659 -0.126221
15.51000023 10.53999996 0.20999999 151 100 130 0.000000 0.000000 0.000000 0.000000 0.000000 0.000000 120.000000 0.930387 0.253484 -0.264813
15.51000023 10.52999973 0.18000001 151 100 130 0.000000 0.000000 0.000000 0.000000 0.000000 0.000000 120.000000 0.791073 0.605280 -0.088542
15.52000046 10.52999973 0.22000000 151 100 130 0.000000 0.000000 0.000000 0.000000 0.000000 0.000000 120.000000 0.913284 0.405757 0.035685
15.52000046 10.52999973 0.18000001 151 100 130 0.000000 0.000000 0.000000 0.000000 0.000000 0.000000 120.000000 0.882138 0.440342 -0.167127
15.51000023 10.52999973 0.20999999 151 100 130 0.000000 0.000000 0.000000 0.000000 0.000000 0.000000 120.000000 0.917051 0.381990 0.114459
15.51000023 10.53999996 0.18000001 151 100 130 0.000000 0.000000 0.000000 0.000000 0.000000 0.000000 120.000000 0.888281 0.423060 0.178819
15.51000023 10.53999996 0.20000000 151 100 130 0.000000 0.000000 0.000000 0.000000 0.000000 0.000000 120.000000 0.810258 0.505035 -0.297357
15.51000023 10.55000019 0.22000000 151 100 130 0.000000 0.000000 0.000000 0.000000 0.000000 0.000000 120.000000 0.949983 0.285659 -0.126221
15.50000000 10.56999969 0.20999999 151 100 130 0.000000 0.000000 0.000000 0.000000 0.000000 0.000000 120.000000 0.992280 0.032442 -0.119700
15.50000000 10.57999992 0.19000000 151 100 130 0.000000 0.000000 0.000000 0.000000 0.000000 0.000000 120.000000 0.963652 -0.182242 -0.195353
15.50000000 10.56999969 0.20999999 151 100 130 0.000000 0.000000 0.000000 0.000000 0.000000 0.000000 120.000000 0.992280 0.032442 -0.119700
15.50000000 10.56999969 0.20000000 151 100 130 0.000000 0.000000 0.000000 0.000000 0.000000 0.000000 120.000000 0.992495 0.089813 -0.082992
15.50000000 10.56999969 0.20000000 151 100 130 0.000000 0.000000 0.000000 0.000000 0.000000 0.000000 120.000000 0.992495 0.089813 -0.082992
15.50000000 10.57999992 0.18000001 151 100 130 0.000000 0.000000 0.000000 0.000000 0.000000 0.000000 120.000000 0.958443 0.043850 -0.281895
15.50000000 10.56999969 0.18000001 151 100 130 0.000000 0.000000 0.000000 0.000000 0.000000 0.000000 120.000000 0.908327 0.308626 -0.282298
15.50000000 10.56000042 0.20999999 151 100 130 0.000000 0.000000 0.000000 0.000000 0.000000 0.000000 120.000000 0.926147 0.190304 -0.325632
15.50000000 10.53999996 0.19000000 151 100 130 0.000000 0.000000 0.000000 0.000000 0.000000 0.000000 120.000000 0.946668 0.322190 -0.003732
15.50000000 10.53999996 0.18000001 151 100 130 0.000000 0.000000 0.000000 0.000000 0.000000 0.000000 120.000000 0.724360 0.679921 -0.114061
15.52000046 10.60999966 0.17000000 151 100 130 0.000000 0.000000 0.000000 0.000000 0.000000 0.000000 120.000000 0.907376 -0.411946 -0.083484
15.51000023 10.52999973 0.15000001 151 100 130 0.000000 0.000000 0.000000 0.000000 0.000000 0.000000 120.000000 0.922245 0.381940 0.059886
15.51000023 10.55000019 0.16000000 151 100 130 0.000000 0.000000 0.000000 0.000000 0.000000 0.000000 120.000000 0.881852 0.383087 -0.274921
15.51000023 10.55000019 0.12000000 151 100 130 0.000000 0.000000 0.000000 0.000000 0.000000 0.000000 120.000000 0.945831 -0.011275 -0.324464
15.52000046 10.52999973 0.12000000 151 100 130 0.000000 0.000000 0.000000 0.000000 0.000000 0.000000 120.000000 0.617715 0.696363 -0.365386
15.51000023 10.55000019 0.13000000 151 100 130 0.000000 0.000000 0.000000 0.000000 0.000000 0.000000 120.000000 0.949929 0.305472 -0.065735
15.48999977 10.60999966 0.15000001 151 100 130 0.000000 0.000000 0.000000 0.000000 0.000000 0.000000 120.000000 0.912229 0.391353 -0.121166
15.47999954 10.56999969 0.17000000 151 100 130 0.000000 0.000000 0.000000 0.000000 0.000000 0.000000 120.000000 0.838365 0.040319 -0.543616
15.48999977 10.60999966 0.15000001 151 100 130 0.000000 0.000000 0.000000 0.000000 0.000000 0.000000 120.000000 0.912229 0.391353 -0.121166
15.48999977 10.57999992 0.12000000 151 100 130 0.000000 0.000000 0.000000 0.000000 0.000000 0.000000 120.000000 0.992533 0.121736 0.007677
15.48999977 10.56999969 0.12000000 151 100 130 0.000000 0.000000 0.000000 0.000000 0.000000 0.000000 120.000000 0.972891 -0.206598 -0.103925
15.48999977 10.55000019 0.14000000 151 100 130 0.000000 0.000000 0.000000 0.000000 0.000000 0.000000 120.000000 0.914696 0.379606 -0.138675
15.48999977 10.55000019 0.15000001 151 100 130 0.000000 0.000000 0.000000 0.000000 0.000000 0.000000 120.000000 0.885233 0.464714 -0.020088
15.48999977 10.55000019 0.14000000 151 100 130 0.000000 0.000000 0.000000 0.000000 0.000000 0.000000 120.000000 0.914696 0.379606 -0.138675
15.50000000 10.52999973 0.17000000 151 100 130 0.000000 0.000000 0.000000 0.000000 0.000000 0.000000 120.000000 0.738825 0.669152 -0.079834
15.48999977 10.56000042 0.14000000 151 100 130 0.000000 0.000000 0.000000 0.000000 0.000000 0.000000 120.000000 0.996175 -0.044637 0.075121
15.50000000 10.53999996 0.15000001 151 100 130 0.000000 0.000000 0.000000 0.000000 0.000000 0.000000 120.000000 0.855991 0.277163 -0.436417
15.50000000 10.55000019 0.15000001 151 100 130 0.000000 0.000000 0.000000 0.000000 0.000000 0.000000 120.000000 0.729809 0.339711 -0.593275
15.50000000 10.55000019 0.11000000 151 100 130 0.000000 0.000000 0.000000 0.000000 0.000000 0.000000 120.000000 0.947901 0.177647 -0.264436
15.48999977 10.53999996 0.10000000 151 100 130 0.000000 0.000000 0.000000 0.000000 0.000000 0.000000 120.000000 0.893418 0.368924 -0.256321
15.47999954 10.53999996 0.10000000 151 100 130 0.000000 0.000000 0.000000 0.000000 0.000000 0.000000 120.000000 0.774549 0.579734 -0.252946
15.46000004 10.57999992 0.11000000 151 100 130 0.000000 0.000000 0.000000 0.000000 0.000000 0.000000 120.000000 0.954617 -0.133726 -0.266128
15.53999996 10.51000023 0.30000001 151 100 130 0.000000 0.000000 0.000000 0.000000 0.000000 0.000000 120.000000 0.720141 0.620256 -0.310933
15.53999996 10.48999977 0.23000000 151 100 130 0.000000 0.000000 0.000000 0.000000 0.000000 0.000000 120.000000 0.874569 0.395602 -0.280408
15.53999996 10.50000000 0.23000000 151 100 130 0.000000 0.000000 0.000000 0.000000 0.000000 0.000000 120.000000 0.637305 0.747873 -0.185817
15.53999996 10.51000023 0.25000000 151 100 130 0.000000 0.000000 0.000000 0.000000 0.000000 0.000000 120.000000 0.796904 0.595119 -0.103817
15.53999996 10.50000000 0.25000000 151 100 130 0.000000 0.000000 0.000000 0.000000 0.000000 0.000000 120.000000 0.924498 0.353444 -0.142764
15.52999973 10.51000023 0.23999999 151 100 130 0.000000 0.000000 0.000000 0.000000 0.000000 0.000000 120.000000 0.625996 0.725259 -0.286581
15.51000023 10.52000046 0.23999999 151 100 130 0.000000 0.000000 0.000000 0.000000 0.000000 0.000000 120.000000 0.805089 0.549554 -0.223208
15.52000046 10.50000000 0.17000000 151 100 130 0.000000 0.000000 0.000000 0.000000 0.000000 0.000000 120.000000 0.778245 0.605973 -0.164716
15.52000046 10.51000023 0.16000000 151 100 130 0.000000 0.000000 0.000000 0.000000 0.000000 0.000000 120.000000 0.768168 0.639907 -0.020912
15.53999996 10.48999977 0.12000000 151 100 130 0.000000 0.000000 0.000000 0.000000 0.000000 0.000000 120.000000 0.800038 0.479382 -0.360739
15.52999973 10.44999981 0.15000001 151 100 130 0.000000 0.000000 0.000000 0.000000 0.000000 0.000000 120.000000 0.670198 0.741044 0.041090
15.52999973 10.43999958 0.13000000 151 100 130 0.000000 0.000000 0.000000 0.000000 0.000000 0.000000 120.000000 0.812716 0.490786 -0.314040
15.52000046 10.46000004 0.12000000 151 100 130 0.000000 0.000000 0.000000 0.000000 0.000000 0.000000 120.000000 0.517926 0.726420 -0.451737
15.52999973 10.43999958 0.13000000 151 100 130 0.000000 0.000000 0.000000 0.000000 0.000000 0.000000 120.000000 0.812716 0.490786 -0.314040
15.47000027 10.51000023 0.14000000 151 100 130 0.000000 0.000000 0.000000 0.000000 0.000000 0.000000 120.000000 0.905192 0.250061 -0.343651
15.48999977 10.48999977 0.13000000 151 100 130 0.000000 0.000000 0.000000 0.000000 0.000000 0.000000 120.000000 0.853652 0.418336 -0.310279
15.53999996 10.43000031 0.13000000 151 100 130 0.000000 0.000000 0.000000 0.000000 0.000000 0.000000 120.000000 0.882610 0.431791 -0.185890
15.53999996 10.43000031 0.13000000 151 100 130 0.000000 0.000000 0.000000 0.000000 0.000000 0.000000 120.000000 0.882610 0.431791 -0.185890
15.48999977 10.39999962 0.11000000 151 100 130 0.000000 0.000000 0.000000 0.000000 0.000000 0.000000 120.000000 0.698068 0.712521 0.070818
15.47999954 10.42000008 0.12000000 151 100 130 0.000000 0.000000 0.000000 0.000000 0.000000 0.000000 120.000000 0.778511 0.556533 -0.290158
15.35000038 10.97999954 0.18000001 151 100 130 0.000000 0.000000 0.000000 0.000000 0.000000 0.000000 120.000000 -0.477716 0.840228 0.256523
15.36999989 10.97000027 0.19000000 151 100 130 0.000000 0.000000 0.000000 0.000000 0.000000 0.000000 120.000000 -0.430258 0.840176 0.330125
15.36999989 11.01000023 0.17000000 151 100 130 0.000000 0.000000 0.000000 0.000000 0.000000 0.000000 120.000000 -0.506519 0.826750 0.244792
15.34000015 11.00000000 0.12000000 151 100 130 0.000000 0.000000 0.000000 0.000000 0.000000 0.000000 120.000000 0.777684 -0.604866 -0.171303
15.34000015 10.97999954 0.16000000 151 100 130 0.000000 0.000000 0.000000 0.000000 0.000000 0.000000 120.000000 -0.678771 0.700616 -0.220015
15.30000019 10.97000027 0.17000000 151 100 130 0.000000 0.000000 0.000000 0.000000 0.000000 0.000000 120.000000 0.791159 -0.609349 -0.052555
15.38000011 11.00000000 0.04000000 151 100 130 0.000000 0.000000 0.000000 0.000000 0.000000 0.000000 120.000000 0.748209 -0.641540 0.169147
15.38000011 11.00000000 0.04000000 151 100 130 0.000000 0.000000 0.000000 0.000000 0.000000 0.000000 120.000000 0.748209 -0.641540 0.169147
15.38000011 10.97000027 0.01000000 151 100 130 0.000000 0.000000 0.000000 0.000000 0.000000 0.000000 120.000000 -0.606254 0.734902 -0.303931
15.38000011 10.97999954 0.02000000 151 100 130 0.000000 0.000000 0.000000 0.000000 0.000000 0.000000 120.000000 0.708740 -0.641241 0.294103
15.38000011 11.02999973 -0.04000000 151 100 130 0.000000 0.000000 0.000000 0.000000 0.000000 0.000000 120.000000 0.487849 -0.798153 0.353491
15.38000011 10.98999977 -0.05000000 151 100 130 0.000000 0.000000 0.000000 0.000000 0.000000 0.000000 120.000000 -0.687701 0.708955 0.156365
15.39000034 10.93000031 -0.20000000 151 100 130 0.000000 0.000000 0.000000 0.000000 0.000000 0.000000 120.000000 0.822647 -0.556711 0.115434
15.43000031 10.69999981 -0.18000001 151 100 130 0.000000 0.000000 0.000000 0.000000 0.000000 0.000000 120.000000 0.984656 -0.161942 -0.065013
15.38000011 10.93000031 -0.36000001 151 100 130 0.000000 0.000000 0.000000 0.000000 0.000000 0.000000 120.000000 0.669743 -0.713253 0.206673
15.39999962 10.93000031 -0.51999998 151 100 130 0.000000 0.000000 0.000000 0.000000 0.000000 0.000000 120.000000 -0.374167 0.913533 -0.159551
15.38000011 10.89999962 -0.55000001 151 100 130 0.000000 0.000000 0.000000 0.000000 0.000000 0.000000 120.000000 0.741946 -0.667031 -0.067712
15.38000011 10.81000042 -0.50000000 151 100 130 0.000000 0.000000 0.000000 0.000000 0.000000 0.000000 120.000000 -0.496827 0.781653 -0.377071
15.39000034 10.81999969 -0.55000001 151 100 130 0.000000 0.000000 0.000000 0.000000 0.000000 0.000000 120.000000 0.761264 -0.641449 -0.094975
15.39000034 10.78999996 -0.58999997 151 100 130 0.000000 0.000000 0.000000 0.000000 0.000000 0.000000 120.000000 -0.649637 0.759554 -0.032411
15.56000042 10.56000042 0.07000000 151 100 130 0.000000 0.000000 0.000000 0.000000 0.000000 0.000000 120.000000 0.813592 0.484996 -0.320698
15.55000019 10.56000042 0.08000000 151 100 130 0.000000 0.000000 0.000000 0.000000 0.000000 0.000000 120.000000 0.729735 0.357521 -0.582808
15.55000019 10.51000023 0.04000000 151 100 130 0.000000 0.000000 0.000000 0.000000 0.000000 0.000000 120.000000 0.751159 0.655266 -0.079911
15.57999992 10.46000004 0.08000000 151 100 130 0.000000 0.000000 0.000000 0.000000 0.000000 0.000000 120.000000 0.427364 0.888049 -0.169497
15.52000046 10.64999962 0.05000000 151 100 130 0.000000 0.000000 0.000000 0.000000 0.000000 0.000000 120.000000 0.986414 -0.136507 -0.091401
15.52999973 10.64000034 0.04000000 151 100 130 0.000000 0.000000 0.000000 0.000000 0.000000 0.000000 120.000000 0.880537 -0.303581 -0.363996
15.50000000 10.65999985 0.06000000 151 100 130 0.000000 0.000000 0.000000 0.000000 0.000000 0.000000 120.000000 0.846867 -0.430426 -0.312331
15.47999954 10.64999962 0.01000000 151 100 130 0.000000 0.000000 0.000000 0.000000 0.000000 0.000000 120.000000 0.966882 0.003594 -0.255199
15.47999954 10.64000034 0.04000000 151 100 130 0.000000 0.000000 0.000000 0.000000 0.000000 0.000000 120.000000 0.954019 -0.286855 0.086965
15.53999996 10.64000034 -0.01000000 151 100 130 0.000000 0.000000 0.000000 0.000000 0.000000 0.000000 120.000000 0.977674 -0.132924 -0.162739
15.47999954 10.68999958 -0.02000000 151 100 130 0.000000 0.000000 0.000000 0.000000 0.000000 0.000000 120.000000 -0.634275 0.771107 -0.055588
15.50000000 10.64999962 0.00000000 151 100 130 0.000000 0.000000 0.000000 0.000000 0.000000 0.000000 120.000000 0.997472 0.009460 -0.070422
15.47999954 10.64000034 -0.04000000 151 100 130 0.000000 0.000000 0.000000 0.000000 0.000000 0.000000 120.000000 0.750273 -0.604343 -0.268068
15.51000023 10.53999996 0.04000000 151 100 130 0.000000 0.000000 0.000000 0.000000 0.000000 0.000000 120.000000 0.696788 0.476222 -0.536376
15.51000023 10.52999973 0.02000000 151 100 130 0.000000 0.000000 0.000000 0.000000 0.000000 0.000000 120.000000 0.999295 0.037537 0.001015
15.47000027 10.59000015 0.06000000 151 100 130 0.000000 0.000000 0.000000 0.000000 0.000000 0.000000 120.000000 0.818814 0.169772 -0.548380
15.47999954 10.56999969 0.07000000 151 100 130 0.000000 0.000000 0.000000 0.000000 0.000000 0.000000 120.000000 0.842910 0.471354 -0.259475
15.47999954 10.55000019 0.05000000 151 100 130 0.000000 0.000000 0.000000 0.000000 0.000000 0.000000 120.000000 0.896633 0.345315 -0.277141
15.47999954 10.55000019 0.09000000 151 100 130 0.000000 0.000000 0.000000 0.000000 0.000000 0.000000 120.000000 0.811487 0.545576 -0.209367
15.48999977 10.55000019 0.06000000 151 100 130 0.000000 0.000000 0.000000 0.000000 0.000000 0.000000 120.000000 0.952066 0.001228 -0.305890
15.48999977 10.52999973 0.06000000 151 100 130 0.000000 0.000000 0.000000 0.000000 0.000000 0.000000 120.000000 0.863932 0.495094 -0.092210
15.48999977 10.53999996 0.09000000 151 100 130 0.000000 0.000000 0.000000 0.000000 0.000000 0.000000 120.000000 0.711939 0.651686 -0.261626
15.48999977 10.55000019 0.09000000 151 100 130 0.000000 0.000000 0.000000 0.000000 0.000000 0.000000 120.000000 0.843198 0.380143 -0.380143
15.47999954 10.55000019 0.08000000 151 100 130 0.000000 0.000000 0.000000 0.000000 0.000000 0.000000 120.000000 0.807781 0.186411 -0.559233
15.48999977 10.56000042 0.08000000 151 100 130 0.000000 0.000000 0.000000 0.000000 0.000000 0.000000 120.000000 0.968150 0.239219 0.073895
15.52999973 10.57999992 -0.01000000 151 100 130 0.000000 0.000000 0.000000 0.000000 0.000000 0.000000 120.000000 0.993423 0.114249 -0.007617
15.52999973 10.59000015 -0.03000000 151 100 130 0.000000 0.000000 0.000000 0.000000 0.000000 0.000000 120.000000 0.992115 0.109983 -0.060094
15.53999996 10.57999992 -0.01000000 151 100 130 0.000000 0.000000 0.000000 0.000000 0.000000 0.000000 120.000000 0.999987 0.004907 -0.000981
15.50000000 10.56000042 -0.05000000 151 100 130 0.000000 0.000000 0.000000 0.000000 0.000000 0.000000 120.000000 0.935568 -0.163966 -0.312775
15.46000004 10.64999962 0.01000000 151 100 130 0.000000 0.000000 0.000000 0.000000 0.000000 0.000000 120.000000 0.931916 -0.336258 0.135876
15.43000031 10.61999989 0.01000000 151 100 130 0.000000 0.000000 0.000000 0.000000 0.000000 0.000000 120.000000 0.988078 0.118946 0.097748
15.43999958 10.63000011 0.04000000 151 100 130 0.000000 0.000000 0.000000 0.000000 0.000000 0.000000 120.000000 0.986299 -0.120164 0.113026
15.46000004 10.65999985 -0.05000000 151 100 130 0.000000 0.000000 0.000000 0.000000 0.000000 0.000000 120.000000 0.769539 -0.638256 0.020949
15.46000004 10.59000015 0.05000000 151 100 130 0.000000 0.000000 0.000000 0.000000 0.000000 0.000000 120.000000 0.975959 -0.194696 -0.097968
15.42000008 10.60999966 0.09000000 151 100 130 0.000000 0.000000 0.000000 0.000000 0.000000 0.000000 120.000000 0.935084 0.348519 -0.064443
15.46000004 10.59000015 0.05000000 151 100 130 0.000000 0.000000 0.000000 0.000000 0.000000 0.000000 120.000000 0.975959 -0.194696 -0.097968
15.44999981 10.56999969 0.00000000 151 100 130 0.000000 0.000000 0.000000 0.000000 0.000000 0.000000 120.000000 0.953004 0.081686 -0.291736
15.44999981 10.57999992 -0.01000000 151 100 130 0.000000 0.000000 0.000000 0.000000 0.000000 0.000000 120.000000 0.973948 0.052415 -0.220631
15.44999981 10.57999992 0.00000000 151 100 130 0.000000 0.000000 0.000000 0.000000 0.000000 0.000000 120.000000 0.963217 0.142071 -0.228096
15.44999981 10.59000015 -0.01000000 151 100 130 0.000000 0.000000 0.000000 0.000000 0.000000 0.000000 120.000000 0.889377 0.030947 -0.456125
15.43999958 10.56999969 -0.07000000 151 100 130 0.000000 0.000000 0.000000 0.000000 0.000000 0.000000 120.000000 0.914531 0.135434 -0.381171
15.43999958 10.56999969 -0.07000000 151 100 130 0.000000 0.000000 0.000000 0.000000 0.000000 0.000000 120.000000 0.914531 0.135434 -0.381171
15.46000004 10.56000042 -0.02000000 151 100 130 0.000000 0.000000 0.000000 0.000000 0.000000 0.000000 120.000000 0.972318 0.093853 0.213985
15.43999958 10.56000042 0.00000000 151 100 130 0.000000 0.000000 0.000000 0.000000 0.000000 0.000000 120.000000 0.993557 -0.045719 -0.103705
15.44999981 10.56000042 -0.01000000 151 100 130 0.000000 0.000000 0.000000 0.000000 0.000000 0.000000 120.000000 0.989656 0.099082 0.103745
15.43000031 10.56000042 -0.06000000 151 100 130 0.000000 0.000000 0.000000 0.000000 0.000000 0.000000 120.000000 0.964357 0.221945 0.144069
15.43999958 10.56000042 -0.07000000 151 100 130 0.000000 0.000000 0.000000 0.000000 0.000000 0.000000 120.000000 0.913206 0.334311 -0.233005
15.51000023 10.63000011 -0.10000000 151 100 130 0.000000 0.000000 0.000000 0.000000 0.000000 0.000000 120.000000 0.962127 -0.264237 -0.067008
15.50000000 10.65999985 -0.16000000 151 100 130 0.000000 0.000000 0.000000 0.000000 0.000000 0.000000 120.000000 -0.643128 0.646451 0.410472
15.47999954 10.64000034 -0.10000000 151 100 130 0.000000 0.000000 0.000000 0.000000 0.000000 0.000000 120.000000 0.990076 -0.049218 -0.131629
15.48999977 10.63000011 -0.16000000 151 100 130 0.000000 0.000000 0.000000 0.000000 0.000000 0.000000 120.000000 0.845989 -0.173956 -0.504025
15.50000000 10.63000011 -0.14000000 151 100 130 0.000000 0.000000 0.000000 0.000000 0.000000 0.000000 120.000000 0.968541 -0.189581 0.161208
15.47000027 10.68000031 -0.19000000 151 100 130 0.000000 0.000000 0.000000 0.000000 0.000000 0.000000 120.000000 -0.627386 0.758664 -0.175546
15.47999954 10.64999962 -0.18000001 151 100 130 0.000000 0.000000 0.000000 0.000000 0.000000 0.000000 120.000000 0.883389 -0.309563 -0.351845
15.47000027 10.63000011 -0.23000000 151 100 130 0.000000 0.000000 0.000000 0.000000 0.000000 0.000000 120.000000 0.956644 -0.001219 -0.291258
15.47000027 10.63000011 -0.22000000 151 100 130 0.000000 0.000000 0.000000 0.000000 0.000000 0.000000 120.000000 0.989261 -0.016882 -0.145182
15.47999954 10.64999962 -0.23000000 151 100 130 0.000000 0.000000 0.000000 0.000000 0.000000 0.000000 120.000000 0.830240 -0.338713 -0.442690
15.47999954 10.63000011 -0.20999999 151 100 130 0.000000 0.000000 0.000000 0.000000 0.000000 0.000000 120.000000 0.923716 -0.057151 -0.378790
15.47999954 10.64000034 -0.22000000 151 100 130 0.000000 0.000000 0.000000 0.000000 0.000000 0.000000 120.000000 0.997696 -0.067764 -0.003128
15.47999954 10.64999962 -0.23000000 151 100 130 0.000000 0.000000 0.000000 0.000000 0.000000 0.000000 120.000000 0.830240 -0.338713 -0.442690
15.50000000 10.56999969 -0.10000000 151 100 130 0.000000 0.000000 0.000000 0.000000 0.000000 0.000000 120.000000 0.946493 -0.200771 -0.252671
15.50000000 10.60000038 -0.10000000 151 100 130 0.000000 0.000000 0.000000 0.000000 0.000000 0.000000 120.000000 0.909034 0.234167 -0.344706
15.48999977 10.59000015 -0.13000000 151 100 130 0.000000 0.000000 0.000000 0.000000 0.000000 0.000000 120.000000 0.930319 -0.127422 -0.343903
15.47000027 10.55000019 -0.11000000 151 100 130 0.000000 0.000000 0.000000 0.000000 0.000000 0.000000 120.000000 0.953794 0.125326 -0.273078
15.50000000 10.56000042 -0.09000000 151 100 130 0.000000 0.000000 0.000000 0.000000 0.000000 0.000000 120.000000 0.960743 0.277114 -0.013428
15.47000027 10.59000015 -0.20000000 151 100 130 0.000000 0.000000 0.000000 0.000000 0.000000 0.000000 120.000000 0.862751 -0.379857 -0.333720
15.43000031 10.65999985 -0.11000000 151 100 130 0.000000 0.000000 0.000000 0.000000 0.000000 0.000000 120.000000 0.890845 -0.443325 -0.099294
15.40999985 10.67000008 -0.16000000 151 100 130 0.000000 0.000000 0.000000 0.000000 0.000000 0.000000 120.000000 0.923844 -0.352538 -0.149097
15.43999958 10.68000031 -0.18000001 151 100 130 0.000000 0.000000 0.000000 0.000000 0.000000 0.000000 120.000000 0.777403 -0.627848 -0.038094
15.42000008 10.65999985 -0.20000000 151 100 130 0.000000 0.000000 0.000000 0.000000 0.000000 0.000000 120.000000 0.786349 -0.492477 -0.372991
15.43999958 10.68000031 -0.23999999 151 100 130 0.000000 0.000000 0.000000 0.000000 0.000000 0.000000 120.000000 -0.639215 0.768462 -0.029502
15.43999958 10.68000031 -0.23999999 151 100 130 0.000000 0.000000 0.000000 0.000000 0.000000 0.000000 120.000000 -0.639215 0.768462 -0.029502
15.43999958 10.68000031 -0.25000000 151 100 130 0.000000 0.000000 0.000000 0.000000 0.000000 0.000000 120.000000 0.635796 -0.766738 -0.088750
15.42000008 10.64999962 -0.19000000 151 100 130 0.000000 0.000000 0.000000 0.000000 0.000000 0.000000 120.000000 0.937822 -0.235501 0.255009
15.39000034 10.67000008 -0.23999999 151 100 130 0.000000 0.000000 0.000000 0.000000 0.000000 0.000000 120.000000 0.961506 -0.158721 -0.224308
15.38000011 10.64999962 -0.23999999 151 100 130 0.000000 0.000000 0.000000 0.000000 0.000000 0.000000 120.000000 0.838930 -0.120678 -0.530692
15.38000011 10.64999962 -0.23999999 151 100 130 0.000000 0.000000 0.000000 0.000000 0.000000 0.000000 120.000000 0.838930 -0.120678 -0.530692
15.46000004 10.56999969 -0.12000000 151 100 130 0.000000 0.000000 0.000000 0.000000 0.000000 0.000000 120.000000 0.887196 -0.307742 -0.343770
15.43000031 10.59000015 -0.13000000 151 100 130 0.000000 0.000000 0.000000 0.000000 0.000000 0.000000 120.000000 0.900774 -0.329840 -0.282509
15.43000031 10.57999992 -0.13000000 151 100 130 0.000000 0.000000 0.000000 0.000000 0.000000 0.000000 120.000000 0.926058 -0.073497 -0.370156
15.42000008 10.56999969 -0.14000000 151 100 130 0.000000 0.000000 0.000000 0.000000 0.000000 0.000000 120.000000 0.837737 0.031743 -0.545150
15.42000008 10.56999969 -0.13000000 151 100 130 0.000000 0.000000 0.000000 0.000000 0.000000 0.000000 120.000000 0.808814 0.160562 -0.565720
15.46000004 10.59000015 -0.15000001 151 100 130 0.000000 0.000000 0.000000 0.000000 0.000000 0.000000 120.000000 0.967613 -0.252369 -0.005980
15.43000031 10.57999992 -0.13000000 151 100 130 0.000000 0.000000 0.000000 0.000000 0.000000 0.000000 120.000000 0.926058 -0.073497 -0.370156
15.43999958 10.56000042 -0.08000000 151 100 130 0.000000 0.000000 0.000000 0.000000 0.000000 0.000000 120.000000 0.971059 0.167600 -0.170159
15.44999981 10.53999996 -0.09000000 151 100 130 0.000000 0.000000 0.000000 0.000000 0.000000 0.000000 120.000000 0.841104 0.537801 -0.057571
15.43999958 10.53999996 -0.11000000 151 100 130 0.000000 0.000000 0.000000 0.000000 0.000000 0.000000 120.000000 0.894464 0.446565 -0.022662
15.43999958 10.55000019 -0.10000000 151 100 130 0.000000 0.000000 0.000000 0.000000 0.000000 0.000000 120.000000 0.997586 0.011588 0.068472
15.42000008 10.55000019 -0.09000000 151 100 130 0.000000 0.000000 0.000000 0.000000 0.000000 0.000000 120.000000 0.904833 0.265437 -0.332896
15.43000031 10.53999996 -0.08000000 151 100 130 0.000000 0.000000 0.000000 0.000000 0.000000 0.000000 120.000000 0.829908 0.504694 -0.237774
15.43999958 10.56000042 -0.08000000 151 100 130 0.000000 0.000000 0.000000 0.000000 0.000000 0.000000 120.000000 0.971059 0.167600 -0.170159
15.40999985 10.60999966 -0.13000000 151 100 130 0.000000 0.000000 0.000000 0.000000 0.000000 0.000000 120.000000 0.846813 -0.501540 -0.177102
15.42000008 10.57999992 -0.19000000 151 100 130 0.000000 0.000000 0.000000 0.000000 0.000000 0.000000 120.000000 0.821581 0.112365 -0.558909
15.42000008 10.56000042 -0.17000000 151 100 130 0.000000 0.000000 0.000000 0.000000 0.000000 0.000000 120.000000 0.831331 0.380172 -0.405412
15.39000034 10.59000015 -0.19000000 151 100 130 0.000000 0.000000 0.000000 0.000000 0.000000 0.000000 120.000000 0.974518 -0.200380 -0.100812
15.39000034 10.60999966 -0.20000000 151 100 130 0.000000 0.000000 0.000000 0.000000 0.000000 0.000000 120.000000 0.803923 -0.177136 -0.567742
15.40999985 10.60000038 -0.19000000 151 100 130 0.000000 0.000000 0.000000 0.000000 0.000000 0.000000 120.000000 0.911310 -0.097591 -0.399987
15.40999985 10.60000038 -0.17000000 151 100 130 0.000000 0.000000 0.000000 0.000000 0.000000 0.000000 120.000000 0.950274 -0.260146 0.171184
15.40999985 10.56000042 -0.19000000 151 100 130 0.000000 0.000000 0.000000 0.000000 0.000000 0.000000 120.000000 0.840334 0.099116 -0.532930
15.48999977 10.43000031 0.07000000 151 100 130 0.000000 0.000000 0.000000 0.000000 0.000000 0.000000 120.000000 0.413781 0.850809 -0.323896
15.46000004 10.65999985 -0.28000000 151 100 130 0.000000 0.000000 0.000000 0.000000 0.000000 0.000000 120.000000 0.928107 -0.371502 0.024594
15.46000004 10.63000011 -0.31000000 151 100 130 0.000000 0.000000 0.000000 0.000000 0.000000 0.000000 120.000000 0.968072 -0.209556 0.137561
15.46000004 10.64000034 -0.30000001 151 100 130 0.000000 0.000000 0.000000 0.000000 0.000000 0.000000 120.000000 0.985164 -0.089344 -0.146524
15.44999981 10.63000011 -0.30000001 151 100 130 0.000000 0.000000 0.000000 0.000000 0.000000 0.000000 120.000000 0.898053 -0.368922 0.239579
15.43999958 10.64000034 -0.31999999 151 100 130 0.000000 0.000000 0.000000 0.000000 0.000000 0.000000 120.000000 0.839882 -0.273774 -0.468664
15.40999985 10.68000031 -0.28000000 151 100 130 0.000000 0.000000 0.000000 0.000000 0.000000 0.000000 120.000000 0.727633 -0.677452 0.107743
15.38000011 10.65999985 -0.28999999 151 100 130 0.000000 0.000000 0.000000 0.000000 0.000000 0.000000 120.000000 0.890265 -0.397150 0.222935
15.38000011 10.67000008 -0.31999999 151 100 130 0.000000 0.000000 0.000000 0.000000 0.000000 0.000000 120.000000 0.856130 -0.189093 -0.480922
15.38000011 10.67000008 -0.31999999 151 100 130 0.000000 0.000000 0.000000 0.000000 0.000000 0.000000 120.000000 0.856130 -0.189093 -0.480922
15.39999962 10.67000008 -0.33000001 151 100 130 0.000000 0.000000 0.000000 0.000000 0.000000 0.000000 120.000000 0.743932 -0.646567 0.168868
15.43000031 10.64999962 -0.41999999 151 100 130 0.000000 0.000000 0.000000 0.000000 0.000000 0.000000 120.000000 0.890486 -0.383753 -0.244476
15.40999985 10.68000031 -0.36000001 151 100 130 0.000000 0.000000 0.000000 0.000000 0.000000 0.000000 120.000000 0.937099 -0.294833 0.186866
15.40999985 10.65999985 -0.40000001 151 100 130 0.000000 0.000000 0.000000 0.000000 0.000000 0.000000 120.000000 0.966927 -0.254709 0.013279
15.40999985 10.65999985 -0.40000001 151 100 130 0.000000 0.000000 0.000000 0.000000 0.000000 0.000000 120.000000 0.966927 -0.254709 0.013279
15.38000011 10.61999989 -0.34000000 151 100 130 0.000000 0.000000 0.000000 0.000000 0.000000 0.000000 120.000000 0.811786 -0.559697 -0.166559
15.46000004 10.60000038 -0.25999999 151 100 130 0.000000 0.000000 0.000000 0.000000 0.000000 0.000000 120.000000 0.817343 -0.087933 -0.569401
15.44999981 10.60999966 -0.28999999 151 100 130 0.000000 0.000000 0.000000 0.000000 0.000000 0.000000 120.000000 0.996115 0.073099 -0.049097
15.46000004 10.56999969 -0.33000001 151 100 130 0.000000 0.000000 0.000000 0.000000 0.000000 0.000000 120.000000 0.976832 0.017675 -0.213277
15.43999958 10.60000038 -0.33000001 151 100 130 0.000000 0.000000 0.000000 0.000000 0.000000 0.000000 120.000000 0.831841 -0.520844 -0.191731
15.43999958 10.57999992 -0.34000000 151 100 130 0.000000 0.000000 0.000000 0.000000 0.000000 0.000000 120.000000 0.806174 -0.112659 -0.580855
15.43999958 10.59000015 -0.36000001 151 100 130 0.000000 0.000000 0.000000 0.000000 0.000000 0.000000 120.000000 0.893198 -0.448608 0.030800
15.43000031 10.60000038 -0.36000001 151 100 130 0.000000 0.000000 0.000000 0.000000 0.000000 0.000000 120.000000 0.856681 -0.502490 -0.116624
15.43000031 10.60000038 -0.40000001 151 100 130 0.000000 0.000000 0.000000 0.000000 0.000000 0.000000 120.000000 0.892036 -0.451947 0.003953
15.43000031 10.60000038 -0.38999999 151 100 130 0.000000 0.000000 0.000000 0.000000 0.000000 0.000000 120.000000 0.848720 -0.466414 -0.249264
15.43000031 10.60000038 -0.40000001 151 100 130 0.000000 0.000000 0.000000 0.000000 0.000000 0.000000 120.000000 0.892036 -0.451947 0.003953
15.43000031 10.60000038 -0.38999999 151 100 130 0.000000 0.000000 0.000000 0.000000 0.000000 0.000000 120.000000 0.848720 -0.466414 -0.249264
15.39999962 10.57999992 -0.34000000 151 100 130 0.000000 0.000000 0.000000 0.000000 0.000000 0.000000 120.000000 0.970155 -0.226578 0.086375
15.47000027 10.68999958 -0.44000000 151 100 130 0.000000 0.000000 0.000000 0.000000 0.000000 0.000000 120.000000 -0.541544 0.840421 -0.020565
15.52000046 10.53999996 -0.50999999 151 100 130 0.000000 0.000000 0.000000 0.000000 0.000000 0.000000 102.000000 0.920784 -0.014246 -0.389812
15.51000023 10.56000042 -0.54000002 151 100 130 0.000000 0.000000 0.000000 0.000000 0.000000 0.000000 102.000000 0.895263 -0.099163 -0.434363
15.51000023 10.56000042 -0.54000002 151 100 130 0.000000 0.000000 0.000000 0.000000 0.000000 0.000000 102.000000 0.895263 -0.099163 -0.434363
15.44999981 10.68999958 -0.43000001 151 100 130 0.000000 0.000000 0.000000 0.000000 0.000000 0.000000 120.000000 -0.541000 0.831293 -0.127553
15.46000004 10.68999958 -0.47999999 151 100 130 0.000000 0.000000 0.000000 0.000000 0.000000 0.000000 120.000000 -0.654317 0.728566 0.202637
15.42000008 10.64999962 -0.50000000 151 100 130 0.000000 0.000000 0.000000 0.000000 0.000000 0.000000 120.000000 0.788844 -0.560782 -0.251493
15.39999962 10.65999985 -0.43000001 151 100 130 0.000000 0.000000 0.000000 0.000000 0.000000 0.000000 120.000000 0.714318 -0.613435 -0.336820
15.39999962 10.68999958 -0.47999999 151 100 130 0.000000 0.000000 0.000000 0.000000 0.000000 0.000000 120.000000 0.547250 -0.821621 0.159552
15.39000034 10.67000008 -0.47000000 151 100 130 0.000000 0.000000 0.000000 0.000000 0.000000 0.000000 120.000000 -0.680660 0.719726 -0.136733
15.39000034 10.64000034 -0.52999997 151 100 130 0.000000 0.000000 0.000000 0.000000 0.000000 0.000000 120.000000 0.691657 -0.646302 -0.322341
15.38000011 10.61999989 -0.50999999 151 100 130 0.000000 0.000000 0.000000 0.000000 0.000000 0.000000 120.000000 -0.726084 0.657965 0.199712
15.43000031 10.60000038 -0.44999999 151 100 130 0.000000 0.000000 0.000000 0.000000 0.000000 0.000000 120.000000 0.940272 -0.315228 -0.128526
15.43999958 10.56999969 -0.47000000 151 100 130 0.000000 0.000000 0.000000 0.000000 0.000000 0.000000 120.000000 0.995634 0.007486 0.093040
15.38000011 10.56999969 -0.43000001 151 100 130 0.000000 0.000000 0.000000 0.000000 0.000000 0.000000 120.000000 0.877034 0.149313 -0.456637
15.39000034 10.56999969 -0.44999999 151 100 130 0.000000 0.000000 0.000000 0.000000 0.000000 0.000000 120.000000 0.818228 -0.249026 -0.518159
15.38000011 10.56999969 -0.43000001 151 100 130 0.000000 0.000000 0.000000 0.000000 0.000000 0.000000 120.000000 0.877034 0.149313 -0.456637
15.38000011 10.56999969 -0.47000000 151 100 130 0.000000 0.000000 0.000000 0.000000 0.000000 0.000000 120.000000 0.951873 -0.184974 -0.244382
15.40999985 10.60999966 -0.47000000 151 100 130 0.000000 0.000000 0.000000 0.000000 0.000000 0.000000 120.000000 0.925063 -0.338301 0.172660
15.38000011 10.56000042 -0.44999999 151 100 130 0.000000 0.000000 0.000000 0.000000 0.000000 0.000000 120.000000 0.995603 0.069461 0.062845
15.43000031 10.57999992 -0.52999997 151 100 130 0.000000 0.000000 0.000000 0.000000 0.000000 0.000000 120.000000 0.959073 -0.282945 0.011024
15.39999962 10.60000038 -0.58999997 151 100 130 0.000000 0.000000 0.000000 0.000000 0.000000 0.000000 120.000000 0.911673 -0.327156 0.248638
15.39999962 10.60000038 -0.56000000 151 100 130 0.000000 0.000000 0.000000 0.000000 0.000000 0.000000 120.000000 0.710107 -0.682619 -0.172564
15.39999962 10.60999966 -0.57999998 151 100 130 0.000000 0.000000 0.000000 0.000000 0.000000 0.000000 120.000000 0.883046 -0.465556 -0.059053
15.36999989 11.01000023 0.09000000 151 100 130 0.000000 0.000000 0.000000 0.000000 0.000000 0.000000 120.000000 -0.502039 0.838754 0.210826
15.35000038 11.00000000 0.06000000 151 100 130 0.000000 0.000000 0.000000 0.000000 0.000000 0.000000 120.000000 -0.347639 0.868331 0.353764
15.34000015 11.02999973 0.07000000 151 100 130 0.000000 0.000000 0.000000 0.000000 0.000000 0.000000 120.000000 -0.269574 0.957185 0.105486
15.32999992 11.02000046 0.04000000 151 100 130 0.000000 0.000000 0.000000 0.000000 0.000000 0.000000 120.000000 -0.768976 0.543281 0.336931
15.31999969 11.01000023 0.01000000 151 100 130 0.000000 0.000000 0.000000 0.000000 0.000000 0.000000 120.000000 -0.359901 0.909147 -0.209581
15.31999969 10.98999977 0.05000000 151 100 130 0.000000 0.000000 0.000000 0.000000 0.000000 0.000000 120.000000 0.805227 -0.537337 0.250757
15.32999992 10.96000004 0.03000000 151 100 130 0.000000 0.000000 0.000000 0.000000 0.000000 0.000000 120.000000 0.913052 -0.392100 -0.112226
15.34000015 11.02000046 -0.07000000 151 100 130 0.000000 0.000000 0.000000 0.000000 0.000000 0.000000 120.000000 -0.197575 0.978180 0.064242
15.35999966 10.96000004 -0.01000000 151 100 130 0.000000 0.000000 0.000000 0.000000 0.000000 0.000000 120.000000 -0.664317 0.746472 -0.038244
15.36999989 10.97999954 -0.04000000 151 100 130 0.000000 0.000000 0.000000 0.000000 0.000000 0.000000 120.000000 -0.191281 0.978335 0.079193
15.31999969 11.00000000 -0.01000000 151 100 130 0.000000 0.000000 0.000000 0.000000 0.000000 0.000000 120.000000 0.864690 -0.496318 0.077330
15.32999992 11.01000023 -0.05000000 151 100 130 0.000000 0.000000 0.000000 0.000000 0.000000 0.000000 120.000000 0.791945 -0.517871 -0.323470
15.32999992 11.01000023 -0.07000000 151 100 130 0.000000 0.000000 0.000000 0.000000 0.000000 0.000000 120.000000 0.770411 -0.624938 0.126175
15.31000042 11.00000000 -0.07000000 151 100 130 0.000000 0.000000 0.000000 0.000000 0.000000 0.000000 120.000000 -0.397797 0.898297 -0.186603
15.32999992 11.01000023 -0.07000000 151 100 130 0.000000 0.000000 0.000000 0.000000 0.000000 0.000000 120.000000 0.770411 -0.624938 0.126175
15.31000042 10.93000031 0.05000000 151 100 130 0.000000 0.000000 0.000000 0.000000 0.000000 0.000000 120.000000 0.894864 -0.439849 -0.075836
15.30000019 10.92000008 0.03000000 151 100 130 0.000000 0.000000 0.000000 0.000000 0.000000 0.000000 120.000000 0.682097 -0.672467 -0.287283
15.35000038 10.94999981 0.00000000 151 100 130 0.000000 0.000000 0.000000 0.000000 0.000000 0.000000 120.000000 0.828560 -0.542035 0.140309
15.35999966 10.94999981 -0.02000000 151 100 130 0.000000 0.000000 0.000000 0.000000 0.000000 0.000000 120.000000 -0.420763 0.867350 -0.265825
15.22999954 10.89999962 -0.06000000 151 100 130 0.000000 0.000000 0.000000 0.000000 0.000000 0.000000 120.000000 0.671455 -0.604809 -0.428198
15.36999989 11.02000046 -0.12000000 151 100 130 0.000000 0.000000 0.000000 0.000000 0.000000 0.000000 120.000000 -0.497000 0.828333 0.258564
15.36999989 11.02000046 -0.12000000 151 100 130 0.000000 0.000000 0.000000 0.000000 0.000000 0.000000 120.000000 -0.497000 0.828333 0.258564
