//X Y Z R G B PointSourceId ScanDirectionFlag NumberOfReturns ReturnNumber GpsTime Intensity Classification Nx Ny Nz
9.23999977 11.47000027 -0.11000000 181 238 46 0.000000 0.000000 0.000000 0.000000 0.000000 0.000000 110.000000 0.464853 0.531499 -0.708110
9.23999977 11.47000027 -0.11000000 181 238 46 0.000000 0.000000 0.000000 0.000000 0.000000 0.000000 110.000000 0.464853 0.531499 -0.708110
9.23999977 11.51000023 -0.11000000 181 238 46 0.000000 0.000000 0.000000 0.000000 0.000000 0.000000 110.000000 0.927817 0.101586 -0.358937
9.23999977 11.48999977 -0.10000000 181 238 46 0.000000 0.000000 0.000000 0.000000 0.000000 0.000000 110.000000 0.957517 0.195765 -0.211746
9.26000023 11.48999977 -0.09000000 181 238 46 0.000000 0.000000 0.000000 0.000000 0.000000 0.000000 110.000000 0.562642 0.656696 -0.502179
9.21000004 11.48999977 -0.11000000 181 238 46 0.000000 0.000000 0.000000 0.000000 0.000000 0.000000 110.000000 0.850481 0.241908 -0.467080
9.26000023 11.55000019 -0.19000000 181 238 46 0.000000 0.000000 0.000000 0.000000 0.000000 0.000000 110.000000 0.820853 0.477387 -0.313531
9.27000046 11.52999973 -0.18000001 181 238 46 0.000000 0.000000 0.000000 0.000000 0.000000 0.000000 110.000000 0.816721 0.467830 -0.337789
9.26000023 11.55000019 -0.20999999 181 238 46 0.000000 0.000000 0.000000 0.000000 0.000000 0.000000 110.000000 0.747423 0.369641 -0.552018
9.26000023 11.51000023 -0.18000001 181 238 46 0.000000 0.000000 0.000000 0.000000 0.000000 0.000000 110.000000 0.808634 0.294765 -0.509140
9.27000046 11.50000000 -0.19000000 181 238 46 0.000000 0.000000 0.000000 0.000000 0.000000 0.000000 110.000000 0.752462 0.355916 -0.554189
9.26000023 11.50000000 -0.18000001 181 238 46 0.000000 0.000000 0.000000 0.000000 0.000000 0.000000 110.000000 0.892683 0.265874 -0.363906
9.18999958 11.52999973 -0.19000000 181 238 46 0.000000 0.000000 0.000000 0.000000 0.000000 0.000000 110.000000 0.972553 0.114492 -0.202563
9.26000023 11.43000031 -0.12000000 181 238 46 0.000000 0.000000 0.000000 0.000000 0.000000 0.000000 110.000000 0.846564 0.268872 -0.459388
9.27000046 11.44999981 -0.14000000 181 238 46 0.000000 0.000000 0.000000 0.000000 0.000000 0.000000 110.000000 0.671878 0.490924 -0.554593
9.26000023 11.46000004 -0.16000000 181 238 46 0.000000 0.000000 0.000000 0.000000 0.000000 0.000000 110.000000 0.491148 0.750684 -0.441869
9.27000046 11.39000034 -0.15000001 181 238 46 0.000000 0.000000 0.000000 0.000000 0.000000 0.000000 110.000000 -0.441098 -0.483732 0.755934
9.22999954 11.43999958 -0.10000000 181 238 46 0.000000 0.000000 0.000000 0.000000 0.000000 0.000000 110.000000 0.700961 0.666150 -0.254751
9.18999958 11.44999981 -0.15000001 181 238 46 0.000000 0.000000 0.000000 0.000000 0.000000 0.000000 110.000000 0.794313 0.264771 -0.546776
9.19999981 11.44999981 -0.14000000 181 238 46 0.000000 0.000000 0.000000 0.000000 0.000000 0.000000 110.000000 0.610527 0.741240 -0.278961
9.22000027 11.43999958 -0.13000000 181 238 46 0.000000 0.000000 0.000000 0.000000 0.000000 0.000000 110.000000 0.690759 0.283676 -0.665116
9.52000046 11.35999966 -0.07000000 181 238 46 0.000000 0.000000 0.000000 0.000000 0.000000 0.000000 110.000000 0.165245 -0.629144 0.759521
9.52999973 11.35999966 0.00000000 181 238 46 0.000000 0.000000 0.000000 0.000000 0.000000 0.000000 110.000000 -0.098152 -0.648975 0.754452
9.52000046 11.34000015 -0.04000000 181 238 46 0.000000 0.000000 0.000000 0.000000 0.000000 0.000000 110.000000 -0.333784 -0.430942 0.838378
9.43999958 11.27000046 0.06000000 181 238 46 0.000000 0.000000 0.000000 0.000000 0.000000 0.000000 26.000000 -0.395910 -0.318885 0.861143
9.42000008 11.26000023 0.09000000 181 238 46 0.000000 0.000000 0.000000 0.000000 0.000000 0.000000 26.000000 0.586288 0.478774 -0.653484
9.42000008 11.26000023 0.09000000 181 238 46 0.000000 0.000000 0.000000 0.000000 0.000000 0.000000 26.000000 0.586288 0.478774 -0.653484
9.40999985 11.22000027 0.06000000 181 238 46 0.000000 0.000000 0.000000 0.000000 0.000000 0.000000 26.000000 0.361888 0.829655 -0.425099
9.43000031 11.25000000 0.06000000 181 238 46 0.000000 0.000000 0.000000 0.000000 0.000000 0.000000 26.000000 -0.220847 -0.416497 0.881905
9.39999962 11.28999996 0.05000000 181 238 46 0.000000 0.000000 0.000000 0.000000 0.000000 0.000000 26.000000 0.622329 0.534629 -0.571733
9.39000034 11.23999977 0.08000000 181 238 46 0.000000 0.000000 0.000000 0.000000 0.000000 0.000000 26.000000 -0.464636 -0.403116 0.788423
9.52999973 11.31000042 -0.09000000 181 238 46 0.000000 0.000000 0.000000 0.000000 0.000000 0.000000 110.000000 -0.224194 -0.318441 0.921050
9.50000000 11.31999969 -0.15000001 181 238 46 0.000000 0.000000 0.000000 0.000000 0.000000 0.000000 110.000000 -0.232453 -0.591274 0.772244
9.48999977 11.35999966 -0.19000000 181 238 46 0.000000 0.000000 0.000000 0.000000 0.000000 0.000000 110.000000 0.477695 0.520970 -0.707388
9.50000000 11.38000011 -0.19000000 181 238 46 0.000000 0.000000 0.000000 0.000000 0.000000 0.000000 110.000000 -0.175474 -0.624077 0.761404
9.51000023 11.31000042 -0.18000001 181 238 46 0.000000 0.000000 0.000000 0.000000 0.000000 0.000000 110.000000 0.067559 0.763275 -0.642531
9.46000004 11.35999966 -0.20999999 181 238 46 0.000000 0.000000 0.000000 0.000000 0.000000 0.000000 110.000000 0.411336 0.824259 -0.389101
9.46000004 11.34000015 -0.17000000 181 238 46 0.000000 0.000000 0.000000 0.000000 0.000000 0.000000 110.000000 -0.451699 -0.368702 0.812420
9.44999981 11.31000042 -0.22000000 181 238 46 0.000000 0.000000 0.000000 0.000000 0.000000 0.000000 110.000000 0.020926 -0.645926 0.763113
9.44999981 11.31999969 -0.20999999 181 238 46 0.000000 0.000000 0.000000 0.000000 0.000000 0.000000 110.000000 -0.480515 -0.564228 0.671381
9.51000023 11.28999996 -0.11000000 181 238 46 0.000000 0.000000 0.000000 0.000000 0.000000 0.000000 110.000000 0.116483 -0.614852 0.779993
9.52000046 11.28999996 -0.11000000 181 238 46 0.000000 0.000000 0.000000 0.000000 0.000000 0.000000 110.000000 -0.079662 0.760410 -0.644538
9.50000000 11.28999996 -0.16000000 181 238 46 0.000000 0.000000 0.000000 0.000000 0.000000 0.000000 110.000000 -0.274255 -0.581802 0.765696
9.52999973 11.26000023 -0.15000001 181 238 46 0.000000 0.000000 0.000000 0.000000 0.000000 0.000000 110.000000 0.247679 -0.661003 0.708330
9.52999973 11.22999954 -0.14000000 181 238 46 0.000000 0.000000 0.000000 0.000000 0.000000 0.000000 110.000000 0.274413 -0.585308 0.762963
9.46000004 11.27999973 -0.15000001 181 238 46 0.000000 0.000000 0.000000 0.000000 0.000000 0.000000 110.000000 0.490532 0.713350 -0.500509
9.51000023 11.27000046 -0.19000000 181 238 46 0.000000 0.000000 0.000000 0.000000 0.000000 0.000000 110.000000 0.017330 0.889170 -0.457249
9.47000027 11.26000023 -0.18000001 181 238 46 0.000000 0.000000 0.000000 0.000000 0.000000 0.000000 110.000000 -0.290575 -0.501046 0.815181
9.44999981 11.27000046 -0.19000000 181 238 46 0.000000 0.000000 0.000000 0.000000 0.000000 0.000000 110.000000 0.467204 0.651407 -0.597821
9.42000008 11.38000011 -0.15000001 181 238 46 0.000000 0.000000 0.000000 0.000000 0.000000 0.000000 110.000000 0.312125 0.700260 -0.642039
9.42000008 11.32999992 -0.15000001 181 238 46 0.000000 0.000000 0.000000 0.000000 0.000000 0.000000 110.000000 0.351193 0.635415 -0.687685
9.40999985 11.35000038 -0.20000000 181 238 46 0.000000 0.000000 0.000000 0.000000 0.000000 0.000000 110.000000 0.332504 0.595263 -0.731508
9.43000031 11.32999992 -0.17000000 181 238 46 0.000000 0.000000 0.000000 0.000000 0.000000 0.000000 110.000000 0.727145 0.475377 -0.495254
9.43000031 11.32999992 -0.17000000 181 238 46 0.000000 0.000000 0.000000 0.000000 0.000000 0.000000 110.000000 0.727145 0.475377 -0.495254
9.43999958 11.34000015 -0.23000000 181 238 46 0.000000 0.000000 0.000000 0.000000 0.000000 0.000000 110.000000 -0.040702 -0.585262 0.809822
9.40999985 11.34000015 -0.20999999 181 238 46 0.000000 0.000000 0.000000 0.000000 0.000000 0.000000 110.000000 0.335714 0.803485 -0.491638
9.38000011 11.14999962 0.09000000 181 238 46 0.000000 0.000000 0.000000 0.000000 0.000000 0.000000 26.000000 -0.399635 -0.383839 0.832442
9.52000046 11.18999958 -0.20000000 181 238 46 0.000000 0.000000 0.000000 0.000000 0.000000 0.000000 110.000000 0.488782 0.639951 -0.592921
9.48999977 11.18999958 -0.11000000 181 238 46 0.000000 0.000000 0.000000 0.000000 0.000000 0.000000 110.000000 -0.097458 0.795668 -0.597842
9.52999973 10.96000004 -0.15000001 181 238 46 0.000000 0.000000 0.000000 0.000000 0.000000 0.000000 172.000000 -0.285379 -0.378995 0.880296
9.52999973 10.92000008 -0.10000000 181 238 46 0.000000 0.000000 0.000000 0.000000 0.000000 0.000000 172.000000 0.481894 0.616220 -0.622937
9.52000046 10.97000027 -0.15000001 181 238 46 0.000000 0.000000 0.000000 0.000000 0.000000 0.000000 172.000000 0.073182 -0.454280 0.887848
9.52000046 10.97000027 -0.15000001 181 238 46 0.000000 0.000000 0.000000 0.000000 0.000000 0.000000 172.000000 0.073182 -0.454280 0.887848
9.59000015 11.43000031 0.10000000 181 238 46 0.000000 0.000000 0.000000 0.000000 0.000000 0.000000 110.000000 0.117269 -0.690252 0.714003
9.65999985 11.42000008 0.10000000 181 238 46 0.000000 0.000000 0.000000 0.000000 0.000000 0.000000 110.000000 -0.164150 -0.585820 0.793643
10.01000023 11.52999973 0.06000000 181 238 46 0.000000 0.000000 0.000000 0.000000 0.000000 0.000000 145.000000 0.600799 -0.563566 0.566951
10.00000000 11.48999977 0.07000000 181 238 46 0.000000 0.000000 0.000000 0.000000 0.000000 0.000000 145.000000 0.685165 -0.354847 0.636108
9.92000008 11.47000027 0.02000000 181 238 46 0.000000 0.000000 0.000000 0.000000 0.000000 0.000000 145.000000 -0.494375 0.551353 -0.672014
9.89000034 11.43000031 -0.05000000 181 238 46 0.000000 0.000000 0.000000 0.000000 0.000000 0.000000 145.000000 0.575898 -0.695393 0.429849
9.92000008 11.40999985 -0.04000000 181 238 46 0.000000 0.000000 0.000000 0.000000 0.000000 0.000000 145.000000 0.854830 -0.248373 0.455605
9.90999985 11.42000008 -0.02000000 181 238 46 0.000000 0.000000 0.000000 0.000000 0.000000 0.000000 145.000000 0.778634 -0.338746 0.528187
9.88000011 11.46000004 -0.03000000 181 238 46 0.000000 0.000000 0.000000 0.000000 0.000000 0.000000 145.000000 0.585638 -0.514754 0.626144
9.88000011 11.35000038 -0.10000000 181 238 46 0.000000 0.000000 0.000000 0.000000 0.000000 0.000000 145.000000 0.703651 -0.265259 0.659176
9.88000011 11.34000015 -0.09000000 181 238 46 0.000000 0.000000 0.000000 0.000000 0.000000 0.000000 145.000000 0.832862 -0.417218 0.363688
9.81999969 11.60999966 0.04000000 181 238 46 0.000000 0.000000 0.000000 0.000000 0.000000 0.000000 64.000000 0.774620 -0.428895 0.464772
9.72000027 11.60000038 -0.04000000 181 238 46 0.000000 0.000000 0.000000 0.000000 0.000000 0.000000 64.000000 -0.490661 0.771039 -0.405896
9.75000000 11.60000038 -0.06000000 181 238 46 0.000000 0.000000 0.000000 0.000000 0.000000 0.000000 64.000000 0.670232 -0.223411 0.707727
9.86999989 11.48999977 -0.04000000 181 238 46 0.000000 0.000000 0.000000 0.000000 0.000000 0.000000 145.000000 0.624906 -0.587850 0.513737
9.85000038 11.43999958 -0.02000000 181 238 46 0.000000 0.000000 0.000000 0.000000 0.000000 0.000000 145.000000 0.858657 -0.379047 0.345010
9.84000015 11.39000034 -0.07000000 181 238 46 0.000000 0.000000 0.000000 0.000000 0.000000 0.000000 145.000000 0.644606 -0.159256 0.747743
9.85999966 11.42000008 -0.06000000 181 238 46 0.000000 0.000000 0.000000 0.000000 0.000000 0.000000 145.000000 0.719178 -0.375152 0.584844
9.71000004 11.40999985 0.07000000 181 238 46 0.000000 0.000000 0.000000 0.000000 0.000000 0.000000 110.000000 -0.119142 -0.589826 0.798693
9.75000000 11.42000008 0.09000000 181 238 46 0.000000 0.000000 0.000000 0.000000 0.000000 0.000000 110.000000 0.362765 -0.471434 0.803835
9.75000000 11.40999985 0.06000000 181 238 46 0.000000 0.000000 0.000000 0.000000 0.000000 0.000000 110.000000 -0.292218 0.794516 -0.532310
9.81000042 11.39999962 -0.11000000 181 238 46 0.000000 0.000000 0.000000 0.000000 0.000000 0.000000 145.000000 -0.523979 0.796258 -0.302356
9.72000027 11.52999973 -0.16000000 181 238 46 0.000000 0.000000 0.000000 0.000000 0.000000 0.000000 64.000000 0.286581 -0.625996 0.725259
9.64999962 11.57999992 -0.07000000 181 238 46 0.000000 0.000000 0.000000 0.000000 0.000000 0.000000 64.000000 -0.067992 0.878344 -0.473168
9.68999958 11.56999969 -0.14000000 181 238 46 0.000000 0.000000 0.000000 0.000000 0.000000 0.000000 64.000000 -0.495212 0.808477 -0.318011
9.69999981 11.40999985 0.07000000 181 238 46 0.000000 0.000000 0.000000 0.000000 0.000000 0.000000 110.000000 0.085186 -0.465032 0.881186
9.68000031 11.39000034 0.09000000 181 238 46 0.000000 0.000000 0.000000 0.000000 0.000000 0.000000 110.000000 0.219907 -0.552073 0.804274
9.61999989 11.42000008 0.06000000 181 238 46 0.000000 0.000000 0.000000 0.000000 0.000000 0.000000 110.000000 0.270881 0.752447 -0.600373
9.64000034 11.39999962 0.03000000 181 238 46 0.000000 0.000000 0.000000 0.000000 0.000000 0.000000 110.000000 0.211128 0.790573 -0.574822
9.56999969 11.48999977 0.09000000 181 238 46 0.000000 0.000000 0.000000 0.000000 0.000000 0.000000 110.000000 0.408143 0.583297 -0.702270
9.57999992 11.43000031 0.09000000 181 238 46 0.000000 0.000000 0.000000 0.000000 0.000000 0.000000 110.000000 0.221631 -0.354900 0.908254
9.59000015 11.39000034 0.02000000 181 238 46 0.000000 0.000000 0.000000 0.000000 0.000000 0.000000 110.000000 0.436887 -0.553169 0.709319
9.53999996 11.46000004 0.07000000 181 238 46 0.000000 0.000000 0.000000 0.000000 0.000000 0.000000 110.000000 0.223478 -0.448456 0.865416
9.60000038 11.42000008 -0.04000000 181 238 46 0.000000 0.000000 0.000000 0.000000 0.000000 0.000000 110.000000 0.370917 -0.573533 0.730397
9.77999973 11.35000038 -0.06000000 181 238 46 0.000000 0.000000 0.000000 0.000000 0.000000 0.000000 145.000000 -0.451354 0.759916 -0.467767
9.84000015 11.35999966 -0.09000000 181 238 46 0.000000 0.000000 0.000000 0.000000 0.000000 0.000000 145.000000 -0.507895 0.774013 -0.378082
9.85999966 11.34000015 -0.13000000 181 238 46 0.000000 0.000000 0.000000 0.000000 0.000000 0.000000 145.000000 0.802219 -0.500394 0.325653
9.82999992 11.35000038 -0.08000000 181 238 46 0.000000 0.000000 0.000000 0.000000 0.000000 0.000000 145.000000 0.182790 -0.729624 0.658966
9.77000046 11.28999996 -0.16000000 181 238 46 0.000000 0.000000 0.000000 0.000000 0.000000 0.000000 145.000000 -0.437752 0.728486 -0.526955
9.69999981 11.31000042 0.07000000 181 238 46 0.000000 0.000000 0.000000 0.000000 0.000000 0.000000 110.000000 0.172261 -0.415454 0.893154
9.68999958 11.34000015 0.06000000 181 238 46 0.000000 0.000000 0.000000 0.000000 0.000000 0.000000 110.000000 -0.179050 0.751398 -0.635092
9.68999958 11.34000015 0.03000000 181 238 46 0.000000 0.000000 0.000000 0.000000 0.000000 0.000000 110.000000 0.060563 0.838029 -0.542254
9.65999985 11.32999992 0.07000000 181 238 46 0.000000 0.000000 0.000000 0.000000 0.000000 0.000000 110.000000 0.141352 -0.488173 0.861224
9.64000034 11.34000015 0.08000000 181 238 46 0.000000 0.000000 0.000000 0.000000 0.000000 0.000000 110.000000 0.414454 -0.563063 0.714974
9.61999989 11.38000011 -0.02000000 181 238 46 0.000000 0.000000 0.000000 0.000000 0.000000 0.000000 110.000000 0.450684 -0.700141 0.553793
9.59000015 11.30000019 -0.04000000 181 238 46 0.000000 0.000000 0.000000 0.000000 0.000000 0.000000 110.000000 -0.213767 0.865531 -0.452946
9.53999996 11.32999992 -0.05000000 181 238 46 0.000000 0.000000 0.000000 0.000000 0.000000 0.000000 110.000000 -0.091368 -0.324423 0.941489
9.60000038 11.26000023 -0.05000000 181 238 46 0.000000 0.000000 0.000000 0.000000 0.000000 0.000000 110.000000 -0.119697 -0.604398 0.787639
9.57999992 11.26000023 -0.10000000 181 238 46 0.000000 0.000000 0.000000 0.000000 0.000000 0.000000 110.000000 -0.282929 -0.554795 0.782403
9.57999992 11.23999977 -0.12000000 181 238 46 0.000000 0.000000 0.000000 0.000000 0.000000 0.000000 110.000000 -0.267223 0.811045 -0.520382
9.56000042 11.23999977 -0.13000000 181 238 46 0.000000 0.000000 0.000000 0.000000 0.000000 0.000000 110.000000 -0.200773 -0.502687 0.840831
9.53999996 11.22999954 -0.15000001 181 238 46 0.000000 0.000000 0.000000 0.000000 0.000000 0.000000 110.000000 -0.031915 -0.559212 0.828410
9.53999996 11.22999954 -0.18000001 181 238 46 0.000000 0.000000 0.000000 0.000000 0.000000 0.000000 110.000000 -0.330267 -0.407794 0.851251
9.56000042 11.19999981 -0.18000001 181 238 46 0.000000 0.000000 0.000000 0.000000 0.000000 0.000000 110.000000 0.031939 -0.562403 0.826246
9.53999996 11.14000034 -0.15000001 181 238 46 0.000000 0.000000 0.000000 0.000000 0.000000 0.000000 110.000000 0.075522 0.825042 -0.560002
9.53999996 11.18999958 -0.19000000 181 238 46 0.000000 0.000000 0.000000 0.000000 0.000000 0.000000 110.000000 0.129807 0.847394 -0.514854
9.67000008 11.01000023 -0.02000000 181 238 46 0.000000 0.000000 0.000000 0.000000 0.000000 0.000000 172.000000 0.164706 -0.453307 0.876005
9.64000034 10.92000008 -0.02000000 181 238 46 0.000000 0.000000 0.000000 0.000000 0.000000 0.000000 172.000000 -0.094629 -0.601260 0.793430
9.57999992 10.93000031 -0.02000000 181 238 46 0.000000 0.000000 0.000000 0.000000 0.000000 0.000000 172.000000 -0.416407 -0.608850 0.675209
9.53999996 10.97999954 -0.15000001 181 238 46 0.000000 0.000000 0.000000 0.000000 0.000000 0.000000 172.000000 -0.006904 -0.625522 0.780176
9.55000019 10.98999977 -0.15000001 181 238 46 0.000000 0.000000 0.000000 0.000000 0.000000 0.000000 172.000000 0.120647 -0.677706 0.725368
9.57999992 10.88000011 -0.13000000 181 238 46 0.000000 0.000000 0.000000 0.000000 0.000000 0.000000 172.000000 0.009473 0.848492 -0.529123
9.60999966 10.88000011 -0.15000001 181 238 46 0.000000 0.000000 0.000000 0.000000 0.000000 0.000000 172.000000 0.419692 -0.531610 0.735696
9.56000042 10.94999981 -0.09000000 181 238 46 0.000000 0.000000 0.000000 0.000000 0.000000 0.000000 172.000000 0.075223 -0.543594 0.835971
9.56000042 10.94999981 -0.09000000 181 238 46 0.000000 0.000000 0.000000 0.000000 0.000000 0.000000 172.000000 0.075223 -0.543594 0.835971
9.53999996 10.93999958 -0.09000000 181 238 46 0.000000 0.000000 0.000000 0.000000 0.000000 0.000000 172.000000 0.421249 0.506482 -0.752347
9.55000019 10.93000031 -0.09000000 181 238 46 0.000000 0.000000 0.000000 0.000000 0.000000 0.000000 172.000000 -0.167508 -0.314250 0.934445
9.57999992 10.84000015 -0.15000001 181 238 46 0.000000 0.000000 0.000000 0.000000 0.000000 0.000000 172.000000 -0.014908 0.857876 -0.513641
9.40999985 11.56999969 0.13000000 181 238 46 0.000000 0.000000 0.000000 0.000000 0.000000 0.000000 110.000000 -0.415787 -0.334810 0.845590
9.50000000 11.50000000 0.13000000 181 238 46 0.000000 0.000000 0.000000 0.000000 0.000000 0.000000 110.000000 0.042513 -0.333665 0.941733
9.51000023 11.47000027 0.10000000 181 238 46 0.000000 0.000000 0.000000 0.000000 0.000000 0.000000 110.000000 0.128882 0.861625 -0.490909
9.52999973 11.44999981 0.12000000 181 238 46 0.000000 0.000000 0.000000 0.000000 0.000000 0.000000 110.000000 -0.135169 -0.372063 0.918313
9.50000000 11.39000034 0.12000000 181 238 46 0.000000 0.000000 0.000000 0.000000 0.000000 0.000000 110.000000 -0.038261 -0.670274 0.741127
9.50000000 11.43999958 0.10000000 181 238 46 0.000000 0.000000 0.000000 0.000000 0.000000 0.000000 110.000000 0.131626 0.866415 -0.481663
9.39999962 11.52999973 0.10000000 181 238 46 0.000000 0.000000 0.000000 0.000000 0.000000 0.000000 110.000000 0.430671 0.573673 -0.696722
9.43999958 11.50000000 0.11000000 181 238 46 0.000000 0.000000 0.000000 0.000000 0.000000 0.000000 110.000000 -0.234042 -0.500206 0.833677
9.40999985 11.51000023 0.11000000 181 238 46 0.000000 0.000000 0.000000 0.000000 0.000000 0.000000 110.000000 0.584310 0.431157 -0.687521
9.39000034 11.44999981 0.10000000 181 238 46 0.000000 0.000000 0.000000 0.000000 0.000000 0.000000 110.000000 0.195158 0.859588 -0.472252
9.43000031 11.27000046 0.10000000 181 238 46 0.000000 0.000000 0.000000 0.000000 0.000000 0.000000 26.000000 0.486155 0.536274 -0.689973
9.38000011 11.17000008 0.11000000 181 238 46 0.000000 0.000000 0.000000 0.000000 0.000000 0.000000 26.000000 -0.398893 -0.315726 0.860931
9.40999985 11.14999962 0.13000000 181 238 46 0.000000 0.000000 0.000000 0.000000 0.000000 0.000000 26.000000 0.040218 -0.533926 0.844574
9.35000038 11.17000008 0.13000000 181 238 46 0.000000 0.000000 0.000000 0.000000 0.000000 0.000000 26.000000 -0.302268 -0.471412 0.828495
9.35999966 11.14000034 0.13000000 181 238 46 0.000000 0.000000 0.000000 0.000000 0.000000 0.000000 26.000000 0.457146 0.486852 -0.744307
9.38000011 11.61999989 0.06000000 181 238 46 0.000000 0.000000 0.000000 0.000000 0.000000 0.000000 110.000000 0.257437 0.806637 -0.532037
9.40999985 11.56999969 -0.04000000 181 238 46 0.000000 0.000000 0.000000 0.000000 0.000000 0.000000 110.000000 -0.582520 -0.180992 0.792409
9.39999962 11.59000015 0.06000000 181 238 46 0.000000 0.000000 0.000000 0.000000 0.000000 0.000000 110.000000 -0.082954 -0.653449 0.752412
9.43999958 11.56000042 0.08000000 181 238 46 0.000000 0.000000 0.000000 0.000000 0.000000 0.000000 110.000000 0.202847 0.710738 -0.673576
9.38000011 11.56000042 0.08000000 181 238 46 0.000000 0.000000 0.000000 0.000000 0.000000 0.000000 110.000000 -0.219821 -0.631400 0.743649
9.47000027 11.60000038 0.06000000 181 238 46 0.000000 0.000000 0.000000 0.000000 0.000000 0.000000 110.000000 0.501230 0.707717 -0.497900
9.47000027 11.55000019 0.03000000 181 238 46 0.000000 0.000000 0.000000 0.000000 0.000000 0.000000 110.000000 0.275242 0.730267 -0.625261
9.36999989 11.52000046 0.08000000 181 238 46 0.000000 0.000000 0.000000 0.000000 0.000000 0.000000 110.000000 -0.271569 -0.620955 0.735300
9.38000011 11.55000019 0.05000000 181 238 46 0.000000 0.000000 0.000000 0.000000 0.000000 0.000000 110.000000 0.678253 0.470590 -0.564374
9.39000034 11.51000023 0.06000000 181 238 46 0.000000 0.000000 0.000000 0.000000 0.000000 0.000000 110.000000 -0.001381 -0.691755 0.722131
9.43000031 11.50000000 -0.02000000 181 238 46 0.000000 0.000000 0.000000 0.000000 0.000000 0.000000 110.000000 0.049101 0.829099 -0.556941
9.36999989 11.52999973 0.00000000 181 238 46 0.000000 0.000000 0.000000 0.000000 0.000000 0.000000 110.000000 0.788362 0.516513 -0.334214
9.38000011 11.39000034 0.02000000 181 238 46 0.000000 0.000000 0.000000 0.000000 0.000000 0.000000 110.000000 0.745047 0.435844 -0.504921
9.36999989 11.40999985 0.05000000 181 238 46 0.000000 0.000000 0.000000 0.000000 0.000000 0.000000 110.000000 0.555430 0.535172 -0.636466
9.42000008 11.39000034 -0.14000000 181 238 46 0.000000 0.000000 0.000000 0.000000 0.000000 0.000000 110.000000 -0.320355 -0.524362 0.788934
9.46000004 11.39000034 -0.25000000 181 238 46 0.000000 0.000000 0.000000 0.000000 0.000000 0.000000 110.000000 0.569241 0.599646 -0.562485
9.32999992 11.56000042 0.05000000 181 238 46 0.000000 0.000000 0.000000 0.000000 0.000000 0.000000 110.000000 0.623741 0.296638 -0.723155
9.27999973 11.61999989 0.06000000 181 238 46 0.000000 0.000000 0.000000 0.000000 0.000000 0.000000 110.000000 -0.459733 -0.401661 0.792031
9.30000019 11.63000011 0.09000000 181 238 46 0.000000 0.000000 0.000000 0.000000 0.000000 0.000000 110.000000 0.673252 0.589722 -0.446050
9.27999973 11.60999966 0.01000000 181 238 46 0.000000 0.000000 0.000000 0.000000 0.000000 0.000000 110.000000 0.750767 0.534860 -0.387651
9.30000019 11.57999992 0.03000000 181 238 46 0.000000 0.000000 0.000000 0.000000 0.000000 0.000000 110.000000 0.411682 0.702669 -0.580322
9.19999981 11.65999985 0.06000000 181 238 46 0.000000 0.000000 0.000000 0.000000 0.000000 0.000000 110.000000 0.919766 0.091026 -0.381764
9.27000046 11.67000008 -0.04000000 181 238 46 0.000000 0.000000 0.000000 0.000000 0.000000 0.000000 110.000000 0.792972 0.200927 -0.575173
9.27000046 11.61999989 0.01000000 181 238 46 0.000000 0.000000 0.000000 0.000000 0.000000 0.000000 110.000000 0.430160 0.767091 -0.475956
9.18999958 11.63000011 0.07000000 181 238 46 0.000000 0.000000 0.000000 0.000000 0.000000 0.000000 110.000000 0.955820 0.213149 -0.202425
9.22999954 11.57999992 -0.20999999 181 238 46 0.000000 0.000000 0.000000 0.000000 0.000000 0.000000 110.000000 0.886553 0.114531 -0.448225
9.31999969 11.52000046 0.07000000 181 238 46 0.000000 0.000000 0.000000 0.000000 0.000000 0.000000 110.000000 -0.472660 -0.407689 0.781269
9.35999966 11.52999973 0.08000000 181 238 46 0.000000 0.000000 0.000000 0.000000 0.000000 0.000000 110.000000 0.653050 0.491886 -0.575825
9.30000019 11.53999996 0.08000000 181 238 46 0.000000 0.000000 0.000000 0.000000 0.000000 0.000000 110.000000 -0.283130 -0.558352 0.779795
9.31000042 11.48999977 0.07000000 181 238 46 0.000000 0.000000 0.000000 0.000000 0.000000 0.000000 110.000000 0.602955 0.562421 -0.565798
9.28999996 11.50000000 0.04000000 181 238 46 0.000000 0.000000 0.000000 0.000000 0.000000 0.000000 110.000000 0.610433 0.754803 -0.240093
9.31000042 11.48999977 0.04000000 181 238 46 0.000000 0.000000 0.000000 0.000000 0.000000 0.000000 110.000000 0.425008 0.631678 -0.648345
9.32999992 11.47999954 0.00000000 181 238 46 0.000000 0.000000 0.000000 0.000000 0.000000 0.000000 110.000000 0.755819 0.188572 -0.627039
9.32999992 11.48999977 0.00000000 181 238 46 0.000000 0.000000 0.000000 0.000000 0.000000 0.000000 110.000000 0.335897 0.807109 -0.485539
9.30000019 11.48999977 -0.01000000 181 238 46 0.000000 0.000000 0.000000 0.000000 0.000000 0.000000 110.000000 0.762483 0.497981 -0.413080
9.31000042 11.51000023 -0.04000000 181 238 46 0.000000 0.000000 0.000000 0.000000 0.000000 0.000000 110.000000 0.841287 0.464637 -0.276313
9.35000038 11.43999958 0.09000000 181 238 46 0.000000 0.000000 0.000000 0.000000 0.000000 0.000000 110.000000 -0.542807 -0.439889 0.715443
9.31999969 11.43999958 0.05000000 181 238 46 0.000000 0.000000 0.000000 0.000000 0.000000 0.000000 110.000000 0.617492 0.729764 -0.293509
9.35999966 11.44999981 0.06000000 181 238 46 0.000000 0.000000 0.000000 0.000000 0.000000 0.000000 110.000000 -0.163456 -0.385188 0.908247
9.35000038 11.43999958 0.02000000 181 238 46 0.000000 0.000000 0.000000 0.000000 0.000000 0.000000 110.000000 0.259121 0.777362 -0.573206
9.35000038 11.43999958 0.02000000 181 238 46 0.000000 0.000000 0.000000 0.000000 0.000000 0.000000 110.000000 0.259121 0.777362 -0.573206
9.34000015 11.46000004 0.04000000 181 238 46 0.000000 0.000000 0.000000 0.000000 0.000000 0.000000 110.000000 -0.422289 -0.507733 0.750919
9.28999996 11.44999981 -0.02000000 181 238 46 0.000000 0.000000 0.000000 0.000000 0.000000 0.000000 110.000000 0.427762 0.637481 -0.640810
9.27999973 11.50000000 -0.16000000 181 238 46 0.000000 0.000000 0.000000 0.000000 0.000000 0.000000 110.000000 0.768658 0.364101 -0.525924
9.31000042 11.48999977 -0.12000000 181 238 46 0.000000 0.000000 0.000000 0.000000 0.000000 0.000000 110.000000 0.687192 0.533368 -0.493240
9.31000042 11.47999954 -0.13000000 181 238 46 0.000000 0.000000 0.000000 0.000000 0.000000 0.000000 110.000000 0.779252 0.608087 -0.151646
9.27999973 11.40999985 -0.13000000 181 238 46 0.000000 0.000000 0.000000 0.000000 0.000000 0.000000 110.000000 0.385358 0.569018 -0.726441
9.27999973 11.46000004 -0.13000000 181 238 46 0.000000 0.000000 0.000000 0.000000 0.000000 0.000000 110.000000 -0.472033 -0.410393 0.780233
9.27000046 11.52999973 -0.18000001 181 238 46 0.000000 0.000000 0.000000 0.000000 0.000000 0.000000 110.000000 0.816721 0.467830 -0.337789
9.22000027 11.51000023 -0.18000001 181 238 46 0.000000 0.000000 0.000000 0.000000 0.000000 0.000000 110.000000 0.956226 0.284698 -0.067664
9.26000023 11.43999958 -0.16000000 181 238 46 0.000000 0.000000 0.000000 0.000000 0.000000 0.000000 110.000000 0.901778 0.335030 -0.273042
9.27000046 11.40999985 -0.13000000 181 238 46 0.000000 0.000000 0.000000 0.000000 0.000000 0.000000 110.000000 0.651088 0.540050 -0.533320
9.50000000 11.28999996 -0.07000000 181 238 46 0.000000 0.000000 0.000000 0.000000 0.000000 0.000000 110.000000 0.562151 0.555399 -0.612795
9.42000008 11.26000023 0.09000000 181 238 46 0.000000 0.000000 0.000000 0.000000 0.000000 0.000000 26.000000 0.586288 0.478774 -0.653484
9.51000023 11.31000042 -0.15000001 181 238 46 0.000000 0.000000 0.000000 0.000000 0.000000 0.000000 110.000000 -0.114959 -0.336761 0.934546
9.44999981 11.30000019 -0.13000000 181 238 46 0.000000 0.000000 0.000000 0.000000 0.000000 0.000000 110.000000 -0.190028 -0.295445 0.936270
9.50000000 11.30000019 -0.19000000 181 238 46 0.000000 0.000000 0.000000 0.000000 0.000000 0.000000 110.000000 -0.459786 -0.315416 0.830126
9.47999954 11.34000015 -0.22000000 181 238 46 0.000000 0.000000 0.000000 0.000000 0.000000 0.000000 110.000000 0.600304 0.536046 -0.593540
9.52000046 11.27999973 -0.11000000 181 238 46 0.000000 0.000000 0.000000 0.000000 0.000000 0.000000 110.000000 -0.022351 -0.411519 0.911127
9.52000046 11.27999973 -0.12000000 181 238 46 0.000000 0.000000 0.000000 0.000000 0.000000 0.000000 110.000000 -0.079159 -0.454123 0.887415
9.48999977 11.25000000 -0.20000000 181 238 46 0.000000 0.000000 0.000000 0.000000 0.000000 0.000000 110.000000 0.548770 0.468706 -0.692218
9.38000011 11.38000011 -0.15000001 181 238 46 0.000000 0.000000 0.000000 0.000000 0.000000 0.000000 110.000000 -0.563114 -0.392374 0.727287
9.40999985 11.32999992 -0.17000000 181 238 46 0.000000 0.000000 0.000000 0.000000 0.000000 0.000000 110.000000 -0.191555 -0.767752 0.611443
9.42000008 11.34000015 -0.20999999 181 238 46 0.000000 0.000000 0.000000 0.000000 0.000000 0.000000 110.000000 0.120688 0.716680 -0.686880
9.40999985 11.34000015 -0.20999999 181 238 46 0.000000 0.000000 0.000000 0.000000 0.000000 0.000000 110.000000 0.335714 0.803485 -0.491638
9.42000008 11.32999992 -0.20999999 181 238 46 0.000000 0.000000 0.000000 0.000000 0.000000 0.000000 110.000000 0.619054 0.575198 -0.534714
9.42000008 11.34000015 -0.18000001 181 238 46 0.000000 0.000000 0.000000 0.000000 0.000000 0.000000 110.000000 0.612279 0.608906 -0.504329
9.43000031 11.26000023 -0.12000000 181 238 46 0.000000 0.000000 0.000000 0.000000 0.000000 0.000000 110.000000 -0.154088 -0.337327 0.928691
9.39000034 11.28999996 -0.18000001 181 238 46 0.000000 0.000000 0.000000 0.000000 0.000000 0.000000 110.000000 0.749665 0.510166 -0.421584
9.38000011 11.14000034 0.09000000 181 238 46 0.000000 0.000000 0.000000 0.000000 0.000000 0.000000 26.000000 0.107193 0.785594 -0.609386
9.17000008 11.57999992 -0.16000000 181 238 46 0.000000 0.000000 0.000000 0.000000 0.000000 0.000000 110.000000 0.972207 0.219771 -0.080707
9.14000034 11.52999973 -0.17000000 181 238 46 0.000000 0.000000 0.000000 0.000000 0.000000 0.000000 110.000000 0.970466 0.239904 0.025317
9.17000008 11.51000023 -0.16000000 181 238 46 0.000000 0.000000 0.000000 0.000000 0.000000 0.000000 110.000000 0.817773 0.491292 -0.299798
9.17000008 11.52999973 -0.15000001 181 238 46 0.000000 0.000000 0.000000 0.000000 0.000000 0.000000 110.000000 0.939851 0.016489 -0.341187
9.68000031 11.40999985 0.11000000 181 238 46 0.000000 0.000000 0.000000 0.000000 0.000000 0.000000 110.000000 0.006919 -0.662886 0.748688
9.68999958 11.40999985 0.10000000 181 238 46 0.000000 0.000000 0.000000 0.000000 0.000000 0.000000 110.000000 0.055848 -0.442698 0.894930
9.97000027 11.46000004 0.00000000 181 238 46 0.000000 0.000000 0.000000 0.000000 0.000000 0.000000 145.000000 0.516151 -0.228209 0.825535
9.92000008 11.47000027 -0.01000000 181 238 46 0.000000 0.000000 0.000000 0.000000 0.000000 0.000000 145.000000 0.589144 -0.144676 0.794971
9.94999981 11.51000023 -0.03000000 181 238 46 0.000000 0.000000 0.000000 0.000000 0.000000 0.000000 145.000000 0.848687 -0.104829 0.518403
9.81999969 11.61999989 0.03000000 181 238 46 0.000000 0.000000 0.000000 0.000000 0.000000 0.000000 64.000000 0.860600 -0.429536 0.273619
9.82999992 11.60999966 0.03000000 181 238 46 0.000000 0.000000 0.000000 0.000000 0.000000 0.000000 64.000000 0.491636 -0.251212 0.833778
9.85999966 11.48999977 -0.02000000 181 238 46 0.000000 0.000000 0.000000 0.000000 0.000000 0.000000 145.000000 0.446699 -0.360857 0.818683
9.72000027 11.40999985 0.06000000 181 238 46 0.000000 0.000000 0.000000 0.000000 0.000000 0.000000 110.000000 -0.325541 0.825648 -0.460790
9.85999966 11.43999958 -0.13000000 181 238 46 0.000000 0.000000 0.000000 0.000000 0.000000 0.000000 145.000000 0.677275 -0.092156 0.729936
9.68000031 11.39000034 0.09000000 181 238 46 0.000000 0.000000 0.000000 0.000000 0.000000 0.000000 110.000000 0.219907 -0.552073 0.804274
9.68000031 11.40999985 0.06000000 181 238 46 0.000000 0.000000 0.000000 0.000000 0.000000 0.000000 110.000000 -0.012347 -0.577554 0.816259
9.71000004 11.31000042 0.07000000 181 238 46 0.000000 0.000000 0.000000 0.000000 0.000000 0.000000 110.000000 -0.438600 0.625380 -0.645392
9.85999966 11.38000011 -0.03000000 181 238 46 0.000000 0.000000 0.000000 0.000000 0.000000 0.000000 145.000000 -0.325366 0.780558 -0.533729
9.85999966 11.31999969 -0.10000000 181 238 46 0.000000 0.000000 0.000000 0.000000 0.000000 0.000000 145.000000 0.739979 -0.338415 0.581297
9.75000000 11.31999969 -0.12000000 181 238 46 0.000000 0.000000 0.000000 0.000000 0.000000 0.000000 145.000000 0.362720 -0.296497 0.883472
9.69999981 11.31000042 0.07000000 181 238 46 0.000000 0.000000 0.000000 0.000000 0.000000 0.000000 110.000000 0.172261 -0.415454 0.893154
9.67000008 11.35999966 0.07000000 181 238 46 0.000000 0.000000 0.000000 0.000000 0.000000 0.000000 110.000000 -0.050170 0.893572 -0.446108
9.63000011 11.31999969 -0.07000000 181 238 46 0.000000 0.000000 0.000000 0.000000 0.000000 0.000000 110.000000 -0.398682 0.650132 -0.646824
9.56999969 11.35999966 -0.02000000 181 238 46 0.000000 0.000000 0.000000 0.000000 0.000000 0.000000 110.000000 0.008520 -0.278728 0.960332
9.59000015 11.25000000 -0.11000000 181 238 46 0.000000 0.000000 0.000000 0.000000 0.000000 0.000000 110.000000 -0.283536 -0.651973 0.703234
9.57999992 11.25000000 -0.10000000 181 238 46 0.000000 0.000000 0.000000 0.000000 0.000000 0.000000 110.000000 -0.126567 0.763871 -0.632837
9.57999992 11.25000000 -0.09000000 181 238 46 0.000000 0.000000 0.000000 0.000000 0.000000 0.000000 110.000000 0.064694 -0.887824 0.455612
9.55000019 11.27000046 -0.10000000 181 238 46 0.000000 0.000000 0.000000 0.000000 0.000000 0.000000 110.000000 0.258932 0.820208 -0.510111
9.53999996 11.28999996 -0.11000000 181 238 46 0.000000 0.000000 0.000000 0.000000 0.000000 0.000000 110.000000 -0.115224 0.877694 -0.465163
9.55000019 11.14000034 -0.15000001 181 238 46 0.000000 0.000000 0.000000 0.000000 0.000000 0.000000 110.000000 -0.144568 0.860109 -0.489196
9.56000042 11.18999958 -0.19000000 181 238 46 0.000000 0.000000 0.000000 0.000000 0.000000 0.000000 110.000000 -0.076364 0.618115 -0.782370
9.38000011 11.57999992 0.12000000 181 238 46 0.000000 0.000000 0.000000 0.000000 0.000000 0.000000 110.000000 -0.331644 -0.530310 0.780245
9.51000023 11.59000015 0.14000000 181 238 46 0.000000 0.000000 0.000000 0.000000 0.000000 0.000000 110.000000 -0.220945 -0.376045 0.899874
9.47999954 11.39000034 0.13000000 181 238 46 0.000000 0.000000 0.000000 0.000000 0.000000 0.000000 110.000000 0.254828 0.682178 -0.685344
9.31000042 11.61999989 0.10000000 181 238 46 0.000000 0.000000 0.000000 0.000000 0.000000 0.000000 110.000000 0.585999 0.596132 -0.548846
9.39999962 11.56000042 -0.05000000 181 238 46 0.000000 0.000000 0.000000 0.000000 0.000000 0.000000 110.000000 -0.518087 -0.277043 0.809217
9.38000011 11.60000038 0.05000000 181 238 46 0.000000 0.000000 0.000000 0.000000 0.000000 0.000000 110.000000 -0.467989 -0.461421 0.753709
9.36999989 11.56999969 0.05000000 181 238 46 0.000000 0.000000 0.000000 0.000000 0.000000 0.000000 110.000000 0.690961 0.480159 -0.540388
9.52000046 11.47999954 0.04000000 181 238 46 0.000000 0.000000 0.000000 0.000000 0.000000 0.000000 110.000000 0.302858 0.521676 -0.797578
9.48999977 11.46000004 0.09000000 181 238 46 0.000000 0.000000 0.000000 0.000000 0.000000 0.000000 110.000000 -0.327479 -0.309535 0.892718
9.48999977 11.43000031 0.09000000 181 238 46 0.000000 0.000000 0.000000 0.000000 0.000000 0.000000 110.000000 0.128574 -0.586712 0.799524
9.50000000 11.40999985 0.08000000 181 238 46 0.000000 0.000000 0.000000 0.000000 0.000000 0.000000 110.000000 -0.073657 -0.634031 0.769792
9.39000034 11.43999958 0.05000000 181 238 46 0.000000 0.000000 0.000000 0.000000 0.000000 0.000000 110.000000 0.356325 0.836658 -0.415975
9.34000015 11.60000038 0.08000000 181 238 46 0.000000 0.000000 0.000000 0.000000 0.000000 0.000000 110.000000 0.310594 0.835014 -0.454185
9.32999992 11.63000011 0.05000000 181 238 46 0.000000 0.000000 0.000000 0.000000 0.000000 0.000000 110.000000 0.230132 0.721707 -0.652824
9.28999996 11.61999989 0.07000000 181 238 46 0.000000 0.000000 0.000000 0.000000 0.000000 0.000000 110.000000 0.420239 0.666070 -0.616239
9.23999977 11.64999962 0.05000000 181 238 46 0.000000 0.000000 0.000000 0.000000 0.000000 0.000000 110.000000 0.798675 0.498973 -0.336368
9.26000023 11.68999958 -0.04000000 181 238 46 0.000000 0.000000 0.000000 0.000000 0.000000 0.000000 110.000000 0.978109 0.032089 -0.205605
9.27000046 11.65999985 -0.04000000 181 238 46 0.000000 0.000000 0.000000 0.000000 0.000000 0.000000 110.000000 -0.621206 -0.358955 0.696602
9.25000000 11.63000011 0.01000000 181 238 46 0.000000 0.000000 0.000000 0.000000 0.000000 0.000000 110.000000 0.762362 0.470533 -0.444301
9.23999977 11.56000042 0.02000000 181 238 46 0.000000 0.000000 0.000000 0.000000 0.000000 0.000000 110.000000 -0.531105 -0.441761 0.723031
9.23999977 11.64000034 0.00000000 181 238 46 0.000000 0.000000 0.000000 0.000000 0.000000 0.000000 110.000000 0.648216 0.648216 -0.399540
9.35999966 11.52000046 -0.01000000 181 238 46 0.000000 0.000000 0.000000 0.000000 0.000000 0.000000 110.000000 -0.507304 -0.574720 0.642136
9.31000042 11.51000023 -0.01000000 181 238 46 0.000000 0.000000 0.000000 0.000000 0.000000 0.000000 110.000000 0.841609 0.223719 -0.491573
9.34000015 11.46000004 0.04000000 181 238 46 0.000000 0.000000 0.000000 0.000000 0.000000 0.000000 110.000000 -0.422289 -0.507733 0.750919
9.35999966 11.43000031 0.08000000 181 238 46 0.000000 0.000000 0.000000 0.000000 0.000000 0.000000 110.000000 0.424132 0.640356 -0.640356
9.32999992 11.43999958 0.01000000 181 238 46 0.000000 0.000000 0.000000 0.000000 0.000000 0.000000 110.000000 0.690405 0.509863 -0.513206
9.34000015 11.39000034 0.01000000 181 238 46 0.000000 0.000000 0.000000 0.000000 0.000000 0.000000 110.000000 0.586267 0.562613 -0.582888
9.32999992 11.46000004 0.04000000 181 238 46 0.000000 0.000000 0.000000 0.000000 0.000000 0.000000 110.000000 -0.125034 -0.572215 0.810516
9.27000046 11.46000004 0.01000000 181 238 46 0.000000 0.000000 0.000000 0.000000 0.000000 0.000000 110.000000 0.676556 0.401964 -0.617006
9.27000046 11.47999954 -0.12000000 181 238 46 0.000000 0.000000 0.000000 0.000000 0.000000 0.000000 110.000000 0.634050 0.456717 -0.624012
9.26000023 11.47999954 -0.13000000 181 238 46 0.000000 0.000000 0.000000 0.000000 0.000000 0.000000 110.000000 0.717960 0.340258 -0.607254
9.44999981 11.26000023 0.06000000 181 238 46 0.000000 0.000000 0.000000 0.000000 0.000000 0.000000 26.000000 -0.441797 -0.481214 0.757132
9.39000034 11.27999973 0.04000000 181 238 46 0.000000 0.000000 0.000000 0.000000 0.000000 0.000000 26.000000 0.423430 0.576197 -0.699074
9.43999958 11.27999973 0.07000000 181 238 46 0.000000 0.000000 0.000000 0.000000 0.000000 0.000000 26.000000 -0.291682 -0.515568 0.805674
9.48999977 11.30000019 -0.14000000 181 238 46 0.000000 0.000000 0.000000 0.000000 0.000000 0.000000 110.000000 -0.117368 -0.664095 0.738378
9.51000023 11.31000042 -0.08000000 181 238 46 0.000000 0.000000 0.000000 0.000000 0.000000 0.000000 110.000000 -0.060134 0.854457 -0.516030
9.46000004 11.35999966 -0.15000001 181 238 46 0.000000 0.000000 0.000000 0.000000 0.000000 0.000000 110.000000 0.424641 0.752549 -0.503339
9.44999981 11.31999969 -0.22000000 181 238 46 0.000000 0.000000 0.000000 0.000000 0.000000 0.000000 110.000000 0.212221 0.621173 -0.754392
9.44999981 11.31999969 -0.17000000 181 238 46 0.000000 0.000000 0.000000 0.000000 0.000000 0.000000 110.000000 0.046544 -0.590967 0.805352
9.52000046 11.27999973 -0.12000000 181 238 46 0.000000 0.000000 0.000000 0.000000 0.000000 0.000000 110.000000 -0.079159 -0.454123 0.887415
9.40999985 11.34000015 -0.20999999 181 238 46 0.000000 0.000000 0.000000 0.000000 0.000000 0.000000 110.000000 0.335714 0.803485 -0.491638
9.56999969 11.48999977 0.13000000 181 238 46 0.000000 0.000000 0.000000 0.000000 0.000000 0.000000 110.000000 -0.011070 -0.293981 0.955747
9.64999962 11.40999985 0.10000000 181 238 46 0.000000 0.000000 0.000000 0.000000 0.000000 0.000000 110.000000 -0.241749 -0.512755 0.823796
9.90999985 11.50000000 0.08000000 181 238 46 0.000000 0.000000 0.000000 0.000000 0.000000 0.000000 145.000000 0.769892 -0.185203 0.610710
9.93000031 11.43999958 -0.02000000 181 238 46 0.000000 0.000000 0.000000 0.000000 0.000000 0.000000 145.000000 -0.484712 0.675913 -0.555154
9.89000034 11.43999958 -0.01000000 181 238 46 0.000000 0.000000 0.000000 0.000000 0.000000 0.000000 145.000000 0.869771 -0.331705 0.365335
9.78999996 11.43000031 -0.12000000 181 238 46 0.000000 0.000000 0.000000 0.000000 0.000000 0.000000 145.000000 0.532429 -0.525710 0.663437
9.68999958 11.59000015 -0.06000000 181 238 46 0.000000 0.000000 0.000000 0.000000 0.000000 0.000000 64.000000 0.567774 -0.668265 0.480682
9.65999985 11.56000042 -0.08000000 181 238 46 0.000000 0.000000 0.000000 0.000000 0.000000 0.000000 64.000000 -0.006946 -0.709863 0.704306
9.53999996 11.52999973 0.05000000 181 238 46 0.000000 0.000000 0.000000 0.000000 0.000000 0.000000 110.000000 0.256608 -0.471728 0.843579
9.57999992 11.40999985 -0.05000000 181 238 46 0.000000 0.000000 0.000000 0.000000 0.000000 0.000000 110.000000 -0.046993 -0.707748 0.704900
9.72000027 11.28999996 0.06000000 181 238 46 0.000000 0.000000 0.000000 0.000000 0.000000 0.000000 110.000000 -0.287314 0.769873 -0.569865
9.68000031 11.35000038 0.04000000 181 238 46 0.000000 0.000000 0.000000 0.000000 0.000000 0.000000 110.000000 -0.198104 0.865401 -0.460256
9.64000034 11.34000015 0.03000000 181 238 46 0.000000 0.000000 0.000000 0.000000 0.000000 0.000000 110.000000 0.129637 0.755473 -0.642226
9.69999981 11.28999996 0.07000000 181 238 46 0.000000 0.000000 0.000000 0.000000 0.000000 0.000000 110.000000 0.154325 -0.585837 0.795600
9.60999966 11.35000038 -0.04000000 181 238 46 0.000000 0.000000 0.000000 0.000000 0.000000 0.000000 110.000000 -0.058941 -0.700104 0.711604
9.55000019 11.35000038 -0.08000000 181 238 46 0.000000 0.000000 0.000000 0.000000 0.000000 0.000000 110.000000 -0.197364 -0.570673 0.797107
9.53999996 10.88000011 -0.13000000 181 238 46 0.000000 0.000000 0.000000 0.000000 0.000000 0.000000 172.000000 -0.037361 -0.341401 0.939175
9.44999981 11.56000042 0.14000000 181 238 46 0.000000 0.000000 0.000000 0.000000 0.000000 0.000000 110.000000 -0.210491 -0.336500 0.917857
9.52000046 11.46000004 0.12000000 181 238 46 0.000000 0.000000 0.000000 0.000000 0.000000 0.000000 110.000000 0.179226 0.742947 -0.644909
9.43999958 11.47000027 0.12000000 181 238 46 0.000000 0.000000 0.000000 0.000000 0.000000 0.000000 110.000000 -0.194776 -0.277660 0.940727
9.39999962 11.52999973 0.10000000 181 238 46 0.000000 0.000000 0.000000 0.000000 0.000000 0.000000 110.000000 0.430671 0.573673 -0.696722
9.44999981 11.56000042 0.04000000 181 238 46 0.000000 0.000000 0.000000 0.000000 0.000000 0.000000 110.000000 -0.262323 -0.426085 0.865817
9.32999992 11.60999966 0.06000000 181 238 46 0.000000 0.000000 0.000000 0.000000 0.000000 0.000000 110.000000 0.852256 0.317083 -0.416074
9.30000019 11.60000038 0.07000000 181 238 46 0.000000 0.000000 0.000000 0.000000 0.000000 0.000000 110.000000 0.663338 0.196373 -0.722095
9.27999973 11.56000042 -0.02000000 181 238 46 0.000000 0.000000 0.000000 0.000000 0.000000 0.000000 110.000000 -0.632921 -0.278995 0.722200
9.23999977 11.68999958 0.07000000 181 238 46 0.000000 0.000000 0.000000 0.000000 0.000000 0.000000 110.000000 0.599829 0.475495 -0.643514
9.23999977 11.56000042 -0.11000000 181 238 46 0.000000 0.000000 0.000000 0.000000 0.000000 0.000000 110.000000 0.574861 0.378327 -0.725537
9.35000038 11.52000046 0.07000000 181 238 46 0.000000 0.000000 0.000000 0.000000 0.000000 0.000000 110.000000 -0.406497 -0.432204 0.804960
9.32999992 11.47000027 -0.01000000 181 238 46 0.000000 0.000000 0.000000 0.000000 0.000000 0.000000 110.000000 0.545400 0.592680 -0.592680
9.34000015 11.44999981 0.03000000 181 238 46 0.000000 0.000000 0.000000 0.000000 0.000000 0.000000 110.000000 0.247869 0.639407 -0.727819
9.32999992 11.43000031 0.00000000 181 238 46 0.000000 0.000000 0.000000 0.000000 0.000000 0.000000 110.000000 0.726350 0.247369 -0.641268
9.28999996 11.52999973 -0.13000000 181 238 46 0.000000 0.000000 0.000000 0.000000 0.000000 0.000000 110.000000 0.944000 0.077248 -0.320777
9.23999977 11.47999954 -0.15000001 181 238 46 0.000000 0.000000 0.000000 0.000000 0.000000 0.000000 110.000000 0.581343 0.725451 -0.368457
9.22000027 11.44999981 -0.09000000 181 238 46 0.000000 0.000000 0.000000 0.000000 0.000000 0.000000 110.000000 -0.458077 -0.554690 0.694611
9.46000004 11.31000042 -0.13000000 181 238 46 0.000000 0.000000 0.000000 0.000000 0.000000 0.000000 110.000000 0.092210 -0.495094 0.863932
9.50000000 11.30000019 -0.15000001 181 238 46 0.000000 0.000000 0.000000 0.000000 0.000000 0.000000 110.000000 -0.220342 -0.661025 0.717283
9.48999977 11.27999973 -0.19000000 181 238 46 0.000000 0.000000 0.000000 0.000000 0.000000 0.000000 110.000000 0.575202 0.451825 -0.681906
9.43000031 11.38000011 -0.14000000 181 238 46 0.000000 0.000000 0.000000 0.000000 0.000000 0.000000 110.000000 0.336097 0.770289 -0.541936
9.52000046 10.93000031 -0.08000000 181 238 46 0.000000 0.000000 0.000000 0.000000 0.000000 0.000000 172.000000 -0.198865 -0.633593 0.747671
9.90999985 11.56999969 0.03000000 181 238 46 0.000000 0.000000 0.000000 0.000000 0.000000 0.000000 145.000000 0.550193 -0.450460 0.703117
9.89000034 11.39000034 -0.04000000 181 238 46 0.000000 0.000000 0.000000 0.000000 0.000000 0.000000 145.000000 0.274876 -0.538758 0.796356
9.77999973 11.59000015 0.03000000 181 238 46 0.000000 0.000000 0.000000 0.000000 0.000000 0.000000 64.000000 -0.328734 0.774529 -0.540406
9.71000004 11.40999985 0.07000000 181 238 46 0.000000 0.000000 0.000000 0.000000 0.000000 0.000000 110.000000 -0.119142 -0.589826 0.798693
9.86999989 11.28999996 -0.11000000 181 238 46 0.000000 0.000000 0.000000 0.000000 0.000000 0.000000 145.000000 0.610089 -0.373289 0.698889
9.53999996 11.23999977 -0.12000000 181 238 46 0.000000 0.000000 0.000000 0.000000 0.000000 0.000000 110.000000 0.237403 -0.491655 0.837804
9.47999954 11.47000027 0.12000000 181 238 46 0.000000 0.000000 0.000000 0.000000 0.000000 0.000000 110.000000 -0.221275 -0.351437 0.909686
9.38000011 11.56000042 -0.05000000 181 238 46 0.000000 0.000000 0.000000 0.000000 0.000000 0.000000 110.000000 -0.320021 -0.477667 0.818182
9.50000000 11.44999981 0.05000000 181 238 46 0.000000 0.000000 0.000000 0.000000 0.000000 0.000000 110.000000 0.211734 -0.604292 0.768115
9.30000019 11.63000011 0.01000000 181 238 46 0.000000 0.000000 0.000000 0.000000 0.000000 0.000000 110.000000 0.846062 0.383152 -0.370641
9.30000019 11.53999996 0.07000000 181 238 46 0.000000 0.000000 0.000000 0.000000 0.000000 0.000000 110.000000 0.289997 0.728999 -0.620050
9.26000023 11.53999996 -0.20000000 181 238 46 0.000000 0.000000 0.000000 0.000000 0.000000 0.000000 110.000000 0.938879 0.171830 -0.298297
9.28999996 11.50000000 -0.15000001 181 238 46 0.000000 0.000000 0.000000 0.000000 0.000000 0.000000 110.000000 0.893161 0.084469 -0.441734
9.40999985 11.27999973 0.04000000 181 238 46 0.000000 0.000000 0.000000 0.000000 0.000000 0.000000 26.000000 0.438792 0.774818 -0.455104
9.44999981 11.31999969 -0.22000000 181 238 46 0.000000 0.000000 0.000000 0.000000 0.000000 0.000000 110.000000 0.212221 0.621173 -0.754392
9.48999977 11.31000042 -0.10000000 181 238 46 0.000000 0.000000 0.000000 0.000000 0.000000 0.000000 110.000000 0.476303 0.761102 -0.440294
9.55000019 11.40999985 -0.02000000 181 238 46 0.000000 0.000000 0.000000 0.000000 0.000000 0.000000 110.000000 -0.055131 0.810005 -0.583826
