//X Y Z R G B PointSourceId ScanDirectionFlag NumberOfReturns ReturnNumber GpsTime Intensity Classification Nx Ny Nz
12.09000015 13.82999992 0.07000000 176 130 102 0.000000 0.000000 0.000000 0.000000 0.000000 0.000000 207.000000 0.465644 0.868124 -0.171862
12.02999973 13.81999969 0.09000000 176 130 102 0.000000 0.000000 0.000000 0.000000 0.000000 0.000000 207.000000 0.311707 0.893362 0.323639
12.01000023 13.94999981 0.06000000 176 130 102 0.000000 0.000000 0.000000 0.000000 0.000000 0.000000 207.000000 0.260853 0.959055 -0.110311
12.02000046 13.94999981 0.05000000 176 130 102 0.000000 0.000000 0.000000 0.000000 0.000000 0.000000 207.000000 0.369561 0.866398 -0.335825
12.02000046 13.93999958 0.05000000 176 130 102 0.000000 0.000000 0.000000 0.000000 0.000000 0.000000 207.000000 0.418083 0.908249 -0.017038
11.94999981 13.88000011 0.06000000 176 130 102 0.000000 0.000000 0.000000 0.000000 0.000000 0.000000 207.000000 0.348922 0.741661 0.572881
11.98999977 13.81999969 0.05000000 176 130 102 0.000000 0.000000 0.000000 0.000000 0.000000 0.000000 207.000000 0.219111 0.967419 -0.126854
11.93999958 13.84000015 0.02000000 176 130 102 0.000000 0.000000 0.000000 0.000000 0.000000 0.000000 207.000000 0.721561 0.601029 -0.343678
11.96000004 13.81999969 0.09000000 176 130 102 0.000000 0.000000 0.000000 0.000000 0.000000 0.000000 207.000000 0.102700 0.887720 0.448784
11.96000004 13.81999969 0.09000000 176 130 102 0.000000 0.000000 0.000000 0.000000 0.000000 0.000000 207.000000 0.102700 0.887720 0.448784
11.96000004 13.81000042 0.09000000 176 130 102 0.000000 0.000000 0.000000 0.000000 0.000000 0.000000 207.000000 0.403878 0.753796 0.518337
11.97999954 13.82999992 0.08000000 176 130 102 0.000000 0.000000 0.000000 0.000000 0.000000 0.000000 207.000000 0.003288 0.991741 0.128214
11.94999981 13.82999992 0.04000000 176 130 102 0.000000 0.000000 0.000000 0.000000 0.000000 0.000000 207.000000 0.309375 0.873262 -0.376432
11.88000011 14.09000015 -0.02000000 176 130 102 0.000000 0.000000 0.000000 0.000000 0.000000 0.000000 207.000000 0.229816 0.912037 -0.339665
11.85999966 14.06999969 -0.01000000 176 130 102 0.000000 0.000000 0.000000 0.000000 0.000000 0.000000 207.000000 0.358072 0.880826 0.309725
11.85999966 14.00000000 -0.02000000 176 130 102 0.000000 0.000000 0.000000 0.000000 0.000000 0.000000 207.000000 0.156291 0.984275 -0.082321
11.81999969 14.07999992 0.02000000 176 130 102 0.000000 0.000000 0.000000 0.000000 0.000000 0.000000 207.000000 0.398881 0.913478 -0.080321
11.81000042 14.07999992 0.03000000 176 130 102 0.000000 0.000000 0.000000 0.000000 0.000000 0.000000 207.000000 0.424028 0.864775 -0.269007
11.81000042 14.07999992 0.04000000 176 130 102 0.000000 0.000000 0.000000 0.000000 0.000000 0.000000 207.000000 0.555791 0.770419 0.312332
11.81999969 14.05000019 -0.02000000 176 130 102 0.000000 0.000000 0.000000 0.000000 0.000000 0.000000 207.000000 0.568774 0.821872 0.031985
11.81000042 14.02999973 0.01000000 176 130 102 0.000000 0.000000 0.000000 0.000000 0.000000 0.000000 207.000000 0.662587 0.712712 0.230261
11.80000019 14.01000023 0.04000000 176 130 102 0.000000 0.000000 0.000000 0.000000 0.000000 0.000000 207.000000 0.638359 0.635026 0.435018
11.78999996 13.97000027 0.06000000 176 130 102 0.000000 0.000000 0.000000 0.000000 0.000000 0.000000 207.000000 0.006778 0.844534 0.535459
11.82999992 14.03999996 -0.02000000 176 130 102 0.000000 0.000000 0.000000 0.000000 0.000000 0.000000 207.000000 0.203876 0.971260 0.122832
11.81999969 14.02999973 -0.01000000 176 130 102 0.000000 0.000000 0.000000 0.000000 0.000000 0.000000 207.000000 0.304864 0.878190 0.368567
11.81999969 14.03999996 -0.04000000 176 130 102 0.000000 0.000000 0.000000 0.000000 0.000000 0.000000 207.000000 0.737090 0.605409 -0.300296
11.89999962 13.86999989 0.08000000 176 130 102 0.000000 0.000000 0.000000 0.000000 0.000000 0.000000 207.000000 0.074785 0.962062 0.262381
11.93000031 13.85000038 0.06000000 176 130 102 0.000000 0.000000 0.000000 0.000000 0.000000 0.000000 207.000000 0.526014 0.838381 0.142923
11.92000008 13.85999966 0.06000000 176 130 102 0.000000 0.000000 0.000000 0.000000 0.000000 0.000000 207.000000 0.162130 0.985610 -0.047822
11.89999962 13.86999989 0.09000000 176 130 102 0.000000 0.000000 0.000000 0.000000 0.000000 0.000000 207.000000 0.272083 0.950280 0.151455
11.92000008 13.81000042 0.08000000 176 130 102 0.000000 0.000000 0.000000 0.000000 0.000000 0.000000 207.000000 0.200439 0.794106 0.573776
11.92000008 13.78999996 0.09000000 176 130 102 0.000000 0.000000 0.000000 0.000000 0.000000 0.000000 207.000000 0.335624 0.239732 0.910980
11.89999962 13.81000042 0.08000000 176 130 102 0.000000 0.000000 0.000000 0.000000 0.000000 0.000000 207.000000 -0.197874 0.777692 0.596691
11.86999989 13.81999969 0.07000000 176 130 102 0.000000 0.000000 0.000000 0.000000 0.000000 0.000000 207.000000 0.222440 0.617542 0.754428
11.81999969 13.92000008 0.08000000 176 130 102 0.000000 0.000000 0.000000 0.000000 0.000000 0.000000 207.000000 0.444091 0.706887 0.550540
11.81000042 13.94999981 0.04000000 176 130 102 0.000000 0.000000 0.000000 0.000000 0.000000 0.000000 207.000000 0.250608 0.949600 0.188295
11.81999969 13.89000034 0.08000000 176 130 102 0.000000 0.000000 0.000000 0.000000 0.000000 0.000000 207.000000 0.165510 0.930472 0.326847
11.82999992 13.89000034 0.09000000 176 130 102 0.000000 0.000000 0.000000 0.000000 0.000000 0.000000 207.000000 0.247424 0.857634 0.450827
11.81999969 13.89000034 0.08000000 176 130 102 0.000000 0.000000 0.000000 0.000000 0.000000 0.000000 207.000000 0.165510 0.930472 0.326847
11.81999969 13.89000034 0.05000000 176 130 102 0.000000 0.000000 0.000000 0.000000 0.000000 0.000000 207.000000 0.482510 0.590108 0.647269
11.78999996 13.94999981 0.06000000 176 130 102 0.000000 0.000000 0.000000 0.000000 0.000000 0.000000 207.000000 0.091554 0.985696 0.141493
11.77999973 13.93999958 0.05000000 176 130 102 0.000000 0.000000 0.000000 0.000000 0.000000 0.000000 207.000000 0.416137 0.801746 0.428991
11.80000019 13.94999981 0.05000000 176 130 102 0.000000 0.000000 0.000000 0.000000 0.000000 0.000000 207.000000 0.577401 0.782837 0.231894
11.77000046 13.93000031 0.09000000 176 130 102 0.000000 0.000000 0.000000 0.000000 0.000000 0.000000 207.000000 0.230889 0.695809 0.680103
11.77000046 13.93000031 0.08000000 176 130 102 0.000000 0.000000 0.000000 0.000000 0.000000 0.000000 207.000000 0.076808 0.757934 0.647794
11.77000046 13.89999962 0.09000000 176 130 102 0.000000 0.000000 0.000000 0.000000 0.000000 0.000000 207.000000 0.100812 0.487022 0.867552
11.78999996 13.89999962 0.08000000 176 130 102 0.000000 0.000000 0.000000 0.000000 0.000000 0.000000 207.000000 0.425674 0.438622 0.791462
11.78999996 13.89999962 0.08000000 176 130 102 0.000000 0.000000 0.000000 0.000000 0.000000 0.000000 207.000000 0.425674 0.438622 0.791462
11.80000019 13.89000034 0.05000000 176 130 102 0.000000 0.000000 0.000000 0.000000 0.000000 0.000000 207.000000 0.124872 0.821218 0.556783
11.77999973 13.90999985 0.04000000 176 130 102 0.000000 0.000000 0.000000 0.000000 0.000000 0.000000 207.000000 0.237067 0.651541 0.720620
11.84000015 13.84000015 0.06000000 176 130 102 0.000000 0.000000 0.000000 0.000000 0.000000 0.000000 207.000000 0.179275 0.697182 0.694117
11.84000015 13.81999969 0.08000000 176 130 102 0.000000 0.000000 0.000000 0.000000 0.000000 0.000000 207.000000 -0.148996 0.621569 0.769060
11.77000046 13.85000038 0.06000000 176 130 102 0.000000 0.000000 0.000000 0.000000 0.000000 0.000000 207.000000 0.015557 0.046672 0.998789
11.78999996 13.86999989 0.04000000 176 130 102 0.000000 0.000000 0.000000 0.000000 0.000000 0.000000 207.000000 0.156162 0.961903 0.224400
11.76000023 13.92000008 0.07000000 176 130 102 0.000000 0.000000 0.000000 0.000000 0.000000 0.000000 207.000000 0.507859 0.602344 0.615842
11.75000000 13.93000031 0.06000000 176 130 102 0.000000 0.000000 0.000000 0.000000 0.000000 0.000000 207.000000 0.472811 0.556347 0.683321
11.75000000 13.93000031 0.06000000 176 130 102 0.000000 0.000000 0.000000 0.000000 0.000000 0.000000 207.000000 0.472811 0.556347 0.683321
11.76000023 13.96000004 0.07000000 176 130 102 0.000000 0.000000 0.000000 0.000000 0.000000 0.000000 207.000000 -0.055958 0.695884 0.715971
11.75000000 13.90999985 0.08000000 176 130 102 0.000000 0.000000 0.000000 0.000000 0.000000 0.000000 207.000000 -0.105741 0.455389 0.883991
11.72999954 13.89000034 0.08000000 176 130 102 0.000000 0.000000 0.000000 0.000000 0.000000 0.000000 207.000000 -0.262323 0.426085 0.865817
11.76000023 13.89000034 0.02000000 176 130 102 0.000000 0.000000 0.000000 0.000000 0.000000 0.000000 207.000000 0.545490 0.830599 0.112007
11.76000023 13.89000034 0.02000000 176 130 102 0.000000 0.000000 0.000000 0.000000 0.000000 0.000000 207.000000 0.545490 0.830599 0.112007
11.76000023 13.89000034 0.01000000 176 130 102 0.000000 0.000000 0.000000 0.000000 0.000000 0.000000 207.000000 0.194942 0.977160 -0.084597
11.68999958 13.92000008 0.03000000 176 130 102 0.000000 0.000000 0.000000 0.000000 0.000000 0.000000 207.000000 0.094829 0.614199 0.783432
11.72000027 13.88000011 0.05000000 176 130 102 0.000000 0.000000 0.000000 0.000000 0.000000 0.000000 207.000000 -0.102573 0.184137 0.977534
11.71000004 13.88000011 0.08000000 176 130 102 0.000000 0.000000 0.000000 0.000000 0.000000 0.000000 207.000000 -0.131891 0.367907 0.920461
11.72000027 13.88000011 0.05000000 176 130 102 0.000000 0.000000 0.000000 0.000000 0.000000 0.000000 207.000000 -0.102573 0.184137 0.977534
11.69999981 13.89999962 0.04000000 176 130 102 0.000000 0.000000 0.000000 0.000000 0.000000 0.000000 207.000000 0.348112 0.697859 0.625948
11.72000027 13.88000011 0.02000000 176 130 102 0.000000 0.000000 0.000000 0.000000 0.000000 0.000000 207.000000 0.324168 0.475973 0.817536
11.71000004 13.89999962 0.04000000 176 130 102 0.000000 0.000000 0.000000 0.000000 0.000000 0.000000 207.000000 -0.189688 0.714028 0.673931
11.69999981 13.89000034 0.04000000 176 130 102 0.000000 0.000000 0.000000 0.000000 0.000000 0.000000 207.000000 0.167373 0.794646 0.583544
11.76000023 13.89999962 0.00000000 176 130 102 0.000000 0.000000 0.000000 0.000000 0.000000 0.000000 207.000000 0.503017 0.847264 0.170640
11.75000000 13.90999985 0.00000000 176 130 102 0.000000 0.000000 0.000000 0.000000 0.000000 0.000000 207.000000 0.495868 0.860942 -0.113547
11.76000023 13.85000038 0.06000000 176 130 102 0.000000 0.000000 0.000000 0.000000 0.000000 0.000000 207.000000 0.076832 0.476360 0.875887
11.72999954 13.85999966 0.05000000 176 130 102 0.000000 0.000000 0.000000 0.000000 0.000000 0.000000 207.000000 -0.265463 0.417156 0.869201
11.76000023 13.86999989 0.09000000 176 130 102 0.000000 0.000000 0.000000 0.000000 0.000000 0.000000 207.000000 0.141540 0.112506 0.983519
11.72999954 13.86999989 0.05000000 176 130 102 0.000000 0.000000 0.000000 0.000000 0.000000 0.000000 207.000000 -0.216791 0.278332 0.935699
11.72999954 13.85999966 0.05000000 176 130 102 0.000000 0.000000 0.000000 0.000000 0.000000 0.000000 207.000000 -0.265463 0.417156 0.869201
11.73999977 13.86999989 0.01000000 176 130 102 0.000000 0.000000 0.000000 0.000000 0.000000 0.000000 207.000000 0.005919 0.971841 0.235562
11.72999954 13.85999966 0.02000000 176 130 102 0.000000 0.000000 0.000000 0.000000 0.000000 0.000000 207.000000 -0.156037 0.649902 0.743828
11.72999954 13.81999969 0.06000000 176 130 102 0.000000 0.000000 0.000000 0.000000 0.000000 0.000000 207.000000 -0.319886 0.111090 0.940921
11.75000000 13.81999969 0.03000000 176 130 102 0.000000 0.000000 0.000000 0.000000 0.000000 0.000000 207.000000 -0.430931 -0.120095 0.894358
11.69999981 13.85999966 0.08000000 176 130 102 0.000000 0.000000 0.000000 0.000000 0.000000 0.000000 207.000000 -0.218783 -0.015374 0.975653
11.71000004 13.86999989 0.08000000 176 130 102 0.000000 0.000000 0.000000 0.000000 0.000000 0.000000 207.000000 -0.173330 0.391067 0.903894
11.71000004 13.85999966 0.08000000 176 130 102 0.000000 0.000000 0.000000 0.000000 0.000000 0.000000 207.000000 -0.220185 -0.115820 0.968558
11.69999981 13.86999989 0.01000000 176 130 102 0.000000 0.000000 0.000000 0.000000 0.000000 0.000000 207.000000 0.219111 0.126854 0.967419
11.68999958 13.86999989 0.04000000 176 130 102 0.000000 0.000000 0.000000 0.000000 0.000000 0.000000 207.000000 -0.135920 0.257324 0.956718
11.64000034 13.93999958 0.02000000 176 130 102 0.000000 0.000000 0.000000 0.000000 0.000000 0.000000 207.000000 0.161652 0.511649 0.843851
11.67000008 13.89000034 0.05000000 176 130 102 0.000000 0.000000 0.000000 0.000000 0.000000 0.000000 207.000000 0.085936 -0.061383 0.994408
11.67000008 13.89999962 0.05000000 176 130 102 0.000000 0.000000 0.000000 0.000000 0.000000 0.000000 207.000000 -0.042324 0.138411 0.989470
11.67000008 13.89000034 0.05000000 176 130 102 0.000000 0.000000 0.000000 0.000000 0.000000 0.000000 207.000000 0.085936 -0.061383 0.994408
11.65999985 13.90999985 0.04000000 176 130 102 0.000000 0.000000 0.000000 0.000000 0.000000 0.000000 207.000000 -0.023833 0.727623 0.685564
11.68000031 13.89999962 0.01000000 176 130 102 0.000000 0.000000 0.000000 0.000000 0.000000 0.000000 207.000000 -0.069917 0.583589 0.809034
11.65999985 13.90999985 0.04000000 176 130 102 0.000000 0.000000 0.000000 0.000000 0.000000 0.000000 207.000000 -0.023833 0.727623 0.685564
11.67000008 13.88000011 0.02000000 176 130 102 0.000000 0.000000 0.000000 0.000000 0.000000 0.000000 207.000000 -0.253554 0.484057 0.837496
11.61999989 13.94999981 0.03000000 176 130 102 0.000000 0.000000 0.000000 0.000000 0.000000 0.000000 207.000000 0.332686 0.347877 0.876528
11.61999989 13.89999962 0.07000000 176 130 102 0.000000 0.000000 0.000000 0.000000 0.000000 0.000000 207.000000 -0.261745 -0.233751 0.936403
11.60999966 13.88000011 0.03000000 176 130 102 0.000000 0.000000 0.000000 0.000000 0.000000 0.000000 207.000000 -0.107932 -0.187330 0.976349
11.60999966 13.89000034 0.03000000 176 130 102 0.000000 0.000000 0.000000 0.000000 0.000000 0.000000 207.000000 -0.088151 -0.061371 0.994215
11.60000038 13.89999962 -0.01000000 176 130 102 0.000000 0.000000 0.000000 0.000000 0.000000 0.000000 207.000000 -0.211384 -0.466245 0.859030
11.67000008 13.84000015 0.07000000 176 130 102 0.000000 0.000000 0.000000 0.000000 0.000000 0.000000 207.000000 -0.095685 -0.161091 0.982290
11.64999962 13.85999966 0.07000000 176 130 102 0.000000 0.000000 0.000000 0.000000 0.000000 0.000000 207.000000 -0.204446 0.253843 0.945392
11.68000031 13.84000015 0.07000000 176 130 102 0.000000 0.000000 0.000000 0.000000 0.000000 0.000000 207.000000 -0.047775 -0.094439 0.994384
11.65999985 13.85000038 0.07000000 176 130 102 0.000000 0.000000 0.000000 0.000000 0.000000 0.000000 207.000000 0.049241 -0.026192 0.998443
11.64999962 13.85000038 0.04000000 176 130 102 0.000000 0.000000 0.000000 0.000000 0.000000 0.000000 207.000000 -0.180062 -0.043544 0.982691
11.68000031 13.81999969 0.05000000 176 130 102 0.000000 0.000000 0.000000 0.000000 0.000000 0.000000 207.000000 0.659600 0.410381 -0.629694
11.68000031 13.82999992 0.04000000 176 130 102 0.000000 0.000000 0.000000 0.000000 0.000000 0.000000 207.000000 -0.205264 -0.388692 0.898212
11.63000011 13.85999966 0.05000000 176 130 102 0.000000 0.000000 0.000000 0.000000 0.000000 0.000000 207.000000 -0.451033 -0.233813 0.861337
11.60999966 13.85999966 0.09000000 176 130 102 0.000000 0.000000 0.000000 0.000000 0.000000 0.000000 207.000000 -0.602936 0.037947 0.796887
11.60000038 13.85000038 0.04000000 176 130 102 0.000000 0.000000 0.000000 0.000000 0.000000 0.000000 207.000000 0.365975 0.781930 -0.504627
11.60000038 13.85000038 0.04000000 176 130 102 0.000000 0.000000 0.000000 0.000000 0.000000 0.000000 207.000000 0.365975 0.781930 -0.504627
11.67000008 13.81999969 0.00000000 176 130 102 0.000000 0.000000 0.000000 0.000000 0.000000 0.000000 207.000000 0.431509 0.849098 -0.304685
11.89999962 13.77999973 0.10000000 176 130 102 0.000000 0.000000 0.000000 0.000000 0.000000 0.000000 207.000000 0.090773 0.168233 0.981559
11.90999985 13.76000023 0.12000000 176 130 102 0.000000 0.000000 0.000000 0.000000 0.000000 0.000000 207.000000 -0.196707 0.270988 0.942269
11.90999985 13.77000046 0.13000000 176 130 102 0.000000 0.000000 0.000000 0.000000 0.000000 0.000000 207.000000 -0.285265 0.031142 0.957943
11.69999981 13.76000023 0.25000000 176 130 102 0.000000 0.000000 0.000000 0.000000 0.000000 0.000000 207.000000 -0.519255 -0.175080 0.836494
11.71000004 13.77000046 0.25000000 176 130 102 0.000000 0.000000 0.000000 0.000000 0.000000 0.000000 207.000000 -0.387591 -0.317120 0.865568
11.68000031 13.76000023 0.23000000 176 130 102 0.000000 0.000000 0.000000 0.000000 0.000000 0.000000 207.000000 -0.419657 -0.265126 0.868099
11.68999958 13.76000023 0.22000000 176 130 102 0.000000 0.000000 0.000000 0.000000 0.000000 0.000000 207.000000 -0.532679 -0.152830 0.832404
11.64000034 13.77000046 0.22000000 176 130 102 0.000000 0.000000 0.000000 0.000000 0.000000 0.000000 207.000000 -0.100527 -0.064383 0.992849
11.64999962 13.77000046 0.23000000 176 130 102 0.000000 0.000000 0.000000 0.000000 0.000000 0.000000 207.000000 -0.066151 -0.186426 0.980239
11.64000034 13.77999973 0.23000000 176 130 102 0.000000 0.000000 0.000000 0.000000 0.000000 0.000000 207.000000 -0.202247 0.131015 0.970531
11.72000027 13.77999973 0.25000000 176 130 102 0.000000 0.000000 0.000000 0.000000 0.000000 0.000000 207.000000 -0.292193 -0.330756 0.897343
11.57999992 13.92000008 0.20999999 176 130 102 0.000000 0.000000 0.000000 0.000000 0.000000 0.000000 207.000000 0.255177 0.079981 0.963581
11.56999969 13.89000034 0.20000000 176 130 102 0.000000 0.000000 0.000000 0.000000 0.000000 0.000000 207.000000 0.179262 0.107557 0.977904
11.51000023 13.93999958 0.20000000 176 130 102 0.000000 0.000000 0.000000 0.000000 0.000000 0.000000 207.000000 -0.038867 0.435582 0.899310
11.51000023 13.93000031 0.19000000 176 130 102 0.000000 0.000000 0.000000 0.000000 0.000000 0.000000 207.000000 -0.087199 -0.295434 0.951375
11.52000046 13.92000008 0.20000000 176 130 102 0.000000 0.000000 0.000000 0.000000 0.000000 0.000000 207.000000 -0.085614 -0.209692 0.974012
11.51000023 13.92000008 0.20000000 176 130 102 0.000000 0.000000 0.000000 0.000000 0.000000 0.000000 207.000000 0.042041 -0.312124 0.949111
11.55000019 13.89000034 0.22000000 176 130 102 0.000000 0.000000 0.000000 0.000000 0.000000 0.000000 207.000000 -0.149262 0.281043 0.948017
11.52999973 13.88000011 0.18000001 176 130 102 0.000000 0.000000 0.000000 0.000000 0.000000 0.000000 207.000000 -0.330637 0.235344 0.913943
11.56000042 13.85999966 0.18000001 176 130 102 0.000000 0.000000 0.000000 0.000000 0.000000 0.000000 207.000000 -0.095976 -0.249537 0.963597
11.59000015 13.85000038 0.20999999 176 130 102 0.000000 0.000000 0.000000 0.000000 0.000000 0.000000 207.000000 -0.417115 0.089480 0.904438
11.56000042 13.86999989 0.18000001 176 130 102 0.000000 0.000000 0.000000 0.000000 0.000000 0.000000 207.000000 -0.160206 -0.378540 0.911615
11.56999969 13.84000015 0.18000001 176 130 102 0.000000 0.000000 0.000000 0.000000 0.000000 0.000000 207.000000 -0.160352 -0.113838 0.980473
11.57999992 13.86999989 0.20000000 176 130 102 0.000000 0.000000 0.000000 0.000000 0.000000 0.000000 207.000000 0.104143 -0.023021 0.994296
11.56000042 13.85000038 0.22000000 176 130 102 0.000000 0.000000 0.000000 0.000000 0.000000 0.000000 207.000000 -0.187014 0.163799 0.968605
11.59000015 13.82999992 0.23999999 176 130 102 0.000000 0.000000 0.000000 0.000000 0.000000 0.000000 207.000000 -0.348959 -0.121794 0.929190
11.59000015 13.78999996 0.22000000 176 130 102 0.000000 0.000000 0.000000 0.000000 0.000000 0.000000 207.000000 0.005932 -0.236105 0.971709
11.52000046 13.85999966 0.18000001 176 130 102 0.000000 0.000000 0.000000 0.000000 0.000000 0.000000 207.000000 -0.341851 0.106744 0.933672
11.55000019 13.86999989 0.19000000 176 130 102 0.000000 0.000000 0.000000 0.000000 0.000000 0.000000 207.000000 -0.127155 0.012163 0.991808
11.52999973 13.86999989 0.19000000 176 130 102 0.000000 0.000000 0.000000 0.000000 0.000000 0.000000 207.000000 -0.184266 0.238066 0.953609
11.53999996 13.86999989 0.22000000 176 130 102 0.000000 0.000000 0.000000 0.000000 0.000000 0.000000 207.000000 -0.021827 0.042615 0.998853
11.51000023 13.85999966 0.20000000 176 130 102 0.000000 0.000000 0.000000 0.000000 0.000000 0.000000 207.000000 0.065312 -0.115727 0.991131
11.51000023 13.84000015 0.20000000 176 130 102 0.000000 0.000000 0.000000 0.000000 0.000000 0.000000 207.000000 -0.109854 -0.141241 0.983861
11.53999996 13.85999966 0.19000000 176 130 102 0.000000 0.000000 0.000000 0.000000 0.000000 0.000000 207.000000 -0.091290 -0.388324 0.916990
11.52999973 13.85999966 0.19000000 176 130 102 0.000000 0.000000 0.000000 0.000000 0.000000 0.000000 207.000000 -0.224576 -0.138899 0.964507
11.50000000 13.92000008 0.20000000 176 130 102 0.000000 0.000000 0.000000 0.000000 0.000000 0.000000 207.000000 -0.258851 -0.058773 0.964127
11.47000027 13.93000031 0.18000001 176 130 102 0.000000 0.000000 0.000000 0.000000 0.000000 0.000000 207.000000 -0.297412 -0.023644 0.954456
11.47999954 13.92000008 0.18000001 176 130 102 0.000000 0.000000 0.000000 0.000000 0.000000 0.000000 207.000000 -0.560978 0.066749 0.825135
11.48999977 13.94999981 0.20000000 176 130 102 0.000000 0.000000 0.000000 0.000000 0.000000 0.000000 207.000000 -0.469172 0.205356 0.858899
11.47000027 13.89000034 0.18000001 176 130 102 0.000000 0.000000 0.000000 0.000000 0.000000 0.000000 207.000000 0.071360 -0.058186 0.995752
11.47999954 13.89000034 0.18000001 176 130 102 0.000000 0.000000 0.000000 0.000000 0.000000 0.000000 207.000000 -0.224838 -0.466274 0.855591
11.43999958 13.93999958 0.18000001 176 130 102 0.000000 0.000000 0.000000 0.000000 0.000000 0.000000 207.000000 0.185289 -0.024472 0.982379
11.46000004 13.88000011 0.18000001 176 130 102 0.000000 0.000000 0.000000 0.000000 0.000000 0.000000 207.000000 0.017563 -0.040292 0.999034
11.44999981 13.88000011 0.18000001 176 130 102 0.000000 0.000000 0.000000 0.000000 0.000000 0.000000 207.000000 -0.220778 0.025061 0.975002
11.46000004 13.89000034 0.18000001 176 130 102 0.000000 0.000000 0.000000 0.000000 0.000000 0.000000 207.000000 -0.060269 -0.064652 0.996086
11.43000031 13.89000034 0.16000000 176 130 102 0.000000 0.000000 0.000000 0.000000 0.000000 0.000000 207.000000 -0.305658 0.021209 0.951905
11.44999981 13.86999989 0.19000000 176 130 102 0.000000 0.000000 0.000000 0.000000 0.000000 0.000000 207.000000 -0.106085 0.020780 0.994140
11.48999977 13.86999989 0.20000000 176 130 102 0.000000 0.000000 0.000000 0.000000 0.000000 0.000000 207.000000 -0.320242 -0.247789 0.914355
11.48999977 13.85000038 0.19000000 176 130 102 0.000000 0.000000 0.000000 0.000000 0.000000 0.000000 207.000000 -0.458263 -0.006603 0.888792
10.96000004 14.10000038 0.10000000 176 130 102 0.000000 0.000000 0.000000 0.000000 0.000000 0.000000 207.000000 -0.001333 -0.497143 0.867668
10.97000027 14.10000038 0.10000000 176 130 102 0.000000 0.000000 0.000000 0.000000 0.000000 0.000000 207.000000 -0.008119 -0.198340 0.980100
11.30000019 14.15999985 -0.07000000 176 130 102 0.000000 0.000000 0.000000 0.000000 0.000000 0.000000 207.000000 0.503128 0.657937 0.560340
11.26000023 14.14999962 -0.06000000 176 130 102 0.000000 0.000000 0.000000 0.000000 0.000000 0.000000 207.000000 0.377518 0.560557 0.737059
11.35999966 14.18000031 -0.15000001 176 130 102 0.000000 0.000000 0.000000 0.000000 0.000000 0.000000 207.000000 0.292252 0.823619 -0.486045
11.35000038 14.18000031 -0.16000000 176 130 102 0.000000 0.000000 0.000000 0.000000 0.000000 0.000000 207.000000 0.459335 0.769917 -0.442989
11.35000038 14.14000034 -0.15000001 176 130 102 0.000000 0.000000 0.000000 0.000000 0.000000 0.000000 207.000000 0.464778 0.876642 -0.124417
11.35999966 14.14000034 -0.13000000 176 130 102 0.000000 0.000000 0.000000 0.000000 0.000000 0.000000 207.000000 -0.265259 -0.703651 0.659176
11.35999966 14.14000034 -0.13000000 176 130 102 0.000000 0.000000 0.000000 0.000000 0.000000 0.000000 207.000000 -0.265259 -0.703651 0.659176
11.27000046 14.23999977 -0.16000000 176 130 102 0.000000 0.000000 0.000000 0.000000 0.000000 0.000000 207.000000 0.710387 0.567978 -0.415634
11.32999992 14.18999958 -0.12000000 176 130 102 0.000000 0.000000 0.000000 0.000000 0.000000 0.000000 207.000000 0.541826 0.801028 0.254518
11.32999992 14.19999981 -0.11000000 176 130 102 0.000000 0.000000 0.000000 0.000000 0.000000 0.000000 207.000000 0.523912 0.851185 -0.031627
11.31999969 14.19999981 -0.10000000 176 130 102 0.000000 0.000000 0.000000 0.000000 0.000000 0.000000 207.000000 0.672103 0.733872 0.098536
11.31000042 14.18999958 -0.13000000 176 130 102 0.000000 0.000000 0.000000 0.000000 0.000000 0.000000 207.000000 0.471692 0.652983 -0.592553
11.31999969 14.17000008 -0.12000000 176 130 102 0.000000 0.000000 0.000000 0.000000 0.000000 0.000000 207.000000 0.563578 0.783358 -0.262166
11.30000019 14.17000008 -0.13000000 176 130 102 0.000000 0.000000 0.000000 0.000000 0.000000 0.000000 207.000000 0.307882 0.944971 -0.110624
11.32999992 14.14999962 -0.16000000 176 130 102 0.000000 0.000000 0.000000 0.000000 0.000000 0.000000 207.000000 0.481165 0.800877 -0.356478
11.26000023 14.21000004 -0.12000000 176 130 102 0.000000 0.000000 0.000000 0.000000 0.000000 0.000000 207.000000 0.175918 0.969477 0.170782
11.26000023 14.21000004 -0.12000000 176 130 102 0.000000 0.000000 0.000000 0.000000 0.000000 0.000000 207.000000 0.175918 0.969477 0.170782
11.26000023 14.21000004 -0.11000000 176 130 102 0.000000 0.000000 0.000000 0.000000 0.000000 0.000000 207.000000 0.198152 0.938106 0.284065
11.27000046 14.21000004 -0.11000000 176 130 102 0.000000 0.000000 0.000000 0.000000 0.000000 0.000000 207.000000 0.294404 0.940723 0.168426
11.27000046 14.19999981 -0.12000000 176 130 102 0.000000 0.000000 0.000000 0.000000 0.000000 0.000000 207.000000 0.672999 0.726958 0.136398
11.27000046 14.19999981 -0.14000000 176 130 102 0.000000 0.000000 0.000000 0.000000 0.000000 0.000000 207.000000 0.670310 0.732733 -0.117416
11.27000046 14.19999981 -0.13000000 176 130 102 0.000000 0.000000 0.000000 0.000000 0.000000 0.000000 207.000000 0.671533 0.731093 -0.120608
11.27999973 14.17000008 -0.09000000 176 130 102 0.000000 0.000000 0.000000 0.000000 0.000000 0.000000 207.000000 0.653288 0.752227 0.085844
11.28999996 14.17000008 -0.09000000 176 130 102 0.000000 0.000000 0.000000 0.000000 0.000000 0.000000 207.000000 0.557961 0.782410 0.276610
11.27999973 14.17000008 -0.09000000 176 130 102 0.000000 0.000000 0.000000 0.000000 0.000000 0.000000 207.000000 0.653288 0.752227 0.085844
11.28999996 14.15999985 -0.10000000 176 130 102 0.000000 0.000000 0.000000 0.000000 0.000000 0.000000 207.000000 0.516807 0.854880 0.045723
11.27999973 14.14000034 -0.10000000 176 130 102 0.000000 0.000000 0.000000 0.000000 0.000000 0.000000 207.000000 0.418714 0.891036 0.175309
11.27999973 14.17000008 -0.11000000 176 130 102 0.000000 0.000000 0.000000 0.000000 0.000000 0.000000 207.000000 0.309332 0.941504 -0.133729
11.47000027 13.97000027 0.01000000 176 130 102 0.000000 0.000000 0.000000 0.000000 0.000000 0.000000 207.000000 0.110122 0.034483 0.993320
11.48999977 13.98999977 0.02000000 176 130 102 0.000000 0.000000 0.000000 0.000000 0.000000 0.000000 207.000000 -0.104588 0.027523 0.994135
11.43000031 14.01000023 0.06000000 176 130 102 0.000000 0.000000 0.000000 0.000000 0.000000 0.000000 207.000000 -0.106932 -0.109282 0.988242
11.46000004 13.97000027 0.03000000 176 130 102 0.000000 0.000000 0.000000 0.000000 0.000000 0.000000 207.000000 -0.101836 -0.212473 0.971846
11.47000027 13.97000027 -0.01000000 176 130 102 0.000000 0.000000 0.000000 0.000000 0.000000 0.000000 207.000000 -0.358956 -0.161882 0.919209
11.46000004 13.97000027 -0.03000000 176 130 102 0.000000 0.000000 0.000000 0.000000 0.000000 0.000000 207.000000 -0.087495 0.301663 0.949391
11.44999981 13.97000027 0.00000000 176 130 102 0.000000 0.000000 0.000000 0.000000 0.000000 0.000000 207.000000 -0.578002 -0.061067 0.813747
11.44999981 13.97000027 -0.02000000 176 130 102 0.000000 0.000000 0.000000 0.000000 0.000000 0.000000 207.000000 0.130759 0.063644 0.989369
11.44999981 13.97000027 0.00000000 176 130 102 0.000000 0.000000 0.000000 0.000000 0.000000 0.000000 207.000000 -0.578002 -0.061067 0.813747
11.56999969 13.96000004 0.03000000 176 130 102 0.000000 0.000000 0.000000 0.000000 0.000000 0.000000 207.000000 0.142872 0.403153 0.903911
11.57999992 13.93000031 0.03000000 176 130 102 0.000000 0.000000 0.000000 0.000000 0.000000 0.000000 207.000000 -0.049796 0.426629 0.903055
11.59000015 13.93999958 0.01000000 176 130 102 0.000000 0.000000 0.000000 0.000000 0.000000 0.000000 207.000000 0.398107 0.609549 0.685537
11.59000015 13.93999958 0.01000000 176 130 102 0.000000 0.000000 0.000000 0.000000 0.000000 0.000000 207.000000 0.398107 0.609549 0.685537
11.57999992 13.92000008 0.03000000 176 130 102 0.000000 0.000000 0.000000 0.000000 0.000000 0.000000 207.000000 -0.158384 0.003370 0.987372
11.56999969 13.90999985 0.05000000 176 130 102 0.000000 0.000000 0.000000 0.000000 0.000000 0.000000 207.000000 -0.135634 -0.061441 0.988852
11.57999992 13.89000034 0.05000000 176 130 102 0.000000 0.000000 0.000000 0.000000 0.000000 0.000000 207.000000 -0.058898 0.085568 0.994590
11.59000015 13.89000034 0.03000000 176 130 102 0.000000 0.000000 0.000000 0.000000 0.000000 0.000000 207.000000 -0.270820 -0.085995 0.958781
11.52999973 13.92000008 0.07000000 176 130 102 0.000000 0.000000 0.000000 0.000000 0.000000 0.000000 207.000000 0.100667 -0.195120 0.975599
11.52000046 13.93000031 0.08000000 176 130 102 0.000000 0.000000 0.000000 0.000000 0.000000 0.000000 207.000000 0.084554 0.151244 0.984874
11.52999973 13.93999958 0.07000000 176 130 102 0.000000 0.000000 0.000000 0.000000 0.000000 0.000000 207.000000 0.033432 0.434618 0.899994
11.52000046 13.93999958 0.01000000 176 130 102 0.000000 0.000000 0.000000 0.000000 0.000000 0.000000 207.000000 -0.330442 -0.285988 0.899455
11.55000019 13.94999981 0.03000000 176 130 102 0.000000 0.000000 0.000000 0.000000 0.000000 0.000000 207.000000 0.176412 0.481798 0.858341
11.52000046 13.89999962 0.01000000 176 130 102 0.000000 0.000000 0.000000 0.000000 0.000000 0.000000 207.000000 -0.417211 -0.430098 0.800594
11.52999973 13.89999962 0.01000000 176 130 102 0.000000 0.000000 0.000000 0.000000 0.000000 0.000000 207.000000 -0.267635 -0.250642 0.930350
11.56999969 13.90999985 -0.03000000 176 130 102 0.000000 0.000000 0.000000 0.000000 0.000000 0.000000 207.000000 0.116230 0.903235 -0.413107
11.53999996 13.93000031 -0.04000000 176 130 102 0.000000 0.000000 0.000000 0.000000 0.000000 0.000000 207.000000 0.445417 0.889428 0.102572
11.55000019 13.89000034 -0.01000000 176 130 102 0.000000 0.000000 0.000000 0.000000 0.000000 0.000000 207.000000 0.388532 0.838412 -0.382240
11.52000046 13.88000011 0.00000000 176 130 102 0.000000 0.000000 0.000000 0.000000 0.000000 0.000000 207.000000 0.729337 0.385155 -0.565441
11.53999996 13.85999966 0.06000000 176 130 102 0.000000 0.000000 0.000000 0.000000 0.000000 0.000000 207.000000 -0.172593 -0.691898 0.701062
11.52999973 13.85999966 0.05000000 176 130 102 0.000000 0.000000 0.000000 0.000000 0.000000 0.000000 207.000000 -0.216347 -0.655268 0.723752
11.52999973 13.84000015 0.08000000 176 130 102 0.000000 0.000000 0.000000 0.000000 0.000000 0.000000 207.000000 0.586865 0.637312 -0.499424
11.51000023 13.84000015 0.07000000 176 130 102 0.000000 0.000000 0.000000 0.000000 0.000000 0.000000 207.000000 -0.503429 -0.483491 0.716098
11.52999973 13.85000038 0.05000000 176 130 102 0.000000 0.000000 0.000000 0.000000 0.000000 0.000000 207.000000 -0.185453 -0.639123 0.746410
11.53999996 13.86999989 0.03000000 176 130 102 0.000000 0.000000 0.000000 0.000000 0.000000 0.000000 207.000000 -0.075010 -0.525067 0.847749
11.53999996 13.86999989 0.03000000 176 130 102 0.000000 0.000000 0.000000 0.000000 0.000000 0.000000 207.000000 -0.075010 -0.525067 0.847749
11.53999996 13.86999989 0.00000000 176 130 102 0.000000 0.000000 0.000000 0.000000 0.000000 0.000000 207.000000 0.206375 0.940459 -0.270088
11.52999973 13.86999989 -0.01000000 176 130 102 0.000000 0.000000 0.000000 0.000000 0.000000 0.000000 207.000000 0.598727 0.751188 -0.277924
11.52999973 13.86999989 -0.01000000 176 130 102 0.000000 0.000000 0.000000 0.000000 0.000000 0.000000 207.000000 0.598727 0.751188 -0.277924
11.47000027 13.94999981 0.02000000 176 130 102 0.000000 0.000000 0.000000 0.000000 0.000000 0.000000 207.000000 -0.251877 -0.027986 0.967354
11.48999977 13.96000004 0.02000000 176 130 102 0.000000 0.000000 0.000000 0.000000 0.000000 0.000000 207.000000 -0.020982 0.118161 0.992773
11.47000027 13.93999958 0.01000000 176 130 102 0.000000 0.000000 0.000000 0.000000 0.000000 0.000000 207.000000 -0.210242 -0.366837 0.906217
11.47999954 13.94999981 0.02000000 176 130 102 0.000000 0.000000 0.000000 0.000000 0.000000 0.000000 207.000000 -0.052023 0.290565 0.955440
11.47999954 13.94999981 0.02000000 176 130 102 0.000000 0.000000 0.000000 0.000000 0.000000 0.000000 207.000000 -0.052023 0.290565 0.955440
11.50000000 13.90999985 0.07000000 176 130 102 0.000000 0.000000 0.000000 0.000000 0.000000 0.000000 207.000000 -0.565116 -0.190403 0.802739
11.48999977 13.89999962 0.02000000 176 130 102 0.000000 0.000000 0.000000 0.000000 0.000000 0.000000 207.000000 -0.445280 -0.264719 0.855365
11.44999981 13.96000004 0.02000000 176 130 102 0.000000 0.000000 0.000000 0.000000 0.000000 0.000000 207.000000 0.138166 -0.188869 0.972234
11.50000000 13.93999958 0.00000000 176 130 102 0.000000 0.000000 0.000000 0.000000 0.000000 0.000000 207.000000 -0.444554 -0.009234 0.895704
11.48999977 13.93000031 -0.03000000 176 130 102 0.000000 0.000000 0.000000 0.000000 0.000000 0.000000 207.000000 0.257905 0.723084 -0.640808
11.47999954 13.94999981 -0.02000000 176 130 102 0.000000 0.000000 0.000000 0.000000 0.000000 0.000000 207.000000 -0.047691 -0.459197 0.887054
11.44999981 13.96000004 0.00000000 176 130 102 0.000000 0.000000 0.000000 0.000000 0.000000 0.000000 207.000000 -0.457226 0.019995 0.889126
11.44999981 13.94999981 -0.03000000 176 130 102 0.000000 0.000000 0.000000 0.000000 0.000000 0.000000 207.000000 -0.057980 -0.567075 0.821623
11.44999981 13.96000004 0.00000000 176 130 102 0.000000 0.000000 0.000000 0.000000 0.000000 0.000000 207.000000 -0.457226 0.019995 0.889126
11.46000004 13.94999981 -0.03000000 176 130 102 0.000000 0.000000 0.000000 0.000000 0.000000 0.000000 207.000000 -0.096610 -0.376915 0.921196
11.43999958 13.89000034 -0.01000000 176 130 102 0.000000 0.000000 0.000000 0.000000 0.000000 0.000000 207.000000 0.417660 0.873015 -0.251802
11.46000004 13.88000011 -0.04000000 176 130 102 0.000000 0.000000 0.000000 0.000000 0.000000 0.000000 207.000000 0.156160 0.932816 -0.324758
11.46000004 13.84000015 0.05000000 176 130 102 0.000000 0.000000 0.000000 0.000000 0.000000 0.000000 207.000000 0.542929 0.522758 -0.657230
11.46000004 13.84000015 0.05000000 176 130 102 0.000000 0.000000 0.000000 0.000000 0.000000 0.000000 207.000000 0.542929 0.522758 -0.657230
11.43000031 13.85999966 0.03000000 176 130 102 0.000000 0.000000 0.000000 0.000000 0.000000 0.000000 207.000000 0.687192 0.533368 -0.493240
11.43000031 13.85999966 -0.02000000 176 130 102 0.000000 0.000000 0.000000 0.000000 0.000000 0.000000 207.000000 0.104304 0.930608 -0.350841
11.39000034 14.06000042 -0.04000000 176 130 102 0.000000 0.000000 0.000000 0.000000 0.000000 0.000000 207.000000 0.184924 0.868401 0.460090
11.39000034 14.06000042 -0.05000000 176 130 102 0.000000 0.000000 0.000000 0.000000 0.000000 0.000000 207.000000 0.224861 0.877107 0.424407
11.34000015 14.09000015 -0.03000000 176 130 102 0.000000 0.000000 0.000000 0.000000 0.000000 0.000000 207.000000 0.219921 0.666002 0.712794
11.35000038 14.09000015 -0.04000000 176 130 102 0.000000 0.000000 0.000000 0.000000 0.000000 0.000000 207.000000 0.496893 0.587850 0.638381
11.34000015 14.10999966 -0.05000000 176 130 102 0.000000 0.000000 0.000000 0.000000 0.000000 0.000000 207.000000 0.085894 0.639106 0.764307
11.35000038 14.09000015 -0.04000000 176 130 102 0.000000 0.000000 0.000000 0.000000 0.000000 0.000000 207.000000 0.496893 0.587850 0.638381
11.35000038 14.07999992 -0.01000000 176 130 102 0.000000 0.000000 0.000000 0.000000 0.000000 0.000000 207.000000 0.344127 0.650743 0.676838
11.35999966 14.07999992 -0.03000000 176 130 102 0.000000 0.000000 0.000000 0.000000 0.000000 0.000000 207.000000 0.434403 0.776067 0.457180
11.34000015 14.05000019 -0.01000000 176 130 102 0.000000 0.000000 0.000000 0.000000 0.000000 0.000000 207.000000 0.034511 0.036603 0.998734
11.35999966 14.05000019 -0.04000000 176 130 102 0.000000 0.000000 0.000000 0.000000 0.000000 0.000000 207.000000 0.386280 0.309940 0.868749
11.36999989 14.06999969 -0.05000000 176 130 102 0.000000 0.000000 0.000000 0.000000 0.000000 0.000000 207.000000 0.359197 0.850566 0.384076
11.35999966 14.05000019 -0.04000000 176 130 102 0.000000 0.000000 0.000000 0.000000 0.000000 0.000000 207.000000 0.386280 0.309940 0.868749
11.38000011 14.06999969 -0.05000000 176 130 102 0.000000 0.000000 0.000000 0.000000 0.000000 0.000000 207.000000 0.415139 0.753157 0.510309
11.35999966 14.05000019 -0.04000000 176 130 102 0.000000 0.000000 0.000000 0.000000 0.000000 0.000000 207.000000 0.386280 0.309940 0.868749
11.38000011 14.06999969 -0.05000000 176 130 102 0.000000 0.000000 0.000000 0.000000 0.000000 0.000000 207.000000 0.415139 0.753157 0.510309
11.36999989 14.06999969 -0.05000000 176 130 102 0.000000 0.000000 0.000000 0.000000 0.000000 0.000000 207.000000 0.359197 0.850566 0.384076
11.40999985 14.01000023 0.05000000 176 130 102 0.000000 0.000000 0.000000 0.000000 0.000000 0.000000 207.000000 0.165714 0.178560 0.969874
11.39000034 14.01000023 0.03000000 176 130 102 0.000000 0.000000 0.000000 0.000000 0.000000 0.000000 207.000000 -0.437717 0.099290 0.893614
11.39999962 14.02000046 0.02000000 176 130 102 0.000000 0.000000 0.000000 0.000000 0.000000 0.000000 207.000000 -0.202765 0.171369 0.964116
11.42000008 14.01000023 0.02000000 176 130 102 0.000000 0.000000 0.000000 0.000000 0.000000 0.000000 207.000000 0.263570 0.136421 0.954945
11.42000008 13.98999977 0.05000000 176 130 102 0.000000 0.000000 0.000000 0.000000 0.000000 0.000000 207.000000 -0.024290 -0.058086 0.998016
11.39000034 13.98999977 -0.01000000 176 130 102 0.000000 0.000000 0.000000 0.000000 0.000000 0.000000 207.000000 -0.267837 0.083299 0.959857
11.39999962 14.00000000 -0.04000000 176 130 102 0.000000 0.000000 0.000000 0.000000 0.000000 0.000000 207.000000 -0.046293 0.007201 0.998902
11.39000034 14.00000000 -0.04000000 176 130 102 0.000000 0.000000 0.000000 0.000000 0.000000 0.000000 207.000000 -0.127340 0.225095 0.965980
11.34000015 14.02000046 -0.01000000 176 130 102 0.000000 0.000000 0.000000 0.000000 0.000000 0.000000 207.000000 -0.362607 -0.242228 0.899912
11.36999989 14.02000046 -0.03000000 176 130 102 0.000000 0.000000 0.000000 0.000000 0.000000 0.000000 207.000000 0.247654 0.293463 0.923335
11.34000015 14.02000046 -0.01000000 176 130 102 0.000000 0.000000 0.000000 0.000000 0.000000 0.000000 207.000000 -0.362607 -0.242228 0.899912
11.35000038 14.01000023 -0.01000000 176 130 102 0.000000 0.000000 0.000000 0.000000 0.000000 0.000000 207.000000 -0.050044 -0.434167 0.899442
11.38000011 14.01000023 -0.03000000 176 130 102 0.000000 0.000000 0.000000 0.000000 0.000000 0.000000 207.000000 0.182356 -0.041177 0.982370
11.38000011 14.02000046 -0.03000000 176 130 102 0.000000 0.000000 0.000000 0.000000 0.000000 0.000000 207.000000 -0.186031 0.253925 0.949165
11.34000015 14.02999973 -0.04000000 176 130 102 0.000000 0.000000 0.000000 0.000000 0.000000 0.000000 207.000000 -0.244204 0.414997 0.876437
11.35000038 14.02999973 -0.06000000 176 130 102 0.000000 0.000000 0.000000 0.000000 0.000000 0.000000 207.000000 -0.207103 0.104179 0.972756
11.35000038 14.02999973 -0.06000000 176 130 102 0.000000 0.000000 0.000000 0.000000 0.000000 0.000000 207.000000 -0.207103 0.104179 0.972756
11.34000015 14.02999973 -0.06000000 176 130 102 0.000000 0.000000 0.000000 0.000000 0.000000 0.000000 207.000000 -0.068632 -0.091134 0.993471
11.35999966 14.00000000 -0.03000000 176 130 102 0.000000 0.000000 0.000000 0.000000 0.000000 0.000000 207.000000 -0.420421 -0.321133 0.848599
11.35999966 13.97000027 -0.01000000 176 130 102 0.000000 0.000000 0.000000 0.000000 0.000000 0.000000 207.000000 -0.117452 -0.325356 0.938269
11.36999989 13.97999954 -0.04000000 176 130 102 0.000000 0.000000 0.000000 0.000000 0.000000 0.000000 207.000000 -0.523524 -0.204857 0.827016
11.35999966 13.98999977 -0.04000000 176 130 102 0.000000 0.000000 0.000000 0.000000 0.000000 0.000000 207.000000 0.445806 0.619454 -0.646169
11.30000019 14.10999966 -0.03000000 176 130 102 0.000000 0.000000 0.000000 0.000000 0.000000 0.000000 207.000000 0.077745 0.407818 0.909747
11.32999992 14.11999989 -0.06000000 176 130 102 0.000000 0.000000 0.000000 0.000000 0.000000 0.000000 207.000000 0.213020 0.663938 0.716804
11.32999992 14.10999966 -0.05000000 176 130 102 0.000000 0.000000 0.000000 0.000000 0.000000 0.000000 207.000000 0.276003 0.681234 0.678043
11.31000042 14.07999992 -0.02000000 176 130 102 0.000000 0.000000 0.000000 0.000000 0.000000 0.000000 207.000000 0.118909 0.305956 0.944591
11.31000042 14.05000019 -0.01000000 176 130 102 0.000000 0.000000 0.000000 0.000000 0.000000 0.000000 207.000000 -0.121163 0.454719 0.882355
11.30000019 14.06999969 -0.02000000 176 130 102 0.000000 0.000000 0.000000 0.000000 0.000000 0.000000 207.000000 -0.059453 -0.009387 0.998187
11.31000042 14.07999992 -0.02000000 176 130 102 0.000000 0.000000 0.000000 0.000000 0.000000 0.000000 207.000000 0.118909 0.305956 0.944591
11.31000042 14.06999969 -0.04000000 176 130 102 0.000000 0.000000 0.000000 0.000000 0.000000 0.000000 207.000000 -0.394280 0.429398 0.812503
11.27999973 14.09000015 -0.07000000 176 130 102 0.000000 0.000000 0.000000 0.000000 0.000000 0.000000 207.000000 0.162493 0.666675 0.727420
11.26000023 14.06999969 -0.02000000 176 130 102 0.000000 0.000000 0.000000 0.000000 0.000000 0.000000 207.000000 0.149466 0.134643 0.979557
11.26000023 14.06999969 -0.02000000 176 130 102 0.000000 0.000000 0.000000 0.000000 0.000000 0.000000 207.000000 0.149466 0.134643 0.979557
11.27999973 14.06999969 -0.02000000 176 130 102 0.000000 0.000000 0.000000 0.000000 0.000000 0.000000 207.000000 0.176820 -0.110049 0.978072
11.31000042 14.03999996 -0.01000000 176 130 102 0.000000 0.000000 0.000000 0.000000 0.000000 0.000000 207.000000 -0.181365 0.297661 0.937286
11.31000042 14.03999996 -0.01000000 176 130 102 0.000000 0.000000 0.000000 0.000000 0.000000 0.000000 207.000000 -0.181365 0.297661 0.937286
11.31000042 14.03999996 -0.01000000 176 130 102 0.000000 0.000000 0.000000 0.000000 0.000000 0.000000 207.000000 -0.181365 0.297661 0.937286
11.30000019 14.02000046 -0.01000000 176 130 102 0.000000 0.000000 0.000000 0.000000 0.000000 0.000000 207.000000 0.112813 -0.216753 0.969686
11.30000019 14.01000023 -0.07000000 176 130 102 0.000000 0.000000 0.000000 0.000000 0.000000 0.000000 207.000000 0.542271 0.555785 -0.630115
11.28999996 14.01000023 -0.07000000 176 130 102 0.000000 0.000000 0.000000 0.000000 0.000000 0.000000 207.000000 0.534970 0.595724 -0.599099
11.34000015 14.11999989 -0.17000000 176 130 102 0.000000 0.000000 0.000000 0.000000 0.000000 0.000000 207.000000 -0.140528 -0.476636 0.867796
11.35000038 14.11999989 -0.17000000 176 130 102 0.000000 0.000000 0.000000 0.000000 0.000000 0.000000 207.000000 -0.111061 -0.667848 0.735965
11.35000038 14.11999989 -0.17000000 176 130 102 0.000000 0.000000 0.000000 0.000000 0.000000 0.000000 207.000000 -0.111061 -0.667848 0.735965
11.34000015 14.03999996 -0.09000000 176 130 102 0.000000 0.000000 0.000000 0.000000 0.000000 0.000000 207.000000 -0.204732 -0.598803 0.774287
11.30000019 14.10000038 -0.09000000 176 130 102 0.000000 0.000000 0.000000 0.000000 0.000000 0.000000 207.000000 0.335134 0.919835 0.203932
11.31000042 14.10000038 -0.09000000 176 130 102 0.000000 0.000000 0.000000 0.000000 0.000000 0.000000 207.000000 0.056671 0.977876 0.201363
11.31000042 14.11999989 -0.15000001 176 130 102 0.000000 0.000000 0.000000 0.000000 0.000000 0.000000 207.000000 0.090077 0.839289 -0.536172
11.28999996 14.13000011 -0.08000000 176 130 102 0.000000 0.000000 0.000000 0.000000 0.000000 0.000000 207.000000 0.606027 0.753992 0.253430
11.28999996 14.10999966 -0.09000000 176 130 102 0.000000 0.000000 0.000000 0.000000 0.000000 0.000000 207.000000 0.359841 0.927439 0.101842
11.28999996 14.11999989 -0.16000000 176 130 102 0.000000 0.000000 0.000000 0.000000 0.000000 0.000000 207.000000 -0.510503 -0.334468 0.792160
11.27999973 14.07999992 -0.12000000 176 130 102 0.000000 0.000000 0.000000 0.000000 0.000000 0.000000 207.000000 -0.321563 -0.171222 0.931279
11.27999973 14.07999992 -0.09000000 176 130 102 0.000000 0.000000 0.000000 0.000000 0.000000 0.000000 207.000000 0.228692 0.904572 0.359790
11.32999992 14.13000011 -0.17000000 176 130 102 0.000000 0.000000 0.000000 0.000000 0.000000 0.000000 207.000000 -0.330488 -0.376603 0.865418
11.28999996 14.07999992 -0.19000000 176 130 102 0.000000 0.000000 0.000000 0.000000 0.000000 0.000000 207.000000 -0.016117 -0.301270 0.953403
11.27000046 14.09000015 -0.18000001 176 130 102 0.000000 0.000000 0.000000 0.000000 0.000000 0.000000 207.000000 0.076022 -0.022485 0.996853
11.32999992 14.11999989 -0.19000000 176 130 102 0.000000 0.000000 0.000000 0.000000 0.000000 0.000000 207.000000 -0.135650 -0.603715 0.785575
11.30000019 14.11999989 -0.19000000 176 130 102 0.000000 0.000000 0.000000 0.000000 0.000000 0.000000 207.000000 -0.606554 -0.242935 0.757017
11.32999992 14.02000046 -0.14000000 176 130 102 0.000000 0.000000 0.000000 0.000000 0.000000 0.000000 207.000000 -0.065695 0.231790 0.970545
11.31999969 14.02999973 -0.13000000 176 130 102 0.000000 0.000000 0.000000 0.000000 0.000000 0.000000 207.000000 -0.273314 -0.080839 0.958522
11.31000042 14.01000023 -0.14000000 176 130 102 0.000000 0.000000 0.000000 0.000000 0.000000 0.000000 207.000000 0.009739 0.685896 0.727634
11.30000019 14.03999996 -0.14000000 176 130 102 0.000000 0.000000 0.000000 0.000000 0.000000 0.000000 207.000000 -0.208529 0.322014 0.923484
11.31999969 14.02000046 -0.14000000 176 130 102 0.000000 0.000000 0.000000 0.000000 0.000000 0.000000 207.000000 0.020699 0.101316 0.994639
11.31999969 14.01000023 -0.13000000 176 130 102 0.000000 0.000000 0.000000 0.000000 0.000000 0.000000 207.000000 -0.009511 0.843735 0.536675
11.31999969 14.03999996 -0.13000000 176 130 102 0.000000 0.000000 0.000000 0.000000 0.000000 0.000000 207.000000 -0.200998 -0.162095 0.966087
11.27999973 14.02000046 -0.09000000 176 130 102 0.000000 0.000000 0.000000 0.000000 0.000000 0.000000 207.000000 0.253463 0.964671 -0.071877
11.26000023 14.02999973 -0.08000000 176 130 102 0.000000 0.000000 0.000000 0.000000 0.000000 0.000000 207.000000 0.610361 0.769452 -0.188156
11.28999996 14.01000023 -0.12000000 176 130 102 0.000000 0.000000 0.000000 0.000000 0.000000 0.000000 207.000000 0.399905 0.876773 0.267106
11.27000046 14.02000046 -0.12000000 176 130 102 0.000000 0.000000 0.000000 0.000000 0.000000 0.000000 207.000000 0.079478 0.775996 0.625710
11.26000023 14.01000023 -0.13000000 176 130 102 0.000000 0.000000 0.000000 0.000000 0.000000 0.000000 207.000000 0.257772 0.927126 0.272014
11.28999996 14.03999996 -0.14000000 176 130 102 0.000000 0.000000 0.000000 0.000000 0.000000 0.000000 207.000000 -0.032559 0.227910 0.973138
11.27999973 14.01000023 -0.13000000 176 130 102 0.000000 0.000000 0.000000 0.000000 0.000000 0.000000 207.000000 0.329349 0.400477 0.855072
11.27000046 13.97999954 -0.08000000 176 130 102 0.000000 0.000000 0.000000 0.000000 0.000000 0.000000 207.000000 0.214474 0.973191 -0.083062
11.27999973 13.97999954 -0.08000000 176 130 102 0.000000 0.000000 0.000000 0.000000 0.000000 0.000000 207.000000 0.172037 0.984239 -0.040961
11.26000023 13.98999977 -0.08000000 176 130 102 0.000000 0.000000 0.000000 0.000000 0.000000 0.000000 207.000000 0.479371 0.872483 0.094743
11.28999996 14.00000000 -0.13000000 176 130 102 0.000000 0.000000 0.000000 0.000000 0.000000 0.000000 207.000000 0.190075 0.801357 0.567184
