//X Y Z R G B PointSourceId ScanDirectionFlag NumberOfReturns ReturnNumber GpsTime Intensity Classification Nx Ny Nz
5.05000019 1.79999995 -0.57999998 156 223 66 0.000000 0.000000 0.000000 0.000000 0.000000 0.000000 195.000000 -0.204508 0.162825 0.965228
4.94000006 1.86000001 -0.50000000 156 223 66 0.000000 0.000000 0.000000 0.000000 0.000000 0.000000 195.000000 0.153834 -0.334000 0.929935
4.94000006 1.87000000 -0.50000000 156 223 66 0.000000 0.000000 0.000000 0.000000 0.000000 0.000000 195.000000 -0.196100 0.012764 0.980501
4.94999981 1.86000001 -0.50000000 156 223 66 0.000000 0.000000 0.000000 0.000000 0.000000 0.000000 195.000000 -0.133650 -0.197293 0.971192
4.96000004 1.85000002 -0.49000001 156 223 66 0.000000 0.000000 0.000000 0.000000 0.000000 0.000000 195.000000 0.198723 0.347408 0.916415
4.96000004 1.85000002 -0.49000001 156 223 66 0.000000 0.000000 0.000000 0.000000 0.000000 0.000000 195.000000 0.198723 0.347408 0.916415
4.90999985 1.85000002 -0.44000000 156 223 66 0.000000 0.000000 0.000000 0.000000 0.000000 0.000000 195.000000 -0.158106 0.218212 0.963009
4.92000008 1.87000000 -0.47999999 156 223 66 0.000000 0.000000 0.000000 0.000000 0.000000 0.000000 195.000000 0.043681 -0.395779 0.917306
4.92999983 1.86000001 -0.47999999 156 223 66 0.000000 0.000000 0.000000 0.000000 0.000000 0.000000 195.000000 0.400417 0.226066 0.888009
4.94999981 1.87000000 -0.52999997 156 223 66 0.000000 0.000000 0.000000 0.000000 0.000000 0.000000 195.000000 0.241085 0.017991 0.970337
4.96999979 1.85000002 -0.50999999 156 223 66 0.000000 0.000000 0.000000 0.000000 0.000000 0.000000 195.000000 -0.172661 -0.120490 0.977584
4.92999983 1.88000000 -0.57999998 156 223 66 0.000000 0.000000 0.000000 0.000000 0.000000 0.000000 195.000000 0.068010 0.293856 0.953427
4.92999983 1.87000000 -0.57999998 156 223 66 0.000000 0.000000 0.000000 0.000000 0.000000 0.000000 195.000000 -0.214456 0.096568 0.971948
4.94999981 1.83000004 -0.46000001 156 223 66 0.000000 0.000000 0.000000 0.000000 0.000000 0.000000 195.000000 -0.021142 -0.009061 0.999735
4.96000004 1.83000004 -0.43000001 156 223 66 0.000000 0.000000 0.000000 0.000000 0.000000 0.000000 195.000000 0.348014 -0.351080 0.869269
4.96999979 1.80999994 -0.47000000 156 223 66 0.000000 0.000000 0.000000 0.000000 0.000000 0.000000 195.000000 0.184096 0.366765 0.911917
4.96000004 1.84000003 -0.49000001 156 223 66 0.000000 0.000000 0.000000 0.000000 0.000000 0.000000 195.000000 0.378731 -0.059800 0.923573
4.92999983 1.80999994 -0.46000001 156 223 66 0.000000 0.000000 0.000000 0.000000 0.000000 0.000000 195.000000 0.140628 -0.215458 0.966334
4.90999985 1.84000003 -0.44000000 156 223 66 0.000000 0.000000 0.000000 0.000000 0.000000 0.000000 195.000000 0.129376 -0.154019 0.979561
4.94999981 1.84000003 -0.58999997 156 223 66 0.000000 0.000000 0.000000 0.000000 0.000000 0.000000 195.000000 0.061533 0.007300 0.998078
4.92999983 1.84000003 -0.55000001 156 223 66 0.000000 0.000000 0.000000 0.000000 0.000000 0.000000 195.000000 0.243934 0.003570 0.969785
4.92999983 1.84000003 -0.50999999 156 223 66 0.000000 0.000000 0.000000 0.000000 0.000000 0.000000 195.000000 0.244071 0.205892 0.947649
4.88000011 1.88999999 -0.31000000 156 223 66 0.000000 0.000000 0.000000 0.000000 0.000000 0.000000 195.000000 0.023468 -0.561853 0.826904
4.86999989 1.87000000 -0.28999999 156 223 66 0.000000 0.000000 0.000000 0.000000 0.000000 0.000000 195.000000 -0.108083 -0.313575 0.943392
4.84999990 1.88999999 -0.27000001 156 223 66 0.000000 0.000000 0.000000 0.000000 0.000000 0.000000 195.000000 -0.023682 -0.619922 0.784306
4.82999992 1.88999999 -0.33000001 156 223 66 0.000000 0.000000 0.000000 0.000000 0.000000 0.000000 195.000000 -0.037941 -0.378105 0.924985
4.80999994 1.88000000 -0.31000000 156 223 66 0.000000 0.000000 0.000000 0.000000 0.000000 0.000000 195.000000 0.093579 0.171359 0.980754
4.82999992 1.88000000 -0.30000001 156 223 66 0.000000 0.000000 0.000000 0.000000 0.000000 0.000000 195.000000 0.226051 -0.432641 0.872767
4.88999987 1.87000000 -0.34000000 156 223 66 0.000000 0.000000 0.000000 0.000000 0.000000 0.000000 195.000000 -0.064143 -0.339042 0.938582
4.86999989 1.84000003 -0.33000001 156 223 66 0.000000 0.000000 0.000000 0.000000 0.000000 0.000000 195.000000 0.059843 0.286482 0.956215
4.80000019 1.88000000 -0.31000000 156 223 66 0.000000 0.000000 0.000000 0.000000 0.000000 0.000000 195.000000 0.105410 0.014127 0.994329
4.80000019 1.88000000 -0.31000000 156 223 66 0.000000 0.000000 0.000000 0.000000 0.000000 0.000000 195.000000 0.105410 0.014127 0.994329
4.73999977 1.85000002 -0.28999999 156 223 66 0.000000 0.000000 0.000000 0.000000 0.000000 0.000000 195.000000 0.293234 -0.457693 0.839363
4.73999977 1.85000002 -0.27000001 156 223 66 0.000000 0.000000 0.000000 0.000000 0.000000 0.000000 195.000000 0.410088 -0.077658 0.908734
4.76000023 1.87000000 -0.28000000 156 223 66 0.000000 0.000000 0.000000 0.000000 0.000000 0.000000 195.000000 -0.165544 -0.410261 0.896817
4.73999977 1.85000002 -0.28999999 156 223 66 0.000000 0.000000 0.000000 0.000000 0.000000 0.000000 195.000000 0.293234 -0.457693 0.839363
4.73000002 1.85000002 -0.28999999 156 223 66 0.000000 0.000000 0.000000 0.000000 0.000000 0.000000 195.000000 0.399581 -0.269906 0.876063
4.75000000 1.85000002 -0.36000001 156 223 66 0.000000 0.000000 0.000000 0.000000 0.000000 0.000000 195.000000 0.001046 -0.074296 0.997236
4.75000000 1.85000002 -0.41000000 156 223 66 0.000000 0.000000 0.000000 0.000000 0.000000 0.000000 195.000000 0.250700 -0.045694 0.966986
4.75000000 1.86000001 -0.41000000 156 223 66 0.000000 0.000000 0.000000 0.000000 0.000000 0.000000 195.000000 -0.145543 -0.234705 0.961109
4.76999998 1.84000003 -0.33000001 156 223 66 0.000000 0.000000 0.000000 0.000000 0.000000 0.000000 195.000000 0.248648 0.109508 0.962384
4.75000000 1.83000004 -0.28999999 156 223 66 0.000000 0.000000 0.000000 0.000000 0.000000 0.000000 195.000000 -0.001164 0.215328 0.976541
4.73000002 1.83000004 -0.28999999 156 223 66 0.000000 0.000000 0.000000 0.000000 0.000000 0.000000 195.000000 0.338228 -0.253305 0.906333
4.73999977 1.84000003 -0.27000001 156 223 66 0.000000 0.000000 0.000000 0.000000 0.000000 0.000000 195.000000 0.161110 -0.348838 0.923231
4.76000023 1.76999998 -0.33000001 156 223 66 0.000000 0.000000 0.000000 0.000000 0.000000 0.000000 195.000000 -0.299527 0.190861 0.934802
4.75000000 1.84000003 -0.34000000 156 223 66 0.000000 0.000000 0.000000 0.000000 0.000000 0.000000 195.000000 0.027775 -0.416631 0.908651
4.73000002 1.80999994 -0.37000000 156 223 66 0.000000 0.000000 0.000000 0.000000 0.000000 0.000000 195.000000 -0.232195 -0.131015 0.963805
4.73000002 1.80999994 -0.37000000 156 223 66 0.000000 0.000000 0.000000 0.000000 0.000000 0.000000 195.000000 -0.232195 -0.131015 0.963805
4.73000002 1.82000005 -0.38999999 156 223 66 0.000000 0.000000 0.000000 0.000000 0.000000 0.000000 195.000000 0.092842 -0.160364 0.982682
4.76000023 1.83000004 -0.40000001 156 223 66 0.000000 0.000000 0.000000 0.000000 0.000000 0.000000 195.000000 0.413294 -0.247976 0.876183
4.73000002 1.80999994 -0.38999999 156 223 66 0.000000 0.000000 0.000000 0.000000 0.000000 0.000000 195.000000 0.276312 0.365926 0.888679
4.73000002 1.77999997 -0.40000001 156 223 66 0.000000 0.000000 0.000000 0.000000 0.000000 0.000000 195.000000 0.405897 0.377468 0.832325
4.75000000 1.78999996 -0.38999999 156 223 66 0.000000 0.000000 0.000000 0.000000 0.000000 0.000000 195.000000 0.283592 -0.015960 0.958812
4.88000011 1.88999999 -0.47000000 156 223 66 0.000000 0.000000 0.000000 0.000000 0.000000 0.000000 195.000000 -0.131587 -0.030366 0.990839
4.86999989 1.87000000 -0.44999999 156 223 66 0.000000 0.000000 0.000000 0.000000 0.000000 0.000000 195.000000 0.212541 -0.042028 0.976248
4.86000013 1.88000000 -0.44000000 156 223 66 0.000000 0.000000 0.000000 0.000000 0.000000 0.000000 195.000000 0.311200 -0.273213 0.910225
4.86999989 1.88000000 -0.47999999 156 223 66 0.000000 0.000000 0.000000 0.000000 0.000000 0.000000 195.000000 0.167527 -0.172642 0.970633
4.82999992 1.89999998 -0.47000000 156 223 66 0.000000 0.000000 0.000000 0.000000 0.000000 0.000000 195.000000 0.187267 0.005744 0.982292
4.82999992 1.86000001 -0.43000001 156 223 66 0.000000 0.000000 0.000000 0.000000 0.000000 0.000000 195.000000 0.408522 0.171781 0.896438
4.82000017 1.85000002 -0.43000001 156 223 66 0.000000 0.000000 0.000000 0.000000 0.000000 0.000000 195.000000 -0.202259 -0.061768 0.977382
4.82999992 1.85000002 -0.43000001 156 223 66 0.000000 0.000000 0.000000 0.000000 0.000000 0.000000 195.000000 -0.121643 0.030132 0.992116
4.82999992 1.85000002 -0.43000001 156 223 66 0.000000 0.000000 0.000000 0.000000 0.000000 0.000000 195.000000 -0.121643 0.030132 0.992116
4.84999990 1.85000002 -0.47999999 156 223 66 0.000000 0.000000 0.000000 0.000000 0.000000 0.000000 195.000000 0.068210 0.173517 0.982466
4.84000015 1.85000002 -0.47999999 156 223 66 0.000000 0.000000 0.000000 0.000000 0.000000 0.000000 195.000000 -0.065312 0.115727 0.991131
4.86999989 1.88999999 -0.57999998 156 223 66 0.000000 0.000000 0.000000 0.000000 0.000000 0.000000 195.000000 0.071904 -0.028976 0.996991
4.88999987 1.80999994 -0.47999999 156 223 66 0.000000 0.000000 0.000000 0.000000 0.000000 0.000000 195.000000 -0.098656 0.358133 0.928444
4.88000011 1.83000004 -0.47999999 156 223 66 0.000000 0.000000 0.000000 0.000000 0.000000 0.000000 195.000000 0.121436 -0.221141 0.967652
4.82999992 1.83000004 -0.47000000 156 223 66 0.000000 0.000000 0.000000 0.000000 0.000000 0.000000 195.000000 0.224956 -0.062693 0.972350
4.88000011 1.83000004 -0.54000002 156 223 66 0.000000 0.000000 0.000000 0.000000 0.000000 0.000000 195.000000 0.366231 -0.311525 0.876828
4.86000013 1.83000004 -0.56999999 156 223 66 0.000000 0.000000 0.000000 0.000000 0.000000 0.000000 195.000000 0.328775 -0.159532 0.930836
4.86000013 1.83000004 -0.56999999 156 223 66 0.000000 0.000000 0.000000 0.000000 0.000000 0.000000 195.000000 0.328775 -0.159532 0.930836
4.88000011 1.82000005 -0.56999999 156 223 66 0.000000 0.000000 0.000000 0.000000 0.000000 0.000000 195.000000 0.286382 -0.364350 0.886135
4.78999996 1.86000001 -0.44999999 156 223 66 0.000000 0.000000 0.000000 0.000000 0.000000 0.000000 195.000000 0.422485 -0.261971 0.867685
4.78999996 1.85000002 -0.44000000 156 223 66 0.000000 0.000000 0.000000 0.000000 0.000000 0.000000 195.000000 0.470761 -0.079624 0.878660
4.78999996 1.85000002 -0.44000000 156 223 66 0.000000 0.000000 0.000000 0.000000 0.000000 0.000000 195.000000 0.470761 -0.079624 0.878660
4.80000019 1.86000001 -0.44000000 156 223 66 0.000000 0.000000 0.000000 0.000000 0.000000 0.000000 195.000000 -0.206215 -0.222388 0.952900
4.76999998 1.83000004 -0.44999999 156 223 66 0.000000 0.000000 0.000000 0.000000 0.000000 0.000000 195.000000 0.071547 -0.192814 0.978623
4.78000021 1.84000003 -0.44999999 156 223 66 0.000000 0.000000 0.000000 0.000000 0.000000 0.000000 195.000000 -0.201907 -0.212604 0.956051
4.78000021 1.83000004 -0.44999999 156 223 66 0.000000 0.000000 0.000000 0.000000 0.000000 0.000000 195.000000 -0.107948 -0.222247 0.968996
4.78999996 1.82000005 -0.44999999 156 223 66 0.000000 0.000000 0.000000 0.000000 0.000000 0.000000 195.000000 0.084261 -0.291673 0.952799
4.76999998 1.79999995 -0.47000000 156 223 66 0.000000 0.000000 0.000000 0.000000 0.000000 0.000000 195.000000 -0.203530 0.249973 0.946620
4.73999977 1.83000004 -0.44000000 156 223 66 0.000000 0.000000 0.000000 0.000000 0.000000 0.000000 195.000000 0.061887 0.269019 0.961144
4.73000002 1.80999994 -0.44999999 156 223 66 0.000000 0.000000 0.000000 0.000000 0.000000 0.000000 195.000000 -0.087015 -0.075714 0.993326
4.76000023 1.82000005 -0.44999999 156 223 66 0.000000 0.000000 0.000000 0.000000 0.000000 0.000000 195.000000 0.111700 -0.282534 0.952732
4.76000023 1.83000004 -0.44999999 156 223 66 0.000000 0.000000 0.000000 0.000000 0.000000 0.000000 195.000000 0.348867 -0.312621 0.883493
4.73999977 1.80999994 -0.49000001 156 223 66 0.000000 0.000000 0.000000 0.000000 0.000000 0.000000 195.000000 0.439996 0.033434 0.897377
4.76999998 1.80999994 -0.58999997 156 223 66 0.000000 0.000000 0.000000 0.000000 0.000000 0.000000 195.000000 0.215812 -0.107275 0.970524
4.76999998 1.82000005 -0.58999997 156 223 66 0.000000 0.000000 0.000000 0.000000 0.000000 0.000000 195.000000 -0.230072 -0.139083 0.963184
4.76999998 1.78999996 -0.50999999 156 223 66 0.000000 0.000000 0.000000 0.000000 0.000000 0.000000 195.000000 0.105035 -0.265829 0.958281
4.78000021 1.79999995 -0.50999999 156 223 66 0.000000 0.000000 0.000000 0.000000 0.000000 0.000000 195.000000 0.042843 -0.349236 0.936055
4.73999977 1.77999997 -0.55000001 156 223 66 0.000000 0.000000 0.000000 0.000000 0.000000 0.000000 195.000000 0.072293 -0.157623 0.984850
4.75000000 1.79999995 -0.52999997 156 223 66 0.000000 0.000000 0.000000 0.000000 0.000000 0.000000 195.000000 0.230227 0.310306 0.922337
4.98000002 1.74000001 -0.05000000 156 223 66 0.000000 0.000000 0.000000 0.000000 0.000000 0.000000 195.000000 -0.231558 0.907301 0.350978
4.96999979 1.63000000 -0.03000000 156 223 66 0.000000 0.000000 0.000000 0.000000 0.000000 0.000000 195.000000 -0.010386 0.982093 0.188109
4.98999977 1.74000001 -0.08000000 156 223 66 0.000000 0.000000 0.000000 0.000000 0.000000 0.000000 195.000000 0.296962 0.930293 0.215333
5.01999998 1.73000002 -0.15000001 156 223 66 0.000000 0.000000 0.000000 0.000000 0.000000 0.000000 195.000000 0.089837 0.845609 0.526188
5.01000023 1.75999999 -0.15000001 156 223 66 0.000000 0.000000 0.000000 0.000000 0.000000 0.000000 195.000000 0.220220 0.259001 0.940437
5.01000023 1.69000006 -0.14000000 156 223 66 0.000000 0.000000 0.000000 0.000000 0.000000 0.000000 195.000000 -0.039560 0.945619 0.322863
5.01000023 1.69000006 -0.14000000 156 223 66 0.000000 0.000000 0.000000 0.000000 0.000000 0.000000 195.000000 -0.039560 0.945619 0.322863
5.03000021 1.75000000 -0.23999999 156 223 66 0.000000 0.000000 0.000000 0.000000 0.000000 0.000000 195.000000 0.246739 0.003576 0.969075
5.03999996 1.74000001 -0.23999999 156 223 66 0.000000 0.000000 0.000000 0.000000 0.000000 0.000000 195.000000 0.355773 0.180013 0.917072
5.03999996 1.71000004 -0.23999999 156 223 66 0.000000 0.000000 0.000000 0.000000 0.000000 0.000000 195.000000 -0.017642 0.511619 0.859031
5.03999996 1.71000004 -0.23999999 156 223 66 0.000000 0.000000 0.000000 0.000000 0.000000 0.000000 195.000000 -0.017642 0.511619 0.859031
5.03000021 1.71000004 -0.23999999 156 223 66 0.000000 0.000000 0.000000 0.000000 0.000000 0.000000 195.000000 0.186435 0.550210 0.813948
5.01999998 1.74000001 -0.23999999 156 223 66 0.000000 0.000000 0.000000 0.000000 0.000000 0.000000 195.000000 0.428763 0.270075 0.862103
5.01999998 1.67999995 -0.20000000 156 223 66 0.000000 0.000000 0.000000 0.000000 0.000000 0.000000 195.000000 0.247668 0.415781 0.875092
4.98999977 1.67999995 -0.23999999 156 223 66 0.000000 0.000000 0.000000 0.000000 0.000000 0.000000 195.000000 0.210012 -0.661148 -0.720263
5.01999998 1.69000006 -0.25000000 156 223 66 0.000000 0.000000 0.000000 0.000000 0.000000 0.000000 195.000000 0.173524 0.388636 0.904904
5.01999998 1.69000006 -0.25000000 156 223 66 0.000000 0.000000 0.000000 0.000000 0.000000 0.000000 195.000000 0.173524 0.388636 0.904904
5.05000019 1.60000002 -0.13000000 156 223 66 0.000000 0.000000 0.000000 0.000000 0.000000 0.000000 195.000000 -0.017936 0.809857 0.586353
5.01000023 1.64999998 -0.12000000 156 223 66 0.000000 0.000000 0.000000 0.000000 0.000000 0.000000 195.000000 0.167968 0.958871 0.228807
5.01000023 1.65999997 -0.14000000 156 223 66 0.000000 0.000000 0.000000 0.000000 0.000000 0.000000 195.000000 -0.360857 0.818683 0.446699
5.00000000 1.62000000 -0.10000000 156 223 66 0.000000 0.000000 0.000000 0.000000 0.000000 0.000000 195.000000 -0.368456 0.853511 0.368456
4.98999977 1.63000000 -0.13000000 156 223 66 0.000000 0.000000 0.000000 0.000000 0.000000 0.000000 195.000000 0.144499 0.985223 0.091954
5.03000021 1.65999997 -0.17000000 156 223 66 0.000000 0.000000 0.000000 0.000000 0.000000 0.000000 195.000000 0.333629 0.629826 0.701435
5.03999996 1.66999996 -0.22000000 156 223 66 0.000000 0.000000 0.000000 0.000000 0.000000 0.000000 195.000000 -0.249917 0.532432 0.808738
5.03000021 1.63999999 -0.23000000 156 223 66 0.000000 0.000000 0.000000 0.000000 0.000000 0.000000 195.000000 0.136408 -0.646065 -0.750995
5.03999996 1.66999996 -0.22000000 156 223 66 0.000000 0.000000 0.000000 0.000000 0.000000 0.000000 195.000000 -0.249917 0.532432 0.808738
5.03999996 1.65999997 -0.23999999 156 223 66 0.000000 0.000000 0.000000 0.000000 0.000000 0.000000 195.000000 -0.288984 0.608304 0.739225
5.03000021 1.62000000 -0.20000000 156 223 66 0.000000 0.000000 0.000000 0.000000 0.000000 0.000000 195.000000 0.001379 0.743362 0.668888
5.01000023 1.64999998 -0.19000000 156 223 66 0.000000 0.000000 0.000000 0.000000 0.000000 0.000000 195.000000 -0.304812 0.708003 0.637041
5.01999998 1.65999997 -0.17000000 156 223 66 0.000000 0.000000 0.000000 0.000000 0.000000 0.000000 195.000000 0.018092 0.641584 0.766839
5.01999998 1.65999997 -0.17000000 156 223 66 0.000000 0.000000 0.000000 0.000000 0.000000 0.000000 195.000000 0.018092 0.641584 0.766839
5.01999998 1.65999997 -0.17000000 156 223 66 0.000000 0.000000 0.000000 0.000000 0.000000 0.000000 195.000000 0.018092 0.641584 0.766839
5.01999998 1.64999998 -0.23000000 156 223 66 0.000000 0.000000 0.000000 0.000000 0.000000 0.000000 195.000000 -0.080526 0.854708 0.512825
5.01999998 1.64999998 -0.23000000 156 223 66 0.000000 0.000000 0.000000 0.000000 0.000000 0.000000 195.000000 -0.080526 0.854708 0.512825
5.01000023 1.64999998 -0.22000000 156 223 66 0.000000 0.000000 0.000000 0.000000 0.000000 0.000000 195.000000 0.431373 0.631236 0.644561
5.01000023 1.64999998 -0.22000000 156 223 66 0.000000 0.000000 0.000000 0.000000 0.000000 0.000000 195.000000 0.431373 0.631236 0.644561
4.98999977 1.59000003 -0.18000001 156 223 66 0.000000 0.000000 0.000000 0.000000 0.000000 0.000000 195.000000 -0.052675 0.900882 0.430857
4.98999977 1.61000001 -0.20000000 156 223 66 0.000000 0.000000 0.000000 0.000000 0.000000 0.000000 195.000000 0.107805 0.695563 0.710331
5.01999998 1.61000001 -0.25000000 156 223 66 0.000000 0.000000 0.000000 0.000000 0.000000 0.000000 195.000000 0.083057 0.738766 0.668824
5.00000000 1.61000001 -0.20999999 156 223 66 0.000000 0.000000 0.000000 0.000000 0.000000 0.000000 195.000000 -0.287644 0.773938 0.564164
5.00000000 1.59000003 -0.22000000 156 223 66 0.000000 0.000000 0.000000 0.000000 0.000000 0.000000 195.000000 -0.120441 0.747927 0.652763
5.00000000 1.59000003 -0.22000000 156 223 66 0.000000 0.000000 0.000000 0.000000 0.000000 0.000000 195.000000 -0.120441 0.747927 0.652763
4.94999981 1.60000002 -0.11000000 156 223 66 0.000000 0.000000 0.000000 0.000000 0.000000 0.000000 195.000000 -0.136974 0.925614 0.352813
4.96999979 1.61000001 -0.16000000 156 223 66 0.000000 0.000000 0.000000 0.000000 0.000000 0.000000 195.000000 -0.246460 0.955200 0.163863
4.94000006 1.59000003 -0.15000001 156 223 66 0.000000 0.000000 0.000000 0.000000 0.000000 0.000000 195.000000 -0.057498 0.915956 0.397137
4.96000004 1.66999996 -0.22000000 156 223 66 0.000000 0.000000 0.000000 0.000000 0.000000 0.000000 195.000000 0.147516 0.335014 0.930594
4.96000004 1.66999996 -0.22000000 156 223 66 0.000000 0.000000 0.000000 0.000000 0.000000 0.000000 195.000000 0.147516 0.335014 0.930594
4.96999979 1.60000002 -0.18000001 156 223 66 0.000000 0.000000 0.000000 0.000000 0.000000 0.000000 195.000000 -0.049865 0.762220 0.645394
4.94000006 1.59000003 -0.20000000 156 223 66 0.000000 0.000000 0.000000 0.000000 0.000000 0.000000 195.000000 0.188313 0.776218 0.601684
4.92000008 1.60000002 -0.20000000 156 223 66 0.000000 0.000000 0.000000 0.000000 0.000000 0.000000 195.000000 0.105918 0.549905 0.828484
4.98999977 1.53999996 -0.14000000 156 223 66 0.000000 0.000000 0.000000 0.000000 0.000000 0.000000 195.000000 0.382002 0.849761 0.363292
4.94000006 1.55999994 -0.16000000 156 223 66 0.000000 0.000000 0.000000 0.000000 0.000000 0.000000 195.000000 -0.178711 0.952679 0.245896
4.94000006 1.55999994 -0.15000001 156 223 66 0.000000 0.000000 0.000000 0.000000 0.000000 0.000000 195.000000 -0.042897 0.969465 0.241447
4.94000006 1.58000004 -0.14000000 156 223 66 0.000000 0.000000 0.000000 0.000000 0.000000 0.000000 195.000000 -0.216912 0.904043 0.368314
4.90000010 1.55999994 -0.15000001 156 223 66 0.000000 0.000000 0.000000 0.000000 0.000000 0.000000 195.000000 0.172817 0.906933 0.384197
4.90999985 1.54999995 -0.14000000 156 223 66 0.000000 0.000000 0.000000 0.000000 0.000000 0.000000 195.000000 0.164862 0.978018 0.127675
4.92000008 1.53999996 -0.09000000 156 223 66 0.000000 0.000000 0.000000 0.000000 0.000000 0.000000 195.000000 0.331027 0.891227 0.310057
4.90000010 1.52999997 -0.15000001 156 223 66 0.000000 0.000000 0.000000 0.000000 0.000000 0.000000 195.000000 0.144548 0.806193 0.573723
4.96000004 1.57000005 -0.20000000 156 223 66 0.000000 0.000000 0.000000 0.000000 0.000000 0.000000 195.000000 0.293156 0.816760 0.496954
4.96000004 1.57000005 -0.17000000 156 223 66 0.000000 0.000000 0.000000 0.000000 0.000000 0.000000 195.000000 0.104657 0.960000 0.259704
4.94000006 1.55999994 -0.17000000 156 223 66 0.000000 0.000000 0.000000 0.000000 0.000000 0.000000 195.000000 0.034754 0.992171 0.119957
4.94000006 1.58000004 -0.19000000 156 223 66 0.000000 0.000000 0.000000 0.000000 0.000000 0.000000 195.000000 0.273685 0.836517 0.474696
4.90999985 1.58000004 -0.17000000 156 223 66 0.000000 0.000000 0.000000 0.000000 0.000000 0.000000 195.000000 -0.058120 0.904237 0.423058
4.92000008 1.54999995 -0.22000000 156 223 66 0.000000 0.000000 0.000000 0.000000 0.000000 0.000000 195.000000 -0.225936 0.765066 0.603015
4.90000010 1.53999996 -0.17000000 156 223 66 0.000000 0.000000 0.000000 0.000000 0.000000 0.000000 195.000000 0.261396 0.924170 0.278536
4.92000008 1.51999998 -0.19000000 156 223 66 0.000000 0.000000 0.000000 0.000000 0.000000 0.000000 195.000000 -0.186603 0.898297 0.397797
4.92999983 1.53999996 -0.20000000 156 223 66 0.000000 0.000000 0.000000 0.000000 0.000000 0.000000 195.000000 -0.139417 0.631126 0.763048
4.90000010 1.53999996 -0.22000000 156 223 66 0.000000 0.000000 0.000000 0.000000 0.000000 0.000000 195.000000 0.107354 0.961015 0.254805
4.86000013 1.62000000 -0.11000000 156 223 66 0.000000 0.000000 0.000000 0.000000 0.000000 0.000000 195.000000 -0.384575 0.894394 0.228387
4.75000000 1.67999995 -0.23999999 156 223 66 0.000000 0.000000 0.000000 0.000000 0.000000 0.000000 195.000000 -0.127332 0.534209 0.835708
4.76000023 1.59000003 -0.10000000 156 223 66 0.000000 0.000000 0.000000 0.000000 0.000000 0.000000 195.000000 -0.164525 0.921061 0.352956
4.75000000 1.61000001 -0.13000000 156 223 66 0.000000 0.000000 0.000000 0.000000 0.000000 0.000000 195.000000 -0.097728 0.909834 0.403300
4.75000000 1.61000001 -0.13000000 156 223 66 0.000000 0.000000 0.000000 0.000000 0.000000 0.000000 195.000000 -0.097728 0.909834 0.403300
4.76999998 1.59000003 -0.17000000 156 223 66 0.000000 0.000000 0.000000 0.000000 0.000000 0.000000 195.000000 0.001373 0.789499 0.613750
4.73000002 1.64999998 -0.17000000 156 223 66 0.000000 0.000000 0.000000 0.000000 0.000000 0.000000 195.000000 0.397890 0.602613 0.691767
4.86000013 1.57000005 -0.03000000 156 223 66 0.000000 0.000000 0.000000 0.000000 0.000000 0.000000 195.000000 -0.093369 0.948157 0.303778
4.86999989 1.57000005 -0.04000000 156 223 66 0.000000 0.000000 0.000000 0.000000 0.000000 0.000000 195.000000 0.113349 0.945462 0.305375
4.86999989 1.51999998 -0.06000000 156 223 66 0.000000 0.000000 0.000000 0.000000 0.000000 0.000000 195.000000 -0.086600 0.955183 0.283065
4.82999992 1.54999995 -0.06000000 156 223 66 0.000000 0.000000 0.000000 0.000000 0.000000 0.000000 195.000000 -0.025108 0.905221 0.424199
4.82999992 1.54999995 -0.06000000 156 223 66 0.000000 0.000000 0.000000 0.000000 0.000000 0.000000 195.000000 -0.025108 0.905221 0.424199
4.84000015 1.54999995 -0.06000000 156 223 66 0.000000 0.000000 0.000000 0.000000 0.000000 0.000000 195.000000 -0.336633 0.875854 0.345772
4.76999998 1.55999994 -0.07000000 156 223 66 0.000000 0.000000 0.000000 0.000000 0.000000 0.000000 195.000000 -0.276941 0.922660 0.268332
4.78999996 1.53999996 -0.06000000 156 223 66 0.000000 0.000000 0.000000 0.000000 0.000000 0.000000 195.000000 0.125284 0.902324 0.412451
4.88999987 1.54999995 -0.13000000 156 223 66 0.000000 0.000000 0.000000 0.000000 0.000000 0.000000 195.000000 0.023792 0.768348 0.639590
4.84000015 1.55999994 -0.08000000 156 223 66 0.000000 0.000000 0.000000 0.000000 0.000000 0.000000 195.000000 0.265050 0.853369 0.448899
4.82000017 1.54999995 -0.14000000 156 223 66 0.000000 0.000000 0.000000 0.000000 0.000000 0.000000 195.000000 0.300755 0.725351 0.619202
4.82000017 1.54999995 -0.14000000 156 223 66 0.000000 0.000000 0.000000 0.000000 0.000000 0.000000 195.000000 0.300755 0.725351 0.619202
4.82000017 1.55999994 -0.15000001 156 223 66 0.000000 0.000000 0.000000 0.000000 0.000000 0.000000 195.000000 -0.332136 0.901935 0.276042
4.88000011 1.57000005 -0.19000000 156 223 66 0.000000 0.000000 0.000000 0.000000 0.000000 0.000000 195.000000 0.300843 0.919803 0.251902
4.86999989 1.55999994 -0.17000000 156 223 66 0.000000 0.000000 0.000000 0.000000 0.000000 0.000000 195.000000 0.023844 0.702686 0.711101
4.86999989 1.54999995 -0.20999999 156 223 66 0.000000 0.000000 0.000000 0.000000 0.000000 0.000000 195.000000 -0.111185 0.941724 0.317480
4.88000011 1.52999997 -0.18000001 156 223 66 0.000000 0.000000 0.000000 0.000000 0.000000 0.000000 195.000000 0.158397 0.770864 0.616993
4.88000011 1.53999996 -0.20000000 156 223 66 0.000000 0.000000 0.000000 0.000000 0.000000 0.000000 195.000000 0.202649 0.912640 0.354995
4.88000011 1.52999997 -0.23999999 156 223 66 0.000000 0.000000 0.000000 0.000000 0.000000 0.000000 195.000000 -0.131878 0.949790 0.283738
4.84999990 1.54999995 -0.19000000 156 223 66 0.000000 0.000000 0.000000 0.000000 0.000000 0.000000 195.000000 0.126611 0.743282 0.656888
4.82999992 1.55999994 -0.20000000 156 223 66 0.000000 0.000000 0.000000 0.000000 0.000000 0.000000 195.000000 -0.035394 0.723448 0.689470
4.84000015 1.55999994 -0.23999999 156 223 66 0.000000 0.000000 0.000000 0.000000 0.000000 0.000000 195.000000 -0.099179 0.527515 0.843737
4.82999992 1.53999996 -0.20000000 156 223 66 0.000000 0.000000 0.000000 0.000000 0.000000 0.000000 195.000000 0.195233 0.770172 0.607222
4.84000015 1.53999996 -0.23000000 156 223 66 0.000000 0.000000 0.000000 0.000000 0.000000 0.000000 195.000000 0.127243 0.539684 0.832196
4.82999992 1.51999998 -0.25000000 156 223 66 0.000000 0.000000 0.000000 0.000000 0.000000 0.000000 195.000000 0.315389 0.713265 0.625926
4.88999987 1.50000000 -0.23000000 156 223 66 0.000000 0.000000 0.000000 0.000000 0.000000 0.000000 195.000000 -0.001357 0.826370 0.563126
4.80000019 1.55999994 -0.11000000 156 223 66 0.000000 0.000000 0.000000 0.000000 0.000000 0.000000 195.000000 -0.334794 0.869853 0.362311
4.78999996 1.57000005 -0.13000000 156 223 66 0.000000 0.000000 0.000000 0.000000 0.000000 0.000000 195.000000 -0.184192 0.937580 0.294985
4.80000019 1.54999995 -0.18000001 156 223 66 0.000000 0.000000 0.000000 0.000000 0.000000 0.000000 195.000000 0.417129 0.763918 0.492375
4.78999996 1.54999995 -0.17000000 156 223 66 0.000000 0.000000 0.000000 0.000000 0.000000 0.000000 195.000000 0.158605 0.762813 0.626866
4.80000019 1.54999995 -0.20000000 156 223 66 0.000000 0.000000 0.000000 0.000000 0.000000 0.000000 195.000000 0.208983 0.611468 0.763173
4.76999998 1.57000005 -0.18000001 156 223 66 0.000000 0.000000 0.000000 0.000000 0.000000 0.000000 195.000000 0.324849 0.741819 0.586667
4.78000021 1.55999994 -0.20000000 156 223 66 0.000000 0.000000 0.000000 0.000000 0.000000 0.000000 195.000000 0.341247 0.651471 0.677595
4.80000019 1.57000005 -0.25000000 156 223 66 0.000000 0.000000 0.000000 0.000000 0.000000 0.000000 195.000000 0.018200 0.706990 0.706990
4.80000019 1.52999997 -0.25000000 156 223 66 0.000000 0.000000 0.000000 0.000000 0.000000 0.000000 195.000000 0.382214 0.720138 0.579063
4.80000019 1.52999997 -0.25000000 156 223 66 0.000000 0.000000 0.000000 0.000000 0.000000 0.000000 195.000000 0.382214 0.720138 0.579063
4.75000000 1.54999995 -0.20999999 156 223 66 0.000000 0.000000 0.000000 0.000000 0.000000 0.000000 195.000000 -0.135575 0.600403 0.788122
5.05000019 1.74000001 -0.28000000 156 223 66 0.000000 0.000000 0.000000 0.000000 0.000000 0.000000 195.000000 0.083025 0.398792 0.913275
5.03999996 1.74000001 -0.31000000 156 223 66 0.000000 0.000000 0.000000 0.000000 0.000000 0.000000 195.000000 0.460937 0.217706 0.860315
5.03999996 1.73000002 -0.33000001 156 223 66 0.000000 0.000000 0.000000 0.000000 0.000000 0.000000 195.000000 -0.047009 0.303655 0.951622
5.03999996 1.72000003 -0.33000001 156 223 66 0.000000 0.000000 0.000000 0.000000 0.000000 0.000000 195.000000 0.134022 0.117118 0.984033
5.03000021 1.75000000 -0.31000000 156 223 66 0.000000 0.000000 0.000000 0.000000 0.000000 0.000000 195.000000 -0.011009 0.013011 0.999855
5.03999996 1.73000002 -0.33000001 156 223 66 0.000000 0.000000 0.000000 0.000000 0.000000 0.000000 195.000000 -0.047009 0.303655 0.951622
5.03000021 1.73000002 -0.33000001 156 223 66 0.000000 0.000000 0.000000 0.000000 0.000000 0.000000 195.000000 0.448326 0.317109 0.835730
5.03999996 1.74000001 -0.31000000 156 223 66 0.000000 0.000000 0.000000 0.000000 0.000000 0.000000 195.000000 0.460937 0.217706 0.860315
5.03999996 1.73000002 -0.33000001 156 223 66 0.000000 0.000000 0.000000 0.000000 0.000000 0.000000 195.000000 -0.047009 0.303655 0.951622
5.05999994 1.74000001 -0.37000000 156 223 66 0.000000 0.000000 0.000000 0.000000 0.000000 0.000000 195.000000 0.039751 0.500316 0.864930
5.03999996 1.65999997 -0.28000000 156 223 66 0.000000 0.000000 0.000000 0.000000 0.000000 0.000000 195.000000 -0.082016 0.457346 0.885499
5.03000021 1.64999998 -0.27000001 156 223 66 0.000000 0.000000 0.000000 0.000000 0.000000 0.000000 195.000000 0.424095 0.433770 0.794976
5.03000021 1.64999998 -0.27000001 156 223 66 0.000000 0.000000 0.000000 0.000000 0.000000 0.000000 195.000000 0.424095 0.433770 0.794976
5.03000021 1.65999997 -0.28000000 156 223 66 0.000000 0.000000 0.000000 0.000000 0.000000 0.000000 195.000000 0.103676 0.475774 0.873436
5.03000021 1.65999997 -0.28000000 156 223 66 0.000000 0.000000 0.000000 0.000000 0.000000 0.000000 195.000000 0.103676 0.475774 0.873436
5.03999996 1.61000001 -0.31999999 156 223 66 0.000000 0.000000 0.000000 0.000000 0.000000 0.000000 195.000000 0.096821 0.565032 0.819368
5.03999996 1.60000002 -0.31000000 156 223 66 0.000000 0.000000 0.000000 0.000000 0.000000 0.000000 195.000000 0.200439 0.794106 0.573776
5.01000023 1.63000000 -0.28999999 156 223 66 0.000000 0.000000 0.000000 0.000000 0.000000 0.000000 195.000000 -0.229199 0.597165 0.768675
5.01000023 1.63000000 -0.28999999 156 223 66 0.000000 0.000000 0.000000 0.000000 0.000000 0.000000 195.000000 -0.229199 0.597165 0.768675
5.00000000 1.60000002 -0.27000001 156 223 66 0.000000 0.000000 0.000000 0.000000 0.000000 0.000000 195.000000 0.142111 0.617807 0.773381
5.01000023 1.62000000 -0.31000000 156 223 66 0.000000 0.000000 0.000000 0.000000 0.000000 0.000000 195.000000 0.113567 0.629783 0.768424
5.05999994 1.64999998 -0.34000000 156 223 66 0.000000 0.000000 0.000000 0.000000 0.000000 0.000000 195.000000 0.155142 0.604001 0.781737
5.03000021 1.59000003 -0.37000000 156 223 66 0.000000 0.000000 0.000000 0.000000 0.000000 0.000000 195.000000 -0.120407 0.437716 0.891014
5.05999994 1.60000002 -0.41000000 156 223 66 0.000000 0.000000 0.000000 0.000000 0.000000 0.000000 195.000000 -0.034280 0.514193 0.856989
5.01999998 1.59000003 -0.38000000 156 223 66 0.000000 0.000000 0.000000 0.000000 0.000000 0.000000 195.000000 0.028621 0.865445 0.500186
5.03999996 1.75000000 -0.44000000 156 223 66 0.000000 0.000000 0.000000 0.000000 0.000000 0.000000 195.000000 0.481712 0.353682 0.801787
5.05999994 1.72000003 -0.47000000 156 223 66 0.000000 0.000000 0.000000 0.000000 0.000000 0.000000 195.000000 0.228260 0.585402 0.777947
5.05999994 1.72000003 -0.47000000 156 223 66 0.000000 0.000000 0.000000 0.000000 0.000000 0.000000 195.000000 0.228260 0.585402 0.777947
5.03999996 1.74000001 -0.47999999 156 223 66 0.000000 0.000000 0.000000 0.000000 0.000000 0.000000 195.000000 0.278472 0.539637 0.794509
5.01000023 1.74000001 -0.43000001 156 223 66 0.000000 0.000000 0.000000 0.000000 0.000000 0.000000 195.000000 -0.234836 0.423302 0.875024
5.03999996 1.75000000 -0.58999997 156 223 66 0.000000 0.000000 0.000000 0.000000 0.000000 0.000000 195.000000 0.028122 -0.038538 0.998861
5.05999994 1.63999999 -0.55000001 156 223 66 0.000000 0.000000 0.000000 0.000000 0.000000 0.000000 195.000000 0.018055 0.612494 0.790269
5.03999996 1.58000004 -0.37000000 156 223 66 0.000000 0.000000 0.000000 0.000000 0.000000 0.000000 195.000000 0.296968 0.637277 0.711118
5.03999996 1.55999994 -0.41000000 156 223 66 0.000000 0.000000 0.000000 0.000000 0.000000 0.000000 195.000000 -0.165749 0.637144 0.752712
5.03000021 1.55999994 -0.38999999 156 223 66 0.000000 0.000000 0.000000 0.000000 0.000000 0.000000 195.000000 0.269251 0.456958 0.847758
5.03000021 1.53999996 -0.38000000 156 223 66 0.000000 0.000000 0.000000 0.000000 0.000000 0.000000 195.000000 -0.248127 0.563357 0.788075
5.00000000 1.54999995 -0.41999999 156 223 66 0.000000 0.000000 0.000000 0.000000 0.000000 0.000000 195.000000 -0.216977 0.804814 0.552444
4.98999977 1.54999995 -0.41999999 156 223 66 0.000000 0.000000 0.000000 0.000000 0.000000 0.000000 195.000000 -0.147282 0.557886 0.816745
5.00000000 1.52999997 -0.40000001 156 223 66 0.000000 0.000000 0.000000 0.000000 0.000000 0.000000 195.000000 0.441748 0.428803 0.788027
4.96000004 1.58000004 -0.27000001 156 223 66 0.000000 0.000000 0.000000 0.000000 0.000000 0.000000 195.000000 -0.285395 0.850014 0.442748
4.94999981 1.55999994 -0.30000001 156 223 66 0.000000 0.000000 0.000000 0.000000 0.000000 0.000000 195.000000 0.344325 0.831725 0.435516
4.96000004 1.55999994 -0.30000001 156 223 66 0.000000 0.000000 0.000000 0.000000 0.000000 0.000000 195.000000 0.267699 0.527571 0.806229
4.94999981 1.51999998 -0.31000000 156 223 66 0.000000 0.000000 0.000000 0.000000 0.000000 0.000000 195.000000 0.057938 0.823852 0.563837
4.92000008 1.57000005 -0.28000000 156 223 66 0.000000 0.000000 0.000000 0.000000 0.000000 0.000000 195.000000 -0.017893 0.824432 0.565679
4.90000010 1.54999995 -0.31999999 156 223 66 0.000000 0.000000 0.000000 0.000000 0.000000 0.000000 195.000000 -0.167674 0.844304 0.508956
4.92000008 1.55999994 -0.31000000 156 223 66 0.000000 0.000000 0.000000 0.000000 0.000000 0.000000 195.000000 0.358909 0.758418 0.544047
4.92000008 1.55999994 -0.31000000 156 223 66 0.000000 0.000000 0.000000 0.000000 0.000000 0.000000 195.000000 0.358909 0.758418 0.544047
4.90999985 1.53999996 -0.31999999 156 223 66 0.000000 0.000000 0.000000 0.000000 0.000000 0.000000 195.000000 -0.102183 0.894454 0.435329
4.94999981 1.55999994 -0.34999999 156 223 66 0.000000 0.000000 0.000000 0.000000 0.000000 0.000000 195.000000 -0.125369 0.585546 0.800886
4.96999979 1.54999995 -0.34000000 156 223 66 0.000000 0.000000 0.000000 0.000000 0.000000 0.000000 195.000000 -0.238041 0.785691 0.570987
4.96999979 1.54999995 -0.34999999 156 223 66 0.000000 0.000000 0.000000 0.000000 0.000000 0.000000 195.000000 0.381680 0.416522 0.825125
4.96000004 1.55999994 -0.34999999 156 223 66 0.000000 0.000000 0.000000 0.000000 0.000000 0.000000 195.000000 -0.108534 0.449639 0.886592
4.94999981 1.55999994 -0.38000000 156 223 66 0.000000 0.000000 0.000000 0.000000 0.000000 0.000000 195.000000 -0.107850 0.432801 0.895015
4.94999981 1.52999997 -0.36000001 156 223 66 0.000000 0.000000 0.000000 0.000000 0.000000 0.000000 195.000000 0.405685 0.591141 0.697116
4.94999981 1.53999996 -0.37000000 156 223 66 0.000000 0.000000 0.000000 0.000000 0.000000 0.000000 195.000000 0.043727 0.918266 0.393543
4.96999979 1.51999998 -0.41000000 156 223 66 0.000000 0.000000 0.000000 0.000000 0.000000 0.000000 195.000000 0.139241 0.771066 0.621345
4.94999981 1.53999996 -0.41999999 156 223 66 0.000000 0.000000 0.000000 0.000000 0.000000 0.000000 195.000000 0.049086 0.283189 0.957807
4.96000004 1.51999998 -0.41000000 156 223 66 0.000000 0.000000 0.000000 0.000000 0.000000 0.000000 195.000000 0.014949 0.523205 0.852076
5.03999996 1.58000004 -0.44000000 156 223 66 0.000000 0.000000 0.000000 0.000000 0.000000 0.000000 195.000000 0.318391 0.606074 0.728905
5.03000021 1.55999994 -0.50000000 156 223 66 0.000000 0.000000 0.000000 0.000000 0.000000 0.000000 195.000000 0.186630 0.210455 0.959624
5.03999996 1.55999994 -0.47000000 156 223 66 0.000000 0.000000 0.000000 0.000000 0.000000 0.000000 195.000000 -0.295091 0.522327 0.800060
5.03999996 1.50999999 -0.46000001 156 223 66 0.000000 0.000000 0.000000 0.000000 0.000000 0.000000 195.000000 -0.067456 0.785075 0.615717
5.03000021 1.53999996 -0.43000001 156 223 66 0.000000 0.000000 0.000000 0.000000 0.000000 0.000000 195.000000 -0.029323 0.610191 0.791712
5.00000000 1.54999995 -0.46000001 156 223 66 0.000000 0.000000 0.000000 0.000000 0.000000 0.000000 195.000000 -0.088635 0.611725 0.786089
5.01999998 1.54999995 -0.47000000 156 223 66 0.000000 0.000000 0.000000 0.000000 0.000000 0.000000 195.000000 0.303377 0.792592 0.528924
5.03000021 1.54999995 -0.51999998 156 223 66 0.000000 0.000000 0.000000 0.000000 0.000000 0.000000 195.000000 0.060798 0.566980 0.821485
5.05999994 1.57000005 -0.54000002 156 223 66 0.000000 0.000000 0.000000 0.000000 0.000000 0.000000 195.000000 -0.231203 0.460894 0.856809
5.05999994 1.55999994 -0.58999997 156 223 66 0.000000 0.000000 0.000000 0.000000 0.000000 0.000000 195.000000 0.265366 0.672155 0.691223
5.05999994 1.54999995 -0.56999999 156 223 66 0.000000 0.000000 0.000000 0.000000 0.000000 0.000000 195.000000 -0.196114 0.699525 0.687171
5.01000023 1.51999998 -0.56999999 156 223 66 0.000000 0.000000 0.000000 0.000000 0.000000 0.000000 195.000000 0.230898 -0.692695 -0.683271
5.05000019 1.50000000 -0.56999999 156 223 66 0.000000 0.000000 0.000000 0.000000 0.000000 0.000000 195.000000 0.023799 0.662175 0.748971
4.98999977 1.48000002 -0.55000001 156 223 66 0.000000 0.000000 0.000000 0.000000 0.000000 0.000000 195.000000 -0.185106 0.622628 0.760310
4.98999977 1.50000000 -0.51999998 156 223 66 0.000000 0.000000 0.000000 0.000000 0.000000 0.000000 195.000000 0.354264 0.706895 0.612207
4.94000006 1.51999998 -0.44000000 156 223 66 0.000000 0.000000 0.000000 0.000000 0.000000 0.000000 195.000000 0.064801 0.709927 0.701287
4.96999979 1.50999999 -0.50000000 156 223 66 0.000000 0.000000 0.000000 0.000000 0.000000 0.000000 195.000000 0.140200 0.824966 0.547518
4.92000008 1.52999997 -0.44000000 156 223 66 0.000000 0.000000 0.000000 0.000000 0.000000 0.000000 195.000000 0.114585 0.836908 0.535215
4.96999979 1.51999998 -0.50999999 156 223 66 0.000000 0.000000 0.000000 0.000000 0.000000 0.000000 195.000000 0.405593 0.405593 0.819139
4.92000008 1.54999995 -0.51999998 156 223 66 0.000000 0.000000 0.000000 0.000000 0.000000 0.000000 195.000000 0.117477 0.382835 0.916317
4.96999979 1.50000000 -0.49000001 156 223 66 0.000000 0.000000 0.000000 0.000000 0.000000 0.000000 195.000000 -0.163240 0.813207 0.558612
4.90000010 1.49000001 -0.47999999 156 223 66 0.000000 0.000000 0.000000 0.000000 0.000000 0.000000 195.000000 0.230209 0.740740 0.631117
4.73999977 1.75000000 -0.31999999 156 223 66 0.000000 0.000000 0.000000 0.000000 0.000000 0.000000 195.000000 0.193778 0.497213 0.845712
4.73000002 1.67999995 -0.34000000 156 223 66 0.000000 0.000000 0.000000 0.000000 0.000000 0.000000 195.000000 0.497435 0.223617 0.838185
4.75000000 1.62000000 -0.27000001 156 223 66 0.000000 0.000000 0.000000 0.000000 0.000000 0.000000 195.000000 0.236752 0.735342 0.634997
4.76000023 1.61000001 -0.25999999 156 223 66 0.000000 0.000000 0.000000 0.000000 0.000000 0.000000 195.000000 0.454485 0.507370 0.732133
4.75000000 1.62000000 -0.27000001 156 223 66 0.000000 0.000000 0.000000 0.000000 0.000000 0.000000 195.000000 0.236752 0.735342 0.634997
4.73000002 1.62000000 -0.31999999 156 223 66 0.000000 0.000000 0.000000 0.000000 0.000000 0.000000 195.000000 0.261569 0.299142 0.917658
4.76000023 1.64999998 -0.41999999 156 223 66 0.000000 0.000000 0.000000 0.000000 0.000000 0.000000 195.000000 -0.235943 0.278328 0.931056
4.73999977 1.62000000 -0.36000001 156 223 66 0.000000 0.000000 0.000000 0.000000 0.000000 0.000000 195.000000 0.489573 0.533016 0.690081
4.76000023 1.60000002 -0.34999999 156 223 66 0.000000 0.000000 0.000000 0.000000 0.000000 0.000000 195.000000 0.280450 0.768465 0.575160
4.73999977 1.62000000 -0.38000000 156 223 66 0.000000 0.000000 0.000000 0.000000 0.000000 0.000000 195.000000 0.004092 0.568780 0.822480
4.73999977 1.63000000 -0.36000001 156 223 66 0.000000 0.000000 0.000000 0.000000 0.000000 0.000000 195.000000 0.332660 0.165634 0.928387
4.76000023 1.60000002 -0.34999999 156 223 66 0.000000 0.000000 0.000000 0.000000 0.000000 0.000000 195.000000 0.280450 0.768465 0.575160
4.73000002 1.63000000 -0.34999999 156 223 66 0.000000 0.000000 0.000000 0.000000 0.000000 0.000000 195.000000 0.482432 0.482432 0.731108
4.76000023 1.60000002 -0.34999999 156 223 66 0.000000 0.000000 0.000000 0.000000 0.000000 0.000000 195.000000 0.280450 0.768465 0.575160
4.73000002 1.75000000 -0.46000001 156 223 66 0.000000 0.000000 0.000000 0.000000 0.000000 0.000000 195.000000 0.435714 0.366000 0.822312
4.73000002 1.74000001 -0.44999999 156 223 66 0.000000 0.000000 0.000000 0.000000 0.000000 0.000000 195.000000 0.026033 -0.524760 -0.850852
4.75000000 1.75999999 -0.44000000 156 223 66 0.000000 0.000000 0.000000 0.000000 0.000000 0.000000 195.000000 0.196474 -0.076881 0.977490
4.73000002 1.73000002 -0.47999999 156 223 66 0.000000 0.000000 0.000000 0.000000 0.000000 0.000000 195.000000 0.121794 0.348959 0.929190
4.73000002 1.73000002 -0.47999999 156 223 66 0.000000 0.000000 0.000000 0.000000 0.000000 0.000000 195.000000 0.121794 0.348959 0.929190
4.73999977 1.75000000 -0.50000000 156 223 66 0.000000 0.000000 0.000000 0.000000 0.000000 0.000000 195.000000 0.302583 0.104385 0.947390
4.78000021 1.75999999 -0.51999998 156 223 66 0.000000 0.000000 0.000000 0.000000 0.000000 0.000000 195.000000 0.121267 -0.097720 0.987798
4.76999998 1.75999999 -0.56000000 156 223 66 0.000000 0.000000 0.000000 0.000000 0.000000 0.000000 195.000000 0.416703 -0.095523 0.904010
4.73000002 1.73000002 -0.54000002 156 223 66 0.000000 0.000000 0.000000 0.000000 0.000000 0.000000 195.000000 0.143269 -0.081699 0.986306
4.73999977 1.75999999 -0.52999997 156 223 66 0.000000 0.000000 0.000000 0.000000 0.000000 0.000000 195.000000 -0.057847 0.019984 0.998125
4.73999977 1.73000002 -0.54000002 156 223 66 0.000000 0.000000 0.000000 0.000000 0.000000 0.000000 195.000000 0.233855 -0.239390 0.942340
4.73999977 1.75999999 -0.56000000 156 223 66 0.000000 0.000000 0.000000 0.000000 0.000000 0.000000 195.000000 -0.053446 0.464572 0.883921
4.73000002 1.69000006 -0.52999997 156 223 66 0.000000 0.000000 0.000000 0.000000 0.000000 0.000000 195.000000 0.104277 0.253613 0.961669
4.73999977 1.67999995 -0.56000000 156 223 66 0.000000 0.000000 0.000000 0.000000 0.000000 0.000000 195.000000 0.157067 0.233620 0.959558
4.73999977 1.67999995 -0.56000000 156 223 66 0.000000 0.000000 0.000000 0.000000 0.000000 0.000000 195.000000 0.157067 0.233620 0.959558
4.73000002 1.63999999 -0.46000001 156 223 66 0.000000 0.000000 0.000000 0.000000 0.000000 0.000000 195.000000 0.183541 0.439029 0.879526
4.73000002 1.63999999 -0.44000000 156 223 66 0.000000 0.000000 0.000000 0.000000 0.000000 0.000000 195.000000 0.054554 0.092408 0.994226
4.73000002 1.63999999 -0.46000001 156 223 66 0.000000 0.000000 0.000000 0.000000 0.000000 0.000000 195.000000 0.183541 0.439029 0.879526
4.73000002 1.63999999 -0.46000001 156 223 66 0.000000 0.000000 0.000000 0.000000 0.000000 0.000000 195.000000 0.183541 0.439029 0.879526
4.76000023 1.63000000 -0.44999999 156 223 66 0.000000 0.000000 0.000000 0.000000 0.000000 0.000000 195.000000 0.375783 0.305799 0.874799
4.73000002 1.62000000 -0.47999999 156 223 66 0.000000 0.000000 0.000000 0.000000 0.000000 0.000000 195.000000 0.144724 0.492646 0.858111
4.73999977 1.61000001 -0.47000000 156 223 66 0.000000 0.000000 0.000000 0.000000 0.000000 0.000000 195.000000 0.001382 0.670261 0.742124
4.73999977 1.61000001 -0.47000000 156 223 66 0.000000 0.000000 0.000000 0.000000 0.000000 0.000000 195.000000 0.001382 0.670261 0.742124
4.80000019 1.66999996 -0.57999998 156 223 66 0.000000 0.000000 0.000000 0.000000 0.000000 0.000000 195.000000 0.182128 0.219351 0.958496
4.73000002 1.63999999 -0.54000002 156 223 66 0.000000 0.000000 0.000000 0.000000 0.000000 0.000000 195.000000 0.269366 0.427637 0.862884
4.73000002 1.63999999 -0.54000002 156 223 66 0.000000 0.000000 0.000000 0.000000 0.000000 0.000000 195.000000 0.269366 0.427637 0.862884
4.73000002 1.64999998 -0.54000002 156 223 66 0.000000 0.000000 0.000000 0.000000 0.000000 0.000000 195.000000 -0.149110 0.211347 0.965970
4.73000002 1.63999999 -0.54000002 156 223 66 0.000000 0.000000 0.000000 0.000000 0.000000 0.000000 195.000000 0.269366 0.427637 0.862884
4.73999977 1.63000000 -0.52999997 156 223 66 0.000000 0.000000 0.000000 0.000000 0.000000 0.000000 195.000000 0.346402 0.533298 0.771751
4.73999977 1.63000000 -0.52999997 156 223 66 0.000000 0.000000 0.000000 0.000000 0.000000 0.000000 195.000000 0.346402 0.533298 0.771751
4.76000023 1.62000000 -0.57999998 156 223 66 0.000000 0.000000 0.000000 0.000000 0.000000 0.000000 195.000000 0.156539 0.333857 0.929535
4.75000000 1.61000001 -0.58999997 156 223 66 0.000000 0.000000 0.000000 0.000000 0.000000 0.000000 195.000000 -0.044104 0.672938 0.738383
4.86999989 1.54999995 -0.33000001 156 223 66 0.000000 0.000000 0.000000 0.000000 0.000000 0.000000 195.000000 0.176353 0.855091 0.487565
4.88999987 1.53999996 -0.27000001 156 223 66 0.000000 0.000000 0.000000 0.000000 0.000000 0.000000 195.000000 0.216632 0.809682 0.545422
4.86999989 1.53999996 -0.28999999 156 223 66 0.000000 0.000000 0.000000 0.000000 0.000000 0.000000 195.000000 0.214029 0.456495 0.863599
4.88999987 1.53999996 -0.27000001 156 223 66 0.000000 0.000000 0.000000 0.000000 0.000000 0.000000 195.000000 0.216632 0.809682 0.545422
4.88000011 1.51999998 -0.31999999 156 223 66 0.000000 0.000000 0.000000 0.000000 0.000000 0.000000 195.000000 0.087324 0.831724 0.548279
4.84999990 1.55999994 -0.28999999 156 223 66 0.000000 0.000000 0.000000 0.000000 0.000000 0.000000 195.000000 -0.088595 0.876104 0.473912
4.84000015 1.54999995 -0.28999999 156 223 66 0.000000 0.000000 0.000000 0.000000 0.000000 0.000000 195.000000 -0.199420 0.850157 0.487303
4.82000017 1.57000005 -0.25999999 156 223 66 0.000000 0.000000 0.000000 0.000000 0.000000 0.000000 195.000000 0.154180 0.806826 0.570316
4.82999992 1.55999994 -0.28999999 156 223 66 0.000000 0.000000 0.000000 0.000000 0.000000 0.000000 195.000000 0.279268 0.646306 0.710139
4.82999992 1.53999996 -0.31999999 156 223 66 0.000000 0.000000 0.000000 0.000000 0.000000 0.000000 195.000000 -0.300930 0.781781 0.546132
4.84000015 1.51999998 -0.30000001 156 223 66 0.000000 0.000000 0.000000 0.000000 0.000000 0.000000 195.000000 0.189274 0.743247 0.641685
4.84999990 1.53999996 -0.31000000 156 223 66 0.000000 0.000000 0.000000 0.000000 0.000000 0.000000 195.000000 -0.112778 0.869387 0.481089
4.84000015 1.52999997 -0.31000000 156 223 66 0.000000 0.000000 0.000000 0.000000 0.000000 0.000000 195.000000 -0.022871 0.881189 0.472210
4.84000015 1.52999997 -0.31000000 156 223 66 0.000000 0.000000 0.000000 0.000000 0.000000 0.000000 195.000000 -0.022871 0.881189 0.472210
4.88999987 1.55999994 -0.41999999 156 223 66 0.000000 0.000000 0.000000 0.000000 0.000000 0.000000 195.000000 0.381705 0.555357 0.738837
4.86999989 1.52999997 -0.36000001 156 223 66 0.000000 0.000000 0.000000 0.000000 0.000000 0.000000 195.000000 0.017930 0.575128 0.817867
4.86000013 1.52999997 -0.37000000 156 223 66 0.000000 0.000000 0.000000 0.000000 0.000000 0.000000 195.000000 0.131077 0.823282 0.552291
4.86000013 1.52999997 -0.37000000 156 223 66 0.000000 0.000000 0.000000 0.000000 0.000000 0.000000 195.000000 0.131077 0.823282 0.552291
