//X Y Z R G B PointSourceId ScanDirectionFlag NumberOfReturns ReturnNumber GpsTime Intensity Classification Nx Ny Nz
3.28999996 3.02999997 -1.34000003 165 76 135 0.000000 0.000000 0.000000 0.000000 0.000000 0.000000 229.000000 0.502403 0.831192 0.238142
3.27999997 3.00000000 -1.28999996 165 76 135 0.000000 0.000000 0.000000 0.000000 0.000000 0.000000 229.000000 0.649472 0.599126 0.468224
3.31999993 3.00999999 -1.39999998 165 76 135 0.000000 0.000000 0.000000 0.000000 0.000000 0.000000 229.000000 0.592395 0.796262 -0.122615
3.30999994 3.01999998 -1.42999995 165 76 135 0.000000 0.000000 0.000000 0.000000 0.000000 0.000000 229.000000 0.618853 0.755342 -0.215590
3.30999994 3.01999998 -1.42999995 165 76 135 0.000000 0.000000 0.000000 0.000000 0.000000 0.000000 229.000000 0.618853 0.755342 -0.215590
3.30999994 2.99000001 -1.37000000 165 76 135 0.000000 0.000000 0.000000 0.000000 0.000000 0.000000 229.000000 0.842001 0.465032 0.273457
3.33999991 2.98000002 -1.45000005 165 76 135 0.000000 0.000000 0.000000 0.000000 0.000000 0.000000 229.000000 0.697176 0.716736 -0.015369
3.26999998 3.02999997 -1.38999999 165 76 135 0.000000 0.000000 0.000000 0.000000 0.000000 0.000000 229.000000 0.506034 0.843390 -0.180620
3.27999997 3.01999998 -1.38999999 165 76 135 0.000000 0.000000 0.000000 0.000000 0.000000 0.000000 229.000000 0.655266 0.751159 0.079911
3.27999997 3.03999996 -1.41999996 165 76 135 0.000000 0.000000 0.000000 0.000000 0.000000 0.000000 229.000000 0.607304 0.729732 -0.314123
3.26999998 3.02999997 -1.44000006 165 76 135 0.000000 0.000000 0.000000 0.000000 0.000000 0.000000 229.000000 0.801817 0.567510 0.187141
3.27999997 3.03999996 -1.41999996 165 76 135 0.000000 0.000000 0.000000 0.000000 0.000000 0.000000 229.000000 0.607304 0.729732 -0.314123
3.26999998 3.03999996 -1.45000005 165 76 135 0.000000 0.000000 0.000000 0.000000 0.000000 0.000000 229.000000 0.790812 0.612020 0.006877
3.29999995 3.01999998 -1.42999995 165 76 135 0.000000 0.000000 0.000000 0.000000 0.000000 0.000000 229.000000 0.809503 0.573582 -0.125333
3.29999995 2.98000002 -1.38999999 165 76 135 0.000000 0.000000 0.000000 0.000000 0.000000 0.000000 229.000000 0.691549 0.622558 0.366307
3.24000001 3.09999990 -1.28999996 165 76 135 0.000000 0.000000 0.000000 0.000000 0.000000 0.000000 229.000000 0.714248 0.690490 -0.114339
3.24000001 3.09999990 -1.32000005 165 76 135 0.000000 0.000000 0.000000 0.000000 0.000000 0.000000 229.000000 0.778596 0.626538 0.035199
3.25000000 3.06999993 -1.30999994 165 76 135 0.000000 0.000000 0.000000 0.000000 0.000000 0.000000 229.000000 0.597438 0.706063 0.380188
3.25999999 3.05999994 -1.30999994 165 76 135 0.000000 0.000000 0.000000 0.000000 0.000000 0.000000 229.000000 0.625978 0.739506 0.247553
3.25000000 3.05999994 -1.30999994 165 76 135 0.000000 0.000000 0.000000 0.000000 0.000000 0.000000 229.000000 0.652845 0.700966 0.287123
3.23000002 3.08999991 -1.28999996 165 76 135 0.000000 0.000000 0.000000 0.000000 0.000000 0.000000 229.000000 0.796108 0.601726 0.064318
3.25000000 3.04999995 -1.30999994 165 76 135 0.000000 0.000000 0.000000 0.000000 0.000000 0.000000 229.000000 0.713095 0.679502 0.172548
3.25000000 3.05999994 -1.35000002 165 76 135 0.000000 0.000000 0.000000 0.000000 0.000000 0.000000 229.000000 0.694528 0.639226 -0.330185
3.24000001 3.06999993 -1.36000001 165 76 135 0.000000 0.000000 0.000000 0.000000 0.000000 0.000000 229.000000 0.801998 0.594756 -0.055359
3.25000000 3.05999994 -1.34000003 165 76 135 0.000000 0.000000 0.000000 0.000000 0.000000 0.000000 229.000000 0.654591 0.748734 0.104440
3.22000003 3.08999991 -1.36000001 165 76 135 0.000000 0.000000 0.000000 0.000000 0.000000 0.000000 229.000000 0.801726 0.597499 -0.015179
3.21000004 3.07999992 -1.32000005 165 76 135 0.000000 0.000000 0.000000 0.000000 0.000000 0.000000 229.000000 0.724887 0.570376 -0.386278
3.22000003 3.09999990 -1.39999998 165 76 135 0.000000 0.000000 0.000000 0.000000 0.000000 0.000000 229.000000 0.693138 0.718863 0.052879
3.24000001 3.13000011 -1.42999995 165 76 135 0.000000 0.000000 0.000000 0.000000 0.000000 0.000000 229.000000 0.937121 0.348726 -0.013949
3.24000001 3.07999992 -1.37000000 165 76 135 0.000000 0.000000 0.000000 0.000000 0.000000 0.000000 229.000000 0.496145 0.863661 -0.089052
3.24000001 3.07999992 -1.38000000 165 76 135 0.000000 0.000000 0.000000 0.000000 0.000000 0.000000 229.000000 0.556948 0.800710 -0.220619
3.22000003 3.08999991 -1.38999999 165 76 135 0.000000 0.000000 0.000000 0.000000 0.000000 0.000000 229.000000 0.820759 0.564001 0.090875
3.24000001 3.06999993 -1.40999997 165 76 135 0.000000 0.000000 0.000000 0.000000 0.000000 0.000000 229.000000 0.599599 0.793113 -0.107019
3.25999999 3.05999994 -1.39999998 165 76 135 0.000000 0.000000 0.000000 0.000000 0.000000 0.000000 229.000000 0.640214 0.682786 -0.352036
3.23000002 3.08999991 -1.40999997 165 76 135 0.000000 0.000000 0.000000 0.000000 0.000000 0.000000 229.000000 0.629485 0.773532 0.073464
3.22000003 3.08999991 -1.38999999 165 76 135 0.000000 0.000000 0.000000 0.000000 0.000000 0.000000 229.000000 0.820759 0.564001 0.090875
3.23000002 3.07999992 -1.40999997 165 76 135 0.000000 0.000000 0.000000 0.000000 0.000000 0.000000 229.000000 0.883882 0.422087 0.201484
3.23000002 3.07999992 -1.40999997 165 76 135 0.000000 0.000000 0.000000 0.000000 0.000000 0.000000 229.000000 0.883882 0.422087 0.201484
3.24000001 3.07999992 -1.41999996 165 76 135 0.000000 0.000000 0.000000 0.000000 0.000000 0.000000 229.000000 0.475127 0.844840 0.245966
3.20000005 3.09999990 -1.38999999 165 76 135 0.000000 0.000000 0.000000 0.000000 0.000000 0.000000 229.000000 0.534696 0.775551 -0.335590
3.18000007 3.10999990 -1.44000006 165 76 135 0.000000 0.000000 0.000000 0.000000 0.000000 0.000000 229.000000 0.863649 0.417303 -0.282788
3.19000006 3.10999990 -1.45000005 165 76 135 0.000000 0.000000 0.000000 0.000000 0.000000 0.000000 229.000000 0.555689 0.785521 -0.272335
3.18000007 3.10999990 -1.44000006 165 76 135 0.000000 0.000000 0.000000 0.000000 0.000000 0.000000 229.000000 0.863649 0.417303 -0.282788
3.20000005 3.09999990 -1.42999995 165 76 135 0.000000 0.000000 0.000000 0.000000 0.000000 0.000000 229.000000 0.857070 0.423150 -0.293897
3.21000004 3.08999991 -1.37000000 165 76 135 0.000000 0.000000 0.000000 0.000000 0.000000 0.000000 229.000000 0.844214 0.513034 0.155241
3.25000000 3.03999996 -1.28999996 165 76 135 0.000000 0.000000 0.000000 0.000000 0.000000 0.000000 229.000000 0.702876 0.553328 0.446983
3.25999999 3.01999998 -1.28999996 165 76 135 0.000000 0.000000 0.000000 0.000000 0.000000 0.000000 229.000000 0.666675 0.727420 0.162493
3.31999993 3.05999994 -1.52999997 165 76 135 0.000000 0.000000 0.000000 0.000000 0.000000 0.000000 229.000000 0.540755 0.834926 0.102383
3.32999992 3.05999994 -1.51999998 165 76 135 0.000000 0.000000 0.000000 0.000000 0.000000 0.000000 229.000000 0.685845 0.626635 0.370060
3.30999994 3.06999993 -1.53999996 165 76 135 0.000000 0.000000 0.000000 0.000000 0.000000 0.000000 229.000000 0.673509 0.676724 0.297373
3.29999995 3.10999990 -1.51999998 165 76 135 0.000000 0.000000 0.000000 0.000000 0.000000 0.000000 229.000000 0.760970 0.627307 0.165560
3.30999994 3.07999992 -1.54999995 165 76 135 0.000000 0.000000 0.000000 0.000000 0.000000 0.000000 229.000000 0.818396 0.557930 -0.137633
3.30999994 3.01999998 -1.48000002 165 76 135 0.000000 0.000000 0.000000 0.000000 0.000000 0.000000 229.000000 0.816986 0.574289 0.052208
3.33999991 3.02999997 -1.47000003 165 76 135 0.000000 0.000000 0.000000 0.000000 0.000000 0.000000 229.000000 0.794699 0.604199 -0.058287
3.30999994 3.00999999 -1.47000003 165 76 135 0.000000 0.000000 0.000000 0.000000 0.000000 0.000000 229.000000 0.742016 0.662672 -0.101384
3.32999992 3.00999999 -1.52999997 165 76 135 0.000000 0.000000 0.000000 0.000000 0.000000 0.000000 229.000000 0.827046 0.550880 0.111920
3.33999991 3.01999998 -1.50999999 165 76 135 0.000000 0.000000 0.000000 0.000000 0.000000 0.000000 229.000000 0.795932 0.600188 -0.079161
3.33999991 3.03999996 -1.50999999 165 76 135 0.000000 0.000000 0.000000 0.000000 0.000000 0.000000 229.000000 0.931557 0.340613 -0.127217
3.31999993 2.98000002 -1.49000001 165 76 135 0.000000 0.000000 0.000000 0.000000 0.000000 0.000000 229.000000 0.608341 0.785099 0.116365
3.31999993 2.98000002 -1.47000003 165 76 135 0.000000 0.000000 0.000000 0.000000 0.000000 0.000000 229.000000 0.719117 0.693485 -0.044144
3.30999994 3.00000000 -1.46000004 165 76 135 0.000000 0.000000 0.000000 0.000000 0.000000 0.000000 229.000000 0.731265 0.679545 -0.058903
3.30999994 2.99000001 -1.53999996 165 76 135 0.000000 0.000000 0.000000 0.000000 0.000000 0.000000 229.000000 0.868550 0.492961 -0.051091
3.29999995 3.00999999 -1.46000004 165 76 135 0.000000 0.000000 0.000000 0.000000 0.000000 0.000000 229.000000 0.436573 0.888891 0.138844
3.29999995 3.01999998 -1.49000001 165 76 135 0.000000 0.000000 0.000000 0.000000 0.000000 0.000000 229.000000 0.904861 0.420454 0.066674
3.29999995 3.02999997 -1.47000003 165 76 135 0.000000 0.000000 0.000000 0.000000 0.000000 0.000000 229.000000 0.420158 0.906091 0.049667
3.27999997 3.01999998 -1.49000001 165 76 135 0.000000 0.000000 0.000000 0.000000 0.000000 0.000000 229.000000 0.771034 0.632161 -0.076669
3.29999995 3.01999998 -1.47000003 165 76 135 0.000000 0.000000 0.000000 0.000000 0.000000 0.000000 229.000000 0.927815 0.357270 -0.107317
3.26999998 3.02999997 -1.52999997 165 76 135 0.000000 0.000000 0.000000 0.000000 0.000000 0.000000 229.000000 0.911127 0.392078 0.126972
3.29999995 3.03999996 -1.55999994 165 76 135 0.000000 0.000000 0.000000 0.000000 0.000000 0.000000 229.000000 0.881065 0.472993 -0.001325
3.23000002 3.06999993 -1.46000004 165 76 135 0.000000 0.000000 0.000000 0.000000 0.000000 0.000000 229.000000 0.456130 0.805029 -0.379308
3.22000003 3.05999994 -1.48000002 165 76 135 0.000000 0.000000 0.000000 0.000000 0.000000 0.000000 229.000000 0.506519 0.826750 -0.244792
3.18000007 3.08999991 -1.48000002 165 76 135 0.000000 0.000000 0.000000 0.000000 0.000000 0.000000 229.000000 0.884009 0.449859 0.127103
3.18000007 3.04999995 -1.52999997 165 76 135 0.000000 0.000000 0.000000 0.000000 0.000000 0.000000 229.000000 0.518928 0.766192 -0.379029
3.20000005 3.04999995 -1.59000003 165 76 135 0.000000 0.000000 0.000000 0.000000 0.000000 0.000000 229.000000 0.462186 0.807626 -0.366230
3.25999999 3.02999997 -1.48000002 165 76 135 0.000000 0.000000 0.000000 0.000000 0.000000 0.000000 229.000000 0.657721 0.702312 -0.272325
3.25000000 3.00999999 -1.50000000 165 76 135 0.000000 0.000000 0.000000 0.000000 0.000000 0.000000 229.000000 0.646007 0.735860 -0.202942
3.24000001 2.99000001 -1.53999996 165 76 135 0.000000 0.000000 0.000000 0.000000 0.000000 0.000000 229.000000 0.721454 0.676080 0.149736
3.25999999 3.00000000 -1.53999996 165 76 135 0.000000 0.000000 0.000000 0.000000 0.000000 0.000000 229.000000 0.650376 0.736478 -0.186041
3.23000002 3.00000000 -1.52999997 165 76 135 0.000000 0.000000 0.000000 0.000000 0.000000 0.000000 229.000000 0.743131 0.660397 -0.107850
3.25999999 3.00000000 -1.53999996 165 76 135 0.000000 0.000000 0.000000 0.000000 0.000000 0.000000 229.000000 0.650376 0.736478 -0.186041
3.23000002 2.99000001 -1.51999998 165 76 135 0.000000 0.000000 0.000000 0.000000 0.000000 0.000000 229.000000 0.572636 0.702101 -0.423252
3.19000006 3.03999996 -1.49000001 165 76 135 0.000000 0.000000 0.000000 0.000000 0.000000 0.000000 229.000000 0.702864 0.711214 0.012526
3.21000004 3.03999996 -1.50999999 165 76 135 0.000000 0.000000 0.000000 0.000000 0.000000 0.000000 229.000000 0.656849 0.730687 0.186133
3.21000004 3.02999997 -1.50000000 165 76 135 0.000000 0.000000 0.000000 0.000000 0.000000 0.000000 229.000000 0.611162 0.788642 0.067271
3.20000005 2.98000002 -1.52999997 165 76 135 0.000000 0.000000 0.000000 0.000000 0.000000 0.000000 229.000000 0.373363 0.886174 -0.274399
3.25999999 3.02999997 -1.54999995 165 76 135 0.000000 0.000000 0.000000 0.000000 0.000000 0.000000 229.000000 0.845468 0.519504 0.123691
3.22000003 3.00000000 -1.57000005 165 76 135 0.000000 0.000000 0.000000 0.000000 0.000000 0.000000 229.000000 0.500708 0.863338 0.062763
3.21000004 3.00999999 -1.58000004 165 76 135 0.000000 0.000000 0.000000 0.000000 0.000000 0.000000 229.000000 0.456048 0.889090 0.039244
3.20000005 2.98000002 -1.57000005 165 76 135 0.000000 0.000000 0.000000 0.000000 0.000000 0.000000 229.000000 0.774318 0.572459 -0.269671
3.21000004 2.97000003 -1.58000004 165 76 135 0.000000 0.000000 0.000000 0.000000 0.000000 0.000000 229.000000 0.775999 0.597750 0.201299
3.30999994 2.95000005 -1.34000003 165 76 135 0.000000 0.000000 0.000000 0.000000 0.000000 0.000000 229.000000 0.778374 0.459875 0.427375
3.30999994 2.95000005 -1.34000003 165 76 135 0.000000 0.000000 0.000000 0.000000 0.000000 0.000000 229.000000 0.778374 0.459875 0.427375
3.31999993 2.93000007 -1.37000000 165 76 135 0.000000 0.000000 0.000000 0.000000 0.000000 0.000000 229.000000 0.777586 0.407462 0.478889
3.33999991 2.93000007 -1.40999997 165 76 135 0.000000 0.000000 0.000000 0.000000 0.000000 0.000000 229.000000 0.610731 0.782268 -0.122738
3.32999992 2.94000006 -1.40999997 165 76 135 0.000000 0.000000 0.000000 0.000000 0.000000 0.000000 229.000000 0.649997 0.756648 -0.070621
3.32999992 2.94000006 -1.39999998 165 76 135 0.000000 0.000000 0.000000 0.000000 0.000000 0.000000 229.000000 0.658391 0.752644 0.006930
3.31999993 2.93000007 -1.38000000 165 76 135 0.000000 0.000000 0.000000 0.000000 0.000000 0.000000 229.000000 0.712528 0.701329 0.020998
3.31999993 2.95000005 -1.40999997 165 76 135 0.000000 0.000000 0.000000 0.000000 0.000000 0.000000 229.000000 0.851580 0.359625 0.381421
3.33999991 2.94000006 -1.41999996 165 76 135 0.000000 0.000000 0.000000 0.000000 0.000000 0.000000 229.000000 0.615656 0.703840 0.354369
3.33999991 2.94000006 -1.41999996 165 76 135 0.000000 0.000000 0.000000 0.000000 0.000000 0.000000 229.000000 0.615656 0.703840 0.354369
3.33999991 2.92000008 -1.42999995 165 76 135 0.000000 0.000000 0.000000 0.000000 0.000000 0.000000 229.000000 0.695711 0.653936 -0.297244
3.33999991 2.92000008 -1.42999995 165 76 135 0.000000 0.000000 0.000000 0.000000 0.000000 0.000000 229.000000 0.695711 0.653936 -0.297244
3.27999997 2.96000004 -1.38000000 165 76 135 0.000000 0.000000 0.000000 0.000000 0.000000 0.000000 229.000000 0.719451 0.694305 0.018161
3.33999991 2.91000009 -1.49000001 165 76 135 0.000000 0.000000 0.000000 0.000000 0.000000 0.000000 229.000000 0.613337 0.789375 0.026545
3.33999991 2.92000008 -1.50000000 165 76 135 0.000000 0.000000 0.000000 0.000000 0.000000 0.000000 229.000000 0.755642 0.601043 0.260294
3.33999991 2.95000005 -1.54999995 165 76 135 0.000000 0.000000 0.000000 0.000000 0.000000 0.000000 229.000000 0.477853 0.871546 0.109835
3.25999999 2.94000006 -1.57000005 165 76 135 0.000000 0.000000 0.000000 0.000000 0.000000 0.000000 229.000000 0.780701 0.482055 -0.397654
3.22000003 2.96000004 -1.59000003 165 76 135 0.000000 0.000000 0.000000 0.000000 0.000000 0.000000 229.000000 0.622596 0.782092 -0.026583
3.22000003 2.95000005 -1.59000003 165 76 135 0.000000 0.000000 0.000000 0.000000 0.000000 0.000000 229.000000 0.758067 0.648328 0.070753
3.19000006 2.90000010 -1.60000002 165 76 135 0.000000 0.000000 0.000000 0.000000 0.000000 0.000000 229.000000 0.457183 0.793205 -0.402256
3.15000010 3.09999990 -1.48000002 165 76 135 0.000000 0.000000 0.000000 0.000000 0.000000 0.000000 229.000000 0.368542 0.842157 -0.393634
3.16000009 3.11999989 -1.48000002 165 76 135 0.000000 0.000000 0.000000 0.000000 0.000000 0.000000 229.000000 0.759466 0.617163 -0.205721
3.17000008 3.10999990 -1.48000002 165 76 135 0.000000 0.000000 0.000000 0.000000 0.000000 0.000000 229.000000 0.680652 0.627914 -0.377408
3.16000009 3.11999989 -1.49000001 165 76 135 0.000000 0.000000 0.000000 0.000000 0.000000 0.000000 229.000000 0.723133 0.661194 -0.199752
3.15000010 3.09999990 -1.49000001 165 76 135 0.000000 0.000000 0.000000 0.000000 0.000000 0.000000 229.000000 0.613965 0.738352 -0.279075
3.14000010 3.09999990 -1.49000001 165 76 135 0.000000 0.000000 0.000000 0.000000 0.000000 0.000000 229.000000 0.750850 0.605423 -0.263983
3.16000009 3.11999989 -1.48000002 165 76 135 0.000000 0.000000 0.000000 0.000000 0.000000 0.000000 229.000000 0.759466 0.617163 -0.205721
3.15000010 3.09999990 -1.48000002 165 76 135 0.000000 0.000000 0.000000 0.000000 0.000000 0.000000 229.000000 0.368542 0.842157 -0.393634
3.14000010 3.08999991 -1.53999996 165 76 135 0.000000 0.000000 0.000000 0.000000 0.000000 0.000000 229.000000 0.765280 0.626958 0.145839
3.16000009 3.06999993 -1.53999996 165 76 135 0.000000 0.000000 0.000000 0.000000 0.000000 0.000000 229.000000 0.709859 0.695039 -0.114111
3.16000009 3.06999993 -1.53999996 165 76 135 0.000000 0.000000 0.000000 0.000000 0.000000 0.000000 229.000000 0.709859 0.695039 -0.114111
3.08999991 3.13000011 -1.50999999 165 76 135 0.000000 0.000000 0.000000 0.000000 0.000000 0.000000 229.000000 0.513899 0.826840 -0.228570
3.13000011 3.09999990 -1.53999996 165 76 135 0.000000 0.000000 0.000000 0.000000 0.000000 0.000000 229.000000 0.663526 0.746288 -0.052797
3.08999991 3.13000011 -1.50999999 165 76 135 0.000000 0.000000 0.000000 0.000000 0.000000 0.000000 229.000000 0.513899 0.826840 -0.228570
3.08999991 3.13000011 -1.53999996 165 76 135 0.000000 0.000000 0.000000 0.000000 0.000000 0.000000 229.000000 0.605592 0.768932 0.204946
3.09999990 3.10999990 -1.50999999 165 76 135 0.000000 0.000000 0.000000 0.000000 0.000000 0.000000 229.000000 0.450482 0.830330 -0.328051
3.08999991 3.07999992 -1.50999999 165 76 135 0.000000 0.000000 0.000000 0.000000 0.000000 0.000000 229.000000 0.471497 0.785828 -0.400205
3.14000010 3.09999990 -1.55999994 165 76 135 0.000000 0.000000 0.000000 0.000000 0.000000 0.000000 229.000000 0.781279 0.535232 -0.321139
3.14000010 3.06999993 -1.60000002 165 76 135 0.000000 0.000000 0.000000 0.000000 0.000000 0.000000 229.000000 0.584352 0.804033 0.109841
3.11999989 3.06999993 -1.57000005 165 76 135 0.000000 0.000000 0.000000 0.000000 0.000000 0.000000 229.000000 0.485539 0.861722 -0.147266
3.15000010 2.99000001 -1.57000005 165 76 135 0.000000 0.000000 0.000000 0.000000 0.000000 0.000000 229.000000 0.743639 0.578386 -0.335367
3.16000009 2.98000002 -1.58000004 165 76 135 0.000000 0.000000 0.000000 0.000000 0.000000 0.000000 229.000000 0.354284 0.918880 -0.173613
3.09999990 3.01999998 -1.61000001 165 76 135 0.000000 0.000000 0.000000 0.000000 0.000000 0.000000 229.000000 0.413445 0.910107 0.027739
3.05999994 3.13000011 -1.52999997 165 76 135 0.000000 0.000000 0.000000 0.000000 0.000000 0.000000 229.000000 0.617643 0.720852 -0.314466
3.05999994 3.13000011 -1.50999999 165 76 135 0.000000 0.000000 0.000000 0.000000 0.000000 0.000000 229.000000 0.492646 0.858111 0.144724
3.02999997 3.05999994 -1.50000000 165 76 135 0.000000 0.000000 0.000000 0.000000 0.000000 0.000000 229.000000 0.817552 0.575722 0.012366
3.04999995 3.09999990 -1.61000001 165 76 135 0.000000 0.000000 0.000000 0.000000 0.000000 0.000000 229.000000 0.644780 0.664569 -0.377633
3.07999992 3.07999992 -1.60000002 165 76 135 0.000000 0.000000 0.000000 0.000000 0.000000 0.000000 229.000000 0.746472 0.574832 -0.335184
3.06999993 3.07999992 -1.60000002 165 76 135 0.000000 0.000000 0.000000 0.000000 0.000000 0.000000 229.000000 0.559732 0.778550 -0.283830
3.03999996 3.13000011 -1.57000005 165 76 135 0.000000 0.000000 0.000000 0.000000 0.000000 0.000000 229.000000 0.589188 0.723020 -0.360694
3.17000008 2.94000006 -1.60000002 165 76 135 0.000000 0.000000 0.000000 0.000000 0.000000 0.000000 229.000000 0.838691 0.543979 0.026166
3.17000008 2.95000005 -1.60000002 165 76 135 0.000000 0.000000 0.000000 0.000000 0.000000 0.000000 229.000000 0.887378 0.429937 -0.166474
3.06999993 2.95000005 -1.57000005 165 76 135 0.000000 0.000000 0.000000 0.000000 0.000000 0.000000 229.000000 0.393340 0.832492 -0.390181
3.05999994 2.95000005 -1.55999994 165 76 135 0.000000 0.000000 0.000000 0.000000 0.000000 0.000000 229.000000 0.735696 0.510854 -0.444724
3.10999990 3.02999997 -1.63000000 165 76 135 0.000000 0.000000 0.000000 0.000000 0.000000 0.000000 229.000000 0.646187 0.694773 -0.315806
3.19000006 3.00999999 -1.63000000 165 76 135 0.000000 0.000000 0.000000 0.000000 0.000000 0.000000 229.000000 0.516253 0.855857 0.031496
2.95000005 3.47000003 -1.35000002 165 76 135 0.000000 0.000000 0.000000 0.000000 0.000000 0.000000 229.000000 0.390491 0.912998 0.118120
2.97000003 3.47000003 -1.39999998 165 76 135 0.000000 0.000000 0.000000 0.000000 0.000000 0.000000 229.000000 0.296976 0.869608 -0.394446
2.97000003 3.47000003 -1.40999997 165 76 135 0.000000 0.000000 0.000000 0.000000 0.000000 0.000000 229.000000 0.380188 0.778172 -0.499906
2.98000002 3.40000010 -1.41999996 165 76 135 0.000000 0.000000 0.000000 0.000000 0.000000 0.000000 229.000000 0.553023 0.724708 -0.411053
2.94000006 3.47000003 -1.38000000 165 76 135 0.000000 0.000000 0.000000 0.000000 0.000000 0.000000 229.000000 0.420141 0.898282 0.128730
2.98000002 3.31999993 -1.28999996 165 76 135 0.000000 0.000000 0.000000 0.000000 0.000000 0.000000 229.000000 0.612310 0.737010 -0.286171
3.00000000 3.32999992 -1.35000002 165 76 135 0.000000 0.000000 0.000000 0.000000 0.000000 0.000000 229.000000 0.603716 0.781369 -0.158080
3.00000000 3.33999991 -1.33000004 165 76 135 0.000000 0.000000 0.000000 0.000000 0.000000 0.000000 229.000000 0.342158 0.938676 -0.042608
2.96000004 3.35999990 -1.30999994 165 76 135 0.000000 0.000000 0.000000 0.000000 0.000000 0.000000 229.000000 0.790097 0.473412 -0.389394
2.92000008 3.35999990 -1.29999995 165 76 135 0.000000 0.000000 0.000000 0.000000 0.000000 0.000000 229.000000 0.614703 0.774014 -0.151797
2.93000007 3.36999989 -1.35000002 165 76 135 0.000000 0.000000 0.000000 0.000000 0.000000 0.000000 229.000000 0.430404 0.902116 -0.030648
2.94000006 3.35999990 -1.36000001 165 76 135 0.000000 0.000000 0.000000 0.000000 0.000000 0.000000 229.000000 0.245464 0.935570 -0.253880
2.96000004 3.30999994 -1.30999994 165 76 135 0.000000 0.000000 0.000000 0.000000 0.000000 0.000000 229.000000 0.824369 0.486487 -0.289389
2.96000004 3.30999994 -1.30999994 165 76 135 0.000000 0.000000 0.000000 0.000000 0.000000 0.000000 229.000000 0.824369 0.486487 -0.289389
2.96000004 3.30999994 -1.30999994 165 76 135 0.000000 0.000000 0.000000 0.000000 0.000000 0.000000 229.000000 0.824369 0.486487 -0.289389
2.95000005 3.34999990 -1.32000005 165 76 135 0.000000 0.000000 0.000000 0.000000 0.000000 0.000000 229.000000 0.707623 0.511154 -0.487844
2.95000005 3.31999993 -1.30999994 165 76 135 0.000000 0.000000 0.000000 0.000000 0.000000 0.000000 229.000000 0.610682 0.791522 -0.023648
2.93000007 3.33999991 -1.36000001 165 76 135 0.000000 0.000000 0.000000 0.000000 0.000000 0.000000 229.000000 0.506325 0.809173 -0.298117
2.99000001 3.31999993 -1.40999997 165 76 135 0.000000 0.000000 0.000000 0.000000 0.000000 0.000000 229.000000 0.821613 0.533061 -0.201986
3.00000000 3.32999992 -1.38999999 165 76 135 0.000000 0.000000 0.000000 0.000000 0.000000 0.000000 229.000000 0.305487 0.848231 -0.432644
2.96000004 3.38000011 -1.38000000 165 76 135 0.000000 0.000000 0.000000 0.000000 0.000000 0.000000 229.000000 0.655374 0.530701 -0.537440
2.92000008 3.36999989 -1.38999999 165 76 135 0.000000 0.000000 0.000000 0.000000 0.000000 0.000000 229.000000 0.730404 0.590505 -0.343241
2.92000008 3.36999989 -1.38999999 165 76 135 0.000000 0.000000 0.000000 0.000000 0.000000 0.000000 229.000000 0.730404 0.590505 -0.343241
2.94000006 3.30999994 -1.38999999 165 76 135 0.000000 0.000000 0.000000 0.000000 0.000000 0.000000 229.000000 0.763073 0.640981 0.082848
2.89000010 3.43000007 -1.32000005 165 76 135 0.000000 0.000000 0.000000 0.000000 0.000000 0.000000 229.000000 0.348137 0.858739 -0.375988
2.88000011 3.42000008 -1.34000003 165 76 135 0.000000 0.000000 0.000000 0.000000 0.000000 0.000000 229.000000 0.417575 0.867038 -0.271803
2.89000010 3.40000010 -1.36000001 165 76 135 0.000000 0.000000 0.000000 0.000000 0.000000 0.000000 229.000000 0.597003 0.795517 0.103636
2.88000011 3.40000010 -1.36000001 165 76 135 0.000000 0.000000 0.000000 0.000000 0.000000 0.000000 229.000000 0.422870 0.708101 -0.565486
2.85999990 3.45000005 -1.34000003 165 76 135 0.000000 0.000000 0.000000 0.000000 0.000000 0.000000 229.000000 0.540932 0.829821 -0.137075
2.86999989 3.42000008 -1.32000005 165 76 135 0.000000 0.000000 0.000000 0.000000 0.000000 0.000000 229.000000 0.522563 0.841663 -0.136130
2.85999990 3.43000007 -1.33000004 165 76 135 0.000000 0.000000 0.000000 0.000000 0.000000 0.000000 229.000000 0.688482 0.652843 -0.315892
2.91000009 3.44000006 -1.39999998 165 76 135 0.000000 0.000000 0.000000 0.000000 0.000000 0.000000 229.000000 0.445568 0.659173 -0.605772
2.89000010 3.46000004 -1.38000000 165 76 135 0.000000 0.000000 0.000000 0.000000 0.000000 0.000000 229.000000 0.514657 0.847069 -0.132674
2.91000009 3.44000006 -1.41999996 165 76 135 0.000000 0.000000 0.000000 0.000000 0.000000 0.000000 229.000000 0.312177 0.944501 -0.102288
2.85999990 3.44000006 -1.37000000 165 76 135 0.000000 0.000000 0.000000 0.000000 0.000000 0.000000 229.000000 0.522054 0.720931 -0.455761
2.84999990 3.46000004 -1.44000006 165 76 135 0.000000 0.000000 0.000000 0.000000 0.000000 0.000000 229.000000 0.426762 0.848868 -0.311924
2.85999990 3.42000008 -1.45000005 165 76 135 0.000000 0.000000 0.000000 0.000000 0.000000 0.000000 229.000000 0.197989 0.975001 -0.100862
2.85999990 3.42000008 -1.44000006 165 76 135 0.000000 0.000000 0.000000 0.000000 0.000000 0.000000 229.000000 0.420852 0.794943 -0.436977
2.85999990 3.42000008 -1.45000005 165 76 135 0.000000 0.000000 0.000000 0.000000 0.000000 0.000000 229.000000 0.197989 0.975001 -0.100862
2.91000009 3.36999989 -1.30999994 165 76 135 0.000000 0.000000 0.000000 0.000000 0.000000 0.000000 229.000000 0.654727 0.604492 -0.453787
2.91000009 3.36999989 -1.30999994 165 76 135 0.000000 0.000000 0.000000 0.000000 0.000000 0.000000 229.000000 0.654727 0.604492 -0.453787
2.90000010 3.38000011 -1.36000001 165 76 135 0.000000 0.000000 0.000000 0.000000 0.000000 0.000000 229.000000 0.701544 0.712614 -0.004151
2.88000011 3.35999990 -1.34000003 165 76 135 0.000000 0.000000 0.000000 0.000000 0.000000 0.000000 229.000000 0.430704 0.676821 -0.596999
2.91000009 3.39000010 -1.35000002 165 76 135 0.000000 0.000000 0.000000 0.000000 0.000000 0.000000 229.000000 0.356285 0.933129 -0.048288
2.90000010 3.33999991 -1.34000003 165 76 135 0.000000 0.000000 0.000000 0.000000 0.000000 0.000000 229.000000 0.813592 0.484996 -0.320698
2.90000010 3.33999991 -1.34000003 165 76 135 0.000000 0.000000 0.000000 0.000000 0.000000 0.000000 229.000000 0.813592 0.484996 -0.320698
2.91000009 3.33999991 -1.33000004 165 76 135 0.000000 0.000000 0.000000 0.000000 0.000000 0.000000 229.000000 0.430713 0.844322 -0.318759
2.89000010 3.34999990 -1.34000003 165 76 135 0.000000 0.000000 0.000000 0.000000 0.000000 0.000000 229.000000 0.832168 0.518028 -0.197848
2.91000009 3.33999991 -1.34000003 165 76 135 0.000000 0.000000 0.000000 0.000000 0.000000 0.000000 229.000000 0.305487 0.848231 -0.432644
2.89000010 3.39000010 -1.41999996 165 76 135 0.000000 0.000000 0.000000 0.000000 0.000000 0.000000 229.000000 0.500569 0.591581 -0.632031
2.90000010 3.33999991 -1.38999999 165 76 135 0.000000 0.000000 0.000000 0.000000 0.000000 0.000000 229.000000 0.748828 0.650572 -0.126541
2.91000009 3.33999991 -1.39999998 165 76 135 0.000000 0.000000 0.000000 0.000000 0.000000 0.000000 229.000000 0.277493 0.810529 -0.515791
2.89000010 3.34999990 -1.39999998 165 76 135 0.000000 0.000000 0.000000 0.000000 0.000000 0.000000 229.000000 0.448682 0.890460 -0.075931
2.86999989 3.38000011 -1.38999999 165 76 135 0.000000 0.000000 0.000000 0.000000 0.000000 0.000000 229.000000 0.445568 0.605772 -0.659173
2.86999989 3.36999989 -1.40999997 165 76 135 0.000000 0.000000 0.000000 0.000000 0.000000 0.000000 229.000000 0.574601 0.809731 -0.119035
2.85999990 3.38000011 -1.38999999 165 76 135 0.000000 0.000000 0.000000 0.000000 0.000000 0.000000 229.000000 0.454641 0.818987 -0.350089
2.86999989 3.39000010 -1.38000000 165 76 135 0.000000 0.000000 0.000000 0.000000 0.000000 0.000000 229.000000 0.193352 0.980821 -0.024608
2.86999989 3.39000010 -1.37000000 165 76 135 0.000000 0.000000 0.000000 0.000000 0.000000 0.000000 229.000000 0.579243 0.804421 -0.131848
2.84999990 3.38000011 -1.39999998 165 76 135 0.000000 0.000000 0.000000 0.000000 0.000000 0.000000 229.000000 0.618287 0.733318 -0.282783
2.99000001 3.30999994 -1.50000000 165 76 135 0.000000 0.000000 0.000000 0.000000 0.000000 0.000000 229.000000 0.712600 0.580942 -0.393329
2.91000009 3.42000008 -1.46000004 165 76 135 0.000000 0.000000 0.000000 0.000000 0.000000 0.000000 229.000000 0.670352 0.710791 -0.213082
2.84999990 3.44000006 -1.46000004 165 76 135 0.000000 0.000000 0.000000 0.000000 0.000000 0.000000 229.000000 0.683826 0.727015 -0.061904
2.84999990 3.44000006 -1.46000004 165 76 135 0.000000 0.000000 0.000000 0.000000 0.000000 0.000000 229.000000 0.683826 0.727015 -0.061904
2.83999991 3.43000007 -1.46000004 165 76 135 0.000000 0.000000 0.000000 0.000000 0.000000 0.000000 229.000000 0.139302 0.768409 -0.624613
2.97000003 3.27999997 -1.28999996 165 76 135 0.000000 0.000000 0.000000 0.000000 0.000000 0.000000 229.000000 0.286829 0.946670 -0.146781
2.98000002 3.28999996 -1.32000005 165 76 135 0.000000 0.000000 0.000000 0.000000 0.000000 0.000000 229.000000 0.494129 0.817274 -0.296478
2.99000001 3.26999998 -1.34000003 165 76 135 0.000000 0.000000 0.000000 0.000000 0.000000 0.000000 229.000000 0.641647 0.729501 0.236892
2.94000006 3.29999995 -1.30999994 165 76 135 0.000000 0.000000 0.000000 0.000000 0.000000 0.000000 229.000000 0.428238 0.816677 -0.386847
2.97000003 3.20000005 -1.32000005 165 76 135 0.000000 0.000000 0.000000 0.000000 0.000000 0.000000 229.000000 0.373801 0.927487 -0.006379
2.99000001 3.22000003 -1.28999996 165 76 135 0.000000 0.000000 0.000000 0.000000 0.000000 0.000000 229.000000 0.729764 0.617492 -0.293509
2.98000002 3.27999997 -1.47000003 165 76 135 0.000000 0.000000 0.000000 0.000000 0.000000 0.000000 229.000000 0.627949 0.634647 -0.450449
2.99000001 3.24000001 -1.50999999 165 76 135 0.000000 0.000000 0.000000 0.000000 0.000000 0.000000 229.000000 0.275153 0.955865 -0.103020
2.96000004 3.28999996 -1.51999998 165 76 135 0.000000 0.000000 0.000000 0.000000 0.000000 0.000000 229.000000 0.370589 0.815933 -0.443753
2.96000004 3.24000001 -1.51999998 165 76 135 0.000000 0.000000 0.000000 0.000000 0.000000 0.000000 229.000000 0.411017 0.908061 -0.080565
3.00000000 3.14000010 -1.47000003 165 76 135 0.000000 0.000000 0.000000 0.000000 0.000000 0.000000 229.000000 0.628574 0.574648 -0.524093
2.79999995 3.47000003 -1.35000002 165 76 135 0.000000 0.000000 0.000000 0.000000 0.000000 0.000000 229.000000 0.212307 0.751597 -0.624523
2.79999995 3.47000003 -1.35000002 165 76 135 0.000000 0.000000 0.000000 0.000000 0.000000 0.000000 229.000000 0.212307 0.751597 -0.624523
2.82999992 3.43000007 -1.44000006 165 76 135 0.000000 0.000000 0.000000 0.000000 0.000000 0.000000 229.000000 0.638144 0.761941 -0.110533
2.82999992 3.43000007 -1.44000006 165 76 135 0.000000 0.000000 0.000000 0.000000 0.000000 0.000000 229.000000 0.638144 0.761941 -0.110533
3.00000000 3.08999991 -1.55999994 165 76 135 0.000000 0.000000 0.000000 0.000000 0.000000 0.000000 229.000000 0.206817 0.974641 -0.085451
2.84999990 3.49000001 -1.50999999 165 76 135 0.000000 0.000000 0.000000 0.000000 0.000000 0.000000 229.000000 0.221684 0.824052 -0.521339
2.86999989 3.49000001 -1.52999997 165 76 135 0.000000 0.000000 0.000000 0.000000 0.000000 0.000000 229.000000 0.118622 0.968110 -0.220663
2.80999994 3.48000002 -1.35000002 165 76 135 0.000000 0.000000 0.000000 0.000000 0.000000 0.000000 229.000000 0.191051 0.790188 -0.582324
2.79999995 3.59999990 -1.57000005 165 76 135 0.000000 0.000000 0.000000 0.000000 0.000000 0.000000 229.000000 0.522841 0.722019 -0.453129
2.76999998 3.57999992 -1.61000001 165 76 135 0.000000 0.000000 0.000000 0.000000 0.000000 0.000000 229.000000 0.287200 0.659438 -0.694736
2.79999995 3.54999995 -1.53999996 165 76 135 0.000000 0.000000 0.000000 0.000000 0.000000 0.000000 229.000000 0.547362 0.641677 -0.537257
2.82999992 3.50000000 -1.52999997 165 76 135 0.000000 0.000000 0.000000 0.000000 0.000000 0.000000 229.000000 0.566274 0.823797 -0.026306
2.81999993 3.50000000 -1.53999996 165 76 135 0.000000 0.000000 0.000000 0.000000 0.000000 0.000000 229.000000 0.193669 0.803650 -0.562707
2.81999993 3.50999999 -1.52999997 165 76 135 0.000000 0.000000 0.000000 0.000000 0.000000 0.000000 229.000000 0.458669 0.768801 -0.445611
2.78999996 3.53999996 -1.60000002 165 76 135 0.000000 0.000000 0.000000 0.000000 0.000000 0.000000 229.000000 0.332049 0.943119 -0.016413
2.78999996 3.53999996 -1.60000002 165 76 135 0.000000 0.000000 0.000000 0.000000 0.000000 0.000000 229.000000 0.332049 0.943119 -0.016413
2.77999997 3.52999997 -1.57000005 165 76 135 0.000000 0.000000 0.000000 0.000000 0.000000 0.000000 229.000000 0.595749 0.642738 -0.481634
2.76999998 3.54999995 -1.55999994 165 76 135 0.000000 0.000000 0.000000 0.000000 0.000000 0.000000 229.000000 0.421405 0.779354 -0.463708
2.77999997 3.54999995 -1.59000003 165 76 135 0.000000 0.000000 0.000000 0.000000 0.000000 0.000000 229.000000 0.502548 0.696220 -0.512565
3.35999990 2.96000004 -1.17999995 165 76 135 0.000000 0.000000 0.000000 0.000000 0.000000 0.000000 229.000000 0.853379 0.380834 0.355963
3.36999989 2.95000005 -1.21000004 165 76 135 0.000000 0.000000 0.000000 0.000000 0.000000 0.000000 229.000000 0.736470 0.661166 -0.143077
3.36999989 2.94000006 -1.44000006 165 76 135 0.000000 0.000000 0.000000 0.000000 0.000000 0.000000 229.000000 0.580457 0.779649 -0.234984
3.34999990 2.90000010 -1.38999999 165 76 135 0.000000 0.000000 0.000000 0.000000 0.000000 0.000000 229.000000 0.811558 0.553680 0.186582
3.38000011 2.88000011 -1.42999995 165 76 135 0.000000 0.000000 0.000000 0.000000 0.000000 0.000000 229.000000 0.778601 0.625989 -0.043805
3.45000005 2.85999990 -1.47000003 165 76 135 0.000000 0.000000 0.000000 0.000000 0.000000 0.000000 229.000000 0.627344 0.753737 -0.195756
3.46000004 2.85999990 -1.57000005 165 76 135 0.000000 0.000000 0.000000 0.000000 0.000000 0.000000 229.000000 0.776171 0.625851 0.076605
3.36999989 2.93000007 -1.52999997 165 76 135 0.000000 0.000000 0.000000 0.000000 0.000000 0.000000 229.000000 0.933229 0.351786 -0.073012
3.35999990 2.95000005 -1.52999997 165 76 135 0.000000 0.000000 0.000000 0.000000 0.000000 0.000000 229.000000 0.903055 0.426629 -0.049796
3.38000011 2.91000009 -1.49000001 165 76 135 0.000000 0.000000 0.000000 0.000000 0.000000 0.000000 229.000000 0.766323 0.634451 0.101102
3.36999989 2.90000010 -1.46000004 165 76 135 0.000000 0.000000 0.000000 0.000000 0.000000 0.000000 229.000000 0.752722 0.654854 0.067644
3.38000011 2.91000009 -1.48000002 165 76 135 0.000000 0.000000 0.000000 0.000000 0.000000 0.000000 229.000000 0.520466 0.794229 0.313553
3.36999989 2.90000010 -1.47000003 165 76 135 0.000000 0.000000 0.000000 0.000000 0.000000 0.000000 229.000000 0.810216 0.581583 0.072877
3.35999990 2.90000010 -1.51999998 165 76 135 0.000000 0.000000 0.000000 0.000000 0.000000 0.000000 229.000000 0.951100 0.306028 0.041904
3.39000010 2.93000007 -1.57000005 165 76 135 0.000000 0.000000 0.000000 0.000000 0.000000 0.000000 229.000000 0.475190 0.879834 0.009317
3.40000010 2.92000008 -1.57000005 165 76 135 0.000000 0.000000 0.000000 0.000000 0.000000 0.000000 229.000000 0.775906 0.613822 0.145576
3.40000010 2.92000008 -1.57000005 165 76 135 0.000000 0.000000 0.000000 0.000000 0.000000 0.000000 229.000000 0.775906 0.613822 0.145576
3.43000007 2.88000011 -1.57000005 165 76 135 0.000000 0.000000 0.000000 0.000000 0.000000 0.000000 229.000000 0.646240 0.762981 0.015287
3.36999989 2.90000010 -1.54999995 165 76 135 0.000000 0.000000 0.000000 0.000000 0.000000 0.000000 229.000000 0.585796 0.797457 -0.144586
3.39000010 2.85999990 -1.48000002 165 76 135 0.000000 0.000000 0.000000 0.000000 0.000000 0.000000 229.000000 0.960965 0.194308 0.196952
3.39000010 2.85999990 -1.48000002 165 76 135 0.000000 0.000000 0.000000 0.000000 0.000000 0.000000 229.000000 0.960965 0.194308 0.196952
3.38000011 2.84999990 -1.46000004 165 76 135 0.000000 0.000000 0.000000 0.000000 0.000000 0.000000 229.000000 0.847896 0.494980 0.189917
3.38000011 2.75000000 -1.53999996 165 76 135 0.000000 0.000000 0.000000 0.000000 0.000000 0.000000 229.000000 0.531206 0.791260 0.302867
3.41000009 2.75000000 -1.55999994 165 76 135 0.000000 0.000000 0.000000 0.000000 0.000000 0.000000 229.000000 0.711569 0.511596 0.481600
3.09999990 3.15000010 -1.11000001 165 76 135 0.000000 0.000000 0.000000 0.000000 0.000000 0.000000 229.000000 0.793282 0.537791 -0.285455
3.09999990 3.14000010 -1.10000002 165 76 135 0.000000 0.000000 0.000000 0.000000 0.000000 0.000000 229.000000 0.871800 0.439626 -0.216087
3.08999991 3.15000010 -1.10000002 165 76 135 0.000000 0.000000 0.000000 0.000000 0.000000 0.000000 229.000000 0.817083 0.441193 0.371112
3.04999995 3.17000008 -1.10000002 165 76 135 0.000000 0.000000 0.000000 0.000000 0.000000 0.000000 229.000000 0.965060 0.255934 -0.056181
3.06999993 3.14000010 -1.11000001 165 76 135 0.000000 0.000000 0.000000 0.000000 0.000000 0.000000 229.000000 0.923473 0.366370 -0.113890
3.06999993 3.15000010 -1.01999998 165 76 135 0.000000 0.000000 0.000000 0.000000 0.000000 0.000000 229.000000 0.764750 0.621834 0.168762
3.09999990 3.15000010 -1.11000001 165 76 135 0.000000 0.000000 0.000000 0.000000 0.000000 0.000000 229.000000 0.793282 0.537791 -0.285455
3.04999995 3.15000010 -1.10000002 165 76 135 0.000000 0.000000 0.000000 0.000000 0.000000 0.000000 229.000000 0.831762 0.554045 -0.034715
3.04999995 3.17000008 -1.11000001 165 76 135 0.000000 0.000000 0.000000 0.000000 0.000000 0.000000 229.000000 0.654929 0.755472 0.018154
3.08999991 3.18000007 -1.13999999 165 76 135 0.000000 0.000000 0.000000 0.000000 0.000000 0.000000 229.000000 0.495647 0.859795 -0.122828
3.00999999 3.25000000 -1.26999998 165 76 135 0.000000 0.000000 0.000000 0.000000 0.000000 0.000000 229.000000 0.671291 0.580892 -0.460361
3.00999999 3.25999999 -1.24000001 165 76 135 0.000000 0.000000 0.000000 0.000000 0.000000 0.000000 229.000000 0.797770 0.452875 -0.398079
3.00999999 3.26999998 -1.25999999 165 76 135 0.000000 0.000000 0.000000 0.000000 0.000000 0.000000 229.000000 0.832404 0.532679 0.152830
3.04999995 3.19000006 -1.13000000 165 76 135 0.000000 0.000000 0.000000 0.000000 0.000000 0.000000 229.000000 0.583039 0.788097 0.197407
3.04999995 3.18000007 -1.14999998 165 76 135 0.000000 0.000000 0.000000 0.000000 0.000000 0.000000 229.000000 0.743722 0.667225 0.041082
3.04999995 3.18000007 -1.13999999 165 76 135 0.000000 0.000000 0.000000 0.000000 0.000000 0.000000 229.000000 0.695314 0.673140 0.251834
3.06999993 3.17000008 -1.12000000 165 76 135 0.000000 0.000000 0.000000 0.000000 0.000000 0.000000 229.000000 0.775845 0.589269 0.225446
3.05999994 3.14000010 -1.15999997 165 76 135 0.000000 0.000000 0.000000 0.000000 0.000000 0.000000 229.000000 0.811300 0.581124 -0.063938
3.05999994 3.15000010 -1.16999996 165 76 135 0.000000 0.000000 0.000000 0.000000 0.000000 0.000000 229.000000 0.913880 0.404850 -0.030331
3.05999994 3.14000010 -1.15999997 165 76 135 0.000000 0.000000 0.000000 0.000000 0.000000 0.000000 229.000000 0.811300 0.581124 -0.063938
3.03999996 3.18000007 -1.13000000 165 76 135 0.000000 0.000000 0.000000 0.000000 0.000000 0.000000 229.000000 0.911251 0.343349 -0.227451
3.01999998 3.18000007 -1.19000006 165 76 135 0.000000 0.000000 0.000000 0.000000 0.000000 0.000000 229.000000 0.832696 0.548984 -0.072347
3.01999998 3.22000003 -1.19000006 165 76 135 0.000000 0.000000 0.000000 0.000000 0.000000 0.000000 229.000000 0.544903 0.720464 -0.428966
3.00999999 3.22000003 -1.20000005 165 76 135 0.000000 0.000000 0.000000 0.000000 0.000000 0.000000 229.000000 0.775216 0.565955 -0.280599
3.00999999 3.22000003 -1.20000005 165 76 135 0.000000 0.000000 0.000000 0.000000 0.000000 0.000000 229.000000 0.775216 0.565955 -0.280599
3.00999999 3.22000003 -1.25000000 165 76 135 0.000000 0.000000 0.000000 0.000000 0.000000 0.000000 229.000000 0.620768 0.781336 -0.064514
3.00999999 3.20000005 -1.25000000 165 76 135 0.000000 0.000000 0.000000 0.000000 0.000000 0.000000 229.000000 0.814650 0.531293 -0.232537
3.01999998 3.20000005 -1.27999997 165 76 135 0.000000 0.000000 0.000000 0.000000 0.000000 0.000000 229.000000 0.893572 0.446108 -0.050170
3.01999998 3.17000008 -1.22000003 165 76 135 0.000000 0.000000 0.000000 0.000000 0.000000 0.000000 229.000000 0.583826 0.810005 0.055131
3.24000001 2.98000002 -0.87000000 165 76 135 0.000000 0.000000 0.000000 0.000000 0.000000 0.000000 229.000000 0.673742 0.522528 0.522528
3.21000004 2.97000003 -0.92000002 165 76 135 0.000000 0.000000 0.000000 0.000000 0.000000 0.000000 229.000000 0.851431 0.353336 0.387580
3.24000001 2.96000004 -0.86000001 165 76 135 0.000000 0.000000 0.000000 0.000000 0.000000 0.000000 229.000000 0.802272 0.465990 0.373112
3.21000004 3.05999994 -1.10000002 165 76 135 0.000000 0.000000 0.000000 0.000000 0.000000 0.000000 229.000000 0.756904 0.587995 0.285233
3.23000002 3.00999999 -0.98000002 165 76 135 0.000000 0.000000 0.000000 0.000000 0.000000 0.000000 229.000000 0.885563 0.447756 0.123666
3.23000002 3.00999999 -1.00000000 165 76 135 0.000000 0.000000 0.000000 0.000000 0.000000 0.000000 229.000000 0.890345 0.389618 0.235549
3.22000003 3.00999999 -0.99000001 165 76 135 0.000000 0.000000 0.000000 0.000000 0.000000 0.000000 229.000000 0.812735 0.416746 0.407166
3.22000003 3.00999999 -1.00000000 165 76 135 0.000000 0.000000 0.000000 0.000000 0.000000 0.000000 229.000000 0.765161 0.291111 0.574268
3.23000002 3.00999999 -0.99000001 165 76 135 0.000000 0.000000 0.000000 0.000000 0.000000 0.000000 229.000000 0.812290 0.572262 0.112696
3.23000002 2.97000003 -1.01999998 165 76 135 0.000000 0.000000 0.000000 0.000000 0.000000 0.000000 229.000000 0.995167 0.097903 0.007531
3.23000002 2.97000003 -1.00999999 165 76 135 0.000000 0.000000 0.000000 0.000000 0.000000 0.000000 229.000000 0.966149 0.254768 -0.040615
3.18000007 3.02999997 -1.00000000 165 76 135 0.000000 0.000000 0.000000 0.000000 0.000000 0.000000 229.000000 0.892458 0.419556 -0.165804
3.18000007 3.02999997 -0.99000001 165 76 135 0.000000 0.000000 0.000000 0.000000 0.000000 0.000000 229.000000 0.732745 0.610888 0.299832
3.21000004 2.98000002 -1.00000000 165 76 135 0.000000 0.000000 0.000000 0.000000 0.000000 0.000000 229.000000 0.599802 0.633404 0.488914
3.19000006 2.97000003 -1.00999999 165 76 135 0.000000 0.000000 0.000000 0.000000 0.000000 0.000000 229.000000 0.800158 0.599071 0.029325
3.23000002 3.03999996 -1.07000005 165 76 135 0.000000 0.000000 0.000000 0.000000 0.000000 0.000000 229.000000 0.906740 0.394665 0.148530
3.22000003 3.01999998 -1.09000003 165 76 135 0.000000 0.000000 0.000000 0.000000 0.000000 0.000000 229.000000 0.672109 0.739743 0.032408
3.23000002 2.97000003 -1.03999996 165 76 135 0.000000 0.000000 0.000000 0.000000 0.000000 0.000000 229.000000 0.942070 0.193915 0.273682
3.23000002 2.98000002 -1.05999994 165 76 135 0.000000 0.000000 0.000000 0.000000 0.000000 0.000000 229.000000 0.842925 0.537892 0.012256
3.24000001 3.00000000 -1.10000002 165 76 135 0.000000 0.000000 0.000000 0.000000 0.000000 0.000000 229.000000 0.638634 0.715462 0.283304
3.24000001 2.97000003 -1.08000004 165 76 135 0.000000 0.000000 0.000000 0.000000 0.000000 0.000000 229.000000 0.717162 0.606579 0.343132
3.25000000 2.97000003 -1.09000003 165 76 135 0.000000 0.000000 0.000000 0.000000 0.000000 0.000000 229.000000 0.889958 0.345513 0.297650
3.23000002 3.00000000 -1.11000001 165 76 135 0.000000 0.000000 0.000000 0.000000 0.000000 0.000000 229.000000 0.680136 0.721991 0.127058
3.25000000 2.98000002 -1.11000001 165 76 135 0.000000 0.000000 0.000000 0.000000 0.000000 0.000000 229.000000 0.730751 0.667469 0.143137
3.24000001 2.99000001 -1.11000001 165 76 135 0.000000 0.000000 0.000000 0.000000 0.000000 0.000000 229.000000 0.927912 0.290415 0.233749
3.20000005 3.03999996 -1.05999994 165 76 135 0.000000 0.000000 0.000000 0.000000 0.000000 0.000000 229.000000 0.567881 0.795649 0.210839
3.18000007 3.01999998 -1.08000004 165 76 135 0.000000 0.000000 0.000000 0.000000 0.000000 0.000000 229.000000 0.976822 0.153840 0.148837
3.19000006 2.99000001 -1.04999995 165 76 135 0.000000 0.000000 0.000000 0.000000 0.000000 0.000000 229.000000 0.603548 0.726523 0.328472
3.27999997 3.05999994 -1.17999995 165 76 135 0.000000 0.000000 0.000000 0.000000 0.000000 0.000000 229.000000 0.956424 0.270095 0.110909
3.26999998 3.05999994 -1.25999999 165 76 135 0.000000 0.000000 0.000000 0.000000 0.000000 0.000000 229.000000 0.851778 0.516186 -0.089586
3.27999997 3.05999994 -1.25000000 165 76 135 0.000000 0.000000 0.000000 0.000000 0.000000 0.000000 229.000000 0.638058 0.737900 -0.219966
3.30999994 2.99000001 -1.14999998 165 76 135 0.000000 0.000000 0.000000 0.000000 0.000000 0.000000 229.000000 0.641100 0.714642 0.279782
3.27999997 3.01999998 -1.13999999 165 76 135 0.000000 0.000000 0.000000 0.000000 0.000000 0.000000 229.000000 0.832367 0.354031 0.426411
3.26999998 3.01999998 -1.14999998 165 76 135 0.000000 0.000000 0.000000 0.000000 0.000000 0.000000 229.000000 0.707106 0.564691 0.425588
3.30999994 3.00999999 -1.22000003 165 76 135 0.000000 0.000000 0.000000 0.000000 0.000000 0.000000 229.000000 0.901791 0.379014 0.207659
3.30999994 3.00999999 -1.22000003 165 76 135 0.000000 0.000000 0.000000 0.000000 0.000000 0.000000 229.000000 0.901791 0.379014 0.207659
3.30999994 2.97000003 -1.27999997 165 76 135 0.000000 0.000000 0.000000 0.000000 0.000000 0.000000 229.000000 0.692720 0.701855 0.165948
3.30999994 2.98000002 -1.24000001 165 76 135 0.000000 0.000000 0.000000 0.000000 0.000000 0.000000 229.000000 0.688997 0.723233 -0.047074
3.27999997 3.01999998 -1.21000004 165 76 135 0.000000 0.000000 0.000000 0.000000 0.000000 0.000000 229.000000 0.694928 0.688710 -0.206768
3.28999996 3.00999999 -1.26999998 165 76 135 0.000000 0.000000 0.000000 0.000000 0.000000 0.000000 229.000000 0.916332 0.392326 -0.080094
3.26999998 3.00000000 -1.22000003 165 76 135 0.000000 0.000000 0.000000 0.000000 0.000000 0.000000 229.000000 0.732750 0.517722 0.441635
3.26999998 3.00000000 -1.20000005 165 76 135 0.000000 0.000000 0.000000 0.000000 0.000000 0.000000 229.000000 0.872502 0.334638 0.356030
3.26999998 3.00000000 -1.21000004 165 76 135 0.000000 0.000000 0.000000 0.000000 0.000000 0.000000 229.000000 0.849311 0.503678 0.158046
3.27999997 2.99000001 -1.20000005 165 76 135 0.000000 0.000000 0.000000 0.000000 0.000000 0.000000 229.000000 0.939831 0.328343 -0.094382
3.26999998 2.98000002 -1.26999998 165 76 135 0.000000 0.000000 0.000000 0.000000 0.000000 0.000000 229.000000 0.731682 0.681124 0.026683
3.27999997 2.97000003 -1.27999997 165 76 135 0.000000 0.000000 0.000000 0.000000 0.000000 0.000000 229.000000 0.942302 0.330519 -0.053142
3.25000000 3.09999990 -1.17999995 165 76 135 0.000000 0.000000 0.000000 0.000000 0.000000 0.000000 229.000000 0.743713 0.666629 -0.049962
3.24000001 3.10999990 -1.17999995 165 76 135 0.000000 0.000000 0.000000 0.000000 0.000000 0.000000 229.000000 0.550412 0.830621 0.084349
3.23000002 3.04999995 -1.15999997 165 76 135 0.000000 0.000000 0.000000 0.000000 0.000000 0.000000 229.000000 0.921753 0.197417 0.333763
3.23000002 3.04999995 -1.15999997 165 76 135 0.000000 0.000000 0.000000 0.000000 0.000000 0.000000 229.000000 0.921753 0.197417 0.333763
3.19000006 3.10999990 -1.13999999 165 76 135 0.000000 0.000000 0.000000 0.000000 0.000000 0.000000 229.000000 0.564152 0.824530 -0.043396
3.21000004 3.09999990 -1.19000006 165 76 135 0.000000 0.000000 0.000000 0.000000 0.000000 0.000000 229.000000 0.726041 0.623465 0.290096
3.19000006 3.05999994 -1.13000000 165 76 135 0.000000 0.000000 0.000000 0.000000 0.000000 0.000000 229.000000 0.973760 0.201252 0.106251
3.21000004 3.05999994 -1.15999997 165 76 135 0.000000 0.000000 0.000000 0.000000 0.000000 0.000000 229.000000 0.641389 0.699550 0.315040
