//X Y Z R G B PointSourceId ScanDirectionFlag NumberOfReturns ReturnNumber GpsTime Intensity Classification Nx Ny Nz
0.93000001 13.31000042 -0.77999997 105 137 134 0.000000 0.000000 0.000000 0.000000 0.000000 0.000000 20.000000 0.733795 -0.475393 0.485332
0.93000001 13.31000042 -0.80000001 105 137 134 0.000000 0.000000 0.000000 0.000000 0.000000 0.000000 20.000000 0.723303 -0.637460 0.265476
0.88999999 13.32999992 -0.79000002 105 137 134 0.000000 0.000000 0.000000 0.000000 0.000000 0.000000 20.000000 0.973441 -0.119634 0.195192
0.87000000 13.31999969 -0.77999997 105 137 134 0.000000 0.000000 0.000000 0.000000 0.000000 0.000000 20.000000 0.836599 0.470296 0.280936
0.88000000 13.35000038 -0.82999998 105 137 134 0.000000 0.000000 0.000000 0.000000 0.000000 0.000000 20.000000 0.768884 -0.612967 0.181903
0.92000002 13.34000015 -0.87000000 105 137 134 0.000000 0.000000 0.000000 0.000000 0.000000 0.000000 20.000000 -0.435640 0.863690 -0.253491
0.91000003 13.34000015 -0.86000001 105 137 134 0.000000 0.000000 0.000000 0.000000 0.000000 0.000000 20.000000 -0.383887 0.703519 -0.598073
0.92000002 13.34000015 -0.86000001 105 137 134 0.000000 0.000000 0.000000 0.000000 0.000000 0.000000 20.000000 -0.461262 0.739011 -0.491020
0.93000001 13.35000038 -0.91000003 105 137 134 0.000000 0.000000 0.000000 0.000000 0.000000 0.000000 20.000000 0.661664 -0.608331 0.438332
0.93000001 13.31999969 -0.91000003 105 137 134 0.000000 0.000000 0.000000 0.000000 0.000000 0.000000 20.000000 0.861235 -0.506851 -0.037087
0.88000000 13.34000015 -0.89999998 105 137 134 0.000000 0.000000 0.000000 0.000000 0.000000 0.000000 20.000000 0.728683 -0.679033 0.089077
0.89999998 13.27000046 -0.67000002 105 137 134 0.000000 0.000000 0.000000 0.000000 0.000000 0.000000 20.000000 -0.382697 0.883955 -0.268638
0.94000000 13.26000023 -0.63999999 105 137 134 0.000000 0.000000 0.000000 0.000000 0.000000 0.000000 20.000000 -0.724417 0.662896 -0.189179
0.88999999 13.25000000 -0.63999999 105 137 134 0.000000 0.000000 0.000000 0.000000 0.000000 0.000000 20.000000 -0.069763 0.997078 -0.031125
0.89999998 13.27000046 -0.69000000 105 137 134 0.000000 0.000000 0.000000 0.000000 0.000000 0.000000 20.000000 -0.041279 0.959420 -0.278945
0.94000000 13.36999989 -1.03999996 105 137 134 0.000000 0.000000 0.000000 0.000000 0.000000 0.000000 20.000000 -0.691633 0.675806 -0.254812
0.92000002 13.34000015 -0.97000003 105 137 134 0.000000 0.000000 0.000000 0.000000 0.000000 0.000000 20.000000 -0.746481 0.415076 -0.520076
0.94000000 13.35000038 -0.97000003 105 137 134 0.000000 0.000000 0.000000 0.000000 0.000000 0.000000 20.000000 0.633968 -0.695899 0.337356
0.93000001 13.31999969 -0.98000002 105 137 134 0.000000 0.000000 0.000000 0.000000 0.000000 0.000000 20.000000 0.708015 -0.555468 0.436084
0.94000000 13.34000015 -1.00000000 105 137 134 0.000000 0.000000 0.000000 0.000000 0.000000 0.000000 20.000000 -0.660961 0.747362 -0.067680
0.93000001 13.31999969 -1.00000000 105 137 134 0.000000 0.000000 0.000000 0.000000 0.000000 0.000000 20.000000 -0.661745 0.674752 -0.326808
0.94000000 13.32999992 -1.00000000 105 137 134 0.000000 0.000000 0.000000 0.000000 0.000000 0.000000 20.000000 0.809282 -0.558177 0.183034
0.94000000 13.31999969 -1.01999998 105 137 134 0.000000 0.000000 0.000000 0.000000 0.000000 0.000000 20.000000 0.868534 -0.378356 0.320148
0.94000000 13.31000042 -1.13999999 105 137 134 0.000000 0.000000 0.000000 0.000000 0.000000 0.000000 20.000000 0.870092 -0.303237 0.388570
0.88000000 13.28999996 -1.15999997 105 137 134 0.000000 0.000000 0.000000 0.000000 0.000000 0.000000 20.000000 0.995297 -0.069593 0.067384
0.88999999 13.28999996 -1.17999995 105 137 134 0.000000 0.000000 0.000000 0.000000 0.000000 0.000000 20.000000 0.727942 -0.329114 0.601485
0.94000000 13.34000015 -1.20000005 105 137 134 0.000000 0.000000 0.000000 0.000000 0.000000 0.000000 20.000000 0.770144 -0.377776 0.513969
0.94000000 13.28999996 -1.23000002 105 137 134 0.000000 0.000000 0.000000 0.000000 0.000000 0.000000 20.000000 0.950651 0.052459 0.305795
0.94000000 13.30000019 -1.22000003 105 137 134 0.000000 0.000000 0.000000 0.000000 0.000000 0.000000 20.000000 0.763912 -0.638298 0.094941
0.94000000 13.30000019 -1.21000004 105 137 134 0.000000 0.000000 0.000000 0.000000 0.000000 0.000000 20.000000 0.863203 -0.504328 0.023109
0.94000000 13.28999996 -1.25000000 105 137 134 0.000000 0.000000 0.000000 0.000000 0.000000 0.000000 20.000000 0.989391 -0.014566 0.144543
0.88999999 13.25000000 -1.16999996 105 137 134 0.000000 0.000000 0.000000 0.000000 0.000000 0.000000 20.000000 0.971709 0.218853 0.088792
0.88999999 13.25000000 -1.17999995 105 137 134 0.000000 0.000000 0.000000 0.000000 0.000000 0.000000 20.000000 0.965816 0.180684 0.185884
0.92000002 13.27000046 -1.13999999 105 137 134 0.000000 0.000000 0.000000 0.000000 0.000000 0.000000 20.000000 0.884761 0.076392 0.459742
0.92000002 13.27000046 -1.21000004 105 137 134 0.000000 0.000000 0.000000 0.000000 0.000000 0.000000 20.000000 0.956069 0.033744 0.291195
0.91000003 13.22000027 -1.25000000 105 137 134 0.000000 0.000000 0.000000 0.000000 0.000000 0.000000 20.000000 0.983266 -0.008013 0.182001
0.91000003 13.22999954 -1.25000000 105 137 134 0.000000 0.000000 0.000000 0.000000 0.000000 0.000000 20.000000 0.965310 -0.226144 0.130517
0.88000000 13.25000000 -1.21000004 105 137 134 0.000000 0.000000 0.000000 0.000000 0.000000 0.000000 20.000000 0.844210 0.037306 0.534712
1.13999999 13.36999989 -1.32000005 105 137 134 0.000000 0.000000 0.000000 0.000000 0.000000 0.000000 20.000000 0.516312 0.772040 -0.370644
1.21000004 13.17000008 -1.28999996 105 137 134 0.000000 0.000000 0.000000 0.000000 0.000000 0.000000 20.000000 0.828109 -0.375262 0.416430
1.15999997 13.22000027 -1.32000005 105 137 134 0.000000 0.000000 0.000000 0.000000 0.000000 0.000000 20.000000 0.780778 -0.148363 0.606939
1.17999995 13.19999981 -1.28999996 105 137 134 0.000000 0.000000 0.000000 0.000000 0.000000 0.000000 20.000000 0.927860 0.001273 0.372926
1.16999996 13.22000027 -1.35000002 105 137 134 0.000000 0.000000 0.000000 0.000000 0.000000 0.000000 20.000000 0.908327 -0.282298 0.308626
1.13999999 13.21000004 -1.29999995 105 137 134 0.000000 0.000000 0.000000 0.000000 0.000000 0.000000 20.000000 0.939071 -0.313930 0.139977
1.14999998 13.21000004 -1.30999994 105 137 134 0.000000 0.000000 0.000000 0.000000 0.000000 0.000000 20.000000 0.902381 0.006548 0.430890
1.14999998 13.18999958 -1.36000001 105 137 134 0.000000 0.000000 0.000000 0.000000 0.000000 0.000000 20.000000 -0.528929 0.776512 -0.342437
1.13999999 13.18999958 -1.36000001 105 137 134 0.000000 0.000000 0.000000 0.000000 0.000000 0.000000 20.000000 0.694468 -0.409388 0.591706
1.14999998 13.21000004 -1.34000003 105 137 134 0.000000 0.000000 0.000000 0.000000 0.000000 0.000000 20.000000 0.935283 -0.352182 -0.034831
1.13000000 13.18999958 -1.40999997 105 137 134 0.000000 0.000000 0.000000 0.000000 0.000000 0.000000 20.000000 -0.238894 0.971027 -0.005943
1.15999997 13.14999962 -1.36000001 105 137 134 0.000000 0.000000 0.000000 0.000000 0.000000 0.000000 20.000000 -0.393814 0.857124 -0.332039
1.19000006 13.18000031 -1.33000004 105 137 134 0.000000 0.000000 0.000000 0.000000 0.000000 0.000000 20.000000 0.809173 -0.506325 0.298117
1.15999997 13.13000011 -1.33000004 105 137 134 0.000000 0.000000 0.000000 0.000000 0.000000 0.000000 20.000000 -0.631887 0.775059 0.001377
1.12000000 13.18000031 -1.29999995 105 137 134 0.000000 0.000000 0.000000 0.000000 0.000000 0.000000 20.000000 -0.209200 0.958055 -0.195875
1.12000000 13.18000031 -1.30999994 105 137 134 0.000000 0.000000 0.000000 0.000000 0.000000 0.000000 20.000000 0.589068 -0.538431 0.602570
1.13000000 13.15999985 -1.29999995 105 137 134 0.000000 0.000000 0.000000 0.000000 0.000000 0.000000 20.000000 -0.574289 0.816986 0.052208
1.13000000 13.15999985 -1.28999996 105 137 134 0.000000 0.000000 0.000000 0.000000 0.000000 0.000000 20.000000 -0.614658 0.788696 0.012431
1.13999999 13.18000031 -1.36000001 105 137 134 0.000000 0.000000 0.000000 0.000000 0.000000 0.000000 20.000000 -0.529444 0.836197 -0.143053
1.16999996 13.14999962 -1.40999997 105 137 134 0.000000 0.000000 0.000000 0.000000 0.000000 0.000000 20.000000 -0.258187 0.918800 -0.298574
1.12000000 13.15999985 -1.38000000 105 137 134 0.000000 0.000000 0.000000 0.000000 0.000000 0.000000 20.000000 -0.331052 0.940398 0.077817
1.12000000 13.15999985 -1.38999999 105 137 134 0.000000 0.000000 0.000000 0.000000 0.000000 0.000000 20.000000 -0.255289 0.964565 -0.066652
1.14999998 13.14000034 -1.42999995 105 137 134 0.000000 0.000000 0.000000 0.000000 0.000000 0.000000 20.000000 -0.023682 0.953522 -0.300391
1.12000000 13.13000011 -1.42999995 105 137 134 0.000000 0.000000 0.000000 0.000000 0.000000 0.000000 20.000000 -0.239416 0.950901 -0.196132
1.11000001 13.36999989 -1.29999995 105 137 134 0.000000 0.000000 0.000000 0.000000 0.000000 0.000000 20.000000 -0.150802 0.983231 -0.102546
1.10000002 13.35999966 -1.32000005 105 137 134 0.000000 0.000000 0.000000 0.000000 0.000000 0.000000 20.000000 -0.100963 0.981648 -0.161783
1.08000004 13.35999966 -1.29999995 105 137 134 0.000000 0.000000 0.000000 0.000000 0.000000 0.000000 20.000000 -0.180154 0.981900 -0.058461
1.10000002 13.35999966 -1.32000005 105 137 134 0.000000 0.000000 0.000000 0.000000 0.000000 0.000000 20.000000 -0.100963 0.981648 -0.161783
1.10000002 13.35999966 -1.30999994 105 137 134 0.000000 0.000000 0.000000 0.000000 0.000000 0.000000 20.000000 -0.202376 0.974631 0.095601
1.11000001 13.35999966 -1.30999994 105 137 134 0.000000 0.000000 0.000000 0.000000 0.000000 0.000000 20.000000 -0.209770 0.975247 -0.069923
1.07000005 13.35999966 -1.29999995 105 137 134 0.000000 0.000000 0.000000 0.000000 0.000000 0.000000 20.000000 -0.180951 0.960227 -0.212650
1.07000005 13.35999966 -1.28999996 105 137 134 0.000000 0.000000 0.000000 0.000000 0.000000 0.000000 20.000000 -0.281853 0.956240 -0.078507
1.09000003 13.39999962 -1.33000004 105 137 134 0.000000 0.000000 0.000000 0.000000 0.000000 0.000000 20.000000 0.168342 0.896386 -0.410064
1.09000003 13.35999966 -1.33000004 105 137 134 0.000000 0.000000 0.000000 0.000000 0.000000 0.000000 20.000000 -0.010646 0.973532 -0.228301
1.08000004 13.35999966 -1.36000001 105 137 134 0.000000 0.000000 0.000000 0.000000 0.000000 0.000000 20.000000 -0.036894 0.947783 -0.316776
1.05999994 13.40999985 -1.32000005 105 137 134 0.000000 0.000000 0.000000 0.000000 0.000000 0.000000 20.000000 0.167082 0.906814 -0.387003
1.07000005 13.35000038 -1.30999994 105 137 134 0.000000 0.000000 0.000000 0.000000 0.000000 0.000000 20.000000 -0.204688 0.943764 -0.259638
1.09000003 13.35000038 -1.34000003 105 137 134 0.000000 0.000000 0.000000 0.000000 0.000000 0.000000 20.000000 0.151640 0.938529 -0.310111
1.05999994 13.35000038 -1.30999994 105 137 134 0.000000 0.000000 0.000000 0.000000 0.000000 0.000000 20.000000 -0.278178 0.954686 -0.105786
1.03999996 13.32999992 -1.35000002 105 137 134 0.000000 0.000000 0.000000 0.000000 0.000000 0.000000 20.000000 -0.439044 0.890793 0.117172
1.05999994 13.34000015 -1.35000002 105 137 134 0.000000 0.000000 0.000000 0.000000 0.000000 0.000000 20.000000 -0.325234 0.941187 0.091596
1.02999997 13.31999969 -1.33000004 105 137 134 0.000000 0.000000 0.000000 0.000000 0.000000 0.000000 20.000000 -0.713077 0.682668 -0.159644
1.02999997 13.34000015 -1.41999996 105 137 134 0.000000 0.000000 0.000000 0.000000 0.000000 0.000000 20.000000 0.569280 -0.532117 0.626715
0.95999998 13.35999966 -1.34000003 105 137 134 0.000000 0.000000 0.000000 0.000000 0.000000 0.000000 20.000000 0.821693 -0.444886 0.356225
0.98000002 13.36999989 -1.32000005 105 137 134 0.000000 0.000000 0.000000 0.000000 0.000000 0.000000 20.000000 -0.291148 0.941789 -0.168128
0.95999998 13.38000011 -1.32000005 105 137 134 0.000000 0.000000 0.000000 0.000000 0.000000 0.000000 20.000000 -0.278684 0.929418 -0.241903
0.97000003 13.36999989 -1.35000002 105 137 134 0.000000 0.000000 0.000000 0.000000 0.000000 0.000000 20.000000 -0.696237 0.670862 -0.255340
0.97000003 13.38000011 -1.36000001 105 137 134 0.000000 0.000000 0.000000 0.000000 0.000000 0.000000 20.000000 -0.211988 0.923356 -0.320116
0.94999999 13.42000008 -1.38999999 105 137 134 0.000000 0.000000 0.000000 0.000000 0.000000 0.000000 20.000000 -0.713341 0.632829 -0.301117
0.97000003 13.39000034 -1.41999996 105 137 134 0.000000 0.000000 0.000000 0.000000 0.000000 0.000000 20.000000 -0.472263 0.702554 -0.532339
1.00000000 13.34000015 -1.28999996 105 137 134 0.000000 0.000000 0.000000 0.000000 0.000000 0.000000 20.000000 0.602955 -0.562421 0.565798
0.99000001 13.31999969 -1.32000005 105 137 134 0.000000 0.000000 0.000000 0.000000 0.000000 0.000000 20.000000 0.720121 -0.487287 0.493940
1.01999998 13.30000019 -1.32000005 105 137 134 0.000000 0.000000 0.000000 0.000000 0.000000 0.000000 20.000000 -0.641653 0.740607 -0.199454
0.99000001 13.31000042 -1.32000005 105 137 134 0.000000 0.000000 0.000000 0.000000 0.000000 0.000000 20.000000 0.788776 -0.579666 0.204498
1.00999999 13.30000019 -1.33000004 105 137 134 0.000000 0.000000 0.000000 0.000000 0.000000 0.000000 20.000000 -0.397954 0.900785 -0.173836
0.98000002 13.31999969 -1.28999996 105 137 134 0.000000 0.000000 0.000000 0.000000 0.000000 0.000000 20.000000 0.452793 -0.603167 0.656634
0.97000003 13.27999973 -1.32000005 105 137 134 0.000000 0.000000 0.000000 0.000000 0.000000 0.000000 20.000000 0.950600 -0.145732 0.274083
0.95999998 13.27999973 -1.35000002 105 137 134 0.000000 0.000000 0.000000 0.000000 0.000000 0.000000 20.000000 0.989010 -0.049508 0.139313
0.98000002 13.31000042 -1.36000001 105 137 134 0.000000 0.000000 0.000000 0.000000 0.000000 0.000000 20.000000 0.727567 -0.618352 0.297130
0.97000003 13.27999973 -1.36000001 105 137 134 0.000000 0.000000 0.000000 0.000000 0.000000 0.000000 20.000000 0.958791 -0.267119 0.096782
0.97000003 13.28999996 -1.34000003 105 137 134 0.000000 0.000000 0.000000 0.000000 0.000000 0.000000 20.000000 0.897706 -0.440259 0.017187
0.99000001 13.31999969 -1.40999997 105 137 134 0.000000 0.000000 0.000000 0.000000 0.000000 0.000000 20.000000 0.811300 -0.581124 -0.063938
1.01999998 13.27999973 -1.37000000 105 137 134 0.000000 0.000000 0.000000 0.000000 0.000000 0.000000 20.000000 0.741709 -0.409502 0.531202
1.00000000 13.28999996 -1.40999997 105 137 134 0.000000 0.000000 0.000000 0.000000 0.000000 0.000000 20.000000 -0.670862 0.696237 -0.255340
0.98000002 13.31000042 -1.41999996 105 137 134 0.000000 0.000000 0.000000 0.000000 0.000000 0.000000 20.000000 0.804156 -0.478017 0.353317
0.98000002 13.28999996 -1.44000006 105 137 134 0.000000 0.000000 0.000000 0.000000 0.000000 0.000000 20.000000 0.778721 -0.349860 0.520760
0.97000003 13.30000019 -1.41999996 105 137 134 0.000000 0.000000 0.000000 0.000000 0.000000 0.000000 20.000000 0.968135 -0.163719 0.189502
0.97000003 13.30000019 -1.41999996 105 137 134 0.000000 0.000000 0.000000 0.000000 0.000000 0.000000 20.000000 0.968135 -0.163719 0.189502
1.10000002 13.13000011 -1.42999995 105 137 134 0.000000 0.000000 0.000000 0.000000 0.000000 0.000000 20.000000 0.459335 0.769917 -0.442989
1.00000000 13.23999977 -1.28999996 105 137 134 0.000000 0.000000 0.000000 0.000000 0.000000 0.000000 20.000000 0.979457 -0.198266 -0.036804
0.99000001 13.23999977 -1.32000005 105 137 134 0.000000 0.000000 0.000000 0.000000 0.000000 0.000000 20.000000 0.985950 -0.161422 -0.042968
1.00000000 13.25000000 -1.32000005 105 137 134 0.000000 0.000000 0.000000 0.000000 0.000000 0.000000 20.000000 0.952284 -0.304080 -0.026279
0.99000001 13.21000004 -1.29999995 105 137 134 0.000000 0.000000 0.000000 0.000000 0.000000 0.000000 20.000000 0.947226 0.315742 0.055416
0.99000001 13.19999981 -1.30999994 105 137 134 0.000000 0.000000 0.000000 0.000000 0.000000 0.000000 20.000000 0.999904 0.004965 -0.012908
0.99000001 13.22000027 -1.30999994 105 137 134 0.000000 0.000000 0.000000 0.000000 0.000000 0.000000 20.000000 0.998801 0.030204 0.038536
0.99000001 13.22000027 -1.30999994 105 137 134 0.000000 0.000000 0.000000 0.000000 0.000000 0.000000 20.000000 0.998801 0.030204 0.038536
1.00999999 13.21000004 -1.34000003 105 137 134 0.000000 0.000000 0.000000 0.000000 0.000000 0.000000 20.000000 0.881718 -0.070593 0.466466
1.00999999 13.18999958 -1.35000002 105 137 134 0.000000 0.000000 0.000000 0.000000 0.000000 0.000000 20.000000 0.954931 -0.033881 0.294887
1.00999999 13.21000004 -1.34000003 105 137 134 0.000000 0.000000 0.000000 0.000000 0.000000 0.000000 20.000000 0.881718 -0.070593 0.466466
0.95999998 13.26000023 -1.32000005 105 137 134 0.000000 0.000000 0.000000 0.000000 0.000000 0.000000 20.000000 0.794856 -0.566432 0.217621
0.94999999 13.27000046 -1.30999994 105 137 134 0.000000 0.000000 0.000000 0.000000 0.000000 0.000000 20.000000 0.695272 -0.143277 0.704321
0.94999999 13.27000046 -1.28999996 105 137 134 0.000000 0.000000 0.000000 0.000000 0.000000 0.000000 20.000000 0.721844 -0.526033 0.449700
0.95999998 13.27000046 -1.32000005 105 137 134 0.000000 0.000000 0.000000 0.000000 0.000000 0.000000 20.000000 0.895622 -0.340129 0.286659
0.94999999 13.26000023 -1.30999994 105 137 134 0.000000 0.000000 0.000000 0.000000 0.000000 0.000000 20.000000 0.727347 -0.361222 0.583512
0.94999999 13.27000046 -1.28999996 105 137 134 0.000000 0.000000 0.000000 0.000000 0.000000 0.000000 20.000000 0.721844 -0.526033 0.449700
1.01999998 13.25000000 -1.40999997 105 137 134 0.000000 0.000000 0.000000 0.000000 0.000000 0.000000 20.000000 0.956656 0.043999 0.287877
1.00999999 13.18999958 -1.37000000 105 137 134 0.000000 0.000000 0.000000 0.000000 0.000000 0.000000 20.000000 0.901392 0.063900 0.428263
0.99000001 13.22000027 -1.38000000 105 137 134 0.000000 0.000000 0.000000 0.000000 0.000000 0.000000 20.000000 0.901825 -0.302576 0.308480
1.00000000 13.21000004 -1.39999998 105 137 134 0.000000 0.000000 0.000000 0.000000 0.000000 0.000000 20.000000 0.877806 0.124583 0.462531
1.00000000 13.21000004 -1.39999998 105 137 134 0.000000 0.000000 0.000000 0.000000 0.000000 0.000000 20.000000 0.877806 0.124583 0.462531
1.01999998 13.18999958 -1.38000000 105 137 134 0.000000 0.000000 0.000000 0.000000 0.000000 0.000000 20.000000 0.910684 0.205731 0.358231
1.00999999 13.22999954 -1.42999995 105 137 134 0.000000 0.000000 0.000000 0.000000 0.000000 0.000000 20.000000 0.815388 0.150556 0.558995
1.00999999 13.19999981 -1.45000005 105 137 134 0.000000 0.000000 0.000000 0.000000 0.000000 0.000000 20.000000 0.897951 0.131511 0.419987
0.97000003 13.27000046 -1.38999999 105 137 134 0.000000 0.000000 0.000000 0.000000 0.000000 0.000000 20.000000 0.951851 -0.287525 0.106345
0.97000003 13.27000046 -1.38999999 105 137 134 0.000000 0.000000 0.000000 0.000000 0.000000 0.000000 20.000000 0.951851 -0.287525 0.106345
0.98000002 13.22000027 -1.38000000 105 137 134 0.000000 0.000000 0.000000 0.000000 0.000000 0.000000 20.000000 0.900261 0.041592 0.433360
1.00000000 13.17000008 -1.32000005 105 137 134 0.000000 0.000000 0.000000 0.000000 0.000000 0.000000 20.000000 0.781566 0.414344 0.466340
1.00000000 13.17000008 -1.32000005 105 137 134 0.000000 0.000000 0.000000 0.000000 0.000000 0.000000 20.000000 0.781566 0.414344 0.466340
1.00000000 13.15999985 -1.28999996 105 137 134 0.000000 0.000000 0.000000 0.000000 0.000000 0.000000 20.000000 0.885371 0.464654 -0.014645
1.00999999 13.14999962 -1.35000002 105 137 134 0.000000 0.000000 0.000000 0.000000 0.000000 0.000000 20.000000 0.883472 0.362720 0.296497
1.00000000 13.17000008 -1.34000003 105 137 134 0.000000 0.000000 0.000000 0.000000 0.000000 0.000000 20.000000 0.965561 0.154646 0.209227
1.00000000 13.14999962 -1.35000002 105 137 134 0.000000 0.000000 0.000000 0.000000 0.000000 0.000000 20.000000 0.914482 0.377873 -0.144688
0.99000001 13.18000031 -1.33000004 105 137 134 0.000000 0.000000 0.000000 0.000000 0.000000 0.000000 20.000000 0.799866 0.555420 0.227428
1.00999999 13.10999966 -1.35000002 105 137 134 0.000000 0.000000 0.000000 0.000000 0.000000 0.000000 20.000000 0.660972 0.741180 -0.117341
1.01999998 13.15999985 -1.38000000 105 137 134 0.000000 0.000000 0.000000 0.000000 0.000000 0.000000 20.000000 0.909261 0.291374 0.297230
1.01999998 13.18000031 -1.38000000 105 137 134 0.000000 0.000000 0.000000 0.000000 0.000000 0.000000 20.000000 0.944491 0.013834 0.328245
1.00999999 13.17000008 -1.41999996 105 137 134 0.000000 0.000000 0.000000 0.000000 0.000000 0.000000 20.000000 0.890530 0.425780 -0.160209
1.00000000 13.18000031 -1.44000006 105 137 134 0.000000 0.000000 0.000000 0.000000 0.000000 0.000000 20.000000 0.877144 0.139709 0.459456
1.01999998 13.14000034 -1.42999995 105 137 134 0.000000 0.000000 0.000000 0.000000 0.000000 0.000000 20.000000 0.594085 0.664371 0.453513
0.88999999 13.46000004 -1.38000000 105 137 134 0.000000 0.000000 0.000000 0.000000 0.000000 0.000000 20.000000 -0.654720 0.750960 -0.086032
0.87000000 13.46000004 -1.39999998 105 137 134 0.000000 0.000000 0.000000 0.000000 0.000000 0.000000 20.000000 -0.386166 0.914896 -0.117649
0.85000002 13.46000004 -1.39999998 105 137 134 0.000000 0.000000 0.000000 0.000000 0.000000 0.000000 20.000000 0.789044 -0.589132 0.174165
0.83999997 13.44999981 -1.39999998 105 137 134 0.000000 0.000000 0.000000 0.000000 0.000000 0.000000 20.000000 0.756345 -0.648918 0.082748
0.93000001 13.40999985 -1.32000005 105 137 134 0.000000 0.000000 0.000000 0.000000 0.000000 0.000000 20.000000 -0.606486 0.731966 -0.310482
0.88999999 13.36999989 -1.32000005 105 137 134 0.000000 0.000000 0.000000 0.000000 0.000000 0.000000 20.000000 0.924582 -0.166453 0.342697
0.91000003 13.39999962 -1.39999998 105 137 134 0.000000 0.000000 0.000000 0.000000 0.000000 0.000000 20.000000 -0.533011 0.835491 -0.133620
0.89999998 13.39999962 -1.38000000 105 137 134 0.000000 0.000000 0.000000 0.000000 0.000000 0.000000 20.000000 -0.409051 0.680647 -0.607780
0.94000000 13.39999962 -1.44000006 105 137 134 0.000000 0.000000 0.000000 0.000000 0.000000 0.000000 20.000000 0.773449 -0.578118 0.259917
0.93000001 13.38000011 -1.44000006 105 137 134 0.000000 0.000000 0.000000 0.000000 0.000000 0.000000 20.000000 -0.528695 0.705483 -0.471990
0.94000000 13.31999969 -1.28999996 105 137 134 0.000000 0.000000 0.000000 0.000000 0.000000 0.000000 20.000000 -0.675367 0.688080 -0.265379
0.93000001 13.34000015 -1.41999996 105 137 134 0.000000 0.000000 0.000000 0.000000 0.000000 0.000000 20.000000 0.623358 -0.528756 0.576057
0.93000001 13.34000015 -1.45000005 105 137 134 0.000000 0.000000 0.000000 0.000000 0.000000 0.000000 20.000000 0.872340 -0.481824 0.082879
0.94000000 13.27999973 -1.39999998 105 137 134 0.000000 0.000000 0.000000 0.000000 0.000000 0.000000 20.000000 0.914048 -0.268838 0.303714
0.93000001 13.27000046 -1.32000005 105 137 134 0.000000 0.000000 0.000000 0.000000 0.000000 0.000000 20.000000 0.780982 -0.383215 0.493167
0.89999998 13.27000046 -1.34000003 105 137 134 0.000000 0.000000 0.000000 0.000000 0.000000 0.000000 20.000000 0.957266 -0.051847 0.284524
0.92000002 13.23999977 -1.34000003 105 137 134 0.000000 0.000000 0.000000 0.000000 0.000000 0.000000 20.000000 0.904979 -0.197739 0.376714
0.92000002 13.23999977 -1.33000004 105 137 134 0.000000 0.000000 0.000000 0.000000 0.000000 0.000000 20.000000 0.896743 -0.162131 0.411784
0.93000001 13.23999977 -1.35000002 105 137 134 0.000000 0.000000 0.000000 0.000000 0.000000 0.000000 20.000000 0.771052 0.113520 0.626572
0.89999998 13.26000023 -1.34000003 105 137 134 0.000000 0.000000 0.000000 0.000000 0.000000 0.000000 20.000000 0.832442 -0.383839 0.399635
0.93000001 13.26000023 -1.33000004 105 137 134 0.000000 0.000000 0.000000 0.000000 0.000000 0.000000 20.000000 0.984525 -0.173875 -0.021878
0.93000001 13.25000000 -1.34000003 105 137 134 0.000000 0.000000 0.000000 0.000000 0.000000 0.000000 20.000000 0.848329 -0.317930 0.423389
0.89999998 13.19999981 -1.33000004 105 137 134 0.000000 0.000000 0.000000 0.000000 0.000000 0.000000 20.000000 0.939515 -0.240794 0.243578
0.93000001 13.22999954 -1.38999999 105 137 134 0.000000 0.000000 0.000000 0.000000 0.000000 0.000000 20.000000 0.808894 0.173227 0.561857
1.22000003 13.10000038 -0.74000001 105 137 134 0.000000 0.000000 0.000000 0.000000 0.000000 0.000000 20.000000 0.872183 -0.453063 0.184472
1.22000003 13.10000038 -0.75999999 105 137 134 0.000000 0.000000 0.000000 0.000000 0.000000 0.000000 20.000000 0.716223 -0.696288 -0.046989
1.13000000 13.09000015 -0.61000001 105 137 134 0.000000 0.000000 0.000000 0.000000 0.000000 0.000000 20.000000 0.790988 -0.598786 0.125671
1.12000000 13.09000015 -0.68000001 105 137 134 0.000000 0.000000 0.000000 0.000000 0.000000 0.000000 20.000000 0.420053 -0.582761 0.695661
1.12000000 13.06999969 -0.66000003 105 137 134 0.000000 0.000000 0.000000 0.000000 0.000000 0.000000 20.000000 0.319795 -0.823906 0.467878
1.12000000 13.06999969 -0.64999998 105 137 134 0.000000 0.000000 0.000000 0.000000 0.000000 0.000000 20.000000 -0.333607 0.865532 -0.373578
1.14999998 13.06000042 -0.68000001 105 137 134 0.000000 0.000000 0.000000 0.000000 0.000000 0.000000 20.000000 0.604420 -0.434583 0.667693
1.13999999 13.02999973 -0.66000003 105 137 134 0.000000 0.000000 0.000000 0.000000 0.000000 0.000000 20.000000 -0.311661 0.778354 -0.545007
1.12000000 13.02999973 -0.64999998 105 137 134 0.000000 0.000000 0.000000 0.000000 0.000000 0.000000 20.000000 -0.483774 0.852221 -0.199201
1.13999999 13.02999973 -0.66000003 105 137 134 0.000000 0.000000 0.000000 0.000000 0.000000 0.000000 20.000000 -0.311661 0.778354 -0.545007
1.13000000 13.02000046 -0.67000002 105 137 134 0.000000 0.000000 0.000000 0.000000 0.000000 0.000000 20.000000 -0.406467 0.854663 -0.323010
1.16999996 13.10000038 -0.69000000 105 137 134 0.000000 0.000000 0.000000 0.000000 0.000000 0.000000 20.000000 0.739873 -0.594800 0.314325
1.15999997 13.06000042 -0.69999999 105 137 134 0.000000 0.000000 0.000000 0.000000 0.000000 0.000000 20.000000 -0.557225 0.684399 -0.470211
1.15999997 13.06000042 -0.69999999 105 137 134 0.000000 0.000000 0.000000 0.000000 0.000000 0.000000 20.000000 -0.557225 0.684399 -0.470211
1.19000006 13.05000019 -0.75000000 105 137 134 0.000000 0.000000 0.000000 0.000000 0.000000 0.000000 20.000000 -0.587687 0.804280 -0.088081
1.12000000 13.03999996 -0.69999999 105 137 134 0.000000 0.000000 0.000000 0.000000 0.000000 0.000000 20.000000 -0.352435 0.751969 -0.557074
1.13999999 13.03999996 -0.69999999 105 137 134 0.000000 0.000000 0.000000 0.000000 0.000000 0.000000 20.000000 0.811014 -0.505506 0.294485
1.12000000 13.02999973 -0.70999998 105 137 134 0.000000 0.000000 0.000000 0.000000 0.000000 0.000000 20.000000 -0.381472 0.741660 -0.551743
1.12000000 13.02000046 -0.75999999 105 137 134 0.000000 0.000000 0.000000 0.000000 0.000000 0.000000 20.000000 -0.293579 0.837244 -0.461339
1.12000000 13.01000023 -0.68000001 105 137 134 0.000000 0.000000 0.000000 0.000000 0.000000 0.000000 20.000000 -0.566653 0.808863 -0.156988
1.12000000 13.00000000 -0.69999999 105 137 134 0.000000 0.000000 0.000000 0.000000 0.000000 0.000000 20.000000 -0.261148 0.732798 -0.628338
1.13999999 13.01000023 -0.69000000 105 137 134 0.000000 0.000000 0.000000 0.000000 0.000000 0.000000 20.000000 -0.363339 0.747860 -0.555599
1.13999999 13.01000023 -0.75999999 105 137 134 0.000000 0.000000 0.000000 0.000000 0.000000 0.000000 20.000000 0.784813 -0.558334 0.268944
1.26999998 13.07999992 -0.80000001 105 137 134 0.000000 0.000000 0.000000 0.000000 0.000000 0.000000 20.000000 -0.510374 0.604700 -0.611438
1.25000000 13.10000038 -0.77999997 105 137 134 0.000000 0.000000 0.000000 0.000000 0.000000 0.000000 20.000000 -0.609840 0.759571 -0.226156
1.25000000 13.10000038 -0.76999998 105 137 134 0.000000 0.000000 0.000000 0.000000 0.000000 0.000000 20.000000 -0.532372 0.616875 -0.579694
1.25000000 13.10000038 -0.76999998 105 137 134 0.000000 0.000000 0.000000 0.000000 0.000000 0.000000 20.000000 -0.532372 0.616875 -0.579694
1.26999998 13.06999969 -0.81000000 105 137 134 0.000000 0.000000 0.000000 0.000000 0.000000 0.000000 20.000000 -0.689751 0.718916 -0.086037
1.25000000 13.06999969 -0.81000000 105 137 134 0.000000 0.000000 0.000000 0.000000 0.000000 0.000000 20.000000 -0.492619 0.617035 -0.613672
1.24000001 13.10000038 -0.77999997 105 137 134 0.000000 0.000000 0.000000 0.000000 0.000000 0.000000 20.000000 0.794585 -0.593349 0.128732
1.24000001 13.06999969 -0.76999998 105 137 134 0.000000 0.000000 0.000000 0.000000 0.000000 0.000000 20.000000 -0.606609 0.791041 -0.079248
1.13999999 13.07999992 -0.79000002 105 137 134 0.000000 0.000000 0.000000 0.000000 0.000000 0.000000 20.000000 0.816163 -0.464341 0.343898
1.13999999 13.07999992 -0.81999999 105 137 134 0.000000 0.000000 0.000000 0.000000 0.000000 0.000000 20.000000 -0.616611 0.726088 -0.304281
1.12000000 13.05000019 -0.79000002 105 137 134 0.000000 0.000000 0.000000 0.000000 0.000000 0.000000 20.000000 -0.356531 0.934136 -0.016613
1.13000000 13.05000019 -0.79000002 105 137 134 0.000000 0.000000 0.000000 0.000000 0.000000 0.000000 20.000000 -0.365105 0.929239 -0.056677
1.13000000 13.03999996 -0.83999997 105 137 134 0.000000 0.000000 0.000000 0.000000 0.000000 0.000000 20.000000 0.769881 -0.628565 0.110404
1.12000000 13.03999996 -0.82999998 105 137 134 0.000000 0.000000 0.000000 0.000000 0.000000 0.000000 20.000000 -0.549943 0.789460 -0.272608
1.15999997 13.09000015 -0.87000000 105 137 134 0.000000 0.000000 0.000000 0.000000 0.000000 0.000000 20.000000 0.762543 -0.614656 0.201804
1.17999995 13.07999992 -0.92000002 105 137 134 0.000000 0.000000 0.000000 0.000000 0.000000 0.000000 20.000000 0.629744 -0.672718 0.388424
1.13999999 13.09000015 -0.87000000 105 137 134 0.000000 0.000000 0.000000 0.000000 0.000000 0.000000 20.000000 0.518898 -0.522257 0.676751
1.13000000 13.09000015 -0.87000000 105 137 134 0.000000 0.000000 0.000000 0.000000 0.000000 0.000000 20.000000 -0.285936 0.820310 -0.495311
1.14999998 13.09000015 -0.92000002 105 137 134 0.000000 0.000000 0.000000 0.000000 0.000000 0.000000 20.000000 0.746216 -0.411649 0.523171
1.13999999 13.06999969 -0.92000002 105 137 134 0.000000 0.000000 0.000000 0.000000 0.000000 0.000000 20.000000 -0.673576 0.710738 -0.202847
1.12000000 13.07999992 -0.89999998 105 137 134 0.000000 0.000000 0.000000 0.000000 0.000000 0.000000 20.000000 0.533743 -0.725428 0.434596
1.13000000 13.05000019 -0.88999999 105 137 134 0.000000 0.000000 0.000000 0.000000 0.000000 0.000000 20.000000 -0.534379 0.844842 0.026101
1.07000005 13.07999992 -0.61000001 105 137 134 0.000000 0.000000 0.000000 0.000000 0.000000 0.000000 20.000000 -0.380519 0.882865 -0.275237
1.11000001 13.10000038 -0.66000003 105 137 134 0.000000 0.000000 0.000000 0.000000 0.000000 0.000000 20.000000 -0.498772 0.851021 -0.164284
1.11000001 13.02000046 -0.62000000 105 137 134 0.000000 0.000000 0.000000 0.000000 0.000000 0.000000 20.000000 0.641437 -0.493283 0.587563
1.10000002 13.02000046 -0.60000002 105 137 134 0.000000 0.000000 0.000000 0.000000 0.000000 0.000000 20.000000 -0.429880 0.902878 0.003920
1.03999996 13.10000038 -0.63000000 105 137 134 0.000000 0.000000 0.000000 0.000000 0.000000 0.000000 20.000000 -0.213005 0.951061 -0.223859
1.02999997 13.06999969 -0.61000001 105 137 134 0.000000 0.000000 0.000000 0.000000 0.000000 0.000000 20.000000 -0.215708 0.821525 -0.527795
1.02999997 13.10000038 -0.62000000 105 137 134 0.000000 0.000000 0.000000 0.000000 0.000000 0.000000 20.000000 -0.131296 0.867134 -0.480458
1.04999995 13.07999992 -0.63999999 105 137 134 0.000000 0.000000 0.000000 0.000000 0.000000 0.000000 20.000000 -0.314240 0.931547 -0.182958
1.05999994 13.07999992 -0.63999999 105 137 134 0.000000 0.000000 0.000000 0.000000 0.000000 0.000000 20.000000 -0.602632 0.780854 -0.164629
1.03999996 13.07999992 -0.63999999 105 137 134 0.000000 0.000000 0.000000 0.000000 0.000000 0.000000 20.000000 -0.336885 0.923262 -0.184652
1.11000001 13.07999992 -0.73000002 105 137 134 0.000000 0.000000 0.000000 0.000000 0.000000 0.000000 20.000000 -0.256038 0.771255 -0.582761
1.10000002 13.06999969 -0.75999999 105 137 134 0.000000 0.000000 0.000000 0.000000 0.000000 0.000000 20.000000 -0.579217 0.698712 -0.419891
1.11000001 13.02000046 -0.75999999 105 137 134 0.000000 0.000000 0.000000 0.000000 0.000000 0.000000 20.000000 -0.362822 0.895948 -0.256197
1.10000002 13.02000046 -0.75999999 105 137 134 0.000000 0.000000 0.000000 0.000000 0.000000 0.000000 20.000000 -0.328734 0.941672 -0.072033
1.08000004 13.02000046 -0.74000001 105 137 134 0.000000 0.000000 0.000000 0.000000 0.000000 0.000000 20.000000 0.712182 -0.597578 0.368370
1.03999996 13.09000015 -0.69000000 105 137 134 0.000000 0.000000 0.000000 0.000000 0.000000 0.000000 20.000000 -0.603491 0.796720 0.032205
1.04999995 13.10000038 -0.72000003 105 137 134 0.000000 0.000000 0.000000 0.000000 0.000000 0.000000 20.000000 -0.440313 0.884956 -0.151583
1.04999995 13.10000038 -0.74000001 105 137 134 0.000000 0.000000 0.000000 0.000000 0.000000 0.000000 20.000000 -0.398491 0.874255 -0.277277
1.04999995 13.10000038 -0.74000001 105 137 134 0.000000 0.000000 0.000000 0.000000 0.000000 0.000000 20.000000 -0.398491 0.874255 -0.277277
1.02999997 13.10000038 -0.73000002 105 137 134 0.000000 0.000000 0.000000 0.000000 0.000000 0.000000 20.000000 -0.529882 0.697037 -0.483078
1.03999996 13.09000015 -0.74000001 105 137 134 0.000000 0.000000 0.000000 0.000000 0.000000 0.000000 20.000000 -0.444379 0.813898 -0.374297
1.03999996 13.09000015 -0.73000002 105 137 134 0.000000 0.000000 0.000000 0.000000 0.000000 0.000000 20.000000 -0.403902 0.867246 -0.291114
1.04999995 13.10000038 -0.75000000 105 137 134 0.000000 0.000000 0.000000 0.000000 0.000000 0.000000 20.000000 -0.615850 0.772448 -0.155092
1.09000003 13.00000000 -0.67000002 105 137 134 0.000000 0.000000 0.000000 0.000000 0.000000 0.000000 20.000000 -0.123601 0.935835 -0.330055
1.07000005 13.00000000 -0.63999999 105 137 134 0.000000 0.000000 0.000000 0.000000 0.000000 0.000000 20.000000 -0.126123 0.969488 -0.210204
1.05999994 13.00000000 -0.63999999 105 137 134 0.000000 0.000000 0.000000 0.000000 0.000000 0.000000 20.000000 -0.160834 0.963693 -0.213137
1.11000001 13.00000000 -0.69000000 105 137 134 0.000000 0.000000 0.000000 0.000000 0.000000 0.000000 20.000000 0.768115 -0.604292 0.211734
1.10000002 13.00000000 -0.69999999 105 137 134 0.000000 0.000000 0.000000 0.000000 0.000000 0.000000 20.000000 -0.230242 0.956900 -0.177007
1.09000003 12.98999977 -0.69000000 105 137 134 0.000000 0.000000 0.000000 0.000000 0.000000 0.000000 20.000000 -0.599579 0.796067 -0.082352
1.07000005 13.01000023 -0.75000000 105 137 134 0.000000 0.000000 0.000000 0.000000 0.000000 0.000000 20.000000 -0.441244 0.883935 -0.154797
1.08000004 13.01000023 -0.75000000 105 137 134 0.000000 0.000000 0.000000 0.000000 0.000000 0.000000 20.000000 -0.386216 0.899227 -0.205496
1.09000003 13.01000023 -0.75999999 105 137 134 0.000000 0.000000 0.000000 0.000000 0.000000 0.000000 20.000000 -0.222449 0.973670 -0.049838
1.09000003 12.97999954 -0.75000000 105 137 134 0.000000 0.000000 0.000000 0.000000 0.000000 0.000000 20.000000 0.011568 0.924190 -0.381758
1.09000003 12.97999954 -0.75000000 105 137 134 0.000000 0.000000 0.000000 0.000000 0.000000 0.000000 20.000000 0.011568 0.924190 -0.381758
1.10000002 13.01000023 -0.75999999 105 137 134 0.000000 0.000000 0.000000 0.000000 0.000000 0.000000 20.000000 -0.084549 0.950854 -0.297873
1.10000002 12.97999954 -0.75000000 105 137 134 0.000000 0.000000 0.000000 0.000000 0.000000 0.000000 20.000000 -0.182101 0.887198 -0.423932
1.07000005 13.00000000 -0.73000002 105 137 134 0.000000 0.000000 0.000000 0.000000 0.000000 0.000000 20.000000 -0.197806 0.979553 0.036718
1.02999997 12.96000004 -0.69000000 105 137 134 0.000000 0.000000 0.000000 0.000000 0.000000 0.000000 20.000000 -0.521176 0.853205 0.020412
1.00999999 13.06999969 -0.61000001 105 137 134 0.000000 0.000000 0.000000 0.000000 0.000000 0.000000 20.000000 -0.416632 0.799483 -0.432718
1.01999998 13.06999969 -0.61000001 105 137 134 0.000000 0.000000 0.000000 0.000000 0.000000 0.000000 20.000000 -0.324525 0.906026 -0.271661
0.98000002 13.07999992 -0.66000003 105 137 134 0.000000 0.000000 0.000000 0.000000 0.000000 0.000000 20.000000 -0.477514 0.774126 -0.415583
1.01999998 12.96000004 -0.68000001 105 137 134 0.000000 0.000000 0.000000 0.000000 0.000000 0.000000 20.000000 -0.528635 0.847759 -0.043012
0.98000002 13.00000000 -0.61000001 105 137 134 0.000000 0.000000 0.000000 0.000000 0.000000 0.000000 20.000000 -0.011785 0.904845 -0.425578
1.07000005 13.09000015 -0.76999998 105 137 134 0.000000 0.000000 0.000000 0.000000 0.000000 0.000000 20.000000 -0.490129 0.822102 -0.289693
1.11000001 13.03999996 -0.82999998 105 137 134 0.000000 0.000000 0.000000 0.000000 0.000000 0.000000 20.000000 -0.237274 0.894565 -0.378753
1.11000001 13.02000046 -0.83999997 105 137 134 0.000000 0.000000 0.000000 0.000000 0.000000 0.000000 20.000000 0.747842 -0.594110 0.296254
1.02999997 13.07999992 -0.82999998 105 137 134 0.000000 0.000000 0.000000 0.000000 0.000000 0.000000 20.000000 -0.272395 0.891611 -0.361705
1.10000002 13.06000042 -0.88999999 105 137 134 0.000000 0.000000 0.000000 0.000000 0.000000 0.000000 20.000000 0.571656 -0.662182 0.484483
1.11000001 13.07999992 -0.88000000 105 137 134 0.000000 0.000000 0.000000 0.000000 0.000000 0.000000 20.000000 -0.488035 0.835971 -0.250945
1.07000005 13.07999992 -0.88000000 105 137 134 0.000000 0.000000 0.000000 0.000000 0.000000 0.000000 20.000000 -0.648154 0.761478 -0.006910
1.10000002 13.06000042 -0.88999999 105 137 134 0.000000 0.000000 0.000000 0.000000 0.000000 0.000000 20.000000 0.571656 -0.662182 0.484483
1.11000001 13.06999969 -0.89999998 105 137 134 0.000000 0.000000 0.000000 0.000000 0.000000 0.000000 20.000000 0.757332 -0.557099 0.340719
1.08000004 13.03999996 -0.91000003 105 137 134 0.000000 0.000000 0.000000 0.000000 0.000000 0.000000 20.000000 -0.269623 0.815102 -0.512750
1.09000003 13.05000019 -0.93000001 105 137 134 0.000000 0.000000 0.000000 0.000000 0.000000 0.000000 20.000000 0.723530 -0.634480 0.271920
1.09000003 12.97999954 -0.76999998 105 137 134 0.000000 0.000000 0.000000 0.000000 0.000000 0.000000 20.000000 -0.353299 0.923045 -0.152212
1.03999996 12.96000004 -0.83999997 105 137 134 0.000000 0.000000 0.000000 0.000000 0.000000 0.000000 20.000000 -0.426521 0.869620 -0.248678
1.05999994 12.97000027 -0.91000003 105 137 134 0.000000 0.000000 0.000000 0.000000 0.000000 0.000000 20.000000 -0.235636 0.964435 -0.119750
1.05999994 12.97000027 -0.91000003 105 137 134 0.000000 0.000000 0.000000 0.000000 0.000000 0.000000 20.000000 -0.235636 0.964435 -0.119750
1.00999999 12.97000027 -0.89999998 105 137 134 0.000000 0.000000 0.000000 0.000000 0.000000 0.000000 20.000000 0.020531 0.844497 -0.535167
1.05999994 12.92000008 -0.88999999 105 137 134 0.000000 0.000000 0.000000 0.000000 0.000000 0.000000 20.000000 -0.206425 0.947370 -0.244703
1.04999995 12.93000031 -0.93000001 105 137 134 0.000000 0.000000 0.000000 0.000000 0.000000 0.000000 20.000000 -0.205259 0.970200 -0.128765
1.00000000 12.90999985 -0.87000000 105 137 134 0.000000 0.000000 0.000000 0.000000 0.000000 0.000000 20.000000 -0.409113 0.829283 -0.380680
1.19000006 13.10000038 -0.97000003 105 137 134 0.000000 0.000000 0.000000 0.000000 0.000000 0.000000 20.000000 0.797012 -0.367235 0.479490
1.17999995 13.07999992 -0.94999999 105 137 134 0.000000 0.000000 0.000000 0.000000 0.000000 0.000000 20.000000 0.774274 -0.418923 0.474345
1.17999995 13.07999992 -0.97000003 105 137 134 0.000000 0.000000 0.000000 0.000000 0.000000 0.000000 20.000000 0.800852 -0.596016 0.058321
1.15999997 13.07999992 -1.00000000 105 137 134 0.000000 0.000000 0.000000 0.000000 0.000000 0.000000 20.000000 -0.546300 0.765465 -0.340028
1.14999998 13.10000038 -0.95999998 105 137 134 0.000000 0.000000 0.000000 0.000000 0.000000 0.000000 20.000000 -0.543205 0.832914 -0.105744
1.13999999 13.09000015 -0.97000003 105 137 134 0.000000 0.000000 0.000000 0.000000 0.000000 0.000000 20.000000 0.852278 -0.475164 0.218726
1.14999998 13.09000015 -0.95999998 105 137 134 0.000000 0.000000 0.000000 0.000000 0.000000 0.000000 20.000000 0.829547 -0.547704 0.108960
1.14999998 13.06999969 -0.94000000 105 137 134 0.000000 0.000000 0.000000 0.000000 0.000000 0.000000 20.000000 0.777756 -0.512575 0.363815
1.13000000 13.07999992 -0.95999998 105 137 134 0.000000 0.000000 0.000000 0.000000 0.000000 0.000000 20.000000 0.535312 -0.633255 0.558953
1.13000000 13.06000042 -0.99000001 105 137 134 0.000000 0.000000 0.000000 0.000000 0.000000 0.000000 20.000000 -0.329810 0.853171 -0.404134
1.12000000 13.09000015 -1.00999999 105 137 134 0.000000 0.000000 0.000000 0.000000 0.000000 0.000000 20.000000 -0.402850 0.738284 -0.540970
1.13000000 13.05000019 -1.00000000 105 137 134 0.000000 0.000000 0.000000 0.000000 0.000000 0.000000 20.000000 -0.409647 0.860718 -0.302249
1.16999996 13.09000015 -1.04999995 105 137 134 0.000000 0.000000 0.000000 0.000000 0.000000 0.000000 20.000000 0.561614 -0.625702 0.541375
1.13999999 13.09000015 -1.03999996 105 137 134 0.000000 0.000000 0.000000 0.000000 0.000000 0.000000 20.000000 -0.322216 0.914630 -0.244190
1.13999999 13.09000015 -1.05999994 105 137 134 0.000000 0.000000 0.000000 0.000000 0.000000 0.000000 20.000000 -0.497996 0.858863 -0.119808
1.13000000 13.09000015 -1.04999995 105 137 134 0.000000 0.000000 0.000000 0.000000 0.000000 0.000000 20.000000 -0.444805 0.860765 -0.247451
1.12000000 13.09000015 -1.02999997 105 137 134 0.000000 0.000000 0.000000 0.000000 0.000000 0.000000 20.000000 -0.109515 0.934259 -0.339362
1.14999998 13.10000038 -1.08000004 105 137 134 0.000000 0.000000 0.000000 0.000000 0.000000 0.000000 20.000000 0.786073 -0.618120 -0.004130
1.13000000 13.07999992 -1.07000005 105 137 134 0.000000 0.000000 0.000000 0.000000 0.000000 0.000000 20.000000 -0.223835 0.962099 -0.155768
1.14999998 13.10000038 -1.07000005 105 137 134 0.000000 0.000000 0.000000 0.000000 0.000000 0.000000 20.000000 0.841506 -0.534988 0.075210
1.14999998 13.10000038 -1.08000004 105 137 134 0.000000 0.000000 0.000000 0.000000 0.000000 0.000000 20.000000 0.786073 -0.618120 -0.004130
1.13000000 13.10000038 -1.11000001 105 137 134 0.000000 0.000000 0.000000 0.000000 0.000000 0.000000 20.000000 0.710821 -0.692939 0.120705
1.13999999 13.07999992 -1.16999996 105 137 134 0.000000 0.000000 0.000000 0.000000 0.000000 0.000000 20.000000 -0.549933 0.597312 -0.583775
1.12000000 13.02999973 -1.20000005 105 137 134 0.000000 0.000000 0.000000 0.000000 0.000000 0.000000 20.000000 -0.367184 0.922774 0.116894
1.11000001 13.06999969 -0.94000000 105 137 134 0.000000 0.000000 0.000000 0.000000 0.000000 0.000000 20.000000 -0.260927 0.959327 -0.107746
1.11000001 13.06000042 -0.95999998 105 137 134 0.000000 0.000000 0.000000 0.000000 0.000000 0.000000 20.000000 -0.476964 0.845735 -0.239244
1.11000001 13.10000038 -0.99000001 105 137 134 0.000000 0.000000 0.000000 0.000000 0.000000 0.000000 20.000000 -0.489850 0.725642 -0.483208
1.07000005 13.02000046 -0.94999999 105 137 134 0.000000 0.000000 0.000000 0.000000 0.000000 0.000000 20.000000 -0.495306 0.801090 -0.336044
1.07000005 13.02000046 -0.94000000 105 137 134 0.000000 0.000000 0.000000 0.000000 0.000000 0.000000 20.000000 -0.441761 0.723031 -0.531105
1.04999995 13.02999973 -1.01999998 105 137 134 0.000000 0.000000 0.000000 0.000000 0.000000 0.000000 20.000000 -0.037712 0.819894 -0.571272
1.11000001 13.06000042 -1.10000002 105 137 134 0.000000 0.000000 0.000000 0.000000 0.000000 0.000000 20.000000 -0.574832 0.746472 -0.335184
1.07000005 13.03999996 -1.09000003 105 137 134 0.000000 0.000000 0.000000 0.000000 0.000000 0.000000 20.000000 -0.410379 0.756994 -0.508478
1.08000004 13.05000019 -1.09000003 105 137 134 0.000000 0.000000 0.000000 0.000000 0.000000 0.000000 20.000000 -0.527795 0.821525 -0.215708
1.07000005 13.05000019 -1.07000005 105 137 134 0.000000 0.000000 0.000000 0.000000 0.000000 0.000000 20.000000 -0.080094 0.916332 -0.392326
1.03999996 13.03999996 -1.11000001 105 137 134 0.000000 0.000000 0.000000 0.000000 0.000000 0.000000 20.000000 -0.268279 0.868498 -0.416818
1.05999994 13.03999996 -1.11000001 105 137 134 0.000000 0.000000 0.000000 0.000000 0.000000 0.000000 20.000000 -0.235894 0.953011 -0.190063
1.10000002 12.93999958 -0.98000002 105 137 134 0.000000 0.000000 0.000000 0.000000 0.000000 0.000000 20.000000 -0.310427 0.791190 -0.526929
1.08000004 12.93999958 -0.97000003 105 137 134 0.000000 0.000000 0.000000 0.000000 0.000000 0.000000 20.000000 -0.392158 0.730169 -0.559523
1.04999995 12.98999977 -0.97000003 105 137 134 0.000000 0.000000 0.000000 0.000000 0.000000 0.000000 20.000000 0.273750 -0.764284 0.583894
1.02999997 12.93999958 -1.01999998 105 137 134 0.000000 0.000000 0.000000 0.000000 0.000000 0.000000 20.000000 0.226365 0.843170 -0.487671
1.07000005 12.93999958 -1.05999994 105 137 134 0.000000 0.000000 0.000000 0.000000 0.000000 0.000000 20.000000 -0.247722 0.904405 -0.347397
1.09000003 12.97000027 -1.09000003 105 137 134 0.000000 0.000000 0.000000 0.000000 0.000000 0.000000 20.000000 -0.343329 0.896224 -0.280906
0.98000002 12.93999958 -0.95999998 105 137 134 0.000000 0.000000 0.000000 0.000000 0.000000 0.000000 20.000000 -0.313070 0.891275 -0.328049
1.00999999 13.00000000 -1.05999994 105 137 134 0.000000 0.000000 0.000000 0.000000 0.000000 0.000000 20.000000 0.314160 0.894834 -0.317137
1.10000002 13.06000042 -1.16999996 105 137 134 0.000000 0.000000 0.000000 0.000000 0.000000 0.000000 20.000000 -0.269169 0.953360 0.136573
1.07000005 13.02999973 -1.14999998 105 137 134 0.000000 0.000000 0.000000 0.000000 0.000000 0.000000 20.000000 -0.198335 0.980079 0.010439
1.08000004 13.02000046 -1.15999997 105 137 134 0.000000 0.000000 0.000000 0.000000 0.000000 0.000000 20.000000 0.241383 0.877075 -0.415299
1.03999996 13.06000042 -1.13000000 105 137 134 0.000000 0.000000 0.000000 0.000000 0.000000 0.000000 20.000000 0.033676 0.890390 -0.453951
1.04999995 13.06000042 -1.13999999 105 137 134 0.000000 0.000000 0.000000 0.000000 0.000000 0.000000 20.000000 -0.050231 0.894652 -0.443932
1.04999995 13.06000042 -1.13999999 105 137 134 0.000000 0.000000 0.000000 0.000000 0.000000 0.000000 20.000000 -0.050231 0.894652 -0.443932
1.09000003 13.07999992 -1.22000003 105 137 134 0.000000 0.000000 0.000000 0.000000 0.000000 0.000000 20.000000 -0.502637 0.796240 -0.336687
1.08000004 13.05000019 -1.25000000 105 137 134 0.000000 0.000000 0.000000 0.000000 0.000000 0.000000 20.000000 0.038209 0.918338 -0.393950
1.09000003 13.05000019 -1.26999998 105 137 134 0.000000 0.000000 0.000000 0.000000 0.000000 0.000000 20.000000 -0.255315 0.956440 -0.141548
1.04999995 13.05000019 -1.23000002 105 137 134 0.000000 0.000000 0.000000 0.000000 0.000000 0.000000 20.000000 -0.156316 0.916771 -0.367554
1.02999997 13.03999996 -1.27999997 105 137 134 0.000000 0.000000 0.000000 0.000000 0.000000 0.000000 20.000000 0.410376 0.815962 -0.407183
1.02999997 13.03999996 -1.27999997 105 137 134 0.000000 0.000000 0.000000 0.000000 0.000000 0.000000 20.000000 0.410376 0.815962 -0.407183
1.05999994 12.97999954 -1.13999999 105 137 134 0.000000 0.000000 0.000000 0.000000 0.000000 0.000000 20.000000 -0.131026 0.984498 -0.116601
1.01999998 13.06999969 -1.20000005 105 137 134 0.000000 0.000000 0.000000 0.000000 0.000000 0.000000 20.000000 0.467117 0.818642 -0.334107
1.01999998 13.06999969 -1.20000005 105 137 134 0.000000 0.000000 0.000000 0.000000 0.000000 0.000000 20.000000 0.467117 0.818642 -0.334107
1.01999998 13.01000023 -1.14999998 105 137 134 0.000000 0.000000 0.000000 0.000000 0.000000 0.000000 20.000000 0.187800 0.839840 -0.509313
0.99000001 13.01000023 -1.12000000 105 137 134 0.000000 0.000000 0.000000 0.000000 0.000000 0.000000 20.000000 0.238141 0.853969 -0.462630
1.08000004 12.90999985 -0.95999998 105 137 134 0.000000 0.000000 0.000000 0.000000 0.000000 0.000000 20.000000 -0.181045 0.969426 -0.165637
1.02999997 12.90999985 -0.97000003 105 137 134 0.000000 0.000000 0.000000 0.000000 0.000000 0.000000 20.000000 0.186853 0.875414 -0.445799
1.05999994 12.93000031 -1.07000005 105 137 134 0.000000 0.000000 0.000000 0.000000 0.000000 0.000000 20.000000 -0.412130 0.856674 -0.310255
1.12000000 13.10000038 -1.35000002 105 137 134 0.000000 0.000000 0.000000 0.000000 0.000000 0.000000 20.000000 -0.078801 0.930924 -0.356609
