//X Y Z R G B PointSourceId ScanDirectionFlag NumberOfReturns ReturnNumber GpsTime Intensity Classification Nx Ny Nz
10.86999989 16.36000061 -0.88999999 230 30 125 0.000000 0.000000 0.000000 0.000000 0.000000 0.000000 14.000000 0.940921 -0.111090 -0.319886
10.82999992 16.35000038 -0.86000001 230 30 125 0.000000 0.000000 0.000000 0.000000 0.000000 0.000000 14.000000 0.844574 0.040218 0.533926
10.82999992 16.36000061 -0.87000000 230 30 125 0.000000 0.000000 0.000000 0.000000 0.000000 0.000000 14.000000 0.948508 -0.185902 -0.256463
10.85000038 16.32999992 -0.88999999 230 30 125 0.000000 0.000000 0.000000 0.000000 0.000000 0.000000 14.000000 0.948626 -0.174569 -0.263883
10.89000034 16.23999977 -0.80000001 230 30 125 0.000000 0.000000 0.000000 0.000000 0.000000 0.000000 14.000000 0.867568 0.036889 0.495948
10.88000011 16.25000000 -0.79000002 230 30 125 0.000000 0.000000 0.000000 0.000000 0.000000 0.000000 14.000000 0.900489 -0.086877 0.426112
10.88000011 16.23999977 -0.79000002 230 30 125 0.000000 0.000000 0.000000 0.000000 0.000000 0.000000 14.000000 0.890983 0.216487 0.399102
10.84000015 16.27000046 -0.85000002 230 30 125 0.000000 0.000000 0.000000 0.000000 0.000000 0.000000 14.000000 0.997564 -0.066787 -0.020142
10.84000015 16.27000046 -0.85000002 230 30 125 0.000000 0.000000 0.000000 0.000000 0.000000 0.000000 14.000000 0.997564 -0.066787 -0.020142
10.85000038 16.27000046 -0.83999997 230 30 125 0.000000 0.000000 0.000000 0.000000 0.000000 0.000000 14.000000 0.999705 -0.017184 0.017184
10.85000038 16.28000069 -0.85000002 230 30 125 0.000000 0.000000 0.000000 0.000000 0.000000 0.000000 14.000000 0.975050 -0.203908 0.087742
10.86999989 16.25000000 -0.87000000 230 30 125 0.000000 0.000000 0.000000 0.000000 0.000000 0.000000 14.000000 0.990130 -0.089379 -0.107951
10.86999989 16.27000046 -0.87000000 230 30 125 0.000000 0.000000 0.000000 0.000000 0.000000 0.000000 14.000000 0.915050 -0.401245 0.041051
10.86999989 16.27000046 -0.87000000 230 30 125 0.000000 0.000000 0.000000 0.000000 0.000000 0.000000 14.000000 0.915050 -0.401245 0.041051
10.86999989 16.23999977 -0.86000001 230 30 125 0.000000 0.000000 0.000000 0.000000 0.000000 0.000000 14.000000 0.899664 -0.245898 0.360749
10.86999989 16.23999977 -0.86000001 230 30 125 0.000000 0.000000 0.000000 0.000000 0.000000 0.000000 14.000000 0.899664 -0.245898 0.360749
10.86999989 16.28000069 -0.88000000 230 30 125 0.000000 0.000000 0.000000 0.000000 0.000000 0.000000 14.000000 0.941634 -0.176813 -0.286465
10.82999992 16.26000023 -0.86000001 230 30 125 0.000000 0.000000 0.000000 0.000000 0.000000 0.000000 14.000000 0.988939 0.148285 -0.003345
10.85000038 16.25000000 -0.88000000 230 30 125 0.000000 0.000000 0.000000 0.000000 0.000000 0.000000 14.000000 0.983626 0.163738 -0.075296
10.85000038 16.23999977 -0.89999998 230 30 125 0.000000 0.000000 0.000000 0.000000 0.000000 0.000000 14.000000 0.942476 -0.263562 0.205606
10.72000027 16.53000069 -0.63000000 230 30 125 0.000000 0.000000 0.000000 0.000000 0.000000 0.000000 14.000000 0.727612 0.012521 0.685875
10.72000027 16.52000046 -0.63000000 230 30 125 0.000000 0.000000 0.000000 0.000000 0.000000 0.000000 14.000000 0.709693 0.176274 0.682102
10.72999954 16.45999908 -0.66000003 230 30 125 0.000000 0.000000 0.000000 0.000000 0.000000 0.000000 14.000000 0.858678 0.116504 0.499098
10.72000027 16.45999908 -0.67000002 230 30 125 0.000000 0.000000 0.000000 0.000000 0.000000 0.000000 14.000000 0.873934 0.053675 0.483072
10.72999954 16.45999908 -0.66000003 230 30 125 0.000000 0.000000 0.000000 0.000000 0.000000 0.000000 14.000000 0.858678 0.116504 0.499098
10.68999958 16.48999977 -0.62000000 230 30 125 0.000000 0.000000 0.000000 0.000000 0.000000 0.000000 14.000000 0.543814 0.383772 0.746315
10.68999958 16.48999977 -0.62000000 230 30 125 0.000000 0.000000 0.000000 0.000000 0.000000 0.000000 14.000000 0.543814 0.383772 0.746315
10.69999981 16.43000031 -0.63000000 230 30 125 0.000000 0.000000 0.000000 0.000000 0.000000 0.000000 14.000000 0.216809 0.489716 0.844495
10.72000027 16.43000031 -0.63999999 230 30 125 0.000000 0.000000 0.000000 0.000000 0.000000 0.000000 14.000000 0.634310 0.322833 0.702446
10.71000004 16.44000053 -0.66000003 230 30 125 0.000000 0.000000 0.000000 0.000000 0.000000 0.000000 14.000000 0.318688 0.367483 0.873724
10.69999981 16.43000031 -0.63999999 230 30 125 0.000000 0.000000 0.000000 0.000000 0.000000 0.000000 14.000000 0.332047 0.422463 0.843368
10.72999954 16.44000053 -0.66000003 230 30 125 0.000000 0.000000 0.000000 0.000000 0.000000 0.000000 14.000000 0.807539 0.311321 0.500959
10.72000027 16.40999985 -0.64999998 230 30 125 0.000000 0.000000 0.000000 0.000000 0.000000 0.000000 14.000000 0.306641 0.197427 0.931125
10.72999954 16.37000084 -0.62000000 230 30 125 0.000000 0.000000 0.000000 0.000000 0.000000 0.000000 14.000000 0.667678 0.526406 0.526406
10.72999954 16.39999962 -0.64999998 230 30 125 0.000000 0.000000 0.000000 0.000000 0.000000 0.000000 14.000000 0.748467 0.165483 0.642194
10.72999954 16.37999916 -0.64999998 230 30 125 0.000000 0.000000 0.000000 0.000000 0.000000 0.000000 14.000000 0.840024 0.017757 0.542259
10.72999954 16.38999939 -0.63999999 230 30 125 0.000000 0.000000 0.000000 0.000000 0.000000 0.000000 14.000000 0.798145 0.131790 0.587873
10.67000008 16.43000031 -0.63000000 230 30 125 0.000000 0.000000 0.000000 0.000000 0.000000 0.000000 14.000000 0.601093 0.506804 0.617930
10.67000008 16.43000031 -0.63000000 230 30 125 0.000000 0.000000 0.000000 0.000000 0.000000 0.000000 14.000000 0.601093 0.506804 0.617930
10.67000008 16.44000053 -0.63999999 230 30 125 0.000000 0.000000 0.000000 0.000000 0.000000 0.000000 14.000000 0.123691 0.335733 0.933801
10.67000008 16.37999916 -0.61000001 230 30 125 0.000000 0.000000 0.000000 0.000000 0.000000 0.000000 14.000000 0.563884 0.503288 0.654779
10.68000031 16.37999916 -0.62000000 230 30 125 0.000000 0.000000 0.000000 0.000000 0.000000 0.000000 14.000000 0.733294 0.107707 0.671326
10.68999958 16.39999962 -0.63000000 230 30 125 0.000000 0.000000 0.000000 0.000000 0.000000 0.000000 14.000000 0.182153 0.149035 0.971910
10.68999958 16.39999962 -0.63000000 230 30 125 0.000000 0.000000 0.000000 0.000000 0.000000 0.000000 14.000000 0.182153 0.149035 0.971910
10.68000031 16.37000084 -0.66000003 230 30 125 0.000000 0.000000 0.000000 0.000000 0.000000 0.000000 14.000000 0.783279 0.429749 0.449210
10.65999985 16.37000084 -0.72000003 230 30 125 0.000000 0.000000 0.000000 0.000000 0.000000 0.000000 14.000000 0.624851 -0.149061 0.766383
10.64999962 16.38999939 -0.69999999 230 30 125 0.000000 0.000000 0.000000 0.000000 0.000000 0.000000 14.000000 0.534746 0.268157 0.801335
10.64000034 16.53000069 -0.60000002 230 30 125 0.000000 0.000000 0.000000 0.000000 0.000000 0.000000 14.000000 0.615627 0.432107 0.659005
10.61999989 16.37000084 -0.61000001 230 30 125 0.000000 0.000000 0.000000 0.000000 0.000000 0.000000 14.000000 0.579199 0.291993 0.761097
10.61999989 16.37000084 -0.61000001 230 30 125 0.000000 0.000000 0.000000 0.000000 0.000000 0.000000 14.000000 0.579199 0.291993 0.761097
10.61999989 16.38999939 -0.68000001 230 30 125 0.000000 0.000000 0.000000 0.000000 0.000000 0.000000 14.000000 0.550753 0.060569 0.832468
10.56999969 16.42000008 -0.62000000 230 30 125 0.000000 0.000000 0.000000 0.000000 0.000000 0.000000 14.000000 0.494012 0.428362 0.756609
10.56999969 16.39999962 -0.61000001 230 30 125 0.000000 0.000000 0.000000 0.000000 0.000000 0.000000 14.000000 0.447747 0.346490 0.824298
10.64000034 16.39999962 -0.70999998 230 30 125 0.000000 0.000000 0.000000 0.000000 0.000000 0.000000 14.000000 0.735697 0.035302 0.676390
10.64000034 16.38999939 -0.69999999 230 30 125 0.000000 0.000000 0.000000 0.000000 0.000000 0.000000 14.000000 0.721210 0.179154 0.669148
10.71000004 16.36000061 -0.64999998 230 30 125 0.000000 0.000000 0.000000 0.000000 0.000000 0.000000 14.000000 0.815181 0.290575 0.501046
10.71000004 16.32999992 -0.66000003 230 30 125 0.000000 0.000000 0.000000 0.000000 0.000000 0.000000 14.000000 0.876671 0.196623 0.439075
10.72999954 16.36000061 -0.66000003 230 30 125 0.000000 0.000000 0.000000 0.000000 0.000000 0.000000 14.000000 0.589539 0.263949 0.763397
10.71000004 16.34000015 -0.63999999 230 30 125 0.000000 0.000000 0.000000 0.000000 0.000000 0.000000 14.000000 0.320777 0.077248 0.944000
10.72000027 16.35000038 -0.64999998 230 30 125 0.000000 0.000000 0.000000 0.000000 0.000000 0.000000 14.000000 0.773499 0.231894 0.589851
10.72999954 16.29999924 -0.63000000 230 30 125 0.000000 0.000000 0.000000 0.000000 0.000000 0.000000 14.000000 0.519414 0.529500 0.670700
10.72999954 16.29999924 -0.63000000 230 30 125 0.000000 0.000000 0.000000 0.000000 0.000000 0.000000 14.000000 0.519414 0.529500 0.670700
10.69999981 16.29999924 -0.63000000 230 30 125 0.000000 0.000000 0.000000 0.000000 0.000000 0.000000 14.000000 0.517294 -0.101739 0.849738
10.72999954 16.29999924 -0.63000000 230 30 125 0.000000 0.000000 0.000000 0.000000 0.000000 0.000000 14.000000 0.519414 0.529500 0.670700
10.71000004 16.30999947 -0.60000002 230 30 125 0.000000 0.000000 0.000000 0.000000 0.000000 0.000000 14.000000 0.490302 0.427989 0.759230
10.72999954 16.30999947 -0.67000002 230 30 125 0.000000 0.000000 0.000000 0.000000 0.000000 0.000000 14.000000 0.647253 -0.139662 0.749372
10.71000004 16.31999969 -0.64999998 230 30 125 0.000000 0.000000 0.000000 0.000000 0.000000 0.000000 14.000000 0.493591 0.624991 0.604776
10.71000004 16.31999969 -0.64999998 230 30 125 0.000000 0.000000 0.000000 0.000000 0.000000 0.000000 14.000000 0.493591 0.624991 0.604776
10.72000027 16.30999947 -0.64999998 230 30 125 0.000000 0.000000 0.000000 0.000000 0.000000 0.000000 14.000000 0.846434 -0.117199 0.519436
10.68999958 16.32999992 -0.62000000 230 30 125 0.000000 0.000000 0.000000 0.000000 0.000000 0.000000 14.000000 0.259793 0.400952 0.878490
10.67000008 16.32999992 -0.63000000 230 30 125 0.000000 0.000000 0.000000 0.000000 0.000000 0.000000 14.000000 0.160694 0.347938 0.923643
10.64999962 16.35000038 -0.63000000 230 30 125 0.000000 0.000000 0.000000 0.000000 0.000000 0.000000 14.000000 0.210570 0.370313 0.904726
10.67000008 16.35000038 -0.63000000 230 30 125 0.000000 0.000000 0.000000 0.000000 0.000000 0.000000 14.000000 0.496102 0.522828 0.693206
10.68999958 16.32999992 -0.62000000 230 30 125 0.000000 0.000000 0.000000 0.000000 0.000000 0.000000 14.000000 0.259793 0.400952 0.878490
10.68000031 16.36000061 -0.61000001 230 30 125 0.000000 0.000000 0.000000 0.000000 0.000000 0.000000 14.000000 0.327084 0.357510 0.874759
10.64999962 16.35000038 -0.63000000 230 30 125 0.000000 0.000000 0.000000 0.000000 0.000000 0.000000 14.000000 0.210570 0.370313 0.904726
10.68999958 16.32999992 -0.62000000 230 30 125 0.000000 0.000000 0.000000 0.000000 0.000000 0.000000 14.000000 0.259793 0.400952 0.878490
10.68999958 16.35000038 -0.64999998 230 30 125 0.000000 0.000000 0.000000 0.000000 0.000000 0.000000 14.000000 0.788027 0.428803 0.441748
10.68999958 16.31999969 -0.62000000 230 30 125 0.000000 0.000000 0.000000 0.000000 0.000000 0.000000 14.000000 0.305198 0.261805 0.915594
10.67000008 16.29999924 -0.63000000 230 30 125 0.000000 0.000000 0.000000 0.000000 0.000000 0.000000 14.000000 0.667842 0.347800 0.658045
10.67000008 16.29999924 -0.62000000 230 30 125 0.000000 0.000000 0.000000 0.000000 0.000000 0.000000 14.000000 0.732231 0.247226 0.634600
10.65999985 16.31999969 -0.60000002 230 30 125 0.000000 0.000000 0.000000 0.000000 0.000000 0.000000 14.000000 0.373693 0.108138 0.921227
10.72999954 16.35000038 -0.70999998 230 30 125 0.000000 0.000000 0.000000 0.000000 0.000000 0.000000 14.000000 0.758980 0.208681 0.616768
10.71000004 16.35000038 -0.69999999 230 30 125 0.000000 0.000000 0.000000 0.000000 0.000000 0.000000 14.000000 0.731655 0.251259 0.633680
10.72999954 16.32999992 -0.70999998 230 30 125 0.000000 0.000000 0.000000 0.000000 0.000000 0.000000 14.000000 0.962767 0.128629 0.237768
10.69999981 16.28000069 -0.63000000 230 30 125 0.000000 0.000000 0.000000 0.000000 0.000000 0.000000 14.000000 0.430160 0.475956 0.767091
10.72000027 16.28000069 -0.60000002 230 30 125 0.000000 0.000000 0.000000 0.000000 0.000000 0.000000 14.000000 0.531910 0.243469 0.811046
10.72999954 16.28000069 -0.62000000 230 30 125 0.000000 0.000000 0.000000 0.000000 0.000000 0.000000 14.000000 0.777960 0.325620 0.537354
10.64000034 16.35000038 -0.63000000 230 30 125 0.000000 0.000000 0.000000 0.000000 0.000000 0.000000 14.000000 0.399120 0.298193 0.867055
10.64000034 16.35000038 -0.63000000 230 30 125 0.000000 0.000000 0.000000 0.000000 0.000000 0.000000 14.000000 0.399120 0.298193 0.867055
10.61999989 16.36000061 -0.61000001 230 30 125 0.000000 0.000000 0.000000 0.000000 0.000000 0.000000 14.000000 0.045439 0.502580 0.863336
10.61999989 16.36000061 -0.61000001 230 30 125 0.000000 0.000000 0.000000 0.000000 0.000000 0.000000 14.000000 0.045439 0.502580 0.863336
10.63000011 16.36000061 -0.61000001 230 30 125 0.000000 0.000000 0.000000 0.000000 0.000000 0.000000 14.000000 0.420524 0.456244 0.784220
10.64000034 16.29000092 -0.61000001 230 30 125 0.000000 0.000000 0.000000 0.000000 0.000000 0.000000 14.000000 0.374576 0.096709 0.922139
10.60000038 16.36000061 -0.63000000 230 30 125 0.000000 0.000000 0.000000 0.000000 0.000000 0.000000 14.000000 0.309080 0.439545 0.843368
10.59000015 16.36000061 -0.63000000 230 30 125 0.000000 0.000000 0.000000 0.000000 0.000000 0.000000 14.000000 0.410769 0.207593 0.887792
10.57999992 16.36000061 -0.63000000 230 30 125 0.000000 0.000000 0.000000 0.000000 0.000000 0.000000 14.000000 0.584409 0.415543 0.696986
10.60000038 16.36000061 -0.63000000 230 30 125 0.000000 0.000000 0.000000 0.000000 0.000000 0.000000 14.000000 0.309080 0.439545 0.843368
10.61999989 16.36000061 -0.69000000 230 30 125 0.000000 0.000000 0.000000 0.000000 0.000000 0.000000 14.000000 0.344358 0.621803 0.703405
10.57999992 16.06999969 -0.72000003 230 30 125 0.000000 0.000000 0.000000 0.000000 0.000000 0.000000 17.000000 0.605691 0.592194 0.531456
10.57999992 16.10000038 -0.70999998 230 30 125 0.000000 0.000000 0.000000 0.000000 0.000000 0.000000 17.000000 0.391792 0.410826 0.823238
10.60000038 16.07999992 -0.75000000 230 30 125 0.000000 0.000000 0.000000 0.000000 0.000000 0.000000 17.000000 0.852186 0.349256 0.389615
10.57999992 16.10000038 -0.75999999 230 30 125 0.000000 0.000000 0.000000 0.000000 0.000000 0.000000 17.000000 0.763828 0.449792 0.462876
10.60999966 15.98999977 -0.72000003 230 30 125 0.000000 0.000000 0.000000 0.000000 0.000000 0.000000 17.000000 0.963692 0.187494 0.190116
10.60999966 15.98999977 -0.73000002 230 30 125 0.000000 0.000000 0.000000 0.000000 0.000000 0.000000 17.000000 0.863045 -0.039791 0.503557
10.61999989 16.01000023 -0.73000002 230 30 125 0.000000 0.000000 0.000000 0.000000 0.000000 0.000000 17.000000 0.859796 0.418403 0.292729
10.60999966 15.97999954 -0.73000002 230 30 125 0.000000 0.000000 0.000000 0.000000 0.000000 0.000000 17.000000 0.873469 -0.242046 0.422452
10.56999969 16.00000000 -0.72000003 230 30 125 0.000000 0.000000 0.000000 0.000000 0.000000 0.000000 17.000000 0.671728 0.557819 0.487463
10.56999969 16.00000000 -0.72000003 230 30 125 0.000000 0.000000 0.000000 0.000000 0.000000 0.000000 17.000000 0.671728 0.557819 0.487463
10.57999992 16.00000000 -0.69000000 230 30 125 0.000000 0.000000 0.000000 0.000000 0.000000 0.000000 17.000000 0.528225 0.438807 0.726930
10.59000015 16.02000046 -0.70999998 230 30 125 0.000000 0.000000 0.000000 0.000000 0.000000 0.000000 17.000000 0.472230 0.429746 0.769621
10.57999992 16.01000023 -0.75000000 230 30 125 0.000000 0.000000 0.000000 0.000000 0.000000 0.000000 17.000000 0.684252 0.402599 0.608040
10.57999992 15.98999977 -0.75000000 230 30 125 0.000000 0.000000 0.000000 0.000000 0.000000 0.000000 17.000000 0.992007 0.083333 0.094749
10.57999992 16.01000023 -0.73000002 230 30 125 0.000000 0.000000 0.000000 0.000000 0.000000 0.000000 17.000000 0.756676 0.073787 0.649613
10.56999969 15.97000027 -0.72000003 230 30 125 0.000000 0.000000 0.000000 0.000000 0.000000 0.000000 17.000000 0.661245 0.286593 0.693267
10.57999992 15.93999958 -0.70999998 230 30 125 0.000000 0.000000 0.000000 0.000000 0.000000 0.000000 17.000000 0.935790 0.053511 0.348474
10.56999969 15.97000027 -0.72000003 230 30 125 0.000000 0.000000 0.000000 0.000000 0.000000 0.000000 17.000000 0.661245 0.286593 0.693267
10.57999992 15.94999981 -0.69000000 230 30 125 0.000000 0.000000 0.000000 0.000000 0.000000 0.000000 17.000000 0.512003 0.221613 0.829904
10.56999969 15.96000004 -0.69000000 230 30 125 0.000000 0.000000 0.000000 0.000000 0.000000 0.000000 17.000000 0.596929 0.536052 0.596929
10.57999992 15.96000004 -0.69999999 230 30 125 0.000000 0.000000 0.000000 0.000000 0.000000 0.000000 17.000000 0.874320 0.235452 0.424413
10.57999992 15.93000031 -0.69000000 230 30 125 0.000000 0.000000 0.000000 0.000000 0.000000 0.000000 17.000000 0.784873 0.076327 0.614937
10.57999992 15.90999985 -0.70999998 230 30 125 0.000000 0.000000 0.000000 0.000000 0.000000 0.000000 17.000000 0.896312 0.218577 0.385810
10.59000015 15.89000034 -0.69000000 230 30 125 0.000000 0.000000 0.000000 0.000000 0.000000 0.000000 17.000000 0.866703 0.460760 0.191119
10.59000015 15.89000034 -0.74000001 230 30 125 0.000000 0.000000 0.000000 0.000000 0.000000 0.000000 17.000000 0.906091 -0.049667 0.420158
10.72000027 15.89999962 -0.81000000 230 30 125 0.000000 0.000000 0.000000 0.000000 0.000000 0.000000 17.000000 0.996175 0.075121 0.044637
10.61999989 15.89999962 -0.79000002 230 30 125 0.000000 0.000000 0.000000 0.000000 0.000000 0.000000 17.000000 0.919064 -0.222238 -0.325472
10.60000038 15.92000008 -0.82999998 230 30 125 0.000000 0.000000 0.000000 0.000000 0.000000 0.000000 17.000000 -0.698191 0.558219 0.448242
10.56000042 16.40999985 -0.61000001 230 30 125 0.000000 0.000000 0.000000 0.000000 0.000000 0.000000 14.000000 0.403173 0.270292 0.874296
10.53999996 16.06999969 -0.69999999 230 30 125 0.000000 0.000000 0.000000 0.000000 0.000000 0.000000 17.000000 0.293463 0.335174 0.895286
10.55000019 16.09000015 -0.70999998 230 30 125 0.000000 0.000000 0.000000 0.000000 0.000000 0.000000 17.000000 0.154342 0.206221 0.966256
10.53999996 16.07999992 -0.70999998 230 30 125 0.000000 0.000000 0.000000 0.000000 0.000000 0.000000 17.000000 0.480433 0.003993 0.877023
10.52999973 16.07999992 -0.69999999 230 30 125 0.000000 0.000000 0.000000 0.000000 0.000000 0.000000 17.000000 0.344747 0.217811 0.913076
10.53999996 16.09000015 -0.70999998 230 30 125 0.000000 0.000000 0.000000 0.000000 0.000000 0.000000 17.000000 0.193851 0.329688 0.923974
10.53999996 16.04999924 -0.69999999 230 30 125 0.000000 0.000000 0.000000 0.000000 0.000000 0.000000 17.000000 0.076571 0.466386 0.881261
10.55000019 16.04000092 -0.73000002 230 30 125 0.000000 0.000000 0.000000 0.000000 0.000000 0.000000 17.000000 0.494317 0.490989 0.717343
10.52000046 16.04999924 -0.69999999 230 30 125 0.000000 0.000000 0.000000 0.000000 0.000000 0.000000 17.000000 -0.063618 0.083709 0.994457
10.53999996 16.01000023 -0.68000001 230 30 125 0.000000 0.000000 0.000000 0.000000 0.000000 0.000000 17.000000 0.123355 0.440960 0.889009
10.56000042 16.00000000 -0.68000001 230 30 125 0.000000 0.000000 0.000000 0.000000 0.000000 0.000000 17.000000 0.094826 0.281879 0.954752
10.53999996 15.94999981 -0.68000001 230 30 125 0.000000 0.000000 0.000000 0.000000 0.000000 0.000000 17.000000 0.376806 0.666404 0.643368
10.55000019 15.93999958 -0.68000001 230 30 125 0.000000 0.000000 0.000000 0.000000 0.000000 0.000000 17.000000 0.418744 0.574325 0.703424
10.56000042 15.93999958 -0.68000001 230 30 125 0.000000 0.000000 0.000000 0.000000 0.000000 0.000000 17.000000 0.790926 0.217389 0.571995
10.52999973 15.97000027 -0.67000002 230 30 125 0.000000 0.000000 0.000000 0.000000 0.000000 0.000000 17.000000 -0.041735 0.302261 0.952311
10.52000046 15.94999981 -0.67000002 230 30 125 0.000000 0.000000 0.000000 0.000000 0.000000 0.000000 17.000000 0.229351 0.013072 0.973256
10.55000019 16.00000000 -0.70999998 230 30 125 0.000000 0.000000 0.000000 0.000000 0.000000 0.000000 17.000000 0.536736 0.239752 0.808971
10.55000019 16.02000046 -0.72000003 230 30 125 0.000000 0.000000 0.000000 0.000000 0.000000 0.000000 17.000000 0.839134 0.168423 0.517193
10.55000019 16.02000046 -0.69000000 230 30 125 0.000000 0.000000 0.000000 0.000000 0.000000 0.000000 17.000000 0.357256 0.423357 0.832549
10.56000042 16.02000046 -0.74000001 230 30 125 0.000000 0.000000 0.000000 0.000000 0.000000 0.000000 17.000000 0.805925 0.167211 0.567913
10.55000019 15.94999981 -0.69000000 230 30 125 0.000000 0.000000 0.000000 0.000000 0.000000 0.000000 17.000000 0.602931 0.471932 0.643238
10.53999996 15.97999954 -0.69000000 230 30 125 0.000000 0.000000 0.000000 0.000000 0.000000 0.000000 17.000000 0.616374 0.129216 0.776780
10.55000019 15.94999981 -0.69000000 230 30 125 0.000000 0.000000 0.000000 0.000000 0.000000 0.000000 17.000000 0.602931 0.471932 0.643238
10.56000042 15.93999958 -0.69000000 230 30 125 0.000000 0.000000 0.000000 0.000000 0.000000 0.000000 17.000000 0.776720 0.132684 0.615711
10.56000042 15.96000004 -0.69999999 230 30 125 0.000000 0.000000 0.000000 0.000000 0.000000 0.000000 17.000000 0.603414 0.264489 0.752288
10.50000000 15.97999954 -0.72000003 230 30 125 0.000000 0.000000 0.000000 0.000000 0.000000 0.000000 17.000000 -0.424191 0.286367 0.859102
10.52999973 15.93000031 -0.68000001 230 30 125 0.000000 0.000000 0.000000 0.000000 0.000000 0.000000 17.000000 0.455109 -0.014595 0.890316
10.52999973 15.92000008 -0.68000001 230 30 125 0.000000 0.000000 0.000000 0.000000 0.000000 0.000000 17.000000 0.197636 0.252156 0.947289
10.56000042 15.93000031 -0.67000002 230 30 125 0.000000 0.000000 0.000000 0.000000 0.000000 0.000000 17.000000 0.595064 0.263596 0.759220
10.56000042 15.93000031 -0.68000001 230 30 125 0.000000 0.000000 0.000000 0.000000 0.000000 0.000000 17.000000 0.803017 0.305685 0.511587
10.56000042 15.93000031 -0.68000001 230 30 125 0.000000 0.000000 0.000000 0.000000 0.000000 0.000000 17.000000 0.803017 0.305685 0.511587
10.52999973 15.89000034 -0.66000003 230 30 125 0.000000 0.000000 0.000000 0.000000 0.000000 0.000000 17.000000 0.480529 0.196104 0.854772
10.52999973 15.88000011 -0.68000001 230 30 125 0.000000 0.000000 0.000000 0.000000 0.000000 0.000000 17.000000 0.500156 0.355416 0.789635
10.55000019 15.86999989 -0.67000002 230 30 125 0.000000 0.000000 0.000000 0.000000 0.000000 0.000000 17.000000 0.434076 0.141827 0.889642
10.51000023 15.89999962 -0.66000003 230 30 125 0.000000 0.000000 0.000000 0.000000 0.000000 0.000000 17.000000 -0.103139 0.328171 0.938971
10.51000023 15.93000031 -0.67000002 230 30 125 0.000000 0.000000 0.000000 0.000000 0.000000 0.000000 17.000000 -0.126783 0.448726 0.884631
10.52000046 15.93000031 -0.67000002 230 30 125 0.000000 0.000000 0.000000 0.000000 0.000000 0.000000 17.000000 0.550651 0.343955 0.760577
10.50000000 15.93000031 -0.67000002 230 30 125 0.000000 0.000000 0.000000 0.000000 0.000000 0.000000 17.000000 0.135925 0.616892 0.775222
10.51000023 15.92000008 -0.66000003 230 30 125 0.000000 0.000000 0.000000 0.000000 0.000000 0.000000 17.000000 -0.194297 0.135881 0.971486
10.47999954 15.90999985 -0.64999998 230 30 125 0.000000 0.000000 0.000000 0.000000 0.000000 0.000000 17.000000 -0.020867 -0.610720 -0.791571
10.47999954 15.89999962 -0.63999999 230 30 125 0.000000 0.000000 0.000000 0.000000 0.000000 0.000000 17.000000 -0.070148 0.217829 0.973463
10.52000046 15.89000034 -0.61000001 230 30 125 0.000000 0.000000 0.000000 0.000000 0.000000 0.000000 17.000000 0.183109 0.320091 0.929523
10.47999954 15.86999989 -0.60000002 230 30 125 0.000000 0.000000 0.000000 0.000000 0.000000 0.000000 17.000000 0.272391 -0.664253 -0.696111
10.51000023 15.88000011 -0.64999998 230 30 125 0.000000 0.000000 0.000000 0.000000 0.000000 0.000000 17.000000 -0.109829 0.213345 0.970784
10.51000023 15.88000011 -0.64999998 230 30 125 0.000000 0.000000 0.000000 0.000000 0.000000 0.000000 17.000000 -0.109829 0.213345 0.970784
10.55000019 15.92000008 -0.69000000 230 30 125 0.000000 0.000000 0.000000 0.000000 0.000000 0.000000 17.000000 0.876217 0.045109 0.479801
10.56000042 15.92000008 -0.69999999 230 30 125 0.000000 0.000000 0.000000 0.000000 0.000000 0.000000 17.000000 0.552835 0.355047 0.753866
10.53999996 15.88000011 -0.69000000 230 30 125 0.000000 0.000000 0.000000 0.000000 0.000000 0.000000 17.000000 0.625702 0.561614 0.541375
10.50000000 15.85999966 -0.75000000 230 30 125 0.000000 0.000000 0.000000 0.000000 0.000000 0.000000 17.000000 0.532946 0.261003 0.804889
10.50000000 15.86999989 -0.75000000 230 30 125 0.000000 0.000000 0.000000 0.000000 0.000000 0.000000 17.000000 0.424641 0.503339 0.752549
10.51000023 15.88000011 -0.75999999 230 30 125 0.000000 0.000000 0.000000 0.000000 0.000000 0.000000 17.000000 0.653348 -0.166002 -0.738634
10.47000027 15.88000011 -0.61000001 230 30 125 0.000000 0.000000 0.000000 0.000000 0.000000 0.000000 17.000000 -0.044649 0.450552 0.891633
10.47000027 15.89000034 -0.63999999 230 30 125 0.000000 0.000000 0.000000 0.000000 0.000000 0.000000 17.000000 -0.324151 0.128847 0.937190
10.55000019 15.85999966 -0.77999997 230 30 125 0.000000 0.000000 0.000000 0.000000 0.000000 0.000000 17.000000 -0.366197 0.353836 0.860639
10.56000042 15.86999989 -0.77999997 230 30 125 0.000000 0.000000 0.000000 0.000000 0.000000 0.000000 17.000000 0.730233 -0.325448 -0.600702
10.18000031 16.71999931 -0.87000000 230 30 125 0.000000 0.000000 0.000000 0.000000 0.000000 0.000000 90.000000 -0.699550 0.315040 0.641389
10.18000031 16.62999916 -0.80000001 230 30 125 0.000000 0.000000 0.000000 0.000000 0.000000 0.000000 11.000000 0.617727 -0.503271 -0.604262
10.18000031 16.62999916 -0.80000001 230 30 125 0.000000 0.000000 0.000000 0.000000 0.000000 0.000000 11.000000 0.617727 -0.503271 -0.604262
10.14999962 16.62999916 -0.85000002 230 30 125 0.000000 0.000000 0.000000 0.000000 0.000000 0.000000 11.000000 0.973787 0.190222 -0.124715
10.22000027 16.68000031 -0.87000000 230 30 125 0.000000 0.000000 0.000000 0.000000 0.000000 0.000000 90.000000 0.950168 -0.134596 -0.281186
10.14000034 16.64999962 -0.88999999 230 30 125 0.000000 0.000000 0.000000 0.000000 0.000000 0.000000 11.000000 0.933664 0.059093 -0.353243
10.17000008 16.62000084 -0.81999999 230 30 125 0.000000 0.000000 0.000000 0.000000 0.000000 0.000000 11.000000 0.967613 0.005980 -0.252369
10.21000004 16.63999939 -0.97000003 230 30 125 0.000000 0.000000 0.000000 0.000000 0.000000 0.000000 11.000000 0.985853 0.111133 0.125472
10.22000027 16.63999939 -1.00999999 230 30 125 0.000000 0.000000 0.000000 0.000000 0.000000 0.000000 11.000000 0.961693 0.180235 0.206547
10.14999962 16.65999985 -0.98000002 230 30 125 0.000000 0.000000 0.000000 0.000000 0.000000 0.000000 11.000000 0.917598 -0.392491 -0.062959
10.15999985 16.62000084 -0.95999998 230 30 125 0.000000 0.000000 0.000000 0.000000 0.000000 0.000000 11.000000 0.968892 -0.176279 -0.173706
10.17000008 16.54000092 -0.97000003 230 30 125 0.000000 0.000000 0.000000 0.000000 0.000000 0.000000 11.000000 0.958705 0.067479 -0.276280
10.13000011 16.60000038 -0.98000002 230 30 125 0.000000 0.000000 0.000000 0.000000 0.000000 0.000000 11.000000 0.968946 -0.232497 0.084201
10.13000011 16.62000084 -0.99000001 230 30 125 0.000000 0.000000 0.000000 0.000000 0.000000 0.000000 11.000000 0.984396 0.175335 -0.014898
10.13000011 16.59000015 -0.99000001 230 30 125 0.000000 0.000000 0.000000 0.000000 0.000000 0.000000 11.000000 0.922487 -0.385767 0.014192
10.13000011 16.55999947 -0.97000003 230 30 125 0.000000 0.000000 0.000000 0.000000 0.000000 0.000000 11.000000 0.947587 0.319200 -0.013769
10.77000046 15.78999996 -0.86000001 230 30 125 0.000000 0.000000 0.000000 0.000000 0.000000 0.000000 17.000000 0.891752 -0.206465 -0.402679
10.75000000 15.77999973 -0.86000001 230 30 125 0.000000 0.000000 0.000000 0.000000 0.000000 0.000000 17.000000 0.651174 -0.405948 -0.641232
10.78999996 15.75000000 -0.80000001 230 30 125 0.000000 0.000000 0.000000 0.000000 0.000000 0.000000 17.000000 0.858072 -0.098514 -0.503992
10.76000023 15.68000031 -0.80000001 230 30 125 0.000000 0.000000 0.000000 0.000000 0.000000 0.000000 17.000000 0.882434 -0.115100 -0.456138
10.76000023 15.71000004 -0.81999999 230 30 125 0.000000 0.000000 0.000000 0.000000 0.000000 0.000000 17.000000 0.761685 -0.309484 -0.569259
10.77000046 15.64999962 -0.82999998 230 30 125 0.000000 0.000000 0.000000 0.000000 0.000000 0.000000 17.000000 0.922982 -0.359477 -0.137406
10.73999977 15.63000011 -0.77999997 230 30 125 0.000000 0.000000 0.000000 0.000000 0.000000 0.000000 17.000000 0.750940 -0.562800 -0.345465
10.76000023 15.64000034 -0.86000001 230 30 125 0.000000 0.000000 0.000000 0.000000 0.000000 0.000000 17.000000 0.805151 -0.504603 -0.311620
10.76000023 15.64999962 -0.87000000 230 30 125 0.000000 0.000000 0.000000 0.000000 0.000000 0.000000 17.000000 0.810552 -0.006857 -0.585627
10.69999981 15.68999958 -0.75999999 230 30 125 0.000000 0.000000 0.000000 0.000000 0.000000 0.000000 17.000000 0.769207 -0.297809 -0.565359
10.60000038 15.78999996 -0.66000003 230 30 125 0.000000 0.000000 0.000000 0.000000 0.000000 0.000000 17.000000 -0.810397 0.263886 -0.523088
10.59000015 15.77000046 -0.66000003 230 30 125 0.000000 0.000000 0.000000 0.000000 0.000000 0.000000 17.000000 0.866415 -0.131626 0.481663
10.59000015 15.80000019 -0.64999998 230 30 125 0.000000 0.000000 0.000000 0.000000 0.000000 0.000000 17.000000 0.678229 0.203313 0.706165
10.60000038 15.78999996 -0.66000003 230 30 125 0.000000 0.000000 0.000000 0.000000 0.000000 0.000000 17.000000 -0.810397 0.263886 -0.523088
10.59000015 15.81000042 -0.64999998 230 30 125 0.000000 0.000000 0.000000 0.000000 0.000000 0.000000 17.000000 0.779023 0.546431 0.307467
10.61999989 15.81999969 -0.75999999 230 30 125 0.000000 0.000000 0.000000 0.000000 0.000000 0.000000 17.000000 0.989919 -0.141417 0.007795
10.60999966 15.78999996 -0.75999999 230 30 125 0.000000 0.000000 0.000000 0.000000 0.000000 0.000000 17.000000 0.861213 -0.412952 -0.296282
10.57999992 15.85000038 -0.69000000 230 30 125 0.000000 0.000000 0.000000 0.000000 0.000000 0.000000 17.000000 0.771751 0.346402 0.533298
10.59000015 15.75000000 -0.63999999 230 30 125 0.000000 0.000000 0.000000 0.000000 0.000000 0.000000 17.000000 0.813603 0.063896 0.577899
10.56999969 15.69999981 -0.67000002 230 30 125 0.000000 0.000000 0.000000 0.000000 0.000000 0.000000 17.000000 0.939932 0.145547 0.308777
10.56999969 15.76000023 -0.62000000 230 30 125 0.000000 0.000000 0.000000 0.000000 0.000000 0.000000 17.000000 0.839277 0.374929 0.393754
10.72000027 15.84000015 -0.80000001 230 30 125 0.000000 0.000000 0.000000 0.000000 0.000000 0.000000 17.000000 0.879095 0.033863 -0.475443
10.69999981 15.85000038 -0.83999997 230 30 125 0.000000 0.000000 0.000000 0.000000 0.000000 0.000000 17.000000 0.691292 -0.394317 -0.605499
10.69999981 15.85000038 -0.83999997 230 30 125 0.000000 0.000000 0.000000 0.000000 0.000000 0.000000 17.000000 0.691292 -0.394317 -0.605499
10.71000004 15.80000019 -0.82999998 230 30 125 0.000000 0.000000 0.000000 0.000000 0.000000 0.000000 17.000000 0.884690 0.084986 -0.458367
10.71000004 15.80000019 -0.82999998 230 30 125 0.000000 0.000000 0.000000 0.000000 0.000000 0.000000 17.000000 0.884690 0.084986 -0.458367
10.68999958 15.81999969 -0.82999998 230 30 125 0.000000 0.000000 0.000000 0.000000 0.000000 0.000000 17.000000 0.938820 0.032107 -0.342907
10.68999958 15.81000042 -0.82999998 230 30 125 0.000000 0.000000 0.000000 0.000000 0.000000 0.000000 17.000000 0.976878 0.100034 -0.188954
10.72999954 15.85000038 -0.88999999 230 30 125 0.000000 0.000000 0.000000 0.000000 0.000000 0.000000 17.000000 0.929331 -0.192034 -0.315384
10.69999981 15.77999973 -0.92000002 230 30 125 0.000000 0.000000 0.000000 0.000000 0.000000 0.000000 17.000000 0.768209 0.018125 -0.639942
10.69999981 15.75000000 -0.85000002 230 30 125 0.000000 0.000000 0.000000 0.000000 0.000000 0.000000 17.000000 -0.583894 0.273750 0.764284
10.72999954 15.68000031 -0.81999999 230 30 125 0.000000 0.000000 0.000000 0.000000 0.000000 0.000000 17.000000 0.874947 0.202822 -0.439694
10.71000004 15.69999981 -0.83999997 230 30 125 0.000000 0.000000 0.000000 0.000000 0.000000 0.000000 17.000000 -0.526260 0.379624 0.760878
10.67000008 15.75000000 -0.77999997 230 30 125 0.000000 0.000000 0.000000 0.000000 0.000000 0.000000 17.000000 0.924501 -0.059860 -0.376451
10.65999985 15.69999981 -0.77999997 230 30 125 0.000000 0.000000 0.000000 0.000000 0.000000 0.000000 17.000000 0.880149 -0.221150 -0.420037
10.68999958 15.71000004 -0.82999998 230 30 125 0.000000 0.000000 0.000000 0.000000 0.000000 0.000000 17.000000 0.573984 -0.513387 -0.637947
10.68999958 15.69999981 -0.81000000 230 30 125 0.000000 0.000000 0.000000 0.000000 0.000000 0.000000 17.000000 0.930832 -0.173922 -0.321408
10.68000031 15.73999977 -0.93000001 230 30 125 0.000000 0.000000 0.000000 0.000000 0.000000 0.000000 17.000000 0.791363 -0.445040 -0.419147
10.60999966 15.81000042 -0.76999998 230 30 125 0.000000 0.000000 0.000000 0.000000 0.000000 0.000000 17.000000 0.832514 -0.244676 -0.497046
10.64000034 15.81999969 -0.83999997 230 30 125 0.000000 0.000000 0.000000 0.000000 0.000000 0.000000 17.000000 0.783306 0.180997 -0.594704
10.63000011 15.82999992 -0.81000000 230 30 125 0.000000 0.000000 0.000000 0.000000 0.000000 0.000000 17.000000 0.953689 -0.139273 -0.266609
10.63000011 15.81999969 -0.85000002 230 30 125 0.000000 0.000000 0.000000 0.000000 0.000000 0.000000 17.000000 0.670520 -0.230835 -0.705066
10.63000011 15.82999992 -0.85000002 230 30 125 0.000000 0.000000 0.000000 0.000000 0.000000 0.000000 17.000000 0.753136 -0.534220 -0.383920
10.64000034 15.80000019 -0.77999997 230 30 125 0.000000 0.000000 0.000000 0.000000 0.000000 0.000000 17.000000 0.926248 0.210704 -0.312520
10.57999992 15.85000038 -0.81999999 230 30 125 0.000000 0.000000 0.000000 0.000000 0.000000 0.000000 17.000000 0.735030 -0.335875 -0.588998
10.63000011 15.68000031 -0.81999999 230 30 125 0.000000 0.000000 0.000000 0.000000 0.000000 0.000000 17.000000 0.895573 -0.019902 -0.444469
10.59000015 15.65999985 -0.67000002 230 30 125 0.000000 0.000000 0.000000 0.000000 0.000000 0.000000 17.000000 0.999768 0.017116 0.013089
10.57999992 15.64000034 -0.63999999 230 30 125 0.000000 0.000000 0.000000 0.000000 0.000000 0.000000 17.000000 0.924320 0.082072 0.372688
10.59000015 15.64000034 -0.67000002 230 30 125 0.000000 0.000000 0.000000 0.000000 0.000000 0.000000 17.000000 0.991134 0.132077 0.014429
10.57999992 15.64999962 -0.66000003 230 30 125 0.000000 0.000000 0.000000 0.000000 0.000000 0.000000 17.000000 0.974129 -0.173094 -0.145298
10.59000015 15.61999989 -0.68000001 230 30 125 0.000000 0.000000 0.000000 0.000000 0.000000 0.000000 17.000000 0.976608 0.166311 -0.136300
10.59000015 15.61999989 -0.67000002 230 30 125 0.000000 0.000000 0.000000 0.000000 0.000000 0.000000 17.000000 0.987850 0.128033 -0.088096
10.59000015 15.65999985 -0.69000000 230 30 125 0.000000 0.000000 0.000000 0.000000 0.000000 0.000000 17.000000 0.953201 -0.297317 0.054870
10.64000034 15.57999992 -0.75000000 230 30 125 0.000000 0.000000 0.000000 0.000000 0.000000 0.000000 17.000000 0.786240 -0.358551 -0.503258
10.59000015 15.56000042 -0.75999999 230 30 125 0.000000 0.000000 0.000000 0.000000 0.000000 0.000000 17.000000 -0.606502 0.336584 0.720323
10.59000015 15.56000042 -0.75999999 230 30 125 0.000000 0.000000 0.000000 0.000000 0.000000 0.000000 17.000000 -0.606502 0.336584 0.720323
10.59000015 15.52000046 -0.75000000 230 30 125 0.000000 0.000000 0.000000 0.000000 0.000000 0.000000 17.000000 -0.414537 0.476311 0.775427
10.72000027 15.64999962 -0.76999998 230 30 125 0.000000 0.000000 0.000000 0.000000 0.000000 0.000000 17.000000 0.805433 -0.507945 -0.305400
10.72999954 15.64999962 -0.82999998 230 30 125 0.000000 0.000000 0.000000 0.000000 0.000000 0.000000 17.000000 0.538750 -0.475368 -0.695538
10.72000027 15.63000011 -0.82999998 230 30 125 0.000000 0.000000 0.000000 0.000000 0.000000 0.000000 17.000000 0.648679 -0.564435 -0.510519
10.68000031 15.65999985 -0.76999998 230 30 125 0.000000 0.000000 0.000000 0.000000 0.000000 0.000000 17.000000 0.868304 -0.121993 -0.480797
10.68000031 15.65999985 -0.76999998 230 30 125 0.000000 0.000000 0.000000 0.000000 0.000000 0.000000 17.000000 0.868304 -0.121993 -0.480797
10.59000015 15.60999966 -0.81000000 230 30 125 0.000000 0.000000 0.000000 0.000000 0.000000 0.000000 17.000000 -0.407343 0.445984 0.796975
10.59000015 15.60999966 -0.81000000 230 30 125 0.000000 0.000000 0.000000 0.000000 0.000000 0.000000 17.000000 -0.407343 0.445984 0.796975
10.60000038 15.57999992 -0.79000002 230 30 125 0.000000 0.000000 0.000000 0.000000 0.000000 0.000000 17.000000 -0.567194 0.290746 0.770557
10.57999992 15.57999992 -0.76999998 230 30 125 0.000000 0.000000 0.000000 0.000000 0.000000 0.000000 17.000000 -0.578118 0.006834 0.815925
10.57999992 15.59000015 -0.77999997 230 30 125 0.000000 0.000000 0.000000 0.000000 0.000000 0.000000 17.000000 -0.479085 0.495662 0.724429
10.57999992 15.56000042 -0.76999998 230 30 125 0.000000 0.000000 0.000000 0.000000 0.000000 0.000000 17.000000 -0.619501 0.388221 0.682278
10.77999973 15.77000046 -0.95999998 230 30 125 0.000000 0.000000 0.000000 0.000000 0.000000 0.000000 17.000000 0.823986 -0.106086 -0.556590
10.77000046 15.75000000 -0.97000003 230 30 125 0.000000 0.000000 0.000000 0.000000 0.000000 0.000000 17.000000 0.696531 -0.206322 -0.687223
10.77000046 15.75000000 -0.97000003 230 30 125 0.000000 0.000000 0.000000 0.000000 0.000000 0.000000 17.000000 0.696531 -0.206322 -0.687223
10.76000023 15.72999954 -0.99000001 230 30 125 0.000000 0.000000 0.000000 0.000000 0.000000 0.000000 17.000000 0.725578 -0.496448 -0.476524
10.72999954 15.77000046 -0.98000002 230 30 125 0.000000 0.000000 0.000000 0.000000 0.000000 0.000000 17.000000 0.829798 -0.295352 -0.473500
10.72999954 15.76000023 -0.98000002 230 30 125 0.000000 0.000000 0.000000 0.000000 0.000000 0.000000 17.000000 0.797846 0.004120 -0.602847
10.68000031 15.73999977 -0.94999999 230 30 125 0.000000 0.000000 0.000000 0.000000 0.000000 0.000000 17.000000 0.806343 0.012405 -0.591318
10.59000015 15.43000031 -0.61000001 230 30 125 0.000000 0.000000 0.000000 0.000000 0.000000 0.000000 17.000000 0.750615 -0.172048 -0.637947
10.56999969 15.46000004 -0.63999999 230 30 125 0.000000 0.000000 0.000000 0.000000 0.000000 0.000000 17.000000 0.892054 -0.355928 -0.278488
10.59000015 15.34000015 -0.60000002 230 30 125 0.000000 0.000000 0.000000 0.000000 0.000000 0.000000 17.000000 0.934450 0.040177 -0.353821
10.57999992 15.35999966 -0.62000000 230 30 125 0.000000 0.000000 0.000000 0.000000 0.000000 0.000000 17.000000 0.708307 0.023844 -0.705502
10.60999966 15.32999992 -0.60000002 230 30 125 0.000000 0.000000 0.000000 0.000000 0.000000 0.000000 17.000000 0.801787 -0.353682 -0.481712
10.57999992 15.31000042 -0.61000001 230 30 125 0.000000 0.000000 0.000000 0.000000 0.000000 0.000000 17.000000 0.610089 -0.373289 -0.698889
10.56999969 15.26000023 -0.75999999 230 30 125 0.000000 0.000000 0.000000 0.000000 0.000000 0.000000 17.000000 -0.137997 0.251023 0.958094
10.59000015 15.19999981 -0.75999999 230 30 125 0.000000 0.000000 0.000000 0.000000 0.000000 0.000000 17.000000 -0.194655 0.031853 0.980354
10.60999966 15.27999973 -0.80000001 230 30 125 0.000000 0.000000 0.000000 0.000000 0.000000 0.000000 17.000000 -0.191317 0.076771 0.978521
10.60999966 15.27999973 -0.80000001 230 30 125 0.000000 0.000000 0.000000 0.000000 0.000000 0.000000 17.000000 -0.191317 0.076771 0.978521
10.61999989 15.25000000 -0.81999999 230 30 125 0.000000 0.000000 0.000000 0.000000 0.000000 0.000000 17.000000 -0.386421 0.529902 0.754906
10.56999969 15.26000023 -0.79000002 230 30 125 0.000000 0.000000 0.000000 0.000000 0.000000 0.000000 17.000000 -0.116232 -0.023246 0.992950
10.56999969 15.26000023 -0.79000002 230 30 125 0.000000 0.000000 0.000000 0.000000 0.000000 0.000000 17.000000 -0.116232 -0.023246 0.992950
10.60999966 15.22999954 -0.81999999 230 30 125 0.000000 0.000000 0.000000 0.000000 0.000000 0.000000 17.000000 -0.230014 0.538758 0.810453
10.57999992 15.22000027 -0.77999997 230 30 125 0.000000 0.000000 0.000000 0.000000 0.000000 0.000000 17.000000 -0.080544 0.405452 0.910561
10.57999992 15.22000027 -0.77999997 230 30 125 0.000000 0.000000 0.000000 0.000000 0.000000 0.000000 17.000000 -0.080544 0.405452 0.910561
10.59000015 15.22999954 -0.85000002 230 30 125 0.000000 0.000000 0.000000 0.000000 0.000000 0.000000 17.000000 0.140032 0.276063 0.950884
10.59000015 15.17000008 -0.81999999 230 30 125 0.000000 0.000000 0.000000 0.000000 0.000000 0.000000 17.000000 -0.171070 0.504284 0.846424
10.57999992 15.17000008 -0.81999999 230 30 125 0.000000 0.000000 0.000000 0.000000 0.000000 0.000000 17.000000 -0.199391 0.638360 0.743465
10.57999992 15.19999981 -0.83999997 230 30 125 0.000000 0.000000 0.000000 0.000000 0.000000 0.000000 17.000000 0.058397 0.124809 0.990461
10.59000015 15.17000008 -0.82999998 230 30 125 0.000000 0.000000 0.000000 0.000000 0.000000 0.000000 17.000000 -0.247621 0.543519 0.802042
10.57999992 15.18000031 -0.81999999 230 30 125 0.000000 0.000000 0.000000 0.000000 0.000000 0.000000 17.000000 -0.186011 0.001141 0.982547
10.52999973 15.82999992 -0.60000002 230 30 125 0.000000 0.000000 0.000000 0.000000 0.000000 0.000000 17.000000 0.451082 0.474046 0.756178
10.55000019 15.81000042 -0.63000000 230 30 125 0.000000 0.000000 0.000000 0.000000 0.000000 0.000000 17.000000 0.150541 0.480853 0.863781
10.53999996 15.81000042 -0.68000001 230 30 125 0.000000 0.000000 0.000000 0.000000 0.000000 0.000000 17.000000 0.568426 0.375128 0.732237
10.53999996 15.85000038 -0.68000001 230 30 125 0.000000 0.000000 0.000000 0.000000 0.000000 0.000000 17.000000 0.875359 0.270620 0.400639
10.52999973 15.81000042 -0.67000002 230 30 125 0.000000 0.000000 0.000000 0.000000 0.000000 0.000000 17.000000 0.418275 0.476866 0.773075
10.52999973 15.81000042 -0.66000003 230 30 125 0.000000 0.000000 0.000000 0.000000 0.000000 0.000000 17.000000 0.451687 0.448426 0.771293
10.52999973 15.81000042 -0.66000003 230 30 125 0.000000 0.000000 0.000000 0.000000 0.000000 0.000000 17.000000 0.451687 0.448426 0.771293
10.53999996 15.77999973 -0.60000002 230 30 125 0.000000 0.000000 0.000000 0.000000 0.000000 0.000000 17.000000 0.057360 0.291899 0.954728
10.53999996 15.77999973 -0.60000002 230 30 125 0.000000 0.000000 0.000000 0.000000 0.000000 0.000000 17.000000 0.057360 0.291899 0.954728
10.56000042 15.77000046 -0.68000001 230 30 125 0.000000 0.000000 0.000000 0.000000 0.000000 0.000000 17.000000 0.925815 -0.184039 0.330146
10.56000042 15.77000046 -0.64999998 230 30 125 0.000000 0.000000 0.000000 0.000000 0.000000 0.000000 17.000000 0.774790 0.360706 0.519222
10.55000019 15.80000019 -0.68000001 230 30 125 0.000000 0.000000 0.000000 0.000000 0.000000 0.000000 17.000000 0.871237 0.022963 0.490324
10.55000019 15.78999996 -0.64999998 230 30 125 0.000000 0.000000 0.000000 0.000000 0.000000 0.000000 17.000000 0.773824 0.280096 0.568104
10.48999977 15.84000015 -0.63000000 230 30 125 0.000000 0.000000 0.000000 0.000000 0.000000 0.000000 17.000000 -0.350055 0.101367 0.931228
10.51000023 15.84000015 -0.68000001 230 30 125 0.000000 0.000000 0.000000 0.000000 0.000000 0.000000 17.000000 -0.111127 0.023106 0.993538
10.48999977 15.81000042 -0.63999999 230 30 125 0.000000 0.000000 0.000000 0.000000 0.000000 0.000000 17.000000 0.036382 0.028066 0.998944
10.51000023 15.77000046 -0.60000002 230 30 125 0.000000 0.000000 0.000000 0.000000 0.000000 0.000000 17.000000 0.078598 0.564473 0.821701
10.50000000 15.77000046 -0.62000000 230 30 125 0.000000 0.000000 0.000000 0.000000 0.000000 0.000000 17.000000 0.156176 -0.042804 0.986801
10.48999977 15.80000019 -0.66000003 230 30 125 0.000000 0.000000 0.000000 0.000000 0.000000 0.000000 17.000000 -0.422294 0.272890 0.864407
10.48999977 15.77999973 -0.67000002 230 30 125 0.000000 0.000000 0.000000 0.000000 0.000000 0.000000 17.000000 -0.229788 0.437048 0.869590
10.50000000 15.77000046 -0.66000003 230 30 125 0.000000 0.000000 0.000000 0.000000 0.000000 0.000000 17.000000 -0.226478 0.641947 0.732538
10.55000019 15.81999969 -0.69000000 230 30 125 0.000000 0.000000 0.000000 0.000000 0.000000 0.000000 17.000000 0.915124 0.262500 0.306008
10.55000019 15.82999992 -0.69999999 230 30 125 0.000000 0.000000 0.000000 0.000000 0.000000 0.000000 17.000000 0.997537 0.030940 0.062946
10.55000019 15.84000015 -0.69999999 230 30 125 0.000000 0.000000 0.000000 0.000000 0.000000 0.000000 17.000000 0.966930 0.060978 0.247644
10.47999954 15.82999992 -0.74000001 230 30 125 0.000000 0.000000 0.000000 0.000000 0.000000 0.000000 17.000000 0.820165 0.052052 0.569754
10.51000023 15.81000042 -0.73000002 230 30 125 0.000000 0.000000 0.000000 0.000000 0.000000 0.000000 17.000000 -0.696904 0.064929 0.714219
10.50000000 15.81999969 -0.74000001 230 30 125 0.000000 0.000000 0.000000 0.000000 0.000000 0.000000 17.000000 -0.076832 0.650895 0.755270
10.51000023 15.81000042 -0.73000002 230 30 125 0.000000 0.000000 0.000000 0.000000 0.000000 0.000000 17.000000 -0.696904 0.064929 0.714219
10.48999977 15.82999992 -0.75000000 230 30 125 0.000000 0.000000 0.000000 0.000000 0.000000 0.000000 17.000000 0.102206 0.372029 0.922577
10.48999977 15.82999992 -0.75000000 230 30 125 0.000000 0.000000 0.000000 0.000000 0.000000 0.000000 17.000000 0.102206 0.372029 0.922577
10.47999954 15.81999969 -0.73000002 230 30 125 0.000000 0.000000 0.000000 0.000000 0.000000 0.000000 17.000000 0.929203 0.305974 0.207273
10.50000000 15.84000015 -0.74000001 230 30 125 0.000000 0.000000 0.000000 0.000000 0.000000 0.000000 17.000000 -0.106399 0.399341 0.910608
10.47999954 15.78999996 -0.72000003 230 30 125 0.000000 0.000000 0.000000 0.000000 0.000000 0.000000 17.000000 0.763861 0.509784 0.395774
10.50000000 15.77000046 -0.69000000 230 30 125 0.000000 0.000000 0.000000 0.000000 0.000000 0.000000 17.000000 -0.480853 0.150541 0.863781
10.48999977 15.80000019 -0.75999999 230 30 125 0.000000 0.000000 0.000000 0.000000 0.000000 0.000000 17.000000 0.172578 0.302356 0.937442
10.56000042 15.76000023 -0.68000001 230 30 125 0.000000 0.000000 0.000000 0.000000 0.000000 0.000000 17.000000 0.871529 -0.091814 0.481672
10.53999996 15.69999981 -0.62000000 230 30 125 0.000000 0.000000 0.000000 0.000000 0.000000 0.000000 17.000000 0.425239 0.544372 0.723071
10.55000019 15.69999981 -0.68000001 230 30 125 0.000000 0.000000 0.000000 0.000000 0.000000 0.000000 17.000000 0.932253 -0.272201 0.238352
10.52999973 15.68000031 -0.63999999 230 30 125 0.000000 0.000000 0.000000 0.000000 0.000000 0.000000 17.000000 0.650205 0.572920 0.498995
10.52999973 15.68000031 -0.63999999 230 30 125 0.000000 0.000000 0.000000 0.000000 0.000000 0.000000 17.000000 0.650205 0.572920 0.498995
10.48999977 15.76000023 -0.66000003 230 30 125 0.000000 0.000000 0.000000 0.000000 0.000000 0.000000 17.000000 -0.651647 0.155730 0.742364
10.48999977 15.76000023 -0.66000003 230 30 125 0.000000 0.000000 0.000000 0.000000 0.000000 0.000000 17.000000 -0.651647 0.155730 0.742364
10.51000023 15.72999954 -0.68000001 230 30 125 0.000000 0.000000 0.000000 0.000000 0.000000 0.000000 17.000000 0.888683 -0.014612 0.458289
10.50000000 15.75000000 -0.68000001 230 30 125 0.000000 0.000000 0.000000 0.000000 0.000000 0.000000 17.000000 -0.182566 0.676569 0.713389
10.47999954 15.76000023 -0.67000002 230 30 125 0.000000 0.000000 0.000000 0.000000 0.000000 0.000000 17.000000 0.859044 0.051348 -0.509320
10.50000000 15.73999977 -0.68000001 230 30 125 0.000000 0.000000 0.000000 0.000000 0.000000 0.000000 17.000000 -0.250127 -0.005984 0.968195
10.47999954 15.76000023 -0.67000002 230 30 125 0.000000 0.000000 0.000000 0.000000 0.000000 0.000000 17.000000 0.859044 0.051348 -0.509320
10.51000023 15.72999954 -0.68000001 230 30 125 0.000000 0.000000 0.000000 0.000000 0.000000 0.000000 17.000000 0.888683 -0.014612 0.458289
10.48999977 15.76000023 -0.66000003 230 30 125 0.000000 0.000000 0.000000 0.000000 0.000000 0.000000 17.000000 -0.651647 0.155730 0.742364
10.52000046 15.75000000 -0.64999998 230 30 125 0.000000 0.000000 0.000000 0.000000 0.000000 0.000000 17.000000 0.548409 0.561908 0.619280
