//X Y Z R G B PointSourceId ScanDirectionFlag NumberOfReturns ReturnNumber GpsTime Intensity Classification Nx Ny Nz
12.40999985 -1.05999994 -0.23999999 166 31 157 0.000000 0.000000 0.000000 0.000000 -8.844074 0.000000 252.000000 0.637481 -0.640810 -0.427762
12.39000034 -1.08000004 0.01000000 166 31 157 0.000000 0.000000 0.000000 0.000000 -8.844074 0.000000 252.000000 0.560899 -0.510368 -0.651856
12.39000034 -1.08000004 0.01000000 166 31 157 0.000000 0.000000 0.000000 0.000000 -8.844074 0.000000 252.000000 0.560899 -0.510368 -0.651856
12.39000034 -1.04999995 -0.01000000 166 31 157 0.000000 0.000000 0.000000 0.000000 -8.844074 0.000000 252.000000 0.640508 -0.479120 -0.600161
12.39000034 -1.09000003 -0.23000000 166 31 157 0.000000 0.000000 0.000000 0.000000 -8.844074 0.000000 252.000000 0.662488 -0.330430 -0.672254
12.39000034 -1.07000005 -0.08000000 166 31 157 0.000000 0.000000 0.000000 0.000000 -8.844074 0.000000 252.000000 0.489002 -0.606632 -0.626797
12.35999966 -1.13999999 0.40000001 166 31 157 0.000000 0.000000 0.000000 0.000000 -8.844074 0.000000 252.000000 -0.081895 0.996572 0.011699
12.38000011 -1.10000002 0.41000000 166 31 157 0.000000 0.000000 0.000000 0.000000 -8.844074 0.000000 252.000000 -0.124806 0.928500 -0.349730
12.35999966 -1.13999999 0.40000001 166 31 157 0.000000 0.000000 0.000000 0.000000 -8.844074 0.000000 252.000000 -0.081895 0.996572 0.011699
12.36999989 -1.13000000 0.34999999 166 31 157 0.000000 0.000000 0.000000 0.000000 -8.844074 0.000000 252.000000 -0.211264 0.965594 -0.151644
12.35999966 -1.13999999 0.38000000 166 31 157 0.000000 0.000000 0.000000 0.000000 -8.844074 0.000000 252.000000 -0.153969 0.986110 0.062293
12.31999969 -1.17999995 0.36000001 166 31 157 0.000000 0.000000 0.000000 0.000000 -8.844074 0.000000 252.000000 0.132336 0.856551 -0.498806
12.31999969 -1.17999995 0.36000001 166 31 157 0.000000 0.000000 0.000000 0.000000 -8.844074 0.000000 252.000000 0.132336 0.856551 -0.498806
12.31999969 -1.17999995 0.36000001 166 31 157 0.000000 0.000000 0.000000 0.000000 -8.844074 0.000000 252.000000 0.132336 0.856551 -0.498806
12.34000015 -1.21000004 0.40000001 166 31 157 0.000000 0.000000 0.000000 0.000000 -8.844074 0.000000 252.000000 -0.036896 0.998291 0.045329
12.32999992 -1.20000005 0.38999999 166 31 157 0.000000 0.000000 0.000000 0.000000 -8.844074 0.000000 252.000000 0.355943 0.934189 -0.024415
12.31999969 -1.20000005 0.31999999 166 31 157 0.000000 0.000000 0.000000 0.000000 -8.844074 0.000000 252.000000 0.126441 0.975224 -0.181524
12.34000015 -1.20000005 0.33000001 166 31 157 0.000000 0.000000 0.000000 0.000000 -8.844074 0.000000 252.000000 -0.018769 0.992555 -0.120343
12.31999969 -1.20000005 0.28999999 166 31 157 0.000000 0.000000 0.000000 0.000000 -8.844074 0.000000 252.000000 0.225092 0.973795 0.032500
12.31000042 -1.16999996 0.37000000 166 31 157 0.000000 0.000000 0.000000 0.000000 -8.844074 0.000000 252.000000 -0.255932 0.949252 -0.182809
12.31000042 -1.16999996 0.37000000 166 31 157 0.000000 0.000000 0.000000 0.000000 -8.844074 0.000000 252.000000 -0.255932 0.949252 -0.182809
12.30000019 -1.17999995 0.28999999 166 31 157 0.000000 0.000000 0.000000 0.000000 -8.844074 0.000000 252.000000 0.237541 0.907902 -0.345382
12.30000019 -1.16999996 0.30000001 166 31 157 0.000000 0.000000 0.000000 0.000000 -8.844074 0.000000 252.000000 -0.110702 0.976420 -0.185333
12.30000019 -1.17999995 0.28999999 166 31 157 0.000000 0.000000 0.000000 0.000000 -8.844074 0.000000 252.000000 0.237541 0.907902 -0.345382
12.31000042 -1.19000006 0.38000000 166 31 157 0.000000 0.000000 0.000000 0.000000 -8.844074 0.000000 252.000000 0.078164 0.903691 -0.420991
12.27999973 -1.24000001 0.36000001 166 31 157 0.000000 0.000000 0.000000 0.000000 -8.844074 0.000000 252.000000 0.136793 0.962760 -0.233199
12.27999973 -1.24000001 0.34999999 166 31 157 0.000000 0.000000 0.000000 0.000000 -8.844074 0.000000 252.000000 0.254214 0.957585 0.135669
12.26000023 -1.23000002 0.40000001 166 31 157 0.000000 0.000000 0.000000 0.000000 -8.844074 0.000000 252.000000 -0.177281 0.900817 -0.396359
12.23999977 -1.23000002 0.40000001 166 31 157 0.000000 0.000000 0.000000 0.000000 -8.844074 0.000000 252.000000 -0.107345 0.978441 -0.176440
12.23999977 -1.24000001 0.38999999 166 31 157 0.000000 0.000000 0.000000 0.000000 -8.844074 0.000000 252.000000 0.065481 0.923412 -0.378184
12.26000023 -1.23000002 0.37000000 166 31 157 0.000000 0.000000 0.000000 0.000000 -8.844074 0.000000 252.000000 -0.084925 0.964591 -0.249704
12.30000019 -1.19000006 0.28000000 166 31 157 0.000000 0.000000 0.000000 0.000000 -8.844074 0.000000 252.000000 -0.114935 0.971267 -0.208399
12.30000019 -1.19000006 0.28000000 166 31 157 0.000000 0.000000 0.000000 0.000000 -8.844074 0.000000 252.000000 -0.114935 0.971267 -0.208399
12.27999973 -1.25000000 0.28000000 166 31 157 0.000000 0.000000 0.000000 0.000000 -8.844074 0.000000 252.000000 0.231608 0.916363 -0.326553
12.38000011 -1.13999999 0.25000000 166 31 157 0.000000 0.000000 0.000000 0.000000 -8.844074 0.000000 252.000000 -0.228924 0.972623 0.039971
12.36999989 -1.12000000 0.20000000 166 31 157 0.000000 0.000000 0.000000 0.000000 -8.844074 0.000000 252.000000 -0.414783 0.901274 0.125138
12.39000034 -1.12000000 0.20000000 166 31 157 0.000000 0.000000 0.000000 0.000000 -8.844074 0.000000 252.000000 -0.292096 0.948311 0.124041
12.36999989 -1.11000001 0.19000000 166 31 157 0.000000 0.000000 0.000000 0.000000 -8.844074 0.000000 252.000000 0.553544 -0.730941 -0.399143
12.35000038 -1.13000000 0.20999999 166 31 157 0.000000 0.000000 0.000000 0.000000 -8.844074 0.000000 252.000000 -0.503393 0.813897 0.290117
12.31999969 -1.14999998 0.25000000 166 31 157 0.000000 0.000000 0.000000 0.000000 -8.844074 0.000000 252.000000 -0.291404 0.892143 -0.345201
12.34000015 -1.14999998 0.19000000 166 31 157 0.000000 0.000000 0.000000 0.000000 -8.844074 0.000000 252.000000 -0.413518 0.894754 0.168577
12.36999989 -1.13999999 0.10000000 166 31 157 0.000000 0.000000 0.000000 0.000000 -8.844074 0.000000 252.000000 -0.063644 0.989369 0.130759
12.35999966 -1.13999999 0.11000000 166 31 157 0.000000 0.000000 0.000000 0.000000 -8.844074 0.000000 252.000000 -0.342572 0.908180 -0.240529
12.35000038 -1.13999999 0.11000000 166 31 157 0.000000 0.000000 0.000000 0.000000 -8.844074 0.000000 252.000000 -0.350574 0.936147 -0.026967
12.35000038 -1.13999999 0.11000000 166 31 157 0.000000 0.000000 0.000000 0.000000 -8.844074 0.000000 252.000000 -0.350574 0.936147 -0.026967
12.31999969 -1.15999997 0.10000000 166 31 157 0.000000 0.000000 0.000000 0.000000 -8.844074 0.000000 252.000000 -0.327870 0.937736 0.114687
12.32999992 -1.19000006 0.23000000 166 31 157 0.000000 0.000000 0.000000 0.000000 -8.844074 0.000000 252.000000 -0.050918 0.998611 -0.013509
12.31000042 -1.17999995 0.19000000 166 31 157 0.000000 0.000000 0.000000 0.000000 -8.844074 0.000000 252.000000 -0.341678 0.920121 0.191397
12.31000042 -1.17999995 0.18000001 166 31 157 0.000000 0.000000 0.000000 0.000000 -8.844074 0.000000 252.000000 -0.299101 0.923062 0.241857
12.30000019 -1.17999995 0.25000000 166 31 157 0.000000 0.000000 0.000000 0.000000 -8.844074 0.000000 252.000000 0.249983 0.930729 -0.266931
12.30000019 -1.17999995 0.25000000 166 31 157 0.000000 0.000000 0.000000 0.000000 -8.844074 0.000000 252.000000 0.249983 0.930729 -0.266931
12.31000042 -1.19000006 0.25999999 166 31 157 0.000000 0.000000 0.000000 0.000000 -8.844074 0.000000 252.000000 0.181796 0.983090 0.022001
12.27000046 -1.21000004 0.25000000 166 31 157 0.000000 0.000000 0.000000 0.000000 -8.844074 0.000000 252.000000 0.013616 0.998124 0.059699
12.27000046 -1.20000005 0.20000000 166 31 157 0.000000 0.000000 0.000000 0.000000 -8.844074 0.000000 252.000000 -0.054745 0.974465 -0.217764
12.27000046 -1.23000002 0.23000000 166 31 157 0.000000 0.000000 0.000000 0.000000 -8.844074 0.000000 252.000000 0.163879 0.907747 -0.386185
12.23999977 -1.25999999 0.22000000 166 31 157 0.000000 0.000000 0.000000 0.000000 -8.844074 0.000000 252.000000 0.346473 0.882068 -0.319239
12.27000046 -1.21000004 0.11000000 166 31 157 0.000000 0.000000 0.000000 0.000000 -8.844074 0.000000 252.000000 0.076759 0.986062 -0.147614
12.39999962 -1.11000001 -0.06000000 166 31 157 0.000000 0.000000 0.000000 0.000000 -8.844074 0.000000 252.000000 0.730562 -0.395653 -0.556541
12.35999966 -1.11000001 0.03000000 166 31 157 0.000000 0.000000 0.000000 0.000000 -8.844074 0.000000 252.000000 0.623593 -0.566135 -0.539095
12.32999992 -1.16999996 0.09000000 166 31 157 0.000000 0.000000 0.000000 0.000000 -8.844074 0.000000 252.000000 -0.368066 0.907896 0.200632
12.32999992 -1.16999996 0.01000000 166 31 157 0.000000 0.000000 0.000000 0.000000 -8.844074 0.000000 252.000000 -0.133729 0.941504 0.309332
12.32999992 -1.16999996 0.02000000 166 31 157 0.000000 0.000000 0.000000 0.000000 -8.844074 0.000000 252.000000 -0.254455 0.951850 0.170983
12.31999969 -1.15999997 0.01000000 166 31 157 0.000000 0.000000 0.000000 0.000000 -8.844074 0.000000 252.000000 -0.104154 0.963101 0.248169
12.35999966 -1.12000000 -0.06000000 166 31 157 0.000000 0.000000 0.000000 0.000000 -8.844074 0.000000 252.000000 -0.425757 0.900054 0.092918
12.39000034 -1.11000001 -0.06000000 166 31 157 0.000000 0.000000 0.000000 0.000000 -8.844074 0.000000 252.000000 0.642509 -0.517717 -0.564935
12.39000034 -1.10000002 -0.07000000 166 31 157 0.000000 0.000000 0.000000 0.000000 -8.844074 0.000000 252.000000 0.543070 -0.509444 -0.667489
12.35000038 -1.11000001 -0.02000000 166 31 157 0.000000 0.000000 0.000000 0.000000 -8.844074 0.000000 252.000000 -0.288354 0.922447 0.256793
12.35000038 -1.14999998 -0.02000000 166 31 157 0.000000 0.000000 0.000000 0.000000 -8.844074 0.000000 252.000000 -0.439383 0.810062 0.388255
12.34000015 -1.14999998 -0.02000000 166 31 157 0.000000 0.000000 0.000000 0.000000 -8.844074 0.000000 252.000000 -0.464609 0.739075 0.487757
12.35000038 -1.14999998 -0.02000000 166 31 157 0.000000 0.000000 0.000000 0.000000 -8.844074 0.000000 252.000000 -0.439383 0.810062 0.388255
12.34000015 -1.14999998 -0.02000000 166 31 157 0.000000 0.000000 0.000000 0.000000 -8.844074 0.000000 252.000000 -0.464609 0.739075 0.487757
12.35000038 -1.14999998 -0.07000000 166 31 157 0.000000 0.000000 0.000000 0.000000 -8.844074 0.000000 252.000000 -0.336087 0.877476 0.342170
12.34000015 -1.16999996 -0.04000000 166 31 157 0.000000 0.000000 0.000000 0.000000 -8.844074 0.000000 252.000000 -0.316917 0.744836 0.587182
12.31999969 -1.19000006 0.01000000 166 31 157 0.000000 0.000000 0.000000 0.000000 -8.844074 0.000000 252.000000 -0.219685 0.961613 -0.164435
12.31999969 -1.19000006 0.01000000 166 31 157 0.000000 0.000000 0.000000 0.000000 -8.844074 0.000000 252.000000 -0.219685 0.961613 -0.164435
12.32999992 -1.19000006 0.08000000 166 31 157 0.000000 0.000000 0.000000 0.000000 -8.844074 0.000000 252.000000 -0.006305 0.936983 0.349319
12.31000042 -1.17999995 -0.04000000 166 31 157 0.000000 0.000000 0.000000 0.000000 -8.844074 0.000000 252.000000 -0.141559 0.970509 0.195122
12.31000042 -1.19000006 0.01000000 166 31 157 0.000000 0.000000 0.000000 0.000000 -8.844074 0.000000 252.000000 -0.244165 0.967983 -0.058252
12.27999973 -1.20000005 0.04000000 166 31 157 0.000000 0.000000 0.000000 0.000000 -8.844074 0.000000 252.000000 0.038694 0.998725 -0.032419
12.23999977 -1.25999999 0.03000000 166 31 157 0.000000 0.000000 0.000000 0.000000 -8.844074 0.000000 252.000000 0.195612 0.973011 -0.122415
12.39000034 -1.11000001 -0.10000000 166 31 157 0.000000 0.000000 0.000000 0.000000 -8.844074 0.000000 252.000000 0.799171 -0.312995 -0.513185
12.36999989 -1.13999999 -0.16000000 166 31 157 0.000000 0.000000 0.000000 0.000000 -8.844074 0.000000 252.000000 0.705822 -0.401674 -0.583501
12.36999989 -1.13000000 -0.16000000 166 31 157 0.000000 0.000000 0.000000 0.000000 -8.844074 0.000000 252.000000 0.603997 -0.576927 -0.549857
12.39000034 -1.10000002 -0.18000001 166 31 157 0.000000 0.000000 0.000000 0.000000 -8.844074 0.000000 252.000000 0.551867 -0.435859 -0.710964
12.39000034 -1.10000002 -0.18000001 166 31 157 0.000000 0.000000 0.000000 0.000000 -8.844074 0.000000 252.000000 0.551867 -0.435859 -0.710964
12.38000011 -1.11000001 -0.18000001 166 31 157 0.000000 0.000000 0.000000 0.000000 -8.844074 0.000000 252.000000 0.569104 -0.495238 -0.656400
12.36999989 -1.13000000 -0.22000000 166 31 157 0.000000 0.000000 0.000000 0.000000 -8.844074 0.000000 252.000000 0.937035 -0.292910 -0.190183
12.39000034 -1.13000000 -0.23000000 166 31 157 0.000000 0.000000 0.000000 0.000000 -8.844074 0.000000 252.000000 0.921035 -0.251453 -0.297433
12.32999992 -1.13999999 -0.20999999 166 31 157 0.000000 0.000000 0.000000 0.000000 -8.844074 0.000000 252.000000 0.600861 -0.503242 -0.621058
12.35000038 -1.14999998 -0.20999999 166 31 157 0.000000 0.000000 0.000000 0.000000 -8.844074 0.000000 252.000000 0.496465 -0.573880 -0.651295
12.35000038 -1.14999998 -0.20999999 166 31 157 0.000000 0.000000 0.000000 0.000000 -8.844074 0.000000 252.000000 0.496465 -0.573880 -0.651295
12.32999992 -1.19000006 -0.19000000 166 31 157 0.000000 0.000000 0.000000 0.000000 -8.844074 0.000000 252.000000 -0.399500 0.658098 0.638206
12.31000042 -1.20000005 -0.20999999 166 31 157 0.000000 0.000000 0.000000 0.000000 -8.844074 0.000000 252.000000 0.582888 -0.562613 -0.586267
12.30000019 -1.20000005 -0.22000000 166 31 157 0.000000 0.000000 0.000000 0.000000 -8.844074 0.000000 252.000000 0.832992 -0.502852 -0.230792
12.30000019 -1.20000005 -0.23999999 166 31 157 0.000000 0.000000 0.000000 0.000000 -8.844074 0.000000 252.000000 -0.775309 0.377134 0.506622
12.26000023 -1.22000003 -0.23999999 166 31 157 0.000000 0.000000 0.000000 0.000000 -8.844074 0.000000 252.000000 -0.470929 0.672037 0.571483
12.26000023 -1.22000003 -0.23999999 166 31 157 0.000000 0.000000 0.000000 0.000000 -8.844074 0.000000 252.000000 -0.470929 0.672037 0.571483
12.21000004 -0.63000000 0.18000001 166 31 157 0.000000 0.000000 0.000000 0.000000 -8.844074 0.000000 252.000000 -0.364097 0.912385 0.187046
12.22999954 -0.60000002 0.18000001 166 31 157 0.000000 0.000000 0.000000 0.000000 -8.844074 0.000000 252.000000 -0.094464 0.940650 -0.325968
12.22999954 -0.61000001 0.16000000 166 31 157 0.000000 0.000000 0.000000 0.000000 -8.844074 0.000000 252.000000 -0.059768 0.974585 -0.215897
12.21000004 -0.63000000 0.15000001 166 31 157 0.000000 0.000000 0.000000 0.000000 -8.844074 0.000000 252.000000 -0.038157 0.966243 -0.254793
12.22999954 -0.61000001 0.15000001 166 31 157 0.000000 0.000000 0.000000 0.000000 -8.844074 0.000000 252.000000 -0.461101 0.853721 -0.241964
12.21000004 -0.63000000 0.17000000 166 31 157 0.000000 0.000000 0.000000 0.000000 -8.844074 0.000000 252.000000 -0.436294 0.893631 0.105216
12.22999954 -0.61000001 0.15000001 166 31 157 0.000000 0.000000 0.000000 0.000000 -8.844074 0.000000 252.000000 -0.461101 0.853721 -0.241964
12.18999958 -0.63000000 0.13000000 166 31 157 0.000000 0.000000 0.000000 0.000000 -8.844074 0.000000 252.000000 -0.467856 0.877761 0.103183
12.18999958 -0.62000000 0.10000000 166 31 157 0.000000 0.000000 0.000000 0.000000 -8.844074 0.000000 252.000000 -0.163387 0.949263 -0.268710
12.18999958 -0.63999999 0.14000000 166 31 157 0.000000 0.000000 0.000000 0.000000 -8.844074 0.000000 252.000000 -0.181045 0.969426 -0.165637
12.19999981 -0.58999997 -0.14000000 166 31 157 0.000000 0.000000 0.000000 0.000000 -8.844074 0.000000 252.000000 -0.089719 0.901326 -0.423747
12.22000027 -0.56999999 -0.13000000 166 31 157 0.000000 0.000000 0.000000 0.000000 -8.844074 0.000000 252.000000 0.326182 0.854875 -0.403476
12.21000004 -0.58999997 -0.20000000 166 31 157 0.000000 0.000000 0.000000 0.000000 -8.844074 0.000000 252.000000 -0.006423 0.921108 -0.389255
12.18000031 -0.57999998 -0.23999999 166 31 157 0.000000 0.000000 0.000000 0.000000 -8.844074 0.000000 252.000000 0.196484 0.895096 -0.400246
12.18000031 -0.58999997 -0.20999999 166 31 157 0.000000 0.000000 0.000000 0.000000 -8.844074 0.000000 252.000000 -0.073154 0.956138 -0.283633
12.22000027 -0.61000001 0.08000000 166 31 157 0.000000 0.000000 0.000000 0.000000 -8.844074 0.000000 252.000000 0.198148 0.947009 -0.252809
12.22999954 -0.62000000 0.07000000 166 31 157 0.000000 0.000000 0.000000 0.000000 -8.844074 0.000000 252.000000 -0.006287 0.939223 -0.343250
12.22000027 -0.63000000 0.01000000 166 31 157 0.000000 0.000000 0.000000 0.000000 -8.844074 0.000000 252.000000 0.278744 0.924857 -0.258731
12.17000008 -0.62000000 0.06000000 166 31 157 0.000000 0.000000 0.000000 0.000000 -8.844074 0.000000 252.000000 -0.248398 0.961078 -0.120948
12.18000031 -0.61000001 0.05000000 166 31 157 0.000000 0.000000 0.000000 0.000000 -8.844074 0.000000 252.000000 -0.064559 0.960797 -0.269631
12.18999958 -0.63000000 -0.02000000 166 31 157 0.000000 0.000000 0.000000 0.000000 -8.844074 0.000000 252.000000 -0.162403 0.970583 -0.177748
12.22000027 -0.63000000 -0.02000000 166 31 157 0.000000 0.000000 0.000000 0.000000 -8.844074 0.000000 252.000000 -0.078268 0.902136 -0.424292
12.19999981 -0.62000000 -0.07000000 166 31 157 0.000000 0.000000 0.000000 0.000000 -8.844074 0.000000 252.000000 -0.142753 0.968405 -0.204484
12.22000027 -0.63999999 -0.03000000 166 31 157 0.000000 0.000000 0.000000 0.000000 -8.844074 0.000000 252.000000 0.076001 0.980772 -0.179748
12.14999962 -0.61000001 -0.01000000 166 31 157 0.000000 0.000000 0.000000 0.000000 -8.844074 0.000000 252.000000 -0.316655 0.936257 -0.152159
12.14999962 -0.61000001 -0.01000000 166 31 157 0.000000 0.000000 0.000000 0.000000 -8.844074 0.000000 252.000000 -0.316655 0.936257 -0.152159
12.14999962 -0.60000002 -0.07000000 166 31 157 0.000000 0.000000 0.000000 0.000000 -8.844074 0.000000 252.000000 -0.299157 0.941184 -0.157092
12.13000011 -0.62000000 0.02000000 166 31 157 0.000000 0.000000 0.000000 0.000000 -8.844074 0.000000 252.000000 -0.470948 0.870891 -0.140560
12.14000034 -0.62000000 0.02000000 166 31 157 0.000000 0.000000 0.000000 0.000000 -8.844074 0.000000 252.000000 -0.437956 0.852863 -0.284288
12.13000011 -0.62000000 0.03000000 166 31 157 0.000000 0.000000 0.000000 0.000000 -8.844074 0.000000 252.000000 -0.213710 0.948761 -0.232766
12.11999989 -0.63999999 0.01000000 166 31 157 0.000000 0.000000 0.000000 0.000000 -8.844074 0.000000 252.000000 -0.474400 0.865082 -0.163029
12.10999966 -0.62000000 0.00000000 166 31 157 0.000000 0.000000 0.000000 0.000000 -8.844074 0.000000 252.000000 -0.335389 0.910343 -0.242468
12.10999966 -0.61000001 -0.05000000 166 31 157 0.000000 0.000000 0.000000 0.000000 -8.844074 0.000000 252.000000 -0.426775 0.884348 -0.189189
12.10000038 -0.61000001 -0.07000000 166 31 157 0.000000 0.000000 0.000000 0.000000 -8.844074 0.000000 252.000000 -0.342568 0.890077 -0.300682
12.21000004 -0.63000000 -0.10000000 166 31 157 0.000000 0.000000 0.000000 0.000000 -8.844074 0.000000 252.000000 0.352975 0.775255 -0.523821
12.18999958 -0.61000001 -0.09000000 166 31 157 0.000000 0.000000 0.000000 0.000000 -8.844074 0.000000 252.000000 0.121552 0.906747 -0.403775
12.18999958 -0.60000002 -0.12000000 166 31 157 0.000000 0.000000 0.000000 0.000000 -8.844074 0.000000 252.000000 0.049957 0.973543 -0.222977
12.22999954 -0.60000002 -0.17000000 166 31 157 0.000000 0.000000 0.000000 0.000000 -8.844074 0.000000 252.000000 0.373856 0.634072 -0.676893
12.22999954 -0.61000001 -0.18000001 166 31 157 0.000000 0.000000 0.000000 0.000000 -8.844074 0.000000 252.000000 0.263110 0.893385 -0.364192
12.14999962 -0.62000000 -0.20000000 166 31 157 0.000000 0.000000 0.000000 0.000000 -8.844074 0.000000 252.000000 0.188842 0.744619 -0.640219
12.17000008 -0.61000001 -0.18000001 166 31 157 0.000000 0.000000 0.000000 0.000000 -8.844074 0.000000 252.000000 0.239862 0.844864 -0.478196
12.14999962 -0.60000002 -0.20999999 166 31 157 0.000000 0.000000 0.000000 0.000000 -8.844074 0.000000 252.000000 0.434118 0.782062 -0.447125
12.11999989 -0.63999999 -0.16000000 166 31 157 0.000000 0.000000 0.000000 0.000000 -8.844074 0.000000 252.000000 -0.049313 0.815779 -0.576258
11.89999962 -0.70999998 0.08000000 166 31 157 0.000000 0.000000 0.000000 0.000000 -8.844074 0.000000 252.000000 0.671559 -0.402935 -0.621814
11.90999985 -0.70999998 0.09000000 166 31 157 0.000000 0.000000 0.000000 0.000000 -8.844074 0.000000 252.000000 -0.481759 0.569046 0.666405
11.92000008 -0.70999998 0.04000000 166 31 157 0.000000 0.000000 0.000000 0.000000 -8.844074 0.000000 252.000000 -0.437821 0.677541 0.590975
11.89999962 -0.68000001 -0.06000000 166 31 157 0.000000 0.000000 0.000000 0.000000 -8.844074 0.000000 252.000000 -0.368228 0.715181 0.594075
11.92000008 -0.73000002 -0.01000000 166 31 157 0.000000 0.000000 0.000000 0.000000 -8.844074 0.000000 252.000000 -0.535172 0.555430 0.636466
12.02000046 -0.60000002 -0.23999999 166 31 157 0.000000 0.000000 0.000000 0.000000 -8.844074 0.000000 252.000000 0.332817 0.925428 -0.181154
11.98999977 -0.63000000 -0.20999999 166 31 157 0.000000 0.000000 0.000000 0.000000 -8.844074 0.000000 252.000000 0.181754 0.922858 -0.339556
11.93000031 -0.64999998 -0.13000000 166 31 157 0.000000 0.000000 0.000000 0.000000 -8.844074 0.000000 252.000000 -0.257399 0.891224 0.373451
11.92000008 -0.67000002 -0.17000000 166 31 157 0.000000 0.000000 0.000000 0.000000 -8.844074 0.000000 252.000000 0.011369 0.938584 0.344863
11.92000008 -0.67000002 -0.17000000 166 31 157 0.000000 0.000000 0.000000 0.000000 -8.844074 0.000000 252.000000 0.011369 0.938584 0.344863
11.93000031 -0.67000002 -0.18000001 166 31 157 0.000000 0.000000 0.000000 0.000000 -8.844074 0.000000 252.000000 -0.093980 0.993015 -0.071334
11.90999985 -0.64999998 -0.22000000 166 31 157 0.000000 0.000000 0.000000 0.000000 -8.844074 0.000000 252.000000 -0.072948 0.996236 -0.046818
11.92000008 -0.64999998 -0.22000000 166 31 157 0.000000 0.000000 0.000000 0.000000 -8.844074 0.000000 252.000000 0.008960 0.927997 0.372479
11.90999985 -0.69000000 -0.10000000 166 31 157 0.000000 0.000000 0.000000 0.000000 -8.844074 0.000000 252.000000 -0.238884 0.969152 0.060649
11.93000031 -0.69000000 -0.10000000 166 31 157 0.000000 0.000000 0.000000 0.000000 -8.844074 0.000000 252.000000 -0.357572 0.771773 0.525841
11.93000031 -0.69000000 -0.09000000 166 31 157 0.000000 0.000000 0.000000 0.000000 -8.844074 0.000000 252.000000 -0.258278 0.885312 0.386671
11.93000031 -0.69000000 -0.10000000 166 31 157 0.000000 0.000000 0.000000 0.000000 -8.844074 0.000000 252.000000 -0.357572 0.771773 0.525841
11.90999985 -0.69999999 -0.13000000 166 31 157 0.000000 0.000000 0.000000 0.000000 -8.844074 0.000000 252.000000 -0.369442 0.857910 0.357076
11.90999985 -0.69999999 -0.13000000 166 31 157 0.000000 0.000000 0.000000 0.000000 -8.844074 0.000000 252.000000 -0.369442 0.857910 0.357076
11.89999962 -0.69999999 -0.13000000 166 31 157 0.000000 0.000000 0.000000 0.000000 -8.844074 0.000000 252.000000 -0.097251 0.993752 0.054774
11.89999962 -0.69999999 -0.19000000 166 31 157 0.000000 0.000000 0.000000 0.000000 -8.844074 0.000000 252.000000 0.006035 0.964411 0.264338
11.89999962 -0.69999999 -0.19000000 166 31 157 0.000000 0.000000 0.000000 0.000000 -8.844074 0.000000 252.000000 0.006035 0.964411 0.264338
11.93000031 -0.68000001 -0.20999999 166 31 157 0.000000 0.000000 0.000000 0.000000 -8.844074 0.000000 252.000000 -0.290708 0.901636 0.320221
11.89999962 -0.69999999 -0.22000000 166 31 157 0.000000 0.000000 0.000000 0.000000 -8.844074 0.000000 252.000000 -0.232349 0.851947 0.469254
11.88000011 -0.75000000 0.01000000 166 31 157 0.000000 0.000000 0.000000 0.000000 -8.844074 0.000000 252.000000 -0.379236 0.864413 0.330105
11.86999989 -0.75000000 0.01000000 166 31 157 0.000000 0.000000 0.000000 0.000000 -8.844074 0.000000 252.000000 -0.359507 0.839897 0.406604
11.85999966 -0.70999998 -0.05000000 166 31 157 0.000000 0.000000 0.000000 0.000000 -8.844074 0.000000 252.000000 -0.335817 0.918854 0.207207
11.88000011 -0.73000002 -0.05000000 166 31 157 0.000000 0.000000 0.000000 0.000000 -8.844074 0.000000 252.000000 -0.352643 0.898575 0.261162
11.86999989 -0.70999998 -0.14000000 166 31 157 0.000000 0.000000 0.000000 0.000000 -8.844074 0.000000 252.000000 -0.326608 0.943677 -0.052929
11.86999989 -0.75000000 -0.10000000 166 31 157 0.000000 0.000000 0.000000 0.000000 -8.844074 0.000000 252.000000 0.604214 -0.486400 -0.631142
11.86999989 -0.74000001 -0.11000000 166 31 157 0.000000 0.000000 0.000000 0.000000 -8.844074 0.000000 252.000000 -0.477639 0.866720 0.143727
11.86999989 -0.75000000 -0.13000000 166 31 157 0.000000 0.000000 0.000000 0.000000 -8.844074 0.000000 252.000000 -0.538861 0.559132 0.630079
11.88000011 -0.70999998 -0.20000000 166 31 157 0.000000 0.000000 0.000000 0.000000 -8.844074 0.000000 252.000000 -0.477412 0.770703 0.422013
11.89000034 -0.69999999 -0.17000000 166 31 157 0.000000 0.000000 0.000000 0.000000 -8.844074 0.000000 252.000000 -0.136029 0.990424 0.023608
11.86999989 -0.69999999 -0.20000000 166 31 157 0.000000 0.000000 0.000000 0.000000 -8.844074 0.000000 252.000000 -0.454499 0.852377 0.258621
11.89000034 -0.69999999 -0.19000000 166 31 157 0.000000 0.000000 0.000000 0.000000 -8.844074 0.000000 252.000000 -0.329506 0.923464 0.196572
11.89000034 -0.69999999 -0.19000000 166 31 157 0.000000 0.000000 0.000000 0.000000 -8.844074 0.000000 252.000000 -0.329506 0.923464 0.196572
11.89000034 -0.69999999 -0.19000000 166 31 157 0.000000 0.000000 0.000000 0.000000 -8.844074 0.000000 252.000000 -0.329506 0.923464 0.196572
11.89000034 -0.69999999 -0.20999999 166 31 157 0.000000 0.000000 0.000000 0.000000 -8.844074 0.000000 252.000000 -0.300017 0.953933 0.001225
11.89000034 -0.69999999 -0.20999999 166 31 157 0.000000 0.000000 0.000000 0.000000 -8.844074 0.000000 252.000000 -0.300017 0.953933 0.001225
11.85000038 -0.75999999 -0.20000000 166 31 157 0.000000 0.000000 0.000000 0.000000 -8.844074 0.000000 252.000000 -0.489185 0.827733 0.274876
11.86999989 -0.74000001 -0.20000000 166 31 157 0.000000 0.000000 0.000000 0.000000 -8.844074 0.000000 252.000000 -0.573826 0.690254 0.440765
11.85000038 -0.75999999 -0.20000000 166 31 157 0.000000 0.000000 0.000000 0.000000 -8.844074 0.000000 252.000000 -0.489185 0.827733 0.274876
11.85999966 -0.72000003 -0.22000000 166 31 157 0.000000 0.000000 0.000000 0.000000 -8.844074 0.000000 252.000000 -0.505506 0.811014 0.294485
11.82999992 -0.75999999 -0.20000000 166 31 157 0.000000 0.000000 0.000000 0.000000 -8.844074 0.000000 252.000000 -0.427607 0.761829 0.486588
11.80000019 -0.75999999 -0.10000000 166 31 157 0.000000 0.000000 0.000000 0.000000 -8.844074 0.000000 252.000000 -0.543036 0.832656 0.108607
12.19999981 -1.24000001 0.34999999 166 31 157 0.000000 0.000000 0.000000 0.000000 -8.844074 0.000000 252.000000 0.009570 0.827143 -0.561910
12.19999981 -1.23000002 0.34999999 166 31 157 0.000000 0.000000 0.000000 0.000000 -8.844074 0.000000 252.000000 0.209787 0.920494 -0.329665
12.18999958 -1.24000001 0.38000000 166 31 157 0.000000 0.000000 0.000000 0.000000 -8.844074 0.000000 252.000000 0.249582 0.968185 -0.018086
12.21000004 -1.25000000 0.33000001 166 31 157 0.000000 0.000000 0.000000 0.000000 -8.844074 0.000000 252.000000 0.109412 0.993549 -0.029840
12.21000004 -1.25000000 0.34000000 166 31 157 0.000000 0.000000 0.000000 0.000000 -8.844074 0.000000 252.000000 0.189163 0.929002 -0.318075
12.22000027 -1.23000002 0.33000001 166 31 157 0.000000 0.000000 0.000000 0.000000 -8.844074 0.000000 252.000000 0.310827 0.950099 0.026427
12.19999981 -1.25000000 0.28000000 166 31 157 0.000000 0.000000 0.000000 0.000000 -8.844074 0.000000 252.000000 0.192618 0.946697 -0.258190
12.19999981 -1.25000000 0.28000000 166 31 157 0.000000 0.000000 0.000000 0.000000 -8.844074 0.000000 252.000000 0.192618 0.946697 -0.258190
12.22000027 -1.23000002 0.27000001 166 31 157 0.000000 0.000000 0.000000 0.000000 -8.844074 0.000000 252.000000 0.067236 0.791096 -0.607985
12.14999962 -1.25999999 0.28999999 166 31 157 0.000000 0.000000 0.000000 0.000000 -8.844074 0.000000 252.000000 0.077422 0.914123 -0.397976
12.14999962 -1.25999999 0.28999999 166 31 157 0.000000 0.000000 0.000000 0.000000 -8.844074 0.000000 252.000000 0.077422 0.914123 -0.397976
12.18000031 -1.25000000 0.27000001 166 31 157 0.000000 0.000000 0.000000 0.000000 -8.844074 0.000000 252.000000 0.161779 0.961467 -0.222282
12.09000015 -1.25999999 0.34000000 166 31 157 0.000000 0.000000 0.000000 0.000000 -8.844074 0.000000 252.000000 0.451341 0.852193 -0.264685
12.10000038 -1.25999999 0.31000000 166 31 157 0.000000 0.000000 0.000000 0.000000 -8.844074 0.000000 252.000000 0.216087 0.871800 -0.439626
12.09000015 -1.25999999 0.30000001 166 31 157 0.000000 0.000000 0.000000 0.000000 -8.844074 0.000000 252.000000 0.501868 0.813373 -0.294199
12.06999969 -1.25999999 0.28000000 166 31 157 0.000000 0.000000 0.000000 0.000000 -8.844074 0.000000 252.000000 0.485976 0.830662 -0.271712
12.09000015 -1.25999999 0.30000001 166 31 157 0.000000 0.000000 0.000000 0.000000 -8.844074 0.000000 252.000000 0.501868 0.813373 -0.294199
12.21000004 -1.24000001 0.25000000 166 31 157 0.000000 0.000000 0.000000 0.000000 -8.844074 0.000000 252.000000 0.200810 0.931030 -0.304726
12.21000004 -1.24000001 0.25000000 166 31 157 0.000000 0.000000 0.000000 0.000000 -8.844074 0.000000 252.000000 0.200810 0.931030 -0.304726
12.22000027 -1.25000000 0.22000000 166 31 157 0.000000 0.000000 0.000000 0.000000 -8.844074 0.000000 252.000000 -0.032416 0.929678 -0.366944
12.22999954 -1.24000001 0.22000000 166 31 157 0.000000 0.000000 0.000000 0.000000 -8.844074 0.000000 252.000000 -0.084829 0.925037 -0.370284
12.22000027 -1.25000000 0.22000000 166 31 157 0.000000 0.000000 0.000000 0.000000 -8.844074 0.000000 252.000000 -0.032416 0.929678 -0.366944
12.22999954 -1.25000000 0.20999999 166 31 157 0.000000 0.000000 0.000000 0.000000 -8.844074 0.000000 252.000000 0.335943 0.940380 0.053180
12.17000008 -1.25000000 0.25999999 166 31 157 0.000000 0.000000 0.000000 0.000000 -8.844074 0.000000 252.000000 0.230461 0.928913 -0.289843
12.19999981 -1.25000000 0.15000001 166 31 157 0.000000 0.000000 0.000000 0.000000 -8.844074 0.000000 252.000000 0.027758 0.971517 0.235337
12.21000004 -1.24000001 0.16000000 166 31 157 0.000000 0.000000 0.000000 0.000000 -8.844074 0.000000 252.000000 0.265320 0.929330 -0.256807
12.18000031 -1.25000000 0.10000000 166 31 157 0.000000 0.000000 0.000000 0.000000 -8.844074 0.000000 252.000000 0.044961 0.881498 -0.470042
12.14000034 -1.25999999 0.18000001 166 31 157 0.000000 0.000000 0.000000 0.000000 -8.844074 0.000000 252.000000 0.407673 0.877023 -0.254231
12.11999989 -1.25999999 0.20999999 166 31 157 0.000000 0.000000 0.000000 0.000000 -8.844074 0.000000 252.000000 0.364952 0.901388 -0.233042
12.11999989 -1.25999999 0.20999999 166 31 157 0.000000 0.000000 0.000000 0.000000 -8.844074 0.000000 252.000000 0.364952 0.901388 -0.233042
12.09000015 -1.24000001 0.23000000 166 31 157 0.000000 0.000000 0.000000 0.000000 -8.844074 0.000000 252.000000 0.459594 0.666830 -0.586610
12.10000038 -1.23000002 0.23999999 166 31 157 0.000000 0.000000 0.000000 0.000000 -8.844074 0.000000 252.000000 0.441021 0.826718 -0.349340
12.06999969 -1.25000000 0.20999999 166 31 157 0.000000 0.000000 0.000000 0.000000 -8.844074 0.000000 252.000000 0.195702 0.738120 -0.645662
12.09000015 -1.25999999 0.18000001 166 31 157 0.000000 0.000000 0.000000 0.000000 -8.844074 0.000000 252.000000 -0.023227 0.848460 -0.528750
12.06999969 -1.25000000 0.20999999 166 31 157 0.000000 0.000000 0.000000 0.000000 -8.844074 0.000000 252.000000 0.195702 0.738120 -0.645662
12.10000038 -1.25999999 0.22000000 166 31 157 0.000000 0.000000 0.000000 0.000000 -8.844074 0.000000 252.000000 0.312032 0.826337 -0.468832
12.07999992 -1.25999999 0.20999999 166 31 157 0.000000 0.000000 0.000000 0.000000 -8.844074 0.000000 252.000000 0.333751 0.835162 -0.437167
12.10999966 -1.24000001 0.14000000 166 31 157 0.000000 0.000000 0.000000 0.000000 -8.844074 0.000000 252.000000 0.183437 0.801969 -0.568504
12.13000011 -1.23000002 0.10000000 166 31 157 0.000000 0.000000 0.000000 0.000000 -8.844074 0.000000 252.000000 0.494952 0.867880 -0.042503
12.07999992 -1.25999999 0.17000000 166 31 157 0.000000 0.000000 0.000000 0.000000 -8.844074 0.000000 252.000000 0.280096 0.773824 -0.568104
12.09000015 -1.25999999 0.12000000 166 31 157 0.000000 0.000000 0.000000 0.000000 -8.844074 0.000000 252.000000 0.167879 0.790999 -0.588334
12.09000015 -1.25000000 0.12000000 166 31 157 0.000000 0.000000 0.000000 0.000000 -8.844074 0.000000 252.000000 0.372707 0.804600 -0.462285
12.18000031 -1.26999998 0.37000000 166 31 157 0.000000 0.000000 0.000000 0.000000 -8.844074 0.000000 252.000000 0.483054 0.873372 -0.062285
12.13000011 -1.26999998 0.34999999 166 31 157 0.000000 0.000000 0.000000 0.000000 -8.844074 0.000000 252.000000 0.424984 0.749875 -0.507027
12.13000011 -1.26999998 0.34999999 166 31 157 0.000000 0.000000 0.000000 0.000000 -8.844074 0.000000 252.000000 0.424984 0.749875 -0.507027
12.09000015 -1.26999998 0.33000001 166 31 157 0.000000 0.000000 0.000000 0.000000 -8.844074 0.000000 252.000000 0.583667 0.637492 -0.502929
12.13000011 -1.27999997 0.34000000 166 31 157 0.000000 0.000000 0.000000 0.000000 -8.844074 0.000000 252.000000 0.670806 0.664309 -0.329718
12.09000015 -1.26999998 0.33000001 166 31 157 0.000000 0.000000 0.000000 0.000000 -8.844074 0.000000 252.000000 0.583667 0.637492 -0.502929
12.07999992 -1.26999998 0.17000000 166 31 157 0.000000 0.000000 0.000000 0.000000 -8.844074 0.000000 252.000000 0.386369 0.854977 -0.346025
12.10999966 -1.26999998 0.17000000 166 31 157 0.000000 0.000000 0.000000 0.000000 -8.844074 0.000000 252.000000 0.118325 0.876746 -0.466172
12.07999992 -1.27999997 0.15000001 166 31 157 0.000000 0.000000 0.000000 0.000000 -8.844074 0.000000 252.000000 0.319185 0.845451 -0.428175
12.02000046 -1.24000001 0.31999999 166 31 157 0.000000 0.000000 0.000000 0.000000 -8.844074 0.000000 252.000000 -0.371414 -0.567756 0.734646
12.02999973 -1.24000001 0.31999999 166 31 157 0.000000 0.000000 0.000000 0.000000 -8.844074 0.000000 252.000000 -0.353902 -0.601796 0.715958
12.02000046 -1.25000000 0.31000000 166 31 157 0.000000 0.000000 0.000000 0.000000 -8.844074 0.000000 252.000000 0.194459 0.779368 -0.595627
12.03999996 -1.25000000 0.28000000 166 31 157 0.000000 0.000000 0.000000 0.000000 -8.844074 0.000000 252.000000 0.430258 0.840176 -0.330125
12.06000042 -1.25000000 0.30000001 166 31 157 0.000000 0.000000 0.000000 0.000000 -8.844074 0.000000 252.000000 0.365353 0.908327 -0.203615
12.06000042 -1.25999999 0.30000001 166 31 157 0.000000 0.000000 0.000000 0.000000 -8.844074 0.000000 252.000000 0.210839 0.795649 -0.567881
12.02999973 -1.23000002 0.28999999 166 31 157 0.000000 0.000000 0.000000 0.000000 -8.844074 0.000000 252.000000 0.435219 0.859748 -0.267240
12.01000023 -1.25000000 0.31000000 166 31 157 0.000000 0.000000 0.000000 0.000000 -8.844074 0.000000 252.000000 0.333536 0.799529 -0.499506
12.00000000 -1.25000000 0.31000000 166 31 157 0.000000 0.000000 0.000000 0.000000 -8.844074 0.000000 252.000000 0.303355 0.786183 -0.538416
11.98999977 -1.24000001 0.31000000 166 31 157 0.000000 0.000000 0.000000 0.000000 -8.844074 0.000000 252.000000 0.296437 0.729074 -0.616909
11.92000008 -1.15999997 0.38999999 166 31 157 0.000000 0.000000 0.000000 0.000000 -8.844074 0.000000 252.000000 0.673248 0.626931 -0.392039
11.90999985 -1.16999996 0.37000000 166 31 157 0.000000 0.000000 0.000000 0.000000 -8.844074 0.000000 252.000000 0.639275 0.406811 -0.652558
11.90999985 -1.16999996 0.37000000 166 31 157 0.000000 0.000000 0.000000 0.000000 -8.844074 0.000000 252.000000 0.639275 0.406811 -0.652558
11.90999985 -1.16999996 0.37000000 166 31 157 0.000000 0.000000 0.000000 0.000000 -8.844074 0.000000 252.000000 0.639275 0.406811 -0.652558
11.93000031 -1.17999995 0.38000000 166 31 157 0.000000 0.000000 0.000000 0.000000 -8.844074 0.000000 252.000000 0.555242 0.665955 -0.498208
11.92000008 -1.16999996 0.38000000 166 31 157 0.000000 0.000000 0.000000 0.000000 -8.844074 0.000000 252.000000 0.788027 0.428803 -0.441748
11.93999958 -1.17999995 0.28999999 166 31 157 0.000000 0.000000 0.000000 0.000000 -8.844074 0.000000 252.000000 0.638359 0.435018 -0.635026
11.93999958 -1.17999995 0.28999999 166 31 157 0.000000 0.000000 0.000000 0.000000 -8.844074 0.000000 252.000000 0.638359 0.435018 -0.635026
11.89999962 -1.13999999 0.34000000 166 31 157 0.000000 0.000000 0.000000 0.000000 -8.844074 0.000000 252.000000 0.444692 0.773732 -0.451208
11.90999985 -1.13999999 0.31000000 166 31 157 0.000000 0.000000 0.000000 0.000000 -8.844074 0.000000 252.000000 0.773177 0.225575 -0.592717
11.89999962 -1.13999999 0.34000000 166 31 157 0.000000 0.000000 0.000000 0.000000 -8.844074 0.000000 252.000000 0.444692 0.773732 -0.451208
11.90999985 -1.16999996 0.31000000 166 31 157 0.000000 0.000000 0.000000 0.000000 -8.844074 0.000000 252.000000 0.710047 0.581547 -0.397034
11.93000031 -1.16999996 0.28999999 166 31 157 0.000000 0.000000 0.000000 0.000000 -8.844074 0.000000 252.000000 0.355744 0.787144 -0.503836
11.89999962 -1.14999998 0.28000000 166 31 157 0.000000 0.000000 0.000000 0.000000 -8.844074 0.000000 252.000000 0.748302 0.580939 -0.320241
11.94999981 -1.19000006 0.34999999 166 31 157 0.000000 0.000000 0.000000 0.000000 -8.844074 0.000000 252.000000 0.762776 0.507973 -0.400171
11.94999981 -1.22000003 0.33000001 166 31 157 0.000000 0.000000 0.000000 0.000000 -8.844074 0.000000 252.000000 0.586840 0.778840 -0.221420
11.94999981 -1.22000003 0.31000000 166 31 157 0.000000 0.000000 0.000000 0.000000 -8.844074 0.000000 252.000000 0.589471 0.589471 -0.552312
11.97000027 -1.21000004 0.28000000 166 31 157 0.000000 0.000000 0.000000 0.000000 -8.844074 0.000000 252.000000 0.618267 0.721581 -0.311555
11.94999981 -1.22000003 0.30000001 166 31 157 0.000000 0.000000 0.000000 0.000000 -8.844074 0.000000 252.000000 0.605955 0.704485 -0.369485
11.94999981 -1.22000003 0.30000001 166 31 157 0.000000 0.000000 0.000000 0.000000 -8.844074 0.000000 252.000000 0.605955 0.704485 -0.369485
11.93000031 -1.19000006 0.28999999 166 31 157 0.000000 0.000000 0.000000 0.000000 -8.844074 0.000000 252.000000 0.658797 0.706421 -0.258757
12.05000019 -1.24000001 0.20999999 166 31 157 0.000000 0.000000 0.000000 0.000000 -8.844074 0.000000 252.000000 0.407689 0.781269 -0.472660
12.03999996 -1.24000001 0.20000000 166 31 157 0.000000 0.000000 0.000000 0.000000 -8.844074 0.000000 252.000000 0.692377 0.643732 -0.325920
11.98999977 -1.21000004 0.19000000 166 31 157 0.000000 0.000000 0.000000 0.000000 -8.844074 0.000000 252.000000 0.455235 0.840554 -0.293650
12.01000023 -1.22000003 0.19000000 166 31 157 0.000000 0.000000 0.000000 0.000000 -8.844074 0.000000 252.000000 0.474011 0.784626 -0.399593
11.97999954 -1.21000004 0.22000000 166 31 157 0.000000 0.000000 0.000000 0.000000 -8.844074 0.000000 252.000000 0.407166 0.812735 -0.416746
11.97999954 -1.21000004 0.18000001 166 31 157 0.000000 0.000000 0.000000 0.000000 -8.844074 0.000000 252.000000 0.542532 0.822064 -0.172829
11.98999977 -1.23000002 0.23000000 166 31 157 0.000000 0.000000 0.000000 0.000000 -8.844074 0.000000 252.000000 0.613520 0.475688 -0.630329
12.01000023 -1.23000002 0.18000001 166 31 157 0.000000 0.000000 0.000000 0.000000 -8.844074 0.000000 252.000000 0.750561 0.597580 -0.282058
11.97999954 -1.25000000 0.19000000 166 31 157 0.000000 0.000000 0.000000 0.000000 -8.844074 0.000000 252.000000 0.753709 0.569720 -0.327630
11.98999977 -1.24000001 0.20000000 166 31 157 0.000000 0.000000 0.000000 0.000000 -8.844074 0.000000 252.000000 0.299022 0.749953 -0.590048
12.03999996 -1.24000001 0.15000001 166 31 157 0.000000 0.000000 0.000000 0.000000 -8.844074 0.000000 252.000000 0.345285 0.782111 -0.518730
11.98999977 -1.22000003 0.14000000 166 31 157 0.000000 0.000000 0.000000 0.000000 -8.844074 0.000000 252.000000 0.514840 0.825280 -0.232062
11.89999962 -1.15999997 0.25000000 166 31 157 0.000000 0.000000 0.000000 0.000000 -8.844074 0.000000 252.000000 0.798844 0.535178 -0.274651
11.94999981 -1.17999995 0.16000000 166 31 157 0.000000 0.000000 0.000000 0.000000 -8.844074 0.000000 252.000000 0.677509 0.648123 -0.347733
11.89999962 -1.13999999 0.16000000 166 31 157 0.000000 0.000000 0.000000 0.000000 -8.844074 0.000000 252.000000 0.745885 0.577616 -0.331684
11.89999962 -1.10000002 0.13000000 166 31 157 0.000000 0.000000 0.000000 0.000000 -8.844074 0.000000 252.000000 -0.640296 -0.243847 0.728395
11.90999985 -1.11000001 0.13000000 166 31 157 0.000000 0.000000 0.000000 0.000000 -8.844074 0.000000 252.000000 0.762419 0.447614 -0.467289
11.92000008 -1.14999998 0.15000001 166 31 157 0.000000 0.000000 0.000000 0.000000 -8.844074 0.000000 252.000000 0.653389 0.569405 -0.498860
11.92000008 -1.14999998 0.15000001 166 31 157 0.000000 0.000000 0.000000 0.000000 -8.844074 0.000000 252.000000 0.653389 0.569405 -0.498860
11.93999958 -1.19000006 0.25999999 166 31 157 0.000000 0.000000 0.000000 0.000000 -8.844074 0.000000 252.000000 0.624724 0.763887 -0.161853
11.93999958 -1.19000006 0.25999999 166 31 157 0.000000 0.000000 0.000000 0.000000 -8.844074 0.000000 252.000000 0.624724 0.763887 -0.161853
11.93000031 -1.19000006 0.23000000 166 31 157 0.000000 0.000000 0.000000 0.000000 -8.844074 0.000000 252.000000 0.829798 0.473500 -0.295352
11.96000004 -1.20000005 0.15000001 166 31 157 0.000000 0.000000 0.000000 0.000000 -8.844074 0.000000 252.000000 0.596442 0.775221 -0.208061
11.93999958 -1.21000004 0.17000000 166 31 157 0.000000 0.000000 0.000000 0.000000 -8.844074 0.000000 252.000000 0.452520 0.686295 -0.569408
11.96000004 -1.21000004 0.12000000 166 31 157 0.000000 0.000000 0.000000 0.000000 -8.844074 0.000000 252.000000 0.583775 0.597312 -0.549933
11.97000027 -1.19000006 0.10000000 166 31 157 0.000000 0.000000 0.000000 0.000000 -8.844074 0.000000 252.000000 0.748302 0.580939 -0.320241
11.94999981 -1.20000005 0.11000000 166 31 157 0.000000 0.000000 0.000000 0.000000 -8.844074 0.000000 252.000000 0.748547 0.468870 -0.468870
11.92000008 -1.22000003 0.14000000 166 31 157 0.000000 0.000000 0.000000 0.000000 -8.844074 0.000000 252.000000 0.371804 0.728867 -0.574904
11.93000031 -1.19000006 0.14000000 166 31 157 0.000000 0.000000 0.000000 0.000000 -8.844074 0.000000 252.000000 0.226630 0.745535 -0.626750
12.05000019 -1.26999998 0.27000001 166 31 157 0.000000 0.000000 0.000000 0.000000 -8.844074 0.000000 252.000000 0.605772 0.659173 -0.445568
12.05000019 -1.26999998 0.27000001 166 31 157 0.000000 0.000000 0.000000 0.000000 -8.844074 0.000000 252.000000 0.605772 0.659173 -0.445568
12.21000004 -1.24000001 0.00000000 166 31 157 0.000000 0.000000 0.000000 0.000000 -8.844074 0.000000 252.000000 0.177296 0.979406 -0.096596
12.13000011 -1.24000001 0.08000000 166 31 157 0.000000 0.000000 0.000000 0.000000 -8.844074 0.000000 252.000000 0.202119 0.913118 -0.354066
12.07999992 -1.25000000 0.07000000 166 31 157 0.000000 0.000000 0.000000 0.000000 -8.844074 0.000000 252.000000 0.465991 0.791702 -0.395045
12.10000038 -1.25000000 0.09000000 166 31 157 0.000000 0.000000 0.000000 0.000000 -8.844074 0.000000 252.000000 -0.076918 0.874063 -0.479686
12.07999992 -1.24000001 0.02000000 166 31 157 0.000000 0.000000 0.000000 0.000000 -8.844074 0.000000 252.000000 0.295618 0.904503 -0.307384
12.14000034 -1.27999997 0.09000000 166 31 157 0.000000 0.000000 0.000000 0.000000 -8.844074 0.000000 252.000000 -0.053067 0.893982 -0.444950
12.02999973 -1.22000003 0.03000000 166 31 157 0.000000 0.000000 0.000000 0.000000 -8.844074 0.000000 252.000000 0.584795 0.772933 -0.246147
12.02000046 -1.22000003 0.02000000 166 31 157 0.000000 0.000000 0.000000 0.000000 -8.844074 0.000000 252.000000 0.433625 0.830983 -0.348477
12.02000046 -1.23000002 0.06000000 166 31 157 0.000000 0.000000 0.000000 0.000000 -8.844074 0.000000 252.000000 0.450815 0.790138 -0.415267
12.05000019 -1.25000000 0.09000000 166 31 157 0.000000 0.000000 0.000000 0.000000 -8.844074 0.000000 252.000000 0.540184 0.749078 -0.383515
12.02000046 -1.24000001 0.06000000 166 31 157 0.000000 0.000000 0.000000 0.000000 -8.844074 0.000000 252.000000 0.179739 0.857104 -0.482771
12.05000019 -1.24000001 0.01000000 166 31 157 0.000000 0.000000 0.000000 0.000000 -8.844074 0.000000 252.000000 0.390043 0.800953 -0.454248
12.05000019 -1.24000001 0.01000000 166 31 157 0.000000 0.000000 0.000000 0.000000 -8.844074 0.000000 252.000000 0.390043 0.800953 -0.454248
11.98999977 -1.21000004 0.08000000 166 31 157 0.000000 0.000000 0.000000 0.000000 -8.844074 0.000000 252.000000 0.595381 0.668762 -0.445285
12.00000000 -1.22000003 0.07000000 166 31 157 0.000000 0.000000 0.000000 0.000000 -8.844074 0.000000 252.000000 0.274998 0.831207 -0.483188
11.98999977 -1.21000004 0.08000000 166 31 157 0.000000 0.000000 0.000000 0.000000 -8.844074 0.000000 252.000000 0.595381 0.668762 -0.445285
11.97999954 -1.20000005 0.03000000 166 31 157 0.000000 0.000000 0.000000 0.000000 -8.844074 0.000000 252.000000 0.480859 0.735334 -0.477554
11.98999977 -1.19000006 0.04000000 166 31 157 0.000000 0.000000 0.000000 0.000000 -8.844074 0.000000 252.000000 0.600583 0.758216 -0.253790
12.06000042 -1.24000001 -0.03000000 166 31 157 0.000000 0.000000 0.000000 0.000000 -8.844074 0.000000 252.000000 0.330145 0.891841 -0.309231
12.03999996 -1.25000000 0.00000000 166 31 157 0.000000 0.000000 0.000000 0.000000 -8.844074 0.000000 252.000000 -0.048905 0.839763 -0.540746
11.90999985 -1.12000000 0.05000000 166 31 157 0.000000 0.000000 0.000000 0.000000 -8.844074 0.000000 252.000000 -0.514256 -0.451421 0.729219
11.90999985 -1.13999999 0.04000000 166 31 157 0.000000 0.000000 0.000000 0.000000 -8.844074 0.000000 252.000000 0.705475 0.627629 -0.329222
11.90999985 -1.12000000 0.05000000 166 31 157 0.000000 0.000000 0.000000 0.000000 -8.844074 0.000000 252.000000 -0.514256 -0.451421 0.729219
11.93000031 -1.16999996 0.08000000 166 31 157 0.000000 0.000000 0.000000 0.000000 -8.844074 0.000000 252.000000 0.566650 0.469701 -0.676971
11.93000031 -1.15999997 0.03000000 166 31 157 0.000000 0.000000 0.000000 0.000000 -8.844074 0.000000 252.000000 0.785083 0.547179 -0.290243
11.93000031 -1.15999997 0.03000000 166 31 157 0.000000 0.000000 0.000000 0.000000 -8.844074 0.000000 252.000000 0.785083 0.547179 -0.290243
11.93000031 -1.16999996 0.02000000 166 31 157 0.000000 0.000000 0.000000 0.000000 -8.844074 0.000000 252.000000 0.706035 0.668296 -0.234297
11.89999962 -1.13999999 0.00000000 166 31 157 0.000000 0.000000 0.000000 0.000000 -8.844074 0.000000 252.000000 0.756671 0.594867 -0.271259
12.02999973 -1.24000001 -0.20999999 166 31 157 0.000000 0.000000 0.000000 0.000000 -8.844074 0.000000 252.000000 -0.459377 0.887950 0.022768
12.02000046 -1.24000001 -0.22000000 166 31 157 0.000000 0.000000 0.000000 0.000000 -8.844074 0.000000 252.000000 -0.334969 0.912101 0.236363
12.06000042 -1.26999998 0.00000000 166 31 157 0.000000 0.000000 0.000000 0.000000 -8.844074 0.000000 252.000000 0.378356 0.868534 -0.320148
11.81000042 -0.91000003 0.28999999 166 31 157 0.000000 0.000000 0.000000 0.000000 -8.844074 0.000000 252.000000 0.850119 0.057233 -0.523472
11.84000015 -0.91000003 0.30000001 166 31 157 0.000000 0.000000 0.000000 0.000000 -8.844074 0.000000 252.000000 0.747860 0.373115 -0.549082
11.81000042 -0.91000003 0.28999999 166 31 157 0.000000 0.000000 0.000000 0.000000 -8.844074 0.000000 252.000000 0.850119 0.057233 -0.523472
11.81000042 -0.91000003 0.28999999 166 31 157 0.000000 0.000000 0.000000 0.000000 -8.844074 0.000000 252.000000 0.850119 0.057233 -0.523472
11.80000019 -0.93000001 0.28999999 166 31 157 0.000000 0.000000 0.000000 0.000000 -8.844074 0.000000 252.000000 0.750995 -0.136408 -0.646065
11.81000042 -0.93000001 0.25999999 166 31 157 0.000000 0.000000 0.000000 0.000000 -8.844074 0.000000 252.000000 0.769771 0.332657 -0.544786
11.81000042 -0.93000001 0.25999999 166 31 157 0.000000 0.000000 0.000000 0.000000 -8.844074 0.000000 252.000000 0.769771 0.332657 -0.544786
11.81000042 -0.93000001 0.25999999 166 31 157 0.000000 0.000000 0.000000 0.000000 -8.844074 0.000000 252.000000 0.769771 0.332657 -0.544786
11.81999969 -0.93000001 0.20999999 166 31 157 0.000000 0.000000 0.000000 0.000000 -8.844074 0.000000 252.000000 0.849538 0.353844 -0.391255
11.81000042 -0.91000003 0.15000001 166 31 157 0.000000 0.000000 0.000000 0.000000 -8.844074 0.000000 252.000000 0.665343 -0.344932 -0.662073
