//X Y Z R G B PointSourceId ScanDirectionFlag NumberOfReturns ReturnNumber GpsTime Intensity Classification Nx Ny Nz
7.28000021 10.06000042 -1.48000002 36 63 206 0.000000 0.000000 0.000000 0.000000 -8.844074 0.000000 253.000000 -0.573998 0.709640 -0.408580
7.28000021 10.06000042 -1.48000002 36 63 206 0.000000 0.000000 0.000000 0.000000 -8.844074 0.000000 253.000000 -0.573998 0.709640 -0.408580
7.32000017 10.03999996 -1.44000006 36 63 206 0.000000 0.000000 0.000000 0.000000 -8.844074 0.000000 253.000000 -0.635815 0.760893 -0.129545
7.26000023 9.77999973 -1.50999999 36 63 206 0.000000 0.000000 0.000000 0.000000 -8.844074 0.000000 89.000000 0.949933 0.295622 0.101169
7.26999998 9.77000046 -1.50999999 36 63 206 0.000000 0.000000 0.000000 0.000000 -8.844074 0.000000 89.000000 0.798118 0.407927 0.443399
7.28000021 9.75000000 -1.52999997 36 63 206 0.000000 0.000000 0.000000 0.000000 -8.844074 0.000000 89.000000 0.825825 0.477944 0.299303
7.28000021 9.75000000 -1.53999996 36 63 206 0.000000 0.000000 0.000000 0.000000 -8.844074 0.000000 89.000000 0.943705 0.176176 0.279970
7.23000002 9.77999973 -1.53999996 36 63 206 0.000000 0.000000 0.000000 0.000000 -8.844074 0.000000 89.000000 0.967611 -0.187321 0.169235
7.21999979 9.73999977 -1.57000005 36 63 206 0.000000 0.000000 0.000000 0.000000 -8.844074 0.000000 89.000000 0.998097 0.047629 0.039162
7.30999994 9.71000004 -1.57000005 36 63 206 0.000000 0.000000 0.000000 0.000000 -8.844074 0.000000 89.000000 0.806710 0.586047 0.075943
7.25000000 9.71000004 -1.58000004 36 63 206 0.000000 0.000000 0.000000 0.000000 -8.844074 0.000000 89.000000 0.900315 0.385434 0.202171
7.44000006 10.06999969 -1.75000000 36 63 206 0.000000 0.000000 0.000000 0.000000 -8.844074 0.000000 253.000000 -0.203786 0.938524 -0.278646
7.36999989 10.10000038 -1.63999999 36 63 206 0.000000 0.000000 0.000000 0.000000 -8.844074 0.000000 253.000000 -0.214634 0.883698 -0.415945
7.38999987 10.07999992 -1.67999995 36 63 206 0.000000 0.000000 0.000000 0.000000 -8.844074 0.000000 253.000000 -0.189843 0.938128 -0.289614
7.34000015 10.06999969 -1.62000000 36 63 206 0.000000 0.000000 0.000000 0.000000 -8.844074 0.000000 253.000000 0.576090 -0.562575 0.592984
7.36000013 10.06999969 -1.63999999 36 63 206 0.000000 0.000000 0.000000 0.000000 -8.844074 0.000000 253.000000 -0.567041 0.765106 -0.305084
7.42000008 10.06000042 -1.74000001 36 63 206 0.000000 0.000000 0.000000 0.000000 -8.844074 0.000000 253.000000 -0.197863 0.867326 -0.456722
7.44000006 9.98999977 -1.70000005 36 63 206 0.000000 0.000000 0.000000 0.000000 -8.844074 0.000000 253.000000 -0.493075 0.806995 -0.325017
7.44000006 9.96000004 -1.64999998 36 63 206 0.000000 0.000000 0.000000 0.000000 -8.844074 0.000000 253.000000 -0.245715 0.939826 -0.237386
7.46000004 9.96000004 -1.64999998 36 63 206 0.000000 0.000000 0.000000 0.000000 -8.844074 0.000000 253.000000 0.658459 -0.527104 0.537208
7.40000010 10.02000046 -1.67999995 36 63 206 0.000000 0.000000 0.000000 0.000000 -8.844074 0.000000 253.000000 -0.220712 0.924142 -0.311845
7.40999985 9.98999977 -1.61000001 36 63 206 0.000000 0.000000 0.000000 0.000000 -8.844074 0.000000 253.000000 -0.421396 0.831745 -0.361422
7.38000011 10.00000000 -1.65999997 36 63 206 0.000000 0.000000 0.000000 0.000000 -8.844074 0.000000 253.000000 -0.482193 0.752089 -0.449279
7.40000010 10.06000042 -1.72000003 36 63 206 0.000000 0.000000 0.000000 0.000000 -8.844074 0.000000 253.000000 -0.579243 0.804421 -0.131848
7.38999987 10.05000019 -1.73000002 36 63 206 0.000000 0.000000 0.000000 0.000000 -8.844074 0.000000 253.000000 -0.658032 0.736693 -0.155810
7.36000013 10.05000019 -1.71000004 36 63 206 0.000000 0.000000 0.000000 0.000000 -8.844074 0.000000 253.000000 -0.663369 0.603214 -0.442803
7.34999990 10.02999973 -1.71000004 36 63 206 0.000000 0.000000 0.000000 0.000000 -8.844074 0.000000 253.000000 0.806243 -0.338718 0.485018
7.34999990 9.97999954 -1.70000005 36 63 206 0.000000 0.000000 0.000000 0.000000 -8.844074 0.000000 253.000000 0.836210 -0.370074 0.404719
7.36999989 9.97000027 -1.63000000 36 63 206 0.000000 0.000000 0.000000 0.000000 -8.844074 0.000000 253.000000 0.897798 -0.440405 0.001307
7.34000015 9.94999981 -1.69000006 36 63 206 0.000000 0.000000 0.000000 0.000000 -8.844074 0.000000 253.000000 0.806590 -0.581970 0.103559
7.25000000 9.73999977 -1.63999999 36 63 206 0.000000 0.000000 0.000000 0.000000 -8.844074 0.000000 89.000000 0.987525 -0.143746 -0.064277
7.26000023 9.75000000 -1.60000002 36 63 206 0.000000 0.000000 0.000000 0.000000 -8.844074 0.000000 89.000000 0.993903 0.027517 -0.106765
7.23999977 9.76000023 -1.65999997 36 63 206 0.000000 0.000000 0.000000 0.000000 -8.844074 0.000000 89.000000 0.933773 0.034968 0.356155
7.23000002 9.76000023 -1.63000000 36 63 206 0.000000 0.000000 0.000000 0.000000 -8.844074 0.000000 89.000000 0.969601 0.233353 0.073625
7.23999977 9.76000023 -1.64999998 36 63 206 0.000000 0.000000 0.000000 0.000000 -8.844074 0.000000 89.000000 0.954671 0.142072 0.261572
7.19000006 10.39000034 0.15000001 36 63 206 0.000000 0.000000 0.000000 0.000000 -8.844074 0.000000 253.000000 0.345029 0.756473 -0.555611
7.19000006 10.38000011 0.13000000 36 63 206 0.000000 0.000000 0.000000 0.000000 -8.844074 0.000000 253.000000 0.390373 0.889101 -0.238974
7.19999981 10.34000015 0.03000000 36 63 206 0.000000 0.000000 0.000000 0.000000 -8.844074 0.000000 253.000000 0.183520 0.914753 -0.359926
7.21999979 10.32999992 0.01000000 36 63 206 0.000000 0.000000 0.000000 0.000000 -8.844074 0.000000 253.000000 0.363390 0.918999 -0.152933
7.17999983 10.31999969 0.02000000 36 63 206 0.000000 0.000000 0.000000 0.000000 -8.844074 0.000000 253.000000 0.879856 -0.364966 0.304391
7.19999981 10.30000019 0.03000000 36 63 206 0.000000 0.000000 0.000000 0.000000 -8.844074 0.000000 253.000000 0.168226 0.917470 -0.360485
7.19999981 10.31000042 -0.01000000 36 63 206 0.000000 0.000000 0.000000 0.000000 -8.844074 0.000000 253.000000 0.988890 -0.124925 0.080559
7.19999981 10.31000042 -0.01000000 36 63 206 0.000000 0.000000 0.000000 0.000000 -8.844074 0.000000 253.000000 0.988890 -0.124925 0.080559
7.19999981 10.30000019 -0.05000000 36 63 206 0.000000 0.000000 0.000000 0.000000 -8.844074 0.000000 253.000000 0.782126 -0.596123 0.181429
7.19999981 10.31000042 -0.04000000 36 63 206 0.000000 0.000000 0.000000 0.000000 -8.844074 0.000000 253.000000 0.892859 -0.428629 0.138130
7.19999981 10.31000042 -0.05000000 36 63 206 0.000000 0.000000 0.000000 0.000000 -8.844074 0.000000 253.000000 0.842860 -0.325615 0.428441
7.19000006 10.31000042 0.00000000 36 63 206 0.000000 0.000000 0.000000 0.000000 -8.844074 0.000000 253.000000 0.796953 -0.094357 0.596626
7.25000000 10.26000023 -0.08000000 36 63 206 0.000000 0.000000 0.000000 0.000000 -8.844074 0.000000 253.000000 0.855212 -0.449710 0.257631
7.19999981 10.23999977 -0.14000000 36 63 206 0.000000 0.000000 0.000000 0.000000 -8.844074 0.000000 253.000000 0.845931 0.454553 0.278895
7.19000006 10.25000000 -0.13000000 36 63 206 0.000000 0.000000 0.000000 0.000000 -8.844074 0.000000 253.000000 0.927129 0.374688 0.006394
7.23000002 10.23999977 -0.23999999 36 63 206 0.000000 0.000000 0.000000 0.000000 -8.844074 0.000000 253.000000 0.784107 -0.138899 0.604883
7.21999979 10.30000019 -0.22000000 36 63 206 0.000000 0.000000 0.000000 0.000000 -8.844074 0.000000 253.000000 -0.538288 0.841510 0.045901
7.17999983 10.23999977 -0.17000000 36 63 206 0.000000 0.000000 0.000000 0.000000 -8.844074 0.000000 253.000000 0.799672 0.544026 0.254087
7.25000000 10.21000004 -0.02000000 36 63 206 0.000000 0.000000 0.000000 0.000000 -8.844074 0.000000 253.000000 -0.153581 0.987309 0.040416
7.23000002 10.18999958 0.02000000 36 63 206 0.000000 0.000000 0.000000 0.000000 -8.844074 0.000000 253.000000 0.054085 0.997923 -0.034996
7.19999981 10.17000008 -0.03000000 36 63 206 0.000000 0.000000 0.000000 0.000000 -8.844074 0.000000 253.000000 0.493559 0.869476 0.020283
7.23999977 10.18999958 -0.20999999 36 63 206 0.000000 0.000000 0.000000 0.000000 -8.844074 0.000000 253.000000 0.524002 0.842198 -0.126986
7.23999977 10.18000031 -0.19000000 36 63 206 0.000000 0.000000 0.000000 0.000000 -8.844074 0.000000 253.000000 0.304169 0.906629 -0.292414
7.19000006 10.22999954 -0.18000001 36 63 206 0.000000 0.000000 0.000000 0.000000 -8.844074 0.000000 253.000000 0.861339 0.392919 0.322039
7.17999983 10.22000027 -0.20000000 36 63 206 0.000000 0.000000 0.000000 0.000000 -8.844074 0.000000 253.000000 0.964730 0.117210 -0.235708
7.19000006 10.21000004 -0.23000000 36 63 206 0.000000 0.000000 0.000000 0.000000 -8.844074 0.000000 253.000000 0.917537 0.177268 0.355953
7.19000006 10.21000004 -0.22000000 36 63 206 0.000000 0.000000 0.000000 0.000000 -8.844074 0.000000 253.000000 0.991388 0.129891 0.016653
7.09000015 10.40999985 0.20000000 36 63 206 0.000000 0.000000 0.000000 0.000000 -8.844074 0.000000 253.000000 0.973269 -0.150610 0.173391
7.09000015 10.35000038 0.16000000 36 63 206 0.000000 0.000000 0.000000 0.000000 -8.844074 0.000000 253.000000 0.945500 0.325212 0.016323
7.11000013 10.34000015 0.12000000 36 63 206 0.000000 0.000000 0.000000 0.000000 -8.844074 0.000000 253.000000 0.915337 0.402332 -0.016927
7.15000010 10.32999992 0.06000000 36 63 206 0.000000 0.000000 0.000000 0.000000 -8.844074 0.000000 253.000000 0.982908 0.053226 0.176237
7.51999998 10.26000023 -0.79000002 36 63 206 0.000000 0.000000 0.000000 0.000000 -8.844074 0.000000 253.000000 0.552846 0.657030 -0.512517
7.59999990 10.11999989 -0.61000001 36 63 206 0.000000 0.000000 0.000000 0.000000 -8.844074 0.000000 253.000000 0.996507 -0.044555 0.070636
7.53999996 10.13000011 -0.63000000 36 63 206 0.000000 0.000000 0.000000 0.000000 -8.844074 0.000000 253.000000 0.991547 0.051111 0.119258
7.53000021 9.97000027 -0.49000001 36 63 206 0.000000 0.000000 0.000000 0.000000 -8.844074 0.000000 253.000000 -0.413089 0.691799 -0.592260
7.55000019 9.97999954 -0.50000000 36 63 206 0.000000 0.000000 0.000000 0.000000 -8.844074 0.000000 253.000000 0.885078 -0.345286 0.312114
7.44999981 10.11999989 -0.54000002 36 63 206 0.000000 0.000000 0.000000 0.000000 -8.844074 0.000000 253.000000 0.911293 -0.199480 0.360212
7.34000015 10.15999985 -0.46000001 36 63 206 0.000000 0.000000 0.000000 0.000000 -8.844074 0.000000 253.000000 0.965588 -0.198836 0.167646
7.38999987 10.17000008 -0.49000001 36 63 206 0.000000 0.000000 0.000000 0.000000 -8.844074 0.000000 253.000000 0.823106 0.473719 0.313189
7.34000015 10.22999954 -0.57999998 36 63 206 0.000000 0.000000 0.000000 0.000000 -8.844074 0.000000 253.000000 0.377469 0.922851 0.076568
7.38000011 10.15999985 -0.56999999 36 63 206 0.000000 0.000000 0.000000 0.000000 -8.844074 0.000000 253.000000 0.781840 0.553473 -0.287045
7.34000015 10.22999954 -0.51999998 36 63 206 0.000000 0.000000 0.000000 0.000000 -8.844074 0.000000 253.000000 0.483582 0.868736 -0.106987
7.32999992 10.14000034 -0.44999999 36 63 206 0.000000 0.000000 0.000000 0.000000 -8.844074 0.000000 253.000000 0.870311 -0.385619 0.306361
7.34000015 10.09000015 -0.44999999 36 63 206 0.000000 0.000000 0.000000 0.000000 -8.844074 0.000000 253.000000 0.495982 -0.633848 0.593497
7.40000010 10.11999989 -0.56000000 36 63 206 0.000000 0.000000 0.000000 0.000000 -8.844074 0.000000 253.000000 0.907377 0.170044 0.384385
7.38999987 10.10999966 -0.50999999 36 63 206 0.000000 0.000000 0.000000 0.000000 -8.844074 0.000000 253.000000 0.911948 -0.329113 0.245023
7.26000023 10.27999973 -0.31999999 36 63 206 0.000000 0.000000 0.000000 0.000000 -8.844074 0.000000 253.000000 -0.062217 0.875189 -0.479764
7.23999977 10.23999977 -0.31999999 36 63 206 0.000000 0.000000 0.000000 0.000000 -8.844074 0.000000 253.000000 0.932422 -0.333695 0.138696
7.25000000 10.25000000 -0.25999999 36 63 206 0.000000 0.000000 0.000000 0.000000 -8.844074 0.000000 253.000000 0.763032 -0.582188 0.280783
7.17999983 10.27000046 -0.28000000 36 63 206 0.000000 0.000000 0.000000 0.000000 -8.844074 0.000000 253.000000 0.691581 -0.514081 0.507383
7.23999977 10.23999977 -0.33000001 36 63 206 0.000000 0.000000 0.000000 0.000000 -8.844074 0.000000 253.000000 0.684468 -0.523811 0.507076
7.32000017 10.23999977 -0.55000001 36 63 206 0.000000 0.000000 0.000000 0.000000 -8.844074 0.000000 253.000000 -0.155584 0.945677 -0.285462
7.30999994 10.23999977 -0.54000002 36 63 206 0.000000 0.000000 0.000000 0.000000 -8.844074 0.000000 253.000000 0.129768 0.967477 -0.217136
7.17000008 10.27999973 -0.56999999 36 63 206 0.000000 0.000000 0.000000 0.000000 -8.844074 0.000000 253.000000 0.717632 -0.364537 0.593395
7.19999981 10.27999973 -0.52999997 36 63 206 0.000000 0.000000 0.000000 0.000000 -8.844074 0.000000 253.000000 -0.534856 0.738924 -0.409782
7.26999998 10.21000004 -0.25000000 36 63 206 0.000000 0.000000 0.000000 0.000000 -8.844074 0.000000 253.000000 -0.395143 0.918546 0.011660
7.28999996 10.13000011 -0.34999999 36 63 206 0.000000 0.000000 0.000000 0.000000 -8.844074 0.000000 253.000000 -0.029491 -0.770986 0.636169
7.25000000 10.11999989 -0.41000000 36 63 206 0.000000 0.000000 0.000000 0.000000 -8.844074 0.000000 253.000000 0.627839 0.763344 -0.152067
7.28000021 10.06999969 -0.36000001 36 63 206 0.000000 0.000000 0.000000 0.000000 -8.844074 0.000000 253.000000 0.045888 0.929564 -0.365794
7.28000021 10.09000015 -0.41000000 36 63 206 0.000000 0.000000 0.000000 0.000000 -8.844074 0.000000 253.000000 0.533569 0.845162 -0.031711
7.21000004 10.19999981 -0.25000000 36 63 206 0.000000 0.000000 0.000000 0.000000 -8.844074 0.000000 253.000000 0.979631 0.168393 0.109394
7.23000002 10.19999981 -0.31000000 36 63 206 0.000000 0.000000 0.000000 0.000000 -8.844074 0.000000 253.000000 0.985484 -0.019503 0.168645
7.23999977 10.19999981 -0.28999999 36 63 206 0.000000 0.000000 0.000000 0.000000 -8.844074 0.000000 253.000000 0.848095 0.529549 0.017697
7.23999977 10.09000015 -0.38999999 36 63 206 0.000000 0.000000 0.000000 0.000000 -8.844074 0.000000 253.000000 0.282534 0.952732 -0.111700
7.30999994 10.15999985 -0.50999999 36 63 206 0.000000 0.000000 0.000000 0.000000 -8.844074 0.000000 253.000000 -0.387713 0.697884 -0.602193
7.26999998 10.18999958 -0.57999998 36 63 206 0.000000 0.000000 0.000000 0.000000 -8.844074 0.000000 253.000000 0.721339 -0.350085 0.597588
7.26000023 10.07999992 -0.44999999 36 63 206 0.000000 0.000000 0.000000 0.000000 -8.844074 0.000000 253.000000 0.221781 0.974636 -0.029970
7.26000023 10.10999966 -0.44000000 36 63 206 0.000000 0.000000 0.000000 0.000000 -8.844074 0.000000 253.000000 0.833376 0.487038 -0.261300
7.30000019 10.13000011 -0.49000001 36 63 206 0.000000 0.000000 0.000000 0.000000 -8.844074 0.000000 253.000000 0.429359 0.886371 0.173199
7.23999977 10.21000004 -0.52999997 36 63 206 0.000000 0.000000 0.000000 0.000000 -8.844074 0.000000 253.000000 0.722509 -0.368627 0.584888
7.21000004 10.17000008 -0.50999999 36 63 206 0.000000 0.000000 0.000000 0.000000 -8.844074 0.000000 253.000000 0.965705 -0.058565 0.252952
7.21999979 10.13000011 -0.41999999 36 63 206 0.000000 0.000000 0.000000 0.000000 -8.844074 0.000000 253.000000 0.784890 0.613694 0.085598
7.23999977 10.11999989 -0.49000001 36 63 206 0.000000 0.000000 0.000000 0.000000 -8.844074 0.000000 253.000000 0.966869 0.140706 0.212995
7.19999981 10.09000015 -0.43000001 36 63 206 0.000000 0.000000 0.000000 0.000000 -8.844074 0.000000 253.000000 0.507146 0.847215 0.158206
7.23999977 10.09000015 -0.44000000 36 63 206 0.000000 0.000000 0.000000 0.000000 -8.844074 0.000000 253.000000 0.799410 0.600593 0.015187
7.15999985 10.10999966 -0.44999999 36 63 206 0.000000 0.000000 0.000000 0.000000 -8.844074 0.000000 253.000000 0.989903 0.140452 0.019101
7.15999985 10.11999989 -0.46000001 36 63 206 0.000000 0.000000 0.000000 0.000000 -8.844074 0.000000 253.000000 0.911817 0.350034 -0.214630
7.15999985 10.11999989 -0.46000001 36 63 206 0.000000 0.000000 0.000000 0.000000 -8.844074 0.000000 253.000000 0.911817 0.350034 -0.214630
7.23999977 10.13000011 -0.50999999 36 63 206 0.000000 0.000000 0.000000 0.000000 -8.844074 0.000000 253.000000 0.822259 0.568832 0.017905
7.21000004 10.10999966 -0.51999998 36 63 206 0.000000 0.000000 0.000000 0.000000 -8.844074 0.000000 253.000000 0.866960 0.178709 0.465234
7.21000004 10.11999989 -0.55000001 36 63 206 0.000000 0.000000 0.000000 0.000000 -8.844074 0.000000 253.000000 0.977994 -0.099645 0.183297
7.19999981 10.09000015 -0.56000000 36 63 206 0.000000 0.000000 0.000000 0.000000 -8.844074 0.000000 253.000000 0.895562 0.376224 -0.237538
7.17000008 10.10000038 -0.54000002 36 63 206 0.000000 0.000000 0.000000 0.000000 -8.844074 0.000000 253.000000 0.809267 0.567828 -0.150527
7.19000006 10.10000038 -0.56000000 36 63 206 0.000000 0.000000 0.000000 0.000000 -8.844074 0.000000 253.000000 0.778154 0.627813 -0.018097
7.42999983 10.15999985 -0.63000000 36 63 206 0.000000 0.000000 0.000000 0.000000 -8.844074 0.000000 253.000000 0.751574 0.617197 -0.232816
7.46000004 10.22999954 -0.72000003 36 63 206 0.000000 0.000000 0.000000 0.000000 -8.844074 0.000000 253.000000 0.432537 0.875478 -0.215525
7.48999977 10.21000004 -0.75000000 36 63 206 0.000000 0.000000 0.000000 0.000000 -8.844074 0.000000 253.000000 0.350501 0.927798 -0.127830
7.25000000 10.27000046 -0.60000002 36 63 206 0.000000 0.000000 0.000000 0.000000 -8.844074 0.000000 253.000000 -0.419538 0.827993 -0.372043
7.25000000 10.27000046 -0.58999997 36 63 206 0.000000 0.000000 0.000000 0.000000 -8.844074 0.000000 253.000000 -0.365665 0.895658 -0.253153
7.25000000 10.14999962 -0.69999999 36 63 206 0.000000 0.000000 0.000000 0.000000 -8.844074 0.000000 253.000000 0.820208 -0.510111 0.258932
7.19000006 10.18000031 -0.60000002 36 63 206 0.000000 0.000000 0.000000 0.000000 -8.844074 0.000000 253.000000 0.777832 -0.526607 0.343019
7.17999983 10.15999985 -0.58999997 36 63 206 0.000000 0.000000 0.000000 0.000000 -8.844074 0.000000 253.000000 0.968295 -0.113243 0.222670
7.19000006 10.15999985 -0.64999998 36 63 206 0.000000 0.000000 0.000000 0.000000 -8.844074 0.000000 253.000000 0.970910 -0.120571 0.206874
7.21999979 10.14999962 -0.69999999 36 63 206 0.000000 0.000000 0.000000 0.000000 -8.844074 0.000000 253.000000 0.886973 -0.349686 0.301661
7.19999981 10.14000034 -0.62000000 36 63 206 0.000000 0.000000 0.000000 0.000000 -8.844074 0.000000 253.000000 0.788102 -0.307280 0.533362
7.23000002 10.13000011 -0.60000002 36 63 206 0.000000 0.000000 0.000000 0.000000 -8.844074 0.000000 253.000000 0.983798 -0.129161 -0.124333
7.19999981 10.07999992 -0.62000000 36 63 206 0.000000 0.000000 0.000000 0.000000 -8.844074 0.000000 253.000000 0.874965 0.408116 0.260532
7.21000004 10.13000011 -0.69000000 36 63 206 0.000000 0.000000 0.000000 0.000000 -8.844074 0.000000 253.000000 0.973914 -0.217381 0.065091
7.21000004 10.13000011 -0.69000000 36 63 206 0.000000 0.000000 0.000000 0.000000 -8.844074 0.000000 253.000000 0.973914 -0.217381 0.065091
7.19999981 10.07999992 -0.75000000 36 63 206 0.000000 0.000000 0.000000 0.000000 -8.844074 0.000000 253.000000 0.836312 0.349902 0.422079
7.19000006 10.11999989 -0.73000002 36 63 206 0.000000 0.000000 0.000000 0.000000 -8.844074 0.000000 253.000000 0.865428 0.068507 0.496328
7.26000023 10.15999985 -0.79000002 36 63 206 0.000000 0.000000 0.000000 0.000000 -8.844074 0.000000 253.000000 -0.452792 0.818204 -0.354290
7.25000000 10.17000008 -0.83999997 36 63 206 0.000000 0.000000 0.000000 0.000000 -8.844074 0.000000 253.000000 -0.562186 0.824065 -0.069740
7.25000000 10.21000004 -0.86000001 36 63 206 0.000000 0.000000 0.000000 0.000000 -8.844074 0.000000 253.000000 0.765835 -0.375601 0.521939
7.25000000 10.10999966 -0.87000000 36 63 206 0.000000 0.000000 0.000000 0.000000 -8.844074 0.000000 253.000000 0.849273 -0.020448 0.527558
7.23999977 10.15999985 -0.77999997 36 63 206 0.000000 0.000000 0.000000 0.000000 -8.844074 0.000000 253.000000 -0.705025 0.373055 -0.603133
7.19999981 10.17000008 -0.77999997 36 63 206 0.000000 0.000000 0.000000 0.000000 -8.844074 0.000000 253.000000 0.818447 -0.198918 0.539051
7.23999977 10.17000008 -0.76999998 36 63 206 0.000000 0.000000 0.000000 0.000000 -8.844074 0.000000 253.000000 0.850119 -0.523472 -0.057233
7.23000002 10.15999985 -0.76999998 36 63 206 0.000000 0.000000 0.000000 0.000000 -8.844074 0.000000 253.000000 0.842925 -0.537892 -0.012256
7.19999981 10.14999962 -0.81999999 36 63 206 0.000000 0.000000 0.000000 0.000000 -8.844074 0.000000 253.000000 0.851714 -0.123332 0.509287
7.17999983 10.22000027 -0.86000001 36 63 206 0.000000 0.000000 0.000000 0.000000 -8.844074 0.000000 253.000000 -0.535951 0.841401 -0.069292
7.21999979 10.14999962 -0.88000000 36 63 206 0.000000 0.000000 0.000000 0.000000 -8.844074 0.000000 253.000000 0.952164 -0.270335 0.142492
7.21999979 10.14999962 -0.87000000 36 63 206 0.000000 0.000000 0.000000 0.000000 -8.844074 0.000000 253.000000 -0.672924 0.713145 -0.196463
7.21999979 10.14999962 -0.88000000 36 63 206 0.000000 0.000000 0.000000 0.000000 -8.844074 0.000000 253.000000 0.952164 -0.270335 0.142492
7.21999979 10.15999985 -0.83999997 36 63 206 0.000000 0.000000 0.000000 0.000000 -8.844074 0.000000 253.000000 0.893109 -0.367051 0.260057
7.23000002 10.15999985 -0.88000000 36 63 206 0.000000 0.000000 0.000000 0.000000 -8.844074 0.000000 253.000000 0.785691 -0.570987 0.238041
7.23999977 10.13000011 -0.79000002 36 63 206 0.000000 0.000000 0.000000 0.000000 -8.844074 0.000000 253.000000 0.954019 -0.086965 0.286855
7.19999981 10.13000011 -0.81999999 36 63 206 0.000000 0.000000 0.000000 0.000000 -8.844074 0.000000 253.000000 0.992110 0.041666 0.118242
7.23999977 10.13000011 -0.85000002 36 63 206 0.000000 0.000000 0.000000 0.000000 -8.844074 0.000000 253.000000 0.921515 -0.277461 0.271710
7.21000004 10.10000038 -0.87000000 36 63 206 0.000000 0.000000 0.000000 0.000000 -8.844074 0.000000 253.000000 0.901412 -0.220605 0.372545
7.13000011 10.30000019 -0.56000000 36 63 206 0.000000 0.000000 0.000000 0.000000 -8.844074 0.000000 253.000000 0.729576 -0.321919 0.603396
7.15000010 10.17000008 -0.55000001 36 63 206 0.000000 0.000000 0.000000 0.000000 -8.844074 0.000000 253.000000 0.978930 -0.161715 0.124681
7.11999989 10.15999985 -0.50999999 36 63 206 0.000000 0.000000 0.000000 0.000000 -8.844074 0.000000 253.000000 0.864778 -0.214321 0.454121
7.05999994 10.14999962 -0.46000001 36 63 206 0.000000 0.000000 0.000000 0.000000 -8.844074 0.000000 253.000000 0.968295 0.113243 -0.222670
7.03000021 10.17000008 -0.49000001 36 63 206 0.000000 0.000000 0.000000 0.000000 -8.844074 0.000000 253.000000 0.936934 -0.337190 0.091961
7.11000013 10.32999992 -0.58999997 36 63 206 0.000000 0.000000 0.000000 0.000000 -8.844074 0.000000 253.000000 0.921526 -0.323318 0.215070
7.26999998 10.17000008 -1.04999995 36 63 206 0.000000 0.000000 0.000000 0.000000 -8.844074 0.000000 253.000000 0.817789 -0.425633 0.387374
7.28000021 10.07999992 -1.07000005 36 63 206 0.000000 0.000000 0.000000 0.000000 -8.844074 0.000000 253.000000 0.601035 -0.453706 0.657957
7.25000000 10.10999966 -1.00999999 36 63 206 0.000000 0.000000 0.000000 0.000000 -8.844074 0.000000 253.000000 0.657937 -0.560340 0.503128
7.23000002 10.14000034 -1.08000004 36 63 206 0.000000 0.000000 0.000000 0.000000 -8.844074 0.000000 253.000000 0.913260 -0.378531 0.150568
7.23999977 10.14000034 -1.04999995 36 63 206 0.000000 0.000000 0.000000 0.000000 -8.844074 0.000000 253.000000 0.841506 -0.534988 0.075210
7.23999977 10.14000034 -1.04999995 36 63 206 0.000000 0.000000 0.000000 0.000000 -8.844074 0.000000 253.000000 0.841506 -0.534988 0.075210
7.26000023 10.14000034 -1.21000004 36 63 206 0.000000 0.000000 0.000000 0.000000 -8.844074 0.000000 253.000000 -0.469482 0.838250 -0.277351
7.25000000 10.13000011 -1.25000000 36 63 206 0.000000 0.000000 0.000000 0.000000 -8.844074 0.000000 253.000000 -0.663917 0.740466 -0.104519
7.25000000 10.13000011 -1.23000002 36 63 206 0.000000 0.000000 0.000000 0.000000 -8.844074 0.000000 253.000000 0.800766 -0.596677 -0.052440
7.34000015 10.11999989 -1.32000005 36 63 206 0.000000 0.000000 0.000000 0.000000 -8.844074 0.000000 253.000000 -0.491338 0.776735 -0.394043
7.36000013 10.10000038 -1.55999994 36 63 206 0.000000 0.000000 0.000000 0.000000 -8.844074 0.000000 253.000000 -0.536523 0.802438 -0.261222
7.36000013 10.11999989 -1.52999997 36 63 206 0.000000 0.000000 0.000000 0.000000 -8.844074 0.000000 253.000000 -0.520076 0.746481 -0.415076
7.30999994 10.09000015 -1.34000003 36 63 206 0.000000 0.000000 0.000000 0.000000 -8.844074 0.000000 253.000000 -0.320720 0.863949 -0.388240
7.32000017 10.06999969 -1.34000003 36 63 206 0.000000 0.000000 0.000000 0.000000 -8.844074 0.000000 253.000000 -0.642194 0.748467 -0.165483
7.32000017 10.06999969 -1.30999994 36 63 206 0.000000 0.000000 0.000000 0.000000 -8.844074 0.000000 253.000000 0.691864 -0.568495 0.445127
7.26000023 10.13000011 -1.26999998 36 63 206 0.000000 0.000000 0.000000 0.000000 -8.844074 0.000000 253.000000 -0.701902 0.640587 -0.311419
7.26999998 10.10999966 -1.26999998 36 63 206 0.000000 0.000000 0.000000 0.000000 -8.844074 0.000000 253.000000 0.719684 -0.609214 0.333037
7.26000023 10.06999969 -1.29999995 36 63 206 0.000000 0.000000 0.000000 0.000000 -8.844074 0.000000 253.000000 0.811065 -0.439927 0.385536
7.26000023 10.06999969 -1.28999996 36 63 206 0.000000 0.000000 0.000000 0.000000 -8.844074 0.000000 253.000000 -0.539440 0.727502 -0.423964
7.26999998 10.06999969 -1.28999996 36 63 206 0.000000 0.000000 0.000000 0.000000 -8.844074 0.000000 253.000000 0.649729 -0.722095 0.237552
7.26000023 10.06999969 -1.28999996 36 63 206 0.000000 0.000000 0.000000 0.000000 -8.844074 0.000000 253.000000 -0.539440 0.727502 -0.423964
7.26999998 10.06999969 -1.38999999 36 63 206 0.000000 0.000000 0.000000 0.000000 -8.844074 0.000000 253.000000 0.729921 -0.478339 0.488269
7.32000017 10.09000015 -1.40999997 36 63 206 0.000000 0.000000 0.000000 0.000000 -8.844074 0.000000 253.000000 0.481596 -0.669536 0.565498
7.38000011 9.90999985 -0.41000000 36 63 206 0.000000 0.000000 0.000000 0.000000 -8.844074 0.000000 182.000000 -0.137366 0.987392 0.078663
7.38000011 9.85000038 -0.40000001 36 63 206 0.000000 0.000000 0.000000 0.000000 -8.844074 0.000000 182.000000 -0.267681 0.962406 -0.046066
7.38000011 9.85000038 -0.40000001 36 63 206 0.000000 0.000000 0.000000 0.000000 -8.844074 0.000000 182.000000 -0.267681 0.962406 -0.046066
7.32000017 10.03999996 -0.36000001 36 63 206 0.000000 0.000000 0.000000 0.000000 -8.844074 0.000000 253.000000 -0.085970 0.995726 -0.033735
7.23000002 10.02000046 -0.37000000 36 63 206 0.000000 0.000000 0.000000 0.000000 -8.844074 0.000000 253.000000 0.285973 0.936039 0.205064
7.23999977 10.03999996 -0.80000001 36 63 206 0.000000 0.000000 0.000000 0.000000 -8.844074 0.000000 253.000000 0.886318 0.457677 -0.070518
7.34000015 10.06000042 -1.44000006 36 63 206 0.000000 0.000000 0.000000 0.000000 -8.844074 0.000000 253.000000 0.875871 -0.458928 0.149115
7.36999989 10.03999996 -1.58000004 36 63 206 0.000000 0.000000 0.000000 0.000000 -8.844074 0.000000 253.000000 -0.248526 0.901460 -0.354408
7.34000015 10.02999973 -1.50000000 36 63 206 0.000000 0.000000 0.000000 0.000000 -8.844074 0.000000 253.000000 -0.497477 0.795003 -0.347114
7.34000015 10.06000042 -1.44000006 36 63 206 0.000000 0.000000 0.000000 0.000000 -8.844074 0.000000 253.000000 0.875871 -0.458928 0.149115
7.26000023 10.06000042 -1.29999995 36 63 206 0.000000 0.000000 0.000000 0.000000 -8.844074 0.000000 253.000000 -0.620454 0.559592 -0.549448
7.30999994 10.02000046 -1.48000002 36 63 206 0.000000 0.000000 0.000000 0.000000 -8.844074 0.000000 253.000000 0.640810 -0.637481 0.427762
7.28999996 9.72999954 -1.50999999 36 63 206 0.000000 0.000000 0.000000 0.000000 -8.844074 0.000000 89.000000 0.877383 0.380351 0.292461
7.30999994 9.77000046 -1.53999996 36 63 206 0.000000 0.000000 0.000000 0.000000 -8.844074 0.000000 89.000000 0.944307 0.153094 -0.291285
7.34999990 9.72000027 -1.52999997 36 63 206 0.000000 0.000000 0.000000 0.000000 -8.844074 0.000000 89.000000 0.885689 0.370161 0.280243
7.42999983 10.06999969 -1.73000002 36 63 206 0.000000 0.000000 0.000000 0.000000 -8.844074 0.000000 253.000000 -0.054499 0.848226 -0.526823
7.36999989 10.09000015 -1.64999998 36 63 206 0.000000 0.000000 0.000000 0.000000 -8.844074 0.000000 253.000000 -0.384955 0.655910 -0.649301
7.34999990 10.09000015 -1.60000002 36 63 206 0.000000 0.000000 0.000000 0.000000 -8.844074 0.000000 253.000000 -0.643203 0.733532 -0.219592
7.44000006 10.00000000 -1.65999997 36 63 206 0.000000 0.000000 0.000000 0.000000 -8.844074 0.000000 253.000000 -0.427707 0.893781 -0.134991
7.34000015 10.05000019 -1.60000002 36 63 206 0.000000 0.000000 0.000000 0.000000 -8.844074 0.000000 253.000000 0.631201 -0.421356 0.651187
7.30999994 10.05000019 -1.60000002 36 63 206 0.000000 0.000000 0.000000 0.000000 -8.844074 0.000000 253.000000 0.904464 -0.292664 0.310312
7.30999994 10.02000046 -1.67999995 36 63 206 0.000000 0.000000 0.000000 0.000000 -8.844074 0.000000 253.000000 0.893785 -0.420351 0.156376
7.23999977 9.73999977 -1.64999998 36 63 206 0.000000 0.000000 0.000000 0.000000 -8.844074 0.000000 89.000000 0.988987 0.082902 0.122602
7.19999981 10.34000015 0.04000000 36 63 206 0.000000 0.000000 0.000000 0.000000 -8.844074 0.000000 253.000000 0.139827 0.978790 -0.149726
7.17999983 10.32999992 0.03000000 36 63 206 0.000000 0.000000 0.000000 0.000000 -8.844074 0.000000 253.000000 0.883265 -0.167340 0.437995
7.21000004 10.31999969 -0.05000000 36 63 206 0.000000 0.000000 0.000000 0.000000 -8.844074 0.000000 253.000000 0.254921 -0.796041 0.548940
7.21999979 10.27000046 0.01000000 36 63 206 0.000000 0.000000 0.000000 0.000000 -8.844074 0.000000 253.000000 -0.019805 0.901778 -0.431745
7.19999981 10.31000042 0.00000000 36 63 206 0.000000 0.000000 0.000000 0.000000 -8.844074 0.000000 253.000000 0.994544 -0.022976 -0.101752
7.21000004 10.27999973 -0.05000000 36 63 206 0.000000 0.000000 0.000000 0.000000 -8.844074 0.000000 253.000000 0.315763 0.899850 -0.300938
7.23000002 10.25000000 -0.08000000 36 63 206 0.000000 0.000000 0.000000 0.000000 -8.844074 0.000000 253.000000 -0.067809 0.748785 -0.659335
7.23000002 10.25000000 -0.08000000 36 63 206 0.000000 0.000000 0.000000 0.000000 -8.844074 0.000000 253.000000 -0.067809 0.748785 -0.659335
7.21000004 10.25000000 -0.10000000 36 63 206 0.000000 0.000000 0.000000 0.000000 -8.844074 0.000000 253.000000 0.805577 0.589620 -0.058252
7.19999981 10.23999977 -0.16000000 36 63 206 0.000000 0.000000 0.000000 0.000000 -8.844074 0.000000 253.000000 0.995210 0.082842 0.051914
7.23000002 10.23999977 -0.20999999 36 63 206 0.000000 0.000000 0.000000 0.000000 -8.844074 0.000000 253.000000 0.925481 0.099207 0.365572
7.23000002 10.26000023 -0.23999999 36 63 206 0.000000 0.000000 0.000000 0.000000 -8.844074 0.000000 253.000000 -0.767374 0.326576 -0.551802
7.21999979 10.30000019 -0.23000000 36 63 206 0.000000 0.000000 0.000000 0.000000 -8.844074 0.000000 253.000000 -0.540389 0.840450 0.040286
7.19000006 10.23999977 -0.18000001 36 63 206 0.000000 0.000000 0.000000 0.000000 -8.844074 0.000000 253.000000 0.861101 0.137950 0.489361
7.19999981 10.17000008 0.03000000 36 63 206 0.000000 0.000000 0.000000 0.000000 -8.844074 0.000000 253.000000 0.214243 0.976521 -0.022490
7.17999983 10.22999954 -0.15000001 36 63 206 0.000000 0.000000 0.000000 0.000000 -8.844074 0.000000 253.000000 0.925245 0.370367 -0.082154
7.11000013 10.31999969 0.14000000 36 63 206 0.000000 0.000000 0.000000 0.000000 -8.844074 0.000000 253.000000 0.820487 0.433255 0.372949
7.11999989 10.34000015 0.13000000 36 63 206 0.000000 0.000000 0.000000 0.000000 -8.844074 0.000000 253.000000 0.983301 0.048282 -0.175463
7.11000013 10.39000034 0.23000000 36 63 206 0.000000 0.000000 0.000000 0.000000 -8.844074 0.000000 253.000000 0.839679 -0.287136 0.460970
7.57999992 10.22999954 -0.68000001 36 63 206 0.000000 0.000000 0.000000 0.000000 -8.844074 0.000000 253.000000 0.758264 0.520185 -0.392993
7.34000015 10.25000000 -0.56999999 36 63 206 0.000000 0.000000 0.000000 0.000000 -8.844074 0.000000 253.000000 0.246086 0.910082 -0.333454
7.42000008 10.21000004 -0.57999998 36 63 206 0.000000 0.000000 0.000000 0.000000 -8.844074 0.000000 253.000000 0.848925 0.528371 -0.012225
7.36000013 10.18999958 -0.51999998 36 63 206 0.000000 0.000000 0.000000 0.000000 -8.844074 0.000000 253.000000 0.685137 0.697566 0.209736
7.40000010 10.06999969 -0.52999997 36 63 206 0.000000 0.000000 0.000000 0.000000 -8.844074 0.000000 253.000000 -0.515087 0.856657 -0.028692
7.26999998 10.27999973 -0.28000000 36 63 206 0.000000 0.000000 0.000000 0.000000 -8.844074 0.000000 253.000000 0.356252 0.934369 0.006339
7.19000006 10.31999969 -0.56000000 36 63 206 0.000000 0.000000 0.000000 0.000000 -8.844074 0.000000 253.000000 0.615667 -0.531329 0.581932
7.25000000 10.14999962 -0.36000001 36 63 206 0.000000 0.000000 0.000000 0.000000 -8.844074 0.000000 253.000000 0.796124 0.601038 -0.070288
7.28000021 10.10999966 -0.28000000 36 63 206 0.000000 0.000000 0.000000 0.000000 -8.844074 0.000000 253.000000 -0.322761 0.929160 -0.180243
7.28000021 10.06999969 -0.36000001 36 63 206 0.000000 0.000000 0.000000 0.000000 -8.844074 0.000000 253.000000 0.045888 0.929564 -0.365794
7.19999981 10.15999985 -0.25999999 36 63 206 0.000000 0.000000 0.000000 0.000000 -8.844074 0.000000 253.000000 0.860343 0.483851 -0.160303
7.21000004 10.22000027 -0.25999999 36 63 206 0.000000 0.000000 0.000000 0.000000 -8.844074 0.000000 253.000000 0.968216 -0.048102 0.245446
7.23000002 10.22999954 -0.28999999 36 63 206 0.000000 0.000000 0.000000 0.000000 -8.844074 0.000000 253.000000 0.944944 -0.196120 0.261951
7.19000006 10.15999985 -0.37000000 36 63 206 0.000000 0.000000 0.000000 0.000000 -8.844074 0.000000 253.000000 0.973338 0.227393 0.030078
7.21000004 10.15999985 -0.34000000 36 63 206 0.000000 0.000000 0.000000 0.000000 -8.844074 0.000000 253.000000 0.747495 0.520782 0.412355
7.21000004 10.14000034 -0.31999999 36 63 206 0.000000 0.000000 0.000000 0.000000 -8.844074 0.000000 253.000000 0.832406 0.522323 0.185146
7.23000002 10.13000011 -0.31999999 36 63 206 0.000000 0.000000 0.000000 0.000000 -8.844074 0.000000 253.000000 0.825365 0.519107 -0.222037
7.23000002 10.10000038 -0.40000001 36 63 206 0.000000 0.000000 0.000000 0.000000 -8.844074 0.000000 253.000000 0.306169 0.949512 -0.068468
7.28999996 10.14000034 -0.49000001 36 63 206 0.000000 0.000000 0.000000 0.000000 -8.844074 0.000000 253.000000 0.636114 0.770919 -0.032297
7.23000002 10.14999962 -0.41999999 36 63 206 0.000000 0.000000 0.000000 0.000000 -8.844074 0.000000 253.000000 0.807824 0.493582 -0.322177
7.19000006 10.21000004 -0.50000000 36 63 206 0.000000 0.000000 0.000000 0.000000 -8.844074 0.000000 253.000000 0.994891 -0.097196 -0.027302
7.21999979 10.11999989 -0.49000001 36 63 206 0.000000 0.000000 0.000000 0.000000 -8.844074 0.000000 253.000000 0.692254 0.630066 0.351855
7.23999977 10.11999989 -0.47999999 36 63 206 0.000000 0.000000 0.000000 0.000000 -8.844074 0.000000 253.000000 0.933995 0.344386 0.095142
7.23999977 10.11999989 -0.47000000 36 63 206 0.000000 0.000000 0.000000 0.000000 -8.844074 0.000000 253.000000 0.891596 0.436614 -0.120104
7.19999981 10.09000015 -0.56000000 36 63 206 0.000000 0.000000 0.000000 0.000000 -8.844074 0.000000 253.000000 0.895562 0.376224 -0.237538
7.21000004 10.10999966 -0.55000001 36 63 206 0.000000 0.000000 0.000000 0.000000 -8.844074 0.000000 253.000000 0.971175 -0.088743 0.221233
7.42999983 10.10999966 -0.63999999 36 63 206 0.000000 0.000000 0.000000 0.000000 -8.844074 0.000000 253.000000 0.838940 -0.216941 0.499116
7.40999985 10.22000027 -0.60000002 36 63 206 0.000000 0.000000 0.000000 0.000000 -8.844074 0.000000 253.000000 0.700285 0.648770 -0.297822
7.19999981 10.31999969 -0.61000001 36 63 206 0.000000 0.000000 0.000000 0.000000 -8.844074 0.000000 253.000000 -0.589592 0.559183 -0.582834
7.28000021 10.18000031 -0.69000000 36 63 206 0.000000 0.000000 0.000000 0.000000 -8.844074 0.000000 253.000000 -0.782107 0.572921 -0.245091
7.19000006 10.17000008 -0.69999999 36 63 206 0.000000 0.000000 0.000000 0.000000 -8.844074 0.000000 253.000000 0.874641 0.006677 0.484725
7.15999985 10.14999962 -0.67000002 36 63 206 0.000000 0.000000 0.000000 0.000000 -8.844074 0.000000 253.000000 0.863494 0.169168 0.475142
7.17000008 10.18999958 -0.69999999 36 63 206 0.000000 0.000000 0.000000 0.000000 -8.844074 0.000000 253.000000 0.959679 -0.277241 0.046416
7.23000002 10.11999989 -0.60000002 36 63 206 0.000000 0.000000 0.000000 0.000000 -8.844074 0.000000 253.000000 0.926332 0.376443 0.014133
7.21999979 10.13000011 -0.61000001 36 63 206 0.000000 0.000000 0.000000 0.000000 -8.844074 0.000000 253.000000 0.925206 0.228814 0.302717
7.21999979 10.11999989 -0.60000002 36 63 206 0.000000 0.000000 0.000000 0.000000 -8.844074 0.000000 253.000000 0.853695 0.147896 0.499331
7.21999979 10.14000034 -0.69999999 36 63 206 0.000000 0.000000 0.000000 0.000000 -8.844074 0.000000 253.000000 -0.731255 0.612326 -0.300538
7.21000004 10.09000015 -0.67000002 36 63 206 0.000000 0.000000 0.000000 0.000000 -8.844074 0.000000 253.000000 0.949360 0.213844 0.230189
7.23999977 10.13000011 -0.69000000 36 63 206 0.000000 0.000000 0.000000 0.000000 -8.844074 0.000000 253.000000 0.869043 -0.131149 0.477037
7.21999979 10.14000034 -0.72000003 36 63 206 0.000000 0.000000 0.000000 0.000000 -8.844074 0.000000 253.000000 0.790967 -0.609851 0.049524
7.23999977 10.11999989 -0.69000000 36 63 206 0.000000 0.000000 0.000000 0.000000 -8.844074 0.000000 253.000000 0.966118 0.023148 0.257063
7.19999981 10.18999958 -0.76999998 36 63 206 0.000000 0.000000 0.000000 0.000000 -8.844074 0.000000 253.000000 0.952830 -0.297999 0.057553
7.13999987 10.27000046 -0.51999998 36 63 206 0.000000 0.000000 0.000000 0.000000 -8.844074 0.000000 253.000000 0.974956 -0.210236 0.072538
7.13000011 10.21000004 -0.51999998 36 63 206 0.000000 0.000000 0.000000 0.000000 -8.844074 0.000000 253.000000 0.934624 -0.103548 0.340230
7.13000011 10.18000031 -0.51999998 36 63 206 0.000000 0.000000 0.000000 0.000000 -8.844074 0.000000 253.000000 0.874124 0.025670 0.485024
7.07999992 10.14000034 -0.49000001 36 63 206 0.000000 0.000000 0.000000 0.000000 -8.844074 0.000000 253.000000 0.903072 -0.033348 0.428192
7.13000011 10.10999966 -0.46000001 36 63 206 0.000000 0.000000 0.000000 0.000000 -8.844074 0.000000 253.000000 0.741389 0.596649 0.307170
7.26000023 10.13000011 -1.07000005 36 63 206 0.000000 0.000000 0.000000 0.000000 -8.844074 0.000000 253.000000 0.759563 -0.613553 0.215909
7.26000023 10.15999985 -1.11000001 36 63 206 0.000000 0.000000 0.000000 0.000000 -8.844074 0.000000 253.000000 -0.406617 0.908342 -0.097864
7.28999996 10.11999989 -1.16999996 36 63 206 0.000000 0.000000 0.000000 0.000000 -8.844074 0.000000 253.000000 0.794197 -0.598207 0.106770
7.25000000 10.11999989 -1.17999995 36 63 206 0.000000 0.000000 0.000000 0.000000 -8.844074 0.000000 253.000000 -0.488385 0.813974 -0.314526
7.28000021 10.09000015 -1.21000004 36 63 206 0.000000 0.000000 0.000000 0.000000 -8.844074 0.000000 253.000000 -0.618193 0.454011 -0.641647
7.23999977 10.10999966 -1.15999997 36 63 206 0.000000 0.000000 0.000000 0.000000 -8.844074 0.000000 253.000000 0.718162 -0.590561 0.368078
7.36000013 10.14000034 -1.41999996 36 63 206 0.000000 0.000000 0.000000 0.000000 -8.844074 0.000000 253.000000 0.659615 -0.623062 0.420359
7.32999992 10.07999992 -1.55999994 36 63 206 0.000000 0.000000 0.000000 0.000000 -8.844074 0.000000 253.000000 0.682499 -0.498040 0.534932
7.38000011 10.11999989 -1.53999996 36 63 206 0.000000 0.000000 0.000000 0.000000 -8.844074 0.000000 253.000000 -0.531925 0.705342 -0.468561
7.36999989 10.10999966 -1.55999994 36 63 206 0.000000 0.000000 0.000000 0.000000 -8.844074 0.000000 253.000000 -0.472248 0.863073 -0.179128
7.32000017 10.09000015 -1.34000003 36 63 206 0.000000 0.000000 0.000000 0.000000 -8.844074 0.000000 253.000000 -0.483940 0.874867 -0.020220
7.26999998 10.06999969 -1.30999994 36 63 206 0.000000 0.000000 0.000000 0.000000 -8.844074 0.000000 253.000000 0.890436 -0.327740 0.315768
7.28999996 10.09000015 -1.38999999 36 63 206 0.000000 0.000000 0.000000 0.000000 -8.844074 0.000000 253.000000 0.815966 -0.456496 0.354699
7.32000017 10.09000015 -1.40999997 36 63 206 0.000000 0.000000 0.000000 0.000000 -8.844074 0.000000 253.000000 0.481596 -0.669536 0.565498
7.26999998 10.13000011 -1.38000000 36 63 206 0.000000 0.000000 0.000000 0.000000 -8.844074 0.000000 253.000000 -0.794871 0.521981 -0.309381
7.28000021 10.07999992 -1.40999997 36 63 206 0.000000 0.000000 0.000000 0.000000 -8.844074 0.000000 253.000000 0.860736 -0.496964 0.110277
7.23999977 10.07999992 -1.36000001 36 63 206 0.000000 0.000000 0.000000 0.000000 -8.844074 0.000000 253.000000 -0.538787 0.823939 -0.175594
7.30000019 10.07999992 -1.49000001 36 63 206 0.000000 0.000000 0.000000 0.000000 -8.844074 0.000000 253.000000 0.782973 -0.540586 0.307767
7.28999996 10.06999969 -1.45000005 36 63 206 0.000000 0.000000 0.000000 0.000000 -8.844074 0.000000 253.000000 0.931848 -0.347583 0.104140
7.38000011 9.85000038 -0.38999999 36 63 206 0.000000 0.000000 0.000000 0.000000 -8.844074 0.000000 182.000000 -0.283467 0.838009 -0.466249
7.30000019 10.05000019 -1.34000003 36 63 206 0.000000 0.000000 0.000000 0.000000 -8.844074 0.000000 253.000000 0.921400 -0.263052 0.286051
7.30999994 10.02000046 -1.49000001 36 63 206 0.000000 0.000000 0.000000 0.000000 -8.844074 0.000000 253.000000 0.825414 -0.362802 0.432511
7.26999998 10.02999973 -1.50000000 36 63 206 0.000000 0.000000 0.000000 0.000000 -8.844074 0.000000 253.000000 -0.575029 0.734669 -0.360004
7.28999996 9.73999977 -1.50999999 36 63 206 0.000000 0.000000 0.000000 0.000000 -8.844074 0.000000 89.000000 0.865287 0.379620 0.327364
7.42999983 10.06999969 -1.74000001 36 63 206 0.000000 0.000000 0.000000 0.000000 -8.844074 0.000000 253.000000 -0.119214 0.796233 -0.593128
7.34999990 10.09000015 -1.60000002 36 63 206 0.000000 0.000000 0.000000 0.000000 -8.844074 0.000000 253.000000 -0.643203 0.733532 -0.219592
7.46000004 10.00000000 -1.70000005 36 63 206 0.000000 0.000000 0.000000 0.000000 -8.844074 0.000000 253.000000 -0.240035 0.839356 -0.487713
7.40999985 10.00000000 -1.61000001 36 63 206 0.000000 0.000000 0.000000 0.000000 -8.844074 0.000000 253.000000 -0.341214 0.648144 -0.680796
7.34000015 10.06000042 -1.63000000 36 63 206 0.000000 0.000000 0.000000 0.000000 -8.844074 0.000000 253.000000 0.484075 -0.685075 0.544375
7.38000011 9.97999954 -1.62000000 36 63 206 0.000000 0.000000 0.000000 0.000000 -8.844074 0.000000 253.000000 -0.636108 0.685165 -0.354847
7.36000013 9.97000027 -1.60000002 36 63 206 0.000000 0.000000 0.000000 0.000000 -8.844074 0.000000 253.000000 0.862907 -0.276436 0.423054
7.17999983 10.39000034 0.12000000 36 63 206 0.000000 0.000000 0.000000 0.000000 -8.844074 0.000000 253.000000 0.053226 0.982908 -0.176237
7.17999983 10.34000015 0.05000000 36 63 206 0.000000 0.000000 0.000000 0.000000 -8.844074 0.000000 253.000000 -0.478310 0.779888 -0.403726
7.17000008 10.31999969 0.03000000 36 63 206 0.000000 0.000000 0.000000 0.000000 -8.844074 0.000000 253.000000 0.912122 -0.127110 0.389712
7.19000006 10.34000015 0.04000000 36 63 206 0.000000 0.000000 0.000000 0.000000 -8.844074 0.000000 253.000000 0.751947 -0.596153 0.281384
7.23000002 10.23999977 -0.20999999 36 63 206 0.000000 0.000000 0.000000 0.000000 -8.844074 0.000000 253.000000 0.925481 0.099207 0.365572
7.23000002 10.23999977 -0.22000000 36 63 206 0.000000 0.000000 0.000000 0.000000 -8.844074 0.000000 253.000000 0.989171 0.010059 0.146420
7.25000000 10.26000023 -0.08000000 36 63 206 0.000000 0.000000 0.000000 0.000000 -8.844074 0.000000 253.000000 0.855212 -0.449710 0.257631
7.23000002 10.27000046 -0.20000000 36 63 206 0.000000 0.000000 0.000000 0.000000 -8.844074 0.000000 253.000000 -0.667229 0.644164 -0.373977
7.23000002 10.23999977 -0.22000000 36 63 206 0.000000 0.000000 0.000000 0.000000 -8.844074 0.000000 253.000000 0.989171 0.010059 0.146420
7.26000023 10.19999981 -0.23000000 36 63 206 0.000000 0.000000 0.000000 0.000000 -8.844074 0.000000 253.000000 -0.359676 0.912803 -0.193451
7.21000004 10.22999954 -0.11000000 36 63 206 0.000000 0.000000 0.000000 0.000000 -8.844074 0.000000 253.000000 0.476455 0.859400 -0.185535
7.17999983 10.22000027 -0.16000000 36 63 206 0.000000 0.000000 0.000000 0.000000 -8.844074 0.000000 253.000000 0.920073 0.364399 -0.143805
7.53999996 10.30000019 -0.81999999 36 63 206 0.000000 0.000000 0.000000 0.000000 -8.844074 0.000000 253.000000 0.448079 0.848425 0.281782
7.51999998 10.22000027 -0.62000000 36 63 206 0.000000 0.000000 0.000000 0.000000 -8.844074 0.000000 253.000000 0.855597 0.428566 -0.290319
7.61000013 10.18999958 -0.67000002 36 63 206 0.000000 0.000000 0.000000 0.000000 -8.844074 0.000000 253.000000 0.964327 0.181874 -0.192342
7.25000000 10.27999973 -0.28999999 36 63 206 0.000000 0.000000 0.000000 0.000000 -8.844074 0.000000 253.000000 -0.096440 0.992769 -0.071479
7.17999983 10.27000046 -0.50000000 36 63 206 0.000000 0.000000 0.000000 0.000000 -8.844074 0.000000 253.000000 0.760313 -0.649520 0.006925
7.25000000 10.15999985 -0.28999999 36 63 206 0.000000 0.000000 0.000000 0.000000 -8.844074 0.000000 253.000000 0.103405 0.911341 -0.398453
7.26999998 10.18000031 -0.40000001 36 63 206 0.000000 0.000000 0.000000 0.000000 -8.844074 0.000000 253.000000 0.994811 -0.101730 -0.001071
7.28000021 10.09000015 -0.41000000 36 63 206 0.000000 0.000000 0.000000 0.000000 -8.844074 0.000000 253.000000 0.533569 0.845162 -0.031711
7.23999977 10.21000004 -0.34999999 36 63 206 0.000000 0.000000 0.000000 0.000000 -8.844074 0.000000 253.000000 0.929913 -0.297741 0.215898
7.23000002 10.10999966 -0.38999999 36 63 206 0.000000 0.000000 0.000000 0.000000 -8.844074 0.000000 253.000000 0.706140 0.590919 -0.390105
7.21999979 10.10000038 -0.40000001 36 63 206 0.000000 0.000000 0.000000 0.000000 -8.844074 0.000000 253.000000 0.587928 0.808912 0.001364
7.30999994 10.13000011 -0.47999999 36 63 206 0.000000 0.000000 0.000000 0.000000 -8.844074 0.000000 253.000000 0.210985 0.793120 -0.571354
7.26999998 10.09000015 -0.50999999 36 63 206 0.000000 0.000000 0.000000 0.000000 -8.844074 0.000000 253.000000 0.541826 0.801028 0.254518
7.23999977 10.11999989 -0.47999999 36 63 206 0.000000 0.000000 0.000000 0.000000 -8.844074 0.000000 253.000000 0.933995 0.344386 0.095142
7.23999977 10.07999992 -0.44000000 36 63 206 0.000000 0.000000 0.000000 0.000000 -8.844074 0.000000 253.000000 0.604908 0.771143 -0.198558
7.21999979 10.13000011 -0.52999997 36 63 206 0.000000 0.000000 0.000000 0.000000 -8.844074 0.000000 253.000000 0.972362 -0.106922 0.207555
7.44999981 10.22999954 -0.75000000 36 63 206 0.000000 0.000000 0.000000 0.000000 -8.844074 0.000000 253.000000 0.532629 0.813610 -0.233122
7.15999985 10.31999969 -0.63000000 36 63 206 0.000000 0.000000 0.000000 0.000000 -8.844074 0.000000 253.000000 -0.501150 0.828054 -0.251346
7.19000006 10.17000008 -0.60000002 36 63 206 0.000000 0.000000 0.000000 0.000000 -8.844074 0.000000 253.000000 0.719012 -0.386654 0.577513
7.21999979 10.17000008 -0.68000001 36 63 206 0.000000 0.000000 0.000000 0.000000 -8.844074 0.000000 253.000000 0.935626 -0.230760 0.267122
7.23999977 10.14999962 -0.79000002 36 63 206 0.000000 0.000000 0.000000 0.000000 -8.844074 0.000000 253.000000 0.736807 -0.237224 0.633120
7.19000006 10.22999954 -0.87000000 36 63 206 0.000000 0.000000 0.000000 0.000000 -8.844074 0.000000 253.000000 -0.473692 0.875270 -0.097566
7.23000002 10.18999958 -0.83999997 36 63 206 0.000000 0.000000 0.000000 0.000000 -8.844074 0.000000 253.000000 0.942167 -0.250414 0.222744
7.23999977 10.14000034 -0.81000000 36 63 206 0.000000 0.000000 0.000000 0.000000 -8.844074 0.000000 253.000000 0.864193 -0.499590 0.059839
7.23000002 10.13000011 -0.83999997 36 63 206 0.000000 0.000000 0.000000 0.000000 -8.844074 0.000000 253.000000 0.936328 -0.312109 0.160867
7.23999977 10.14000034 -1.00999999 36 63 206 0.000000 0.000000 0.000000 0.000000 -8.844074 0.000000 253.000000 0.840792 -0.474963 0.259769
7.23999977 10.15999985 -1.02999997 36 63 206 0.000000 0.000000 0.000000 0.000000 -8.844074 0.000000 253.000000 0.721439 -0.509153 0.469350
7.30999994 10.07999992 -1.35000002 36 63 206 0.000000 0.000000 0.000000 0.000000 -8.844074 0.000000 253.000000 0.756648 -0.649997 0.070621
