//X Y Z R G B PointSourceId ScanDirectionFlag NumberOfReturns ReturnNumber GpsTime Intensity Classification Nx Ny Nz
-13.44999981 -15.53999996 0.12000000 35 198 139 0.000000 0.000000 1.000000 1.000000 1686753828.667919 1028.000000 9.000000 -0.022215 -0.192919 0.980963
-13.47000027 -15.52000046 0.12000000 35 198 139 0.000000 0.000000 1.000000 1.000000 1686754308.963726 514.000000 9.000000 -0.066542 -0.556408 0.828241
-13.44999981 -15.53999996 0.13000000 35 198 139 0.000000 0.000000 1.000000 1.000000 1686753828.879223 1542.000000 9.000000 -0.100703 -0.483656 0.869446
-13.43999958 -15.63000011 0.10000000 35 198 139 0.000000 0.000000 1.000000 1.000000 1686754298.866558 10023.000000 9.000000 0.433112 0.049923 0.899956
-13.43999958 -15.64000034 0.13000000 35 198 139 0.000000 0.000000 1.000000 1.000000 1686754304.242962 3084.000000 9.000000 0.141784 -0.380431 0.913876
-13.47000027 -15.60999966 0.12000000 35 198 139 0.000000 0.000000 1.000000 1.000000 1686754297.793011 257.000000 9.000000 0.213025 -0.300492 0.929691
-13.47000027 -15.59000015 0.13000000 35 198 139 0.000000 0.000000 1.000000 1.000000 1686753836.902050 771.000000 9.000000 -0.086663 -0.280685 0.955880
-13.43000031 -15.60000038 0.12000000 35 198 139 0.000000 0.000000 1.000000 1.000000 1686753834.190746 1285.000000 9.000000 -0.194353 -0.114104 0.974273
-13.42000008 -15.60999966 0.12000000 35 198 139 0.000000 0.000000 1.000000 1.000000 1686754337.637920 3341.000000 9.000000 0.021742 -0.354262 0.934893
-13.47000027 -15.63000011 0.12000000 35 198 139 0.000000 0.000000 1.000000 1.000000 1686753552.725582 2827.000000 9.000000 -0.182912 -0.078737 0.979971
-13.21000004 -15.35000038 0.05000000 35 198 139 0.000000 0.000000 1.000000 1.000000 1686753830.045513 9509.000000 47.000000 0.476154 -0.312722 0.821877
-13.18999958 -15.31999969 -0.02000000 35 198 139 0.000000 0.000000 1.000000 1.000000 1686753831.677929 8995.000000 47.000000 0.789971 -0.055511 0.610626
-13.18999958 -15.34000015 -0.01000000 35 198 139 0.000000 0.000000 1.000000 1.000000 1686753831.677990 8481.000000 47.000000 0.774800 -0.543804 0.322432
-13.28999996 -15.36999989 -0.02000000 35 198 139 0.000000 0.000000 1.000000 1.000000 1686754296.262676 771.000000 47.000000 0.361402 -0.346023 0.865827
-13.30000019 -15.31000042 -0.01000000 35 198 139 0.000000 0.000000 1.000000 1.000000 1686754304.147991 3341.000000 47.000000 0.475484 -0.326994 0.816695
-13.23999977 -15.39000034 0.07000000 35 198 139 0.000000 0.000000 1.000000 1.000000 1686753830.242779 6939.000000 47.000000 0.625777 -0.061575 0.777568
-13.30000019 -15.39999962 0.08000000 35 198 139 0.000000 0.000000 1.000000 1.000000 1686753830.344555 5397.000000 47.000000 0.719355 -0.400007 0.567911
-13.18999958 -15.63000011 0.07000000 35 198 139 0.000000 0.000000 1.000000 1.000000 1686754302.806927 4626.000000 9.000000 -0.359458 0.664750 -0.654902
-13.22000027 -15.59000015 0.07000000 35 198 139 0.000000 0.000000 1.000000 1.000000 1686753830.240185 13878.000000 9.000000 0.750057 -0.243729 0.614826
-13.30000019 -15.56000042 0.09000000 35 198 139 0.000000 0.000000 1.000000 1.000000 1686754300.199139 5911.000000 9.000000 0.380177 -0.198039 0.903463
-13.31000042 -15.31000042 -0.01000000 35 198 139 0.000000 0.000000 1.000000 1.000000 1686754304.147930 3084.000000 47.000000 -0.355815 0.667358 -0.654240
-13.32999992 -15.40999985 0.06000000 35 198 139 0.000000 0.000000 1.000000 1.000000 1686753834.093517 1799.000000 47.000000 0.041039 -0.174709 0.983764
-13.31000042 -15.39000034 0.06000000 35 198 139 0.000000 0.000000 1.000000 1.000000 1686753828.878368 771.000000 47.000000 0.390864 -0.588770 0.707513
-13.32999992 -15.46000004 0.04000000 35 198 139 0.000000 0.000000 1.000000 1.000000 1686753834.093304 1028.000000 47.000000 0.531493 -0.066260 0.844467
-13.31999969 -15.53999996 0.07000000 35 198 139 0.000000 0.000000 1.000000 1.000000 1686753832.936535 6939.000000 9.000000 0.443121 -0.366885 0.817948
-13.38000011 -15.50000000 0.07000000 35 198 139 0.000000 0.000000 1.000000 1.000000 1686753978.746563 771.000000 9.000000 0.519655 -0.533109 0.667648
-13.35999966 -15.61999989 0.09000000 35 198 139 0.000000 0.000000 1.000000 1.000000 1686753861.632366 1799.000000 9.000000 0.227473 -0.456452 0.860179
-13.39000034 -15.50000000 0.02000000 35 198 139 0.000000 0.000000 1.000000 1.000000 1686753830.241863 7967.000000 9.000000 0.424057 -0.653547 0.626939
-13.42000008 -15.52999973 0.02000000 35 198 139 0.000000 0.000000 1.000000 1.000000 1686754300.199993 2313.000000 9.000000 0.432972 -0.141466 0.890237
-13.39999962 -15.53999996 0.05000000 35 198 139 0.000000 0.000000 1.000000 1.000000 1686753547.928246 1285.000000 9.000000 0.656294 -0.237651 0.716101
-13.39000034 -15.52000046 0.00000000 35 198 139 0.000000 0.000000 1.000000 1.000000 1686753828.976879 771.000000 9.000000 0.226641 -0.439774 0.869041
-13.42000008 -15.63000011 0.09000000 35 198 139 0.000000 0.000000 1.000000 1.000000 1686753830.042461 6168.000000 9.000000 0.041872 -0.308327 0.950358
-13.43000031 -15.57999992 0.09000000 35 198 139 0.000000 0.000000 1.000000 1.000000 1686753828.766399 4883.000000 9.000000 0.310238 -0.148969 0.938915
-13.40999985 -15.56000042 -0.05000000 35 198 139 0.000000 0.000000 1.000000 1.000000 1686753835.617504 5654.000000 9.000000 0.158824 -0.521002 0.838649
-13.27999973 -15.67000008 0.11000000 35 198 139 0.000000 0.000000 1.000000 1.000000 1686753830.340984 4112.000000 9.000000 0.343791 -0.201139 0.917252
-13.30000019 -15.71000004 0.10000000 35 198 139 0.000000 0.000000 1.000000 1.000000 1686753830.340801 4112.000000 9.000000 -0.449404 0.724684 -0.522369
-13.30000019 -15.65999985 0.10000000 35 198 139 0.000000 0.000000 1.000000 1.000000 1686754300.402142 9252.000000 9.000000 0.380519 -0.275237 0.882865
-13.34000015 -15.65999985 0.10000000 35 198 139 0.000000 0.000000 1.000000 1.000000 1686753835.418835 2827.000000 9.000000 0.266034 -0.075101 0.961034
-13.35000038 -15.68000031 0.10000000 35 198 139 0.000000 0.000000 1.000000 1.000000 1686754309.061016 2570.000000 9.000000 0.354468 -0.619093 0.700768
-13.36999989 -15.67000008 0.10000000 35 198 139 0.000000 0.000000 1.000000 1.000000 1686753832.936230 1285.000000 9.000000 0.364350 -0.286382 0.886135
-13.47000027 -15.64999962 0.11000000 35 198 139 0.000000 0.000000 1.000000 1.000000 1686754262.291241 1028.000000 9.000000 0.321118 -0.414195 0.851660
-13.46000004 -15.71000004 0.12000000 35 198 139 0.000000 0.000000 1.000000 1.000000 1686754300.200237 9252.000000 9.000000 0.156735 -0.261225 0.952468
-13.42000008 -15.72000027 0.14000000 35 198 139 0.000000 0.000000 1.000000 1.000000 1686753831.479076 1542.000000 9.000000 0.474596 -0.103419 0.874107
-13.47000027 -15.68999958 0.10000000 35 198 139 0.000000 0.000000 1.000000 1.000000 1686754310.304058 2056.000000 9.000000 0.146829 -0.417678 0.896653
-13.47000027 -15.73999977 0.11000000 35 198 139 0.000000 0.000000 1.000000 1.000000 1686753831.478527 7196.000000 9.000000 0.043430 -0.261819 0.964139
-13.43000031 -15.77000046 0.12000000 35 198 139 0.000000 0.000000 1.000000 1.000000 1686753831.479412 1542.000000 9.000000 0.042546 -0.498200 0.866018
-13.32999992 -15.64999962 0.09000000 35 198 139 0.000000 0.000000 1.000000 1.000000 1686754296.363445 2570.000000 9.000000 0.253293 -0.267444 0.929686
-13.35999966 -15.71000004 0.03000000 35 198 139 0.000000 0.000000 1.000000 1.000000 1686753567.785305 1542.000000 9.000000 0.753893 -0.132864 0.643422
-13.36999989 -15.72000027 0.04000000 35 198 139 0.000000 0.000000 1.000000 1.000000 1686754308.963665 5654.000000 9.000000 0.561875 -0.269133 0.782218
-13.32999992 -15.72999954 0.07000000 35 198 139 0.000000 0.000000 1.000000 1.000000 1686753830.139996 5654.000000 9.000000 -0.410417 0.633073 -0.656335
-13.36999989 -15.77000046 0.02000000 35 198 139 0.000000 0.000000 1.000000 1.000000 1686753830.340710 10280.000000 9.000000 0.556169 -0.495679 0.667067
-13.38000011 -15.78999996 0.02000000 35 198 139 0.000000 0.000000 1.000000 1.000000 1686753830.340588 6682.000000 9.000000 0.570552 -0.584096 0.577324
-13.36999989 -15.72999954 0.00000000 35 198 139 0.000000 0.000000 1.000000 1.000000 1686754300.401775 1028.000000 9.000000 0.549027 -0.283215 0.786358
-13.39999962 -15.65999985 0.09000000 35 198 139 0.000000 0.000000 1.000000 1.000000 1686754300.199627 9252.000000 9.000000 0.074506 -0.501859 0.861735
-13.39000034 -15.71000004 0.06000000 35 198 139 0.000000 0.000000 1.000000 1.000000 1686754300.199017 8481.000000 9.000000 0.093294 -0.306163 0.947397
-13.43000031 -15.69999981 0.04000000 35 198 139 0.000000 0.000000 1.000000 1.000000 1686754304.044231 1285.000000 9.000000 0.398221 -0.312119 0.862556
-13.39999962 -15.73999977 0.06000000 35 198 139 0.000000 0.000000 1.000000 1.000000 1686753828.879772 6168.000000 9.000000 0.060256 -0.166590 0.984183
-13.43000031 -15.76000023 0.09000000 35 198 139 0.000000 0.000000 1.000000 1.000000 1686753839.395947 3341.000000 9.000000 0.242465 -0.474256 0.846340
-13.40999985 -15.73999977 0.04000000 35 198 139 0.000000 0.000000 1.000000 1.000000 1686754301.745342 5654.000000 9.000000 0.545455 0.015038 0.838005
-13.42000008 -15.80000019 0.06000000 35 198 139 0.000000 0.000000 1.000000 1.000000 1686754304.044292 3084.000000 9.000000 0.440652 -0.506668 0.741022
-13.46000004 -15.78999996 0.06000000 35 198 139 0.000000 0.000000 1.000000 1.000000 1686754301.842693 3855.000000 9.000000 0.220701 -0.378553 0.898882
-13.44999981 -15.78999996 0.07000000 35 198 139 0.000000 0.000000 1.000000 1.000000 1686754302.909466 3598.000000 9.000000 -0.216602 0.690320 -0.690320
-13.44999981 -15.80000019 0.06000000 35 198 139 0.000000 0.000000 1.000000 1.000000 1686754268.662579 5654.000000 9.000000 0.271814 -0.446881 0.852299
-13.44999981 -15.81000042 0.05000000 35 198 139 0.000000 0.000000 1.000000 1.000000 1686753828.767956 4626.000000 9.000000 0.186046 -0.347949 0.918868
-13.36999989 -15.89000034 -0.04000000 35 198 139 0.000000 0.000000 1.000000 1.000000 1686753830.339642 4369.000000 9.000000 0.321133 -0.420421 0.848599
-13.42000008 -15.82999992 0.02000000 35 198 139 0.000000 0.000000 1.000000 1.000000 1686754010.029919 5397.000000 9.000000 0.612894 -0.369708 0.698338
-13.39000034 -15.86999989 0.01000000 35 198 139 0.000000 0.000000 1.000000 1.000000 1686753830.139599 18247.000000 9.000000 0.719505 -0.073833 0.690551
-13.47000027 -15.88000011 0.04000000 35 198 139 0.000000 0.000000 1.000000 1.000000 1686754305.300823 4626.000000 9.000000 0.388371 0.060057 0.919544
-13.44999981 -15.85999966 0.04000000 35 198 139 0.000000 0.000000 1.000000 1.000000 1686754297.889629 2313.000000 9.000000 0.037349 -0.220477 0.974677
-13.40999985 -15.84000015 0.00000000 35 198 139 0.000000 0.000000 1.000000 1.000000 1686754463.358318 1028.000000 9.000000 0.230728 -0.409355 0.882719
-13.46000004 -15.88000011 -0.03000000 35 198 139 0.000000 0.000000 1.000000 1.000000 1686754297.889507 6939.000000 9.000000 0.613477 -0.296327 0.732008
-13.42000008 -15.93000031 -0.03000000 35 198 139 0.000000 0.000000 1.000000 1.000000 1686754297.790936 8738.000000 9.000000 0.590830 -0.506666 0.627862
-13.43000031 -15.93999958 -0.02000000 35 198 139 0.000000 0.000000 1.000000 1.000000 1686754324.559185 1285.000000 9.000000 -0.364059 0.726485 -0.582821
-13.39000034 -15.94999981 -0.05000000 35 198 139 0.000000 0.000000 1.000000 1.000000 1686753830.339336 2570.000000 9.000000 0.449380 -0.335852 0.827805
-13.46000004 -15.92000008 -0.03000000 35 198 139 0.000000 0.000000 1.000000 1.000000 1686754297.690411 5140.000000 9.000000 0.617243 -0.322392 0.717687
-13.32999992 -15.97000027 -0.08000000 35 198 139 0.000000 0.000000 1.000000 1.000000 1686754297.689739 2056.000000 9.000000 0.703784 -0.272896 0.655908
-13.34000015 -16.00000000 -0.05000000 35 198 139 0.000000 0.000000 1.000000 1.000000 1686753830.338665 6682.000000 9.000000 0.616993 -0.158397 0.770864
-13.50000000 -15.52999973 0.11000000 35 198 139 0.000000 0.000000 1.000000 1.000000 1686753834.190563 2313.000000 9.000000 -0.393496 -0.046372 0.918156
-13.50000000 -15.50000000 0.13000000 35 198 139 0.000000 0.000000 1.000000 1.000000 1686753835.616863 771.000000 9.000000 0.092474 -0.154924 0.983589
-13.50000000 -15.59000015 0.14000000 35 198 139 0.000000 0.000000 1.000000 1.000000 1686753560.521477 1799.000000 9.000000 0.012793 0.196547 0.980411
-13.48999977 -15.60000038 0.12000000 35 198 139 0.000000 0.000000 1.000000 1.000000 1686754301.744061 3855.000000 9.000000 -0.192131 0.003451 0.981363
-13.47999954 -15.57999992 0.13000000 35 198 139 0.000000 0.000000 1.000000 1.000000 1686753566.300484 1799.000000 9.000000 -0.224094 -0.136011 0.965030
-13.50000000 -15.60999966 0.14000000 35 198 139 0.000000 0.000000 1.000000 1.000000 1686754300.403057 3855.000000 9.000000 0.222836 -0.209330 0.952116
-13.55000019 -15.60999966 0.13000000 35 198 139 0.000000 0.000000 1.000000 1.000000 1686754300.201397 5397.000000 9.000000 -0.054644 0.214935 0.975099
-13.61999989 -15.50000000 0.10000000 35 198 139 0.000000 0.000000 1.000000 1.000000 1686754296.464214 8481.000000 9.000000 -0.387769 -0.338333 0.857418
-13.64000034 -15.50000000 0.10000000 35 198 139 0.000000 0.000000 1.000000 1.000000 1686754296.263226 1028.000000 9.000000 -0.386352 0.126924 0.913577
-13.60999966 -15.55000019 0.13000000 35 198 139 0.000000 0.000000 1.000000 1.000000 1686754311.746258 5140.000000 9.000000 -0.187982 -0.275799 0.942655
-13.64000034 -15.59000015 0.10000000 35 198 139 0.000000 0.000000 1.000000 1.000000 1686754130.134930 2056.000000 9.000000 -0.231239 -0.037531 0.972173
-13.59000015 -15.61999989 0.10000000 35 198 139 0.000000 0.000000 1.000000 1.000000 1686753830.240856 5397.000000 9.000000 -0.236419 0.217287 0.947044
-13.60999966 -15.56999969 0.10000000 35 198 139 0.000000 0.000000 1.000000 1.000000 1686753834.091625 2827.000000 9.000000 -0.355365 0.134126 0.925055
-13.56000042 -15.61999989 0.14000000 35 198 139 0.000000 0.000000 1.000000 1.000000 1686754302.809246 2056.000000 9.000000 -0.405813 0.092168 0.909297
-13.76000023 -15.47000027 0.12000000 35 198 139 0.000000 0.000000 1.000000 1.000000 1686754460.020000 1028.000000 9.000000 -0.305282 0.115980 0.945173
-13.68000031 -15.60000038 0.16000000 35 198 139 0.000000 0.000000 1.000000 1.000000 1686754300.305401 9509.000000 9.000000 -0.342985 -0.056077 0.937666
-13.67000008 -15.60999966 0.16000000 35 198 139 0.000000 0.000000 1.000000 1.000000 1686754299.064312 9766.000000 9.000000 -0.696582 -0.070962 0.713960
-13.73999977 -15.47999954 0.13000000 35 198 139 0.000000 0.000000 1.000000 1.000000 1686753831.577709 4883.000000 9.000000 0.646374 -0.158944 -0.746282
-13.76000023 -15.52000046 0.13000000 35 198 139 0.000000 0.000000 1.000000 1.000000 1686754297.895428 9252.000000 9.000000 0.833468 -0.057626 -0.549555
-13.77999973 -15.52000046 0.12000000 35 198 139 0.000000 0.000000 1.000000 1.000000 1686753830.043591 4369.000000 9.000000 -0.332851 -0.031882 0.942440
-13.77999973 -15.52000046 0.12000000 35 198 139 0.000000 0.000000 1.000000 1.000000 1686753828.766857 3341.000000 9.000000 -0.332851 -0.031882 0.942440
-13.76000023 -15.64000034 0.25999999 35 198 139 0.000000 0.000000 1.000000 1.000000 1686754300.404583 3341.000000 9.000000 -0.180692 0.207071 0.961495
-13.73999977 -15.60000038 0.12000000 35 198 139 0.000000 0.000000 1.000000 1.000000 1686753830.140850 1028.000000 9.000000 -0.401866 0.312563 0.860702
-13.73999977 -15.60000038 0.12000000 35 198 139 0.000000 0.000000 1.000000 1.000000 1686754278.654217 3084.000000 9.000000 -0.401866 0.312563 0.860702
-13.75000000 -15.57999992 0.12000000 35 198 139 0.000000 0.000000 1.000000 1.000000 1686754296.465313 257.000000 9.000000 -0.324263 -0.126178 0.937514
-13.73999977 -15.63000011 0.13000000 35 198 139 0.000000 0.000000 1.000000 1.000000 1686754266.157757 2827.000000 9.000000 -0.312540 0.324503 0.892758
-13.75000000 -15.60999966 0.11000000 35 198 139 0.000000 0.000000 1.000000 1.000000 1686754297.793316 9509.000000 9.000000 -0.517272 -0.083614 0.851727
-13.78999996 -15.64000034 0.12000000 35 198 139 0.000000 0.000000 1.000000 1.000000 1686754296.364178 5911.000000 9.000000 -0.297429 0.021156 0.954510
-13.61999989 -15.43999958 0.09000000 35 198 139 0.000000 0.000000 1.000000 1.000000 1686754296.362103 10280.000000 9.000000 -0.426540 -0.078176 0.901084
-13.55000019 -15.47000027 -0.09000000 35 198 139 0.000000 0.000000 1.000000 1.000000 1686753835.717846 2827.000000 39.000000 -0.385095 -0.360149 0.849703
-13.52000046 -15.46000004 -0.08000000 35 198 139 0.000000 0.000000 1.000000 1.000000 1686753834.189892 3598.000000 39.000000 -0.376294 -0.254333 0.890909
-13.59000015 -15.35000038 -0.14000000 35 198 139 0.000000 0.000000 1.000000 1.000000 1686754225.799297 2570.000000 39.000000 0.777910 -0.294301 -0.555196
-13.56999969 -15.42000008 -0.10000000 35 198 139 0.000000 0.000000 1.000000 1.000000 1686753836.900951 257.000000 39.000000 0.867055 -0.399120 -0.298193
-13.59000015 -15.43000031 -0.12000000 35 198 139 0.000000 0.000000 1.000000 1.000000 1686753835.517651 6939.000000 39.000000 0.896328 -0.131688 -0.423384
-13.64000034 -15.43000031 -0.11000000 35 198 139 0.000000 0.000000 1.000000 1.000000 1686754296.562054 5654.000000 39.000000 0.757855 -0.326634 -0.564771
-13.61999989 -15.43000031 -0.16000000 35 198 139 0.000000 0.000000 1.000000 1.000000 1686754447.809429 2827.000000 39.000000 0.876720 -0.193026 -0.440570
-13.63000011 -15.40999985 -0.13000000 35 198 139 0.000000 0.000000 1.000000 1.000000 1686753571.618015 2827.000000 39.000000 0.984055 -0.177565 -0.010310
-13.60000038 -15.46000004 -0.11000000 35 198 139 0.000000 0.000000 1.000000 1.000000 1686754296.464520 13107.000000 39.000000 0.711254 0.220411 -0.667485
-13.61999989 -15.44999981 -0.14000000 35 198 139 0.000000 0.000000 1.000000 1.000000 1686754463.460552 4369.000000 39.000000 0.934005 0.155897 -0.321452
-13.60000038 -15.46000004 -0.13000000 35 198 139 0.000000 0.000000 1.000000 1.000000 1686754467.611614 514.000000 39.000000 0.974631 -0.095601 -0.202376
-13.50000000 -15.55000019 0.06000000 35 198 139 0.000000 0.000000 1.000000 1.000000 1686754317.907757 514.000000 9.000000 0.316967 0.006215 0.948416
-13.55000019 -15.56999969 0.04000000 35 198 139 0.000000 0.000000 1.000000 1.000000 1686753828.667889 2056.000000 9.000000 -0.571731 -0.049166 0.818966
-13.61999989 -15.51000023 0.09000000 35 198 139 0.000000 0.000000 1.000000 1.000000 1686754296.464336 10280.000000 9.000000 -0.347189 -0.264454 0.899736
-13.60999966 -15.55000019 0.05000000 35 198 139 0.000000 0.000000 1.000000 1.000000 1686753832.938732 4369.000000 9.000000 0.017748 -0.216520 0.976117
-13.57999992 -15.56999969 0.04000000 35 198 139 0.000000 0.000000 1.000000 1.000000 1686753831.476147 10794.000000 9.000000 -0.439262 -0.273965 0.855566
-13.56999969 -15.56000042 0.04000000 35 198 139 0.000000 0.000000 1.000000 1.000000 1686753828.667797 1028.000000 9.000000 -0.511755 -0.154854 0.845060
-13.61999989 -15.48999977 -0.14000000 35 198 139 0.000000 0.000000 1.000000 1.000000 1686754296.465069 7196.000000 39.000000 -0.744904 -0.055761 0.664837
-13.55000019 -15.50000000 -0.09000000 35 198 139 0.000000 0.000000 1.000000 1.000000 1686753834.287792 3598.000000 39.000000 -0.556264 0.099694 0.825004
-13.67000008 -15.47000027 0.07000000 35 198 139 0.000000 0.000000 1.000000 1.000000 1686754297.895367 5654.000000 9.000000 0.777160 -0.276992 -0.565064
-13.68000031 -15.43000031 -0.15000001 35 198 139 0.000000 0.000000 1.000000 1.000000 1686753849.017956 2313.000000 39.000000 0.980117 0.056246 -0.190279
-13.68999958 -15.55000019 0.06000000 35 198 139 0.000000 0.000000 1.000000 1.000000 1686753832.741283 6939.000000 9.000000 -0.525788 0.063095 0.848272
-13.64999962 -15.52000046 0.04000000 35 198 139 0.000000 0.000000 1.000000 1.000000 1686753838.118542 1799.000000 9.000000 -0.295884 0.304717 0.905318
-13.69999981 -15.59000015 0.05000000 35 198 139 0.000000 0.000000 1.000000 1.000000 1686753832.840435 2313.000000 9.000000 -0.203144 -0.156563 0.966551
-13.71000004 -15.63000011 0.07000000 35 198 139 0.000000 0.000000 1.000000 1.000000 1686754269.797832 1542.000000 9.000000 -0.258286 0.235948 0.936812
-13.68999958 -15.57999992 0.07000000 35 198 139 0.000000 0.000000 1.000000 1.000000 1686753830.043316 2570.000000 9.000000 -0.357815 -0.040335 0.932921
-13.68000031 -15.59000015 0.08000000 35 198 139 0.000000 0.000000 1.000000 1.000000 1686753832.939007 1028.000000 9.000000 -0.299960 0.041767 0.953037
-13.71000004 -15.60000038 0.07000000 35 198 139 0.000000 0.000000 1.000000 1.000000 1686754275.100933 1542.000000 9.000000 -0.396865 0.304927 0.865747
-13.78999996 -15.60999966 0.06000000 35 198 139 0.000000 0.000000 1.000000 1.000000 1686753834.090160 4626.000000 9.000000 0.680324 0.199913 -0.705120
-13.77999973 -15.63000011 0.08000000 35 198 139 0.000000 0.000000 1.000000 1.000000 1686754450.199383 4112.000000 9.000000 -0.635757 -0.035242 0.771084
-13.84000015 -15.52999973 0.11000000 35 198 139 0.000000 0.000000 1.000000 1.000000 1686753835.322430 3084.000000 9.000000 0.863517 0.068577 -0.499636
-13.84000015 -15.53999996 0.12000000 35 198 139 0.000000 0.000000 1.000000 1.000000 1686754297.793987 14392.000000 9.000000 -0.359795 0.245248 0.900223
-13.84000015 -15.53999996 0.12000000 35 198 139 0.000000 0.000000 1.000000 1.000000 1686753832.841015 3855.000000 9.000000 -0.359795 0.245248 0.900223
-13.85999966 -15.47999954 0.12000000 35 198 139 0.000000 0.000000 1.000000 1.000000 1686753834.189342 4369.000000 9.000000 -0.623386 0.037994 0.780991
-13.86999989 -15.59000015 0.23000000 35 198 139 0.000000 0.000000 1.000000 1.000000 1686754297.895672 18247.000000 9.000000 -0.590006 0.012378 0.807304
-13.86999989 -15.61999989 0.25000000 35 198 139 0.000000 0.000000 1.000000 1.000000 1686754296.465435 9252.000000 9.000000 -0.453063 -0.184472 0.872183
-13.90999985 -15.57999992 0.25000000 35 198 139 0.000000 0.000000 1.000000 1.000000 1686754300.308025 1799.000000 9.000000 -0.456916 -0.053193 0.887918
-13.89999962 -15.57999992 0.25000000 35 198 139 0.000000 0.000000 1.000000 1.000000 1686754297.896099 18761.000000 9.000000 -0.411017 0.080565 0.908061
-13.93000031 -15.64000034 0.11000000 35 198 139 0.000000 0.000000 1.000000 1.000000 1686754297.793499 9766.000000 9.000000 0.704605 0.251758 -0.663437
-13.93000031 -15.60999966 0.12000000 35 198 139 0.000000 0.000000 1.000000 1.000000 1686754296.466106 8481.000000 9.000000 0.638070 -0.516853 -0.570727
-13.93999958 -15.61999989 0.11000000 35 198 139 0.000000 0.000000 1.000000 1.000000 1686754296.364605 8224.000000 9.000000 0.811193 -0.109621 -0.574412
-13.96000004 -15.63000011 0.10000000 35 198 139 0.000000 0.000000 1.000000 1.000000 1686754296.364971 1028.000000 9.000000 0.706033 -0.495726 -0.505740
-13.97999954 -15.32999992 0.01000000 35 198 139 0.000000 0.000000 1.000000 1.000000 1686753831.575359 3855.000000 9.000000 0.708273 -0.095316 -0.699474
-13.89999962 -15.34000015 -0.02000000 35 198 139 0.000000 0.000000 1.000000 1.000000 1686753834.088451 1028.000000 9.000000 0.901476 -0.128379 -0.413353
-13.82999992 -15.64000034 0.03000000 35 198 139 0.000000 0.000000 1.000000 1.000000 1686753832.742229 4626.000000 9.000000 0.763304 0.168443 -0.623694
-13.82999992 -15.64000034 0.05000000 35 198 139 0.000000 0.000000 1.000000 1.000000 1686754303.018475 2827.000000 9.000000 -0.502664 0.217163 0.836761
-13.94999981 -15.59000015 0.01000000 35 198 139 0.000000 0.000000 1.000000 1.000000 1686754297.793560 16191.000000 9.000000 0.836724 0.207290 -0.506876
-13.92000008 -15.61999989 0.01000000 35 198 139 0.000000 0.000000 1.000000 1.000000 1686754299.152935 8995.000000 9.000000 0.743885 -0.443692 -0.499772
-13.89999962 -15.63000011 0.00000000 35 198 139 0.000000 0.000000 1.000000 1.000000 1686754299.063213 8224.000000 9.000000 0.699001 -0.199936 -0.686602
-13.96000004 -15.57999992 0.00000000 35 198 139 0.000000 0.000000 1.000000 1.000000 1686754296.466228 22102.000000 9.000000 0.973756 0.067537 -0.217345
-14.02000046 -15.38000011 0.02000000 35 198 139 0.000000 0.000000 1.000000 1.000000 1686754296.658672 5654.000000 9.000000 0.969879 -0.131271 -0.205191
-14.02000046 -15.38000011 0.00000000 35 198 139 0.000000 0.000000 1.000000 1.000000 1686754296.362835 5654.000000 9.000000 0.901143 -0.140493 -0.410126
-14.01000023 -15.44999981 -0.01000000 35 198 139 0.000000 0.000000 1.000000 1.000000 1686754296.363567 257.000000 9.000000 0.991449 -0.081379 -0.102010
-14.03999996 -15.47000027 0.00000000 35 198 139 0.000000 0.000000 1.000000 1.000000 1686754296.464825 13878.000000 9.000000 0.980816 -0.034146 -0.191924
-14.02999973 -15.46000004 -0.07000000 35 198 139 0.000000 0.000000 1.000000 1.000000 1686753843.515759 3855.000000 9.000000 0.971794 0.093803 -0.216371
-14.14000034 -15.46000004 0.00000000 35 198 139 0.000000 0.000000 1.000000 1.000000 1686754297.897503 12593.000000 9.000000 0.729720 -0.285820 -0.621140
-14.01000023 -15.48999977 -0.04000000 35 198 139 0.000000 0.000000 1.000000 1.000000 1686753560.419765 3084.000000 9.000000 0.941881 -0.335757 -0.011318
-14.02000046 -15.53999996 0.00000000 35 198 139 0.000000 0.000000 1.000000 1.000000 1686754453.958660 2827.000000 9.000000 -0.761965 0.327017 0.558989
-14.02999973 -15.52999973 -0.05000000 35 198 139 0.000000 0.000000 1.000000 1.000000 1686753839.196850 514.000000 9.000000 0.984178 -0.124076 -0.126486
-14.09000015 -15.55000019 -0.02000000 35 198 139 0.000000 0.000000 1.000000 1.000000 1686753830.242657 1285.000000 9.000000 0.948041 0.036805 -0.316014
-14.10000038 -15.52000046 -0.05000000 35 198 139 0.000000 0.000000 1.000000 1.000000 1686753834.087109 5654.000000 9.000000 0.909843 0.130378 -0.393938
-14.13000011 -15.51000023 0.00000000 35 198 139 0.000000 0.000000 1.000000 1.000000 1686754296.364910 771.000000 9.000000 0.797168 -0.091478 -0.596787
-14.10999966 -15.50000000 -0.04000000 35 198 139 0.000000 0.000000 1.000000 1.000000 1686753839.292797 1028.000000 9.000000 0.963805 -0.259438 0.061413
-13.48999977 -15.68000031 0.13000000 35 198 139 0.000000 0.000000 1.000000 1.000000 1686754264.791851 1799.000000 9.000000 0.233503 -0.548963 0.802568
-13.48999977 -15.68000031 0.13000000 35 198 139 0.000000 0.000000 1.000000 1.000000 1686753564.482124 1799.000000 9.000000 0.233503 -0.548963 0.802568
-13.51000023 -15.68999958 0.12000000 35 198 139 0.000000 0.000000 1.000000 1.000000 1686753843.413372 3598.000000 9.000000 0.017484 -0.482826 0.875542
-13.47999954 -15.68999958 0.11000000 35 198 139 0.000000 0.000000 1.000000 1.000000 1686753832.839306 257.000000 9.000000 0.160924 -0.503441 0.848911
-13.48999977 -15.72000027 0.12000000 35 198 139 0.000000 0.000000 1.000000 1.000000 1686753839.294201 3855.000000 9.000000 0.025784 -0.492609 0.869869
-13.50000000 -15.72000027 0.12000000 35 198 139 0.000000 0.000000 1.000000 1.000000 1686754307.799236 2827.000000 9.000000 0.235554 0.466549 -0.852553
-13.52000046 -15.72000027 0.10000000 35 198 139 0.000000 0.000000 1.000000 1.000000 1686754301.642864 2827.000000 9.000000 0.061147 -0.584447 0.809125
-13.55000019 -15.72000027 0.12000000 35 198 139 0.000000 0.000000 1.000000 1.000000 1686754302.910198 4112.000000 9.000000 -0.061187 0.188360 0.980192
-13.53999996 -15.75000000 0.13000000 35 198 139 0.000000 0.000000 1.000000 1.000000 1686753827.541424 257.000000 9.000000 0.166307 -0.186935 0.968193
-13.63000011 -15.71000004 0.25000000 35 198 139 0.000000 0.000000 1.000000 1.000000 1686754297.792950 20560.000000 9.000000 -0.162650 -0.467437 0.868935
-13.63000011 -15.71000004 0.25000000 35 198 139 0.000000 0.000000 1.000000 1.000000 1686754297.792889 18761.000000 9.000000 -0.162650 -0.467437 0.868935
-13.61999989 -15.71000004 0.25000000 35 198 139 0.000000 0.000000 1.000000 1.000000 1686753830.239483 4112.000000 9.000000 0.018065 -0.244479 0.969486
-13.59000015 -15.68000031 0.14000000 35 198 139 0.000000 0.000000 1.000000 1.000000 1686753831.477398 6682.000000 9.000000 0.079654 -0.312087 0.946708
-13.56000042 -15.69999981 0.16000000 35 198 139 0.000000 0.000000 1.000000 1.000000 1686754200.551678 2827.000000 9.000000 0.237305 -0.413419 0.879074
-13.60000038 -15.64999962 0.14000000 35 198 139 0.000000 0.000000 1.000000 1.000000 1686754314.245342 3598.000000 9.000000 0.138508 -0.112011 0.984007
-13.63000011 -15.68000031 0.14000000 35 198 139 0.000000 0.000000 1.000000 1.000000 1686754300.304485 10280.000000 9.000000 -0.309109 -0.245849 0.918700
-13.63000011 -15.68000031 0.15000001 35 198 139 0.000000 0.000000 1.000000 1.000000 1686753835.419506 771.000000 9.000000 -0.204751 -0.312069 0.927734
-13.61999989 -15.64999962 0.16000000 35 198 139 0.000000 0.000000 1.000000 1.000000 1686753834.091961 1028.000000 9.000000 0.067764 0.001043 0.997701
-13.60000038 -15.68000031 0.13000000 35 198 139 0.000000 0.000000 1.000000 1.000000 1686754301.743511 5397.000000 9.000000 -0.155256 0.095079 0.983288
-13.64000034 -15.68999958 0.14000000 35 198 139 0.000000 0.000000 1.000000 1.000000 1686754299.065228 7453.000000 9.000000 -0.462531 0.124583 0.877806
-13.61999989 -15.72999954 0.25000000 35 198 139 0.000000 0.000000 1.000000 1.000000 1686753834.092358 3084.000000 9.000000 -0.279762 0.155423 0.947405
-13.63000011 -15.72999954 0.23000000 35 198 139 0.000000 0.000000 1.000000 1.000000 1686754300.403790 9509.000000 9.000000 0.189859 0.053734 0.980340
-13.64000034 -15.77999973 0.22000000 35 198 139 0.000000 0.000000 1.000000 1.000000 1686754303.018780 3855.000000 9.000000 -0.470107 0.033869 0.881959
-13.56000042 -15.75000000 0.12000000 35 198 139 0.000000 0.000000 1.000000 1.000000 1686754297.692974 6939.000000 9.000000 -0.237774 -0.504694 0.829908
-13.56000042 -15.75000000 0.13000000 35 198 139 0.000000 0.000000 1.000000 1.000000 1686754306.644146 257.000000 9.000000 -0.055882 -0.247121 0.967372
-13.56000042 -15.73999977 0.13000000 35 198 139 0.000000 0.000000 1.000000 1.000000 1686753836.901714 3084.000000 9.000000 -0.158306 -0.077368 0.984354
-13.63000011 -15.84000015 0.20000000 35 198 139 0.000000 0.000000 1.000000 1.000000 1686753981.257214 2313.000000 9.000000 0.033310 -0.430367 0.902039
-13.63000011 -15.93000031 0.17000000 35 198 139 0.000000 0.000000 1.000000 1.000000 1686754447.809551 514.000000 9.000000 -0.071464 -0.098688 0.992549
-13.63000011 -15.81999969 0.23000000 35 198 139 0.000000 0.000000 1.000000 1.000000 1686754303.018597 771.000000 9.000000 -0.379601 -0.062601 0.923030
-13.81000042 -15.64999962 0.28000000 35 198 139 0.000000 0.000000 1.000000 1.000000 1686754258.368633 2313.000000 9.000000 -0.185743 -0.344547 0.920210
-13.68999958 -15.69999981 0.25000000 35 198 139 0.000000 0.000000 1.000000 1.000000 1686754296.263653 257.000000 9.000000 -0.111863 -0.107153 0.987930
-13.71000004 -15.72000027 0.25000000 35 198 139 0.000000 0.000000 1.000000 1.000000 1686754344.215069 2827.000000 9.000000 0.064485 -0.203190 0.977014
-13.68000031 -15.68000031 0.25999999 35 198 139 0.000000 0.000000 1.000000 1.000000 1686754322.039654 1542.000000 9.000000 -0.431162 -0.340226 0.835671
-13.68999958 -15.68000031 0.16000000 35 198 139 0.000000 0.000000 1.000000 1.000000 1686754299.064678 8995.000000 9.000000 -0.306505 0.246067 0.919514
-13.71000004 -15.68999958 0.15000001 35 198 139 0.000000 0.000000 1.000000 1.000000 1686753854.038586 1285.000000 9.000000 -0.223149 -0.338322 0.914190
-13.69999981 -15.72000027 0.13000000 35 198 139 0.000000 0.000000 1.000000 1.000000 1686754299.065105 10280.000000 9.000000 -0.247409 0.203668 0.947263
-13.64999962 -15.75000000 0.25000000 35 198 139 0.000000 0.000000 1.000000 1.000000 1686753834.092297 3598.000000 9.000000 0.124962 -0.264392 0.956285
-13.64999962 -15.80000019 0.23000000 35 198 139 0.000000 0.000000 1.000000 1.000000 1686753871.723217 1285.000000 9.000000 -0.017598 0.042442 0.998944
-13.64999962 -15.78999996 0.20999999 35 198 139 0.000000 0.000000 1.000000 1.000000 1686754304.042645 3341.000000 9.000000 0.178928 -0.088855 0.979842
-13.68999958 -15.76000023 0.23000000 35 198 139 0.000000 0.000000 1.000000 1.000000 1686754300.202801 6682.000000 9.000000 -0.197324 -0.410726 0.890150
-13.68999958 -15.76000023 0.23000000 35 198 139 0.000000 0.000000 1.000000 1.000000 1686753859.241314 1542.000000 9.000000 -0.197324 -0.410726 0.890150
-13.69999981 -15.73999977 0.23000000 35 198 139 0.000000 0.000000 1.000000 1.000000 1686754300.203045 6425.000000 9.000000 -0.267569 0.157314 0.950610
-13.69999981 -15.78999996 0.20999999 35 198 139 0.000000 0.000000 1.000000 1.000000 1686754297.693462 10280.000000 9.000000 -0.478961 -0.378976 0.791817
-13.72000027 -15.80000019 0.20000000 35 198 139 0.000000 0.000000 1.000000 1.000000 1686753835.617321 3341.000000 9.000000 -0.258825 -0.356439 0.897753
-13.67000008 -15.80000019 0.16000000 35 198 139 0.000000 0.000000 1.000000 1.000000 1686753574.105049 1028.000000 9.000000 -0.086945 0.187360 0.978436
-13.69999981 -15.73999977 0.10000000 35 198 139 0.000000 0.000000 1.000000 1.000000 1686753834.189892 3855.000000 9.000000 -0.340464 -0.325333 0.882181
-13.68999958 -15.73999977 0.11000000 35 198 139 0.000000 0.000000 1.000000 1.000000 1686754223.295086 4369.000000 9.000000 -0.373211 0.032510 0.927177
-13.69999981 -15.76000023 0.10000000 35 198 139 0.000000 0.000000 1.000000 1.000000 1686753834.091167 4112.000000 9.000000 -0.353255 0.302146 0.885392
-13.65999985 -15.77000046 0.12000000 35 198 139 0.000000 0.000000 1.000000 1.000000 1686753838.118542 4626.000000 9.000000 -0.287544 0.217411 0.932765
-13.69999981 -15.81000042 0.16000000 35 198 139 0.000000 0.000000 1.000000 1.000000 1686754297.792156 10023.000000 9.000000 -0.485395 0.192665 0.852802
-13.75000000 -15.68000031 0.25999999 35 198 139 0.000000 0.000000 1.000000 1.000000 1686753836.590466 3341.000000 9.000000 -0.095755 -0.093448 0.991009
-13.76000023 -15.64999962 0.25999999 35 198 139 0.000000 0.000000 1.000000 1.000000 1686754296.363567 1285.000000 9.000000 -0.067339 -0.108427 0.991821
-13.76000023 -15.65999985 0.25999999 35 198 139 0.000000 0.000000 1.000000 1.000000 1686754298.962627 2056.000000 9.000000 -0.035738 -0.260028 0.964939
-13.80000019 -15.68000031 0.25000000 35 198 139 0.000000 0.000000 1.000000 1.000000 1686753831.372936 1285.000000 9.000000 0.604025 -0.229436 -0.763225
-13.78999996 -15.68000031 0.25999999 35 198 139 0.000000 0.000000 1.000000 1.000000 1686754300.306866 10794.000000 9.000000 -0.150610 0.173391 0.973269
-13.77000046 -15.67000008 0.25999999 35 198 139 0.000000 0.000000 1.000000 1.000000 1686753550.234444 1542.000000 9.000000 -0.024371 -0.182201 0.982959
-13.77000046 -15.67000008 0.25999999 35 198 139 0.000000 0.000000 1.000000 1.000000 1686753859.241161 2313.000000 9.000000 -0.024371 -0.182201 0.982959
-13.77000046 -15.71000004 0.23000000 35 198 139 0.000000 0.000000 1.000000 1.000000 1686754298.963177 4369.000000 9.000000 -0.046198 0.007186 0.998906
-13.77999973 -15.68999958 0.23999999 35 198 139 0.000000 0.000000 1.000000 1.000000 1686753828.668957 3341.000000 9.000000 -0.218740 -0.224174 0.949684
-13.81000042 -15.72000027 0.25000000 35 198 139 0.000000 0.000000 1.000000 1.000000 1686754301.741924 4369.000000 9.000000 -0.602676 0.109977 0.790371
-13.80000019 -15.68999958 0.25999999 35 198 139 0.000000 0.000000 1.000000 1.000000 1686754446.369488 2056.000000 9.000000 -0.595731 0.076081 0.799572
-13.72999954 -15.65999985 0.14000000 35 198 139 0.000000 0.000000 1.000000 1.000000 1686753830.240673 3341.000000 9.000000 -0.308480 0.302576 0.901825
-13.76000023 -15.67000008 0.11000000 35 198 139 0.000000 0.000000 1.000000 1.000000 1686753564.886803 4626.000000 9.000000 -0.465032 0.085186 0.881186
-13.72999954 -15.69999981 0.15000001 35 198 139 0.000000 0.000000 1.000000 1.000000 1686754300.305523 5654.000000 9.000000 -0.299028 -0.159755 0.940777
-13.73999977 -15.68999958 0.15000001 35 198 139 0.000000 0.000000 1.000000 1.000000 1686753831.578625 2313.000000 9.000000 -0.498955 0.157487 0.852198
-13.76000023 -15.72000027 0.14000000 35 198 139 0.000000 0.000000 1.000000 1.000000 1686754452.702129 2313.000000 9.000000 -0.128875 0.093405 0.987252
-13.77000046 -15.67000008 0.10000000 35 198 139 0.000000 0.000000 1.000000 1.000000 1686754297.793011 10794.000000 9.000000 -0.469897 -0.062010 0.880540
-13.81000042 -15.69999981 0.11000000 35 198 139 0.000000 0.000000 1.000000 1.000000 1686754308.963116 3855.000000 9.000000 -0.563187 0.319300 0.762147
-13.76000023 -15.81000042 0.23000000 35 198 139 0.000000 0.000000 1.000000 1.000000 1686754297.892254 7967.000000 9.000000 -0.135866 -0.444782 0.885274
-13.76000023 -15.80000019 0.18000001 35 198 139 0.000000 0.000000 1.000000 1.000000 1686753839.197338 2056.000000 9.000000 -0.207387 -0.072401 0.975576
-13.77999973 -15.76000023 0.25000000 35 198 139 0.000000 0.000000 1.000000 1.000000 1686754301.841412 514.000000 9.000000 -0.507785 0.031480 0.860908
-13.81000042 -15.73999977 0.25000000 35 198 139 0.000000 0.000000 1.000000 1.000000 1686753830.041271 257.000000 9.000000 -0.608211 -0.171391 0.775052
-13.81000042 -15.77000046 0.25000000 35 198 139 0.000000 0.000000 1.000000 1.000000 1686753839.396069 2313.000000 9.000000 -0.178994 -0.221422 0.958610
-13.78999996 -15.80000019 0.18000001 35 198 139 0.000000 0.000000 1.000000 1.000000 1686753830.239330 2570.000000 9.000000 -0.497409 0.290286 0.817508
-13.75000000 -15.72999954 0.14000000 35 198 139 0.000000 0.000000 1.000000 1.000000 1686754296.466656 1285.000000 9.000000 0.543519 -0.247621 -0.802042
-13.76000023 -15.77999973 0.17000000 35 198 139 0.000000 0.000000 1.000000 1.000000 1686753865.390575 1285.000000 9.000000 -0.362678 0.140347 0.921286
-13.80000019 -15.76000023 0.15000001 35 198 139 0.000000 0.000000 1.000000 1.000000 1686754311.543499 2570.000000 9.000000 -0.392805 -0.418250 0.819006
-13.65999985 -15.84000015 0.19000000 35 198 139 0.000000 0.000000 1.000000 1.000000 1686754297.891033 5140.000000 9.000000 -0.209797 -0.054571 0.976221
-13.64999962 -15.81999969 0.20000000 35 198 139 0.000000 0.000000 1.000000 1.000000 1686753861.631847 3598.000000 9.000000 0.125464 -0.365364 0.922371
-13.65999985 -15.86999989 0.20000000 35 198 139 0.000000 0.000000 1.000000 1.000000 1686754297.890911 2827.000000 9.000000 0.066169 -0.317869 0.945823
-13.68000031 -15.85999966 0.20000000 35 198 139 0.000000 0.000000 1.000000 1.000000 1686753830.238476 1542.000000 9.000000 -0.076990 -0.248640 0.965531
-13.71000004 -15.84000015 0.25999999 35 198 139 0.000000 0.000000 1.000000 1.000000 1686753828.880749 3598.000000 9.000000 -0.334206 0.187550 0.923651
-13.64999962 -15.88000011 0.17000000 35 198 139 0.000000 0.000000 1.000000 1.000000 1686753827.440716 1285.000000 9.000000 -0.363069 0.113716 0.924797
-13.65999985 -15.93000031 0.18000001 35 198 139 0.000000 0.000000 1.000000 1.000000 1686753749.573071 11051.000000 9.000000 -0.111840 0.029898 0.993276
-13.64999962 -15.92000008 0.18000001 35 198 139 0.000000 0.000000 1.000000 1.000000 1686754297.890179 2056.000000 9.000000 -0.080707 0.172256 0.981740
-13.68000031 -15.89999962 0.18000001 35 198 139 0.000000 0.000000 1.000000 1.000000 1686753828.769421 2570.000000 9.000000 -0.522645 -0.252793 0.814210
-13.64999962 -15.94999981 0.16000000 35 198 139 0.000000 0.000000 1.000000 1.000000 1686753830.237713 1028.000000 9.000000 -0.159497 -0.149450 0.975820
-13.68000031 -15.96000004 0.15000001 35 198 139 0.000000 0.000000 1.000000 1.000000 1686753830.139324 257.000000 9.000000 -0.178966 -0.086439 0.980051
-13.68999958 -15.92000008 0.16000000 35 198 139 0.000000 0.000000 1.000000 1.000000 1686754301.841839 4369.000000 9.000000 0.210703 0.075163 0.974656
-13.68999958 -15.90999985 0.16000000 35 198 139 0.000000 0.000000 1.000000 1.000000 1686753835.516705 1542.000000 9.000000 0.034810 -0.346810 0.937289
-13.68999958 -15.96000004 0.15000001 35 198 139 0.000000 0.000000 1.000000 1.000000 1686753830.139355 2570.000000 9.000000 -0.133315 -0.042159 0.990177
-13.76000023 -15.84000015 0.23000000 35 198 139 0.000000 0.000000 1.000000 1.000000 1686753830.040478 2827.000000 9.000000 -0.340947 -0.169772 0.924626
-13.76000023 -15.82999992 0.23000000 35 198 139 0.000000 0.000000 1.000000 1.000000 1686753834.190105 4112.000000 9.000000 -0.406409 -0.438536 0.801573
-13.77000046 -15.82999992 0.22000000 35 198 139 0.000000 0.000000 1.000000 1.000000 1686754311.642010 1799.000000 9.000000 0.065393 -0.170021 0.983268
-13.81000042 -15.85999966 0.23999999 35 198 139 0.000000 0.000000 1.000000 1.000000 1686754300.306561 7196.000000 9.000000 -0.080960 0.026987 0.996352
-13.72999954 -15.85000038 0.16000000 35 198 139 0.000000 0.000000 1.000000 1.000000 1686753834.091228 2313.000000 9.000000 -0.484025 -0.031184 0.874498
-13.76000023 -15.85000038 0.14000000 35 198 139 0.000000 0.000000 1.000000 1.000000 1686754297.692364 10794.000000 9.000000 -0.040969 -0.269404 0.962156
-13.73999977 -15.88000011 0.14000000 35 198 139 0.000000 0.000000 1.000000 1.000000 1686753831.478008 3598.000000 9.000000 -0.407000 0.210112 0.888934
-13.77000046 -15.82999992 0.15000001 35 198 139 0.000000 0.000000 1.000000 1.000000 1686753830.041058 3341.000000 9.000000 -0.046074 -0.052503 0.997557
-13.77999973 -15.86999989 0.12000000 35 198 139 0.000000 0.000000 1.000000 1.000000 1686753845.514050 1028.000000 9.000000 -0.492947 0.286379 0.821578
-13.81000042 -15.89000034 0.13000000 35 198 139 0.000000 0.000000 1.000000 1.000000 1686754316.753155 257.000000 9.000000 -0.384327 0.054524 0.921586
-13.77000046 -15.92000008 0.18000001 35 198 139 0.000000 0.000000 1.000000 1.000000 1686754300.403851 11822.000000 9.000000 -0.308304 -0.426048 0.850548
-13.77000046 -15.93000031 0.18000001 35 198 139 0.000000 0.000000 1.000000 1.000000 1686754269.998394 6939.000000 9.000000 -0.255106 -0.383405 0.887649
-13.73999977 -15.93999958 0.17000000 35 198 139 0.000000 0.000000 1.000000 1.000000 1686754298.964397 12850.000000 9.000000 -0.531774 -0.182280 0.827037
-13.73999977 -15.94999981 0.17000000 35 198 139 0.000000 0.000000 1.000000 1.000000 1686753839.395824 5911.000000 9.000000 -0.319519 -0.161834 0.933658
-13.75000000 -15.93999958 0.16000000 35 198 139 0.000000 0.000000 1.000000 1.000000 1686754297.691143 10280.000000 9.000000 -0.477670 -0.371521 0.796117
-13.81000042 -15.93999958 0.11000000 35 198 139 0.000000 0.000000 1.000000 1.000000 1686754299.155987 7967.000000 9.000000 -0.238465 0.249622 0.938522
-13.51000023 -15.77000046 0.07000000 35 198 139 0.000000 0.000000 1.000000 1.000000 1686754301.744488 257.000000 9.000000 0.082219 -0.458474 0.884896
-13.48999977 -15.78999996 0.06000000 35 198 139 0.000000 0.000000 1.000000 1.000000 1686754303.017376 5140.000000 9.000000 0.109578 -0.246228 0.962998
-13.48999977 -15.85999966 0.04000000 35 198 139 0.000000 0.000000 1.000000 1.000000 1686753830.340130 4112.000000 9.000000 0.384909 -0.511588 0.768194
-13.48999977 -15.81999969 0.06000000 35 198 139 0.000000 0.000000 1.000000 1.000000 1686754299.067669 7453.000000 9.000000 0.472756 -0.246323 0.846065
-13.48999977 -15.81999969 0.06000000 35 198 139 0.000000 0.000000 1.000000 1.000000 1686754300.402325 8481.000000 9.000000 0.472756 -0.246323 0.846065
-13.52999973 -15.84000015 0.07000000 35 198 139 0.000000 0.000000 1.000000 1.000000 1686754305.301128 3341.000000 9.000000 0.363820 -0.385680 0.847872
-13.50000000 -15.86999989 0.04000000 35 198 139 0.000000 0.000000 1.000000 1.000000 1686754305.300945 3084.000000 9.000000 0.108856 -0.099492 0.989066
-13.47999954 -15.89999962 0.05000000 35 198 139 0.000000 0.000000 1.000000 1.000000 1686754412.271893 1799.000000 9.000000 0.092854 -0.031680 0.995176
-13.52000046 -15.92000008 -0.02000000 35 198 139 0.000000 0.000000 1.000000 1.000000 1686754315.413189 1542.000000 9.000000 0.012330 -0.571302 0.820647
-13.65999985 -15.65999985 0.08000000 35 198 139 0.000000 0.000000 1.000000 1.000000 1686753574.105118 2056.000000 9.000000 -0.066908 0.203157 0.976857
-13.72000027 -15.68999958 0.03000000 35 198 139 0.000000 0.000000 1.000000 1.000000 1686754456.358013 2313.000000 9.000000 -0.571775 -0.249075 0.781687
-13.71000004 -15.68999958 0.07000000 35 198 139 0.000000 0.000000 1.000000 1.000000 1686753586.501686 5397.000000 9.000000 -0.388799 0.339231 0.856597
-13.67000008 -15.69999981 0.07000000 35 198 139 0.000000 0.000000 1.000000 1.000000 1686753835.517162 2570.000000 9.000000 -0.414377 -0.303465 0.858021
-13.72999954 -15.69999981 0.07000000 35 198 139 0.000000 0.000000 1.000000 1.000000 1686753564.687683 7196.000000 9.000000 -0.530554 0.310685 0.788662
-13.75000000 -15.68999958 0.06000000 35 198 139 0.000000 0.000000 1.000000 1.000000 1686754271.154522 1028.000000 9.000000 -0.635563 -0.289765 0.715609
-13.72999954 -15.69999981 0.03000000 35 198 139 0.000000 0.000000 1.000000 1.000000 1686753885.594769 2313.000000 9.000000 -0.143533 0.156014 0.977271
-13.78999996 -15.67000008 0.06000000 35 198 139 0.000000 0.000000 1.000000 1.000000 1686753836.700817 4883.000000 9.000000 0.815076 0.199579 -0.543892
-13.77999973 -15.76000023 0.09000000 35 198 139 0.000000 0.000000 1.000000 1.000000 1686754300.403606 6682.000000 9.000000 -0.431254 0.238918 0.870022
-13.77000046 -15.77000046 -0.07000000 35 198 139 0.000000 0.000000 1.000000 1.000000 1686754299.155437 13878.000000 9.000000 0.714733 0.049931 -0.697613
-13.76000023 -15.77999973 -0.06000000 35 198 139 0.000000 0.000000 1.000000 1.000000 1686754457.514385 2570.000000 9.000000 -0.368207 -0.236180 0.899246
-13.72999954 -15.77000046 -0.06000000 35 198 139 0.000000 0.000000 1.000000 1.000000 1686753836.800213 1542.000000 9.000000 -0.461432 -0.003966 0.887167
-13.77000046 -15.77000046 -0.06000000 35 198 139 0.000000 0.000000 1.000000 1.000000 1686753834.189312 3341.000000 9.000000 -0.433694 -0.249336 0.865876
-13.72999954 -15.77000046 -0.06000000 35 198 139 0.000000 0.000000 1.000000 1.000000 1686753831.578564 2827.000000 9.000000 -0.461432 -0.003966 0.887167
-13.80000019 -15.75000000 -0.06000000 35 198 139 0.000000 0.000000 1.000000 1.000000 1686754299.155071 16962.000000 9.000000 -0.549804 -0.137082 0.823969
-13.77999973 -15.69999981 -0.11000000 35 198 139 0.000000 0.000000 1.000000 1.000000 1686753836.900127 3341.000000 9.000000 0.721603 -0.176188 -0.669513
-13.78999996 -15.72000027 -0.11000000 35 198 139 0.000000 0.000000 1.000000 1.000000 1686753836.900005 9509.000000 9.000000 0.846020 -0.386261 -0.367495
-13.81000042 -15.75000000 -0.08000000 35 198 139 0.000000 0.000000 1.000000 1.000000 1686754299.065350 13107.000000 9.000000 0.845517 -0.180437 -0.502538
-13.80000019 -15.72999954 -0.11000000 35 198 139 0.000000 0.000000 1.000000 1.000000 1686753832.940258 1028.000000 9.000000 0.728060 -0.346928 -0.591244
-13.75000000 -15.73999977 -0.09000000 35 198 139 0.000000 0.000000 1.000000 1.000000 1686754480.554058 3084.000000 9.000000 0.644508 0.041079 -0.763494
-13.81000042 -15.93000031 0.09000000 35 198 139 0.000000 0.000000 1.000000 1.000000 1686754297.791485 7453.000000 9.000000 -0.575669 0.277527 0.769145
-13.72000027 -15.98999977 0.16000000 35 198 139 0.000000 0.000000 1.000000 1.000000 1686754455.114666 2570.000000 9.000000 0.225542 -0.008266 0.974198
-13.52999973 -15.98999977 -0.05000000 35 198 139 0.000000 0.000000 1.000000 1.000000 1686754301.843060 1799.000000 9.000000 0.220775 -0.341985 0.913403
-13.52999973 -16.04999924 -0.06000000 35 198 139 0.000000 0.000000 1.000000 1.000000 1686754297.688824 9766.000000 9.000000 0.262265 -0.329663 0.906940
-13.51000023 -16.07999992 -0.05000000 35 198 139 0.000000 0.000000 1.000000 1.000000 1686753828.769238 3598.000000 9.000000 0.134448 -0.417496 0.898677
-13.52999973 -16.06999969 -0.06000000 35 198 139 0.000000 0.000000 1.000000 1.000000 1686753827.540264 3084.000000 9.000000 0.339018 -0.300188 0.891602
-13.51000023 -16.06999969 -0.07000000 35 198 139 0.000000 0.000000 1.000000 1.000000 1686754300.300213 10023.000000 9.000000 0.506408 -0.553515 0.661190
-13.52999973 -16.10000038 -0.06000000 35 198 139 0.000000 0.000000 1.000000 1.000000 1686753827.440838 2313.000000 9.000000 0.104367 -0.356474 0.928458
-13.57999992 -15.98999977 -0.05000000 35 198 139 0.000000 0.000000 1.000000 1.000000 1686753830.237774 3855.000000 9.000000 0.150646 0.059558 0.986792
-13.82999992 -15.67000008 0.25999999 35 198 139 0.000000 0.000000 1.000000 1.000000 1686754297.793621 6425.000000 9.000000 -0.210475 0.107128 0.971712
