//X Y Z R G B PointSourceId ScanDirectionFlag NumberOfReturns ReturnNumber GpsTime Intensity Classification Nx Ny Nz
5.80999994 12.31000042 -0.57999998 180 17 157 97.000000 1.000000 4.000000 1.000000 -8.844074 114.000000 175.000000 0.178502 0.627047 0.758254
5.80999994 12.31000042 -0.57999998 180 17 157 97.000000 1.000000 4.000000 1.000000 -8.844074 114.000000 175.000000 0.178502 0.627047 0.758254
5.86999989 12.28999996 -0.57999998 180 17 157 97.000000 1.000000 4.000000 1.000000 -8.844074 114.000000 34.000000 0.445899 -0.058635 0.893161
5.94999981 12.25000000 -0.57999998 180 17 157 97.000000 1.000000 4.000000 1.000000 -8.844074 114.000000 34.000000 0.600325 -0.420726 0.680147
5.94000006 12.21000004 -0.55000001 180 17 157 97.000000 1.000000 4.000000 1.000000 -8.844074 114.000000 34.000000 0.579974 0.267073 0.769612
5.88999987 12.18000031 -0.56999999 180 17 157 97.000000 1.000000 4.000000 1.000000 -8.844074 114.000000 34.000000 0.835112 -0.214482 0.506543
5.90999985 12.19999981 -0.55000001 180 17 157 97.000000 1.000000 4.000000 1.000000 -8.844074 114.000000 34.000000 0.796484 -0.177502 0.578020
5.94999981 12.15999985 -0.56000000 180 17 157 97.000000 1.000000 4.000000 1.000000 -8.844074 114.000000 34.000000 0.839080 -0.243901 0.486268
6.11000013 12.39999962 -0.60000002 180 17 157 97.000000 1.000000 4.000000 1.000000 -8.844074 114.000000 34.000000 0.542152 -0.498511 0.676431
6.11999989 12.42000008 -0.58999997 180 17 157 97.000000 1.000000 4.000000 1.000000 -8.844074 114.000000 34.000000 0.668929 0.265347 0.694352
6.13999987 12.42000008 -0.61000001 180 17 157 97.000000 1.000000 4.000000 1.000000 -8.844074 114.000000 34.000000 0.273367 -0.225703 0.935055
6.07000017 12.27999973 -0.67000002 180 17 157 97.000000 1.000000 4.000000 1.000000 -8.844074 114.000000 34.000000 0.932136 -0.024428 0.361283
6.01000023 12.42000008 -0.61000001 180 17 157 97.000000 1.000000 4.000000 1.000000 -8.844074 114.000000 34.000000 0.150186 -0.225932 0.962496
5.98000002 12.34000015 -0.58999997 180 17 157 97.000000 1.000000 4.000000 1.000000 -8.844074 114.000000 34.000000 0.769792 -0.155164 0.619148
6.01000023 12.30000019 -0.61000001 180 17 157 97.000000 1.000000 4.000000 1.000000 -8.844074 114.000000 34.000000 0.531080 -0.006757 0.847295
5.98000002 12.26000023 -0.61000001 180 17 157 97.000000 1.000000 4.000000 1.000000 -8.844074 114.000000 34.000000 0.610361 -0.188156 0.769452
5.98000002 12.26000023 -0.61000001 180 17 157 97.000000 1.000000 4.000000 1.000000 -8.844074 114.000000 34.000000 0.610361 -0.188156 0.769452
6.00000000 12.27999973 -0.60000002 180 17 157 97.000000 1.000000 4.000000 1.000000 -8.844074 114.000000 34.000000 0.693106 -0.323017 0.644410
6.03000021 12.26000023 -0.69999999 180 17 157 97.000000 1.000000 4.000000 1.000000 -8.844074 114.000000 34.000000 0.849163 -0.423805 0.315137
5.98000002 12.27000046 -0.80000001 180 17 157 97.000000 1.000000 4.000000 1.000000 -8.844074 114.000000 34.000000 0.984465 -0.156321 0.079951
5.98000002 12.21000004 -0.63000000 180 17 157 97.000000 1.000000 4.000000 1.000000 -8.844074 114.000000 34.000000 0.852299 -0.271814 0.446881
6.00000000 12.22999954 -0.63999999 180 17 157 97.000000 1.000000 4.000000 1.000000 -8.844074 114.000000 34.000000 0.867697 -0.116171 0.483329
5.98999977 12.23999977 -0.76999998 180 17 157 97.000000 1.000000 4.000000 1.000000 -8.844074 114.000000 34.000000 0.933568 -0.312114 0.176171
5.94999981 12.31999969 -0.62000000 180 17 157 97.000000 1.000000 4.000000 1.000000 -8.844074 114.000000 34.000000 0.589862 0.082206 0.803309
5.94999981 12.31999969 -0.63000000 180 17 157 97.000000 1.000000 4.000000 1.000000 -8.844074 114.000000 34.000000 0.546300 -0.340028 0.765465
5.94000006 12.30000019 -0.61000001 180 17 157 97.000000 1.000000 4.000000 1.000000 -8.844074 114.000000 34.000000 0.608974 0.205047 0.766228
5.94000006 12.30000019 -0.61000001 180 17 157 97.000000 1.000000 4.000000 1.000000 -8.844074 114.000000 34.000000 0.608974 0.205047 0.766228
5.96000004 12.30000019 -0.63999999 180 17 157 97.000000 1.000000 4.000000 1.000000 -8.844074 114.000000 34.000000 0.477573 0.281566 0.832253
5.92999983 12.30000019 -0.61000001 180 17 157 97.000000 1.000000 4.000000 1.000000 -8.844074 114.000000 34.000000 0.186312 0.046281 0.981400
5.92000008 12.26000023 -0.60000002 180 17 157 97.000000 1.000000 4.000000 1.000000 -8.844074 114.000000 34.000000 0.366002 -0.180865 0.912869
5.92000008 12.27000046 -0.58999997 180 17 157 97.000000 1.000000 4.000000 1.000000 -8.844074 114.000000 34.000000 0.390373 -0.238974 0.889101
5.92999983 12.27999973 -0.62000000 180 17 157 97.000000 1.000000 4.000000 1.000000 -8.844074 114.000000 34.000000 0.699525 0.196114 0.687171
5.92999983 12.27999973 -0.60000002 180 17 157 97.000000 1.000000 4.000000 1.000000 -8.844074 114.000000 34.000000 0.801968 -0.128492 0.583384
5.88999987 12.26000023 -0.60000002 180 17 157 97.000000 1.000000 4.000000 1.000000 -8.844074 114.000000 34.000000 0.286245 0.023544 0.957867
5.92000008 12.27000046 -0.58999997 180 17 157 97.000000 1.000000 4.000000 1.000000 -8.844074 114.000000 34.000000 0.390373 -0.238974 0.889101
5.90000010 12.26000023 -0.58999997 180 17 157 97.000000 1.000000 4.000000 1.000000 -8.844074 114.000000 34.000000 0.201336 -0.284647 0.937251
5.96999979 12.28999996 -0.69000000 180 17 157 97.000000 1.000000 4.000000 1.000000 -8.844074 114.000000 34.000000 0.604187 -0.325581 0.727293
5.90999985 12.31999969 -0.68000001 180 17 157 97.000000 1.000000 4.000000 1.000000 -8.844074 114.000000 34.000000 0.180569 -0.078772 0.980403
5.92999983 12.27000046 -0.69999999 180 17 157 97.000000 1.000000 4.000000 1.000000 -8.844074 114.000000 34.000000 0.564349 -0.160173 0.809848
5.92999983 12.26000023 -0.69999999 180 17 157 97.000000 1.000000 4.000000 1.000000 -8.844074 114.000000 34.000000 0.668120 -0.021010 0.743757
5.84999990 12.38000011 -0.60000002 180 17 157 97.000000 1.000000 4.000000 1.000000 -8.844074 114.000000 175.000000 0.234367 0.566517 0.790019
5.82000017 12.36999989 -0.60000002 180 17 157 97.000000 1.000000 4.000000 1.000000 -8.844074 114.000000 175.000000 -0.101550 0.135001 0.985628
5.80999994 12.35000038 -0.60000002 180 17 157 97.000000 1.000000 4.000000 1.000000 -8.844074 114.000000 175.000000 0.299554 0.178076 0.937313
5.84000015 12.35999966 -0.60000002 180 17 157 97.000000 1.000000 4.000000 1.000000 -8.844074 114.000000 175.000000 -0.161199 0.024008 0.986630
5.86999989 12.31999969 -0.66000003 180 17 157 97.000000 1.000000 4.000000 1.000000 -8.844074 114.000000 34.000000 0.280783 0.197793 0.939169
5.86999989 12.31000042 -0.66000003 180 17 157 97.000000 1.000000 4.000000 1.000000 -8.844074 114.000000 34.000000 0.445573 0.422889 0.789069
5.86000013 12.28999996 -0.66000003 180 17 157 97.000000 1.000000 4.000000 1.000000 -8.844074 114.000000 34.000000 0.657901 -0.018159 0.752885
5.86999989 12.30000019 -0.66000003 180 17 157 97.000000 1.000000 4.000000 1.000000 -8.844074 114.000000 34.000000 0.454390 0.102695 0.884864
5.82000017 12.32999992 -0.58999997 180 17 157 97.000000 1.000000 4.000000 1.000000 -8.844074 114.000000 175.000000 0.369517 0.138046 0.918913
5.82000017 12.31999969 -0.60000002 180 17 157 97.000000 1.000000 4.000000 1.000000 -8.844074 114.000000 175.000000 0.230481 0.241522 0.942627
5.82000017 12.31000042 -0.58999997 180 17 157 97.000000 1.000000 4.000000 1.000000 -8.844074 114.000000 175.000000 0.414537 0.392301 0.821133
5.82999992 12.32999992 -0.61000001 180 17 157 97.000000 1.000000 4.000000 1.000000 -8.844074 114.000000 175.000000 0.339858 0.596784 0.726874
5.82999992 12.32999992 -0.60000002 180 17 157 97.000000 1.000000 4.000000 1.000000 -8.844074 114.000000 175.000000 0.137655 0.323013 0.936330
5.82999992 12.31999969 -0.60000002 180 17 157 97.000000 1.000000 4.000000 1.000000 -8.844074 114.000000 175.000000 0.049828 0.310464 0.949278
5.82999992 12.30000019 -0.60000002 180 17 157 97.000000 1.000000 4.000000 1.000000 -8.844074 114.000000 175.000000 0.247487 0.152198 0.956862
5.80999994 12.27999973 -0.63999999 180 17 157 97.000000 1.000000 4.000000 1.000000 -8.844074 114.000000 175.000000 0.527454 0.040147 0.848634
5.88000011 12.31000042 -0.67000002 180 17 157 97.000000 1.000000 4.000000 1.000000 -8.844074 114.000000 34.000000 0.666536 -0.123764 0.735128
5.86999989 12.31000042 -0.67000002 180 17 157 97.000000 1.000000 4.000000 1.000000 -8.844074 114.000000 34.000000 0.486966 -0.107104 0.866829
5.88000011 12.31000042 -0.67000002 180 17 157 97.000000 1.000000 4.000000 1.000000 -8.844074 114.000000 34.000000 0.666536 -0.123764 0.735128
5.88000011 12.30000019 -0.68000001 180 17 157 97.000000 1.000000 4.000000 1.000000 -8.844074 114.000000 34.000000 0.461025 -0.380707 0.801573
5.96999979 12.25000000 -0.61000001 180 17 157 97.000000 1.000000 4.000000 1.000000 -8.844074 114.000000 34.000000 0.509436 -0.204077 0.835959
5.94999981 12.18000031 -0.60000002 180 17 157 97.000000 1.000000 4.000000 1.000000 -8.844074 114.000000 34.000000 0.794751 0.070167 0.602865
5.94000006 12.18999958 -0.58999997 180 17 157 97.000000 1.000000 4.000000 1.000000 -8.844074 114.000000 34.000000 0.525389 -0.485359 0.698851
5.92000008 12.23999977 -0.60000002 180 17 157 97.000000 1.000000 4.000000 1.000000 -8.844074 114.000000 34.000000 0.534209 0.127332 0.835708
5.92999983 12.23999977 -0.61000001 180 17 157 97.000000 1.000000 4.000000 1.000000 -8.844074 114.000000 34.000000 0.588092 -0.187884 0.786669
5.88999987 12.23999977 -0.58999997 180 17 157 97.000000 1.000000 4.000000 1.000000 -8.844074 114.000000 34.000000 0.545242 0.105577 0.831603
5.92999983 12.19999981 -0.58999997 180 17 157 97.000000 1.000000 4.000000 1.000000 -8.844074 114.000000 34.000000 0.746856 0.113877 0.655163
5.92999983 12.18000031 -0.60000002 180 17 157 97.000000 1.000000 4.000000 1.000000 -8.844074 114.000000 34.000000 0.534130 0.090215 0.840575
5.92000008 12.18000031 -0.58999997 180 17 157 97.000000 1.000000 4.000000 1.000000 -8.844074 114.000000 34.000000 0.563762 -0.316413 0.762926
5.94000006 12.22000027 -0.74000001 180 17 157 97.000000 1.000000 4.000000 1.000000 -8.844074 114.000000 34.000000 -0.627078 0.714127 -0.311121
5.94999981 12.17000008 -0.61000001 180 17 157 97.000000 1.000000 4.000000 1.000000 -8.844074 114.000000 34.000000 0.716449 -0.038305 0.696587
5.94999981 12.14999962 -0.61000001 180 17 157 97.000000 1.000000 4.000000 1.000000 -8.844074 114.000000 34.000000 0.805022 -0.233317 0.545437
5.96000004 12.14999962 -0.62000000 180 17 157 97.000000 1.000000 4.000000 1.000000 -8.844074 114.000000 34.000000 0.552321 0.023415 0.833302
5.88000011 12.25000000 -0.58999997 180 17 157 97.000000 1.000000 4.000000 1.000000 -8.844074 114.000000 34.000000 0.191415 -0.116350 0.974589
5.86000013 12.17000008 -0.60000002 180 17 157 97.000000 1.000000 4.000000 1.000000 -8.844074 114.000000 34.000000 0.442815 -0.410610 0.797066
5.78999996 12.42000008 -0.25999999 180 17 157 97.000000 1.000000 4.000000 1.000000 -8.844074 114.000000 34.000000 0.282414 0.627054 0.725979
5.73000002 12.27999973 -0.27000001 180 17 157 97.000000 1.000000 4.000000 1.000000 -8.844074 114.000000 21.000000 0.291051 0.215125 0.932207
5.76000023 12.26000023 -0.28000000 180 17 157 97.000000 1.000000 4.000000 1.000000 -8.844074 114.000000 21.000000 0.337190 -0.091961 0.936934
5.75000000 12.27999973 -0.30000001 180 17 157 97.000000 1.000000 4.000000 1.000000 -8.844074 114.000000 21.000000 0.230234 0.057866 0.971413
5.76000023 12.26000023 -0.31999999 180 17 157 97.000000 1.000000 4.000000 1.000000 -8.844074 114.000000 21.000000 0.400705 0.030217 0.915709
5.67999983 12.27999973 -0.27000001 180 17 157 97.000000 1.000000 4.000000 1.000000 -8.844074 114.000000 21.000000 -0.117477 0.382835 0.916317
5.69000006 12.28999996 -0.27000001 180 17 157 97.000000 1.000000 4.000000 1.000000 -8.844074 114.000000 21.000000 0.047455 0.151625 0.987298
5.63999987 12.27000046 -0.27000001 180 17 157 97.000000 1.000000 4.000000 1.000000 -8.844074 114.000000 21.000000 0.105860 0.018553 0.994208
5.65000010 12.28999996 -0.25999999 180 17 157 97.000000 1.000000 4.000000 1.000000 -8.844074 114.000000 21.000000 -0.354787 0.205403 0.912105
5.80000019 12.38000011 -0.44999999 180 17 157 97.000000 1.000000 4.000000 1.000000 -8.844074 114.000000 34.000000 -0.122702 -0.037148 0.991748
5.80000019 12.35000038 -0.44000000 180 17 157 97.000000 1.000000 4.000000 1.000000 -8.844074 114.000000 34.000000 0.316852 0.029034 0.948031
5.80000019 12.32999992 -0.44999999 180 17 157 97.000000 1.000000 4.000000 1.000000 -8.844074 114.000000 34.000000 0.242077 0.305103 0.921038
5.76999998 12.31000042 -0.56000000 180 17 157 97.000000 1.000000 4.000000 1.000000 -8.844074 114.000000 175.000000 0.167770 0.444955 0.879698
5.78999996 12.32999992 -0.57999998 180 17 157 97.000000 1.000000 4.000000 1.000000 -8.844074 114.000000 175.000000 0.235267 0.587388 0.774355
5.78000021 12.31999969 -0.56999999 180 17 157 97.000000 1.000000 4.000000 1.000000 -8.844074 114.000000 175.000000 0.455701 0.416780 0.786531
5.73000002 12.22000027 -0.25999999 180 17 157 97.000000 1.000000 4.000000 1.000000 -8.844074 114.000000 21.000000 -0.173005 0.085898 0.981168
5.73000002 12.22000027 -0.25999999 180 17 157 97.000000 1.000000 4.000000 1.000000 -8.844074 114.000000 21.000000 -0.173005 0.085898 0.981168
5.73000002 12.22999954 -0.25000000 180 17 157 97.000000 1.000000 4.000000 1.000000 -8.844074 114.000000 21.000000 0.383402 0.272140 0.882577
5.73000002 12.22000027 -0.28000000 180 17 157 97.000000 1.000000 4.000000 1.000000 -8.844074 114.000000 21.000000 0.132552 0.440415 0.887956
5.75000000 12.22999954 -0.25999999 180 17 157 97.000000 1.000000 4.000000 1.000000 -8.844074 114.000000 21.000000 0.472101 0.112677 0.874314
5.73000002 12.23999977 -0.25999999 180 17 157 97.000000 1.000000 4.000000 1.000000 -8.844074 114.000000 21.000000 0.044439 0.305995 0.950996
5.75000000 12.22999954 -0.25999999 180 17 157 97.000000 1.000000 4.000000 1.000000 -8.844074 114.000000 21.000000 0.472101 0.112677 0.874314
5.75000000 12.23999977 -0.28000000 180 17 157 97.000000 1.000000 4.000000 1.000000 -8.844074 114.000000 21.000000 0.268118 0.279588 0.921924
5.73000002 12.23999977 -0.25999999 180 17 157 97.000000 1.000000 4.000000 1.000000 -8.844074 114.000000 21.000000 0.044439 0.305995 0.950996
5.73999977 12.22999954 -0.25999999 180 17 157 97.000000 1.000000 4.000000 1.000000 -8.844074 114.000000 21.000000 0.163658 0.240831 0.956670
5.73000002 12.22000027 -0.25000000 180 17 157 97.000000 1.000000 4.000000 1.000000 -8.844074 114.000000 21.000000 -0.197264 0.153428 0.968270
5.71999979 12.23999977 -0.30000001 180 17 157 97.000000 1.000000 4.000000 1.000000 -8.844074 114.000000 21.000000 0.477837 0.140882 0.867078
5.76000023 12.23999977 -0.28999999 180 17 157 97.000000 1.000000 4.000000 1.000000 -8.844074 114.000000 21.000000 -0.026698 0.334363 0.942066
5.75000000 12.23999977 -0.28999999 180 17 157 97.000000 1.000000 4.000000 1.000000 -8.844074 114.000000 21.000000 -0.132294 0.374600 0.917700
5.76000023 12.25000000 -0.28999999 180 17 157 97.000000 1.000000 4.000000 1.000000 -8.844074 114.000000 21.000000 0.129953 0.157182 0.978982
5.71999979 12.21000004 -0.25000000 180 17 157 97.000000 1.000000 4.000000 1.000000 -8.844074 114.000000 21.000000 -0.009190 0.437189 0.899323
5.75000000 12.18999958 -0.30000001 180 17 157 97.000000 1.000000 4.000000 1.000000 -8.844074 114.000000 21.000000 0.465694 0.218529 0.857540
5.67999983 12.22999954 -0.27000001 180 17 157 97.000000 1.000000 4.000000 1.000000 -8.844074 114.000000 21.000000 0.129333 -0.009949 0.991551
5.71000004 12.22000027 -0.28000000 180 17 157 97.000000 1.000000 4.000000 1.000000 -8.844074 114.000000 21.000000 0.384957 0.185990 0.904000
5.67999983 12.22999954 -0.27000001 180 17 157 97.000000 1.000000 4.000000 1.000000 -8.844074 114.000000 21.000000 0.129333 -0.009949 0.991551
5.69999981 12.19999981 -0.25999999 180 17 157 97.000000 1.000000 4.000000 1.000000 -8.844074 114.000000 21.000000 -0.199733 0.079648 0.976608
5.67999983 12.21000004 -0.25999999 180 17 157 97.000000 1.000000 4.000000 1.000000 -8.844074 114.000000 21.000000 -0.033890 0.019512 0.999235
5.71000004 12.21000004 -0.28000000 180 17 157 97.000000 1.000000 4.000000 1.000000 -8.844074 114.000000 21.000000 0.139023 0.445735 0.884304
5.67999983 12.21000004 -0.25999999 180 17 157 97.000000 1.000000 4.000000 1.000000 -8.844074 114.000000 21.000000 -0.033890 0.019512 0.999235
5.69999981 12.19999981 -0.25999999 180 17 157 97.000000 1.000000 4.000000 1.000000 -8.844074 114.000000 21.000000 -0.199733 0.079648 0.976608
5.69000006 12.21000004 -0.27000001 180 17 157 97.000000 1.000000 4.000000 1.000000 -8.844074 114.000000 21.000000 0.033735 0.085970 0.995726
5.69000006 12.18999958 -0.30000001 180 17 157 97.000000 1.000000 4.000000 1.000000 -8.844074 114.000000 21.000000 0.211081 0.093675 0.972970
5.65999985 12.23999977 -0.25999999 180 17 157 97.000000 1.000000 4.000000 1.000000 -8.844074 114.000000 21.000000 0.303023 0.093137 0.948421
5.65999985 12.25000000 -0.25000000 180 17 157 97.000000 1.000000 4.000000 1.000000 -8.844074 114.000000 21.000000 -0.073826 0.687593 0.722334
5.65000010 12.22999954 -0.25000000 180 17 157 97.000000 1.000000 4.000000 1.000000 -8.844074 114.000000 21.000000 0.351522 0.109936 0.929702
5.67000008 12.25000000 -0.27000001 180 17 157 97.000000 1.000000 4.000000 1.000000 -8.844074 114.000000 21.000000 0.131340 0.202748 0.970383
5.65000010 12.25000000 -0.25000000 180 17 157 97.000000 1.000000 4.000000 1.000000 -8.844074 114.000000 21.000000 -0.009143 0.419289 0.907807
5.63999987 12.22999954 -0.27000001 180 17 157 97.000000 1.000000 4.000000 1.000000 -8.844074 114.000000 21.000000 0.242065 0.106304 0.964419
5.67000008 12.19999981 -0.25999999 180 17 157 97.000000 1.000000 4.000000 1.000000 -8.844074 114.000000 21.000000 0.369195 0.153012 0.916669
5.67000008 12.21000004 -0.27000001 180 17 157 97.000000 1.000000 4.000000 1.000000 -8.844074 114.000000 21.000000 0.104364 -0.052743 0.993140
5.69999981 12.15999985 -0.56999999 180 17 157 97.000000 1.000000 4.000000 1.000000 -8.844074 114.000000 33.000000 0.509768 0.348958 0.786362
5.65999985 12.17000008 -0.57999998 180 17 157 97.000000 1.000000 4.000000 1.000000 -8.844074 114.000000 33.000000 0.069495 0.203607 0.976583
5.65000010 12.13000011 -0.57999998 180 17 157 97.000000 1.000000 4.000000 1.000000 -8.844074 114.000000 33.000000 0.261913 0.636528 0.725420
5.63000011 12.27999973 -0.25999999 180 17 157 97.000000 1.000000 4.000000 1.000000 -8.844074 114.000000 21.000000 0.085902 0.265398 0.960305
5.63000011 12.21000004 -0.25000000 180 17 157 97.000000 1.000000 4.000000 1.000000 -8.844074 114.000000 21.000000 -0.382259 0.288583 0.877837
5.63000011 12.21000004 -0.25000000 180 17 157 97.000000 1.000000 4.000000 1.000000 -8.844074 114.000000 21.000000 -0.382259 0.288583 0.877837
5.61999989 12.22000027 -0.25999999 180 17 157 97.000000 1.000000 4.000000 1.000000 -8.844074 114.000000 21.000000 0.012330 0.571302 0.820647
5.80000019 12.35999966 -0.60000002 180 17 157 97.000000 1.000000 4.000000 1.000000 -8.844074 114.000000 175.000000 0.217017 0.284223 0.933874
5.80000019 12.35999966 -0.60000002 180 17 157 97.000000 1.000000 4.000000 1.000000 -8.844074 114.000000 175.000000 0.217017 0.284223 0.933874
5.80000019 12.35000038 -0.60000002 180 17 157 97.000000 1.000000 4.000000 1.000000 -8.844074 114.000000 175.000000 0.284965 0.256325 0.923630
5.80000019 12.35000038 -0.60000002 180 17 157 97.000000 1.000000 4.000000 1.000000 -8.844074 114.000000 175.000000 0.284965 0.256325 0.923630
5.76999998 12.36999989 -0.63999999 180 17 157 97.000000 1.000000 4.000000 1.000000 -8.844074 114.000000 175.000000 -0.106708 0.594936 0.796659
5.78000021 12.35000038 -0.63000000 180 17 157 97.000000 1.000000 4.000000 1.000000 -8.844074 114.000000 175.000000 -0.149820 0.472734 0.868376
5.73999977 12.39000034 -0.66000003 180 17 157 97.000000 1.000000 4.000000 1.000000 -8.844074 114.000000 175.000000 -0.431909 0.534508 0.726468
5.76000023 12.38000011 -0.64999998 180 17 157 97.000000 1.000000 4.000000 1.000000 -8.844074 114.000000 175.000000 -0.491964 0.391298 0.777725
5.76000023 12.38000011 -0.64999998 180 17 157 97.000000 1.000000 4.000000 1.000000 -8.844074 114.000000 175.000000 -0.491964 0.391298 0.777725
5.73999977 12.36999989 -0.68000001 180 17 157 97.000000 1.000000 4.000000 1.000000 -8.844074 114.000000 175.000000 0.677491 -0.409145 -0.611233
5.80000019 12.31999969 -0.58999997 180 17 157 97.000000 1.000000 4.000000 1.000000 -8.844074 114.000000 175.000000 0.431282 0.377173 0.819595
5.76000023 12.30000019 -0.67000002 180 17 157 97.000000 1.000000 4.000000 1.000000 -8.844074 114.000000 175.000000 -0.023972 0.156387 0.987405
5.78000021 12.31999969 -0.67000002 180 17 157 97.000000 1.000000 4.000000 1.000000 -8.844074 114.000000 175.000000 -0.182486 0.056058 0.981609
5.78000021 12.28999996 -0.67000002 180 17 157 97.000000 1.000000 4.000000 1.000000 -8.844074 114.000000 175.000000 0.082154 -0.042720 0.995704
5.67999983 12.18999958 -0.69999999 180 17 157 97.000000 1.000000 4.000000 1.000000 -8.844074 114.000000 175.000000 0.063723 0.556510 0.828393
5.69000006 12.18999958 -0.70999998 180 17 157 97.000000 1.000000 4.000000 1.000000 -8.844074 114.000000 175.000000 -0.161716 0.520754 0.838250
5.67999983 12.18000031 -0.69999999 180 17 157 97.000000 1.000000 4.000000 1.000000 -8.844074 114.000000 175.000000 -0.050006 0.681516 0.730093
5.71000004 12.19999981 -0.69999999 180 17 157 97.000000 1.000000 4.000000 1.000000 -8.844074 114.000000 175.000000 -0.196638 0.553331 0.809418
5.69999981 12.18000031 -0.69999999 180 17 157 97.000000 1.000000 4.000000 1.000000 -8.844074 114.000000 175.000000 -0.345977 0.342929 0.873326
5.67999983 12.18999958 -0.70999998 180 17 157 97.000000 1.000000 4.000000 1.000000 -8.844074 114.000000 175.000000 0.037399 0.544364 0.838015
5.69999981 12.18000031 -0.69999999 180 17 157 97.000000 1.000000 4.000000 1.000000 -8.844074 114.000000 175.000000 -0.345977 0.342929 0.873326
5.69999981 12.19999981 -0.70999998 180 17 157 97.000000 1.000000 4.000000 1.000000 -8.844074 114.000000 175.000000 -0.333100 0.369941 0.867288
5.65999985 12.10000038 -0.58999997 180 17 157 97.000000 1.000000 4.000000 1.000000 -8.844074 114.000000 33.000000 0.231601 -0.094919 0.968169
5.63000011 12.22000027 -0.63000000 180 17 157 97.000000 1.000000 4.000000 1.000000 -8.844074 114.000000 175.000000 0.023855 0.666523 0.745103
6.40999985 12.06999969 -0.68000001 180 17 157 97.000000 1.000000 4.000000 1.000000 -8.844074 114.000000 34.000000 0.754774 -0.309281 0.578500
6.40000010 12.06999969 -0.68000001 180 17 157 97.000000 1.000000 4.000000 1.000000 -8.844074 114.000000 34.000000 0.799171 -0.312995 0.513185
6.40999985 12.09000015 -0.67000002 180 17 157 97.000000 1.000000 4.000000 1.000000 -8.844074 114.000000 34.000000 0.795377 -0.350478 0.494510
6.40999985 12.07999992 -0.68000001 180 17 157 97.000000 1.000000 4.000000 1.000000 -8.844074 114.000000 34.000000 0.893665 -0.341651 0.290926
6.40000010 12.07999992 -0.69000000 180 17 157 97.000000 1.000000 4.000000 1.000000 -8.844074 114.000000 34.000000 0.891817 -0.197046 0.407229
6.34000015 12.06000042 -0.64999998 180 17 157 97.000000 1.000000 4.000000 1.000000 -8.844074 114.000000 34.000000 0.956924 -0.285176 -0.054500
6.34999990 12.09000015 -0.63000000 180 17 157 97.000000 1.000000 4.000000 1.000000 -8.844074 114.000000 34.000000 0.728826 -0.189525 0.657946
6.32000017 12.05000019 -0.63000000 180 17 157 97.000000 1.000000 4.000000 1.000000 -8.844074 114.000000 34.000000 0.844418 -0.530413 -0.074965
6.36999989 12.06000042 -0.67000002 180 17 157 97.000000 1.000000 4.000000 1.000000 -8.844074 114.000000 34.000000 0.882937 -0.268329 0.385255
6.36999989 12.06000042 -0.68000001 180 17 157 97.000000 1.000000 4.000000 1.000000 -8.844074 114.000000 34.000000 0.927836 -0.363884 0.081907
6.36999989 12.06999969 -0.68000001 180 17 157 97.000000 1.000000 4.000000 1.000000 -8.844074 114.000000 34.000000 0.970852 -0.128514 0.202314
6.32999992 12.05000019 -0.67000002 180 17 157 97.000000 1.000000 4.000000 1.000000 -8.844074 114.000000 34.000000 0.971272 -0.230200 0.060320
6.32000017 12.00000000 -0.67000002 180 17 157 97.000000 1.000000 4.000000 1.000000 -8.844074 114.000000 34.000000 0.862612 -0.181992 0.471995
6.36000013 12.00000000 -0.67000002 180 17 157 97.000000 1.000000 4.000000 1.000000 -8.844074 114.000000 34.000000 0.911682 -0.403531 0.077445
6.32000017 12.00000000 -0.67000002 180 17 157 97.000000 1.000000 4.000000 1.000000 -8.844074 114.000000 34.000000 0.862612 -0.181992 0.471995
6.26999998 12.06000042 -0.60000002 180 17 157 97.000000 1.000000 4.000000 1.000000 -8.844074 114.000000 34.000000 0.865162 -0.310846 0.393534
6.30999994 12.06000042 -0.64999998 180 17 157 97.000000 1.000000 4.000000 1.000000 -8.844074 114.000000 34.000000 0.854708 -0.080526 0.512825
6.30999994 12.09000015 -0.64999998 180 17 157 97.000000 1.000000 4.000000 1.000000 -8.844074 114.000000 34.000000 0.753089 -0.267941 0.600886
6.30000019 12.01000023 -0.61000001 180 17 157 97.000000 1.000000 4.000000 1.000000 -8.844074 114.000000 34.000000 0.766522 -0.145504 0.625518
6.23000002 12.06000042 -0.63999999 180 17 157 97.000000 1.000000 4.000000 1.000000 -8.844074 114.000000 34.000000 0.752617 -0.278452 0.596684
6.26999998 12.06999969 -0.69000000 180 17 157 97.000000 1.000000 4.000000 1.000000 -8.844074 114.000000 34.000000 0.930502 -0.203503 0.304553
6.28000021 12.00000000 -0.58999997 180 17 157 97.000000 1.000000 4.000000 1.000000 -8.844074 114.000000 34.000000 0.658682 -0.369585 0.655397
6.28999996 11.94999981 -0.61000001 180 17 157 97.000000 1.000000 4.000000 1.000000 -8.844074 114.000000 34.000000 -0.637809 0.763904 -0.098237
6.28999996 11.93000031 -0.63000000 180 17 157 97.000000 1.000000 4.000000 1.000000 -8.844074 114.000000 34.000000 -0.631678 0.641678 -0.435008
6.28000021 11.93999958 -0.63000000 180 17 157 97.000000 1.000000 4.000000 1.000000 -8.844074 114.000000 34.000000 0.736030 -0.628857 0.250597
6.30000019 11.94999981 -0.63000000 180 17 157 97.000000 1.000000 4.000000 1.000000 -8.844074 114.000000 34.000000 -0.635360 0.611890 -0.471072
6.09999990 12.06999969 -0.66000003 180 17 157 97.000000 1.000000 4.000000 1.000000 -8.844074 114.000000 34.000000 0.793466 -0.217240 0.568523
5.63999987 12.09000015 -0.61000001 180 17 157 97.000000 1.000000 4.000000 1.000000 -8.844074 114.000000 33.000000 0.346167 0.367707 0.863111
5.84999990 12.46000004 -0.19000000 180 17 157 97.000000 1.000000 4.000000 1.000000 -8.844074 114.000000 34.000000 -0.308431 0.369206 0.876674
5.80999994 12.44999981 -0.19000000 180 17 157 97.000000 1.000000 4.000000 1.000000 -8.844074 114.000000 34.000000 -0.251685 0.357658 0.899297
5.75000000 12.43000031 -0.20999999 180 17 157 97.000000 1.000000 4.000000 1.000000 -8.844074 114.000000 34.000000 -0.249695 0.179510 0.951540
5.76000023 12.39000034 -0.22000000 180 17 157 97.000000 1.000000 4.000000 1.000000 -8.844074 114.000000 34.000000 0.097536 0.150518 0.983784
5.71999979 12.34000015 -0.23000000 180 17 157 97.000000 1.000000 4.000000 1.000000 -8.844074 114.000000 21.000000 -0.123599 0.118799 0.985195
5.65999985 12.27000046 -0.23000000 180 17 157 97.000000 1.000000 4.000000 1.000000 -8.844074 114.000000 21.000000 -0.363249 0.314613 0.876966
5.67999983 12.19999981 -0.18000001 180 17 157 97.000000 1.000000 4.000000 1.000000 -8.844074 114.000000 21.000000 -0.226847 0.494800 0.838876
5.69999981 12.19999981 -0.23000000 180 17 157 97.000000 1.000000 4.000000 1.000000 -8.844074 114.000000 21.000000 -0.042968 0.091445 0.994883
5.65000010 12.23999977 -0.23999999 180 17 157 97.000000 1.000000 4.000000 1.000000 -8.844074 114.000000 21.000000 -0.001125 0.163122 0.986605
5.65000010 12.22000027 -0.23999999 180 17 157 97.000000 1.000000 4.000000 1.000000 -8.844074 114.000000 21.000000 -0.005984 0.250127 0.968195
5.67000008 12.18999958 -0.19000000 180 17 157 97.000000 1.000000 4.000000 1.000000 -8.844074 114.000000 21.000000 0.494876 0.240543 0.835007
5.65999985 12.18999958 -0.17000000 180 17 157 97.000000 1.000000 4.000000 1.000000 -8.844074 114.000000 21.000000 0.070775 0.048998 0.996288
5.65000010 12.17000008 -0.17000000 180 17 157 97.000000 1.000000 4.000000 1.000000 -8.844074 114.000000 21.000000 0.010901 -0.004955 0.999928
6.23000002 12.82999992 -0.74000001 180 17 157 97.000000 1.000000 4.000000 1.000000 -8.844074 114.000000 95.000000 0.191037 0.130310 0.972895
6.15999985 12.86999989 -0.69999999 180 17 157 97.000000 1.000000 4.000000 1.000000 -8.844074 114.000000 95.000000 0.068227 -0.081649 0.994323
6.15999985 12.85999966 -0.69999999 180 17 157 97.000000 1.000000 4.000000 1.000000 -8.844074 114.000000 95.000000 -0.104293 -0.001075 0.994546
6.19000006 12.86999989 -0.69999999 180 17 157 97.000000 1.000000 4.000000 1.000000 -8.844074 114.000000 95.000000 0.224577 -0.075686 0.971513
6.17000008 12.88000011 -0.69999999 180 17 157 97.000000 1.000000 4.000000 1.000000 -8.844074 114.000000 95.000000 0.333591 0.055815 0.941064
6.17000008 12.85999966 -0.68000001 180 17 157 97.000000 1.000000 4.000000 1.000000 -8.844074 114.000000 95.000000 0.345253 0.509047 0.788461
6.19000006 12.85000038 -0.69999999 180 17 157 97.000000 1.000000 4.000000 1.000000 -8.844074 114.000000 95.000000 0.414733 -0.092316 0.905248
6.19000006 12.81999969 -0.72000003 180 17 157 97.000000 1.000000 4.000000 1.000000 -8.844074 114.000000 95.000000 0.383087 0.274921 0.881852
6.19000006 12.85000038 -0.74000001 180 17 157 97.000000 1.000000 4.000000 1.000000 -8.844074 114.000000 95.000000 0.430143 0.163657 0.887803
6.21999979 12.81000042 -0.74000001 180 17 157 97.000000 1.000000 4.000000 1.000000 -8.844074 114.000000 95.000000 0.379127 0.251265 0.890578
6.19999981 12.84000015 -0.74000001 180 17 157 97.000000 1.000000 4.000000 1.000000 -8.844074 114.000000 95.000000 0.207555 0.106922 0.972362
6.19000006 12.77999973 -0.72000003 180 17 157 97.000000 1.000000 4.000000 1.000000 -8.844074 114.000000 95.000000 0.613248 0.103916 0.783025
6.17000008 12.81000042 -0.69999999 180 17 157 97.000000 1.000000 4.000000 1.000000 -8.844074 114.000000 95.000000 0.349902 0.415803 0.839450
6.17000008 12.81999969 -0.70999998 180 17 157 97.000000 1.000000 4.000000 1.000000 -8.844074 114.000000 95.000000 0.330507 0.440154 0.834883
6.17000008 12.80000019 -0.69000000 180 17 157 97.000000 1.000000 4.000000 1.000000 -8.844074 114.000000 95.000000 0.262365 0.085749 0.961151
6.17999983 12.80000019 -0.69999999 180 17 157 97.000000 1.000000 4.000000 1.000000 -8.844074 114.000000 95.000000 0.363518 0.226287 0.903686
6.17999983 12.77999973 -0.69999999 180 17 157 97.000000 1.000000 4.000000 1.000000 -8.844074 114.000000 95.000000 0.429143 0.038770 0.902404
6.17999983 12.77000046 -0.70999998 180 17 157 97.000000 1.000000 4.000000 1.000000 -8.844074 114.000000 95.000000 0.348121 0.201996 0.915429
6.17999983 12.50000000 -0.56999999 180 17 157 97.000000 1.000000 4.000000 1.000000 -8.844074 114.000000 34.000000 0.732531 0.182749 0.655745
6.19000006 12.76000023 -0.69000000 180 17 157 97.000000 1.000000 4.000000 1.000000 -8.844074 114.000000 95.000000 0.373457 0.312484 0.873432
6.15000010 12.72999954 -0.69000000 180 17 157 97.000000 1.000000 4.000000 1.000000 -8.844074 114.000000 95.000000 0.514633 0.051325 0.855873
6.17999983 12.76000023 -0.67000002 180 17 157 97.000000 1.000000 4.000000 1.000000 -8.844074 114.000000 95.000000 0.372572 0.153247 0.915262
6.17999983 12.76000023 -0.69999999 180 17 157 97.000000 1.000000 4.000000 1.000000 -8.844074 114.000000 95.000000 0.240751 0.452734 0.858528
6.15999985 12.71000004 -0.67000002 180 17 157 97.000000 1.000000 4.000000 1.000000 -8.844074 114.000000 95.000000 0.409215 0.527542 0.744475
6.17999983 12.72000027 -0.69999999 180 17 157 97.000000 1.000000 4.000000 1.000000 -8.844074 114.000000 95.000000 0.471258 0.458122 0.753684
6.17000008 12.72000027 -0.67000002 180 17 157 97.000000 1.000000 4.000000 1.000000 -8.844074 114.000000 95.000000 0.076246 0.236238 0.968699
6.17999983 12.64000034 -0.61000001 180 17 157 97.000000 1.000000 4.000000 1.000000 -8.844074 114.000000 34.000000 0.121529 0.297813 0.946857
6.19000006 12.60999966 -0.61000001 180 17 157 97.000000 1.000000 4.000000 1.000000 -8.844074 114.000000 34.000000 0.355742 -0.064801 0.932335
6.15999985 12.68000031 -0.66000003 180 17 157 97.000000 1.000000 4.000000 1.000000 -8.844074 114.000000 95.000000 0.512499 0.430104 0.743206
6.15000010 12.60999966 -0.58999997 180 17 157 97.000000 1.000000 4.000000 1.000000 -8.844074 114.000000 34.000000 0.124983 0.162106 0.978826
6.15000010 12.63000011 -0.61000001 180 17 157 97.000000 1.000000 4.000000 1.000000 -8.844074 114.000000 34.000000 0.102962 0.388509 0.915674
6.19000006 12.61999989 -0.61000001 180 17 157 97.000000 1.000000 4.000000 1.000000 -8.844074 114.000000 34.000000 0.562402 0.150670 0.813021
6.26000023 12.56999969 -0.63999999 180 17 157 97.000000 1.000000 4.000000 1.000000 -8.844074 114.000000 34.000000 0.563410 0.200018 0.801600
6.26000023 12.56000042 -0.63999999 180 17 157 97.000000 1.000000 4.000000 1.000000 -8.844074 114.000000 34.000000 0.629232 0.175210 0.757211
6.23999977 12.56000042 -0.63000000 180 17 157 97.000000 1.000000 4.000000 1.000000 -8.844074 114.000000 34.000000 0.427438 0.280363 0.859473
6.26000023 12.53999996 -0.63000000 180 17 157 97.000000 1.000000 4.000000 1.000000 -8.844074 114.000000 34.000000 0.811097 -0.052192 0.582579
6.23000002 12.57999992 -0.63000000 180 17 157 97.000000 1.000000 4.000000 1.000000 -8.844074 114.000000 34.000000 0.370192 0.184381 0.910473
6.25000000 12.53999996 -0.62000000 180 17 157 97.000000 1.000000 4.000000 1.000000 -8.844074 114.000000 34.000000 0.377128 -0.129420 0.917074
6.23999977 12.50000000 -0.64999998 180 17 157 97.000000 1.000000 4.000000 1.000000 -8.844074 114.000000 34.000000 0.707059 0.064802 0.704179
6.25000000 12.46000004 -0.64999998 180 17 157 97.000000 1.000000 4.000000 1.000000 -8.844074 114.000000 34.000000 0.491704 -0.042459 0.869727
6.25000000 12.46000004 -0.64999998 180 17 157 97.000000 1.000000 4.000000 1.000000 -8.844074 114.000000 34.000000 0.491704 -0.042459 0.869727
6.23999977 12.46000004 -0.63999999 180 17 157 97.000000 1.000000 4.000000 1.000000 -8.844074 114.000000 34.000000 0.734484 0.212736 0.644420
6.25000000 12.47000027 -0.63999999 180 17 157 97.000000 1.000000 4.000000 1.000000 -8.844074 114.000000 34.000000 0.508718 -0.248947 0.824155
6.23000002 12.44999981 -0.63999999 180 17 157 97.000000 1.000000 4.000000 1.000000 -8.844074 114.000000 34.000000 0.512514 -0.054168 0.856968
6.26000023 12.43999958 -0.63000000 180 17 157 97.000000 1.000000 4.000000 1.000000 -8.844074 114.000000 34.000000 0.784424 0.151485 0.601441
6.19999981 12.56000042 -0.61000001 180 17 157 97.000000 1.000000 4.000000 1.000000 -8.844074 114.000000 34.000000 0.739373 0.061734 0.670460
6.21000004 12.56999969 -0.63000000 180 17 157 97.000000 1.000000 4.000000 1.000000 -8.844074 114.000000 34.000000 0.326290 -0.247981 0.912162
6.19000006 12.53999996 -0.60000002 180 17 157 97.000000 1.000000 4.000000 1.000000 -8.844074 114.000000 34.000000 0.700124 0.006932 0.713988
6.21000004 12.52999973 -0.62000000 180 17 157 97.000000 1.000000 4.000000 1.000000 -8.844074 114.000000 34.000000 0.318778 -0.243771 0.915946
6.21000004 12.52000046 -0.62000000 180 17 157 97.000000 1.000000 4.000000 1.000000 -8.844074 114.000000 34.000000 0.736769 -0.058884 0.673576
6.19000006 12.55000019 -0.58999997 180 17 157 97.000000 1.000000 4.000000 1.000000 -8.844074 114.000000 34.000000 0.711024 0.189709 0.677093
6.21999979 12.52000046 -0.63999999 180 17 157 97.000000 1.000000 4.000000 1.000000 -8.844074 114.000000 34.000000 0.807544 -0.112851 0.578911
6.15000010 12.56999969 -0.60000002 180 17 157 97.000000 1.000000 4.000000 1.000000 -8.844074 114.000000 34.000000 0.435935 0.022526 0.899696
6.15000010 12.57999992 -0.58999997 180 17 157 97.000000 1.000000 4.000000 1.000000 -8.844074 114.000000 34.000000 0.470926 -0.112396 0.874983
6.17999983 12.56999969 -0.61000001 180 17 157 97.000000 1.000000 4.000000 1.000000 -8.844074 114.000000 34.000000 0.519702 -0.228424 0.823245
6.15999985 12.52999973 -0.60000002 180 17 157 97.000000 1.000000 4.000000 1.000000 -8.844074 114.000000 34.000000 0.164295 0.169389 0.971758
6.17000008 12.52999973 -0.60000002 180 17 157 97.000000 1.000000 4.000000 1.000000 -8.844074 114.000000 34.000000 0.383310 0.349169 0.855076
6.17999983 12.52999973 -0.63000000 180 17 157 97.000000 1.000000 4.000000 1.000000 -8.844074 114.000000 34.000000 0.501167 -0.381147 0.776890
6.21000004 12.51000023 -0.62000000 180 17 157 97.000000 1.000000 4.000000 1.000000 -8.844074 114.000000 34.000000 0.880306 -0.056307 0.471053
6.19999981 12.51000023 -0.60000002 180 17 157 97.000000 1.000000 4.000000 1.000000 -8.844074 114.000000 34.000000 0.392100 -0.112226 0.913052
6.21000004 12.43999958 -0.62000000 180 17 157 97.000000 1.000000 4.000000 1.000000 -8.844074 114.000000 34.000000 0.627367 -0.026548 0.778271
6.21000004 12.43999958 -0.62000000 180 17 157 97.000000 1.000000 4.000000 1.000000 -8.844074 114.000000 34.000000 0.627367 -0.026548 0.778271
6.19999981 12.43000031 -0.61000001 180 17 157 97.000000 1.000000 4.000000 1.000000 -8.844074 114.000000 34.000000 0.727349 -0.189141 0.659689
6.17999983 12.48999977 -0.64999998 180 17 157 97.000000 1.000000 4.000000 1.000000 -8.844074 114.000000 34.000000 0.436852 -0.366956 0.821282
6.17999983 12.43000031 -0.61000001 180 17 157 97.000000 1.000000 4.000000 1.000000 -8.844074 114.000000 34.000000 0.491839 0.083148 0.866707
6.15000010 12.30000019 -0.56000000 180 17 157 97.000000 1.000000 4.000000 1.000000 -8.844074 114.000000 34.000000 0.836958 -0.165013 0.521798
6.15999985 12.25000000 -0.56000000 180 17 157 97.000000 1.000000 4.000000 1.000000 -8.844074 114.000000 34.000000 0.821454 0.109043 0.559752
6.17000008 12.22999954 -0.56999999 180 17 157 97.000000 1.000000 4.000000 1.000000 -8.844074 114.000000 34.000000 0.877715 -0.253562 0.406599
6.23000002 12.38000011 -0.62000000 180 17 157 97.000000 1.000000 4.000000 1.000000 -8.844074 114.000000 34.000000 0.852635 0.116859 0.509272
6.23000002 12.35999966 -0.60000002 180 17 157 97.000000 1.000000 4.000000 1.000000 -8.844074 114.000000 34.000000 0.606349 0.094515 0.789562
6.23000002 12.39999962 -0.64999998 180 17 157 97.000000 1.000000 4.000000 1.000000 -8.844074 114.000000 34.000000 0.763798 -0.298184 0.572450
6.23000002 12.32999992 -0.63000000 180 17 157 97.000000 1.000000 4.000000 1.000000 -8.844074 114.000000 34.000000 0.847987 -0.285752 0.446390
6.21999979 12.27000046 -0.62000000 180 17 157 97.000000 1.000000 4.000000 1.000000 -8.844074 114.000000 34.000000 0.947478 -0.079719 0.309727
6.17000008 12.34000015 -0.58999997 180 17 157 97.000000 1.000000 4.000000 1.000000 -8.844074 114.000000 34.000000 0.682245 0.035313 0.730270
6.17000008 12.32999992 -0.58999997 180 17 157 97.000000 1.000000 4.000000 1.000000 -8.844074 114.000000 34.000000 0.733532 0.219592 0.643203
6.15999985 12.34000015 -0.58999997 180 17 157 97.000000 1.000000 4.000000 1.000000 -8.844074 114.000000 34.000000 0.686332 0.041208 0.726120
6.17000008 12.26000023 -0.61000001 180 17 157 97.000000 1.000000 4.000000 1.000000 -8.844074 114.000000 34.000000 0.878098 -0.042334 0.476604
6.28999996 12.21000004 -0.68000001 180 17 157 97.000000 1.000000 4.000000 1.000000 -8.844074 114.000000 34.000000 0.976746 -0.203641 0.067067
6.28999996 12.14999962 -0.64999998 180 17 157 97.000000 1.000000 4.000000 1.000000 -8.844074 114.000000 34.000000 0.980754 -0.093579 0.171359
6.28999996 12.14999962 -0.64999998 180 17 157 97.000000 1.000000 4.000000 1.000000 -8.844074 114.000000 34.000000 0.980754 -0.093579 0.171359
6.21999979 12.18999958 -0.61000001 180 17 157 97.000000 1.000000 4.000000 1.000000 -8.844074 114.000000 34.000000 0.949333 -0.251254 0.188780
6.19999981 12.22000027 -0.62000000 180 17 157 97.000000 1.000000 4.000000 1.000000 -8.844074 114.000000 34.000000 0.961227 -0.074917 0.265385
6.21000004 12.18999958 -0.60000002 180 17 157 97.000000 1.000000 4.000000 1.000000 -8.844074 114.000000 34.000000 0.934707 -0.084004 0.345348
6.15999985 12.22999954 -0.61000001 180 17 157 97.000000 1.000000 4.000000 1.000000 -8.844074 114.000000 34.000000 0.915701 -0.302341 0.264729
6.21999979 12.21000004 -0.62000000 180 17 157 97.000000 1.000000 4.000000 1.000000 -8.844074 114.000000 34.000000 0.742825 -0.133021 0.656137
6.19000006 12.13000011 -0.61000001 180 17 157 97.000000 1.000000 4.000000 1.000000 -8.844074 114.000000 34.000000 0.912495 0.024946 0.408325
6.21999979 12.10999966 -0.61000001 180 17 157 97.000000 1.000000 4.000000 1.000000 -8.844074 114.000000 34.000000 0.752288 -0.264489 0.603414
6.19000006 12.13000011 -0.61000001 180 17 157 97.000000 1.000000 4.000000 1.000000 -8.844074 114.000000 34.000000 0.912495 0.024946 0.408325
6.19000006 12.10999966 -0.62000000 180 17 157 97.000000 1.000000 4.000000 1.000000 -8.844074 114.000000 34.000000 0.933508 -0.246401 0.260481
5.90999985 12.78999996 -0.56999999 180 17 157 97.000000 1.000000 4.000000 1.000000 -8.844074 114.000000 95.000000 -0.193684 0.400474 0.895605
5.88999987 12.77000046 -0.57999998 180 17 157 97.000000 1.000000 4.000000 1.000000 -8.844074 114.000000 95.000000 -0.017060 0.421243 0.906787
5.94999981 12.84000015 -0.55000001 180 17 157 97.000000 1.000000 4.000000 1.000000 -8.844074 114.000000 95.000000 -0.175177 0.142410 0.974183
5.90000010 12.81999969 -0.57999998 180 17 157 97.000000 1.000000 4.000000 1.000000 -8.844074 114.000000 95.000000 0.233846 -0.676427 -0.698400
6.11999989 12.85999966 -0.68000001 180 17 157 97.000000 1.000000 4.000000 1.000000 -8.844074 114.000000 95.000000 -0.076025 0.446472 0.891562
6.11000013 12.88000011 -0.68000001 180 17 157 97.000000 1.000000 4.000000 1.000000 -8.844074 114.000000 95.000000 0.174001 0.109830 0.978602
6.05999994 12.77000046 -0.63000000 180 17 157 97.000000 1.000000 4.000000 1.000000 -8.844074 114.000000 95.000000 0.222137 0.607381 0.762721
6.09999990 12.78999996 -0.66000003 180 17 157 97.000000 1.000000 4.000000 1.000000 -8.844074 114.000000 95.000000 0.369558 0.375795 0.849827
6.13999987 12.77000046 -0.64999998 180 17 157 97.000000 1.000000 4.000000 1.000000 -8.844074 114.000000 95.000000 0.176986 0.258049 0.949782
6.13999987 12.78999996 -0.68000001 180 17 157 97.000000 1.000000 4.000000 1.000000 -8.844074 114.000000 95.000000 0.497489 0.387296 0.776213
6.09999990 12.81000042 -0.67000002 180 17 157 97.000000 1.000000 4.000000 1.000000 -8.844074 114.000000 95.000000 0.320438 0.267763 0.908638
6.09999990 12.84000015 -0.67000002 180 17 157 97.000000 1.000000 4.000000 1.000000 -8.844074 114.000000 95.000000 0.169532 0.377530 0.910346
6.11999989 12.84000015 -0.68000001 180 17 157 97.000000 1.000000 4.000000 1.000000 -8.844074 114.000000 95.000000 0.241736 0.172287 0.954924
5.98999977 12.86999989 -0.66000003 180 17 157 97.000000 1.000000 4.000000 1.000000 -8.844074 114.000000 95.000000 0.091690 0.624368 0.775730
5.98999977 12.86999989 -0.66000003 180 17 157 97.000000 1.000000 4.000000 1.000000 -8.844074 114.000000 95.000000 0.091690 0.624368 0.775730
5.98999977 12.81000042 -0.63999999 180 17 157 97.000000 1.000000 4.000000 1.000000 -8.844074 114.000000 95.000000 -0.084513 0.238402 0.967482
6.00000000 12.77000046 -0.61000001 180 17 157 97.000000 1.000000 4.000000 1.000000 -8.844074 114.000000 95.000000 0.061684 0.140826 0.988111
5.98999977 12.78999996 -0.61000001 180 17 157 97.000000 1.000000 4.000000 1.000000 -8.844074 114.000000 95.000000 0.099575 0.314656 0.943968
6.00000000 12.77000046 -0.60000002 180 17 157 97.000000 1.000000 4.000000 1.000000 -8.844074 114.000000 95.000000 -0.112341 0.009816 0.993621
5.98999977 12.80000019 -0.61000001 180 17 157 97.000000 1.000000 4.000000 1.000000 -8.844074 114.000000 95.000000 0.230603 0.651021 0.723183
5.98000002 12.77999973 -0.61000001 180 17 157 97.000000 1.000000 4.000000 1.000000 -8.844074 114.000000 95.000000 0.156370 0.229955 0.960557
5.98999977 12.77000046 -0.60000002 180 17 157 97.000000 1.000000 4.000000 1.000000 -8.844074 114.000000 95.000000 0.220030 0.233697 0.947086
6.01000023 12.77000046 -0.60000002 180 17 157 97.000000 1.000000 4.000000 1.000000 -8.844074 114.000000 95.000000 -0.003250 0.113760 0.993503
5.98999977 12.77999973 -0.61000001 180 17 157 97.000000 1.000000 4.000000 1.000000 -8.844074 114.000000 95.000000 0.122319 0.082711 0.989038
6.00000000 12.80000019 -0.62000000 180 17 157 97.000000 1.000000 4.000000 1.000000 -8.844074 114.000000 95.000000 0.012473 0.769183 0.638907
6.00000000 12.78999996 -0.60000002 180 17 157 97.000000 1.000000 4.000000 1.000000 -8.844074 114.000000 95.000000 -0.386555 0.352402 0.852284
5.96999979 12.82999992 -0.58999997 180 17 157 97.000000 1.000000 4.000000 1.000000 -8.844074 114.000000 95.000000 -0.414852 0.570215 0.709050
5.94000006 12.82999992 -0.61000001 180 17 157 97.000000 1.000000 4.000000 1.000000 -8.844074 114.000000 95.000000 0.034325 0.319091 0.947102
5.92000008 12.78999996 -0.58999997 180 17 157 97.000000 1.000000 4.000000 1.000000 -8.844074 114.000000 95.000000 -0.555924 0.391934 0.733032
6.07999992 12.64999962 -0.56999999 180 17 157 97.000000 1.000000 4.000000 1.000000 -8.844074 114.000000 34.000000 0.189361 0.260201 0.946804
6.11999989 12.60000038 -0.57999998 180 17 157 97.000000 1.000000 4.000000 1.000000 -8.844074 114.000000 34.000000 0.411548 0.122200 0.903158
6.03999996 12.65999985 -0.57999998 180 17 157 97.000000 1.000000 4.000000 1.000000 -8.844074 114.000000 34.000000 0.096698 0.219768 0.970748
6.01999998 12.60999966 -0.56000000 180 17 157 97.000000 1.000000 4.000000 1.000000 -8.844074 114.000000 34.000000 0.425230 0.228281 0.875824
6.01999998 12.60000038 -0.55000001 180 17 157 97.000000 1.000000 4.000000 1.000000 -8.844074 114.000000 34.000000 0.522956 0.367526 0.769053
6.03999996 12.60000038 -0.56000000 180 17 157 97.000000 1.000000 4.000000 1.000000 -8.844074 114.000000 34.000000 -0.070072 0.160334 0.984572
6.07999992 12.55000019 -0.56999999 180 17 157 97.000000 1.000000 4.000000 1.000000 -8.844074 114.000000 34.000000 0.285394 0.067829 0.956007
6.09000015 12.56999969 -0.57999998 180 17 157 97.000000 1.000000 4.000000 1.000000 -8.844074 114.000000 34.000000 0.385451 -0.071181 0.919979
6.07000017 12.55000019 -0.57999998 180 17 157 97.000000 1.000000 4.000000 1.000000 -8.844074 114.000000 34.000000 -0.023388 0.017287 0.999577
6.09000015 12.57999992 -0.57999998 180 17 157 97.000000 1.000000 4.000000 1.000000 -8.844074 114.000000 34.000000 0.263043 -0.061670 0.962811
6.07999992 12.52999973 -0.57999998 180 17 157 97.000000 1.000000 4.000000 1.000000 -8.844074 114.000000 34.000000 0.342568 -0.300682 0.890077
6.05999994 12.59000015 -0.56999999 180 17 157 97.000000 1.000000 4.000000 1.000000 -8.844074 114.000000 34.000000 0.202846 0.017588 0.979053
6.07999992 12.56000042 -0.57999998 180 17 157 97.000000 1.000000 4.000000 1.000000 -8.844074 114.000000 34.000000 0.027195 -0.092464 0.995345
6.11000013 12.56999969 -0.56999999 180 17 157 97.000000 1.000000 4.000000 1.000000 -8.844074 114.000000 34.000000 0.110122 0.034483 0.993320
6.09999990 12.43000031 -0.57999998 180 17 157 97.000000 1.000000 4.000000 1.000000 -8.844074 114.000000 34.000000 0.375315 0.102359 0.921228
6.07000017 12.46000004 -0.57999998 180 17 157 97.000000 1.000000 4.000000 1.000000 -8.844074 114.000000 34.000000 0.302507 0.028870 0.952710
6.09000015 12.43999958 -0.57999998 180 17 157 97.000000 1.000000 4.000000 1.000000 -8.844074 114.000000 34.000000 0.280054 -0.083887 0.956312
6.07999992 12.47999954 -0.57999998 180 17 157 97.000000 1.000000 4.000000 1.000000 -8.844074 114.000000 34.000000 0.082902 -0.122602 0.988987
6.09000015 12.43999958 -0.56999999 180 17 157 97.000000 1.000000 4.000000 1.000000 -8.844074 114.000000 34.000000 0.190941 -0.149934 0.970083
6.07999992 12.47999954 -0.57999998 180 17 157 97.000000 1.000000 4.000000 1.000000 -8.844074 114.000000 34.000000 0.082902 -0.122602 0.988987
6.09000015 12.46000004 -0.57999998 180 17 157 97.000000 1.000000 4.000000 1.000000 -8.844074 114.000000 34.000000 0.420388 0.194814 0.886184
6.11000013 12.43000031 -0.57999998 180 17 157 97.000000 1.000000 4.000000 1.000000 -8.844074 114.000000 34.000000 0.523596 0.328248 0.786194
