//X Y Z R G B PointSourceId ScanDirectionFlag NumberOfReturns ReturnNumber GpsTime Intensity Classification Nx Ny Nz
13.69999981 5.63000011 -0.25999999 245 34 116 0.000000 0.000000 0.000000 0.000000 -8.844074 0.000000 4.000000 -0.420524 -0.456244 0.784220
13.68000031 5.63000011 -0.25999999 245 34 116 0.000000 0.000000 0.000000 0.000000 -8.844074 0.000000 4.000000 0.379994 0.616874 -0.689254
13.68999958 5.65000010 -0.25000000 245 34 116 0.000000 0.000000 0.000000 0.000000 -8.844074 0.000000 4.000000 -0.269793 -0.506837 0.818736
13.56999969 5.80999994 -0.28999999 245 34 116 0.000000 0.000000 0.000000 0.000000 -8.844074 0.000000 4.000000 -0.646802 -0.004137 0.762647
13.52000046 5.76000023 -0.27000001 245 34 116 0.000000 0.000000 0.000000 0.000000 -8.844074 0.000000 4.000000 0.701681 0.055962 -0.710290
13.51000023 5.76000023 -0.28000000 245 34 116 0.000000 0.000000 0.000000 0.000000 -8.844074 0.000000 4.000000 0.795754 -0.100747 -0.597181
13.51000023 5.76999998 -0.28000000 245 34 116 0.000000 0.000000 0.000000 0.000000 -8.844074 0.000000 4.000000 0.782190 -0.204384 -0.588563
13.50000000 5.75000000 -0.28999999 245 34 116 0.000000 0.000000 0.000000 0.000000 -8.844074 0.000000 4.000000 -0.605367 -0.125810 0.785941
13.52999973 5.75000000 -0.28999999 245 34 116 0.000000 0.000000 0.000000 0.000000 -8.844074 0.000000 4.000000 0.628725 -0.471125 -0.618665
13.50000000 5.75000000 -0.31999999 245 34 116 0.000000 0.000000 0.000000 0.000000 -8.844074 0.000000 4.000000 -0.640733 0.580191 0.502832
13.50000000 5.75000000 -0.37000000 245 34 116 0.000000 0.000000 0.000000 0.000000 -8.844074 0.000000 4.000000 0.788278 -0.540851 -0.293424
13.51000023 5.75000000 -0.33000001 245 34 116 0.000000 0.000000 0.000000 0.000000 -8.844074 0.000000 4.000000 0.714841 -0.308204 -0.627704
13.53999996 5.76000023 -0.38000000 245 34 116 0.000000 0.000000 0.000000 0.000000 -8.844074 0.000000 4.000000 0.897704 -0.371717 -0.236547
13.55000019 5.73000002 -0.25999999 245 34 116 0.000000 0.000000 0.000000 0.000000 -8.844074 0.000000 4.000000 -0.527112 -0.074898 0.846489
13.56999969 5.73000002 -0.31999999 245 34 116 0.000000 0.000000 0.000000 0.000000 -8.844074 0.000000 4.000000 0.770834 -0.425344 -0.474234
13.57999992 5.71999979 -0.31000000 245 34 116 0.000000 0.000000 0.000000 0.000000 -8.844074 0.000000 4.000000 0.679599 -0.352081 -0.643572
13.56999969 5.73000002 -0.31999999 245 34 116 0.000000 0.000000 0.000000 0.000000 -8.844074 0.000000 4.000000 0.770834 -0.425344 -0.474234
13.56999969 5.71000004 -0.31999999 245 34 116 0.000000 0.000000 0.000000 0.000000 -8.844074 0.000000 4.000000 0.709868 0.001384 -0.704333
13.56000042 5.71999979 -0.31999999 245 34 116 0.000000 0.000000 0.000000 0.000000 -8.844074 0.000000 4.000000 0.823440 -0.325912 -0.464464
13.57999992 5.71999979 -0.31000000 245 34 116 0.000000 0.000000 0.000000 0.000000 -8.844074 0.000000 4.000000 0.679599 -0.352081 -0.643572
13.56999969 5.69000006 -0.28999999 245 34 116 0.000000 0.000000 0.000000 0.000000 -8.844074 0.000000 4.000000 -0.660656 0.159469 0.733556
13.51000023 5.71000004 -0.28000000 245 34 116 0.000000 0.000000 0.000000 0.000000 -8.844074 0.000000 4.000000 -0.668561 0.182894 0.720816
13.51000023 5.73999977 -0.30000001 245 34 116 0.000000 0.000000 0.000000 0.000000 -8.844074 0.000000 4.000000 -0.624906 0.513737 0.587850
13.50000000 5.69999981 -0.31999999 245 34 116 0.000000 0.000000 0.000000 0.000000 -8.844074 0.000000 4.000000 0.929474 0.081580 -0.359753
13.52000046 5.67999983 -0.30000001 245 34 116 0.000000 0.000000 0.000000 0.000000 -8.844074 0.000000 4.000000 0.622490 0.006901 -0.782598
13.52999973 5.67000008 -0.31000000 245 34 116 0.000000 0.000000 0.000000 0.000000 -8.844074 0.000000 4.000000 0.793801 0.431660 -0.428426
13.56999969 5.71999979 -0.37000000 245 34 116 0.000000 0.000000 0.000000 0.000000 -8.844074 0.000000 4.000000 0.862806 0.031449 -0.504557
13.56000042 5.73000002 -0.33000001 245 34 116 0.000000 0.000000 0.000000 0.000000 -8.844074 0.000000 4.000000 0.583859 -0.411844 -0.699638
13.55000019 5.71999979 -0.38000000 245 34 116 0.000000 0.000000 0.000000 0.000000 -8.844074 0.000000 4.000000 0.829696 -0.188225 -0.525524
13.56000042 5.73999977 -0.38999999 245 34 116 0.000000 0.000000 0.000000 0.000000 -8.844074 0.000000 4.000000 0.642294 -0.152639 -0.751106
13.55000019 5.67000008 -0.37000000 245 34 116 0.000000 0.000000 0.000000 0.000000 -8.844074 0.000000 4.000000 -0.435656 0.096039 0.894975
13.53999996 5.73999977 -0.41000000 245 34 116 0.000000 0.000000 0.000000 0.000000 -8.844074 0.000000 4.000000 0.905004 -0.384159 -0.182727
13.52000046 5.69000006 -0.36000001 245 34 116 0.000000 0.000000 0.000000 0.000000 -8.844074 0.000000 4.000000 0.818779 0.182454 -0.544345
13.52000046 5.69999981 -0.36000001 245 34 116 0.000000 0.000000 0.000000 0.000000 -8.844074 0.000000 4.000000 0.696602 -0.358955 -0.621206
13.52000046 5.69000006 -0.36000001 245 34 116 0.000000 0.000000 0.000000 0.000000 -8.844074 0.000000 4.000000 0.818779 0.182454 -0.544345
13.52999973 5.67000008 -0.36000001 245 34 116 0.000000 0.000000 0.000000 0.000000 -8.844074 0.000000 4.000000 0.813703 0.137840 -0.564701
13.52000046 5.67999983 -0.36000001 245 34 116 0.000000 0.000000 0.000000 0.000000 -8.844074 0.000000 4.000000 0.780583 0.217945 -0.585824
13.50000000 5.67999983 -0.37000000 245 34 116 0.000000 0.000000 0.000000 0.000000 -8.844074 0.000000 4.000000 -0.476264 0.205830 0.854872
13.51000023 5.67999983 -0.38999999 245 34 116 0.000000 0.000000 0.000000 0.000000 -8.844074 0.000000 4.000000 0.603036 -0.379567 -0.701624
13.50000000 5.67000008 -0.40000001 245 34 116 0.000000 0.000000 0.000000 0.000000 -8.844074 0.000000 4.000000 0.834513 -0.026208 -0.550365
13.51000023 5.67999983 -0.38999999 245 34 116 0.000000 0.000000 0.000000 0.000000 -8.844074 0.000000 4.000000 0.603036 -0.379567 -0.701624
13.48999977 5.76000023 -0.28999999 245 34 116 0.000000 0.000000 0.000000 0.000000 -8.844074 0.000000 4.000000 -0.490714 0.383825 0.782227
13.47000027 5.75000000 -0.34000000 245 34 116 0.000000 0.000000 0.000000 0.000000 -8.844074 0.000000 4.000000 0.831397 -0.427530 -0.354961
13.48999977 5.73000002 -0.28000000 245 34 116 0.000000 0.000000 0.000000 0.000000 -8.844074 0.000000 4.000000 0.891611 -0.272395 -0.361705
13.47999954 5.73000002 -0.28000000 245 34 116 0.000000 0.000000 0.000000 0.000000 -8.844074 0.000000 4.000000 0.846584 -0.232545 -0.478768
13.47000027 5.71000004 -0.28999999 245 34 116 0.000000 0.000000 0.000000 0.000000 -8.844074 0.000000 4.000000 0.892357 -0.200087 -0.404555
13.47000027 5.73999977 -0.31000000 245 34 116 0.000000 0.000000 0.000000 0.000000 -8.844074 0.000000 4.000000 0.921634 -0.128504 -0.366166
13.48999977 5.69000006 -0.25999999 245 34 116 0.000000 0.000000 0.000000 0.000000 -8.844074 0.000000 4.000000 0.906235 -0.025136 -0.422027
13.47999954 5.69000006 -0.31999999 245 34 116 0.000000 0.000000 0.000000 0.000000 -8.844074 0.000000 4.000000 0.748145 -0.345672 -0.566383
13.47999954 5.69000006 -0.31999999 245 34 116 0.000000 0.000000 0.000000 0.000000 -8.844074 0.000000 4.000000 0.748145 -0.345672 -0.566383
13.47000027 5.73000002 -0.37000000 245 34 116 0.000000 0.000000 0.000000 0.000000 -8.844074 0.000000 4.000000 -0.464045 0.178252 0.867691
13.46000004 5.71000004 -0.34999999 245 34 116 0.000000 0.000000 0.000000 0.000000 -8.844074 0.000000 4.000000 -0.648923 0.020933 0.760566
13.47999954 5.71999979 -0.38999999 245 34 116 0.000000 0.000000 0.000000 0.000000 -8.844074 0.000000 4.000000 0.935977 0.013970 -0.351785
13.47999954 5.67999983 -0.36000001 245 34 116 0.000000 0.000000 0.000000 0.000000 -8.844074 0.000000 4.000000 -0.519192 -0.291947 0.803248
13.48999977 5.69000006 -0.34999999 245 34 116 0.000000 0.000000 0.000000 0.000000 -8.844074 0.000000 4.000000 0.741572 -0.079817 -0.666109
13.48999977 5.67000008 -0.36000001 245 34 116 0.000000 0.000000 0.000000 0.000000 -8.844074 0.000000 4.000000 0.730137 0.445367 -0.518215
13.47999954 5.69999981 -0.36000001 245 34 116 0.000000 0.000000 0.000000 0.000000 -8.844074 0.000000 4.000000 -0.528454 0.095952 0.843522
13.46000004 5.69999981 -0.34999999 245 34 116 0.000000 0.000000 0.000000 0.000000 -8.844074 0.000000 4.000000 -0.465725 -0.042092 0.883928
13.48999977 5.67000008 -0.40000001 245 34 116 0.000000 0.000000 0.000000 0.000000 -8.844074 0.000000 4.000000 0.583805 0.427459 -0.690254
13.46000004 5.67000008 -0.38000000 245 34 116 0.000000 0.000000 0.000000 0.000000 -8.844074 0.000000 4.000000 0.740648 -0.159035 -0.652800
13.46000004 5.67000008 -0.38000000 245 34 116 0.000000 0.000000 0.000000 0.000000 -8.844074 0.000000 4.000000 0.740648 -0.159035 -0.652800
13.46000004 5.67000008 -0.38000000 245 34 116 0.000000 0.000000 0.000000 0.000000 -8.844074 0.000000 4.000000 0.740648 -0.159035 -0.652800
13.44999981 5.73999977 -0.34999999 245 34 116 0.000000 0.000000 0.000000 0.000000 -8.844074 0.000000 4.000000 0.782623 0.142159 -0.606046
13.44999981 5.73000002 -0.34999999 245 34 116 0.000000 0.000000 0.000000 0.000000 -8.844074 0.000000 4.000000 0.840722 0.187327 -0.508030
13.44999981 5.71999979 -0.38999999 245 34 116 0.000000 0.000000 0.000000 0.000000 -8.844074 0.000000 4.000000 0.832347 -0.217597 -0.509755
13.42000008 5.71000004 -0.38999999 245 34 116 0.000000 0.000000 0.000000 0.000000 -8.844074 0.000000 4.000000 0.848383 -0.123269 -0.514831
13.44999981 5.71999979 -0.38999999 245 34 116 0.000000 0.000000 0.000000 0.000000 -8.844074 0.000000 4.000000 0.832347 -0.217597 -0.509755
13.44999981 5.69000006 -0.36000001 245 34 116 0.000000 0.000000 0.000000 0.000000 -8.844074 0.000000 4.000000 0.918106 -0.022202 -0.395713
13.44999981 5.69999981 -0.36000001 245 34 116 0.000000 0.000000 0.000000 0.000000 -8.844074 0.000000 4.000000 0.902002 0.128053 -0.412304
13.44999981 5.69999981 -0.37000000 245 34 116 0.000000 0.000000 0.000000 0.000000 -8.844074 0.000000 4.000000 0.901171 -0.245507 -0.357234
13.44999981 5.67000008 -0.38999999 245 34 116 0.000000 0.000000 0.000000 0.000000 -8.844074 0.000000 4.000000 0.699823 -0.269408 -0.661564
13.43000031 5.67000008 -0.40000001 245 34 116 0.000000 0.000000 0.000000 0.000000 -8.844074 0.000000 4.000000 0.785206 -0.258601 -0.562652
13.43999958 5.67000008 -0.38000000 245 34 116 0.000000 0.000000 0.000000 0.000000 -8.844074 0.000000 4.000000 0.864530 -0.045502 -0.500517
13.43999958 5.69000006 -0.38999999 245 34 116 0.000000 0.000000 0.000000 0.000000 -8.844074 0.000000 4.000000 -0.507192 -0.204391 0.837246
13.43999958 5.67000008 -0.38999999 245 34 116 0.000000 0.000000 0.000000 0.000000 -8.844074 0.000000 4.000000 -0.546578 0.212813 0.809915
13.44999981 5.67000008 -0.38999999 245 34 116 0.000000 0.000000 0.000000 0.000000 -8.844074 0.000000 4.000000 0.699823 -0.269408 -0.661564
13.43999958 5.69999981 -0.38000000 245 34 116 0.000000 0.000000 0.000000 0.000000 -8.844074 0.000000 4.000000 -0.517894 -0.051373 0.853901
13.50000000 5.69999981 -0.44000000 245 34 116 0.000000 0.000000 0.000000 0.000000 -8.844074 0.000000 4.000000 0.797063 -0.128654 -0.590033
13.50000000 5.67999983 -0.44000000 245 34 116 0.000000 0.000000 0.000000 0.000000 -8.844074 0.000000 4.000000 0.895430 0.134811 -0.424300
13.51000023 5.67000008 -0.43000001 245 34 116 0.000000 0.000000 0.000000 0.000000 -8.844074 0.000000 4.000000 0.857113 -0.160249 -0.489569
13.50000000 5.69000006 -0.44000000 245 34 116 0.000000 0.000000 0.000000 0.000000 -8.844074 0.000000 4.000000 0.934590 0.067227 -0.349318
13.50000000 5.67999983 -0.44000000 245 34 116 0.000000 0.000000 0.000000 0.000000 -8.844074 0.000000 4.000000 0.895430 0.134811 -0.424300
13.48999977 5.75000000 -0.44000000 245 34 116 0.000000 0.000000 0.000000 0.000000 -8.844074 0.000000 4.000000 0.825866 -0.482406 -0.291941
13.47000027 5.71000004 -0.43000001 245 34 116 0.000000 0.000000 0.000000 0.000000 -8.844074 0.000000 4.000000 0.935898 -0.083871 -0.342142
13.48999977 5.73999977 -0.43000001 245 34 116 0.000000 0.000000 0.000000 0.000000 -8.844074 0.000000 4.000000 0.906477 -0.197436 -0.373255
13.48999977 5.73999977 -0.43000001 245 34 116 0.000000 0.000000 0.000000 0.000000 -8.844074 0.000000 4.000000 0.906477 -0.197436 -0.373255
13.47999954 5.73000002 -0.44999999 245 34 116 0.000000 0.000000 0.000000 0.000000 -8.844074 0.000000 4.000000 0.899880 -0.195626 -0.389803
13.47000027 5.71000004 -0.43000001 245 34 116 0.000000 0.000000 0.000000 0.000000 -8.844074 0.000000 4.000000 0.935898 -0.083871 -0.342142
13.47999954 5.73000002 -0.46000001 245 34 116 0.000000 0.000000 0.000000 0.000000 -8.844074 0.000000 4.000000 0.917352 -0.057418 -0.393914
13.47999954 5.73000002 -0.46000001 245 34 116 0.000000 0.000000 0.000000 0.000000 -8.844074 0.000000 4.000000 0.917352 -0.057418 -0.393914
13.47000027 5.71999979 -0.47000000 245 34 116 0.000000 0.000000 0.000000 0.000000 -8.844074 0.000000 4.000000 0.770748 -0.119828 -0.625770
13.46000004 5.69999981 -0.44000000 245 34 116 0.000000 0.000000 0.000000 0.000000 -8.844074 0.000000 4.000000 0.874320 -0.235452 -0.424413
13.48999977 5.69999981 -0.44000000 245 34 116 0.000000 0.000000 0.000000 0.000000 -8.844074 0.000000 4.000000 -0.432839 0.256666 0.864160
13.48999977 5.67000008 -0.47000000 245 34 116 0.000000 0.000000 0.000000 0.000000 -8.844074 0.000000 4.000000 0.745330 -0.088973 -0.660733
13.47000027 5.69999981 -0.46000001 245 34 116 0.000000 0.000000 0.000000 0.000000 -8.844074 0.000000 4.000000 -0.475920 0.294914 0.828569
13.46000004 5.67000008 -0.47000000 245 34 116 0.000000 0.000000 0.000000 0.000000 -8.844074 0.000000 4.000000 -0.573421 0.084792 0.814861
13.48999977 5.69000006 -0.47000000 245 34 116 0.000000 0.000000 0.000000 0.000000 -8.844074 0.000000 4.000000 0.720061 -0.114319 -0.684429
13.47000027 5.69999981 -0.46000001 245 34 116 0.000000 0.000000 0.000000 0.000000 -8.844074 0.000000 4.000000 -0.475920 0.294914 0.828569
13.43999958 5.71000004 -0.44000000 245 34 116 0.000000 0.000000 0.000000 0.000000 -8.844074 0.000000 4.000000 0.578466 -0.511006 -0.635807
13.43000031 5.71000004 -0.44999999 245 34 116 0.000000 0.000000 0.000000 0.000000 -8.844074 0.000000 4.000000 0.839887 -0.260442 -0.476193
13.43999958 5.71000004 -0.44000000 245 34 116 0.000000 0.000000 0.000000 0.000000 -8.844074 0.000000 4.000000 0.578466 -0.511006 -0.635807
13.43999958 5.71000004 -0.44000000 245 34 116 0.000000 0.000000 0.000000 0.000000 -8.844074 0.000000 4.000000 0.578466 -0.511006 -0.635807
13.43999958 5.71000004 -0.43000001 245 34 116 0.000000 0.000000 0.000000 0.000000 -8.844074 0.000000 4.000000 -0.782218 0.269133 0.561875
13.43999958 5.69999981 -0.44000000 245 34 116 0.000000 0.000000 0.000000 0.000000 -8.844074 0.000000 4.000000 0.493509 -0.493509 -0.716169
13.44999981 5.67999983 -0.49000001 245 34 116 0.000000 0.000000 0.000000 0.000000 -8.844074 0.000000 4.000000 0.597421 -0.556803 -0.577112
13.43000031 5.69000006 -0.47000000 245 34 116 0.000000 0.000000 0.000000 0.000000 -8.844074 0.000000 4.000000 -0.519293 0.462884 0.718383
13.43000031 5.69000006 -0.47999999 245 34 116 0.000000 0.000000 0.000000 0.000000 -8.844074 0.000000 4.000000 -0.611546 0.467456 0.638354
13.46000004 5.67999983 -0.50000000 245 34 116 0.000000 0.000000 0.000000 0.000000 -8.844074 0.000000 4.000000 0.939486 -0.111556 -0.323914
13.43000031 5.67999983 -0.54000002 245 34 116 0.000000 0.000000 0.000000 0.000000 -8.844074 0.000000 4.000000 -0.562083 0.723620 0.400546
13.43000031 5.67999983 -0.56000000 245 34 116 0.000000 0.000000 0.000000 0.000000 -8.844074 0.000000 4.000000 0.852750 -0.275031 -0.444045
13.43000031 5.69000006 -0.56999999 245 34 116 0.000000 0.000000 0.000000 0.000000 -8.844074 0.000000 4.000000 -0.633454 0.636797 0.439574
13.43999958 5.69000006 -0.56000000 245 34 116 0.000000 0.000000 0.000000 0.000000 -8.844074 0.000000 4.000000 -0.801509 0.558441 0.213838
13.43000031 5.67999983 -0.55000001 245 34 116 0.000000 0.000000 0.000000 0.000000 -8.844074 0.000000 4.000000 0.893031 -0.430188 -0.132038
13.40999985 5.71000004 -0.41000000 245 34 116 0.000000 0.000000 0.000000 0.000000 -8.844074 0.000000 4.000000 0.720170 -0.296729 -0.627142
13.38000011 5.69000006 -0.43000001 245 34 116 0.000000 0.000000 0.000000 0.000000 -8.844074 0.000000 4.000000 0.902483 -0.331254 -0.275309
13.40999985 5.67000008 -0.41999999 245 34 116 0.000000 0.000000 0.000000 0.000000 -8.844074 0.000000 4.000000 0.875995 -0.314265 -0.365883
13.39999962 5.69999981 -0.44000000 245 34 116 0.000000 0.000000 0.000000 0.000000 -8.844074 0.000000 4.000000 0.781920 0.020907 -0.623028
13.39000034 5.69999981 -0.47999999 245 34 116 0.000000 0.000000 0.000000 0.000000 -8.844074 0.000000 4.000000 0.685789 -0.633413 -0.358443
13.39999962 5.69000006 -0.47000000 245 34 116 0.000000 0.000000 0.000000 0.000000 -8.844074 0.000000 4.000000 -0.516302 0.327684 0.791237
13.39000034 5.67999983 -0.47000000 245 34 116 0.000000 0.000000 0.000000 0.000000 -8.844074 0.000000 4.000000 0.809085 -0.097323 -0.579578
13.39000034 5.69999981 -0.47999999 245 34 116 0.000000 0.000000 0.000000 0.000000 -8.844074 0.000000 4.000000 0.685789 -0.633413 -0.358443
13.39999962 5.67999983 -0.46000001 245 34 116 0.000000 0.000000 0.000000 0.000000 -8.844074 0.000000 4.000000 -0.507583 0.337855 0.792599
13.39999962 5.71999979 -0.50000000 245 34 116 0.000000 0.000000 0.000000 0.000000 -8.844074 0.000000 4.000000 0.612628 -0.575499 -0.541745
13.39999962 5.71999979 -0.50000000 245 34 116 0.000000 0.000000 0.000000 0.000000 -8.844074 0.000000 4.000000 0.612628 -0.575499 -0.541745
13.38000011 5.67000008 -0.50999999 245 34 116 0.000000 0.000000 0.000000 0.000000 -8.844074 0.000000 4.000000 0.603991 -0.398800 -0.690039
13.39000034 5.69000006 -0.50999999 245 34 116 0.000000 0.000000 0.000000 0.000000 -8.844074 0.000000 4.000000 0.768396 -0.032309 -0.639159
13.39000034 5.69000006 -0.50999999 245 34 116 0.000000 0.000000 0.000000 0.000000 -8.844074 0.000000 4.000000 0.768396 -0.032309 -0.639159
13.38000011 5.67999983 -0.50999999 245 34 116 0.000000 0.000000 0.000000 0.000000 -8.844074 0.000000 4.000000 0.646772 -0.596374 -0.475419
13.39999962 5.67999983 -0.54000002 245 34 116 0.000000 0.000000 0.000000 0.000000 -8.844074 0.000000 4.000000 0.762442 -0.178769 -0.621871
13.39999962 5.67999983 -0.54000002 245 34 116 0.000000 0.000000 0.000000 0.000000 -8.844074 0.000000 4.000000 0.762442 -0.178769 -0.621871
13.39999962 5.67000008 -0.51999998 245 34 116 0.000000 0.000000 0.000000 0.000000 -8.844074 0.000000 4.000000 0.844770 -0.102178 -0.525283
13.39000034 5.67000008 -0.56999999 245 34 116 0.000000 0.000000 0.000000 0.000000 -8.844074 0.000000 4.000000 -0.601508 0.161307 0.782412
13.36999989 5.67000008 -0.50000000 245 34 116 0.000000 0.000000 0.000000 0.000000 -8.844074 0.000000 4.000000 0.783552 0.043766 -0.619783
13.35000038 5.67000008 -0.50999999 245 34 116 0.000000 0.000000 0.000000 0.000000 -8.844074 0.000000 4.000000 -0.514923 0.429377 0.741950
13.30000019 5.71000004 -0.54000002 245 34 116 0.000000 0.000000 0.000000 0.000000 -8.844074 0.000000 4.000000 0.932453 -0.263795 -0.246867
13.31000042 5.71999979 -0.52999997 245 34 116 0.000000 0.000000 0.000000 0.000000 -8.844074 0.000000 4.000000 0.656382 -0.179013 -0.732883
13.31000042 5.67000008 -0.56999999 245 34 116 0.000000 0.000000 0.000000 0.000000 -8.844074 0.000000 4.000000 0.937484 -0.089094 -0.336431
13.27000046 5.67000008 -0.54000002 245 34 116 0.000000 0.000000 0.000000 0.000000 -8.844074 0.000000 4.000000 0.533888 -0.487026 -0.691209
13.27000046 5.67000008 -0.54000002 245 34 116 0.000000 0.000000 0.000000 0.000000 -8.844074 0.000000 4.000000 0.533888 -0.487026 -0.691209
13.42000008 5.69000006 -0.58999997 245 34 116 0.000000 0.000000 0.000000 0.000000 -8.844074 0.000000 4.000000 0.886371 -0.429359 -0.173199
13.38000011 5.67000008 -0.62000000 245 34 116 0.000000 0.000000 0.000000 0.000000 -8.844074 0.000000 4.000000 0.914072 -0.382146 -0.135781
13.38000011 5.67999983 -0.62000000 245 34 116 0.000000 0.000000 0.000000 0.000000 -8.844074 0.000000 4.000000 -0.554047 0.800976 0.226866
13.38000011 5.67000008 -0.61000001 245 34 116 0.000000 0.000000 0.000000 0.000000 -8.844074 0.000000 4.000000 0.890929 -0.446159 -0.084784
13.38000011 5.67999983 -0.63000000 245 34 116 0.000000 0.000000 0.000000 0.000000 -8.844074 0.000000 4.000000 -0.543587 0.822119 0.169216
13.34000015 5.67000008 -0.60000002 245 34 116 0.000000 0.000000 0.000000 0.000000 -8.844074 0.000000 4.000000 0.755341 -0.407982 -0.512845
13.36999989 5.67000008 -0.62000000 245 34 116 0.000000 0.000000 0.000000 0.000000 -8.844074 0.000000 4.000000 -0.416710 0.802850 0.426363
13.32999992 5.67000008 -0.66000003 245 34 116 0.000000 0.000000 0.000000 0.000000 -8.844074 0.000000 4.000000 -0.759549 0.517800 0.393659
13.55000019 5.61000013 -0.34000000 245 34 116 0.000000 0.000000 0.000000 0.000000 -8.844074 0.000000 4.000000 -0.250548 -0.290636 0.923448
13.51000023 5.65000010 -0.33000001 245 34 116 0.000000 0.000000 0.000000 0.000000 -8.844074 0.000000 4.000000 0.675380 0.435245 -0.595335
13.52999973 5.65999985 -0.34999999 245 34 116 0.000000 0.000000 0.000000 0.000000 -8.844074 0.000000 4.000000 -0.335943 -0.053180 0.940380
13.53999996 5.65000010 -0.38999999 245 34 116 0.000000 0.000000 0.000000 0.000000 -8.844074 0.000000 4.000000 -0.388799 -0.339231 0.856597
13.52000046 5.61000013 -0.37000000 245 34 116 0.000000 0.000000 0.000000 0.000000 -8.844074 0.000000 4.000000 -0.594725 -0.470754 0.651685
13.46000004 5.65999985 -0.37000000 245 34 116 0.000000 0.000000 0.000000 0.000000 -8.844074 0.000000 4.000000 -0.631452 0.181944 0.753767
13.47999954 5.65000010 -0.34000000 245 34 116 0.000000 0.000000 0.000000 0.000000 -8.844074 0.000000 4.000000 -0.554405 -0.192902 0.809583
13.43999958 5.65999985 -0.38999999 245 34 116 0.000000 0.000000 0.000000 0.000000 -8.844074 0.000000 4.000000 -0.697293 -0.152769 0.700318
13.51000023 5.61999989 -0.44999999 245 34 116 0.000000 0.000000 0.000000 0.000000 -8.844074 0.000000 4.000000 0.707153 0.527453 -0.470881
13.50000000 5.65999985 -0.44999999 245 34 116 0.000000 0.000000 0.000000 0.000000 -8.844074 0.000000 4.000000 0.855332 -0.189576 -0.482150
13.46000004 5.63999987 -0.43000001 245 34 116 0.000000 0.000000 0.000000 0.000000 -8.844074 0.000000 4.000000 -0.636199 -0.192554 0.747110
13.47999954 5.63999987 -0.47000000 245 34 116 0.000000 0.000000 0.000000 0.000000 -8.844074 0.000000 4.000000 -0.457823 -0.362111 0.811957
13.43000031 5.65999985 -0.47999999 245 34 116 0.000000 0.000000 0.000000 0.000000 -8.844074 0.000000 4.000000 0.617373 -0.328941 -0.714597
13.46000004 5.63999987 -0.50000000 245 34 116 0.000000 0.000000 0.000000 0.000000 -8.844074 0.000000 4.000000 -0.588374 0.375314 0.716210
13.43999958 5.65000010 -0.50999999 245 34 116 0.000000 0.000000 0.000000 0.000000 -8.844074 0.000000 4.000000 0.892078 -0.172054 -0.417845
13.44999981 5.65000010 -0.50000000 245 34 116 0.000000 0.000000 0.000000 0.000000 -8.844074 0.000000 4.000000 -0.524040 -0.080949 0.847838
13.43999958 5.63999987 -0.57999998 245 34 116 0.000000 0.000000 0.000000 0.000000 -8.844074 0.000000 4.000000 0.801987 0.131935 -0.582589
13.40999985 5.63999987 -0.44999999 245 34 116 0.000000 0.000000 0.000000 0.000000 -8.844074 0.000000 4.000000 0.812061 -0.301172 -0.499851
13.38000011 5.65999985 -0.49000001 245 34 116 0.000000 0.000000 0.000000 0.000000 -8.844074 0.000000 4.000000 0.722951 0.189601 -0.664375
13.38000011 5.65999985 -0.47000000 245 34 116 0.000000 0.000000 0.000000 0.000000 -8.844074 0.000000 4.000000 0.872625 0.017479 -0.488078
13.40999985 5.65000010 -0.54000002 245 34 116 0.000000 0.000000 0.000000 0.000000 -8.844074 0.000000 4.000000 -0.641056 0.322962 0.696235
13.38000011 5.65000010 -0.51999998 245 34 116 0.000000 0.000000 0.000000 0.000000 -8.844074 0.000000 4.000000 0.639704 -0.541807 -0.545183
13.38000011 5.65000010 -0.51999998 245 34 116 0.000000 0.000000 0.000000 0.000000 -8.844074 0.000000 4.000000 0.639704 -0.541807 -0.545183
13.40999985 5.65999985 -0.55000001 245 34 116 0.000000 0.000000 0.000000 0.000000 -8.844074 0.000000 4.000000 -0.692854 -0.058814 0.718675
13.39999962 5.65000010 -0.56999999 245 34 116 0.000000 0.000000 0.000000 0.000000 -8.844074 0.000000 4.000000 0.709170 -0.047088 -0.703463
13.40999985 5.63000011 -0.56000000 245 34 116 0.000000 0.000000 0.000000 0.000000 -8.844074 0.000000 4.000000 0.880591 -0.325864 -0.344052
13.38000011 5.65000010 -0.56000000 245 34 116 0.000000 0.000000 0.000000 0.000000 -8.844074 0.000000 4.000000 0.688317 -0.354786 -0.632729
13.40999985 5.63000011 -0.56000000 245 34 116 0.000000 0.000000 0.000000 0.000000 -8.844074 0.000000 4.000000 0.880591 -0.325864 -0.344052
13.40999985 5.61999989 -0.50999999 245 34 116 0.000000 0.000000 0.000000 0.000000 -8.844074 0.000000 4.000000 -0.530971 -0.239943 0.812710
13.35999966 5.65000010 -0.52999997 245 34 116 0.000000 0.000000 0.000000 0.000000 -8.844074 0.000000 4.000000 0.930473 -0.141983 -0.337727
13.34000015 5.65000010 -0.52999997 245 34 116 0.000000 0.000000 0.000000 0.000000 -8.844074 0.000000 4.000000 0.777185 -0.384536 -0.498112
13.34000015 5.65000010 -0.52999997 245 34 116 0.000000 0.000000 0.000000 0.000000 -8.844074 0.000000 4.000000 0.777185 -0.384536 -0.498112
13.35999966 5.63999987 -0.51999998 245 34 116 0.000000 0.000000 0.000000 0.000000 -8.844074 0.000000 4.000000 0.771561 0.101020 -0.628083
13.36999989 5.65999985 -0.50000000 245 34 116 0.000000 0.000000 0.000000 0.000000 -8.844074 0.000000 4.000000 0.710751 -0.041141 -0.702239
13.35999966 5.65000010 -0.56000000 245 34 116 0.000000 0.000000 0.000000 0.000000 -8.844074 0.000000 4.000000 0.719736 -0.179550 -0.670628
13.35999966 5.65999985 -0.56999999 245 34 116 0.000000 0.000000 0.000000 0.000000 -8.844074 0.000000 4.000000 0.816115 -0.373854 -0.440670
13.36999989 5.63000011 -0.55000001 245 34 116 0.000000 0.000000 0.000000 0.000000 -8.844074 0.000000 4.000000 0.900059 -0.229771 -0.370268
13.35000038 5.59999990 -0.57999998 245 34 116 0.000000 0.000000 0.000000 0.000000 -8.844074 0.000000 4.000000 -0.489460 0.088864 0.867486
13.39999962 5.63999987 -0.60000002 245 34 116 0.000000 0.000000 0.000000 0.000000 -8.844074 0.000000 4.000000 0.824607 -0.218773 -0.521690
13.38000011 5.63000011 -0.60000002 245 34 116 0.000000 0.000000 0.000000 0.000000 -8.844074 0.000000 4.000000 0.928481 -0.145291 -0.341781
13.40999985 5.63999987 -0.58999997 245 34 116 0.000000 0.000000 0.000000 0.000000 -8.844074 0.000000 4.000000 -0.434808 0.316366 0.843122
13.39999962 5.63000011 -0.60000002 245 34 116 0.000000 0.000000 0.000000 0.000000 -8.844074 0.000000 4.000000 -0.612964 -0.091726 0.784768
13.38000011 5.65000010 -0.64999998 245 34 116 0.000000 0.000000 0.000000 0.000000 -8.844074 0.000000 4.000000 0.614196 -0.377080 -0.693235
13.40999985 5.61999989 -0.60000002 245 34 116 0.000000 0.000000 0.000000 0.000000 -8.844074 0.000000 4.000000 0.670460 0.061734 -0.739373
13.38000011 5.59000015 -0.64999998 245 34 116 0.000000 0.000000 0.000000 0.000000 -8.844074 0.000000 4.000000 0.737275 -0.202480 -0.644536
13.35999966 5.63000011 -0.58999997 245 34 116 0.000000 0.000000 0.000000 0.000000 -8.844074 0.000000 4.000000 -0.522592 0.407917 0.748666
13.32999992 5.65000010 -0.58999997 245 34 116 0.000000 0.000000 0.000000 0.000000 -8.844074 0.000000 4.000000 -0.584795 0.246147 0.772933
13.32999992 5.65000010 -0.58999997 245 34 116 0.000000 0.000000 0.000000 0.000000 -8.844074 0.000000 4.000000 -0.584795 0.246147 0.772933
13.32999992 5.65999985 -0.66000003 245 34 116 0.000000 0.000000 0.000000 0.000000 -8.844074 0.000000 4.000000 0.575397 -0.665985 -0.474745
13.32999992 5.65999985 -0.66000003 245 34 116 0.000000 0.000000 0.000000 0.000000 -8.844074 0.000000 4.000000 0.575397 -0.665985 -0.474745
13.36999989 5.63999987 -0.66000003 245 34 116 0.000000 0.000000 0.000000 0.000000 -8.844074 0.000000 4.000000 0.865628 -0.478641 -0.146939
13.36999989 5.63999987 -0.66000003 245 34 116 0.000000 0.000000 0.000000 0.000000 -8.844074 0.000000 4.000000 0.865628 -0.478641 -0.146939
13.34000015 5.61999989 -0.58999997 245 34 116 0.000000 0.000000 0.000000 0.000000 -8.844074 0.000000 4.000000 -0.493284 0.125853 0.860716
13.32999992 5.61999989 -0.66000003 245 34 116 0.000000 0.000000 0.000000 0.000000 -8.844074 0.000000 4.000000 -0.489201 0.657312 0.573257
13.35000038 5.59999990 -0.63999999 245 34 116 0.000000 0.000000 0.000000 0.000000 -8.844074 0.000000 4.000000 0.810559 -0.420468 -0.407678
13.32999992 5.59999990 -0.63000000 245 34 116 0.000000 0.000000 0.000000 0.000000 -8.844074 0.000000 4.000000 0.881411 -0.124283 -0.455705
13.35999966 5.61000013 -0.66000003 245 34 116 0.000000 0.000000 0.000000 0.000000 -8.844074 0.000000 4.000000 0.769432 -0.519974 -0.370947
13.38000011 5.63000011 -0.74000001 245 34 116 0.000000 0.000000 0.000000 0.000000 -8.844074 0.000000 4.000000 -0.155248 0.986351 0.054862
13.38000011 5.61999989 -0.69999999 245 34 116 0.000000 0.000000 0.000000 0.000000 -8.844074 0.000000 4.000000 0.860908 -0.507785 0.031480
13.34000015 5.63000011 -0.69000000 245 34 116 0.000000 0.000000 0.000000 0.000000 -8.844074 0.000000 4.000000 -0.392230 0.836442 0.382779
13.32999992 5.59999990 -0.68000001 245 34 116 0.000000 0.000000 0.000000 0.000000 -8.844074 0.000000 4.000000 0.689888 -0.586820 -0.423907
13.35000038 5.61999989 -0.67000002 245 34 116 0.000000 0.000000 0.000000 0.000000 -8.844074 0.000000 4.000000 0.938417 -0.265537 -0.221049
13.36999989 5.59999990 -0.70999998 245 34 116 0.000000 0.000000 0.000000 0.000000 -8.844074 0.000000 4.000000 0.610089 -0.373289 -0.698889
13.32999992 5.61000013 -0.69000000 245 34 116 0.000000 0.000000 0.000000 0.000000 -8.844074 0.000000 4.000000 -0.450794 0.710292 0.540620
13.32999992 5.59999990 -0.68000001 245 34 116 0.000000 0.000000 0.000000 0.000000 -8.844074 0.000000 4.000000 0.689888 -0.586820 -0.423907
13.35999966 5.61999989 -0.73000002 245 34 116 0.000000 0.000000 0.000000 0.000000 -8.844074 0.000000 4.000000 0.714772 -0.607312 -0.346803
13.35000038 5.59000015 -0.75000000 245 34 116 0.000000 0.000000 0.000000 0.000000 -8.844074 0.000000 4.000000 0.853712 -0.516165 -0.068916
13.32999992 5.57999992 -0.73000002 245 34 116 0.000000 0.000000 0.000000 0.000000 -8.844074 0.000000 4.000000 0.766336 -0.215193 -0.605328
13.35999966 5.61999989 -0.73000002 245 34 116 0.000000 0.000000 0.000000 0.000000 -8.844074 0.000000 4.000000 0.714772 -0.607312 -0.346803
13.35000038 5.61000013 -0.72000003 245 34 116 0.000000 0.000000 0.000000 0.000000 -8.844074 0.000000 4.000000 -0.598004 0.801463 0.006874
13.32999992 5.57000017 -0.66000003 245 34 116 0.000000 0.000000 0.000000 0.000000 -8.844074 0.000000 4.000000 0.884833 -0.179299 -0.430026
13.31999969 5.65000010 -0.60000002 245 34 116 0.000000 0.000000 0.000000 0.000000 -8.844074 0.000000 4.000000 -0.496033 0.472807 0.728289
13.28999996 5.63000011 -0.66000003 245 34 116 0.000000 0.000000 0.000000 0.000000 -8.844074 0.000000 4.000000 -0.636258 0.394975 0.662699
13.30000019 5.63000011 -0.66000003 245 34 116 0.000000 0.000000 0.000000 0.000000 -8.844074 0.000000 4.000000 -0.454206 0.383587 0.804088
13.31000042 5.65000010 -0.63999999 245 34 116 0.000000 0.000000 0.000000 0.000000 -8.844074 0.000000 4.000000 -0.667300 0.708123 0.230807
13.30000019 5.63999987 -0.63000000 245 34 116 0.000000 0.000000 0.000000 0.000000 -8.844074 0.000000 4.000000 0.849982 -0.491466 -0.189715
13.30000019 5.63999987 -0.63000000 245 34 116 0.000000 0.000000 0.000000 0.000000 -8.844074 0.000000 4.000000 0.849982 -0.491466 -0.189715
13.31999969 5.65999985 -0.63999999 245 34 116 0.000000 0.000000 0.000000 0.000000 -8.844074 0.000000 4.000000 0.894693 -0.374145 -0.244007
13.31999969 5.61999989 -0.62000000 245 34 116 0.000000 0.000000 0.000000 0.000000 -8.844074 0.000000 4.000000 0.818311 -0.436962 -0.373404
13.30000019 5.61999989 -0.64999998 245 34 116 0.000000 0.000000 0.000000 0.000000 -8.844074 0.000000 4.000000 0.637359 -0.657224 -0.402281
13.27999973 5.63999987 -0.64999998 245 34 116 0.000000 0.000000 0.000000 0.000000 -8.844074 0.000000 4.000000 0.643790 -0.392232 -0.657030
13.28999996 5.65999985 -0.70999998 245 34 116 0.000000 0.000000 0.000000 0.000000 -8.844074 0.000000 4.000000 -0.686496 0.726129 -0.038217
13.31999969 5.65999985 -0.67000002 245 34 116 0.000000 0.000000 0.000000 0.000000 -8.844074 0.000000 4.000000 0.871761 -0.412462 -0.264399
13.31999969 5.63999987 -0.72000003 245 34 116 0.000000 0.000000 0.000000 0.000000 -8.844074 0.000000 4.000000 -0.441285 0.897147 -0.019878
13.30000019 5.59000015 -0.73000002 245 34 116 0.000000 0.000000 0.000000 0.000000 -8.844074 0.000000 4.000000 0.931228 -0.212090 -0.296364
13.30000019 5.59000015 -0.73000002 245 34 116 0.000000 0.000000 0.000000 0.000000 -8.844074 0.000000 4.000000 0.931228 -0.212090 -0.296364
13.27999973 5.65000010 -0.69999999 245 34 116 0.000000 0.000000 0.000000 0.000000 -8.844074 0.000000 4.000000 -0.657946 0.728826 0.189525
13.27000046 5.63999987 -0.73000002 245 34 116 0.000000 0.000000 0.000000 0.000000 -8.844074 0.000000 4.000000 -0.697841 0.714896 -0.044059
13.27000046 5.63000011 -0.72000003 245 34 116 0.000000 0.000000 0.000000 0.000000 -8.844074 0.000000 4.000000 0.890184 -0.424104 -0.166457
13.27999973 5.65000010 -0.73000002 245 34 116 0.000000 0.000000 0.000000 0.000000 -8.844074 0.000000 4.000000 0.888918 -0.450700 -0.081819
13.27999973 5.59999990 -0.75000000 245 34 116 0.000000 0.000000 0.000000 0.000000 -8.844074 0.000000 4.000000 0.849043 -0.471013 -0.239317
13.27999973 5.59999990 -0.75000000 245 34 116 0.000000 0.000000 0.000000 0.000000 -8.844074 0.000000 4.000000 0.849043 -0.471013 -0.239317
13.34000015 5.63999987 -0.81000000 245 34 116 0.000000 0.000000 0.000000 0.000000 -8.844074 0.000000 4.000000 -0.041973 0.950112 -0.309073
13.35999966 5.59999990 -0.75999999 245 34 116 0.000000 0.000000 0.000000 0.000000 -8.844074 0.000000 4.000000 0.729436 -0.655412 -0.195853
13.32999992 5.57000017 -0.80000001 245 34 116 0.000000 0.000000 0.000000 0.000000 -8.844074 0.000000 4.000000 -0.105441 0.940965 -0.321663
13.30000019 5.65999985 -0.76999998 245 34 116 0.000000 0.000000 0.000000 0.000000 -8.844074 0.000000 4.000000 -0.670157 0.730127 -0.133432
13.30000019 5.65999985 -0.75999999 245 34 116 0.000000 0.000000 0.000000 0.000000 -8.844074 0.000000 4.000000 -0.319642 0.902953 0.287236
13.30000019 5.65999985 -0.75999999 245 34 116 0.000000 0.000000 0.000000 0.000000 -8.844074 0.000000 4.000000 -0.319642 0.902953 0.287236
13.30000019 5.63000011 -0.75999999 245 34 116 0.000000 0.000000 0.000000 0.000000 -8.844074 0.000000 4.000000 -0.462540 0.815405 0.348097
13.28999996 5.65000010 -0.80000001 245 34 116 0.000000 0.000000 0.000000 0.000000 -8.844074 0.000000 4.000000 -0.265993 0.959889 -0.088664
13.31999969 5.63999987 -0.81999999 245 34 116 0.000000 0.000000 0.000000 0.000000 -8.844074 0.000000 4.000000 0.113310 0.993384 -0.018702
13.31000042 5.63999987 -0.81999999 245 34 116 0.000000 0.000000 0.000000 0.000000 -8.844074 0.000000 4.000000 -0.022292 0.913963 -0.405186
13.31000042 5.61000013 -0.75999999 245 34 116 0.000000 0.000000 0.000000 0.000000 -8.844074 0.000000 4.000000 -0.485332 0.733795 0.475393
13.31999969 5.59999990 -0.79000002 245 34 116 0.000000 0.000000 0.000000 0.000000 -8.844074 0.000000 4.000000 -0.267595 0.956816 -0.113565
13.31999969 5.61999989 -0.76999998 245 34 116 0.000000 0.000000 0.000000 0.000000 -8.844074 0.000000 4.000000 -0.655151 0.739881 0.152818
13.31000042 5.59999990 -0.80000001 245 34 116 0.000000 0.000000 0.000000 0.000000 -8.844074 0.000000 4.000000 -0.104144 0.993285 0.050392
13.31000042 5.61000013 -0.82999998 245 34 116 0.000000 0.000000 0.000000 0.000000 -8.844074 0.000000 4.000000 0.151912 0.957706 -0.244380
13.31999969 5.59999990 -0.81000000 245 34 116 0.000000 0.000000 0.000000 0.000000 -8.844074 0.000000 4.000000 -0.436861 0.886698 -0.151388
13.28999996 5.59999990 -0.80000001 245 34 116 0.000000 0.000000 0.000000 0.000000 -8.844074 0.000000 4.000000 -0.385810 0.891354 -0.237990
13.31999969 5.59999990 -0.81000000 245 34 116 0.000000 0.000000 0.000000 0.000000 -8.844074 0.000000 4.000000 -0.436861 0.886698 -0.151388
13.31000042 5.59999990 -0.80000001 245 34 116 0.000000 0.000000 0.000000 0.000000 -8.844074 0.000000 4.000000 -0.104144 0.993285 0.050392
13.28999996 5.59999990 -0.80000001 245 34 116 0.000000 0.000000 0.000000 0.000000 -8.844074 0.000000 4.000000 -0.385810 0.891354 -0.237990
13.28999996 5.59999990 -0.80000001 245 34 116 0.000000 0.000000 0.000000 0.000000 -8.844074 0.000000 4.000000 -0.385810 0.891354 -0.237990
13.31999969 5.61000013 -0.82999998 245 34 116 0.000000 0.000000 0.000000 0.000000 -8.844074 0.000000 4.000000 0.011407 0.998643 -0.050814
13.31000042 5.57999992 -0.82999998 245 34 116 0.000000 0.000000 0.000000 0.000000 -8.844074 0.000000 4.000000 0.021232 0.991189 -0.130743
13.27999973 5.65000010 -0.79000002 245 34 116 0.000000 0.000000 0.000000 0.000000 -8.844074 0.000000 4.000000 -0.156389 0.972666 0.171647
13.27999973 5.63000011 -0.77999997 245 34 116 0.000000 0.000000 0.000000 0.000000 -8.844074 0.000000 4.000000 -0.459135 0.886935 0.050410
13.25000000 5.63000011 -0.82999998 245 34 116 0.000000 0.000000 0.000000 0.000000 -8.844074 0.000000 4.000000 -0.514258 0.832825 -0.204793
13.25000000 5.63000011 -0.82999998 245 34 116 0.000000 0.000000 0.000000 0.000000 -8.844074 0.000000 4.000000 -0.514258 0.832825 -0.204793
13.27000046 5.61000013 -0.77999997 245 34 116 0.000000 0.000000 0.000000 0.000000 -8.844074 0.000000 4.000000 -0.505878 0.848047 0.157810
13.27000046 5.61000013 -0.77999997 245 34 116 0.000000 0.000000 0.000000 0.000000 -8.844074 0.000000 4.000000 -0.505878 0.848047 0.157810
13.27999973 5.61000013 -0.75999999 245 34 116 0.000000 0.000000 0.000000 0.000000 -8.844074 0.000000 4.000000 -0.597041 0.749883 0.284987
13.27000046 5.61000013 -0.80000001 245 34 116 0.000000 0.000000 0.000000 0.000000 -8.844074 0.000000 4.000000 0.848422 -0.524812 -0.068943
13.27000046 5.59999990 -0.82999998 245 34 116 0.000000 0.000000 0.000000 0.000000 -8.844074 0.000000 4.000000 -0.635686 0.764878 -0.104235
13.27000046 5.61000013 -0.80000001 245 34 116 0.000000 0.000000 0.000000 0.000000 -8.844074 0.000000 4.000000 0.848422 -0.524812 -0.068943
13.31000042 5.63999987 -0.83999997 245 34 116 0.000000 0.000000 0.000000 0.000000 -8.844074 0.000000 4.000000 -0.001357 0.831841 -0.555013
13.28999996 5.63999987 -0.88999999 245 34 116 0.000000 0.000000 0.000000 0.000000 -8.844074 0.000000 4.000000 0.140959 0.989006 -0.044694
13.31999969 5.59000015 -0.86000001 245 34 116 0.000000 0.000000 0.000000 0.000000 -8.844074 0.000000 4.000000 -0.076729 -0.638440 0.765838
13.28999996 5.57999992 -0.85000002 245 34 116 0.000000 0.000000 0.000000 0.000000 -8.844074 0.000000 4.000000 -0.442031 0.896153 0.038963
13.28999996 5.59999990 -0.86000001 245 34 116 0.000000 0.000000 0.000000 0.000000 -8.844074 0.000000 4.000000 -0.341412 0.937901 0.061480
13.28999996 5.59999990 -0.86000001 245 34 116 0.000000 0.000000 0.000000 0.000000 -8.844074 0.000000 4.000000 -0.341412 0.937901 0.061480
13.28999996 5.61999989 -0.91000003 245 34 116 0.000000 0.000000 0.000000 0.000000 -8.844074 0.000000 4.000000 0.290058 0.936789 -0.195685
13.26000023 5.63000011 -0.85000002 245 34 116 0.000000 0.000000 0.000000 0.000000 -8.844074 0.000000 4.000000 -0.107262 0.904062 -0.413723
13.25000000 5.63000011 -0.83999997 245 34 116 0.000000 0.000000 0.000000 0.000000 -8.844074 0.000000 4.000000 -0.631314 0.774730 0.035151
13.27999973 5.63000011 -0.85000002 245 34 116 0.000000 0.000000 0.000000 0.000000 -8.844074 0.000000 4.000000 0.045370 0.969932 -0.239111
13.27999973 5.63000011 -0.85000002 245 34 116 0.000000 0.000000 0.000000 0.000000 -8.844074 0.000000 4.000000 0.045370 0.969932 -0.239111
13.27999973 5.63999987 -0.87000000 245 34 116 0.000000 0.000000 0.000000 0.000000 -8.844074 0.000000 4.000000 -0.196340 0.974198 0.111301
13.27999973 5.63000011 -0.86000001 245 34 116 0.000000 0.000000 0.000000 0.000000 -8.844074 0.000000 4.000000 -0.134807 0.973886 -0.182682
13.27999973 5.59999990 -0.85000002 245 34 116 0.000000 0.000000 0.000000 0.000000 -8.844074 0.000000 4.000000 -0.245686 0.846932 -0.471535
13.25000000 5.61000013 -0.85000002 245 34 116 0.000000 0.000000 0.000000 0.000000 -8.844074 0.000000 4.000000 -0.086700 0.995407 0.040606
13.25000000 5.61999989 -0.86000001 245 34 116 0.000000 0.000000 0.000000 0.000000 -8.844074 0.000000 4.000000 -0.446134 0.869887 0.210384
13.26000023 5.57999992 -0.88000000 245 34 116 0.000000 0.000000 0.000000 0.000000 -8.844074 0.000000 4.000000 -0.173011 0.984919 0.001131
13.27999973 5.59999990 -0.89999998 245 34 116 0.000000 0.000000 0.000000 0.000000 -8.844074 0.000000 4.000000 0.048111 0.937523 -0.344582
13.27999973 5.61999989 -0.88000000 245 34 116 0.000000 0.000000 0.000000 0.000000 -8.844074 0.000000 4.000000 0.103626 0.804193 -0.585266
13.27000046 5.59999990 -0.88999999 245 34 116 0.000000 0.000000 0.000000 0.000000 -8.844074 0.000000 4.000000 -0.177721 0.979306 0.096827
13.26000023 5.57999992 -0.88999999 245 34 116 0.000000 0.000000 0.000000 0.000000 -8.844074 0.000000 4.000000 -0.077905 0.959130 -0.272030
13.25000000 5.61000013 -0.88000000 245 34 116 0.000000 0.000000 0.000000 0.000000 -8.844074 0.000000 4.000000 -0.625027 0.764258 -0.158905
13.27000046 5.57999992 -0.88000000 245 34 116 0.000000 0.000000 0.000000 0.000000 -8.844074 0.000000 4.000000 0.012880 0.977704 -0.209592
13.27000046 5.59999990 -0.88999999 245 34 116 0.000000 0.000000 0.000000 0.000000 -8.844074 0.000000 4.000000 -0.177721 0.979306 0.096827
13.27999973 5.61000013 -0.88999999 245 34 116 0.000000 0.000000 0.000000 0.000000 -8.844074 0.000000 4.000000 0.085894 0.764307 -0.639106
13.31000042 5.55999994 -0.77999997 245 34 116 0.000000 0.000000 0.000000 0.000000 -8.844074 0.000000 4.000000 0.692007 -0.340305 -0.636647
13.28999996 5.57000017 -0.79000002 245 34 116 0.000000 0.000000 0.000000 0.000000 -8.844074 0.000000 4.000000 -0.666404 0.643368 0.376806
13.27999973 5.55999994 -0.79000002 245 34 116 0.000000 0.000000 0.000000 0.000000 -8.844074 0.000000 4.000000 -0.495730 0.643608 0.583113
13.27000046 5.55000019 -0.81999999 245 34 116 0.000000 0.000000 0.000000 0.000000 -8.844074 0.000000 4.000000 -0.637836 0.769609 -0.029439
13.27000046 5.53999996 -0.82999998 245 34 116 0.000000 0.000000 0.000000 0.000000 -8.844074 0.000000 4.000000 -0.391586 0.885908 0.248650
13.28999996 5.57000017 -0.91000003 245 34 116 0.000000 0.000000 0.000000 0.000000 -8.844074 0.000000 4.000000 -0.026637 -0.637886 0.769670
13.30000019 5.55999994 -0.91000003 245 34 116 0.000000 0.000000 0.000000 0.000000 -8.844074 0.000000 4.000000 -0.262812 -0.564966 0.782140
13.28999996 5.57000017 -0.91000003 245 34 116 0.000000 0.000000 0.000000 0.000000 -8.844074 0.000000 4.000000 -0.026637 -0.637886 0.769670
13.31000042 5.57000017 -0.92000002 245 34 116 0.000000 0.000000 0.000000 0.000000 -8.844074 0.000000 4.000000 -0.063622 -0.558461 0.827088
13.30000019 5.55000019 -0.92000002 245 34 116 0.000000 0.000000 0.000000 0.000000 -8.844074 0.000000 4.000000 0.023824 -0.651645 0.758150
13.25000000 5.55000019 -0.87000000 245 34 116 0.000000 0.000000 0.000000 0.000000 -8.844074 0.000000 4.000000 -0.727655 0.653183 0.209453
13.25000000 5.55000019 -0.87000000 245 34 116 0.000000 0.000000 0.000000 0.000000 -8.844074 0.000000 4.000000 -0.727655 0.653183 0.209453
13.25000000 5.55999994 -0.89999998 245 34 116 0.000000 0.000000 0.000000 0.000000 -8.844074 0.000000 4.000000 -0.003189 0.995906 0.090344
13.27000046 5.53999996 -0.88999999 245 34 116 0.000000 0.000000 0.000000 0.000000 -8.844074 0.000000 4.000000 0.014405 0.991743 -0.127431
13.23999977 5.61999989 -0.86000001 245 34 116 0.000000 0.000000 0.000000 0.000000 -8.844074 0.000000 4.000000 -0.645960 0.759185 -0.079838
13.22999954 5.61999989 -0.86000001 245 34 116 0.000000 0.000000 0.000000 0.000000 -8.844074 0.000000 4.000000 -0.310153 0.930458 0.195073
13.22999954 5.61000013 -0.86000001 245 34 116 0.000000 0.000000 0.000000 0.000000 -8.844074 0.000000 4.000000 -0.506841 0.794637 -0.334163
13.23999977 5.61000013 -0.91000003 245 34 116 0.000000 0.000000 0.000000 0.000000 -8.844074 0.000000 4.000000 -0.189336 0.972094 0.138508
13.23999977 5.57999992 -0.88999999 245 34 116 0.000000 0.000000 0.000000 0.000000 -8.844074 0.000000 4.000000 -0.069089 0.987158 -0.144034
13.23999977 5.61000013 -0.91000003 245 34 116 0.000000 0.000000 0.000000 0.000000 -8.844074 0.000000 4.000000 -0.189336 0.972094 0.138508
13.19999981 5.61000013 -0.83999997 245 34 116 0.000000 0.000000 0.000000 0.000000 -8.844074 0.000000 4.000000 -0.760240 0.539786 0.361479
13.18999958 5.59999990 -0.89999998 245 34 116 0.000000 0.000000 0.000000 0.000000 -8.844074 0.000000 4.000000 -0.412684 0.904569 -0.106992
13.31000042 5.63000011 -0.94000000 245 34 116 0.000000 0.000000 0.000000 0.000000 -8.844074 0.000000 4.000000 -0.148583 -0.616845 0.772933
13.27999973 5.63000011 -0.94999999 245 34 116 0.000000 0.000000 0.000000 0.000000 -8.844074 0.000000 4.000000 0.189265 0.902980 -0.385753
13.27000046 5.61000013 -0.98000002 245 34 116 0.000000 0.000000 0.000000 0.000000 -8.844074 0.000000 4.000000 0.308755 0.902627 -0.299891
13.25000000 5.57999992 -1.02999997 245 34 116 0.000000 0.000000 0.000000 0.000000 -8.844074 0.000000 4.000000 0.279450 0.697828 -0.659503
13.25000000 5.57999992 -1.02999997 245 34 116 0.000000 0.000000 0.000000 0.000000 -8.844074 0.000000 4.000000 0.279450 0.697828 -0.659503
13.26000023 5.55000019 -0.94000000 245 34 116 0.000000 0.000000 0.000000 0.000000 -8.844074 0.000000 4.000000 0.032445 -0.703908 0.709550
13.26000023 5.55000019 -0.94999999 245 34 116 0.000000 0.000000 0.000000 0.000000 -8.844074 0.000000 4.000000 0.172769 -0.662025 0.729297
13.25000000 5.51000023 -1.00000000 245 34 116 0.000000 0.000000 0.000000 0.000000 -8.844074 0.000000 4.000000 0.507104 0.713271 -0.483827
13.25000000 5.51000023 -1.05999994 245 34 116 0.000000 0.000000 0.000000 0.000000 -8.844074 0.000000 4.000000 0.514392 0.511041 -0.688649
13.23999977 5.59999990 -0.95999998 245 34 116 0.000000 0.000000 0.000000 0.000000 -8.844074 0.000000 4.000000 0.129376 0.979561 -0.154019
13.23999977 5.61000013 -0.93000001 245 34 116 0.000000 0.000000 0.000000 0.000000 -8.844074 0.000000 4.000000 -0.200991 0.962919 -0.179973
13.23999977 5.61000013 -0.93000001 245 34 116 0.000000 0.000000 0.000000 0.000000 -8.844074 0.000000 4.000000 -0.200991 0.962919 -0.179973
13.21000004 5.59999990 -0.97000003 245 34 116 0.000000 0.000000 0.000000 0.000000 -8.844074 0.000000 4.000000 -0.146645 0.979686 -0.136786
13.22000027 5.59999990 -0.97000003 245 34 116 0.000000 0.000000 0.000000 0.000000 -8.844074 0.000000 4.000000 0.151123 0.982903 -0.105182
13.18000031 5.57999992 -0.99000001 245 34 116 0.000000 0.000000 0.000000 0.000000 -8.844074 0.000000 4.000000 -0.400348 0.910134 -0.106667
13.21000004 5.57999992 -1.03999996 245 34 116 0.000000 0.000000 0.000000 0.000000 -8.844074 0.000000 4.000000 -0.156383 0.826593 -0.540637
13.23999977 5.59000015 -1.02999997 245 34 116 0.000000 0.000000 0.000000 0.000000 -8.844074 0.000000 4.000000 0.514754 0.626144 -0.585638
13.22999954 5.61000013 -1.05999994 245 34 116 0.000000 0.000000 0.000000 0.000000 -8.844074 0.000000 4.000000 -0.265366 -0.557425 0.786676
13.18999958 5.57999992 -1.00999999 245 34 116 0.000000 0.000000 0.000000 0.000000 -8.844074 0.000000 4.000000 -0.146687 0.920633 -0.361827
13.22000027 5.55999994 -0.93000001 245 34 116 0.000000 0.000000 0.000000 0.000000 -8.844074 0.000000 4.000000 -0.101691 0.855063 -0.508455
13.21000004 5.57000017 -0.95999998 245 34 116 0.000000 0.000000 0.000000 0.000000 -8.844074 0.000000 4.000000 0.017010 0.987712 -0.155358
13.21000004 5.57000017 -0.95999998 245 34 116 0.000000 0.000000 0.000000 0.000000 -8.844074 0.000000 4.000000 0.017010 0.987712 -0.155358
13.22999954 5.53999996 -0.93000001 245 34 116 0.000000 0.000000 0.000000 0.000000 -8.844074 0.000000 4.000000 -0.218183 0.922642 -0.318005
13.21000004 5.57000017 -0.98000002 245 34 116 0.000000 0.000000 0.000000 0.000000 -8.844074 0.000000 4.000000 -0.396155 0.900353 -0.180071
13.22999954 5.55999994 -0.99000001 245 34 116 0.000000 0.000000 0.000000 0.000000 -8.844074 0.000000 4.000000 -0.079512 -0.628868 0.773436
13.19999981 5.55000019 -0.94999999 245 34 116 0.000000 0.000000 0.000000 0.000000 -8.844074 0.000000 4.000000 -0.035117 0.790828 -0.611030
