//X Y Z R G B PointSourceId ScanDirectionFlag NumberOfReturns ReturnNumber GpsTime Intensity Classification Nx Ny Nz
-5.01000023 -9.34000015 -0.82999998 151 56 152 0.000000 0.000000 0.000000 0.000000 -8.844074 0.000000 130.000000 0.843240 -0.492016 0.216487
-5.01000023 -9.34000015 -0.83999997 151 56 152 0.000000 0.000000 0.000000 0.000000 -8.844074 0.000000 130.000000 0.877141 -0.383276 0.289350
-5.09999990 -9.27999973 -0.31000000 151 56 152 0.000000 0.000000 0.000000 0.000000 -8.844074 0.000000 130.000000 -0.504627 0.781930 -0.365975
-5.03999996 -9.26000023 -0.34000000 151 56 152 0.000000 0.000000 0.000000 0.000000 -8.844074 0.000000 130.000000 -0.665213 0.726382 0.172802
-5.05000019 -9.27000046 -0.38000000 151 56 152 0.000000 0.000000 0.000000 0.000000 -8.844074 0.000000 130.000000 -0.582469 0.798088 0.154227
-5.05000019 -9.27000046 -0.38999999 151 56 152 0.000000 0.000000 0.000000 0.000000 -8.844074 0.000000 130.000000 -0.672109 0.739743 -0.032408
-5.09000015 -9.27999973 -0.34999999 151 56 152 0.000000 0.000000 0.000000 0.000000 -8.844074 0.000000 130.000000 -0.681642 0.727953 0.073808
-5.13000011 -9.26000023 -0.25999999 151 56 152 0.000000 0.000000 0.000000 0.000000 -8.844074 0.000000 130.000000 0.753437 -0.651028 0.092168
-5.13999987 -9.27999973 -0.27000001 151 56 152 0.000000 0.000000 0.000000 0.000000 -8.844074 0.000000 130.000000 -0.632592 0.642607 -0.432299
-5.13000011 -9.26000023 -0.25999999 151 56 152 0.000000 0.000000 0.000000 0.000000 -8.844074 0.000000 130.000000 0.753437 -0.651028 0.092168
-5.13999987 -9.27999973 -0.38999999 151 56 152 0.000000 0.000000 0.000000 0.000000 -8.844074 0.000000 130.000000 -0.365118 0.829813 -0.422019
-5.11999989 -9.27999973 -0.38000000 151 56 152 0.000000 0.000000 0.000000 0.000000 -8.844074 0.000000 130.000000 -0.477079 0.861105 0.175766
-5.15000010 -9.27000046 -0.34000000 151 56 152 0.000000 0.000000 0.000000 0.000000 -8.844074 0.000000 130.000000 -0.658474 0.731808 -0.175695
-5.15000010 -9.27000046 -0.41000000 151 56 152 0.000000 0.000000 0.000000 0.000000 -8.844074 0.000000 130.000000 -0.461681 0.865466 -0.194470
-5.09000015 -9.28999996 -0.56999999 151 56 152 0.000000 0.000000 0.000000 0.000000 -8.844074 0.000000 130.000000 -0.567003 0.819642 0.081821
-5.11000013 -9.30000019 -0.41999999 151 56 152 0.000000 0.000000 0.000000 0.000000 -8.844074 0.000000 130.000000 -0.515181 0.723904 -0.458859
-5.11000013 -9.30000019 -0.49000001 151 56 152 0.000000 0.000000 0.000000 0.000000 -8.844074 0.000000 130.000000 0.716594 -0.670362 0.192633
-5.11000013 -9.30000019 -0.47999999 151 56 152 0.000000 0.000000 0.000000 0.000000 -8.844074 0.000000 130.000000 -0.464154 0.878628 0.112135
-5.17999983 -9.32999992 -0.56000000 151 56 152 0.000000 0.000000 0.000000 0.000000 -8.844074 0.000000 130.000000 -0.466810 0.884130 -0.020063
-5.11000013 -9.31000042 -0.54000002 151 56 152 0.000000 0.000000 0.000000 0.000000 -8.844074 0.000000 130.000000 -0.534932 0.682499 -0.498040
-5.15000010 -9.31999969 -0.56999999 151 56 152 0.000000 0.000000 0.000000 0.000000 -8.844074 0.000000 130.000000 -0.428456 0.803956 -0.412409
-5.23000002 -9.30000019 -0.30000001 151 56 152 0.000000 0.000000 0.000000 0.000000 -8.844074 0.000000 130.000000 -0.263424 0.912523 -0.312906
-5.19999981 -9.28999996 -0.34999999 151 56 152 0.000000 0.000000 0.000000 0.000000 -8.844074 0.000000 130.000000 -0.442095 0.855125 -0.270764
-5.19999981 -9.28999996 -0.34999999 151 56 152 0.000000 0.000000 0.000000 0.000000 -8.844074 0.000000 130.000000 -0.442095 0.855125 -0.270764
-5.23000002 -9.28999996 -0.40000001 151 56 152 0.000000 0.000000 0.000000 0.000000 -8.844074 0.000000 130.000000 -0.225206 0.908090 -0.353065
-5.28000021 -9.28999996 -0.41000000 151 56 152 0.000000 0.000000 0.000000 0.000000 -8.844074 0.000000 130.000000 -0.231607 0.972751 -0.010690
-5.28000021 -9.30000019 -0.40000001 151 56 152 0.000000 0.000000 0.000000 0.000000 -8.844074 0.000000 130.000000 -0.244278 0.801296 -0.546126
-5.30999994 -9.27999973 -0.33000001 151 56 152 0.000000 0.000000 0.000000 0.000000 -8.844074 0.000000 130.000000 0.190928 0.792734 -0.578895
-5.26999998 -9.30000019 -0.41999999 151 56 152 0.000000 0.000000 0.000000 0.000000 -8.844074 0.000000 130.000000 0.081443 0.833004 -0.547239
-5.26999998 -9.31999969 -0.44000000 151 56 152 0.000000 0.000000 0.000000 0.000000 -8.844074 0.000000 130.000000 -0.321118 0.851660 -0.414195
-5.19999981 -9.31000042 -0.47999999 151 56 152 0.000000 0.000000 0.000000 0.000000 -8.844074 0.000000 130.000000 -0.362681 0.746505 -0.557846
-5.25000000 -9.31999969 -0.47999999 151 56 152 0.000000 0.000000 0.000000 0.000000 -8.844074 0.000000 130.000000 -0.048464 0.859887 -0.508178
-5.21999979 -9.35000038 -0.56000000 151 56 152 0.000000 0.000000 0.000000 0.000000 -8.844074 0.000000 130.000000 -0.346678 0.717770 -0.603838
-5.25000000 -9.31999969 -0.51999998 151 56 152 0.000000 0.000000 0.000000 0.000000 -8.844074 0.000000 130.000000 -0.191703 0.930527 -0.312041
-5.26000023 -9.35000038 -0.56999999 151 56 152 0.000000 0.000000 0.000000 0.000000 -8.844074 0.000000 130.000000 -0.319062 0.947017 0.036864
-5.19000006 -9.36999989 -0.57999998 151 56 152 0.000000 0.000000 0.000000 0.000000 -8.844074 0.000000 130.000000 0.514737 -0.759850 0.397083
-5.32999992 -9.30000019 -0.44999999 151 56 152 0.000000 0.000000 0.000000 0.000000 -8.844074 0.000000 130.000000 0.119285 0.793758 -0.596423
-5.34000015 -9.30000019 -0.49000001 151 56 152 0.000000 0.000000 0.000000 0.000000 -8.844074 0.000000 130.000000 -0.209643 -0.740738 0.638246
-5.30999994 -9.31000042 -0.46000001 151 56 152 0.000000 0.000000 0.000000 0.000000 -8.844074 0.000000 130.000000 -0.207981 0.860352 -0.465338
-5.30000019 -9.32999992 -0.52999997 151 56 152 0.000000 0.000000 0.000000 0.000000 -8.844074 0.000000 130.000000 -0.100703 0.869446 -0.483656
-5.30000019 -9.34000015 -0.54000002 151 56 152 0.000000 0.000000 0.000000 0.000000 -8.844074 0.000000 130.000000 -0.409015 0.832242 -0.374272
-5.32000017 -9.31000042 -0.50000000 151 56 152 0.000000 0.000000 0.000000 0.000000 -8.844074 0.000000 130.000000 -0.049024 0.833413 -0.550473
-5.34000015 -9.34000015 -0.52999997 151 56 152 0.000000 0.000000 0.000000 0.000000 -8.844074 0.000000 130.000000 -0.150564 0.962303 -0.226501
-5.05000019 -9.32999992 -0.67000002 151 56 152 0.000000 0.000000 0.000000 0.000000 -8.844074 0.000000 130.000000 0.721918 -0.683534 0.107771
-5.17999983 -9.34000015 -0.63000000 151 56 152 0.000000 0.000000 0.000000 0.000000 -8.844074 0.000000 130.000000 -0.277163 0.855991 -0.436417
-5.11000013 -9.35000038 -0.63000000 151 56 152 0.000000 0.000000 0.000000 0.000000 -8.844074 0.000000 130.000000 0.910037 -0.413413 0.030379
-5.17000008 -9.38000011 -0.75000000 151 56 152 0.000000 0.000000 0.000000 0.000000 -8.844074 0.000000 130.000000 -0.414926 0.909696 -0.017016
-5.05999994 -9.35000038 -0.92000002 151 56 152 0.000000 0.000000 0.000000 0.000000 -8.844074 0.000000 130.000000 -0.647303 0.761944 0.020971
-5.11000013 -9.35999966 -0.81999999 151 56 152 0.000000 0.000000 0.000000 0.000000 -8.844074 0.000000 130.000000 -0.596689 0.802443 0.006858
-5.17000008 -9.38000011 -0.75999999 151 56 152 0.000000 0.000000 0.000000 0.000000 -8.844074 0.000000 130.000000 -0.521280 0.840251 -0.149148
-5.13000011 -9.35999966 -0.81000000 151 56 152 0.000000 0.000000 0.000000 0.000000 -8.844074 0.000000 130.000000 -0.534712 0.844210 -0.037306
-5.13000011 -9.38000011 -0.88000000 151 56 152 0.000000 0.000000 0.000000 0.000000 -8.844074 0.000000 130.000000 -0.677677 0.641578 -0.359349
-5.11000013 -9.38000011 -0.89999998 151 56 152 0.000000 0.000000 0.000000 0.000000 -8.844074 0.000000 130.000000 0.931369 -0.342275 0.124092
-5.15999985 -9.42000008 -0.89999998 151 56 152 0.000000 0.000000 0.000000 0.000000 -8.844074 0.000000 130.000000 0.665056 -0.611718 0.428370
-5.13999987 -9.39999962 -0.88999999 151 56 152 0.000000 0.000000 0.000000 0.000000 -8.844074 0.000000 130.000000 -0.578717 0.807273 -0.115743
-5.15000010 -9.40999985 -0.92000002 151 56 152 0.000000 0.000000 0.000000 0.000000 -8.844074 0.000000 130.000000 -0.689788 0.716376 -0.104871
-5.15999985 -9.39000034 -0.79000002 151 56 152 0.000000 0.000000 0.000000 0.000000 -8.844074 0.000000 130.000000 -0.393890 0.848499 -0.353412
-5.17999983 -9.43000031 -0.87000000 151 56 152 0.000000 0.000000 0.000000 0.000000 -8.844074 0.000000 130.000000 -0.396639 0.917638 -0.024872
-5.15999985 -9.39000034 -0.79000002 151 56 152 0.000000 0.000000 0.000000 0.000000 -8.844074 0.000000 130.000000 -0.393890 0.848499 -0.353412
-5.25000000 -9.35000038 -0.62000000 151 56 152 0.000000 0.000000 0.000000 0.000000 -8.844074 0.000000 130.000000 -0.238700 0.903544 -0.355853
-5.21000004 -9.35000038 -0.63000000 151 56 152 0.000000 0.000000 0.000000 0.000000 -8.844074 0.000000 130.000000 -0.422452 0.714027 -0.558300
-5.19999981 -9.38000011 -0.75000000 151 56 152 0.000000 0.000000 0.000000 0.000000 -8.844074 0.000000 130.000000 -0.446277 0.769950 -0.456085
-5.30999994 -9.35999966 -0.62000000 151 56 152 0.000000 0.000000 0.000000 0.000000 -8.844074 0.000000 130.000000 -0.339114 0.932904 -0.121209
-5.28000021 -9.36999989 -0.62000000 151 56 152 0.000000 0.000000 0.000000 0.000000 -8.844074 0.000000 130.000000 0.243258 -0.748607 0.616777
-5.30999994 -9.35000038 -0.66000003 151 56 152 0.000000 0.000000 0.000000 0.000000 -8.844074 0.000000 130.000000 -0.163847 0.986470 -0.005650
-5.32999992 -9.35999966 -0.63999999 151 56 152 0.000000 0.000000 0.000000 0.000000 -8.844074 0.000000 130.000000 0.017987 0.806626 -0.590788
-5.34000015 -9.35000038 -0.68000001 151 56 152 0.000000 0.000000 0.000000 0.000000 -8.844074 0.000000 130.000000 -0.203658 0.892288 -0.402921
-5.19000006 -9.39000034 -0.77999997 151 56 152 0.000000 0.000000 0.000000 0.000000 -8.844074 0.000000 130.000000 -0.676314 0.682709 -0.276601
-5.19999981 -9.40999985 -0.82999998 151 56 152 0.000000 0.000000 0.000000 0.000000 -8.844074 0.000000 130.000000 -0.386937 0.867168 -0.313526
-5.21999979 -9.42000008 -0.82999998 151 56 152 0.000000 0.000000 0.000000 0.000000 -8.844074 0.000000 130.000000 -0.560744 0.725185 -0.399592
-5.19000006 -9.39999962 -0.79000002 151 56 152 0.000000 0.000000 0.000000 0.000000 -8.844074 0.000000 130.000000 -0.415559 0.902478 -0.113334
-5.19000006 -9.43999958 -0.91000003 151 56 152 0.000000 0.000000 0.000000 0.000000 -8.844074 0.000000 130.000000 -0.515556 0.777374 -0.360404
-5.21999979 -9.43000031 -0.86000001 151 56 152 0.000000 0.000000 0.000000 0.000000 -8.844074 0.000000 130.000000 -0.624700 0.754268 0.202064
-5.28999996 -9.43000031 -0.82999998 151 56 152 0.000000 0.000000 0.000000 0.000000 -8.844074 0.000000 130.000000 -0.340123 0.772128 -0.536782
-5.32999992 -9.43999958 -0.80000001 151 56 152 0.000000 0.000000 0.000000 0.000000 -8.844074 0.000000 130.000000 0.057317 0.851360 -0.521441
-5.34000015 -9.40999985 -0.82999998 151 56 152 0.000000 0.000000 0.000000 0.000000 -8.844074 0.000000 130.000000 -0.245341 0.961891 -0.120723
-5.32000017 -9.40999985 -0.82999998 151 56 152 0.000000 0.000000 0.000000 0.000000 -8.844074 0.000000 130.000000 -0.162322 0.897800 -0.409397
-5.30999994 -9.43999958 -0.86000001 151 56 152 0.000000 0.000000 0.000000 0.000000 -8.844074 0.000000 130.000000 -0.106624 0.807711 -0.579857
-5.28000021 -9.44999981 -0.88000000 151 56 152 0.000000 0.000000 0.000000 0.000000 -8.844074 0.000000 130.000000 -0.397407 0.776972 -0.488243
-5.32000017 -9.46000004 -0.91000003 151 56 152 0.000000 0.000000 0.000000 0.000000 -8.844074 0.000000 130.000000 -0.130971 0.902717 -0.409814
-5.13000011 -9.39999962 -0.94999999 151 56 152 0.000000 0.000000 0.000000 0.000000 -8.844074 0.000000 130.000000 -0.616777 0.748607 -0.243258
-5.17000008 -9.43999958 -0.95999998 151 56 152 0.000000 0.000000 0.000000 0.000000 -8.844074 0.000000 130.000000 -0.452344 0.867366 -0.207511
-5.17999983 -9.43999958 -0.94999999 151 56 152 0.000000 0.000000 0.000000 0.000000 -8.844074 0.000000 130.000000 -0.533063 0.844828 -0.045930
-5.23999977 -9.47000027 -0.93000001 151 56 152 0.000000 0.000000 0.000000 0.000000 -8.844074 0.000000 130.000000 -0.328160 0.942974 -0.055774
-5.25000000 -9.51000023 -0.99000001 151 56 152 0.000000 0.000000 0.000000 0.000000 -8.844074 0.000000 130.000000 -0.367707 0.863111 -0.346167
-5.26000023 -9.48999977 -0.97000003 151 56 152 0.000000 0.000000 0.000000 0.000000 -8.844074 0.000000 130.000000 -0.306655 0.880690 -0.361037
-5.25000000 -9.48999977 -0.98000002 151 56 152 0.000000 0.000000 0.000000 0.000000 -8.844074 0.000000 130.000000 -0.423630 0.813690 -0.398053
-5.23000002 -9.51000023 -1.01999998 151 56 152 0.000000 0.000000 0.000000 0.000000 -8.844074 0.000000 130.000000 0.773572 -0.575059 0.266260
-5.26000023 -9.52000046 -1.00999999 151 56 152 0.000000 0.000000 0.000000 0.000000 -8.844074 0.000000 130.000000 -0.249055 0.897482 -0.364003
-5.25000000 -9.52000046 -1.00999999 151 56 152 0.000000 0.000000 0.000000 0.000000 -8.844074 0.000000 130.000000 -0.306501 0.883268 -0.354817
-5.25000000 -9.51000023 -1.00999999 151 56 152 0.000000 0.000000 0.000000 0.000000 -8.844074 0.000000 130.000000 -0.318015 0.784650 -0.532156
-5.23999977 -9.52000046 -1.00999999 151 56 152 0.000000 0.000000 0.000000 0.000000 -8.844074 0.000000 130.000000 -0.397047 0.818013 -0.416182
-5.44999981 -9.19999981 -0.38000000 151 56 152 0.000000 0.000000 0.000000 0.000000 -8.844074 0.000000 130.000000 0.272011 0.912036 -0.306921
-5.46000004 -9.21000004 -0.38999999 151 56 152 0.000000 0.000000 0.000000 0.000000 -8.844074 0.000000 130.000000 0.319068 0.828318 -0.460526
-5.57000017 -8.98999977 -0.55000001 151 56 152 0.000000 0.000000 0.000000 0.000000 -8.844074 0.000000 130.000000 0.950641 -0.240033 -0.196638
-5.57000017 -9.02999973 -0.56999999 151 56 152 0.000000 0.000000 0.000000 0.000000 -8.844074 0.000000 130.000000 0.825338 -0.470050 -0.312842
-5.48999977 -9.18999958 -0.63000000 151 56 152 0.000000 0.000000 0.000000 0.000000 -8.844074 0.000000 130.000000 0.892521 0.111038 -0.437124
-5.51999998 -9.21000004 -0.73000002 151 56 152 0.000000 0.000000 0.000000 0.000000 -8.844074 0.000000 130.000000 0.817922 0.162986 -0.551761
-5.51000023 -9.19999981 -0.81999999 151 56 152 0.000000 0.000000 0.000000 0.000000 -8.844074 0.000000 130.000000 0.983861 0.109854 0.141241
-5.53999996 -9.11999989 -0.63999999 151 56 152 0.000000 0.000000 0.000000 0.000000 -8.844074 0.000000 130.000000 0.972055 -0.013088 -0.234388
-5.55000019 -9.07999992 -0.58999997 151 56 152 0.000000 0.000000 0.000000 0.000000 -8.844074 0.000000 130.000000 0.993590 -0.093184 0.063994
-5.55000019 -9.18999958 -0.75000000 151 56 152 0.000000 0.000000 0.000000 0.000000 -8.844074 0.000000 130.000000 0.774811 0.142373 -0.615952
-5.53000021 -9.18999958 -0.72000003 151 56 152 0.000000 0.000000 0.000000 0.000000 -8.844074 0.000000 130.000000 0.982103 -0.140300 -0.125660
-5.53999996 -9.15999985 -0.73000002 151 56 152 0.000000 0.000000 0.000000 0.000000 -8.844074 0.000000 130.000000 0.964419 0.106304 -0.242065
-5.53000021 -9.18999958 -0.72000003 151 56 152 0.000000 0.000000 0.000000 0.000000 -8.844074 0.000000 130.000000 0.982103 -0.140300 -0.125660
-5.53000021 -9.18999958 -0.72000003 151 56 152 0.000000 0.000000 0.000000 0.000000 -8.844074 0.000000 130.000000 0.982103 -0.140300 -0.125660
-5.55999994 -9.11999989 -0.82999998 151 56 152 0.000000 0.000000 0.000000 0.000000 -8.844074 0.000000 130.000000 0.982790 -0.070455 0.170764
-5.55000019 -9.13000011 -0.79000002 151 56 152 0.000000 0.000000 0.000000 0.000000 -8.844074 0.000000 130.000000 0.830241 -0.181662 -0.526971
-5.57000017 -9.10999966 -0.89999998 151 56 152 0.000000 0.000000 0.000000 0.000000 -8.844074 0.000000 130.000000 0.974629 -0.198420 -0.103578
-5.57000017 -9.10999966 -0.89999998 151 56 152 0.000000 0.000000 0.000000 0.000000 -8.844074 0.000000 130.000000 0.974629 -0.198420 -0.103578
-5.57000017 -9.17000008 -0.89999998 151 56 152 0.000000 0.000000 0.000000 0.000000 -8.844074 0.000000 130.000000 0.989039 -0.097148 -0.111194
-5.57000017 -9.18000031 -0.88999999 151 56 152 0.000000 0.000000 0.000000 0.000000 -8.844074 0.000000 130.000000 0.986258 0.031072 -0.162266
-5.57000017 -9.17000008 -0.92000002 151 56 152 0.000000 0.000000 0.000000 0.000000 -8.844074 0.000000 130.000000 0.974129 -0.173094 -0.145298
-5.57000017 -9.18999958 -0.92000002 151 56 152 0.000000 0.000000 0.000000 0.000000 -8.844074 0.000000 130.000000 0.954996 -0.018580 -0.296036
-5.55999994 -9.14000034 -0.83999997 151 56 152 0.000000 0.000000 0.000000 0.000000 -8.844074 0.000000 130.000000 0.974990 -0.017770 -0.221535
-5.55999994 -9.21000004 -0.87000000 151 56 152 0.000000 0.000000 0.000000 0.000000 -8.844074 0.000000 130.000000 0.990464 0.105172 0.088992
-5.53999996 -9.18999958 -0.83999997 151 56 152 0.000000 0.000000 0.000000 0.000000 -8.844074 0.000000 130.000000 0.869691 -0.062418 -0.489635
-5.55000019 -9.19999981 -0.85000002 151 56 152 0.000000 0.000000 0.000000 0.000000 -8.844074 0.000000 130.000000 0.854788 0.012192 -0.518834
-5.57000017 -9.19999981 -0.91000003 151 56 152 0.000000 0.000000 0.000000 0.000000 -8.844074 0.000000 130.000000 0.982908 -0.053226 -0.176237
-5.55000019 -9.19999981 -0.85000002 151 56 152 0.000000 0.000000 0.000000 0.000000 -8.844074 0.000000 130.000000 0.854788 0.012192 -0.518834
-5.55999994 -9.19999981 -0.83999997 151 56 152 0.000000 0.000000 0.000000 0.000000 -8.844074 0.000000 130.000000 0.980186 -0.195091 0.034289
-5.61999989 -9.10000038 -0.92000002 151 56 152 0.000000 0.000000 0.000000 0.000000 -8.844074 0.000000 130.000000 0.810648 -0.556089 0.183343
-5.38999987 -9.22999954 -0.30000001 151 56 152 0.000000 0.000000 0.000000 0.000000 -8.844074 0.000000 130.000000 0.229631 0.809104 -0.540944
-5.40000010 -9.23999977 -0.30000001 151 56 152 0.000000 0.000000 0.000000 0.000000 -8.844074 0.000000 130.000000 0.176253 0.884179 -0.432622
-5.38000011 -9.27000046 -0.47999999 151 56 152 0.000000 0.000000 0.000000 0.000000 -8.844074 0.000000 130.000000 0.126141 0.891494 -0.435117
-5.40999985 -9.23999977 -0.43000001 151 56 152 0.000000 0.000000 0.000000 0.000000 -8.844074 0.000000 130.000000 0.687461 0.510160 -0.516850
-5.36000013 -9.30000019 -0.51999998 151 56 152 0.000000 0.000000 0.000000 0.000000 -8.844074 0.000000 130.000000 -0.104884 -0.695782 0.710554
-5.38999987 -9.30000019 -0.50000000 151 56 152 0.000000 0.000000 0.000000 0.000000 -8.844074 0.000000 130.000000 0.096447 0.830599 -0.548455
-5.38000011 -9.32999992 -0.67000002 151 56 152 0.000000 0.000000 0.000000 0.000000 -8.844074 0.000000 130.000000 -0.228931 0.905518 -0.357250
-5.51999998 -9.22999954 -0.70999998 151 56 152 0.000000 0.000000 0.000000 0.000000 -8.844074 0.000000 130.000000 0.985965 0.120414 -0.115645
-5.48999977 -9.23999977 -0.68000001 151 56 152 0.000000 0.000000 0.000000 0.000000 -8.844074 0.000000 130.000000 0.672332 0.504668 -0.541554
-5.51000023 -9.27000046 -0.73000002 151 56 152 0.000000 0.000000 0.000000 0.000000 -8.844074 0.000000 130.000000 0.675563 0.524693 -0.517988
-5.51000023 -9.27000046 -0.76999998 151 56 152 0.000000 0.000000 0.000000 0.000000 -8.844074 0.000000 130.000000 0.939180 0.293752 -0.177906
-5.51000023 -9.30000019 -0.83999997 151 56 152 0.000000 0.000000 0.000000 0.000000 -8.844074 0.000000 130.000000 0.896255 0.316588 -0.310642
-5.51999998 -9.26000023 -0.83999997 151 56 152 0.000000 0.000000 0.000000 0.000000 -8.844074 0.000000 130.000000 0.904979 0.197739 -0.376714
-5.50000000 -9.32999992 -0.88000000 151 56 152 0.000000 0.000000 0.000000 0.000000 -8.844074 0.000000 130.000000 0.391974 0.623520 -0.676445
-5.48000002 -9.36999989 -0.88999999 151 56 152 0.000000 0.000000 0.000000 0.000000 -8.844074 0.000000 130.000000 0.265738 0.781490 -0.564497
-5.48999977 -9.31999969 -0.83999997 151 56 152 0.000000 0.000000 0.000000 0.000000 -8.844074 0.000000 130.000000 0.580450 0.597373 -0.553374
-5.36999989 -9.43999958 -0.85000002 151 56 152 0.000000 0.000000 0.000000 0.000000 -8.844074 0.000000 130.000000 -0.285705 0.844761 -0.452495
-5.36999989 -9.43000031 -0.88000000 151 56 152 0.000000 0.000000 0.000000 0.000000 -8.844074 0.000000 130.000000 0.151515 0.851718 -0.501617
-5.53000021 -9.22999954 -0.77999997 151 56 152 0.000000 0.000000 0.000000 0.000000 -8.844074 0.000000 130.000000 0.936758 -0.080823 -0.340519
-5.55000019 -9.30000019 -0.91000003 151 56 152 0.000000 0.000000 0.000000 0.000000 -8.844074 0.000000 130.000000 0.957036 0.169045 -0.235598
-5.57000017 -9.23999977 -0.88000000 151 56 152 0.000000 0.000000 0.000000 0.000000 -8.844074 0.000000 130.000000 0.772593 0.135988 -0.620167
-5.55999994 -9.22999954 -0.86000001 151 56 152 0.000000 0.000000 0.000000 0.000000 -8.844074 0.000000 130.000000 0.962222 0.161464 -0.219224
-5.57000017 -9.22999954 -0.91000003 151 56 152 0.000000 0.000000 0.000000 0.000000 -8.844074 0.000000 130.000000 0.988806 -0.070878 -0.131299
-5.57000017 -9.27000046 -0.88999999 151 56 152 0.000000 0.000000 0.000000 0.000000 -8.844074 0.000000 130.000000 0.879767 0.279171 -0.384804
-5.57000017 -9.22000027 -0.91000003 151 56 152 0.000000 0.000000 0.000000 0.000000 -8.844074 0.000000 130.000000 0.983438 -0.031498 -0.178489
-5.55999994 -9.22000027 -0.88000000 151 56 152 0.000000 0.000000 0.000000 0.000000 -8.844074 0.000000 130.000000 0.956941 -0.135578 -0.256676
-5.53000021 -9.32999992 -0.91000003 151 56 152 0.000000 0.000000 0.000000 0.000000 -8.844074 0.000000 130.000000 0.696339 0.376978 -0.610737
-5.53000021 -9.32999992 -0.91000003 151 56 152 0.000000 0.000000 0.000000 0.000000 -8.844074 0.000000 130.000000 0.696339 0.376978 -0.610737
-5.57999992 -9.17000008 -0.94000000 151 56 152 0.000000 0.000000 0.000000 0.000000 -8.844074 0.000000 130.000000 0.975828 0.001169 -0.218539
-5.57999992 -9.17000008 -0.94999999 151 56 152 0.000000 0.000000 0.000000 0.000000 -8.844074 0.000000 130.000000 0.998187 -0.009387 -0.059453
-5.57999992 -9.15999985 -0.95999998 151 56 152 0.000000 0.000000 0.000000 0.000000 -8.844074 0.000000 130.000000 0.954454 -0.278873 -0.106050
-5.57000017 -9.15999985 -0.93000001 151 56 152 0.000000 0.000000 0.000000 0.000000 -8.844074 0.000000 130.000000 0.977418 -0.115209 -0.177149
-5.51999998 -9.36999989 -0.97000003 151 56 152 0.000000 0.000000 0.000000 0.000000 -8.844074 0.000000 130.000000 0.314466 0.720852 -0.617643
-5.38999987 -9.43999958 -0.93000001 151 56 152 0.000000 0.000000 0.000000 0.000000 -8.844074 0.000000 130.000000 -0.023624 0.796261 -0.604491
-5.44999981 -9.42000008 -0.94999999 151 56 152 0.000000 0.000000 0.000000 0.000000 -8.844074 0.000000 130.000000 0.224342 0.787519 -0.574007
-5.51000023 -9.39000034 -0.98000002 151 56 152 0.000000 0.000000 0.000000 0.000000 -8.844074 0.000000 130.000000 -0.376407 -0.619675 0.688710
-5.48999977 -9.39999962 -0.94000000 151 56 152 0.000000 0.000000 0.000000 0.000000 -8.844074 0.000000 130.000000 0.661550 0.533616 -0.526883
-5.48000002 -9.40999985 -0.94999999 151 56 152 0.000000 0.000000 0.000000 0.000000 -8.844074 0.000000 130.000000 0.371814 0.761489 -0.530932
-5.46999979 -9.43000031 -0.97000003 151 56 152 0.000000 0.000000 0.000000 0.000000 -8.844074 0.000000 130.000000 0.357284 0.774385 -0.522184
-5.57000017 -9.28999996 -0.93000001 151 56 152 0.000000 0.000000 0.000000 0.000000 -8.844074 0.000000 130.000000 0.632146 0.554603 -0.541117
-5.59000015 -9.28999996 -0.98000002 151 56 152 0.000000 0.000000 0.000000 0.000000 -8.844074 0.000000 130.000000 0.849266 0.006751 -0.527922
-5.57000017 -9.30000019 -0.94000000 151 56 152 0.000000 0.000000 0.000000 0.000000 -8.844074 0.000000 130.000000 0.762455 0.101367 -0.639052
-5.53999996 -9.35000038 -0.93000001 151 56 152 0.000000 0.000000 0.000000 0.000000 -8.844074 0.000000 130.000000 0.647231 0.456573 -0.610437
-5.55999994 -9.31000042 -0.99000001 151 56 152 0.000000 0.000000 0.000000 0.000000 -8.844074 0.000000 130.000000 0.943553 0.127871 -0.305544
-5.55999994 -9.42000008 -1.04999995 151 56 152 0.000000 0.000000 0.000000 0.000000 -8.844074 0.000000 130.000000 0.760240 0.361479 -0.539786
-5.55000019 -9.39000034 -0.99000001 151 56 152 0.000000 0.000000 0.000000 0.000000 -8.844074 0.000000 130.000000 0.459594 0.586610 -0.666830
-5.55999994 -9.42000008 -1.04999995 151 56 152 0.000000 0.000000 0.000000 0.000000 -8.844074 0.000000 130.000000 0.760240 0.361479 -0.539786
-5.57000017 -9.40999985 -1.05999994 151 56 152 0.000000 0.000000 0.000000 0.000000 -8.844074 0.000000 130.000000 0.697294 0.520044 -0.493290
-5.53999996 -9.39999962 -1.00000000 151 56 152 0.000000 0.000000 0.000000 0.000000 -8.844074 0.000000 130.000000 0.299832 0.732745 -0.610888
-4.84000015 -8.98999977 0.52999997 151 56 152 0.000000 0.000000 0.000000 0.000000 -8.844074 0.000000 130.000000 -0.406810 0.898431 -0.165311
-4.84999990 -8.93000031 0.73000002 151 56 152 0.000000 0.000000 0.000000 0.000000 -8.844074 0.000000 130.000000 -0.338433 0.910719 -0.236758
-4.88000011 -8.97999954 0.75000000 151 56 152 0.000000 0.000000 0.000000 0.000000 -8.844074 0.000000 130.000000 -0.154969 0.936673 -0.314053
-4.88000011 -9.02000046 0.69999999 151 56 152 0.000000 0.000000 0.000000 0.000000 -8.844074 0.000000 130.000000 -0.213041 0.976135 0.042127
-4.84999990 -8.98999977 0.73000002 151 56 152 0.000000 0.000000 0.000000 0.000000 -8.844074 0.000000 130.000000 -0.215735 0.968892 -0.121271
-4.88999987 -9.02000046 0.70999998 151 56 152 0.000000 0.000000 0.000000 0.000000 -8.844074 0.000000 130.000000 -0.276063 0.950884 0.140032
-4.88999987 -8.98999977 0.66000003 151 56 152 0.000000 0.000000 0.000000 0.000000 -8.844074 0.000000 130.000000 -0.214739 0.976411 -0.022542
-4.86999989 -8.98999977 0.46000001 151 56 152 0.000000 0.000000 0.000000 0.000000 -8.844074 0.000000 130.000000 -0.291838 0.951418 -0.098152
-4.92000008 -9.06999969 0.47999999 151 56 152 0.000000 0.000000 0.000000 0.000000 -8.844074 0.000000 130.000000 -0.149594 0.988670 -0.012372
-4.90000010 -9.06999969 0.47999999 151 56 152 0.000000 0.000000 0.000000 0.000000 -8.844074 0.000000 130.000000 -0.385458 0.788657 -0.479000
-4.90000010 -9.06999969 0.30000001 151 56 152 0.000000 0.000000 0.000000 0.000000 -8.844074 0.000000 130.000000 -0.294050 0.908482 -0.296976
-4.98999977 -9.17000008 0.28999999 151 56 152 0.000000 0.000000 0.000000 0.000000 -8.844074 0.000000 130.000000 -0.575022 0.668903 -0.471082
-5.00000000 -9.21000004 -0.14000000 151 56 152 0.000000 0.000000 0.000000 0.000000 -8.844074 0.000000 130.000000 -0.450417 0.737496 -0.503213
-5.05999994 -9.19999981 0.18000001 151 56 152 0.000000 0.000000 0.000000 0.000000 -8.844074 0.000000 130.000000 -0.514983 0.682729 -0.518337
-5.17000008 -9.22000027 0.34000000 151 56 152 0.000000 0.000000 0.000000 0.000000 -8.844074 0.000000 130.000000 -0.309381 0.794871 -0.521981
-5.09999990 -9.22999954 0.22000000 151 56 152 0.000000 0.000000 0.000000 0.000000 -8.844074 0.000000 130.000000 -0.505891 0.804034 -0.312416
-5.25000000 -9.23999977 0.19000000 151 56 152 0.000000 0.000000 0.000000 0.000000 -8.844074 0.000000 130.000000 -0.258791 0.935846 -0.239207
-5.05999994 -9.25000000 -0.11000000 151 56 152 0.000000 0.000000 0.000000 0.000000 -8.844074 0.000000 130.000000 -0.598803 0.774287 -0.204732
-5.03999996 -9.26000023 -0.23999999 151 56 152 0.000000 0.000000 0.000000 0.000000 -8.844074 0.000000 130.000000 -0.699379 0.713566 0.041140
-5.17999983 -9.28999996 -0.20999999 151 56 152 0.000000 0.000000 0.000000 0.000000 -8.844074 0.000000 130.000000 0.159304 -0.744936 0.647837
-5.13999987 -9.27999973 -0.17000000 151 56 152 0.000000 0.000000 0.000000 0.000000 -8.844074 0.000000 130.000000 -0.601926 0.769041 -0.215084
-5.19000006 -9.25000000 0.01000000 151 56 152 0.000000 0.000000 0.000000 0.000000 -8.844074 0.000000 130.000000 -0.470303 0.790304 -0.392728
-5.26000023 -9.25000000 -0.02000000 151 56 152 0.000000 0.000000 0.000000 0.000000 -8.844074 0.000000 130.000000 -0.168049 0.776657 -0.607094
-5.30000019 -9.22999954 0.01000000 151 56 152 0.000000 0.000000 0.000000 0.000000 -8.844074 0.000000 130.000000 -0.135076 0.973303 -0.185571
-5.21999979 -9.27999973 -0.18000001 151 56 152 0.000000 0.000000 0.000000 0.000000 -8.844074 0.000000 130.000000 -0.228667 0.916105 -0.329338
-5.34999990 -9.25000000 -0.10000000 151 56 152 0.000000 0.000000 0.000000 0.000000 -8.844074 0.000000 130.000000 -0.020699 0.965562 -0.259350
-5.53999996 -8.72000027 0.47999999 151 56 152 0.000000 0.000000 0.000000 0.000000 -8.844074 0.000000 130.000000 0.928748 0.159650 -0.334572
-5.57000017 -8.80000019 0.50999999 151 56 152 0.000000 0.000000 0.000000 0.000000 -8.844074 0.000000 130.000000 0.766353 0.225398 -0.601580
-5.46999979 -8.65999985 0.14000000 151 56 152 0.000000 0.000000 0.000000 0.000000 -8.844074 0.000000 130.000000 0.914287 -0.180582 -0.362587
-5.53000021 -8.69999981 0.34999999 151 56 152 0.000000 0.000000 0.000000 0.000000 -8.844074 0.000000 130.000000 0.827552 -0.175723 -0.533178
-5.57000017 -8.85999966 0.41999999 151 56 152 0.000000 0.000000 0.000000 0.000000 -8.844074 0.000000 130.000000 0.813184 0.259659 -0.520873
-5.57000017 -8.81999969 0.28999999 151 56 152 0.000000 0.000000 0.000000 0.000000 -8.844074 0.000000 130.000000 0.883991 -0.105741 -0.455389
-5.51999998 -9.02000046 0.14000000 151 56 152 0.000000 0.000000 0.000000 0.000000 -8.844074 0.000000 130.000000 0.839545 0.161965 -0.518586
-5.51000023 -9.06999969 0.23000000 151 56 152 0.000000 0.000000 0.000000 0.000000 -8.844074 0.000000 130.000000 0.729059 0.448016 -0.517450
-5.55999994 -8.92000008 0.28000000 151 56 152 0.000000 0.000000 0.000000 0.000000 -8.844074 0.000000 130.000000 0.788060 0.435294 -0.435294
-5.53999996 -8.96000004 0.20999999 151 56 152 0.000000 0.000000 0.000000 0.000000 -8.844074 0.000000 130.000000 0.821880 0.189199 -0.537325
-5.55999994 -8.92000008 0.22000000 151 56 152 0.000000 0.000000 0.000000 0.000000 -8.844074 0.000000 130.000000 0.808814 0.160562 -0.565720
-5.40999985 -9.19999981 -0.03000000 151 56 152 0.000000 0.000000 0.000000 0.000000 -8.844074 0.000000 130.000000 0.176632 0.943405 -0.280694
-5.42999983 -9.18999958 -0.03000000 151 56 152 0.000000 0.000000 0.000000 0.000000 -8.844074 0.000000 130.000000 0.722848 0.496854 -0.480237
-5.44000006 -9.21000004 -0.18000001 151 56 152 0.000000 0.000000 0.000000 0.000000 -8.844074 0.000000 130.000000 -0.463185 -0.522951 0.715529
-5.57000017 -8.89000034 0.05000000 151 56 152 0.000000 0.000000 0.000000 0.000000 -8.844074 0.000000 130.000000 0.781430 0.231477 -0.579470
-5.57999992 -8.88000011 0.01000000 151 56 152 0.000000 0.000000 0.000000 0.000000 -8.844074 0.000000 130.000000 0.822323 -0.043428 -0.567361
-5.55000019 -9.02000046 0.09000000 151 56 152 0.000000 0.000000 0.000000 0.000000 -8.844074 0.000000 130.000000 0.760636 0.152127 -0.631102
-4.98000002 -9.27000046 -0.55000001 151 56 152 0.000000 0.000000 0.000000 0.000000 -8.844074 0.000000 130.000000 0.811880 -0.570232 0.125245
-4.94999981 -9.30000019 -0.77999997 151 56 152 0.000000 0.000000 0.000000 0.000000 -8.844074 0.000000 130.000000 -0.718846 0.642677 0.265005
-4.94999981 -9.30000019 -0.77999997 151 56 152 0.000000 0.000000 0.000000 0.000000 -8.844074 0.000000 130.000000 -0.718846 0.642677 0.265005
-5.07000017 -9.26000023 -0.30000001 151 56 152 0.000000 0.000000 0.000000 0.000000 -8.844074 0.000000 130.000000 -0.595979 0.779829 0.191510
-5.13999987 -9.27000046 -0.28000000 151 56 152 0.000000 0.000000 0.000000 0.000000 -8.844074 0.000000 130.000000 -0.224297 0.831579 -0.508102
-5.13999987 -9.27000046 -0.27000001 151 56 152 0.000000 0.000000 0.000000 0.000000 -8.844074 0.000000 130.000000 -0.522507 0.718240 -0.459475
-5.17999983 -9.30000019 -0.43000001 151 56 152 0.000000 0.000000 0.000000 0.000000 -8.844074 0.000000 130.000000 -0.581165 0.809017 0.087968
-5.11000013 -9.27999973 -0.46000001 151 56 152 0.000000 0.000000 0.000000 0.000000 -8.844074 0.000000 130.000000 -0.593405 0.778362 -0.204994
-5.11000013 -9.31999969 -0.56000000 151 56 152 0.000000 0.000000 0.000000 0.000000 -8.844074 0.000000 130.000000 -0.502286 0.780077 -0.373080
-5.17000008 -9.32999992 -0.54000002 151 56 152 0.000000 0.000000 0.000000 0.000000 -8.844074 0.000000 130.000000 -0.421913 0.819944 -0.386886
-5.11999989 -9.31999969 -0.52999997 151 56 152 0.000000 0.000000 0.000000 0.000000 -8.844074 0.000000 130.000000 -0.484420 0.827096 -0.285044
-5.15000010 -9.32999992 -0.56999999 151 56 152 0.000000 0.000000 0.000000 0.000000 -8.844074 0.000000 130.000000 -0.547621 0.769239 -0.329215
-5.25000000 -9.30000019 -0.27000001 151 56 152 0.000000 0.000000 0.000000 0.000000 -8.844074 0.000000 130.000000 -0.143238 0.903392 -0.404186
-5.23000002 -9.30000019 -0.44000000 151 56 152 0.000000 0.000000 0.000000 0.000000 -8.844074 0.000000 130.000000 -0.411666 0.795887 -0.443953
-5.19000006 -9.31000042 -0.46000001 151 56 152 0.000000 0.000000 0.000000 0.000000 -8.844074 0.000000 130.000000 -0.339215 0.913715 -0.223737
-5.21000004 -9.34000015 -0.56000000 151 56 152 0.000000 0.000000 0.000000 0.000000 -8.844074 0.000000 130.000000 -0.442193 0.754523 -0.484933
-5.30000019 -9.34000015 -0.54000002 151 56 152 0.000000 0.000000 0.000000 0.000000 -8.844074 0.000000 130.000000 -0.409015 0.832242 -0.374272
-5.07999992 -9.34000015 -0.62000000 151 56 152 0.000000 0.000000 0.000000 0.000000 -8.844074 0.000000 130.000000 0.778841 -0.627208 -0.004135
-5.11000013 -9.35999966 -0.80000001 151 56 152 0.000000 0.000000 0.000000 0.000000 -8.844074 0.000000 130.000000 -0.581124 0.811300 -0.063938
-5.13000011 -9.38000011 -0.86000001 151 56 152 0.000000 0.000000 0.000000 0.000000 -8.844074 0.000000 130.000000 -0.566563 0.815441 -0.118583
-5.17999983 -9.39000034 -0.81000000 151 56 152 0.000000 0.000000 0.000000 0.000000 -8.844074 0.000000 130.000000 0.825520 -0.562918 -0.040508
-5.15999985 -9.39999962 -0.85000002 151 56 152 0.000000 0.000000 0.000000 0.000000 -8.844074 0.000000 130.000000 -0.500991 0.849764 -0.164041
-5.17000008 -9.43000031 -0.89999998 151 56 152 0.000000 0.000000 0.000000 0.000000 -8.844074 0.000000 130.000000 -0.764999 0.457034 -0.453758
-5.11000013 -9.39000034 -0.88000000 151 56 152 0.000000 0.000000 0.000000 0.000000 -8.844074 0.000000 130.000000 0.754451 -0.632520 -0.175277
-5.26000023 -9.34000015 -0.61000001 151 56 152 0.000000 0.000000 0.000000 0.000000 -8.844074 0.000000 130.000000 -0.191535 0.932508 -0.306176
-5.19999981 -9.32999992 -0.58999997 151 56 152 0.000000 0.000000 0.000000 0.000000 -8.844074 0.000000 130.000000 -0.286739 0.860216 -0.421674
-5.23000002 -9.34000015 -0.58999997 151 56 152 0.000000 0.000000 0.000000 0.000000 -8.844074 0.000000 130.000000 -0.342933 0.805494 -0.483297
-5.21000004 -9.36999989 -0.70999998 151 56 152 0.000000 0.000000 0.000000 0.000000 -8.844074 0.000000 130.000000 -0.356493 0.931654 -0.070238
-5.23000002 -9.36999989 -0.67000002 151 56 152 0.000000 0.000000 0.000000 0.000000 -8.844074 0.000000 130.000000 -0.352410 0.805281 -0.476790
-5.30999994 -9.35000038 -0.58999997 151 56 152 0.000000 0.000000 0.000000 0.000000 -8.844074 0.000000 130.000000 -0.155368 0.936335 -0.314861
-5.28000021 -9.35999966 -0.67000002 151 56 152 0.000000 0.000000 0.000000 0.000000 -8.844074 0.000000 130.000000 -0.637689 0.699348 -0.322901
-5.26999998 -9.39999962 -0.75000000 151 56 152 0.000000 0.000000 0.000000 0.000000 -8.844074 0.000000 130.000000 -0.630738 0.768942 -0.104388
-5.21999979 -9.39000034 -0.73000002 151 56 152 0.000000 0.000000 0.000000 0.000000 -8.844074 0.000000 130.000000 -0.488605 0.837828 -0.243537
-5.30999994 -9.40999985 -0.75000000 151 56 152 0.000000 0.000000 0.000000 0.000000 -8.844074 0.000000 130.000000 -0.095978 0.928688 -0.358227
-5.19000006 -9.39999962 -0.82999998 151 56 152 0.000000 0.000000 0.000000 0.000000 -8.844074 0.000000 130.000000 -0.343482 0.889453 -0.301484
-5.26000023 -9.40999985 -0.77999997 151 56 152 0.000000 0.000000 0.000000 0.000000 -8.844074 0.000000 130.000000 0.348101 -0.752870 0.558581
-5.19999981 -9.39000034 -0.75999999 151 56 152 0.000000 0.000000 0.000000 0.000000 -8.844074 0.000000 130.000000 -0.618056 0.614688 -0.490066
-5.19000006 -9.40999985 -0.82999998 151 56 152 0.000000 0.000000 0.000000 0.000000 -8.844074 0.000000 130.000000 -0.413213 0.886716 -0.207342
-5.26999998 -9.39999962 -0.76999998 151 56 152 0.000000 0.000000 0.000000 0.000000 -8.844074 0.000000 130.000000 -0.142732 0.880902 -0.451264
-5.26999998 -9.44999981 -0.88999999 151 56 152 0.000000 0.000000 0.000000 0.000000 -8.844074 0.000000 130.000000 -0.240552 0.805463 -0.541631
-5.21999979 -9.42000008 -0.83999997 151 56 152 0.000000 0.000000 0.000000 0.000000 -8.844074 0.000000 130.000000 -0.508544 0.768502 -0.388313
-5.21999979 -9.43000031 -0.83999997 151 56 152 0.000000 0.000000 0.000000 0.000000 -8.844074 0.000000 130.000000 0.671070 -0.644818 0.365889
-5.26000023 -9.44999981 -0.86000001 151 56 152 0.000000 0.000000 0.000000 0.000000 -8.844074 0.000000 130.000000 -0.177645 0.913807 -0.365239
-5.28999996 -9.39000034 -0.75999999 151 56 152 0.000000 0.000000 0.000000 0.000000 -8.844074 0.000000 130.000000 -0.218872 0.950259 -0.221591
-5.30999994 -9.42000008 -0.80000001 151 56 152 0.000000 0.000000 0.000000 0.000000 -8.844074 0.000000 130.000000 -0.373584 0.742273 -0.556297
-5.30000019 -9.43000031 -0.86000001 151 56 152 0.000000 0.000000 0.000000 0.000000 -8.844074 0.000000 130.000000 -0.132279 0.853274 -0.504406
-5.09999990 -9.35999966 -0.94000000 151 56 152 0.000000 0.000000 0.000000 0.000000 -8.844074 0.000000 130.000000 -0.713810 0.696435 0.073842
-5.17000008 -9.43000031 -0.94000000 151 56 152 0.000000 0.000000 0.000000 0.000000 -8.844074 0.000000 130.000000 -0.690812 0.722019 -0.038300
-5.25000000 -9.52000046 -1.01999998 151 56 152 0.000000 0.000000 0.000000 0.000000 -8.844074 0.000000 130.000000 -0.254943 0.873444 -0.414848
-5.32999992 -9.52000046 -1.02999997 151 56 152 0.000000 0.000000 0.000000 0.000000 -8.844074 0.000000 130.000000 -0.469564 0.693485 -0.546432
-5.25000000 -9.50000000 -1.00000000 151 56 152 0.000000 0.000000 0.000000 0.000000 -8.844074 0.000000 130.000000 -0.379040 0.726903 -0.572662
-5.23999977 -9.50000000 -1.00000000 151 56 152 0.000000 0.000000 0.000000 0.000000 -8.844074 0.000000 130.000000 -0.612809 0.669274 -0.420164
-5.48000002 -9.18999958 -0.49000001 151 56 152 0.000000 0.000000 0.000000 0.000000 -8.844074 0.000000 130.000000 0.466030 0.566251 -0.679835
-5.57000017 -8.97000027 -0.46000001 151 56 152 0.000000 0.000000 0.000000 0.000000 -8.844074 0.000000 130.000000 0.945652 -0.147041 0.290036
-5.51999998 -9.19999981 -0.63999999 151 56 152 0.000000 0.000000 0.000000 0.000000 -8.844074 0.000000 130.000000 0.942735 0.083066 -0.323035
-5.53999996 -9.13000011 -0.62000000 151 56 152 0.000000 0.000000 0.000000 0.000000 -8.844074 0.000000 130.000000 0.793649 0.357543 -0.492223
-5.55999994 -9.10000038 -0.63000000 151 56 152 0.000000 0.000000 0.000000 0.000000 -8.844074 0.000000 130.000000 0.933913 -0.309454 -0.179012
-5.55000019 -9.10999966 -0.69999999 151 56 152 0.000000 0.000000 0.000000 0.000000 -8.844074 0.000000 130.000000 0.971693 0.008305 0.236101
-5.55999994 -9.19999981 -0.86000001 151 56 152 0.000000 0.000000 0.000000 0.000000 -8.844074 0.000000 130.000000 0.907747 0.163879 -0.386185
-5.55000019 -9.18000031 -0.91000003 151 56 152 0.000000 0.000000 0.000000 0.000000 -8.844074 0.000000 130.000000 0.947035 -0.071450 -0.313080
-5.42000008 -9.26000023 -0.44999999 151 56 152 0.000000 0.000000 0.000000 0.000000 -8.844074 0.000000 130.000000 0.506804 0.617930 -0.601093
-5.36999989 -9.26000023 -0.43000001 151 56 152 0.000000 0.000000 0.000000 0.000000 -8.844074 0.000000 130.000000 0.040065 0.972492 -0.229464
-5.38999987 -9.30000019 -0.57999998 151 56 152 0.000000 0.000000 0.000000 0.000000 -8.844074 0.000000 130.000000 0.525936 0.660361 -0.536018
-5.40000010 -9.30000019 -0.67000002 151 56 152 0.000000 0.000000 0.000000 0.000000 -8.844074 0.000000 130.000000 -0.001289 0.916186 -0.400751
-5.42999983 -9.31999969 -0.66000003 151 56 152 0.000000 0.000000 0.000000 0.000000 -8.844074 0.000000 130.000000 0.439367 0.721224 -0.535530
-5.40999985 -9.35000038 -0.74000001 151 56 152 0.000000 0.000000 0.000000 0.000000 -8.844074 0.000000 130.000000 0.199515 0.691342 -0.694435
-5.46000004 -9.27000046 -0.63000000 151 56 152 0.000000 0.000000 0.000000 0.000000 -8.844074 0.000000 130.000000 0.255270 0.918685 -0.301421
-5.48999977 -9.28999996 -0.75000000 151 56 152 0.000000 0.000000 0.000000 0.000000 -8.844074 0.000000 130.000000 0.426478 0.691990 -0.582466
-5.51999998 -9.27999973 -0.81999999 151 56 152 0.000000 0.000000 0.000000 0.000000 -8.844074 0.000000 130.000000 0.455439 0.695670 -0.555535
-5.51999998 -9.31000042 -0.86000001 151 56 152 0.000000 0.000000 0.000000 0.000000 -8.844074 0.000000 130.000000 0.641007 0.460253 -0.614229
-5.48999977 -9.38000011 -0.91000003 151 56 152 0.000000 0.000000 0.000000 0.000000 -8.844074 0.000000 130.000000 0.596934 0.496044 -0.630564
-5.51000023 -9.32999992 -0.88000000 151 56 152 0.000000 0.000000 0.000000 0.000000 -8.844074 0.000000 130.000000 0.459713 0.663658 -0.590104
-5.51999998 -9.34000015 -0.86000001 151 56 152 0.000000 0.000000 0.000000 0.000000 -8.844074 0.000000 130.000000 0.689114 0.351923 -0.633461
-5.50000000 -9.35000038 -0.85000002 151 56 152 0.000000 0.000000 0.000000 0.000000 -8.844074 0.000000 130.000000 0.258887 0.675012 -0.690895
-5.40999985 -9.42000008 -0.89999998 151 56 152 0.000000 0.000000 0.000000 0.000000 -8.844074 0.000000 130.000000 -0.189688 -0.714028 0.673931
-5.38000011 -9.43000031 -0.88000000 151 56 152 0.000000 0.000000 0.000000 0.000000 -8.844074 0.000000 130.000000 0.187874 0.834162 -0.518533
-5.46000004 -9.40999985 -0.88999999 151 56 152 0.000000 0.000000 0.000000 0.000000 -8.844074 0.000000 130.000000 0.216455 0.812088 -0.541904
-5.44999981 -9.39000034 -0.89999998 151 56 152 0.000000 0.000000 0.000000 0.000000 -8.844074 0.000000 130.000000 0.185323 0.861382 -0.472945
-5.46000004 -9.39000034 -0.85000002 151 56 152 0.000000 0.000000 0.000000 0.000000 -8.844074 0.000000 130.000000 0.059345 0.987924 -0.143127
-5.55000019 -9.27000046 -0.82999998 151 56 152 0.000000 0.000000 0.000000 0.000000 -8.844074 0.000000 130.000000 0.820182 0.327124 -0.469352
-5.55999994 -9.23999977 -0.83999997 151 56 152 0.000000 0.000000 0.000000 0.000000 -8.844074 0.000000 130.000000 0.978189 0.084474 -0.189761
-5.55999994 -9.22999954 -0.82999998 151 56 152 0.000000 0.000000 0.000000 0.000000 -8.844074 0.000000 130.000000 0.987620 -0.112095 -0.109736
-5.57999992 -9.19999981 -0.95999998 151 56 152 0.000000 0.000000 0.000000 0.000000 -8.844074 0.000000 130.000000 0.992319 -0.105469 -0.064643
-5.57999992 -9.18999958 -0.93000001 151 56 152 0.000000 0.000000 0.000000 0.000000 -8.844074 0.000000 130.000000 0.981344 -0.187766 -0.041332
-5.57999992 -9.21000004 -0.94999999 151 56 152 0.000000 0.000000 0.000000 0.000000 -8.844074 0.000000 130.000000 0.988549 -0.040092 -0.145476
-5.57000017 -9.18999958 -0.94000000 151 56 152 0.000000 0.000000 0.000000 0.000000 -8.844074 0.000000 130.000000 0.962108 0.048667 -0.268292
-5.48000002 -9.40999985 -0.94000000 151 56 152 0.000000 0.000000 0.000000 0.000000 -8.844074 0.000000 130.000000 -0.175798 -0.668034 0.723067
-5.51000023 -9.40999985 -0.99000001 151 56 152 0.000000 0.000000 0.000000 0.000000 -8.844074 0.000000 130.000000 0.498017 0.551676 -0.669054
-5.50000000 -9.42000008 -0.99000001 151 56 152 0.000000 0.000000 0.000000 0.000000 -8.844074 0.000000 130.000000 0.527319 0.564383 -0.635142
-5.55000019 -9.39000034 -0.99000001 151 56 152 0.000000 0.000000 0.000000 0.000000 -8.844074 0.000000 130.000000 0.459594 0.586610 -0.666830
-5.55000019 -9.42000008 -1.03999996 151 56 152 0.000000 0.000000 0.000000 0.000000 -8.844074 0.000000 130.000000 0.727089 0.472028 -0.498528
-5.55000019 -9.39999962 -1.02999997 151 56 152 0.000000 0.000000 0.000000 0.000000 -8.844074 0.000000 130.000000 0.638504 0.537422 -0.550899
-5.55000019 -9.40999985 -0.98000002 151 56 152 0.000000 0.000000 0.000000 0.000000 -8.844074 0.000000 130.000000 0.235109 0.828260 -0.508635
-4.88000011 -8.98999977 0.56000000 151 56 152 0.000000 0.000000 0.000000 0.000000 -8.844074 0.000000 130.000000 -0.310551 0.880146 -0.359027
-4.88999987 -9.02999973 0.54000002 151 56 152 0.000000 0.000000 0.000000 0.000000 -8.844074 0.000000 130.000000 -0.274310 0.937109 -0.215827
-5.09000015 -9.21000004 0.28000000 151 56 152 0.000000 0.000000 0.000000 0.000000 -8.844074 0.000000 130.000000 -0.336820 0.714318 -0.613435
-5.01999998 -9.18999958 0.30000001 151 56 152 0.000000 0.000000 0.000000 0.000000 -8.844074 0.000000 130.000000 0.483614 -0.677729 0.553897
-5.09999990 -9.22000027 0.17000000 151 56 152 0.000000 0.000000 0.000000 0.000000 -8.844074 0.000000 130.000000 0.081376 0.835173 -0.543933
-5.15999985 -9.26000023 -0.03000000 151 56 152 0.000000 0.000000 0.000000 0.000000 -8.844074 0.000000 130.000000 -0.441761 0.723031 -0.531105
-5.09999990 -9.25000000 -0.23999999 151 56 152 0.000000 0.000000 0.000000 0.000000 -8.844074 0.000000 130.000000 -0.537541 0.842743 -0.028870
-5.01999998 -9.22999954 -0.20000000 151 56 152 0.000000 0.000000 0.000000 0.000000 -8.844074 0.000000 130.000000 0.701717 -0.689433 0.179652
-5.13000011 -9.27999973 -0.17000000 151 56 152 0.000000 0.000000 0.000000 0.000000 -8.844074 0.000000 130.000000 -0.606486 0.731966 -0.310482
-5.34999990 -9.22000027 0.01000000 151 56 152 0.000000 0.000000 0.000000 0.000000 -8.844074 0.000000 130.000000 0.406609 0.622361 -0.668831
-5.55999994 -8.86999989 0.11000000 151 56 152 0.000000 0.000000 0.000000 0.000000 -8.844074 0.000000 130.000000 0.886893 -0.283626 -0.364661
-5.55999994 -8.86999989 0.12000000 151 56 152 0.000000 0.000000 0.000000 0.000000 -8.844074 0.000000 130.000000 0.928927 -0.239677 -0.282224
-5.57000017 -8.82999992 -0.04000000 151 56 152 0.000000 0.000000 0.000000 0.000000 -8.844074 0.000000 130.000000 0.879543 -0.465806 -0.097102
-5.44000006 -9.18999958 0.12000000 151 56 152 0.000000 0.000000 0.000000 0.000000 -8.844074 0.000000 130.000000 0.527799 0.618857 -0.581759
-5.36999989 -9.19999981 0.15000001 151 56 152 0.000000 0.000000 0.000000 0.000000 -8.844074 0.000000 130.000000 0.030223 0.970757 -0.238156
-5.40999985 -9.19999981 0.14000000 151 56 152 0.000000 0.000000 0.000000 0.000000 -8.844074 0.000000 130.000000 0.136184 0.746769 -0.650991
-5.55000019 -8.92000008 0.22000000 151 56 152 0.000000 0.000000 0.000000 0.000000 -8.844074 0.000000 130.000000 0.801522 0.329851 -0.498760
-5.40999985 -9.23999977 -0.09000000 151 56 152 0.000000 0.000000 0.000000 0.000000 -8.844074 0.000000 130.000000 -0.511414 -0.602557 0.612684
-5.38000011 -9.23999977 -0.13000000 151 56 152 0.000000 0.000000 0.000000 0.000000 -8.844074 0.000000 130.000000 0.061939 0.882292 -0.466610
-4.94999981 -9.21000004 -0.40000001 151 56 152 0.000000 0.000000 0.000000 0.000000 -8.844074 0.000000 130.000000 0.746472 -0.574832 -0.335184
-4.98999977 -9.23999977 -0.28000000 151 56 152 0.000000 0.000000 0.000000 0.000000 -8.844074 0.000000 130.000000 0.784890 -0.613694 -0.085598
-5.15000010 -9.31999969 -0.56999999 151 56 152 0.000000 0.000000 0.000000 0.000000 -8.844074 0.000000 130.000000 -0.428456 0.803956 -0.412409
-5.11000013 -9.31999969 -0.55000001 151 56 152 0.000000 0.000000 0.000000 0.000000 -8.844074 0.000000 130.000000 -0.579564 0.763755 -0.284225
-5.28000021 -9.30000019 -0.34000000 151 56 152 0.000000 0.000000 0.000000 0.000000 -8.844074 0.000000 130.000000 -0.100728 0.872507 -0.478106
-5.34000015 -9.28999996 -0.38000000 151 56 152 0.000000 0.000000 0.000000 0.000000 -8.844074 0.000000 130.000000 -0.123335 -0.750410 0.649364
-5.19000006 -9.32999992 -0.50999999 151 56 152 0.000000 0.000000 0.000000 0.000000 -8.844074 0.000000 130.000000 -0.318514 0.725953 -0.609542
-5.32999992 -9.30000019 -0.44999999 151 56 152 0.000000 0.000000 0.000000 0.000000 -8.844074 0.000000 130.000000 0.119285 0.793758 -0.596423
-5.23000002 -9.34000015 -0.44000000 151 56 152 0.000000 0.000000 0.000000 0.000000 -8.844074 0.000000 130.000000 -0.427421 0.727771 -0.536339
-5.19000006 -9.31000042 -0.46000001 151 56 152 0.000000 0.000000 0.000000 0.000000 -8.844074 0.000000 130.000000 -0.339215 0.913715 -0.223737
-5.30000019 -9.32999992 -0.54000002 151 56 152 0.000000 0.000000 0.000000 0.000000 -8.844074 0.000000 130.000000 -0.111454 0.917773 -0.381144
-5.13999987 -9.35000038 -0.68000001 151 56 152 0.000000 0.000000 0.000000 0.000000 -8.844074 0.000000 130.000000 -0.466627 0.800162 -0.376830
