//X Y Z R G B PointSourceId ScanDirectionFlag NumberOfReturns ReturnNumber GpsTime Intensity Classification Nx Ny Nz
3.75999999 6.57999992 -1.03999996 198 23 145 0.000000 0.000000 0.000000 0.000000 -8.844074 0.000000 154.000000 0.142390 0.942483 -0.302408
3.68000007 6.59999990 -0.94999999 198 23 145 0.000000 0.000000 0.000000 0.000000 -8.844074 0.000000 154.000000 -0.212132 -0.617814 0.757170
3.66000009 6.59999990 -0.94999999 198 23 145 0.000000 0.000000 0.000000 0.000000 -8.844074 0.000000 154.000000 0.230548 0.726149 -0.647731
3.69000006 6.61000013 -0.94999999 198 23 145 0.000000 0.000000 0.000000 0.000000 -8.844074 0.000000 154.000000 -0.162356 0.757157 -0.632735
3.65000010 6.61000013 -0.95999998 198 23 145 0.000000 0.000000 0.000000 0.000000 -8.844074 0.000000 154.000000 0.090860 0.887631 -0.451504
3.67000008 6.61999989 -0.94999999 198 23 145 0.000000 0.000000 0.000000 0.000000 -8.844074 0.000000 154.000000 -0.143669 0.819063 -0.555423
3.64000010 6.61999989 -0.95999998 198 23 145 0.000000 0.000000 0.000000 0.000000 -8.844074 0.000000 154.000000 0.023882 -0.686964 0.726299
3.60999990 6.61999989 -0.94000000 198 23 145 0.000000 0.000000 0.000000 0.000000 -8.844074 0.000000 154.000000 -0.370211 0.821456 -0.433767
3.75000000 6.59999990 -1.12000000 198 23 145 0.000000 0.000000 0.000000 0.000000 -8.844074 0.000000 154.000000 0.221970 0.856168 -0.466589
3.70000005 6.61000013 -1.10000002 198 23 145 0.000000 0.000000 0.000000 0.000000 -8.844074 0.000000 154.000000 -0.020867 0.791571 -0.610720
3.71000004 6.61999989 -1.10000002 198 23 145 0.000000 0.000000 0.000000 0.000000 -8.844074 0.000000 154.000000 0.143641 0.900243 -0.411011
3.71000004 6.61000013 -1.11000001 198 23 145 0.000000 0.000000 0.000000 0.000000 -8.844074 0.000000 154.000000 0.281464 0.761701 -0.583600
3.70000005 6.59999990 -1.10000002 198 23 145 0.000000 0.000000 0.000000 0.000000 -8.844074 0.000000 154.000000 0.114795 0.914209 -0.388643
3.71000004 6.61000013 -1.11000001 198 23 145 0.000000 0.000000 0.000000 0.000000 -8.844074 0.000000 154.000000 0.281464 0.761701 -0.583600
3.72000003 6.59000015 -1.15999997 198 23 145 0.000000 0.000000 0.000000 0.000000 -8.844074 0.000000 154.000000 -0.148470 0.787338 -0.598377
3.65000010 6.61000013 -1.14999998 198 23 145 0.000000 0.000000 0.000000 0.000000 -8.844074 0.000000 154.000000 -0.304249 0.703476 -0.642304
3.66000009 6.61000013 -1.15999997 198 23 145 0.000000 0.000000 0.000000 0.000000 -8.844074 0.000000 154.000000 -0.319300 0.762147 -0.563187
3.66000009 6.61000013 -1.16999996 198 23 145 0.000000 0.000000 0.000000 0.000000 -8.844074 0.000000 154.000000 0.135192 0.856218 -0.498612
3.60999990 6.61000013 -1.10000002 198 23 145 0.000000 0.000000 0.000000 0.000000 -8.844074 0.000000 154.000000 -0.077752 0.849614 -0.521643
3.60999990 6.61000013 -1.15999997 198 23 145 0.000000 0.000000 0.000000 0.000000 -8.844074 0.000000 154.000000 -0.533616 0.661550 -0.526883
3.63000011 6.59999990 -1.20000005 198 23 145 0.000000 0.000000 0.000000 0.000000 -8.844074 0.000000 154.000000 -0.112525 -0.474313 0.873135
3.61999989 6.59999990 -1.20000005 198 23 145 0.000000 0.000000 0.000000 0.000000 -8.844074 0.000000 154.000000 0.471295 -0.491139 0.732574
3.60999990 6.59000015 -1.20000005 198 23 145 0.000000 0.000000 0.000000 0.000000 -8.844074 0.000000 154.000000 -0.267707 0.799991 -0.536980
3.76999998 6.36000013 -0.94000000 198 23 145 0.000000 0.000000 0.000000 0.000000 -8.844074 0.000000 154.000000 -0.380547 -0.550405 0.743128
3.75000000 6.36000013 -0.98000002 198 23 145 0.000000 0.000000 0.000000 0.000000 -8.844074 0.000000 154.000000 -0.282788 0.863649 -0.417303
3.76999998 6.34999990 -0.97000003 198 23 145 0.000000 0.000000 0.000000 0.000000 -8.844074 0.000000 154.000000 0.146457 0.921981 -0.358471
3.75000000 6.36000013 -0.98000002 198 23 145 0.000000 0.000000 0.000000 0.000000 -8.844074 0.000000 154.000000 -0.282788 0.863649 -0.417303
3.75000000 6.36000013 -0.98000002 198 23 145 0.000000 0.000000 0.000000 0.000000 -8.844074 0.000000 154.000000 -0.282788 0.863649 -0.417303
3.73000002 6.34999990 -0.94000000 198 23 145 0.000000 0.000000 0.000000 0.000000 -8.844074 0.000000 154.000000 -0.398491 0.769332 -0.499334
3.73000002 6.34999990 -0.94000000 198 23 145 0.000000 0.000000 0.000000 0.000000 -8.844074 0.000000 154.000000 -0.398491 0.769332 -0.499334
3.76999998 6.36999989 -1.02999997 198 23 145 0.000000 0.000000 0.000000 0.000000 -8.844074 0.000000 154.000000 -0.020304 0.867647 -0.496765
3.76999998 6.34999990 -1.09000003 198 23 145 0.000000 0.000000 0.000000 0.000000 -8.844074 0.000000 154.000000 -0.032039 -0.586461 0.809344
3.76999998 6.36000013 -1.03999996 198 23 145 0.000000 0.000000 0.000000 0.000000 -8.844074 0.000000 154.000000 -0.071954 0.850756 -0.520612
3.76999998 6.36000013 -1.00999999 198 23 145 0.000000 0.000000 0.000000 0.000000 -8.844074 0.000000 154.000000 0.064085 0.810325 -0.582466
3.56999993 6.59999990 -0.94000000 198 23 145 0.000000 0.000000 0.000000 0.000000 -8.844074 0.000000 154.000000 0.603548 -0.532542 0.593404
3.56999993 6.63000011 -0.94999999 198 23 145 0.000000 0.000000 0.000000 0.000000 -8.844074 0.000000 154.000000 0.552285 -0.505282 0.663077
3.57999992 6.61000013 -1.00000000 198 23 145 0.000000 0.000000 0.000000 0.000000 -8.844074 0.000000 154.000000 -0.538431 0.589068 -0.602570
3.52999997 6.59999990 -0.95999998 198 23 145 0.000000 0.000000 0.000000 0.000000 -8.844074 0.000000 154.000000 -0.631236 0.431373 -0.644561
3.52999997 6.59999990 -0.94999999 198 23 145 0.000000 0.000000 0.000000 0.000000 -8.844074 0.000000 154.000000 -0.464032 0.668407 -0.581297
3.55999994 6.59999990 -0.94999999 198 23 145 0.000000 0.000000 0.000000 0.000000 -8.844074 0.000000 154.000000 0.120628 0.728238 -0.674625
3.54999995 6.61000013 -1.00000000 198 23 145 0.000000 0.000000 0.000000 0.000000 -8.844074 0.000000 154.000000 -0.639704 0.541807 -0.545183
3.58999991 6.61000013 -1.00999999 198 23 145 0.000000 0.000000 0.000000 0.000000 -8.844074 0.000000 154.000000 -0.467196 0.737938 -0.487006
3.59999990 6.61999989 -1.09000003 198 23 145 0.000000 0.000000 0.000000 0.000000 -8.844074 0.000000 154.000000 -0.180556 0.793537 -0.581118
3.55999994 6.59999990 -1.00999999 198 23 145 0.000000 0.000000 0.000000 0.000000 -8.844074 0.000000 154.000000 -0.537645 0.678337 -0.500797
3.52999997 6.55999994 -0.93000001 198 23 145 0.000000 0.000000 0.000000 0.000000 -8.844074 0.000000 154.000000 -0.534595 0.494375 -0.685421
3.56999993 6.59000015 -1.08000004 198 23 145 0.000000 0.000000 0.000000 0.000000 -8.844074 0.000000 154.000000 0.097677 -0.477058 0.873427
3.54999995 6.57999992 -1.08000004 198 23 145 0.000000 0.000000 0.000000 0.000000 -8.844074 0.000000 154.000000 0.404749 -0.479521 0.778613
3.55999994 6.57999992 -1.04999995 198 23 145 0.000000 0.000000 0.000000 0.000000 -8.844074 0.000000 154.000000 -0.590048 0.637117 -0.495909
3.55999994 6.57000017 -1.08000004 198 23 145 0.000000 0.000000 0.000000 0.000000 -8.844074 0.000000 154.000000 0.009201 -0.440346 0.897781
3.52999997 6.55000019 -1.05999994 198 23 145 0.000000 0.000000 0.000000 0.000000 -8.844074 0.000000 154.000000 -0.619195 0.568580 -0.541585
3.50000000 6.55999994 -0.93000001 198 23 145 0.000000 0.000000 0.000000 0.000000 -8.844074 0.000000 154.000000 0.496379 -0.526462 0.690251
3.50000000 6.59000015 -0.98000002 198 23 145 0.000000 0.000000 0.000000 0.000000 -8.844074 0.000000 154.000000 0.423430 -0.699074 0.576197
3.49000001 6.53999996 -0.94999999 198 23 145 0.000000 0.000000 0.000000 0.000000 -8.844074 0.000000 154.000000 0.543881 -0.703552 0.457392
3.49000001 6.53999996 -0.94999999 198 23 145 0.000000 0.000000 0.000000 0.000000 -8.844074 0.000000 154.000000 0.543881 -0.703552 0.457392
3.50999999 6.53999996 -1.00000000 198 23 145 0.000000 0.000000 0.000000 0.000000 -8.844074 0.000000 154.000000 0.707968 -0.394416 0.585848
3.48000002 6.53999996 -0.97000003 198 23 145 0.000000 0.000000 0.000000 0.000000 -8.844074 0.000000 154.000000 0.728905 -0.318391 0.606074
3.47000003 6.51999998 -0.93000001 198 23 145 0.000000 0.000000 0.000000 0.000000 -8.844074 0.000000 154.000000 0.705841 -0.446756 0.549725
3.58999991 6.59999990 -1.15999997 198 23 145 0.000000 0.000000 0.000000 0.000000 -8.844074 0.000000 154.000000 -0.064613 -0.457790 0.886710
3.59999990 6.61000013 -1.14999998 198 23 145 0.000000 0.000000 0.000000 0.000000 -8.844074 0.000000 154.000000 -0.142411 0.760023 -0.634102
3.59999990 6.59999990 -1.14999998 198 23 145 0.000000 0.000000 0.000000 0.000000 -8.844074 0.000000 154.000000 -0.327969 0.788725 -0.519951
3.54999995 6.59999990 -1.13999999 198 23 145 0.000000 0.000000 0.000000 0.000000 -8.844074 0.000000 154.000000 0.359197 -0.560737 0.746024
3.56999993 6.55000019 -1.14999998 198 23 145 0.000000 0.000000 0.000000 0.000000 -8.844074 0.000000 154.000000 0.302317 -0.514414 0.802485
3.53999996 6.59000015 -1.13999999 198 23 145 0.000000 0.000000 0.000000 0.000000 -8.844074 0.000000 154.000000 0.268878 -0.237908 0.933330
3.52999997 6.55999994 -1.15999997 198 23 145 0.000000 0.000000 0.000000 0.000000 -8.844074 0.000000 154.000000 -0.293983 0.773891 -0.560952
3.53999996 6.57000017 -1.13999999 198 23 145 0.000000 0.000000 0.000000 0.000000 -8.844074 0.000000 154.000000 0.214733 -0.591673 0.777054
3.54999995 6.57000017 -1.13999999 198 23 145 0.000000 0.000000 0.000000 0.000000 -8.844074 0.000000 154.000000 0.064933 -0.708495 0.702723
3.52999997 6.55000019 -1.15999997 198 23 145 0.000000 0.000000 0.000000 0.000000 -8.844074 0.000000 154.000000 0.571302 -0.422267 0.703778
3.59999990 6.59000015 -1.20000005 198 23 145 0.000000 0.000000 0.000000 0.000000 -8.844074 0.000000 154.000000 -0.136857 0.828498 -0.543012
3.54999995 6.57000017 -1.17999995 198 23 145 0.000000 0.000000 0.000000 0.000000 -8.844074 0.000000 154.000000 -0.271467 0.738200 -0.617548
3.53999996 6.57000017 -1.17999995 198 23 145 0.000000 0.000000 0.000000 0.000000 -8.844074 0.000000 154.000000 0.237301 -0.347945 0.906986
3.54999995 6.57000017 -1.17999995 198 23 145 0.000000 0.000000 0.000000 0.000000 -8.844074 0.000000 154.000000 -0.271467 0.738200 -0.617548
3.55999994 6.55999994 -1.17999995 198 23 145 0.000000 0.000000 0.000000 0.000000 -8.844074 0.000000 154.000000 0.329135 -0.624222 0.708532
3.50999999 6.55999994 -1.10000002 198 23 145 0.000000 0.000000 0.000000 0.000000 -8.844074 0.000000 154.000000 0.265537 -0.504676 0.821457
3.50999999 6.57000017 -1.10000002 198 23 145 0.000000 0.000000 0.000000 0.000000 -8.844074 0.000000 154.000000 0.274995 -0.450131 0.849565
3.51999998 6.55999994 -1.15999997 198 23 145 0.000000 0.000000 0.000000 0.000000 -8.844074 0.000000 154.000000 0.374261 -0.554038 0.743620
3.50999999 6.55000019 -1.11000001 198 23 145 0.000000 0.000000 0.000000 0.000000 -8.844074 0.000000 154.000000 -0.410445 0.653056 -0.636438
3.51999998 6.53999996 -1.13000000 198 23 145 0.000000 0.000000 0.000000 0.000000 -8.844074 0.000000 154.000000 -0.598200 0.628532 -0.497096
3.51999998 6.53999996 -1.13000000 198 23 145 0.000000 0.000000 0.000000 0.000000 -8.844074 0.000000 154.000000 -0.598200 0.628532 -0.497096
3.50999999 6.55000019 -1.11000001 198 23 145 0.000000 0.000000 0.000000 0.000000 -8.844074 0.000000 154.000000 -0.410445 0.653056 -0.636438
3.50999999 6.51000023 -1.10000002 198 23 145 0.000000 0.000000 0.000000 0.000000 -8.844074 0.000000 154.000000 0.576775 -0.489334 0.654127
3.51999998 6.53000021 -1.13000000 198 23 145 0.000000 0.000000 0.000000 0.000000 -8.844074 0.000000 154.000000 0.468336 -0.488195 0.736429
3.50999999 6.53999996 -1.12000000 198 23 145 0.000000 0.000000 0.000000 0.000000 -8.844074 0.000000 154.000000 -0.485658 0.745773 -0.456025
3.48000002 6.48999977 -0.94999999 198 23 145 0.000000 0.000000 0.000000 0.000000 -8.844074 0.000000 154.000000 0.354945 -0.678813 0.642827
3.48000002 6.48999977 -0.94999999 198 23 145 0.000000 0.000000 0.000000 0.000000 -8.844074 0.000000 154.000000 0.354945 -0.678813 0.642827
3.48000002 6.48000002 -0.97000003 198 23 145 0.000000 0.000000 0.000000 0.000000 -8.844074 0.000000 154.000000 0.402543 -0.316173 0.859066
3.49000001 6.42999983 -0.94000000 198 23 145 0.000000 0.000000 0.000000 0.000000 -8.844074 0.000000 154.000000 0.352390 -0.151820 0.923457
3.50999999 6.44999981 -0.95999998 198 23 145 0.000000 0.000000 0.000000 0.000000 -8.844074 0.000000 154.000000 0.668639 -0.363069 0.648925
3.48000002 6.44000006 -0.93000001 198 23 145 0.000000 0.000000 0.000000 0.000000 -8.844074 0.000000 154.000000 0.636150 -0.286828 0.716270
3.45000005 6.48999977 -0.94999999 198 23 145 0.000000 0.000000 0.000000 0.000000 -8.844074 0.000000 154.000000 0.744178 -0.530617 0.405766
3.46000004 6.48000002 -0.95999998 198 23 145 0.000000 0.000000 0.000000 0.000000 -8.844074 0.000000 154.000000 0.275237 -0.380519 0.882865
3.47000003 6.46999979 -0.97000003 198 23 145 0.000000 0.000000 0.000000 0.000000 -8.844074 0.000000 154.000000 -0.506907 0.564166 -0.651738
3.47000003 6.42999983 -0.93000001 198 23 145 0.000000 0.000000 0.000000 0.000000 -8.844074 0.000000 154.000000 0.880226 -0.033907 0.473342
3.47000003 6.42999983 -0.93000001 198 23 145 0.000000 0.000000 0.000000 0.000000 -8.844074 0.000000 154.000000 0.880226 -0.033907 0.473342
3.48000002 6.48000002 -1.05999994 198 23 145 0.000000 0.000000 0.000000 0.000000 -8.844074 0.000000 154.000000 0.564460 -0.393312 0.725734
3.48000002 6.44999981 -1.03999996 198 23 145 0.000000 0.000000 0.000000 0.000000 -8.844074 0.000000 154.000000 0.671522 -0.326818 0.665018
3.51999998 6.46000004 -1.02999997 198 23 145 0.000000 0.000000 0.000000 0.000000 -8.844074 0.000000 154.000000 0.570894 -0.316806 0.757439
3.48000002 6.44999981 -1.02999997 198 23 145 0.000000 0.000000 0.000000 0.000000 -8.844074 0.000000 154.000000 0.400821 -0.049270 0.914831
3.48000002 6.44000006 -1.09000003 198 23 145 0.000000 0.000000 0.000000 0.000000 -8.844074 0.000000 154.000000 0.752285 -0.462565 0.469149
3.48000002 6.44000006 -1.09000003 198 23 145 0.000000 0.000000 0.000000 0.000000 -8.844074 0.000000 154.000000 0.752285 -0.462565 0.469149
3.49000001 6.40999985 -0.97000003 198 23 145 0.000000 0.000000 0.000000 0.000000 -8.844074 0.000000 154.000000 0.806272 0.037860 0.590332
3.49000001 6.40999985 -1.00000000 198 23 145 0.000000 0.000000 0.000000 0.000000 -8.844074 0.000000 154.000000 0.884279 -0.236303 0.402756
3.51999998 6.38999987 -0.99000001 198 23 145 0.000000 0.000000 0.000000 0.000000 -8.844074 0.000000 154.000000 0.633168 -0.261836 0.728382
3.48000002 6.36000013 -0.93000001 198 23 145 0.000000 0.000000 0.000000 0.000000 -8.844074 0.000000 154.000000 0.821879 -0.424452 0.379940
3.47000003 6.40999985 -0.93000001 198 23 145 0.000000 0.000000 0.000000 0.000000 -8.844074 0.000000 154.000000 0.767955 0.091805 0.633891
3.47000003 6.42000008 -0.95999998 198 23 145 0.000000 0.000000 0.000000 0.000000 -8.844074 0.000000 154.000000 0.895137 -0.123028 0.428478
3.50000000 6.40000010 -1.01999998 198 23 145 0.000000 0.000000 0.000000 0.000000 -8.844074 0.000000 154.000000 0.292414 -0.304169 0.906629
3.50000000 6.38999987 -1.01999998 198 23 145 0.000000 0.000000 0.000000 0.000000 -8.844074 0.000000 154.000000 0.771307 -0.110608 0.626779
3.50000000 6.42000008 -1.03999996 198 23 145 0.000000 0.000000 0.000000 0.000000 -8.844074 0.000000 154.000000 0.764949 -0.336578 0.549153
3.50000000 6.40999985 -1.04999995 198 23 145 0.000000 0.000000 0.000000 0.000000 -8.844074 0.000000 154.000000 0.783221 -0.426475 0.452420
3.49000001 6.40999985 -1.04999995 198 23 145 0.000000 0.000000 0.000000 0.000000 -8.844074 0.000000 154.000000 -0.702620 0.556448 -0.443498
3.47000003 6.36999989 -1.01999998 198 23 145 0.000000 0.000000 0.000000 0.000000 -8.844074 0.000000 154.000000 0.480797 -0.374668 0.792753
3.47000003 6.38000011 -1.01999998 198 23 145 0.000000 0.000000 0.000000 0.000000 -8.844074 0.000000 154.000000 0.695574 -0.023888 0.718057
3.52999997 6.38999987 -1.25000000 198 23 145 0.000000 0.000000 0.000000 0.000000 -8.844074 0.000000 154.000000 -0.632031 0.591581 -0.500569
3.54999995 6.36999989 -1.21000004 198 23 145 0.000000 0.000000 0.000000 0.000000 -8.844074 0.000000 154.000000 0.456118 -0.174528 0.872638
3.52999997 6.36999989 -1.20000005 198 23 145 0.000000 0.000000 0.000000 0.000000 -8.844074 0.000000 154.000000 0.497852 -0.362513 0.787863
3.49000001 6.50000000 -1.13999999 198 23 145 0.000000 0.000000 0.000000 0.000000 -8.844074 0.000000 154.000000 0.518228 -0.123388 0.846295
3.49000001 6.44999981 -1.10000002 198 23 145 0.000000 0.000000 0.000000 0.000000 -8.844074 0.000000 154.000000 0.368097 -0.343455 0.864027
3.50000000 6.46000004 -1.10000002 198 23 145 0.000000 0.000000 0.000000 0.000000 -8.844074 0.000000 154.000000 0.448225 -0.114531 0.886553
3.49000001 6.44999981 -1.10000002 198 23 145 0.000000 0.000000 0.000000 0.000000 -8.844074 0.000000 154.000000 0.368097 -0.343455 0.864027
3.50999999 6.44999981 -1.10000002 198 23 145 0.000000 0.000000 0.000000 0.000000 -8.844074 0.000000 154.000000 0.638904 -0.250829 0.727246
3.49000001 6.46999979 -1.20000005 198 23 145 0.000000 0.000000 0.000000 0.000000 -8.844074 0.000000 154.000000 0.325310 -0.161963 0.931634
3.50999999 6.48000002 -1.17999995 198 23 145 0.000000 0.000000 0.000000 0.000000 -8.844074 0.000000 154.000000 -0.756473 0.345029 -0.555611
3.49000001 6.48000002 -1.17999995 198 23 145 0.000000 0.000000 0.000000 0.000000 -8.844074 0.000000 154.000000 0.693926 -0.415693 0.587933
3.49000001 6.40999985 -1.13999999 198 23 145 0.000000 0.000000 0.000000 0.000000 -8.844074 0.000000 154.000000 0.790591 -0.231430 0.566927
3.50000000 6.40999985 -1.13999999 198 23 145 0.000000 0.000000 0.000000 0.000000 -8.844074 0.000000 154.000000 0.659653 -0.041140 0.750444
3.50000000 6.38000011 -1.17999995 198 23 145 0.000000 0.000000 0.000000 0.000000 -8.844074 0.000000 154.000000 0.346953 -0.167155 0.922867
3.53999996 6.44000006 -1.25999999 198 23 145 0.000000 0.000000 0.000000 0.000000 -8.844074 0.000000 154.000000 0.580485 -0.154496 0.799480
3.53999996 6.42999983 -1.26999998 198 23 145 0.000000 0.000000 0.000000 0.000000 -8.844074 0.000000 154.000000 0.315480 -0.303631 0.899044
3.53999996 6.42000008 -1.26999998 198 23 145 0.000000 0.000000 0.000000 0.000000 -8.844074 0.000000 154.000000 0.516512 -0.181153 0.836899
3.55999994 6.34999990 -1.29999995 198 23 145 0.000000 0.000000 0.000000 0.000000 -8.844074 0.000000 154.000000 -0.348027 0.700955 -0.622527
3.50999999 6.40000010 -1.27999997 198 23 145 0.000000 0.000000 0.000000 0.000000 -8.844074 0.000000 154.000000 0.745272 -0.092244 0.660349
3.51999998 6.40999985 -1.27999997 198 23 145 0.000000 0.000000 0.000000 0.000000 -8.844074 0.000000 154.000000 0.134754 -0.319869 0.937830
3.50999999 6.36000013 -1.25999999 198 23 145 0.000000 0.000000 0.000000 0.000000 -8.844074 0.000000 154.000000 -0.360533 0.725959 -0.585662
3.51999998 6.38000011 -1.25999999 198 23 145 0.000000 0.000000 0.000000 0.000000 -8.844074 0.000000 154.000000 0.661315 -0.009705 0.750045
3.76999998 6.34000015 -0.98000002 198 23 145 0.000000 0.000000 0.000000 0.000000 -8.844074 0.000000 154.000000 -0.291074 0.835866 -0.465408
3.75000000 6.30999994 -0.99000001 198 23 145 0.000000 0.000000 0.000000 0.000000 -8.844074 0.000000 154.000000 -0.380802 0.779429 -0.497474
3.73000002 6.34000015 -0.94000000 198 23 145 0.000000 0.000000 0.000000 0.000000 -8.844074 0.000000 154.000000 0.527643 -0.625417 0.574844
3.73000002 6.30999994 -0.99000001 198 23 145 0.000000 0.000000 0.000000 0.000000 -8.844074 0.000000 154.000000 0.317370 -0.487897 0.813162
3.70000005 6.34000015 -0.98000002 198 23 145 0.000000 0.000000 0.000000 0.000000 -8.844074 0.000000 154.000000 0.180875 -0.579103 0.794937
3.72000003 6.30999994 -0.99000001 198 23 145 0.000000 0.000000 0.000000 0.000000 -8.844074 0.000000 154.000000 -0.073727 -0.663542 0.744497
3.71000004 6.32999992 -0.98000002 198 23 145 0.000000 0.000000 0.000000 0.000000 -8.844074 0.000000 154.000000 -0.073297 -0.613681 0.786144
3.74000001 6.32999992 -1.03999996 198 23 145 0.000000 0.000000 0.000000 0.000000 -8.844074 0.000000 154.000000 -0.343394 0.727474 -0.594022
3.74000001 6.34000015 -1.02999997 198 23 145 0.000000 0.000000 0.000000 0.000000 -8.844074 0.000000 154.000000 -0.287502 0.856357 -0.428947
3.75999999 6.34000015 -1.05999994 198 23 145 0.000000 0.000000 0.000000 0.000000 -8.844074 0.000000 154.000000 0.209757 -0.397512 0.893301
3.75999999 6.32999992 -1.05999994 198 23 145 0.000000 0.000000 0.000000 0.000000 -8.844074 0.000000 154.000000 0.138856 -0.616638 0.774904
3.70000005 6.30999994 -1.02999997 198 23 145 0.000000 0.000000 0.000000 0.000000 -8.844074 0.000000 154.000000 0.035921 -0.421738 0.906006
3.72000003 6.32000017 -1.00999999 198 23 145 0.000000 0.000000 0.000000 0.000000 -8.844074 0.000000 154.000000 0.335669 -0.394450 0.855415
3.70000005 6.30000019 -1.00999999 198 23 145 0.000000 0.000000 0.000000 0.000000 -8.844074 0.000000 154.000000 0.386192 -0.286237 0.876883
3.72000003 6.32999992 -1.01999998 198 23 145 0.000000 0.000000 0.000000 0.000000 -8.844074 0.000000 154.000000 -0.607402 0.560028 -0.563411
3.72000003 6.30999994 -1.04999995 198 23 145 0.000000 0.000000 0.000000 0.000000 -8.844074 0.000000 154.000000 0.006877 0.799155 -0.601086
3.71000004 6.30000019 -1.07000005 198 23 145 0.000000 0.000000 0.000000 0.000000 -8.844074 0.000000 154.000000 -0.208587 0.761729 -0.613401
3.69000006 6.32999992 -0.94999999 198 23 145 0.000000 0.000000 0.000000 0.000000 -8.844074 0.000000 154.000000 -0.104154 0.781889 -0.614656
3.69000006 6.32000017 -0.98000002 198 23 145 0.000000 0.000000 0.000000 0.000000 -8.844074 0.000000 154.000000 0.139469 -0.655354 0.742334
3.69000006 6.28999996 -1.00000000 198 23 145 0.000000 0.000000 0.000000 0.000000 -8.844074 0.000000 154.000000 0.216526 -0.671386 0.708772
3.64000010 6.32000017 -0.94999999 198 23 145 0.000000 0.000000 0.000000 0.000000 -8.844074 0.000000 154.000000 0.498938 -0.549336 0.670291
3.69000006 6.30999994 -1.02999997 198 23 145 0.000000 0.000000 0.000000 0.000000 -8.844074 0.000000 154.000000 0.359190 -0.510598 0.781199
3.69000006 6.30999994 -1.02999997 198 23 145 0.000000 0.000000 0.000000 0.000000 -8.844074 0.000000 154.000000 0.359190 -0.510598 0.781199
3.67000008 6.28999996 -1.08000004 198 23 145 0.000000 0.000000 0.000000 0.000000 -8.844074 0.000000 154.000000 -0.366743 0.656191 -0.659480
3.66000009 6.28000021 -1.08000004 198 23 145 0.000000 0.000000 0.000000 0.000000 -8.844074 0.000000 154.000000 0.185624 -0.422405 0.887197
3.63000011 6.30999994 -1.00999999 198 23 145 0.000000 0.000000 0.000000 0.000000 -8.844074 0.000000 154.000000 0.755417 -0.278312 0.593201
3.63000011 6.30999994 -1.03999996 198 23 145 0.000000 0.000000 0.000000 0.000000 -8.844074 0.000000 154.000000 0.748417 -0.455630 0.481948
3.61999989 6.30999994 -1.02999997 198 23 145 0.000000 0.000000 0.000000 0.000000 -8.844074 0.000000 154.000000 0.489456 -0.580283 0.650926
3.63000011 6.28000021 -1.04999995 198 23 145 0.000000 0.000000 0.000000 0.000000 -8.844074 0.000000 154.000000 0.776627 -0.473791 0.415178
3.74000001 6.30999994 -1.10000002 198 23 145 0.000000 0.000000 0.000000 0.000000 -8.844074 0.000000 154.000000 -0.322978 0.820837 -0.471075
3.74000001 6.32000017 -1.13000000 198 23 145 0.000000 0.000000 0.000000 0.000000 -8.844074 0.000000 154.000000 -0.352219 0.745017 -0.566473
3.74000001 6.32000017 -1.13000000 198 23 145 0.000000 0.000000 0.000000 0.000000 -8.844074 0.000000 154.000000 -0.352219 0.745017 -0.566473
3.75000000 6.34000015 -1.10000002 198 23 145 0.000000 0.000000 0.000000 0.000000 -8.844074 0.000000 154.000000 0.162958 -0.683814 0.711227
3.74000001 6.30999994 -1.10000002 198 23 145 0.000000 0.000000 0.000000 0.000000 -8.844074 0.000000 154.000000 -0.322978 0.820837 -0.471075
3.71000004 6.30000019 -1.10000002 198 23 145 0.000000 0.000000 0.000000 0.000000 -8.844074 0.000000 154.000000 -0.489445 0.721725 -0.489445
3.73000002 6.30000019 -1.13000000 198 23 145 0.000000 0.000000 0.000000 0.000000 -8.844074 0.000000 154.000000 0.037959 -0.617190 0.785898
3.74000001 6.30000019 -1.19000006 198 23 145 0.000000 0.000000 0.000000 0.000000 -8.844074 0.000000 154.000000 -0.119941 -0.617473 0.777394
3.76999998 6.34000015 -1.25000000 198 23 145 0.000000 0.000000 0.000000 0.000000 -8.844074 0.000000 154.000000 0.451900 -0.750976 0.481479
3.76999998 6.32000017 -1.22000003 198 23 145 0.000000 0.000000 0.000000 0.000000 -8.844074 0.000000 154.000000 0.111102 -0.730311 0.674019
3.70000005 6.30000019 -1.19000006 198 23 145 0.000000 0.000000 0.000000 0.000000 -8.844074 0.000000 154.000000 0.127405 -0.258750 0.957505
3.70000005 6.30000019 -1.19000006 198 23 145 0.000000 0.000000 0.000000 0.000000 -8.844074 0.000000 154.000000 0.127405 -0.258750 0.957505
3.70000005 6.30999994 -1.19000006 198 23 145 0.000000 0.000000 0.000000 0.000000 -8.844074 0.000000 154.000000 -0.162986 0.817922 -0.551761
3.70000005 6.30999994 -1.19000006 198 23 145 0.000000 0.000000 0.000000 0.000000 -8.844074 0.000000 154.000000 -0.162986 0.817922 -0.551761
3.70000005 6.30999994 -1.22000003 198 23 145 0.000000 0.000000 0.000000 0.000000 -8.844074 0.000000 154.000000 -0.644483 0.563712 -0.516596
3.70000005 6.30999994 -1.23000002 198 23 145 0.000000 0.000000 0.000000 0.000000 -8.844074 0.000000 154.000000 0.562800 -0.542518 0.623643
3.67000008 6.26999998 -1.13000000 198 23 145 0.000000 0.000000 0.000000 0.000000 -8.844074 0.000000 154.000000 0.492897 -0.336574 0.802353
3.61999989 6.30999994 -1.11000001 198 23 145 0.000000 0.000000 0.000000 0.000000 -8.844074 0.000000 154.000000 0.716051 -0.052882 0.696042
3.61999989 6.28999996 -1.16999996 198 23 145 0.000000 0.000000 0.000000 0.000000 -8.844074 0.000000 154.000000 0.403308 -0.561339 0.722662
3.64000010 6.28999996 -1.13999999 198 23 145 0.000000 0.000000 0.000000 0.000000 -8.844074 0.000000 154.000000 0.413823 -0.669761 0.616579
3.63000011 6.28999996 -1.13999999 198 23 145 0.000000 0.000000 0.000000 0.000000 -8.844074 0.000000 154.000000 0.495239 -0.237653 0.835619
3.61999989 6.28999996 -1.16999996 198 23 145 0.000000 0.000000 0.000000 0.000000 -8.844074 0.000000 154.000000 0.403308 -0.561339 0.722662
3.67000008 6.30999994 -1.21000004 198 23 145 0.000000 0.000000 0.000000 0.000000 -8.844074 0.000000 154.000000 0.068271 -0.491827 0.868012
3.69000006 6.30000019 -1.22000003 198 23 145 0.000000 0.000000 0.000000 0.000000 -8.844074 0.000000 154.000000 -0.390249 0.703107 -0.594430
3.69000006 6.30000019 -1.22000003 198 23 145 0.000000 0.000000 0.000000 0.000000 -8.844074 0.000000 154.000000 -0.390249 0.703107 -0.594430
3.68000007 6.28999996 -1.19000006 198 23 145 0.000000 0.000000 0.000000 0.000000 -8.844074 0.000000 154.000000 -0.440652 0.741022 -0.506668
3.69000006 6.26999998 -1.22000003 198 23 145 0.000000 0.000000 0.000000 0.000000 -8.844074 0.000000 154.000000 0.742855 -0.300030 0.598455
3.64000010 6.30000019 -1.21000004 198 23 145 0.000000 0.000000 0.000000 0.000000 -8.844074 0.000000 154.000000 0.196463 -0.672924 0.713145
3.52999997 6.34000015 -1.00000000 198 23 145 0.000000 0.000000 0.000000 0.000000 -8.844074 0.000000 154.000000 0.661582 -0.226783 0.714758
3.55999994 6.28000021 -0.94000000 198 23 145 0.000000 0.000000 0.000000 0.000000 -8.844074 0.000000 154.000000 0.921508 -0.003845 0.388341
3.58999991 6.30000019 -1.03999996 198 23 145 0.000000 0.000000 0.000000 0.000000 -8.844074 0.000000 154.000000 0.823906 -0.319795 0.467878
3.58999991 6.34000015 -1.00999999 198 23 145 0.000000 0.000000 0.000000 0.000000 -8.844074 0.000000 154.000000 0.321389 -0.538846 0.778688
3.56999993 6.32000017 -1.08000004 198 23 145 0.000000 0.000000 0.000000 0.000000 -8.844074 0.000000 154.000000 0.625804 -0.442235 0.642493
3.56999993 6.30999994 -1.09000003 198 23 145 0.000000 0.000000 0.000000 0.000000 -8.844074 0.000000 154.000000 0.266783 -0.402436 0.875712
3.57999992 6.30999994 -1.09000003 198 23 145 0.000000 0.000000 0.000000 0.000000 -8.844074 0.000000 154.000000 0.325577 -0.626858 0.707848
3.59999990 6.30000019 -1.05999994 198 23 145 0.000000 0.000000 0.000000 0.000000 -8.844074 0.000000 154.000000 0.329499 -0.641143 0.693084
3.57999992 6.30999994 -1.09000003 198 23 145 0.000000 0.000000 0.000000 0.000000 -8.844074 0.000000 154.000000 0.325577 -0.626858 0.707848
3.55999994 6.30999994 -1.05999994 198 23 145 0.000000 0.000000 0.000000 0.000000 -8.844074 0.000000 154.000000 0.553146 -0.566679 0.610660
3.55999994 6.30999994 -1.05999994 198 23 145 0.000000 0.000000 0.000000 0.000000 -8.844074 0.000000 154.000000 0.553146 -0.566679 0.610660
3.50999999 6.28000021 -1.09000003 198 23 145 0.000000 0.000000 0.000000 0.000000 -8.844074 0.000000 154.000000 0.918870 -0.054679 0.390753
3.59999990 6.30999994 -1.10000002 198 23 145 0.000000 0.000000 0.000000 0.000000 -8.844074 0.000000 154.000000 0.489667 -0.587263 0.644475
3.59999990 6.30999994 -1.10000002 198 23 145 0.000000 0.000000 0.000000 0.000000 -8.844074 0.000000 154.000000 0.489667 -0.587263 0.644475
3.55999994 6.32999992 -1.11000001 198 23 145 0.000000 0.000000 0.000000 0.000000 -8.844074 0.000000 154.000000 0.304717 -0.295884 0.905318
3.55999994 6.32999992 -1.11000001 198 23 145 0.000000 0.000000 0.000000 0.000000 -8.844074 0.000000 154.000000 0.304717 -0.295884 0.905318
3.55999994 6.32999992 -1.11000001 198 23 145 0.000000 0.000000 0.000000 0.000000 -8.844074 0.000000 154.000000 0.304717 -0.295884 0.905318
3.46000004 6.34000015 -1.13000000 198 23 145 0.000000 0.000000 0.000000 0.000000 -8.844074 0.000000 154.000000 0.416347 -0.582222 0.698335
3.74000001 6.32000017 -1.27999997 198 23 145 0.000000 0.000000 0.000000 0.000000 -8.844074 0.000000 154.000000 0.115860 -0.573433 0.811019
3.76999998 6.30999994 -1.33000004 198 23 145 0.000000 0.000000 0.000000 0.000000 -8.844074 0.000000 154.000000 0.250679 -0.632216 0.733118
3.74000001 6.30000019 -1.30999994 198 23 145 0.000000 0.000000 0.000000 0.000000 -8.844074 0.000000 154.000000 -0.663257 0.545718 -0.512135
3.75999999 6.30999994 -1.33000004 198 23 145 0.000000 0.000000 0.000000 0.000000 -8.844074 0.000000 154.000000 0.111045 -0.520615 0.846540
3.71000004 6.30000019 -1.28999996 198 23 145 0.000000 0.000000 0.000000 0.000000 -8.844074 0.000000 154.000000 0.135405 -0.784161 0.605604
3.73000002 6.30000019 -1.29999995 198 23 145 0.000000 0.000000 0.000000 0.000000 -8.844074 0.000000 154.000000 -0.200927 0.792972 -0.575173
3.73000002 6.30000019 -1.29999995 198 23 145 0.000000 0.000000 0.000000 0.000000 -8.844074 0.000000 154.000000 -0.200927 0.792972 -0.575173
3.71000004 6.30000019 -1.28999996 198 23 145 0.000000 0.000000 0.000000 0.000000 -8.844074 0.000000 154.000000 0.135405 -0.784161 0.605604
3.73000002 6.30999994 -1.27999997 198 23 145 0.000000 0.000000 0.000000 0.000000 -8.844074 0.000000 154.000000 0.539539 -0.597045 0.593662
3.73000002 6.26999998 -1.26999998 198 23 145 0.000000 0.000000 0.000000 0.000000 -8.844074 0.000000 154.000000 -0.624226 0.614131 -0.482892
3.71000004 6.28000021 -1.34000003 198 23 145 0.000000 0.000000 0.000000 0.000000 -8.844074 0.000000 154.000000 -0.308784 0.667684 -0.677385
3.74000001 6.30000019 -1.37000000 198 23 145 0.000000 0.000000 0.000000 0.000000 -8.844074 0.000000 154.000000 0.380427 -0.666982 0.640632
3.75000000 6.28999996 -1.38000000 198 23 145 0.000000 0.000000 0.000000 0.000000 -8.844074 0.000000 154.000000 0.227895 -0.503205 0.833576
3.70000005 6.26999998 -1.38000000 198 23 145 0.000000 0.000000 0.000000 0.000000 -8.844074 0.000000 154.000000 0.015148 -0.576995 0.816607
3.72000003 6.26999998 -1.40999997 198 23 145 0.000000 0.000000 0.000000 0.000000 -8.844074 0.000000 154.000000 -0.040876 -0.621591 0.782275
3.75000000 6.25000000 -1.29999995 198 23 145 0.000000 0.000000 0.000000 0.000000 -8.844074 0.000000 154.000000 0.617045 -0.539280 0.573091
3.69000006 6.32000017 -1.32000005 198 23 145 0.000000 0.000000 0.000000 0.000000 -8.844074 0.000000 154.000000 0.655201 -0.438468 0.615189
3.69000006 6.32000017 -1.32000005 198 23 145 0.000000 0.000000 0.000000 0.000000 -8.844074 0.000000 154.000000 0.655201 -0.438468 0.615189
3.68000007 6.32999992 -1.32000005 198 23 145 0.000000 0.000000 0.000000 0.000000 -8.844074 0.000000 154.000000 0.413037 -0.455151 0.788820
3.65000010 6.28000021 -1.28999996 198 23 145 0.000000 0.000000 0.000000 0.000000 -8.844074 0.000000 154.000000 -0.661291 0.584280 -0.470437
3.66000009 6.28999996 -1.28999996 198 23 145 0.000000 0.000000 0.000000 0.000000 -8.844074 0.000000 154.000000 0.724477 -0.489063 0.485748
3.66000009 6.28999996 -1.28999996 198 23 145 0.000000 0.000000 0.000000 0.000000 -8.844074 0.000000 154.000000 0.724477 -0.489063 0.485748
3.65000010 6.26999998 -1.27999997 198 23 145 0.000000 0.000000 0.000000 0.000000 -8.844074 0.000000 154.000000 0.741427 -0.192679 0.642776
3.66000009 6.28999996 -1.28999996 198 23 145 0.000000 0.000000 0.000000 0.000000 -8.844074 0.000000 154.000000 0.724477 -0.489063 0.485748
3.69000006 6.28000021 -1.34000003 198 23 145 0.000000 0.000000 0.000000 0.000000 -8.844074 0.000000 154.000000 0.353151 -0.584245 0.730713
3.68000007 6.26999998 -1.33000004 198 23 145 0.000000 0.000000 0.000000 0.000000 -8.844074 0.000000 154.000000 0.551256 -0.524283 0.649033
3.69000006 6.28999996 -1.33000004 198 23 145 0.000000 0.000000 0.000000 0.000000 -8.844074 0.000000 154.000000 0.012490 -0.650855 0.759099
3.68000007 6.28000021 -1.33000004 198 23 145 0.000000 0.000000 0.000000 0.000000 -8.844074 0.000000 154.000000 0.757970 -0.365189 0.540480
3.67000008 6.28000021 -1.32000005 198 23 145 0.000000 0.000000 0.000000 0.000000 -8.844074 0.000000 154.000000 -0.420726 0.600325 -0.680147
3.69000006 6.28999996 -1.34000003 198 23 145 0.000000 0.000000 0.000000 0.000000 -8.844074 0.000000 154.000000 0.523617 -0.641473 0.560658
3.66000009 6.30000019 -1.38000000 198 23 145 0.000000 0.000000 0.000000 0.000000 -8.844074 0.000000 154.000000 -0.503471 0.741175 -0.444045
3.66000009 6.30000019 -1.41999996 198 23 145 0.000000 0.000000 0.000000 0.000000 -8.844074 0.000000 154.000000 0.056185 -0.459070 0.886622
3.66000009 6.28000021 -1.41999996 198 23 145 0.000000 0.000000 0.000000 0.000000 -8.844074 0.000000 154.000000 0.197560 -0.408292 0.891217
3.66000009 6.28999996 -1.41999996 198 23 145 0.000000 0.000000 0.000000 0.000000 -8.844074 0.000000 154.000000 0.610964 -0.450272 0.651137
3.65000010 6.28999996 -1.40999997 198 23 145 0.000000 0.000000 0.000000 0.000000 -8.844074 0.000000 154.000000 -0.257206 0.746370 -0.613822
3.66000009 6.28999996 -1.41999996 198 23 145 0.000000 0.000000 0.000000 0.000000 -8.844074 0.000000 154.000000 0.610964 -0.450272 0.651137
3.76999998 6.30000019 -1.45000005 198 23 145 0.000000 0.000000 0.000000 0.000000 -8.844074 0.000000 154.000000 -0.402628 0.731304 -0.550532
3.76999998 6.30000019 -1.45000005 198 23 145 0.000000 0.000000 0.000000 0.000000 -8.844074 0.000000 154.000000 -0.402628 0.731304 -0.550532
3.74000001 6.28999996 -1.46000004 198 23 145 0.000000 0.000000 0.000000 0.000000 -8.844074 0.000000 154.000000 0.290477 -0.314069 0.903871
3.72000003 6.28999996 -1.45000005 198 23 145 0.000000 0.000000 0.000000 0.000000 -8.844074 0.000000 154.000000 -0.230575 0.803145 -0.549357
3.72000003 6.28999996 -1.45000005 198 23 145 0.000000 0.000000 0.000000 0.000000 -8.844074 0.000000 154.000000 -0.230575 0.803145 -0.549357
3.72000003 6.26000023 -1.49000001 198 23 145 0.000000 0.000000 0.000000 0.000000 -8.844074 0.000000 154.000000 0.497697 -0.276152 0.822215
3.66000009 6.28999996 -1.42999995 198 23 145 0.000000 0.000000 0.000000 0.000000 -8.844074 0.000000 154.000000 0.704864 -0.504903 0.498237
3.67000008 6.26999998 -1.46000004 198 23 145 0.000000 0.000000 0.000000 0.000000 -8.844074 0.000000 154.000000 0.067870 -0.671481 0.737907
3.67000008 6.28000021 -1.45000005 198 23 145 0.000000 0.000000 0.000000 0.000000 -8.844074 0.000000 154.000000 0.379658 -0.401713 0.833358
3.67000008 6.28000021 -1.45000005 198 23 145 0.000000 0.000000 0.000000 0.000000 -8.844074 0.000000 154.000000 0.379658 -0.401713 0.833358
3.66000009 6.28999996 -1.42999995 198 23 145 0.000000 0.000000 0.000000 0.000000 -8.844074 0.000000 154.000000 0.704864 -0.504903 0.498237
3.57999992 6.32999992 -1.32000005 198 23 145 0.000000 0.000000 0.000000 0.000000 -8.844074 0.000000 154.000000 -0.693051 0.489311 -0.529391
3.40000010 6.67000008 -0.27000001 198 23 145 0.000000 0.000000 0.000000 0.000000 -8.844074 0.000000 154.000000 0.062419 0.925655 -0.373184
3.43000007 6.65999985 -0.28999999 198 23 145 0.000000 0.000000 0.000000 0.000000 -8.844074 0.000000 154.000000 -0.122555 0.897326 -0.424011
3.39000010 6.59999990 -0.25000000 198 23 145 0.000000 0.000000 0.000000 0.000000 -8.844074 0.000000 154.000000 0.171665 0.940726 -0.292518
3.41000009 6.67000008 -0.40000001 198 23 145 0.000000 0.000000 0.000000 0.000000 -8.844074 0.000000 154.000000 0.752240 -0.117213 0.648380
3.43000007 6.65000010 -0.40000001 198 23 145 0.000000 0.000000 0.000000 0.000000 -8.844074 0.000000 154.000000 0.753845 -0.390822 0.528182
3.43000007 6.65000010 -0.40000001 198 23 145 0.000000 0.000000 0.000000 0.000000 -8.844074 0.000000 154.000000 0.753845 -0.390822 0.528182
3.39000010 6.59999990 -0.36000001 198 23 145 0.000000 0.000000 0.000000 0.000000 -8.844074 0.000000 154.000000 0.732015 0.669399 0.126724
3.39000010 6.59999990 -0.37000000 198 23 145 0.000000 0.000000 0.000000 0.000000 -8.844074 0.000000 154.000000 0.967354 0.251877 -0.027986
3.38000011 6.61999989 -0.38000000 198 23 145 0.000000 0.000000 0.000000 0.000000 -8.844074 0.000000 154.000000 0.971712 0.210475 -0.107128
3.39000010 6.61000013 -0.40000001 198 23 145 0.000000 0.000000 0.000000 0.000000 -8.844074 0.000000 154.000000 0.944491 0.013834 0.328245
3.35999990 6.51000023 -0.31999999 198 23 145 0.000000 0.000000 0.000000 0.000000 -8.844074 0.000000 154.000000 0.527930 0.849278 0.004051
3.36999989 6.59000015 -0.33000001 198 23 145 0.000000 0.000000 0.000000 0.000000 -8.844074 0.000000 154.000000 0.404313 0.909358 -0.097973
3.36999989 6.51000023 -0.34000000 198 23 145 0.000000 0.000000 0.000000 0.000000 -8.844074 0.000000 154.000000 0.832596 0.549881 -0.066438
3.35999990 6.51000023 -0.33000001 198 23 145 0.000000 0.000000 0.000000 0.000000 -8.844074 0.000000 154.000000 0.328544 0.933394 -0.144339
3.36999989 6.51000023 -0.34000000 198 23 145 0.000000 0.000000 0.000000 0.000000 -8.844074 0.000000 154.000000 0.832596 0.549881 -0.066438
3.36999989 6.51000023 -0.34000000 198 23 145 0.000000 0.000000 0.000000 0.000000 -8.844074 0.000000 154.000000 0.832596 0.549881 -0.066438
3.36999989 6.51000023 -0.34000000 198 23 145 0.000000 0.000000 0.000000 0.000000 -8.844074 0.000000 154.000000 0.832596 0.549881 -0.066438
3.35999990 6.51000023 -0.33000001 198 23 145 0.000000 0.000000 0.000000 0.000000 -8.844074 0.000000 154.000000 0.328544 0.933394 -0.144339
3.35999990 6.51000023 -0.33000001 198 23 145 0.000000 0.000000 0.000000 0.000000 -8.844074 0.000000 154.000000 0.328544 0.933394 -0.144339
3.38000011 6.51000023 -0.40000001 198 23 145 0.000000 0.000000 0.000000 0.000000 -8.844074 0.000000 154.000000 0.818718 0.553269 0.153603
3.36999989 6.53999996 -0.38999999 198 23 145 0.000000 0.000000 0.000000 0.000000 -8.844074 0.000000 154.000000 0.666831 0.686113 -0.290835
3.38000011 6.51999998 -0.41000000 198 23 145 0.000000 0.000000 0.000000 0.000000 -8.844074 0.000000 154.000000 0.809231 0.582932 -0.073046
3.36999989 6.53999996 -0.38999999 198 23 145 0.000000 0.000000 0.000000 0.000000 -8.844074 0.000000 154.000000 0.666831 0.686113 -0.290835
3.38000011 6.53999996 -0.38999999 198 23 145 0.000000 0.000000 0.000000 0.000000 -8.844074 0.000000 154.000000 0.900491 0.335651 -0.276505
3.29999995 6.59999990 -0.31999999 198 23 145 0.000000 0.000000 0.000000 0.000000 -8.844074 0.000000 154.000000 0.734478 0.623433 -0.268092
3.29999995 6.61000013 -0.31999999 198 23 145 0.000000 0.000000 0.000000 0.000000 -8.844074 0.000000 154.000000 0.793876 0.572758 -0.204227
3.27999997 6.59999990 -0.37000000 198 23 145 0.000000 0.000000 0.000000 0.000000 -8.844074 0.000000 154.000000 0.707891 0.579183 0.404273
3.33999991 6.55999994 -0.31999999 198 23 145 0.000000 0.000000 0.000000 0.000000 -8.844074 0.000000 154.000000 0.707402 0.698541 0.107809
3.33999991 6.55999994 -0.31999999 198 23 145 0.000000 0.000000 0.000000 0.000000 -8.844074 0.000000 154.000000 0.707402 0.698541 0.107809
3.34999990 6.51999998 -0.25999999 198 23 145 0.000000 0.000000 0.000000 0.000000 -8.844074 0.000000 154.000000 0.404800 0.906249 -0.121860
3.34999990 6.51999998 -0.25999999 198 23 145 0.000000 0.000000 0.000000 0.000000 -8.844074 0.000000 154.000000 0.404800 0.906249 -0.121860
3.34999990 6.51999998 -0.31999999 198 23 145 0.000000 0.000000 0.000000 0.000000 -8.844074 0.000000 154.000000 0.863494 0.475142 -0.169168
3.34999990 6.51999998 -0.31999999 198 23 145 0.000000 0.000000 0.000000 0.000000 -8.844074 0.000000 154.000000 0.863494 0.475142 -0.169168
3.34999990 6.55999994 -0.34999999 198 23 145 0.000000 0.000000 0.000000 0.000000 -8.844074 0.000000 154.000000 0.769164 0.631970 0.094868
3.31999993 6.53999996 -0.33000001 198 23 145 0.000000 0.000000 0.000000 0.000000 -8.844074 0.000000 154.000000 0.594655 0.694041 -0.405823
3.33999991 6.55000019 -0.40000001 198 23 145 0.000000 0.000000 0.000000 0.000000 -8.844074 0.000000 154.000000 0.825992 0.457835 0.328823
3.28999996 6.59000015 -0.37000000 198 23 145 0.000000 0.000000 0.000000 0.000000 -8.844074 0.000000 154.000000 0.731508 0.595263 0.332504
3.26999998 6.57999992 -0.36000001 198 23 145 0.000000 0.000000 0.000000 0.000000 -8.844074 0.000000 154.000000 0.704090 0.534310 0.467729
3.30999994 6.55999994 -0.38999999 198 23 145 0.000000 0.000000 0.000000 0.000000 -8.844074 0.000000 154.000000 0.599311 0.800459 0.009644
3.30999994 6.55000019 -0.37000000 198 23 145 0.000000 0.000000 0.000000 0.000000 -8.844074 0.000000 154.000000 0.589980 0.780992 0.204876
3.43000007 6.67000008 -0.41999999 198 23 145 0.000000 0.000000 0.000000 0.000000 -8.844074 0.000000 154.000000 0.425790 -0.419363 0.801771
3.42000008 6.61999989 -0.41999999 198 23 145 0.000000 0.000000 0.000000 0.000000 -8.844074 0.000000 154.000000 0.845534 -0.108033 0.522877
3.43000007 6.61000013 -0.47999999 198 23 145 0.000000 0.000000 0.000000 0.000000 -8.844074 0.000000 154.000000 -0.730713 0.353151 -0.584245
3.38000011 6.59999990 -0.44000000 198 23 145 0.000000 0.000000 0.000000 0.000000 -8.844074 0.000000 154.000000 0.762049 -0.026665 0.646970
3.43000007 6.59999990 -0.56000000 198 23 145 0.000000 0.000000 0.000000 0.000000 -8.844074 0.000000 154.000000 0.601421 -0.390512 0.696989
3.43000007 6.61000013 -0.56999999 198 23 145 0.000000 0.000000 0.000000 0.000000 -8.844074 0.000000 154.000000 0.712647 -0.304041 0.632213
3.40000010 6.59000015 -0.49000001 198 23 145 0.000000 0.000000 0.000000 0.000000 -8.844074 0.000000 154.000000 0.875025 -0.100366 0.473559
3.40000010 6.59000015 -0.49000001 198 23 145 0.000000 0.000000 0.000000 0.000000 -8.844074 0.000000 154.000000 0.875025 -0.100366 0.473559
3.43000007 6.51999998 -0.49000001 198 23 145 0.000000 0.000000 0.000000 0.000000 -8.844074 0.000000 154.000000 0.808021 0.550435 0.210055
3.42000008 6.53999996 -0.49000001 198 23 145 0.000000 0.000000 0.000000 0.000000 -8.844074 0.000000 154.000000 0.933177 0.354054 -0.061861
3.35999990 6.55999994 -0.44000000 198 23 145 0.000000 0.000000 0.000000 0.000000 -8.844074 0.000000 154.000000 0.934392 0.265564 0.237462
3.39000010 6.59000015 -0.44000000 198 23 145 0.000000 0.000000 0.000000 0.000000 -8.844074 0.000000 154.000000 0.839391 -0.075275 0.538290
3.35999990 6.57000017 -0.43000001 198 23 145 0.000000 0.000000 0.000000 0.000000 -8.844074 0.000000 154.000000 0.858863 0.497996 -0.119808
3.36999989 6.55999994 -0.44000000 198 23 145 0.000000 0.000000 0.000000 0.000000 -8.844074 0.000000 154.000000 0.683504 0.553154 0.476280
3.39000010 6.57999992 -0.44999999 198 23 145 0.000000 0.000000 0.000000 0.000000 -8.844074 0.000000 154.000000 0.824530 0.043396 0.564152
3.35999990 6.57000017 -0.46000001 198 23 145 0.000000 0.000000 0.000000 0.000000 -8.844074 0.000000 154.000000 0.848824 -0.077939 0.522898
3.35999990 6.57000017 -0.46000001 198 23 145 0.000000 0.000000 0.000000 0.000000 -8.844074 0.000000 154.000000 0.848824 -0.077939 0.522898
3.38000011 6.55000019 -0.44999999 198 23 145 0.000000 0.000000 0.000000 0.000000 -8.844074 0.000000 154.000000 0.748389 0.649799 0.132947
3.36999989 6.53000021 -0.44999999 198 23 145 0.000000 0.000000 0.000000 0.000000 -8.844074 0.000000 154.000000 0.832537 0.541948 0.114783
3.39000010 6.51000023 -0.41999999 198 23 145 0.000000 0.000000 0.000000 0.000000 -8.844074 0.000000 154.000000 0.585824 0.780583 -0.217945
3.38000011 6.55000019 -0.44999999 198 23 145 0.000000 0.000000 0.000000 0.000000 -8.844074 0.000000 154.000000 0.748389 0.649799 0.132947
3.36999989 6.53000021 -0.44000000 198 23 145 0.000000 0.000000 0.000000 0.000000 -8.844074 0.000000 154.000000 0.857838 0.513619 -0.017618
3.36999989 6.53000021 -0.41999999 198 23 145 0.000000 0.000000 0.000000 0.000000 -8.844074 0.000000 154.000000 0.871761 0.412462 0.264399
3.38000011 6.53000021 -0.46000001 198 23 145 0.000000 0.000000 0.000000 0.000000 -8.844074 0.000000 154.000000 0.774524 0.626303 0.088642
3.40000010 6.55999994 -0.52999997 198 23 145 0.000000 0.000000 0.000000 0.000000 -8.844074 0.000000 154.000000 0.648923 -0.195756 0.735241
3.40000010 6.55999994 -0.55000001 198 23 145 0.000000 0.000000 0.000000 0.000000 -8.844074 0.000000 154.000000 0.667202 -0.337679 0.663939
3.43000007 6.57999992 -0.56000000 198 23 145 0.000000 0.000000 0.000000 0.000000 -8.844074 0.000000 154.000000 0.875942 0.103302 0.471226
3.41000009 6.57000017 -0.56999999 198 23 145 0.000000 0.000000 0.000000 0.000000 -8.844074 0.000000 154.000000 0.795668 0.231101 0.559915
3.42000008 6.57000017 -0.57999998 198 23 145 0.000000 0.000000 0.000000 0.000000 -8.844074 0.000000 154.000000 0.702907 -0.482518 0.522589
3.41000009 6.53999996 -0.52999997 198 23 145 0.000000 0.000000 0.000000 0.000000 -8.844074 0.000000 154.000000 0.890694 0.412547 0.190967
3.39000010 6.55999994 -0.51999998 198 23 145 0.000000 0.000000 0.000000 0.000000 -8.844074 0.000000 154.000000 0.731071 -0.254217 0.633174
3.39000010 6.51999998 -0.50000000 198 23 145 0.000000 0.000000 0.000000 0.000000 -8.844074 0.000000 154.000000 0.766252 0.582983 0.270163
3.39000010 6.53000021 -0.57999998 198 23 145 0.000000 0.000000 0.000000 0.000000 -8.844074 0.000000 154.000000 0.822648 0.272143 0.499187
3.30999994 6.63000011 -0.43000001 198 23 145 0.000000 0.000000 0.000000 0.000000 -8.844074 0.000000 154.000000 0.901373 -0.003925 0.433025
3.32999992 6.59999990 -0.44000000 198 23 145 0.000000 0.000000 0.000000 0.000000 -8.844074 0.000000 154.000000 0.800619 0.420446 0.426889
3.30999994 6.63999987 -0.44000000 198 23 145 0.000000 0.000000 0.000000 0.000000 -8.844074 0.000000 154.000000 0.652145 0.185670 0.735006
3.31999993 6.61000013 -0.44000000 198 23 145 0.000000 0.000000 0.000000 0.000000 -8.844074 0.000000 154.000000 0.743757 -0.021010 0.668120
3.31999993 6.55999994 -0.43000001 198 23 145 0.000000 0.000000 0.000000 0.000000 -8.844074 0.000000 154.000000 0.755431 0.654893 0.020945
3.32999992 6.55999994 -0.47000000 198 23 145 0.000000 0.000000 0.000000 0.000000 -8.844074 0.000000 154.000000 0.742193 0.570043 0.352420
3.32999992 6.53999996 -0.41999999 198 23 145 0.000000 0.000000 0.000000 0.000000 -8.844074 0.000000 154.000000 0.691433 0.709431 -0.136487
3.33999991 6.55000019 -0.46000001 198 23 145 0.000000 0.000000 0.000000 0.000000 -8.844074 0.000000 154.000000 0.824741 0.565023 -0.023485
3.30999994 6.57000017 -0.44000000 198 23 145 0.000000 0.000000 0.000000 0.000000 -8.844074 0.000000 154.000000 0.853655 0.518834 -0.045657
3.32999992 6.55999994 -0.50000000 198 23 145 0.000000 0.000000 0.000000 0.000000 -8.844074 0.000000 154.000000 0.833696 0.121185 0.538763
3.38000011 6.48000002 -0.31000000 198 23 145 0.000000 0.000000 0.000000 0.000000 -8.844074 0.000000 154.000000 0.700318 0.697293 -0.152769
3.39000010 6.44999981 -0.25999999 198 23 145 0.000000 0.000000 0.000000 0.000000 -8.844074 0.000000 154.000000 0.515897 0.815149 -0.263404
3.36999989 6.46000004 -0.25000000 198 23 145 0.000000 0.000000 0.000000 0.000000 -8.844074 0.000000 154.000000 0.705892 0.485613 -0.515651
3.39000010 6.44999981 -0.25999999 198 23 145 0.000000 0.000000 0.000000 0.000000 -8.844074 0.000000 154.000000 0.515897 0.815149 -0.263404
