//X Y Z R G B PointSourceId ScanDirectionFlag NumberOfReturns ReturnNumber GpsTime Intensity Classification Nx Ny Nz
7.82000017 -5.42000008 -0.74000001 14 121 188 97.000000 1.000000 4.000000 1.000000 -8.844074 114.000000 81.000000 -0.615715 0.760771 -0.205238
7.82000017 -5.42999983 -0.75000000 14 121 188 97.000000 1.000000 4.000000 1.000000 -8.844074 114.000000 81.000000 -0.578378 0.810309 -0.094222
7.80000019 -5.42999983 -0.75000000 14 121 188 97.000000 1.000000 4.000000 1.000000 -8.844074 114.000000 81.000000 -0.405204 0.852325 -0.330684
7.80000019 -5.46999979 -0.69999999 14 121 188 97.000000 1.000000 4.000000 1.000000 -8.844074 114.000000 81.000000 0.842464 -0.423577 0.332922
7.80000019 -5.46000004 -0.69999999 14 121 188 97.000000 1.000000 4.000000 1.000000 -8.844074 114.000000 81.000000 -0.647052 0.760819 0.049773
7.82000017 -5.46000004 -0.70999998 14 121 188 97.000000 1.000000 4.000000 1.000000 -8.844074 114.000000 81.000000 0.879310 -0.456205 0.136718
7.80000019 -5.48999977 -0.68000001 14 121 188 97.000000 1.000000 4.000000 1.000000 -8.844074 114.000000 81.000000 0.973763 -0.185179 0.132270
7.80000019 -5.46000004 -0.68000001 14 121 188 97.000000 1.000000 4.000000 1.000000 -8.844074 114.000000 81.000000 0.717120 -0.626876 0.304575
7.78999996 -5.46999979 -0.67000002 14 121 188 97.000000 1.000000 4.000000 1.000000 -8.844074 114.000000 81.000000 -0.544221 0.804703 -0.237225
7.78000021 -5.48000002 -0.68000001 14 121 188 97.000000 1.000000 4.000000 1.000000 -8.844074 114.000000 81.000000 0.819310 -0.545705 0.175889
7.78999996 -5.48999977 -0.74000001 14 121 188 97.000000 1.000000 4.000000 1.000000 -8.844074 114.000000 81.000000 0.737979 -0.483731 0.470523
7.78999996 -5.48999977 -0.73000002 14 121 188 97.000000 1.000000 4.000000 1.000000 -8.844074 114.000000 81.000000 0.862718 -0.497231 -0.092080
7.78999996 -5.48999977 -0.74000001 14 121 188 97.000000 1.000000 4.000000 1.000000 -8.844074 114.000000 81.000000 0.737979 -0.483731 0.470523
7.82000017 -5.40000010 -0.80000001 14 121 188 97.000000 1.000000 4.000000 1.000000 -8.844074 114.000000 81.000000 -0.450048 0.878249 0.161668
7.82000017 -5.40999985 -0.82999998 14 121 188 97.000000 1.000000 4.000000 1.000000 -8.844074 114.000000 81.000000 0.539280 -0.617045 0.573091
7.80999994 -5.40999985 -0.86000001 14 121 188 97.000000 1.000000 4.000000 1.000000 -8.844074 114.000000 81.000000 -0.379344 0.920487 0.093816
7.80000019 -5.38000011 -0.92000002 14 121 188 97.000000 1.000000 4.000000 1.000000 -8.844074 114.000000 81.000000 -0.282445 0.742018 -0.607976
7.78000021 -5.40999985 -0.91000003 14 121 188 97.000000 1.000000 4.000000 1.000000 -8.844074 114.000000 81.000000 0.827205 -0.445903 0.341911
7.78000021 -5.40999985 -0.91000003 14 121 188 97.000000 1.000000 4.000000 1.000000 -8.844074 114.000000 81.000000 0.827205 -0.445903 0.341911
7.78999996 -5.40999985 -0.92000002 14 121 188 97.000000 1.000000 4.000000 1.000000 -8.844074 114.000000 81.000000 -0.308730 0.763026 -0.567871
7.82000017 -5.44000006 -0.76999998 14 121 188 97.000000 1.000000 4.000000 1.000000 -8.844074 114.000000 81.000000 0.791159 -0.609349 0.052555
7.80000019 -5.44999981 -0.76999998 14 121 188 97.000000 1.000000 4.000000 1.000000 -8.844074 114.000000 81.000000 0.730068 -0.673795 0.114027
7.80999994 -5.42999983 -0.79000002 14 121 188 97.000000 1.000000 4.000000 1.000000 -8.844074 114.000000 81.000000 -0.481508 0.834510 -0.267848
7.80999994 -5.44999981 -0.81999999 14 121 188 97.000000 1.000000 4.000000 1.000000 -8.844074 114.000000 81.000000 0.779701 -0.625166 -0.035122
7.80000019 -5.42000008 -0.80000001 14 121 188 97.000000 1.000000 4.000000 1.000000 -8.844074 114.000000 81.000000 -0.440881 0.896592 0.041796
7.82000017 -5.42999983 -0.80000001 14 121 188 97.000000 1.000000 4.000000 1.000000 -8.844074 114.000000 81.000000 -0.680242 0.708007 -0.189727
7.80000019 -5.42000008 -0.80000001 14 121 188 97.000000 1.000000 4.000000 1.000000 -8.844074 114.000000 81.000000 -0.440881 0.896592 0.041796
7.80000019 -5.46000004 -0.79000002 14 121 188 97.000000 1.000000 4.000000 1.000000 -8.844074 114.000000 81.000000 0.877716 -0.478632 0.022920
7.80000019 -5.46000004 -0.79000002 14 121 188 97.000000 1.000000 4.000000 1.000000 -8.844074 114.000000 81.000000 0.877716 -0.478632 0.022920
7.80000019 -5.46000004 -0.76999998 14 121 188 97.000000 1.000000 4.000000 1.000000 -8.844074 114.000000 81.000000 -0.694940 0.715251 -0.073991
7.80000019 -5.46000004 -0.81000000 14 121 188 97.000000 1.000000 4.000000 1.000000 -8.844074 114.000000 81.000000 0.849614 -0.521643 -0.077752
7.76999998 -5.44000006 -0.81000000 14 121 188 97.000000 1.000000 4.000000 1.000000 -8.844074 114.000000 81.000000 -0.557132 0.644658 -0.523469
7.76000023 -5.44000006 -0.80000001 14 121 188 97.000000 1.000000 4.000000 1.000000 -8.844074 114.000000 81.000000 0.924026 -0.331521 0.190448
7.78999996 -5.46000004 -0.80000001 14 121 188 97.000000 1.000000 4.000000 1.000000 -8.844074 114.000000 81.000000 0.720750 -0.600354 0.346546
7.80000019 -5.42999983 -0.91000003 14 121 188 97.000000 1.000000 4.000000 1.000000 -8.844074 114.000000 81.000000 0.704321 -0.695272 -0.143277
7.80000019 -5.42999983 -0.91000003 14 121 188 97.000000 1.000000 4.000000 1.000000 -8.844074 114.000000 81.000000 0.704321 -0.695272 -0.143277
7.80999994 -5.42000008 -0.88999999 14 121 188 97.000000 1.000000 4.000000 1.000000 -8.844074 114.000000 81.000000 -0.665760 0.739243 0.101407
7.78999996 -5.44999981 -0.85000002 14 121 188 97.000000 1.000000 4.000000 1.000000 -8.844074 114.000000 81.000000 -0.444704 0.882165 -0.154995
7.76999998 -5.44999981 -0.86000001 14 121 188 97.000000 1.000000 4.000000 1.000000 -8.844074 114.000000 81.000000 -0.507212 0.855830 -0.101442
7.78000021 -5.44999981 -0.87000000 14 121 188 97.000000 1.000000 4.000000 1.000000 -8.844074 114.000000 81.000000 0.798019 -0.446568 0.404652
7.78999996 -5.44000006 -0.88000000 14 121 188 97.000000 1.000000 4.000000 1.000000 -8.844074 114.000000 81.000000 0.753671 -0.652019 0.082773
7.76999998 -5.48999977 -0.86000001 14 121 188 97.000000 1.000000 4.000000 1.000000 -8.844074 114.000000 81.000000 0.837924 -0.532960 0.117629
7.78999996 -5.46000004 -0.88999999 14 121 188 97.000000 1.000000 4.000000 1.000000 -8.844074 114.000000 81.000000 -0.561247 0.737966 -0.374710
7.92999983 -5.34999990 -0.98000002 14 121 188 97.000000 1.000000 4.000000 1.000000 -8.844074 114.000000 81.000000 -0.354497 0.874832 -0.330154
7.92999983 -5.38000011 -0.94999999 14 121 188 97.000000 1.000000 4.000000 1.000000 -8.844074 114.000000 81.000000 -0.042973 0.933686 -0.355504
7.92999983 -5.38999987 -0.93000001 14 121 188 97.000000 1.000000 4.000000 1.000000 -8.844074 114.000000 81.000000 0.160024 0.986624 0.031084
7.96999979 -5.38000011 -1.04999995 14 121 188 97.000000 1.000000 4.000000 1.000000 -8.844074 114.000000 81.000000 0.438124 0.898750 0.017207
7.94000006 -5.36000013 -1.03999996 14 121 188 97.000000 1.000000 4.000000 1.000000 -8.844074 114.000000 81.000000 0.181194 0.975949 0.121213
7.92000008 -5.36000013 -1.00999999 14 121 188 97.000000 1.000000 4.000000 1.000000 -8.844074 114.000000 81.000000 0.225171 0.919328 -0.322697
7.92999983 -5.34000015 -1.09000003 14 121 188 97.000000 1.000000 4.000000 1.000000 -8.844074 114.000000 81.000000 -0.157563 0.924461 -0.347196
7.92000008 -5.36999989 -1.03999996 14 121 188 97.000000 1.000000 4.000000 1.000000 -8.844074 114.000000 81.000000 0.040620 0.998835 0.026038
7.92999983 -5.48000002 -0.94000000 14 121 188 97.000000 1.000000 4.000000 1.000000 -8.844074 114.000000 81.000000 -0.286783 0.957976 0.006102
7.94000006 -5.48000002 -0.94000000 14 121 188 97.000000 1.000000 4.000000 1.000000 -8.844074 114.000000 81.000000 0.069524 0.832864 -0.549094
7.94000006 -5.42000008 -1.00999999 14 121 188 97.000000 1.000000 4.000000 1.000000 -8.844074 114.000000 81.000000 0.027954 0.968681 -0.246728
7.90999985 -5.34000015 -0.99000001 14 121 188 97.000000 1.000000 4.000000 1.000000 -8.844074 114.000000 81.000000 0.100108 0.988121 0.116596
7.88999987 -5.36999989 -0.98000002 14 121 188 97.000000 1.000000 4.000000 1.000000 -8.844074 114.000000 81.000000 -0.220326 0.925371 -0.308457
7.88999987 -5.36999989 -0.99000001 14 121 188 97.000000 1.000000 4.000000 1.000000 -8.844074 114.000000 81.000000 -0.236118 0.937485 -0.255678
7.84999990 -5.32999992 -0.95999998 14 121 188 97.000000 1.000000 4.000000 1.000000 -8.844074 114.000000 81.000000 -0.235621 0.817745 -0.525143
7.88999987 -5.36000013 -1.01999998 14 121 188 97.000000 1.000000 4.000000 1.000000 -8.844074 114.000000 81.000000 0.100106 0.993189 -0.059614
7.88999987 -5.36000013 -1.01999998 14 121 188 97.000000 1.000000 4.000000 1.000000 -8.844074 114.000000 81.000000 0.100106 0.993189 -0.059614
7.88999987 -5.36000013 -1.08000004 14 121 188 97.000000 1.000000 4.000000 1.000000 -8.844074 114.000000 81.000000 0.101963 0.984838 -0.140348
7.90999985 -5.38000011 -1.05999994 14 121 188 97.000000 1.000000 4.000000 1.000000 -8.844074 114.000000 81.000000 0.210505 -0.837476 0.504303
7.92000008 -5.34999990 -1.15999997 14 121 188 97.000000 1.000000 4.000000 1.000000 -8.844074 114.000000 81.000000 0.026195 0.998544 -0.047151
7.94000006 -5.38999987 -1.19000006 14 121 188 97.000000 1.000000 4.000000 1.000000 -8.844074 114.000000 81.000000 -0.144465 0.988142 0.052007
7.94999981 -5.44000006 -1.13999999 14 121 188 97.000000 1.000000 4.000000 1.000000 -8.844074 114.000000 81.000000 0.345382 0.907902 -0.237541
7.94000006 -5.44999981 -1.19000006 14 121 188 97.000000 1.000000 4.000000 1.000000 -8.844074 114.000000 81.000000 0.080345 0.911026 -0.404446
7.90999985 -5.34000015 -1.15999997 14 121 188 97.000000 1.000000 4.000000 1.000000 -8.844074 114.000000 81.000000 -0.182506 0.978671 -0.094315
7.90999985 -5.38999987 -1.10000002 14 121 188 97.000000 1.000000 4.000000 1.000000 -8.844074 114.000000 81.000000 0.383870 -0.829349 0.405986
7.90000010 -5.40000010 -1.11000001 14 121 188 97.000000 1.000000 4.000000 1.000000 -8.844074 114.000000 81.000000 0.172777 0.922881 -0.344149
7.84000015 -5.32999992 -1.12000000 14 121 188 97.000000 1.000000 4.000000 1.000000 -8.844074 114.000000 81.000000 -0.494848 0.762686 -0.416456
7.90000010 -5.34999990 -1.19000006 14 121 188 97.000000 1.000000 4.000000 1.000000 -8.844074 114.000000 81.000000 -0.093974 0.986131 0.136797
7.86999989 -5.48999977 -1.13000000 14 121 188 97.000000 1.000000 4.000000 1.000000 -8.844074 114.000000 81.000000 -0.374408 0.882641 -0.284189
7.86999989 -5.48999977 -1.28999996 14 121 188 97.000000 1.000000 4.000000 1.000000 -8.844074 114.000000 81.000000 -0.701330 0.626479 -0.340088
7.80999994 -5.32000017 -1.04999995 14 121 188 97.000000 1.000000 4.000000 1.000000 -8.844074 114.000000 81.000000 -0.524775 0.723428 -0.448624
7.80999994 -5.32000017 -1.04999995 14 121 188 97.000000 1.000000 4.000000 1.000000 -8.844074 114.000000 81.000000 -0.524775 0.723428 -0.448624
7.80000019 -5.28999996 -1.13000000 14 121 188 97.000000 1.000000 4.000000 1.000000 -8.844074 114.000000 81.000000 -0.030944 0.886616 -0.461471
7.82000017 -5.32000017 -1.13000000 14 121 188 97.000000 1.000000 4.000000 1.000000 -8.844074 114.000000 81.000000 -0.320720 0.863949 -0.388240
7.80000019 -5.32000017 -1.10000002 14 121 188 97.000000 1.000000 4.000000 1.000000 -8.844074 114.000000 81.000000 -0.003251 0.993746 -0.111620
7.76999998 -5.28000021 -1.12000000 14 121 188 97.000000 1.000000 4.000000 1.000000 -8.844074 114.000000 81.000000 -0.022133 0.982006 -0.187548
7.78000021 -5.32000017 -1.10000002 14 121 188 97.000000 1.000000 4.000000 1.000000 -8.844074 114.000000 81.000000 -0.202905 0.923715 -0.324932
7.75000000 -5.30000019 -1.23000002 14 121 188 97.000000 1.000000 4.000000 1.000000 -8.844074 114.000000 81.000000 -0.367193 0.925434 -0.093492
7.80000019 -5.40000010 -0.94000000 14 121 188 97.000000 1.000000 4.000000 1.000000 -8.844074 114.000000 81.000000 -0.664128 0.744803 -0.064828
7.80000019 -5.40000010 -0.94000000 14 121 188 97.000000 1.000000 4.000000 1.000000 -8.844074 114.000000 81.000000 -0.664128 0.744803 -0.064828
7.80999994 -5.40999985 -1.00000000 14 121 188 97.000000 1.000000 4.000000 1.000000 -8.844074 114.000000 81.000000 0.566562 -0.613916 0.549650
7.80999994 -5.40000010 -0.97000003 14 121 188 97.000000 1.000000 4.000000 1.000000 -8.844074 114.000000 81.000000 -0.596423 0.793758 0.119285
7.80999994 -5.38000011 -0.98000002 14 121 188 97.000000 1.000000 4.000000 1.000000 -8.844074 114.000000 81.000000 -0.299055 0.911754 -0.281550
7.78999996 -5.34999990 -0.95999998 14 121 188 97.000000 1.000000 4.000000 1.000000 -8.844074 114.000000 81.000000 -0.347214 0.859548 -0.374992
7.78999996 -5.40999985 -0.94999999 14 121 188 97.000000 1.000000 4.000000 1.000000 -8.844074 114.000000 81.000000 0.488001 -0.714513 0.501325
7.78999996 -5.40000010 -0.99000001 14 121 188 97.000000 1.000000 4.000000 1.000000 -8.844074 114.000000 81.000000 0.728364 -0.678536 0.095259
7.78999996 -5.38999987 -0.99000001 14 121 188 97.000000 1.000000 4.000000 1.000000 -8.844074 114.000000 81.000000 -0.449769 0.832150 -0.324398
7.78999996 -5.40000010 -1.00000000 14 121 188 97.000000 1.000000 4.000000 1.000000 -8.844074 114.000000 81.000000 0.746199 -0.663128 -0.058722
7.78999996 -5.38999987 -1.00000000 14 121 188 97.000000 1.000000 4.000000 1.000000 -8.844074 114.000000 81.000000 -0.630745 0.773771 0.058641
7.80000019 -5.36000013 -1.01999998 14 121 188 97.000000 1.000000 4.000000 1.000000 -8.844074 114.000000 81.000000 -0.219097 0.917917 -0.330794
7.80000019 -5.36000013 -1.01999998 14 121 188 97.000000 1.000000 4.000000 1.000000 -8.844074 114.000000 81.000000 -0.219097 0.917917 -0.330794
7.80000019 -5.34999990 -1.09000003 14 121 188 97.000000 1.000000 4.000000 1.000000 -8.844074 114.000000 81.000000 -0.088673 0.871244 -0.482774
7.80000019 -5.38000011 -1.03999996 14 121 188 97.000000 1.000000 4.000000 1.000000 -8.844074 114.000000 81.000000 0.513976 -0.648789 0.561161
7.80000019 -5.36999989 -1.07000005 14 121 188 97.000000 1.000000 4.000000 1.000000 -8.844074 114.000000 81.000000 -0.455005 0.863458 -0.217742
7.82000017 -5.40999985 -1.05999994 14 121 188 97.000000 1.000000 4.000000 1.000000 -8.844074 114.000000 81.000000 -0.160206 0.911615 -0.378540
7.82999992 -5.36999989 -1.07000005 14 121 188 97.000000 1.000000 4.000000 1.000000 -8.844074 114.000000 81.000000 -0.142734 0.984742 0.099554
7.78000021 -5.36999989 -1.02999997 14 121 188 97.000000 1.000000 4.000000 1.000000 -8.844074 114.000000 81.000000 -0.480797 0.792753 -0.374668
7.78999996 -5.38999987 -1.04999995 14 121 188 97.000000 1.000000 4.000000 1.000000 -8.844074 114.000000 81.000000 0.746638 -0.646683 0.155991
7.76999998 -5.38000011 -1.09000003 14 121 188 97.000000 1.000000 4.000000 1.000000 -8.844074 114.000000 81.000000 -0.227634 0.969644 -0.089293
7.78999996 -5.38999987 -1.04999995 14 121 188 97.000000 1.000000 4.000000 1.000000 -8.844074 114.000000 81.000000 0.746638 -0.646683 0.155991
7.78999996 -5.44999981 -0.94000000 14 121 188 97.000000 1.000000 4.000000 1.000000 -8.844074 114.000000 81.000000 0.800877 -0.481165 0.356478
7.76999998 -5.44000006 -0.99000001 14 121 188 97.000000 1.000000 4.000000 1.000000 -8.844074 114.000000 81.000000 0.707106 -0.564691 0.425588
7.76999998 -5.44999981 -1.00000000 14 121 188 97.000000 1.000000 4.000000 1.000000 -8.844074 114.000000 81.000000 0.712527 -0.652224 0.258668
7.78000021 -5.44000006 -1.00000000 14 121 188 97.000000 1.000000 4.000000 1.000000 -8.844074 114.000000 81.000000 0.753424 -0.444832 0.484227
7.76999998 -5.44000006 -0.99000001 14 121 188 97.000000 1.000000 4.000000 1.000000 -8.844074 114.000000 81.000000 0.707106 -0.564691 0.425588
7.76999998 -5.44000006 -0.97000003 14 121 188 97.000000 1.000000 4.000000 1.000000 -8.844074 114.000000 81.000000 -0.521280 0.840251 0.149148
7.78000021 -5.44000006 -1.00000000 14 121 188 97.000000 1.000000 4.000000 1.000000 -8.844074 114.000000 81.000000 0.753424 -0.444832 0.484227
7.76999998 -5.46999979 -0.94999999 14 121 188 97.000000 1.000000 4.000000 1.000000 -8.844074 114.000000 81.000000 0.913239 -0.268600 0.306349
7.78000021 -5.46000004 -0.94000000 14 121 188 97.000000 1.000000 4.000000 1.000000 -8.844074 114.000000 81.000000 -0.662266 0.741915 0.104724
7.78000021 -5.46000004 -0.94999999 14 121 188 97.000000 1.000000 4.000000 1.000000 -8.844074 114.000000 81.000000 0.881955 -0.389142 0.265939
7.78000021 -5.46000004 -0.98000002 14 121 188 97.000000 1.000000 4.000000 1.000000 -8.844074 114.000000 81.000000 -0.465381 0.702241 -0.538774
7.78000021 -5.46000004 -0.98000002 14 121 188 97.000000 1.000000 4.000000 1.000000 -8.844074 114.000000 81.000000 -0.465381 0.702241 -0.538774
7.76000023 -5.48999977 -1.03999996 14 121 188 97.000000 1.000000 4.000000 1.000000 -8.844074 114.000000 81.000000 0.944678 -0.274790 0.179092
7.76000023 -5.48999977 -1.03999996 14 121 188 97.000000 1.000000 4.000000 1.000000 -8.844074 114.000000 81.000000 0.944678 -0.274790 0.179092
7.76999998 -5.48000002 -1.08000004 14 121 188 97.000000 1.000000 4.000000 1.000000 -8.844074 114.000000 81.000000 -0.560749 0.768434 -0.308332
7.82000017 -5.36999989 -1.13000000 14 121 188 97.000000 1.000000 4.000000 1.000000 -8.844074 114.000000 81.000000 -0.225028 0.974335 -0.005891
7.78999996 -5.34000015 -1.12000000 14 121 188 97.000000 1.000000 4.000000 1.000000 -8.844074 114.000000 81.000000 -0.579955 0.708833 -0.401507
7.75000000 -5.34000015 -1.16999996 14 121 188 97.000000 1.000000 4.000000 1.000000 -8.844074 114.000000 81.000000 -0.435719 0.768629 -0.468358
7.78000021 -5.36999989 -1.13000000 14 121 188 97.000000 1.000000 4.000000 1.000000 -8.844074 114.000000 81.000000 -0.618896 0.709862 -0.336250
7.82000017 -5.32999992 -1.21000004 14 121 188 97.000000 1.000000 4.000000 1.000000 -8.844074 114.000000 81.000000 -0.109125 0.819163 -0.563084
7.80999994 -5.34000015 -1.17999995 14 121 188 97.000000 1.000000 4.000000 1.000000 -8.844074 114.000000 81.000000 -0.076990 0.965531 -0.248640
7.80999994 -5.34000015 -1.17999995 14 121 188 97.000000 1.000000 4.000000 1.000000 -8.844074 114.000000 81.000000 -0.076990 0.965531 -0.248640
7.80999994 -5.34000015 -1.21000004 14 121 188 97.000000 1.000000 4.000000 1.000000 -8.844074 114.000000 81.000000 -0.313718 0.815037 -0.487130
7.82000017 -5.32999992 -1.21000004 14 121 188 97.000000 1.000000 4.000000 1.000000 -8.844074 114.000000 81.000000 -0.109125 0.819163 -0.563084
7.82000017 -5.32999992 -1.21000004 14 121 188 97.000000 1.000000 4.000000 1.000000 -8.844074 114.000000 81.000000 -0.109125 0.819163 -0.563084
7.80000019 -5.32999992 -1.24000001 14 121 188 97.000000 1.000000 4.000000 1.000000 -8.844074 114.000000 81.000000 -0.243178 0.881706 -0.404302
7.80000019 -5.34999990 -1.22000003 14 121 188 97.000000 1.000000 4.000000 1.000000 -8.844074 114.000000 81.000000 -0.235189 0.822393 -0.518031
7.78000021 -5.32999992 -1.24000001 14 121 188 97.000000 1.000000 4.000000 1.000000 -8.844074 114.000000 81.000000 -0.256722 0.961097 0.101915
7.78000021 -5.32999992 -1.22000003 14 121 188 97.000000 1.000000 4.000000 1.000000 -8.844074 114.000000 81.000000 -0.453556 0.879754 -0.142546
7.78000021 -5.32999992 -1.22000003 14 121 188 97.000000 1.000000 4.000000 1.000000 -8.844074 114.000000 81.000000 -0.453556 0.879754 -0.142546
7.75000000 -5.38000011 -1.22000003 14 121 188 97.000000 1.000000 4.000000 1.000000 -8.844074 114.000000 81.000000 -0.280553 0.886669 -0.367570
7.75000000 -5.46999979 -1.13000000 14 121 188 97.000000 1.000000 4.000000 1.000000 -8.844074 114.000000 81.000000 0.686918 -0.607467 0.398909
7.76999998 -5.46000004 -1.14999998 14 121 188 97.000000 1.000000 4.000000 1.000000 -8.844074 114.000000 81.000000 0.676065 -0.488176 0.551924
7.76000023 -5.46999979 -1.13999999 14 121 188 97.000000 1.000000 4.000000 1.000000 -8.844074 114.000000 81.000000 0.906590 -0.307094 0.289462
7.73999977 -5.36999989 -1.13000000 14 121 188 97.000000 1.000000 4.000000 1.000000 -8.844074 114.000000 81.000000 -0.426214 0.815712 -0.391095
7.73999977 -5.36000013 -1.23000002 14 121 188 97.000000 1.000000 4.000000 1.000000 -8.844074 114.000000 81.000000 -0.645208 0.754968 -0.117176
7.73999977 -5.36999989 -1.21000004 14 121 188 97.000000 1.000000 4.000000 1.000000 -8.844074 114.000000 81.000000 0.490066 -0.684085 0.540243
7.73000002 -5.36999989 -1.22000003 14 121 188 97.000000 1.000000 4.000000 1.000000 -8.844074 114.000000 81.000000 0.672939 -0.656645 0.340543
7.73000002 -5.38000011 -1.25000000 14 121 188 97.000000 1.000000 4.000000 1.000000 -8.844074 114.000000 81.000000 -0.349236 0.936055 0.042843
7.73999977 -5.38000011 -1.24000001 14 121 188 97.000000 1.000000 4.000000 1.000000 -8.844074 114.000000 81.000000 -0.594751 0.798334 0.094520
7.73000002 -5.38000011 -1.22000003 14 121 188 97.000000 1.000000 4.000000 1.000000 -8.844074 114.000000 81.000000 -0.615172 0.727605 -0.303570
7.73999977 -5.36999989 -1.25000000 14 121 188 97.000000 1.000000 4.000000 1.000000 -8.844074 114.000000 81.000000 0.771040 -0.633201 -0.067484
7.73000002 -5.38000011 -1.25000000 14 121 188 97.000000 1.000000 4.000000 1.000000 -8.844074 114.000000 81.000000 -0.349236 0.936055 0.042843
7.73999977 -5.44999981 -1.21000004 14 121 188 97.000000 1.000000 4.000000 1.000000 -8.844074 114.000000 81.000000 0.789409 -0.605554 -0.100683
7.71000004 -5.46999979 -1.17999995 14 121 188 97.000000 1.000000 4.000000 1.000000 -8.844074 114.000000 81.000000 0.813021 -0.562402 0.150670
7.71000004 -5.46999979 -1.24000001 14 121 188 97.000000 1.000000 4.000000 1.000000 -8.844074 114.000000 81.000000 0.751679 -0.658250 -0.041052
7.80999994 -5.32000017 -1.28999996 14 121 188 97.000000 1.000000 4.000000 1.000000 -8.844074 114.000000 81.000000 0.222328 -0.769596 0.598575
7.76000023 -5.30000019 -1.33000004 14 121 188 97.000000 1.000000 4.000000 1.000000 -8.844074 114.000000 81.000000 -0.135613 0.972103 -0.191379
7.80000019 -5.32000017 -1.35000002 14 121 188 97.000000 1.000000 4.000000 1.000000 -8.844074 114.000000 81.000000 -0.061536 0.978536 -0.196673
7.76000023 -5.32000017 -1.35000002 14 121 188 97.000000 1.000000 4.000000 1.000000 -8.844074 114.000000 81.000000 -0.326526 0.932734 -0.152930
7.80000019 -5.34999990 -1.26999998 14 121 188 97.000000 1.000000 4.000000 1.000000 -8.844074 114.000000 81.000000 -0.508246 0.802743 -0.311914
7.80000019 -5.34000015 -1.25999999 14 121 188 97.000000 1.000000 4.000000 1.000000 -8.844074 114.000000 81.000000 -0.175911 0.973206 -0.148069
7.80999994 -5.32999992 -1.32000005 14 121 188 97.000000 1.000000 4.000000 1.000000 -8.844074 114.000000 81.000000 -0.003395 0.985676 -0.168617
7.80999994 -5.34000015 -1.32000005 14 121 188 97.000000 1.000000 4.000000 1.000000 -8.844074 114.000000 81.000000 -0.169497 0.888049 -0.427364
7.78000021 -5.32999992 -1.29999995 14 121 188 97.000000 1.000000 4.000000 1.000000 -8.844074 114.000000 81.000000 -0.159142 0.986216 -0.045303
7.76999998 -5.34000015 -1.25999999 14 121 188 97.000000 1.000000 4.000000 1.000000 -8.844074 114.000000 81.000000 -0.509147 0.859616 -0.042774
7.78000021 -5.32999992 -1.29999995 14 121 188 97.000000 1.000000 4.000000 1.000000 -8.844074 114.000000 81.000000 -0.159142 0.986216 -0.045303
7.75000000 -5.32999992 -1.26999998 14 121 188 97.000000 1.000000 4.000000 1.000000 -8.844074 114.000000 81.000000 -0.143372 0.938060 -0.315418
7.76999998 -5.34000015 -1.25999999 14 121 188 97.000000 1.000000 4.000000 1.000000 -8.844074 114.000000 81.000000 -0.509147 0.859616 -0.042774
7.75000000 -5.34000015 -1.30999994 14 121 188 97.000000 1.000000 4.000000 1.000000 -8.844074 114.000000 81.000000 -0.385434 0.900315 -0.202171
7.76999998 -5.34000015 -1.33000004 14 121 188 97.000000 1.000000 4.000000 1.000000 -8.844074 114.000000 81.000000 -0.265520 0.950212 -0.163086
7.75000000 -5.34000015 -1.32000005 14 121 188 97.000000 1.000000 4.000000 1.000000 -8.844074 114.000000 81.000000 -0.434578 0.899910 0.036103
7.75000000 -5.34000015 -1.32000005 14 121 188 97.000000 1.000000 4.000000 1.000000 -8.844074 114.000000 81.000000 -0.434578 0.899910 0.036103
7.76000023 -5.34000015 -1.32000005 14 121 188 97.000000 1.000000 4.000000 1.000000 -8.844074 114.000000 81.000000 -0.405061 0.898053 -0.171538
7.76999998 -5.34000015 -1.34000003 14 121 188 97.000000 1.000000 4.000000 1.000000 -8.844074 114.000000 81.000000 -0.260604 0.962327 0.077545
7.80000019 -5.32999992 -1.35000002 14 121 188 97.000000 1.000000 4.000000 1.000000 -8.844074 114.000000 81.000000 -0.171260 0.985032 0.019540
7.80000019 -5.32999992 -1.36000001 14 121 188 97.000000 1.000000 4.000000 1.000000 -8.844074 114.000000 81.000000 -0.147382 0.987575 -0.054543
7.75000000 -5.34000015 -1.36000001 14 121 188 97.000000 1.000000 4.000000 1.000000 -8.844074 114.000000 81.000000 -0.637367 0.620638 -0.456696
7.75000000 -5.34999990 -1.38000000 14 121 188 97.000000 1.000000 4.000000 1.000000 -8.844074 114.000000 81.000000 -0.446607 0.864644 -0.230071
7.75000000 -5.32999992 -1.39999998 14 121 188 97.000000 1.000000 4.000000 1.000000 -8.844074 114.000000 81.000000 -0.581253 0.795638 0.170602
7.78000021 -5.32999992 -1.38999999 14 121 188 97.000000 1.000000 4.000000 1.000000 -8.844074 114.000000 81.000000 -0.508332 0.858423 -0.068618
7.78000021 -5.32999992 -1.38999999 14 121 188 97.000000 1.000000 4.000000 1.000000 -8.844074 114.000000 81.000000 -0.508332 0.858423 -0.068618
7.78999996 -5.32999992 -1.38999999 14 121 188 97.000000 1.000000 4.000000 1.000000 -8.844074 114.000000 81.000000 -0.227355 0.972097 0.057761
7.73999977 -5.32999992 -1.29999995 14 121 188 97.000000 1.000000 4.000000 1.000000 -8.844074 114.000000 81.000000 -0.483055 0.874425 0.045158
7.73999977 -5.38000011 -1.26999998 14 121 188 97.000000 1.000000 4.000000 1.000000 -8.844074 114.000000 81.000000 -0.671239 0.597952 -0.438054
7.71999979 -5.38000011 -1.25999999 14 121 188 97.000000 1.000000 4.000000 1.000000 -8.844074 114.000000 81.000000 -0.678229 0.706165 -0.203313
7.73000002 -5.38000011 -1.25999999 14 121 188 97.000000 1.000000 4.000000 1.000000 -8.844074 114.000000 81.000000 -0.341393 0.926638 -0.157459
7.71999979 -5.38000011 -1.25999999 14 121 188 97.000000 1.000000 4.000000 1.000000 -8.844074 114.000000 81.000000 -0.678229 0.706165 -0.203313
7.73000002 -5.36999989 -1.32000005 14 121 188 97.000000 1.000000 4.000000 1.000000 -8.844074 114.000000 81.000000 0.691039 -0.700233 -0.179272
7.71999979 -5.38000011 -1.32000005 14 121 188 97.000000 1.000000 4.000000 1.000000 -8.844074 114.000000 81.000000 0.832958 -0.552061 -0.037546
7.73000002 -5.36999989 -1.32000005 14 121 188 97.000000 1.000000 4.000000 1.000000 -8.844074 114.000000 81.000000 0.691039 -0.700233 -0.179272
7.69999981 -5.40000010 -1.28999996 14 121 188 97.000000 1.000000 4.000000 1.000000 -8.844074 114.000000 81.000000 0.643835 -0.623768 0.443159
7.69999981 -5.38999987 -1.26999998 14 121 188 97.000000 1.000000 4.000000 1.000000 -8.844074 114.000000 81.000000 0.888829 -0.429240 0.160423
7.71000004 -5.36000013 -1.38000000 14 121 188 97.000000 1.000000 4.000000 1.000000 -8.844074 114.000000 81.000000 -0.408879 0.887134 -0.214034
7.73999977 -5.34999990 -1.37000000 14 121 188 97.000000 1.000000 4.000000 1.000000 -8.844074 114.000000 81.000000 -0.602806 0.793622 -0.082398
7.71999979 -5.36000013 -1.37000000 14 121 188 97.000000 1.000000 4.000000 1.000000 -8.844074 114.000000 81.000000 -0.663237 0.746321 -0.055867
7.73999977 -5.36000013 -1.38999999 14 121 188 97.000000 1.000000 4.000000 1.000000 -8.844074 114.000000 81.000000 -0.610777 0.759974 -0.222242
7.71000004 -5.42999983 -1.32000005 14 121 188 97.000000 1.000000 4.000000 1.000000 -8.844074 114.000000 81.000000 0.779995 -0.569694 0.258952
7.96000004 -5.51999998 -0.25999999 14 121 188 97.000000 1.000000 4.000000 1.000000 -8.844074 114.000000 81.000000 0.936107 -0.078119 0.342930
7.96000004 -5.51000023 -0.25999999 14 121 188 97.000000 1.000000 4.000000 1.000000 -8.844074 114.000000 81.000000 -0.723066 0.626871 -0.290188
7.96999979 -5.51999998 -0.36000001 14 121 188 97.000000 1.000000 4.000000 1.000000 -8.844074 114.000000 81.000000 0.809352 -0.324691 0.489413
7.94000006 -5.53000021 -0.34000000 14 121 188 97.000000 1.000000 4.000000 1.000000 -8.844074 114.000000 81.000000 0.971350 -0.091495 0.219337
7.94000006 -5.50000000 -0.38000000 14 121 188 97.000000 1.000000 4.000000 1.000000 -8.844074 114.000000 81.000000 0.865793 -0.034194 0.499233
7.94999981 -5.55999994 -0.34999999 14 121 188 97.000000 1.000000 4.000000 1.000000 -8.844074 114.000000 81.000000 0.881557 -0.271826 0.385963
7.92999983 -5.59999990 -0.31000000 14 121 188 97.000000 1.000000 4.000000 1.000000 -8.844074 114.000000 81.000000 -0.340374 0.794206 -0.503370
7.92000008 -5.61000013 -0.31999999 14 121 188 97.000000 1.000000 4.000000 1.000000 -8.844074 114.000000 81.000000 -0.581692 0.713521 -0.390541
7.94000006 -5.59000015 -0.37000000 14 121 188 97.000000 1.000000 4.000000 1.000000 -8.844074 114.000000 81.000000 0.670556 -0.627508 0.395711
7.92999983 -5.59000015 -0.33000001 14 121 188 97.000000 1.000000 4.000000 1.000000 -8.844074 114.000000 81.000000 -0.265564 0.934392 -0.237462
7.84999990 -5.53000021 -0.27000001 14 121 188 97.000000 1.000000 4.000000 1.000000 -8.844074 114.000000 81.000000 0.309747 0.819179 -0.482703
7.84000015 -5.57999992 -0.34000000 14 121 188 97.000000 1.000000 4.000000 1.000000 -8.844074 114.000000 81.000000 0.560091 0.826801 -0.051938
7.88000011 -5.50000000 -0.38000000 14 121 188 97.000000 1.000000 4.000000 1.000000 -8.844074 114.000000 81.000000 0.928841 -0.171801 0.328237
7.90000010 -5.61000013 -0.25000000 14 121 188 97.000000 1.000000 4.000000 1.000000 -8.844074 114.000000 81.000000 0.102562 0.992931 -0.059734
7.88000011 -5.61000013 -0.30000001 14 121 188 97.000000 1.000000 4.000000 1.000000 -8.844074 114.000000 81.000000 0.288532 0.935289 -0.204899
7.88999987 -5.61000013 -0.28999999 14 121 188 97.000000 1.000000 4.000000 1.000000 -8.844074 114.000000 81.000000 0.054736 0.953433 -0.296595
7.88000011 -5.61000013 -0.34999999 14 121 188 97.000000 1.000000 4.000000 1.000000 -8.844074 114.000000 81.000000 0.270638 0.961575 -0.046146
7.88000011 -5.61999989 -0.34999999 14 121 188 97.000000 1.000000 4.000000 1.000000 -8.844074 114.000000 81.000000 0.251274 0.967826 -0.013225
7.88000011 -5.61000013 -0.41000000 14 121 188 97.000000 1.000000 4.000000 1.000000 -8.844074 114.000000 81.000000 0.371246 0.899501 -0.230378
7.90999985 -5.59000015 -0.38000000 14 121 188 97.000000 1.000000 4.000000 1.000000 -8.844074 114.000000 81.000000 -0.066064 0.912758 -0.403123
7.90000010 -5.59999990 -0.40000001 14 121 188 97.000000 1.000000 4.000000 1.000000 -8.844074 114.000000 81.000000 -0.163484 0.808421 -0.565445
7.86000013 -5.61000013 -0.37000000 14 121 188 97.000000 1.000000 4.000000 1.000000 -8.844074 114.000000 81.000000 -0.079871 0.870172 -0.486231
7.84000015 -5.61000013 -0.33000001 14 121 188 97.000000 1.000000 4.000000 1.000000 -8.844074 114.000000 81.000000 0.060119 0.920496 -0.386100
7.86000013 -5.61000013 -0.37000000 14 121 188 97.000000 1.000000 4.000000 1.000000 -8.844074 114.000000 81.000000 -0.079871 0.870172 -0.486231
7.86000013 -5.61000013 -0.34000000 14 121 188 97.000000 1.000000 4.000000 1.000000 -8.844074 114.000000 81.000000 0.394361 0.916586 -0.065951
7.84999990 -5.59999990 -0.33000001 14 121 188 97.000000 1.000000 4.000000 1.000000 -8.844074 114.000000 81.000000 0.450890 0.892578 -0.001315
7.86999989 -5.59999990 -0.40000001 14 121 188 97.000000 1.000000 4.000000 1.000000 -8.844074 114.000000 81.000000 -0.081308 0.837326 -0.540624
7.84000015 -5.61999989 -0.38999999 14 121 188 97.000000 1.000000 4.000000 1.000000 -8.844074 114.000000 81.000000 0.151242 0.908864 -0.388705
7.84000015 -5.59999990 -0.38999999 14 121 188 97.000000 1.000000 4.000000 1.000000 -8.844074 114.000000 81.000000 0.546309 0.796766 -0.258284
7.84999990 -5.59999990 -0.40000001 14 121 188 97.000000 1.000000 4.000000 1.000000 -8.844074 114.000000 81.000000 0.434332 0.887422 -0.154397
7.86000013 -5.63000011 -0.38999999 14 121 188 97.000000 1.000000 4.000000 1.000000 -8.844074 114.000000 81.000000 0.509183 0.826077 -0.241516
7.96999979 -5.55000019 -0.43000001 14 121 188 97.000000 1.000000 4.000000 1.000000 -8.844074 114.000000 81.000000 0.866501 -0.085946 0.491722
7.94000006 -5.50000000 -0.44999999 14 121 188 97.000000 1.000000 4.000000 1.000000 -8.844074 114.000000 81.000000 0.846972 0.379032 0.372792
7.94000006 -5.50000000 -0.43000001 14 121 188 97.000000 1.000000 4.000000 1.000000 -8.844074 114.000000 81.000000 0.916883 0.331455 0.222405
7.94000006 -5.51000023 -0.44999999 14 121 188 97.000000 1.000000 4.000000 1.000000 -8.844074 114.000000 81.000000 0.994800 0.058779 0.083177
7.96000004 -5.51000023 -0.41999999 14 121 188 97.000000 1.000000 4.000000 1.000000 -8.844074 114.000000 81.000000 0.889349 0.175548 0.422187
7.96000004 -5.53000021 -0.44999999 14 121 188 97.000000 1.000000 4.000000 1.000000 -8.844074 114.000000 81.000000 0.956894 -0.163243 0.240219
7.94000006 -5.50000000 -0.44999999 14 121 188 97.000000 1.000000 4.000000 1.000000 -8.844074 114.000000 81.000000 0.846972 0.379032 0.372792
7.94999981 -5.51000023 -0.43000001 14 121 188 97.000000 1.000000 4.000000 1.000000 -8.844074 114.000000 81.000000 0.879418 -0.121152 0.460376
7.94000006 -5.50000000 -0.44000000 14 121 188 97.000000 1.000000 4.000000 1.000000 -8.844074 114.000000 81.000000 0.894881 0.343956 -0.284397
7.94999981 -5.53000021 -0.47999999 14 121 188 97.000000 1.000000 4.000000 1.000000 -8.844074 114.000000 81.000000 0.990006 0.119264 0.075264
7.94999981 -5.50000000 -0.47000000 14 121 188 97.000000 1.000000 4.000000 1.000000 -8.844074 114.000000 81.000000 0.904079 0.354913 0.238069
7.94000006 -5.50000000 -0.47999999 14 121 188 97.000000 1.000000 4.000000 1.000000 -8.844074 114.000000 81.000000 0.933691 0.214175 -0.286967
7.94999981 -5.53000021 -0.47000000 14 121 188 97.000000 1.000000 4.000000 1.000000 -8.844074 114.000000 81.000000 0.984110 0.104795 -0.143340
7.94999981 -5.51999998 -0.47999999 14 121 188 97.000000 1.000000 4.000000 1.000000 -8.844074 114.000000 81.000000 0.993513 0.112825 -0.014240
7.94000006 -5.51999998 -0.47000000 14 121 188 97.000000 1.000000 4.000000 1.000000 -8.844074 114.000000 81.000000 0.982463 0.186428 -0.003431
7.94999981 -5.50000000 -0.47000000 14 121 188 97.000000 1.000000 4.000000 1.000000 -8.844074 114.000000 81.000000 0.904079 0.354913 0.238069
7.94999981 -5.53999996 -0.43000001 14 121 188 97.000000 1.000000 4.000000 1.000000 -8.844074 114.000000 81.000000 0.980155 -0.182946 -0.076329
7.94999981 -5.53999996 -0.41999999 14 121 188 97.000000 1.000000 4.000000 1.000000 -8.844074 114.000000 81.000000 0.899501 -0.230378 0.371246
7.94999981 -5.57000017 -0.44999999 14 121 188 97.000000 1.000000 4.000000 1.000000 -8.844074 114.000000 81.000000 0.965948 -0.232187 0.114169
7.94999981 -5.53999996 -0.44999999 14 121 188 97.000000 1.000000 4.000000 1.000000 -8.844074 114.000000 81.000000 0.970858 -0.136149 0.197225
7.96000004 -5.55000019 -0.49000001 14 121 188 97.000000 1.000000 4.000000 1.000000 -8.844074 114.000000 81.000000 0.874306 -0.314750 0.369489
7.94999981 -5.55000019 -0.47999999 14 121 188 97.000000 1.000000 4.000000 1.000000 -8.844074 114.000000 81.000000 0.965510 0.023133 0.259336
7.94999981 -5.55999994 -0.47999999 14 121 188 97.000000 1.000000 4.000000 1.000000 -8.844074 114.000000 81.000000 0.857353 -0.449234 0.251267
8.00000000 -5.53000021 -0.56000000 14 121 188 97.000000 1.000000 4.000000 1.000000 -8.844074 114.000000 81.000000 0.998887 -0.034373 -0.032289
7.98000002 -5.55000019 -0.54000002 14 121 188 97.000000 1.000000 4.000000 1.000000 -8.844074 114.000000 81.000000 0.864673 -0.103989 0.491453
7.94999981 -5.53000021 -0.50999999 14 121 188 97.000000 1.000000 4.000000 1.000000 -8.844074 114.000000 81.000000 0.996041 0.075441 -0.047014
7.94999981 -5.51999998 -0.52999997 14 121 188 97.000000 1.000000 4.000000 1.000000 -8.844074 114.000000 81.000000 0.992648 0.115268 -0.036931
7.94999981 -5.51000023 -0.50999999 14 121 188 97.000000 1.000000 4.000000 1.000000 -8.844074 114.000000 81.000000 0.980266 -0.088894 0.176570
7.94999981 -5.51999998 -0.51999998 14 121 188 97.000000 1.000000 4.000000 1.000000 -8.844074 114.000000 81.000000 0.974829 0.222038 -0.020185
7.94000006 -5.51000023 -0.54000002 14 121 188 97.000000 1.000000 4.000000 1.000000 -8.844074 114.000000 81.000000 0.769704 0.576883 0.273427
7.94999981 -5.51000023 -0.51999998 14 121 188 97.000000 1.000000 4.000000 1.000000 -8.844074 114.000000 81.000000 0.998261 -0.047536 -0.034860
7.94999981 -5.53000021 -0.52999997 14 121 188 97.000000 1.000000 4.000000 1.000000 -8.844074 114.000000 81.000000 0.978686 -0.140167 -0.150090
7.92999983 -5.50000000 -0.51999998 14 121 188 97.000000 1.000000 4.000000 1.000000 -8.844074 114.000000 81.000000 0.684995 0.727541 0.038292
7.94999981 -5.51999998 -0.52999997 14 121 188 97.000000 1.000000 4.000000 1.000000 -8.844074 114.000000 81.000000 0.992648 0.115268 -0.036931
7.94999981 -5.51999998 -0.50999999 14 121 188 97.000000 1.000000 4.000000 1.000000 -8.844074 114.000000 81.000000 0.991131 0.115727 0.065312
7.94999981 -5.53000021 -0.52999997 14 121 188 97.000000 1.000000 4.000000 1.000000 -8.844074 114.000000 81.000000 0.978686 -0.140167 -0.150090
7.94000006 -5.50000000 -0.56000000 14 121 188 97.000000 1.000000 4.000000 1.000000 -8.844074 114.000000 81.000000 0.700638 0.697612 -0.149813
7.94000006 -5.50000000 -0.56999999 14 121 188 97.000000 1.000000 4.000000 1.000000 -8.844074 114.000000 81.000000 0.885976 0.463577 0.011955
7.94999981 -5.50000000 -0.55000001 14 121 188 97.000000 1.000000 4.000000 1.000000 -8.844074 114.000000 81.000000 0.940731 0.316269 -0.122470
7.94000006 -5.50000000 -0.56000000 14 121 188 97.000000 1.000000 4.000000 1.000000 -8.844074 114.000000 81.000000 0.700638 0.697612 -0.149813
7.94000006 -5.53000021 -0.55000001 14 121 188 97.000000 1.000000 4.000000 1.000000 -8.844074 114.000000 81.000000 0.998503 -0.054614 -0.003091
7.94000006 -5.57000017 -0.50000000 14 121 188 97.000000 1.000000 4.000000 1.000000 -8.844074 114.000000 81.000000 0.713223 -0.591893 0.375467
7.94999981 -5.55000019 -0.50999999 14 121 188 97.000000 1.000000 4.000000 1.000000 -8.844074 114.000000 81.000000 0.949012 -0.293331 0.115474
7.94000006 -5.57999992 -0.52999997 14 121 188 97.000000 1.000000 4.000000 1.000000 -8.844074 114.000000 81.000000 0.595488 -0.722743 0.350767
7.96000004 -5.55999994 -0.51999998 14 121 188 97.000000 1.000000 4.000000 1.000000 -8.844074 114.000000 81.000000 0.708511 -0.475119 0.521798
7.92000008 -5.55999994 -0.57999998 14 121 188 97.000000 1.000000 4.000000 1.000000 -8.844074 114.000000 81.000000 0.808357 -0.560562 -0.179803
7.94000006 -5.55000019 -0.57999998 14 121 188 97.000000 1.000000 4.000000 1.000000 -8.844074 114.000000 81.000000 0.983731 -0.152544 -0.094890
7.94999981 -5.53999996 -0.55000001 14 121 188 97.000000 1.000000 4.000000 1.000000 -8.844074 114.000000 81.000000 0.973503 0.212062 0.085569
7.94000006 -5.55999994 -0.56000000 14 121 188 97.000000 1.000000 4.000000 1.000000 -8.844074 114.000000 81.000000 0.886553 -0.448225 0.114531
7.94999981 -5.55999994 -0.56000000 14 121 188 97.000000 1.000000 4.000000 1.000000 -8.844074 114.000000 81.000000 0.895167 -0.338108 0.290445
7.92999983 -5.57999992 -0.56999999 14 121 188 97.000000 1.000000 4.000000 1.000000 -8.844074 114.000000 81.000000 -0.686002 0.596307 -0.416916
7.94999981 -5.55000019 -0.56000000 14 121 188 97.000000 1.000000 4.000000 1.000000 -8.844074 114.000000 81.000000 0.987068 -0.152304 0.049993
7.94999981 -5.55999994 -0.56999999 14 121 188 97.000000 1.000000 4.000000 1.000000 -8.844074 114.000000 81.000000 0.991272 -0.130460 -0.018956
7.94000006 -5.55999994 -0.57999998 14 121 188 97.000000 1.000000 4.000000 1.000000 -8.844074 114.000000 81.000000 0.895944 -0.439081 -0.067025
7.94999981 -5.55000019 -0.56000000 14 121 188 97.000000 1.000000 4.000000 1.000000 -8.844074 114.000000 81.000000 0.987068 -0.152304 0.049993
7.94000006 -5.59000015 -0.41999999 14 121 188 97.000000 1.000000 4.000000 1.000000 -8.844074 114.000000 81.000000 -0.426310 0.799533 -0.423093
7.92000008 -5.61000013 -0.44000000 14 121 188 97.000000 1.000000 4.000000 1.000000 -8.844074 114.000000 81.000000 0.111450 -0.838048 0.534093
7.92000008 -5.59999990 -0.47000000 14 121 188 97.000000 1.000000 4.000000 1.000000 -8.844074 114.000000 81.000000 -0.385536 0.811065 -0.439927
7.92000008 -5.59999990 -0.47000000 14 121 188 97.000000 1.000000 4.000000 1.000000 -8.844074 114.000000 81.000000 -0.385536 0.811065 -0.439927
7.92999983 -5.61000013 -0.47999999 14 121 188 97.000000 1.000000 4.000000 1.000000 -8.844074 114.000000 81.000000 -0.453401 0.667554 -0.590593
7.92999983 -5.59000015 -0.52999997 14 121 188 97.000000 1.000000 4.000000 1.000000 -8.844074 114.000000 81.000000 -0.691864 0.568495 -0.445127
7.92999983 -5.59000015 -0.50000000 14 121 188 97.000000 1.000000 4.000000 1.000000 -8.844074 114.000000 81.000000 -0.573957 0.580730 -0.577344
7.90000010 -5.57000017 -0.55000001 14 121 188 97.000000 1.000000 4.000000 1.000000 -8.844074 114.000000 81.000000 -0.324291 0.784370 -0.528771
7.90999985 -5.61000013 -0.44999999 14 121 188 97.000000 1.000000 4.000000 1.000000 -8.844074 114.000000 81.000000 -0.234517 0.876824 -0.419740
7.84999990 -5.59999990 -0.44000000 14 121 188 97.000000 1.000000 4.000000 1.000000 -8.844074 114.000000 81.000000 0.575097 0.817824 -0.020687
7.90999985 -5.61000013 -0.51999998 14 121 188 97.000000 1.000000 4.000000 1.000000 -8.844074 114.000000 81.000000 -0.384499 0.737911 -0.554660
7.84999990 -5.59000015 -0.50999999 14 121 188 97.000000 1.000000 4.000000 1.000000 -8.844074 114.000000 81.000000 0.467856 0.877761 -0.103183
7.84000015 -5.59000015 -0.50000000 14 121 188 97.000000 1.000000 4.000000 1.000000 -8.844074 114.000000 81.000000 0.398615 0.845689 -0.354846
7.84000015 -5.59000015 -0.57999998 14 121 188 97.000000 1.000000 4.000000 1.000000 -8.844074 114.000000 81.000000 0.571848 0.817129 -0.072729
7.86000013 -5.63000011 -0.57999998 14 121 188 97.000000 1.000000 4.000000 1.000000 -8.844074 114.000000 81.000000 0.381023 0.875898 -0.296014
7.96999979 -5.53000021 -0.61000001 14 121 188 97.000000 1.000000 4.000000 1.000000 -8.844074 114.000000 81.000000 0.911858 0.408947 0.035733
7.94999981 -5.51999998 -0.61000001 14 121 188 97.000000 1.000000 4.000000 1.000000 -8.844074 114.000000 81.000000 0.932849 0.360158 0.008909
7.96000004 -5.55999994 -0.58999997 14 121 188 97.000000 1.000000 4.000000 1.000000 -8.844074 114.000000 81.000000 0.993509 0.111370 0.023156
7.94000006 -5.55000019 -0.61000001 14 121 188 97.000000 1.000000 4.000000 1.000000 -8.844074 114.000000 81.000000 0.977631 -0.160655 -0.135748
7.94000006 -5.55000019 -0.62000000 14 121 188 97.000000 1.000000 4.000000 1.000000 -8.844074 114.000000 81.000000 0.994038 0.050092 0.096844
7.92999983 -5.55000019 -0.61000001 14 121 188 97.000000 1.000000 4.000000 1.000000 -8.844074 114.000000 81.000000 0.977877 -0.087113 0.190177
7.94000006 -5.53999996 -0.58999997 14 121 188 97.000000 1.000000 4.000000 1.000000 -8.844074 114.000000 81.000000 0.910865 0.196517 0.362912
7.92999983 -5.53999996 -0.58999997 14 121 188 97.000000 1.000000 4.000000 1.000000 -8.844074 114.000000 81.000000 0.999412 -0.007117 -0.033551
7.94000006 -5.55000019 -0.62000000 14 121 188 97.000000 1.000000 4.000000 1.000000 -8.844074 114.000000 81.000000 0.994038 0.050092 0.096844
7.94000006 -5.53999996 -0.58999997 14 121 188 97.000000 1.000000 4.000000 1.000000 -8.844074 114.000000 81.000000 0.910865 0.196517 0.362912
7.94000006 -5.53999996 -0.64999998 14 121 188 97.000000 1.000000 4.000000 1.000000 -8.844074 114.000000 81.000000 0.972434 0.191444 0.133123
7.94999981 -5.53999996 -0.64999998 14 121 188 97.000000 1.000000 4.000000 1.000000 -8.844074 114.000000 81.000000 0.953008 0.282616 -0.109103
7.94000006 -5.55000019 -0.63000000 14 121 188 97.000000 1.000000 4.000000 1.000000 -8.844074 114.000000 81.000000 0.956405 0.133237 0.259878
7.94999981 -5.53999996 -0.64999998 14 121 188 97.000000 1.000000 4.000000 1.000000 -8.844074 114.000000 81.000000 0.953008 0.282616 -0.109103
7.94000006 -5.55999994 -0.64999998 14 121 188 97.000000 1.000000 4.000000 1.000000 -8.844074 114.000000 81.000000 0.903820 -0.427571 -0.017103
7.94999981 -5.53000021 -0.69000000 14 121 188 97.000000 1.000000 4.000000 1.000000 -8.844074 114.000000 81.000000 0.730254 0.683141 -0.006928
7.92000008 -5.50000000 -0.69000000 14 121 188 97.000000 1.000000 4.000000 1.000000 -8.844074 114.000000 81.000000 0.368523 0.929597 -0.006376
7.94999981 -5.53000021 -0.69000000 14 121 188 97.000000 1.000000 4.000000 1.000000 -8.844074 114.000000 81.000000 0.730254 0.683141 -0.006928
7.94999981 -5.50000000 -0.68000001 14 121 188 97.000000 1.000000 4.000000 1.000000 -8.844074 114.000000 81.000000 0.782832 0.622109 0.012470
7.92999983 -5.53000021 -0.72000003 14 121 188 97.000000 1.000000 4.000000 1.000000 -8.844074 114.000000 81.000000 0.410967 0.906341 0.098245
7.92999983 -5.55999994 -0.68000001 14 121 188 97.000000 1.000000 4.000000 1.000000 -8.844074 114.000000 81.000000 0.983242 -0.060489 0.171978
7.94000006 -5.55999994 -0.67000002 14 121 188 97.000000 1.000000 4.000000 1.000000 -8.844074 114.000000 81.000000 0.971148 -0.073177 -0.226973
7.96000004 -5.57000017 -0.67000002 14 121 188 97.000000 1.000000 4.000000 1.000000 -8.844074 114.000000 81.000000 0.916879 -0.378681 0.126227
7.94999981 -5.53999996 -0.73000002 14 121 188 97.000000 1.000000 4.000000 1.000000 -8.844074 114.000000 81.000000 0.754668 0.574449 -0.316993
7.94999981 -5.53999996 -0.74000001 14 121 188 97.000000 1.000000 4.000000 1.000000 -8.844074 114.000000 81.000000 0.926582 0.305077 -0.219939
7.92999983 -5.59000015 -0.58999997 14 121 188 97.000000 1.000000 4.000000 1.000000 -8.844074 114.000000 81.000000 -0.648267 0.671244 -0.359419
7.92000008 -5.59999990 -0.60000002 14 121 188 97.000000 1.000000 4.000000 1.000000 -8.844074 114.000000 81.000000 -0.389797 0.725318 -0.567426
7.92000008 -5.59000015 -0.58999997 14 121 188 97.000000 1.000000 4.000000 1.000000 -8.844074 114.000000 81.000000 -0.539077 0.733606 -0.413787
7.92000008 -5.59000015 -0.58999997 14 121 188 97.000000 1.000000 4.000000 1.000000 -8.844074 114.000000 81.000000 -0.539077 0.733606 -0.413787
7.94999981 -5.59999990 -0.61000001 14 121 188 97.000000 1.000000 4.000000 1.000000 -8.844074 114.000000 81.000000 0.733836 -0.622407 0.272204
7.88999987 -5.53999996 -0.61000001 14 121 188 97.000000 1.000000 4.000000 1.000000 -8.844074 114.000000 81.000000 -0.432935 0.714923 -0.549047
7.84000015 -5.55000019 -0.62000000 14 121 188 97.000000 1.000000 4.000000 1.000000 -8.844074 114.000000 81.000000 0.933241 0.235070 0.271667
7.84000015 -5.57999992 -0.73000002 14 121 188 97.000000 1.000000 4.000000 1.000000 -8.844074 114.000000 81.000000 0.875945 0.410177 0.253919
7.88000011 -5.59999990 -0.62000000 14 121 188 97.000000 1.000000 4.000000 1.000000 -8.844074 114.000000 81.000000 0.189361 0.946804 -0.260201
7.86000013 -5.63999987 -0.60000002 14 121 188 97.000000 1.000000 4.000000 1.000000 -8.844074 114.000000 81.000000 0.465418 0.754866 -0.462129
7.84000015 -5.59000015 -0.68000001 14 121 188 97.000000 1.000000 4.000000 1.000000 -8.844074 114.000000 81.000000 0.699842 0.699842 -0.142978
7.96999979 -5.53000021 -0.77999997 14 121 188 97.000000 1.000000 4.000000 1.000000 -8.844074 114.000000 81.000000 0.754666 0.649159 -0.095249
7.98000002 -5.51999998 -0.81000000 14 121 188 97.000000 1.000000 4.000000 1.000000 -8.844074 114.000000 81.000000 0.782610 0.566176 0.258779
7.94999981 -5.53000021 -0.79000002 14 121 188 97.000000 1.000000 4.000000 1.000000 -8.844074 114.000000 81.000000 0.643439 0.626727 -0.439544
7.96000004 -5.57000017 -0.81999999 14 121 188 97.000000 1.000000 4.000000 1.000000 -8.844074 114.000000 81.000000 0.883644 0.412959 0.220541
7.96000004 -5.57000017 -0.81999999 14 121 188 97.000000 1.000000 4.000000 1.000000 -8.844074 114.000000 81.000000 0.883644 0.412959 0.220541
7.94999981 -5.51999998 -0.92000002 14 121 188 97.000000 1.000000 4.000000 1.000000 -8.844074 114.000000 81.000000 0.250621 0.946335 -0.204058
7.86000013 -5.57000017 -0.80000001 14 121 188 97.000000 1.000000 4.000000 1.000000 -8.844074 114.000000 81.000000 0.888740 -0.423279 -0.176002
7.88999987 -5.53000021 -0.91000003 14 121 188 97.000000 1.000000 4.000000 1.000000 -8.844074 114.000000 81.000000 0.271507 -0.795689 0.541445
