//X Y Z R G B PointSourceId ScanDirectionFlag NumberOfReturns ReturnNumber GpsTime Intensity Classification Nx Ny Nz
3.23000002 14.48999977 -0.91000003 50 58 201 97.000000 1.000000 4.000000 1.000000 -8.844074 114.000000 59.000000 0.952105 0.293055 -0.087265
3.24000001 14.46000004 -0.92000002 50 58 201 97.000000 1.000000 4.000000 1.000000 -8.844074 114.000000 59.000000 0.660342 0.686174 -0.305146
3.41000009 14.38000011 -0.31999999 50 58 201 97.000000 1.000000 4.000000 1.000000 -8.844074 114.000000 45.000000 0.949133 -0.302413 0.087713
3.39000010 14.38000011 -0.38000000 50 58 201 97.000000 1.000000 4.000000 1.000000 -8.844074 114.000000 45.000000 0.963943 0.257638 0.066609
3.43000007 14.42000008 -0.41000000 50 58 201 97.000000 1.000000 4.000000 1.000000 -8.844074 114.000000 45.000000 0.922901 -0.384864 0.011585
3.42000008 14.39000034 -0.40000001 50 58 201 97.000000 1.000000 4.000000 1.000000 -8.844074 114.000000 45.000000 0.970216 0.214335 -0.112875
3.41000009 14.38000011 -0.34000000 50 58 201 97.000000 1.000000 4.000000 1.000000 -8.844074 114.000000 45.000000 0.842215 -0.390524 0.371704
3.41000009 14.43000031 -0.36000001 50 58 201 97.000000 1.000000 4.000000 1.000000 -8.844074 114.000000 45.000000 0.936796 -0.320447 0.140451
3.43000007 14.38000011 -0.41000000 50 58 201 97.000000 1.000000 4.000000 1.000000 -8.844074 114.000000 45.000000 0.946566 0.138293 0.291354
3.41000009 14.35999966 -0.27000001 50 58 201 97.000000 1.000000 4.000000 1.000000 -8.844074 114.000000 45.000000 0.919564 -0.386406 0.071357
3.41000009 14.35999966 -0.28000000 50 58 201 97.000000 1.000000 4.000000 1.000000 -8.844074 114.000000 45.000000 0.893031 -0.430188 -0.132038
3.43000007 14.36999989 -0.25999999 50 58 201 97.000000 1.000000 4.000000 1.000000 -8.844074 114.000000 45.000000 0.977089 -0.199331 -0.074596
3.40000010 14.35000038 -0.28000000 50 58 201 97.000000 1.000000 4.000000 1.000000 -8.844074 114.000000 45.000000 0.925026 -0.335480 0.178268
3.41000009 14.34000015 -0.31000000 50 58 201 97.000000 1.000000 4.000000 1.000000 -8.844074 114.000000 45.000000 0.993427 0.025416 -0.111609
3.41000009 14.32999992 -0.28000000 50 58 201 97.000000 1.000000 4.000000 1.000000 -8.844074 114.000000 45.000000 0.949078 -0.202888 0.241014
3.42000008 14.28999996 -0.31999999 50 58 201 97.000000 1.000000 4.000000 1.000000 -8.844074 114.000000 45.000000 0.851514 -0.356484 0.384504
3.43000007 14.30000019 -0.31000000 50 58 201 97.000000 1.000000 4.000000 1.000000 -8.844074 114.000000 45.000000 0.904833 -0.332896 0.265437
3.40000010 14.31000042 -0.30000001 50 58 201 97.000000 1.000000 4.000000 1.000000 -8.844074 114.000000 45.000000 0.923153 -0.157816 0.350547
3.38000011 14.31000042 -0.25999999 50 58 201 97.000000 1.000000 4.000000 1.000000 -8.844074 114.000000 45.000000 0.995098 -0.072109 -0.067671
3.38000011 14.31000042 -0.25999999 50 58 201 97.000000 1.000000 4.000000 1.000000 -8.844074 114.000000 45.000000 0.995098 -0.072109 -0.067671
3.39000010 14.31999969 -0.30000001 50 58 201 97.000000 1.000000 4.000000 1.000000 -8.844074 114.000000 45.000000 0.907617 -0.145388 0.393818
3.40000010 14.34000015 -0.34000000 50 58 201 97.000000 1.000000 4.000000 1.000000 -8.844074 114.000000 45.000000 0.835535 -0.549300 -0.012267
3.41000009 14.34000015 -0.37000000 50 58 201 97.000000 1.000000 4.000000 1.000000 -8.844074 114.000000 45.000000 0.866458 -0.494119 -0.071388
3.43000007 14.34000015 -0.34000000 50 58 201 97.000000 1.000000 4.000000 1.000000 -8.844074 114.000000 45.000000 0.877621 -0.227973 0.421675
3.42000008 14.35999966 -0.37000000 50 58 201 97.000000 1.000000 4.000000 1.000000 -8.844074 114.000000 45.000000 0.918596 -0.200809 0.340379
3.40000010 14.35000038 -0.33000001 50 58 201 97.000000 1.000000 4.000000 1.000000 -8.844074 114.000000 45.000000 0.939428 -0.335041 0.072264
3.40000010 14.34000015 -0.34000000 50 58 201 97.000000 1.000000 4.000000 1.000000 -8.844074 114.000000 45.000000 0.835535 -0.549300 -0.012267
3.43000007 14.35999966 -0.34000000 50 58 201 97.000000 1.000000 4.000000 1.000000 -8.844074 114.000000 45.000000 0.993903 0.047966 0.099279
3.42000008 14.36999989 -0.40000001 50 58 201 97.000000 1.000000 4.000000 1.000000 -8.844074 114.000000 45.000000 0.986039 -0.005660 -0.166415
3.43000007 14.35000038 -0.40000001 50 58 201 97.000000 1.000000 4.000000 1.000000 -8.844074 114.000000 45.000000 0.978582 0.054165 -0.198605
3.42000008 14.36999989 -0.38999999 50 58 201 97.000000 1.000000 4.000000 1.000000 -8.844074 114.000000 45.000000 0.940805 0.050470 0.335170
3.42000008 14.35999966 -0.40000001 50 58 201 97.000000 1.000000 4.000000 1.000000 -8.844074 114.000000 45.000000 0.992432 0.113775 0.046186
3.41000009 14.34000015 -0.38000000 50 58 201 97.000000 1.000000 4.000000 1.000000 -8.844074 114.000000 45.000000 0.998801 -0.030204 -0.038536
3.42000008 14.36999989 -0.38000000 50 58 201 97.000000 1.000000 4.000000 1.000000 -8.844074 114.000000 45.000000 0.963029 -0.269064 -0.013392
3.43000007 14.30000019 -0.34000000 50 58 201 97.000000 1.000000 4.000000 1.000000 -8.844074 114.000000 45.000000 0.866701 -0.450565 0.214056
3.40000010 14.31999969 -0.34999999 50 58 201 97.000000 1.000000 4.000000 1.000000 -8.844074 114.000000 45.000000 0.925815 -0.116240 0.359659
3.40000010 14.31999969 -0.37000000 50 58 201 97.000000 1.000000 4.000000 1.000000 -8.844074 114.000000 45.000000 0.894051 -0.122879 0.430783
3.43000007 14.43999958 -0.44000000 50 58 201 97.000000 1.000000 4.000000 1.000000 -8.844074 114.000000 45.000000 0.945627 -0.060800 -0.319521
3.40000010 14.38000011 -0.44999999 50 58 201 97.000000 1.000000 4.000000 1.000000 -8.844074 114.000000 45.000000 0.911815 0.055058 0.406893
3.40000010 14.38000011 -0.46000001 50 58 201 97.000000 1.000000 4.000000 1.000000 -8.844074 114.000000 45.000000 0.921426 -0.370498 0.117072
3.41000009 14.42000008 -0.52999997 50 58 201 97.000000 1.000000 4.000000 1.000000 -8.844074 114.000000 45.000000 0.924190 0.011568 0.381758
3.41000009 14.43000031 -0.54000002 50 58 201 97.000000 1.000000 4.000000 1.000000 -8.844074 114.000000 45.000000 0.889696 0.078869 0.449691
3.41000009 14.40999985 -0.52999997 50 58 201 97.000000 1.000000 4.000000 1.000000 -8.844074 114.000000 45.000000 0.999003 0.044059 -0.007172
3.41000009 14.40999985 -0.51999998 50 58 201 97.000000 1.000000 4.000000 1.000000 -8.844074 114.000000 45.000000 0.906763 0.022438 0.421044
3.42000008 14.38000011 -0.57999998 50 58 201 97.000000 1.000000 4.000000 1.000000 -8.844074 114.000000 45.000000 0.947936 0.001239 0.318457
3.41000009 14.39999962 -0.55000001 50 58 201 97.000000 1.000000 4.000000 1.000000 -8.844074 114.000000 45.000000 0.955312 0.207676 0.210356
3.39000010 14.38000011 -0.57999998 50 58 201 97.000000 1.000000 4.000000 1.000000 -8.844074 114.000000 45.000000 0.871868 -0.464317 0.155743
3.36999989 14.38000011 -0.56000000 50 58 201 97.000000 1.000000 4.000000 1.000000 -8.844074 114.000000 45.000000 0.973356 0.168344 -0.155686
3.36999989 14.38000011 -0.56000000 50 58 201 97.000000 1.000000 4.000000 1.000000 -8.844074 114.000000 45.000000 0.973356 0.168344 -0.155686
3.36999989 14.38000011 -0.55000001 50 58 201 97.000000 1.000000 4.000000 1.000000 -8.844074 114.000000 45.000000 0.984802 0.084753 0.151600
3.39000010 14.38000011 -0.56999999 50 58 201 97.000000 1.000000 4.000000 1.000000 -8.844074 114.000000 45.000000 0.954159 -0.270543 0.128013
3.40000010 14.35999966 -0.44000000 50 58 201 97.000000 1.000000 4.000000 1.000000 -8.844074 114.000000 45.000000 0.982594 0.022042 0.184454
3.40000010 14.35000038 -0.44999999 50 58 201 97.000000 1.000000 4.000000 1.000000 -8.844074 114.000000 45.000000 0.836758 -0.453439 0.306967
3.43000007 14.35999966 -0.43000001 50 58 201 97.000000 1.000000 4.000000 1.000000 -8.844074 114.000000 45.000000 0.952488 0.111980 0.283243
3.41000009 14.35000038 -0.41999999 50 58 201 97.000000 1.000000 4.000000 1.000000 -8.844074 114.000000 45.000000 0.957083 -0.237611 -0.165930
3.41000009 14.35000038 -0.46000001 50 58 201 97.000000 1.000000 4.000000 1.000000 -8.844074 114.000000 45.000000 0.960290 -0.018396 -0.278398
3.42000008 14.35000038 -0.49000001 50 58 201 97.000000 1.000000 4.000000 1.000000 -8.844074 114.000000 45.000000 0.910660 -0.011725 0.412989
3.43000007 14.32999992 -0.47000000 50 58 201 97.000000 1.000000 4.000000 1.000000 -8.844074 114.000000 45.000000 0.983781 0.121916 0.131573
3.40000010 14.36999989 -0.51999998 50 58 201 97.000000 1.000000 4.000000 1.000000 -8.844074 114.000000 45.000000 0.948968 -0.314651 -0.021311
3.40000010 14.36999989 -0.54000002 50 58 201 97.000000 1.000000 4.000000 1.000000 -8.844074 114.000000 45.000000 0.895815 -0.098916 0.433279
3.40000010 14.36999989 -0.54000002 50 58 201 97.000000 1.000000 4.000000 1.000000 -8.844074 114.000000 45.000000 0.895815 -0.098916 0.433279
3.42000008 14.36999989 -0.57999998 50 58 201 97.000000 1.000000 4.000000 1.000000 -8.844074 114.000000 45.000000 0.883957 -0.466869 -0.025563
3.34999990 14.44999981 -0.57999998 50 58 201 97.000000 1.000000 4.000000 1.000000 -8.844074 114.000000 45.000000 0.985312 0.014842 0.170118
3.32999992 14.39999962 -0.50999999 50 58 201 97.000000 1.000000 4.000000 1.000000 -8.844074 114.000000 45.000000 0.929507 -0.275881 -0.244756
3.33999991 14.39999962 -0.56000000 50 58 201 97.000000 1.000000 4.000000 1.000000 -8.844074 114.000000 45.000000 0.968889 -0.094741 0.228643
3.33999991 14.39999962 -0.56999999 50 58 201 97.000000 1.000000 4.000000 1.000000 -8.844074 114.000000 45.000000 0.950403 0.310105 -0.023854
3.26999998 14.40999985 -0.57999998 50 58 201 97.000000 1.000000 4.000000 1.000000 -8.844074 114.000000 45.000000 0.980307 0.003464 -0.197447
3.32999992 14.36999989 -0.51999998 50 58 201 97.000000 1.000000 4.000000 1.000000 -8.844074 114.000000 45.000000 0.954856 0.049455 -0.292924
3.43000007 14.26000023 -0.36000001 50 58 201 97.000000 1.000000 4.000000 1.000000 -8.844074 114.000000 45.000000 0.706137 -0.694092 0.140023
3.42000008 14.26000023 -0.38000000 50 58 201 97.000000 1.000000 4.000000 1.000000 -8.844074 114.000000 45.000000 0.981440 -0.063512 0.180949
3.43000007 14.27000046 -0.40000001 50 58 201 97.000000 1.000000 4.000000 1.000000 -8.844074 114.000000 45.000000 0.973166 0.054947 0.223450
3.39000010 14.27999973 -0.36000001 50 58 201 97.000000 1.000000 4.000000 1.000000 -8.844074 114.000000 45.000000 0.835916 -0.257087 0.484924
3.40000010 14.43000031 -0.61000001 50 58 201 97.000000 1.000000 4.000000 1.000000 -8.844074 114.000000 45.000000 0.988729 0.137613 -0.058977
3.41000009 14.42000008 -0.64999998 50 58 201 97.000000 1.000000 4.000000 1.000000 -8.844074 114.000000 45.000000 0.928660 0.186292 -0.320759
3.41000009 14.42000008 -0.64999998 50 58 201 97.000000 1.000000 4.000000 1.000000 -8.844074 114.000000 45.000000 0.928660 0.186292 -0.320759
3.41000009 14.43999958 -0.64999998 50 58 201 97.000000 1.000000 4.000000 1.000000 -8.844074 114.000000 45.000000 0.999668 0.011119 0.023248
3.42000008 14.43999958 -0.63999999 50 58 201 97.000000 1.000000 4.000000 1.000000 -8.844074 114.000000 45.000000 0.958988 0.132500 0.250570
3.41000009 14.42000008 -0.66000003 50 58 201 97.000000 1.000000 4.000000 1.000000 -8.844074 114.000000 45.000000 0.987811 0.153811 -0.023926
3.41000009 14.43999958 -0.63999999 50 58 201 97.000000 1.000000 4.000000 1.000000 -8.844074 114.000000 45.000000 0.916669 0.153012 0.369195
3.42000008 14.43999958 -0.64999998 50 58 201 97.000000 1.000000 4.000000 1.000000 -8.844074 114.000000 45.000000 0.980361 0.088682 0.176149
3.40000010 14.38000011 -0.62000000 50 58 201 97.000000 1.000000 4.000000 1.000000 -8.844074 114.000000 45.000000 0.976184 0.215212 -0.027347
3.43000007 14.39999962 -0.60000002 50 58 201 97.000000 1.000000 4.000000 1.000000 -8.844074 114.000000 45.000000 0.978111 0.054139 0.200916
3.40000010 14.38000011 -0.62000000 50 58 201 97.000000 1.000000 4.000000 1.000000 -8.844074 114.000000 45.000000 0.976184 0.215212 -0.027347
3.42000008 14.39000034 -0.66000003 50 58 201 97.000000 1.000000 4.000000 1.000000 -8.844074 114.000000 45.000000 0.992142 -0.021109 0.123323
3.41000009 14.40999985 -0.66000003 50 58 201 97.000000 1.000000 4.000000 1.000000 -8.844074 114.000000 45.000000 0.989233 -0.073233 0.126706
3.39000010 14.42000008 -0.62000000 50 58 201 97.000000 1.000000 4.000000 1.000000 -8.844074 114.000000 45.000000 0.875981 0.417776 0.241082
3.39000010 14.42000008 -0.62000000 50 58 201 97.000000 1.000000 4.000000 1.000000 -8.844074 114.000000 45.000000 0.875981 0.417776 0.241082
3.38000011 14.39000034 -0.66000003 50 58 201 97.000000 1.000000 4.000000 1.000000 -8.844074 114.000000 45.000000 0.999235 0.015404 -0.035944
3.42000008 14.42000008 -0.73000002 50 58 201 97.000000 1.000000 4.000000 1.000000 -8.844074 114.000000 45.000000 0.939280 0.329081 0.097259
3.43000007 14.42000008 -0.75000000 50 58 201 97.000000 1.000000 4.000000 1.000000 -8.844074 114.000000 45.000000 0.902749 0.281281 0.325461
3.40000010 14.39999962 -0.69999999 50 58 201 97.000000 1.000000 4.000000 1.000000 -8.844074 114.000000 45.000000 0.992721 -0.119830 -0.012093
3.36999989 14.38000011 -0.69000000 50 58 201 97.000000 1.000000 4.000000 1.000000 -8.844074 114.000000 45.000000 0.969226 0.001189 0.246171
3.38000011 14.40999985 -0.75000000 50 58 201 97.000000 1.000000 4.000000 1.000000 -8.844074 114.000000 45.000000 0.985437 -0.021797 0.168637
3.39000010 14.39000034 -0.75000000 50 58 201 97.000000 1.000000 4.000000 1.000000 -8.844074 114.000000 45.000000 0.954780 0.114258 0.274483
3.40000010 14.36999989 -0.58999997 50 58 201 97.000000 1.000000 4.000000 1.000000 -8.844074 114.000000 45.000000 0.966653 0.043099 0.252438
3.40000010 14.35999966 -0.58999997 50 58 201 97.000000 1.000000 4.000000 1.000000 -8.844074 114.000000 45.000000 0.879526 -0.439029 0.183541
3.41000009 14.35999966 -0.61000001 50 58 201 97.000000 1.000000 4.000000 1.000000 -8.844074 114.000000 45.000000 0.964127 0.058773 0.258851
3.40000010 14.34000015 -0.60000002 50 58 201 97.000000 1.000000 4.000000 1.000000 -8.844074 114.000000 45.000000 0.881559 -0.472026 -0.006648
3.41000009 14.36999989 -0.63999999 50 58 201 97.000000 1.000000 4.000000 1.000000 -8.844074 114.000000 45.000000 0.982860 0.139714 -0.120276
3.41000009 14.31000042 -0.66000003 50 58 201 97.000000 1.000000 4.000000 1.000000 -8.844074 114.000000 45.000000 0.808560 -0.577543 0.112584
3.36999989 14.35000038 -0.66000003 50 58 201 97.000000 1.000000 4.000000 1.000000 -8.844074 114.000000 45.000000 0.843428 -0.456534 0.283206
3.36999989 14.35000038 -0.66000003 50 58 201 97.000000 1.000000 4.000000 1.000000 -8.844074 114.000000 45.000000 0.843428 -0.456534 0.283206
3.38000011 14.36999989 -0.70999998 50 58 201 97.000000 1.000000 4.000000 1.000000 -8.844074 114.000000 45.000000 0.961526 -0.147826 -0.231551
3.38000011 14.35000038 -0.68000001 50 58 201 97.000000 1.000000 4.000000 1.000000 -8.844074 114.000000 45.000000 0.876561 -0.344851 0.335736
3.36999989 14.35999966 -0.68000001 50 58 201 97.000000 1.000000 4.000000 1.000000 -8.844074 114.000000 45.000000 0.908180 0.240529 0.342572
3.26999998 14.42000008 -0.58999997 50 58 201 97.000000 1.000000 4.000000 1.000000 -8.844074 114.000000 45.000000 0.933330 -0.237908 0.268878
3.33999991 14.38000011 -0.73000002 50 58 201 97.000000 1.000000 4.000000 1.000000 -8.844074 114.000000 45.000000 0.995886 -0.089168 -0.016115
3.33999991 14.35000038 -0.60000002 50 58 201 97.000000 1.000000 4.000000 1.000000 -8.844074 114.000000 45.000000 0.836126 -0.530477 0.139599
3.41000009 14.44999981 -0.79000002 50 58 201 97.000000 1.000000 4.000000 1.000000 -8.844074 114.000000 45.000000 0.979010 -0.019932 0.202837
3.41000009 14.43999958 -0.79000002 50 58 201 97.000000 1.000000 4.000000 1.000000 -8.844074 114.000000 45.000000 0.923875 0.365444 -0.113602
3.41000009 14.43999958 -0.77999997 50 58 201 97.000000 1.000000 4.000000 1.000000 -8.844074 114.000000 45.000000 0.883676 0.446867 0.139377
3.40000010 14.43999958 -0.82999998 50 58 201 97.000000 1.000000 4.000000 1.000000 -8.844074 114.000000 45.000000 0.960545 0.255368 -0.110184
3.40000010 14.43000031 -0.81999999 50 58 201 97.000000 1.000000 4.000000 1.000000 -8.844074 114.000000 45.000000 0.832127 0.552421 0.048949
3.39000010 14.44999981 -0.75999999 50 58 201 97.000000 1.000000 4.000000 1.000000 -8.844074 114.000000 45.000000 0.944563 0.207611 0.254358
3.43000007 14.42000008 -0.83999997 50 58 201 97.000000 1.000000 4.000000 1.000000 -8.844074 114.000000 45.000000 0.936392 -0.106133 0.334522
3.42000008 14.40999985 -0.83999997 50 58 201 97.000000 1.000000 4.000000 1.000000 -8.844074 114.000000 45.000000 0.917457 0.234765 -0.321182
3.39000010 14.43000031 -0.87000000 50 58 201 97.000000 1.000000 4.000000 1.000000 -8.844074 114.000000 45.000000 0.950312 0.204703 0.234528
3.39000010 14.43999958 -0.88000000 50 58 201 97.000000 1.000000 4.000000 1.000000 -8.844074 114.000000 45.000000 0.913033 0.295607 -0.281045
3.39000010 14.44999981 -0.89999998 50 58 201 97.000000 1.000000 4.000000 1.000000 -8.844074 114.000000 45.000000 0.905867 0.387820 0.170297
3.39000010 14.44999981 -0.88000000 50 58 201 97.000000 1.000000 4.000000 1.000000 -8.844074 114.000000 45.000000 0.918280 0.292639 -0.266690
3.35999990 14.36999989 -0.89999998 50 58 201 97.000000 1.000000 4.000000 1.000000 -8.844074 114.000000 45.000000 0.999801 0.015072 0.013063
3.39000010 14.36999989 -0.88999999 50 58 201 97.000000 1.000000 4.000000 1.000000 -8.844074 114.000000 45.000000 0.942327 0.016399 0.334293
3.39000010 14.36999989 -0.88999999 50 58 201 97.000000 1.000000 4.000000 1.000000 -8.844074 114.000000 45.000000 0.942327 0.016399 0.334293
3.33999991 14.43000031 -0.81999999 50 58 201 97.000000 1.000000 4.000000 1.000000 -8.844074 114.000000 45.000000 0.908347 0.397314 -0.130566
3.33999991 14.43999958 -0.88000000 50 58 201 97.000000 1.000000 4.000000 1.000000 -8.844074 114.000000 45.000000 0.886261 0.267522 -0.378118
3.33999991 14.39999962 -0.87000000 50 58 201 97.000000 1.000000 4.000000 1.000000 -8.844074 114.000000 45.000000 0.923062 0.241857 -0.299101
3.33999991 14.39999962 -0.88000000 50 58 201 97.000000 1.000000 4.000000 1.000000 -8.844074 114.000000 45.000000 0.984109 0.060397 -0.166979
3.32999992 14.35000038 -0.87000000 50 58 201 97.000000 1.000000 4.000000 1.000000 -8.844074 114.000000 45.000000 0.949523 -0.055101 -0.308819
3.34999990 14.36999989 -0.89999998 50 58 201 97.000000 1.000000 4.000000 1.000000 -8.844074 114.000000 45.000000 0.974778 0.150063 0.165195
3.18000007 14.42000008 -0.86000001 50 58 201 97.000000 1.000000 4.000000 1.000000 -8.844074 114.000000 59.000000 0.873595 0.381343 0.302340
3.18000007 14.44999981 -0.89999998 50 58 201 97.000000 1.000000 4.000000 1.000000 -8.844074 114.000000 59.000000 0.794828 0.604296 0.055453
3.17000008 14.39999962 -0.92000002 50 58 201 97.000000 1.000000 4.000000 1.000000 -8.844074 114.000000 59.000000 0.868012 0.491827 -0.068271
3.14000010 14.44999981 -0.92000002 50 58 201 97.000000 1.000000 4.000000 1.000000 -8.844074 114.000000 59.000000 0.448034 0.838307 -0.310657
3.11999989 14.42000008 -0.88000000 50 58 201 97.000000 1.000000 4.000000 1.000000 -8.844074 114.000000 59.000000 0.714127 0.627078 -0.311121
3.10999990 14.44999981 -0.88999999 50 58 201 97.000000 1.000000 4.000000 1.000000 -8.844074 114.000000 59.000000 0.624185 0.781265 0.004134
3.30999994 14.64999962 -0.93000001 50 58 201 97.000000 1.000000 4.000000 1.000000 -8.844074 114.000000 59.000000 0.644958 0.740394 0.189331
3.31999993 14.67000008 -1.03999996 50 58 201 97.000000 1.000000 4.000000 1.000000 -8.844074 114.000000 59.000000 0.755111 0.557844 -0.344408
3.41000009 14.46000004 -0.94000000 50 58 201 97.000000 1.000000 4.000000 1.000000 -8.844074 114.000000 45.000000 0.860035 0.508889 0.037035
3.42000008 14.46000004 -1.01999998 50 58 201 97.000000 1.000000 4.000000 1.000000 -8.844074 114.000000 45.000000 0.782268 0.610731 -0.122738
3.42000008 14.47000027 -1.09000003 50 58 201 97.000000 1.000000 4.000000 1.000000 -8.844074 114.000000 69.000000 0.782358 0.621076 0.046687
3.42000008 14.46000004 -1.00999999 50 58 201 97.000000 1.000000 4.000000 1.000000 -8.844074 114.000000 45.000000 0.873409 0.459305 -0.161850
3.31999993 14.55000019 -0.94000000 50 58 201 97.000000 1.000000 4.000000 1.000000 -8.844074 114.000000 59.000000 0.738118 0.663860 -0.120297
3.26999998 14.57999992 -0.94000000 50 58 201 97.000000 1.000000 4.000000 1.000000 -8.844074 114.000000 59.000000 0.623658 0.779928 0.052563
3.26999998 14.57999992 -0.93000001 50 58 201 97.000000 1.000000 4.000000 1.000000 -8.844074 114.000000 59.000000 0.823925 0.496847 -0.272565
3.27999997 14.56999969 -0.97000003 50 58 201 97.000000 1.000000 4.000000 1.000000 -8.844074 114.000000 59.000000 0.811487 0.545576 -0.209367
3.28999996 14.56999969 -0.98000002 50 58 201 97.000000 1.000000 4.000000 1.000000 -8.844074 114.000000 59.000000 0.779636 0.625668 0.026594
3.28999996 14.59000015 -1.08000004 50 58 201 97.000000 1.000000 4.000000 1.000000 -8.844074 114.000000 59.000000 0.617243 0.780674 -0.097767
3.28999996 14.57999992 -1.01999998 50 58 201 97.000000 1.000000 4.000000 1.000000 -8.844074 114.000000 59.000000 0.829958 0.485564 -0.274584
3.26999998 14.56000042 -1.07000005 50 58 201 97.000000 1.000000 4.000000 1.000000 -8.844074 114.000000 59.000000 0.826719 0.472187 -0.305902
3.27999997 14.53999996 -1.07000005 50 58 201 97.000000 1.000000 4.000000 1.000000 -8.844074 114.000000 59.000000 0.765729 0.632430 0.117007
3.42000008 14.47999954 -1.15999997 50 58 201 97.000000 1.000000 4.000000 1.000000 -8.844074 114.000000 69.000000 0.897216 0.439865 0.039009
3.31999993 14.55000019 -1.13000000 50 58 201 97.000000 1.000000 4.000000 1.000000 -8.844074 114.000000 59.000000 0.833391 0.465764 -0.297528
3.32999992 14.57999992 -1.12000000 50 58 201 97.000000 1.000000 4.000000 1.000000 -8.844074 114.000000 59.000000 0.788418 0.559573 0.255491
3.27999997 14.59000015 -1.11000001 50 58 201 97.000000 1.000000 4.000000 1.000000 -8.844074 114.000000 59.000000 0.289900 0.955783 -0.049372
3.30999994 14.56000042 -1.13000000 50 58 201 97.000000 1.000000 4.000000 1.000000 -8.844074 114.000000 59.000000 0.495775 0.833455 -0.244050
3.27999997 14.56000042 -1.15999997 50 58 201 97.000000 1.000000 4.000000 1.000000 -8.844074 114.000000 59.000000 0.668549 0.743604 -0.009729
3.29999995 14.57999992 -1.21000004 50 58 201 97.000000 1.000000 4.000000 1.000000 -8.844074 114.000000 59.000000 0.302418 0.940095 -0.157367
3.26999998 14.55000019 -1.17999995 50 58 201 97.000000 1.000000 4.000000 1.000000 -8.844074 114.000000 59.000000 0.867276 0.432884 -0.245854
3.29999995 14.57999992 -1.21000004 50 58 201 97.000000 1.000000 4.000000 1.000000 -8.844074 114.000000 59.000000 0.302418 0.940095 -0.157367
3.30999994 14.53999996 -1.16999996 50 58 201 97.000000 1.000000 4.000000 1.000000 -8.844074 114.000000 59.000000 0.483166 0.867404 0.118999
3.31999993 14.52999973 -1.13999999 50 58 201 97.000000 1.000000 4.000000 1.000000 -8.844074 114.000000 59.000000 0.669491 0.694934 -0.262389
3.21000004 14.68999958 -0.93000001 50 58 201 97.000000 1.000000 4.000000 1.000000 -8.844074 114.000000 59.000000 0.714446 0.693991 -0.089123
3.19000006 14.64000034 -0.95999998 50 58 201 97.000000 1.000000 4.000000 1.000000 -8.844074 114.000000 59.000000 0.401240 0.844633 -0.354403
3.20000005 14.64999962 -0.95999998 50 58 201 97.000000 1.000000 4.000000 1.000000 -8.844074 114.000000 59.000000 0.661821 0.747586 -0.055747
3.21000004 14.64999962 -0.94000000 50 58 201 97.000000 1.000000 4.000000 1.000000 -8.844074 114.000000 59.000000 0.178394 0.960683 -0.212751
3.20000005 14.64000034 -0.94000000 50 58 201 97.000000 1.000000 4.000000 1.000000 -8.844074 114.000000 59.000000 0.404240 0.873582 -0.271007
3.20000005 14.64000034 -0.93000001 50 58 201 97.000000 1.000000 4.000000 1.000000 -8.844074 114.000000 59.000000 0.357483 0.858887 -0.366768
3.21000004 14.64000034 -0.93000001 50 58 201 97.000000 1.000000 4.000000 1.000000 -8.844074 114.000000 59.000000 0.179159 0.963799 -0.197468
3.20000005 14.64000034 -0.94999999 50 58 201 97.000000 1.000000 4.000000 1.000000 -8.844074 114.000000 59.000000 0.543819 0.804108 -0.240148
3.22000003 14.63000011 -0.98000002 50 58 201 97.000000 1.000000 4.000000 1.000000 -8.844074 114.000000 59.000000 0.321572 0.863168 -0.389272
3.19000006 14.64000034 -0.99000001 50 58 201 97.000000 1.000000 4.000000 1.000000 -8.844074 114.000000 59.000000 0.180921 0.981287 -0.065898
3.21000004 14.64000034 -0.97000003 50 58 201 97.000000 1.000000 4.000000 1.000000 -8.844074 114.000000 59.000000 0.241555 0.936900 -0.252726
3.21000004 14.67000008 -1.05999994 50 58 201 97.000000 1.000000 4.000000 1.000000 -8.844074 114.000000 59.000000 0.332049 0.943119 0.016413
3.19000006 14.64999962 -1.03999996 50 58 201 97.000000 1.000000 4.000000 1.000000 -8.844074 114.000000 59.000000 0.363532 0.913819 0.181053
3.21000004 14.65999985 -1.09000003 50 58 201 97.000000 1.000000 4.000000 1.000000 -8.844074 114.000000 59.000000 0.644675 0.732088 -0.220095
3.22000003 14.65999985 -1.05999994 50 58 201 97.000000 1.000000 4.000000 1.000000 -8.844074 114.000000 59.000000 0.278474 0.942421 -0.185192
3.18000007 14.64000034 -1.05999994 50 58 201 97.000000 1.000000 4.000000 1.000000 -8.844074 114.000000 59.000000 0.303734 0.813631 -0.495732
3.16000009 14.64999962 -1.04999995 50 58 201 97.000000 1.000000 4.000000 1.000000 -8.844074 114.000000 59.000000 0.158101 0.986688 -0.038083
3.16000009 14.67000008 -1.11000001 50 58 201 97.000000 1.000000 4.000000 1.000000 -8.844074 114.000000 59.000000 0.336633 0.875854 -0.345772
3.24000001 14.59000015 -0.93000001 50 58 201 97.000000 1.000000 4.000000 1.000000 -8.844074 114.000000 59.000000 0.673435 0.724658 -0.146137
3.24000001 14.59000015 -0.95999998 50 58 201 97.000000 1.000000 4.000000 1.000000 -8.844074 114.000000 59.000000 0.481191 0.856608 0.186219
3.24000001 14.60000038 -0.93000001 50 58 201 97.000000 1.000000 4.000000 1.000000 -8.844074 114.000000 59.000000 0.544749 0.756144 -0.362624
3.25000000 14.59000015 -0.93000001 50 58 201 97.000000 1.000000 4.000000 1.000000 -8.844074 114.000000 59.000000 0.412287 0.838683 -0.355852
3.24000001 14.60000038 -0.94999999 50 58 201 97.000000 1.000000 4.000000 1.000000 -8.844074 114.000000 59.000000 0.746831 0.639484 -0.182491
3.23000002 14.60000038 -0.93000001 50 58 201 97.000000 1.000000 4.000000 1.000000 -8.844074 114.000000 59.000000 0.749655 0.629092 0.205575
3.25999999 14.59000015 -0.98000002 50 58 201 97.000000 1.000000 4.000000 1.000000 -8.844074 114.000000 59.000000 0.765988 0.640928 -0.049739
3.25999999 14.57999992 -0.93000001 50 58 201 97.000000 1.000000 4.000000 1.000000 -8.844074 114.000000 59.000000 0.580920 0.791332 -0.190591
3.24000001 14.55000019 -1.00000000 50 58 201 97.000000 1.000000 4.000000 1.000000 -8.844074 114.000000 59.000000 0.452320 0.864066 -0.220900
3.25000000 14.57999992 -1.00000000 50 58 201 97.000000 1.000000 4.000000 1.000000 -8.844074 114.000000 59.000000 0.456755 0.887449 -0.061724
3.20000005 14.60000038 -0.98000002 50 58 201 97.000000 1.000000 4.000000 1.000000 -8.844074 114.000000 59.000000 0.771898 0.623741 -0.122970
3.22000003 14.57999992 -0.95999998 50 58 201 97.000000 1.000000 4.000000 1.000000 -8.844074 114.000000 59.000000 0.631377 0.714918 -0.300426
3.22000003 14.55000019 -0.94999999 50 58 201 97.000000 1.000000 4.000000 1.000000 -8.844074 114.000000 59.000000 0.543261 0.806379 -0.233711
3.22000003 14.56999969 -0.98000002 50 58 201 97.000000 1.000000 4.000000 1.000000 -8.844074 114.000000 59.000000 0.857862 0.513076 -0.028732
3.23000002 14.60000038 -1.01999998 50 58 201 97.000000 1.000000 4.000000 1.000000 -8.844074 114.000000 59.000000 0.822259 0.568832 0.017905
3.23000002 14.60000038 -1.01999998 50 58 201 97.000000 1.000000 4.000000 1.000000 -8.844074 114.000000 59.000000 0.822259 0.568832 0.017905
3.24000001 14.60000038 -1.01999998 50 58 201 97.000000 1.000000 4.000000 1.000000 -8.844074 114.000000 59.000000 0.549567 0.834733 0.034607
3.25000000 14.59000015 -1.02999997 50 58 201 97.000000 1.000000 4.000000 1.000000 -8.844074 114.000000 59.000000 0.544767 0.834930 -0.078230
3.24000001 14.60000038 -1.02999997 50 58 201 97.000000 1.000000 4.000000 1.000000 -8.844074 114.000000 59.000000 0.348259 0.930950 -0.109763
3.23000002 14.60000038 -1.02999997 50 58 201 97.000000 1.000000 4.000000 1.000000 -8.844074 114.000000 59.000000 0.342666 0.916166 -0.207894
3.25000000 14.59000015 -1.01999998 50 58 201 97.000000 1.000000 4.000000 1.000000 -8.844074 114.000000 59.000000 0.673095 0.685886 0.276593
3.23000002 14.60999966 -1.05999994 50 58 201 97.000000 1.000000 4.000000 1.000000 -8.844074 114.000000 59.000000 0.542870 0.816586 0.196163
3.23000002 14.56999969 -1.01999998 50 58 201 97.000000 1.000000 4.000000 1.000000 -8.844074 114.000000 59.000000 0.688436 0.669268 0.279527
3.25999999 14.57999992 -1.02999997 50 58 201 97.000000 1.000000 4.000000 1.000000 -8.844074 114.000000 59.000000 0.577260 0.667613 -0.470174
3.23000002 14.56000042 -1.00999999 50 58 201 97.000000 1.000000 4.000000 1.000000 -8.844074 114.000000 59.000000 0.773818 0.601516 0.198454
3.23000002 14.56999969 -1.01999998 50 58 201 97.000000 1.000000 4.000000 1.000000 -8.844074 114.000000 59.000000 0.688436 0.669268 0.279527
3.25999999 14.57999992 -1.07000005 50 58 201 97.000000 1.000000 4.000000 1.000000 -8.844074 114.000000 59.000000 0.394984 0.823280 -0.407674
3.20000005 14.59000015 -1.02999997 50 58 201 97.000000 1.000000 4.000000 1.000000 -8.844074 114.000000 59.000000 0.379344 0.920487 0.093816
3.22000003 14.60999966 -1.03999996 50 58 201 97.000000 1.000000 4.000000 1.000000 -8.844074 114.000000 59.000000 0.632167 0.773591 0.043842
3.20000005 14.60000038 -1.03999996 50 58 201 97.000000 1.000000 4.000000 1.000000 -8.844074 114.000000 59.000000 0.546315 0.824655 -0.146572
3.21000004 14.61999989 -1.00999999 50 58 201 97.000000 1.000000 4.000000 1.000000 -8.844074 114.000000 59.000000 0.416028 0.903018 -0.107138
3.22000003 14.60999966 -1.03999996 50 58 201 97.000000 1.000000 4.000000 1.000000 -8.844074 114.000000 59.000000 0.632167 0.773591 0.043842
3.19000006 14.60000038 -1.04999995 50 58 201 97.000000 1.000000 4.000000 1.000000 -8.844074 114.000000 59.000000 0.462614 0.840132 0.283138
3.21000004 14.59000015 -1.04999995 50 58 201 97.000000 1.000000 4.000000 1.000000 -8.844074 114.000000 59.000000 0.552006 0.759211 -0.344802
3.20000005 14.59000015 -1.07000005 50 58 201 97.000000 1.000000 4.000000 1.000000 -8.844074 114.000000 59.000000 0.724358 0.632022 -0.275415
3.22000003 14.57999992 -1.02999997 50 58 201 97.000000 1.000000 4.000000 1.000000 -8.844074 114.000000 59.000000 0.761966 0.643406 -0.073739
3.20000005 14.57999992 -1.09000003 50 58 201 97.000000 1.000000 4.000000 1.000000 -8.844074 114.000000 59.000000 0.660095 0.722221 -0.206571
3.19000006 14.55000019 -1.07000005 50 58 201 97.000000 1.000000 4.000000 1.000000 -8.844074 114.000000 59.000000 0.585837 0.795600 0.154325
3.25000000 14.53999996 -1.01999998 50 58 201 97.000000 1.000000 4.000000 1.000000 -8.844074 114.000000 59.000000 0.795959 0.601613 -0.067163
3.14000010 14.61999989 -1.03999996 50 58 201 97.000000 1.000000 4.000000 1.000000 -8.844074 114.000000 59.000000 0.111573 0.974070 -0.196820
3.14000010 14.60000038 -1.03999996 50 58 201 97.000000 1.000000 4.000000 1.000000 -8.844074 114.000000 59.000000 0.366770 0.901582 0.229414
3.13000011 14.60999966 -1.04999995 50 58 201 97.000000 1.000000 4.000000 1.000000 -8.844074 114.000000 59.000000 0.213449 0.966344 -0.143593
3.13000011 14.60999966 -1.04999995 50 58 201 97.000000 1.000000 4.000000 1.000000 -8.844074 114.000000 59.000000 0.213449 0.966344 -0.143593
3.13000011 14.60999966 -1.04999995 50 58 201 97.000000 1.000000 4.000000 1.000000 -8.844074 114.000000 59.000000 0.213449 0.966344 -0.143593
3.14000010 14.57999992 -1.07000005 50 58 201 97.000000 1.000000 4.000000 1.000000 -8.844074 114.000000 59.000000 0.554674 0.777179 -0.297203
3.25000000 14.57999992 -1.14999998 50 58 201 97.000000 1.000000 4.000000 1.000000 -8.844074 114.000000 59.000000 0.847307 0.531087 -0.004054
3.25000000 14.57999992 -1.13999999 50 58 201 97.000000 1.000000 4.000000 1.000000 -8.844074 114.000000 59.000000 0.787067 0.609577 -0.094564
3.25999999 14.56999969 -1.13999999 50 58 201 97.000000 1.000000 4.000000 1.000000 -8.844074 114.000000 59.000000 0.681493 0.731664 0.015330
3.25999999 14.56000042 -1.13999999 50 58 201 97.000000 1.000000 4.000000 1.000000 -8.844074 114.000000 59.000000 0.679283 0.704154 0.206738
3.22000003 14.59000015 -1.15999997 50 58 201 97.000000 1.000000 4.000000 1.000000 -8.844074 114.000000 59.000000 0.493826 0.805047 -0.328688
3.19000006 14.56999969 -1.12000000 50 58 201 97.000000 1.000000 4.000000 1.000000 -8.844074 114.000000 59.000000 0.565134 0.763652 -0.312185
3.20000005 14.56000042 -1.10000002 50 58 201 97.000000 1.000000 4.000000 1.000000 -8.844074 114.000000 59.000000 0.683659 0.683659 -0.255381
3.20000005 14.57999992 -1.10000002 50 58 201 97.000000 1.000000 4.000000 1.000000 -8.844074 114.000000 59.000000 0.691776 0.659675 -0.293724
3.19000006 14.56999969 -1.16999996 50 58 201 97.000000 1.000000 4.000000 1.000000 -8.844074 114.000000 59.000000 0.323363 0.934313 0.149985
3.19000006 14.56999969 -1.13999999 50 58 201 97.000000 1.000000 4.000000 1.000000 -8.844074 114.000000 59.000000 0.246413 0.960878 0.126466
3.22000003 14.55000019 -1.15999997 50 58 201 97.000000 1.000000 4.000000 1.000000 -8.844074 114.000000 59.000000 0.474707 0.866157 -0.156288
3.22000003 14.56999969 -1.14999998 50 58 201 97.000000 1.000000 4.000000 1.000000 -8.844074 114.000000 59.000000 0.272638 0.959941 0.064672
3.24000001 14.60000038 -1.19000006 50 58 201 97.000000 1.000000 4.000000 1.000000 -8.844074 114.000000 59.000000 0.716497 0.578139 -0.390367
3.25999999 14.56999969 -1.21000004 50 58 201 97.000000 1.000000 4.000000 1.000000 -8.844074 114.000000 59.000000 0.372701 0.927176 -0.037924
3.23000002 14.56000042 -1.17999995 50 58 201 97.000000 1.000000 4.000000 1.000000 -8.844074 114.000000 59.000000 0.784873 0.614937 0.076327
3.25999999 14.57999992 -1.21000004 50 58 201 97.000000 1.000000 4.000000 1.000000 -8.844074 114.000000 59.000000 0.253031 0.966895 -0.033004
3.25000000 14.55000019 -1.24000001 50 58 201 97.000000 1.000000 4.000000 1.000000 -8.844074 114.000000 59.000000 0.801945 0.495835 -0.333214
3.20000005 14.59000015 -1.25000000 50 58 201 97.000000 1.000000 4.000000 1.000000 -8.844074 114.000000 59.000000 0.076025 0.992861 -0.091911
3.21000004 14.57999992 -1.19000006 50 58 201 97.000000 1.000000 4.000000 1.000000 -8.844074 114.000000 59.000000 0.521618 0.850616 -0.066081
3.22000003 14.57999992 -1.24000001 50 58 201 97.000000 1.000000 4.000000 1.000000 -8.844074 114.000000 59.000000 0.626693 0.767288 -0.136108
3.22000003 14.57999992 -1.22000003 50 58 201 97.000000 1.000000 4.000000 1.000000 -8.844074 114.000000 59.000000 0.667844 0.742208 -0.055773
3.21000004 14.57999992 -1.23000002 50 58 201 97.000000 1.000000 4.000000 1.000000 -8.844074 114.000000 59.000000 0.096167 0.986603 -0.131784
3.25999999 14.53999996 -1.11000001 50 58 201 97.000000 1.000000 4.000000 1.000000 -8.844074 114.000000 59.000000 0.643598 0.716698 -0.268563
3.25999999 14.53999996 -1.25000000 50 58 201 97.000000 1.000000 4.000000 1.000000 -8.844074 114.000000 59.000000 0.737911 0.554660 -0.384499
3.17000008 14.56999969 -1.14999998 50 58 201 97.000000 1.000000 4.000000 1.000000 -8.844074 114.000000 59.000000 0.644580 0.739959 0.192297
3.18000007 14.60999966 -1.12000000 50 58 201 97.000000 1.000000 4.000000 1.000000 -8.844074 114.000000 59.000000 0.337614 0.934202 0.115250
3.17000008 14.59000015 -1.23000002 50 58 201 97.000000 1.000000 4.000000 1.000000 -8.844074 114.000000 59.000000 0.298504 0.912987 -0.278119
3.18000007 14.57999992 -1.17999995 50 58 201 97.000000 1.000000 4.000000 1.000000 -8.844074 114.000000 59.000000 0.654817 0.717629 -0.237116
3.31999993 14.55000019 -1.32000005 50 58 201 97.000000 1.000000 4.000000 1.000000 -8.844074 114.000000 59.000000 0.512468 0.858620 0.012169
3.26999998 14.56000042 -1.27999997 50 58 201 97.000000 1.000000 4.000000 1.000000 -8.844074 114.000000 59.000000 0.638073 0.671048 -0.377568
3.26999998 14.55000019 -1.36000001 50 58 201 97.000000 1.000000 4.000000 1.000000 -8.844074 114.000000 59.000000 0.853906 0.519471 -0.031525
3.26999998 14.56000042 -1.36000001 50 58 201 97.000000 1.000000 4.000000 1.000000 -8.844074 114.000000 59.000000 0.798436 0.588865 0.125447
3.26999998 14.55000019 -1.35000002 50 58 201 97.000000 1.000000 4.000000 1.000000 -8.844074 114.000000 59.000000 0.690445 0.705619 0.159333
3.28999996 14.52000046 -1.27999997 50 58 201 97.000000 1.000000 4.000000 1.000000 -8.844074 114.000000 59.000000 0.557391 0.776536 0.293781
3.26999998 14.53999996 -1.39999998 50 58 201 97.000000 1.000000 4.000000 1.000000 -8.844074 114.000000 59.000000 0.492667 0.863952 0.104245
3.28999996 14.52999973 -1.37000000 50 58 201 97.000000 1.000000 4.000000 1.000000 -8.844074 114.000000 59.000000 0.792993 0.608381 -0.032167
3.28999996 14.52999973 -1.38999999 50 58 201 97.000000 1.000000 4.000000 1.000000 -8.844074 114.000000 59.000000 0.615060 0.786306 0.058509
3.29999995 14.55000019 -1.48000002 50 58 201 97.000000 1.000000 4.000000 1.000000 -8.844074 114.000000 59.000000 0.264612 0.953401 -0.144938
3.27999997 14.56000042 -1.50000000 50 58 201 97.000000 1.000000 4.000000 1.000000 -8.844074 114.000000 59.000000 0.301591 0.935348 0.184846
3.31999993 14.53999996 -1.49000001 50 58 201 97.000000 1.000000 4.000000 1.000000 -8.844074 114.000000 59.000000 0.651548 0.621554 -0.434921
3.29999995 14.52999973 -1.49000001 50 58 201 97.000000 1.000000 4.000000 1.000000 -8.844074 114.000000 59.000000 0.513804 0.684514 -0.517151
3.29999995 14.53999996 -1.48000002 50 58 201 97.000000 1.000000 4.000000 1.000000 -8.844074 114.000000 59.000000 0.393756 0.871128 -0.293416
3.27999997 14.50000000 -1.45000005 50 58 201 97.000000 1.000000 4.000000 1.000000 -8.844074 114.000000 59.000000 0.692227 0.599710 -0.401459
3.29999995 14.48999977 -1.44000006 50 58 201 97.000000 1.000000 4.000000 1.000000 -8.844074 114.000000 59.000000 0.473203 0.861852 -0.182457
3.25999999 14.56999969 -1.28999996 50 58 201 97.000000 1.000000 4.000000 1.000000 -8.844074 114.000000 59.000000 0.695899 0.633968 -0.337356
3.25999999 14.56999969 -1.28999996 50 58 201 97.000000 1.000000 4.000000 1.000000 -8.844074 114.000000 59.000000 0.695899 0.633968 -0.337356
3.25000000 14.56999969 -1.28999996 50 58 201 97.000000 1.000000 4.000000 1.000000 -8.844074 114.000000 59.000000 0.325615 0.842860 -0.428441
3.25999999 14.56999969 -1.28999996 50 58 201 97.000000 1.000000 4.000000 1.000000 -8.844074 114.000000 59.000000 0.695899 0.633968 -0.337356
3.25000000 14.55000019 -1.25999999 50 58 201 97.000000 1.000000 4.000000 1.000000 -8.844074 114.000000 59.000000 0.733723 0.676063 -0.067750
3.25999999 14.55000019 -1.34000003 50 58 201 97.000000 1.000000 4.000000 1.000000 -8.844074 114.000000 59.000000 0.497409 0.817508 0.290286
3.25999999 14.55000019 -1.32000005 50 58 201 97.000000 1.000000 4.000000 1.000000 -8.844074 114.000000 59.000000 0.293882 0.881645 -0.369236
3.25999999 14.55000019 -1.34000003 50 58 201 97.000000 1.000000 4.000000 1.000000 -8.844074 114.000000 59.000000 0.497409 0.817508 0.290286
3.25000000 14.56000042 -1.33000004 50 58 201 97.000000 1.000000 4.000000 1.000000 -8.844074 114.000000 59.000000 0.628214 0.774845 -0.070440
3.25999999 14.55000019 -1.32000005 50 58 201 97.000000 1.000000 4.000000 1.000000 -8.844074 114.000000 59.000000 0.293882 0.881645 -0.369236
3.20000005 14.59000015 -1.26999998 50 58 201 97.000000 1.000000 4.000000 1.000000 -8.844074 114.000000 59.000000 0.315283 0.948382 0.034187
3.21000004 14.56999969 -1.29999995 50 58 201 97.000000 1.000000 4.000000 1.000000 -8.844074 114.000000 59.000000 0.174277 0.981963 0.073317
3.21000004 14.56000042 -1.29999995 50 58 201 97.000000 1.000000 4.000000 1.000000 -8.844074 114.000000 59.000000 0.423777 0.881514 0.208197
3.25000000 14.56000042 -1.38000000 50 58 201 97.000000 1.000000 4.000000 1.000000 -8.844074 114.000000 59.000000 0.535059 0.818595 0.208841
3.25000000 14.55000019 -1.38000000 50 58 201 97.000000 1.000000 4.000000 1.000000 -8.844074 114.000000 59.000000 0.299641 0.952475 0.054828
3.25999999 14.56000042 -1.36000001 50 58 201 97.000000 1.000000 4.000000 1.000000 -8.844074 114.000000 59.000000 0.689576 0.710608 -0.139718
3.25999999 14.55000019 -1.38000000 50 58 201 97.000000 1.000000 4.000000 1.000000 -8.844074 114.000000 59.000000 0.407397 0.913040 0.019649
3.24000001 14.56000042 -1.37000000 50 58 201 97.000000 1.000000 4.000000 1.000000 -8.844074 114.000000 59.000000 0.465419 0.882500 -0.067672
3.23000002 14.57999992 -1.36000001 50 58 201 97.000000 1.000000 4.000000 1.000000 -8.844074 114.000000 59.000000 0.287506 0.903801 -0.316994
3.25999999 14.55000019 -1.38999999 50 58 201 97.000000 1.000000 4.000000 1.000000 -8.844074 114.000000 59.000000 0.587774 0.727798 -0.353316
3.24000001 14.55000019 -1.39999998 50 58 201 97.000000 1.000000 4.000000 1.000000 -8.844074 114.000000 59.000000 0.706162 0.671715 -0.223905
3.24000001 14.56000042 -1.38999999 50 58 201 97.000000 1.000000 4.000000 1.000000 -8.844074 114.000000 59.000000 0.756535 0.628153 -0.181874
3.24000001 14.56000042 -1.41999996 50 58 201 97.000000 1.000000 4.000000 1.000000 -8.844074 114.000000 59.000000 0.153635 0.986316 -0.059812
3.25999999 14.55000019 -1.38999999 50 58 201 97.000000 1.000000 4.000000 1.000000 -8.844074 114.000000 59.000000 0.587774 0.727798 -0.353316
3.22000003 14.56999969 -1.41999996 50 58 201 97.000000 1.000000 4.000000 1.000000 -8.844074 114.000000 59.000000 0.372944 0.926429 0.051395
3.25000000 14.53999996 -1.27999997 50 58 201 97.000000 1.000000 4.000000 1.000000 -8.844074 114.000000 59.000000 0.607573 0.788242 -0.097620
3.25000000 14.53999996 -1.27999997 50 58 201 97.000000 1.000000 4.000000 1.000000 -8.844074 114.000000 59.000000 0.607573 0.788242 -0.097620
3.19000006 14.53999996 -1.25999999 50 58 201 97.000000 1.000000 4.000000 1.000000 -8.844074 114.000000 59.000000 0.790084 0.570530 -0.224192
3.19000006 14.53999996 -1.26999998 50 58 201 97.000000 1.000000 4.000000 1.000000 -8.844074 114.000000 59.000000 0.753028 0.645666 -0.126747
3.21000004 14.50000000 -1.33000004 50 58 201 97.000000 1.000000 4.000000 1.000000 -8.844074 114.000000 59.000000 0.507298 0.859473 -0.062888
3.25999999 14.52999973 -1.40999997 50 58 201 97.000000 1.000000 4.000000 1.000000 -8.844074 114.000000 59.000000 0.675597 0.703682 -0.219998
3.25000000 14.53999996 -1.39999998 50 58 201 97.000000 1.000000 4.000000 1.000000 -8.844074 114.000000 59.000000 0.522045 0.790252 -0.320890
3.22000003 14.48999977 -1.38999999 50 58 201 97.000000 1.000000 4.000000 1.000000 -8.844074 114.000000 59.000000 0.368350 0.869674 -0.328611
3.24000001 14.53999996 -1.40999997 50 58 201 97.000000 1.000000 4.000000 1.000000 -8.844074 114.000000 59.000000 0.542116 0.830069 0.130754
3.18000007 14.52999973 -1.30999994 50 58 201 97.000000 1.000000 4.000000 1.000000 -8.844074 114.000000 59.000000 0.409189 0.910948 0.052323
3.23000002 14.56999969 -1.46000004 50 58 201 97.000000 1.000000 4.000000 1.000000 -8.844074 114.000000 59.000000 0.416155 0.906865 0.066422
3.25000000 14.56000042 -1.46000004 50 58 201 97.000000 1.000000 4.000000 1.000000 -8.844074 114.000000 59.000000 0.264030 0.873564 -0.408870
3.24000001 14.56999969 -1.44000006 50 58 201 97.000000 1.000000 4.000000 1.000000 -8.844074 114.000000 59.000000 0.501950 0.853168 0.141951
3.25000000 14.56000042 -1.46000004 50 58 201 97.000000 1.000000 4.000000 1.000000 -8.844074 114.000000 59.000000 0.264030 0.873564 -0.408870
3.24000001 14.56000042 -1.47000003 50 58 201 97.000000 1.000000 4.000000 1.000000 -8.844074 114.000000 59.000000 0.525741 0.805090 -0.274641
3.23000002 14.56999969 -1.50999999 50 58 201 97.000000 1.000000 4.000000 1.000000 -8.844074 114.000000 59.000000 0.465806 0.879543 -0.097102
3.25000000 14.55000019 -1.50999999 50 58 201 97.000000 1.000000 4.000000 1.000000 -8.844074 114.000000 59.000000 0.443636 0.818899 -0.364132
3.19000006 14.56000042 -1.47000003 50 58 201 97.000000 1.000000 4.000000 1.000000 -8.844074 114.000000 59.000000 0.523315 0.850907 0.045807
3.20000005 14.56000042 -1.48000002 50 58 201 97.000000 1.000000 4.000000 1.000000 -8.844074 114.000000 59.000000 0.370671 0.927338 -0.051446
3.20000005 14.56000042 -1.48000002 50 58 201 97.000000 1.000000 4.000000 1.000000 -8.844074 114.000000 59.000000 0.370671 0.927338 -0.051446
3.24000001 14.55000019 -1.54999995 50 58 201 97.000000 1.000000 4.000000 1.000000 -8.844074 114.000000 59.000000 0.194089 0.977770 -0.079345
3.25999999 14.52000046 -1.50999999 50 58 201 97.000000 1.000000 4.000000 1.000000 -8.844074 114.000000 59.000000 0.821128 0.557665 0.121486
3.20000005 14.52999973 -1.46000004 50 58 201 97.000000 1.000000 4.000000 1.000000 -8.844074 114.000000 59.000000 0.717978 0.645071 -0.261515
3.24000001 14.47999954 -1.52999997 50 58 201 97.000000 1.000000 4.000000 1.000000 -8.844074 114.000000 59.000000 0.243848 0.955403 -0.166563
3.42000008 14.43999958 -0.93000001 50 58 201 97.000000 1.000000 4.000000 1.000000 -8.844074 114.000000 45.000000 0.991429 -0.053376 0.119244
3.43000007 14.43000031 -0.99000001 50 58 201 97.000000 1.000000 4.000000 1.000000 -8.844074 114.000000 45.000000 0.933174 0.155759 0.323923
3.38000011 14.39999962 -0.95999998 50 58 201 97.000000 1.000000 4.000000 1.000000 -8.844074 114.000000 45.000000 0.969133 0.246186 0.013210
3.35999990 14.39000034 -0.93000001 50 58 201 97.000000 1.000000 4.000000 1.000000 -8.844074 114.000000 45.000000 0.961474 0.104536 0.254242
3.35999990 14.38000011 -0.93000001 50 58 201 97.000000 1.000000 4.000000 1.000000 -8.844074 114.000000 45.000000 0.928069 0.098904 0.359034
3.35999990 14.39000034 -1.00000000 50 58 201 97.000000 1.000000 4.000000 1.000000 -8.844074 114.000000 45.000000 0.970701 0.199738 -0.133583
3.34999990 14.38000011 -0.93000001 50 58 201 97.000000 1.000000 4.000000 1.000000 -8.844074 114.000000 45.000000 0.958014 0.211856 0.193202
3.32999992 14.40999985 -1.00000000 50 58 201 97.000000 1.000000 4.000000 1.000000 -8.844074 114.000000 45.000000 0.938693 0.094535 0.331539
3.32999992 14.39000034 -1.00000000 50 58 201 97.000000 1.000000 4.000000 1.000000 -8.844074 114.000000 45.000000 0.989876 0.091892 0.108177
3.41000009 14.44999981 -1.11000001 50 58 201 97.000000 1.000000 4.000000 1.000000 -8.844074 114.000000 69.000000 0.754183 0.631801 -0.178985
3.14000010 14.44999981 -0.93000001 50 58 201 97.000000 1.000000 4.000000 1.000000 -8.844074 114.000000 59.000000 0.905309 0.413263 0.098133
3.64000010 14.51000023 -1.63999999 50 58 201 97.000000 1.000000 4.000000 1.000000 -8.844074 114.000000 69.000000 0.688412 0.625979 -0.366387
3.61999989 14.52000046 -1.63999999 50 58 201 97.000000 1.000000 4.000000 1.000000 -8.844074 114.000000 69.000000 0.828685 0.498446 0.254624
3.61999989 14.52000046 -1.61000001 50 58 201 97.000000 1.000000 4.000000 1.000000 -8.844074 114.000000 69.000000 0.754036 0.577183 0.313512
3.61999989 14.51000023 -1.67999995 50 58 201 97.000000 1.000000 4.000000 1.000000 -8.844074 114.000000 69.000000 0.782573 0.620072 0.055593
3.63000011 14.52000046 -1.64999998 50 58 201 97.000000 1.000000 4.000000 1.000000 -8.844074 114.000000 69.000000 0.905123 0.420767 0.060883
3.64000010 14.50000000 -1.61000001 50 58 201 97.000000 1.000000 4.000000 1.000000 -8.844074 114.000000 69.000000 0.700639 0.681997 -0.209726
3.60999990 14.48999977 -1.61000001 50 58 201 97.000000 1.000000 4.000000 1.000000 -8.844074 114.000000 69.000000 0.864275 0.382246 0.326981
3.61999989 14.47000027 -1.61000001 50 58 201 97.000000 1.000000 4.000000 1.000000 -8.844074 114.000000 69.000000 0.924731 0.374963 0.065385
3.63000011 14.47999954 -1.62000000 50 58 201 97.000000 1.000000 4.000000 1.000000 -8.844074 114.000000 69.000000 0.957551 0.278164 -0.075630
3.63000011 14.47000027 -1.67999995 50 58 201 97.000000 1.000000 4.000000 1.000000 -8.844074 114.000000 69.000000 0.755093 0.607528 -0.246465
3.66000009 14.53999996 -1.72000003 50 58 201 97.000000 1.000000 4.000000 1.000000 -8.844074 114.000000 69.000000 0.925722 0.294354 0.237474
3.66000009 14.51000023 -1.72000003 50 58 201 97.000000 1.000000 4.000000 1.000000 -8.844074 114.000000 69.000000 0.822055 0.494481 -0.282338
