//X Y Z R G B PointSourceId ScanDirectionFlag NumberOfReturns ReturnNumber GpsTime Intensity Classification Nx Ny Nz
-2.22000003 7.76000023 -0.38999999 215 7 144 0.000000 0.000000 0.000000 0.000000 -8.844074 0.000000 29.000000 -0.328079 0.938708 0.105789
-2.22000003 7.75000000 -0.40000001 215 7 144 0.000000 0.000000 0.000000 0.000000 -8.844074 0.000000 29.000000 -0.491597 0.864926 -0.101169
-2.25999999 7.75000000 -0.28000000 215 7 144 0.000000 0.000000 0.000000 0.000000 -8.844074 0.000000 29.000000 -0.265739 0.963764 0.023267
-2.25000000 7.75000000 -0.28000000 215 7 144 0.000000 0.000000 0.000000 0.000000 -8.844074 0.000000 29.000000 -0.279444 0.952229 -0.123167
-2.25999999 7.75000000 -0.27000001 215 7 144 0.000000 0.000000 0.000000 0.000000 -8.844074 0.000000 29.000000 -0.346916 0.899029 0.267199
-2.26999998 7.73999977 -0.25000000 215 7 144 0.000000 0.000000 0.000000 0.000000 -8.844074 0.000000 29.000000 -0.506837 0.818736 -0.269793
-2.24000001 7.75000000 -0.28000000 215 7 144 0.000000 0.000000 0.000000 0.000000 -8.844074 0.000000 29.000000 -0.193915 0.961662 -0.193915
-2.24000001 7.75000000 -0.27000001 215 7 144 0.000000 0.000000 0.000000 0.000000 -8.844074 0.000000 29.000000 -0.206947 0.967893 0.142677
-2.24000001 7.75000000 -0.27000001 215 7 144 0.000000 0.000000 0.000000 0.000000 -8.844074 0.000000 29.000000 -0.206947 0.967893 0.142677
-2.24000001 7.73999977 -0.25999999 215 7 144 0.000000 0.000000 0.000000 0.000000 -8.844074 0.000000 29.000000 -0.401866 0.860702 0.312563
-2.25000000 7.75000000 -0.28000000 215 7 144 0.000000 0.000000 0.000000 0.000000 -8.844074 0.000000 29.000000 -0.279444 0.952229 -0.123167
-2.23000002 7.76999998 -0.31999999 215 7 144 0.000000 0.000000 0.000000 0.000000 -8.844074 0.000000 29.000000 -0.249195 0.961917 -0.112331
-2.24000001 7.75000000 -0.31999999 215 7 144 0.000000 0.000000 0.000000 0.000000 -8.844074 0.000000 29.000000 -0.628439 0.759300 -0.168902
-2.25999999 7.73999977 -0.31999999 215 7 144 0.000000 0.000000 0.000000 0.000000 -8.844074 0.000000 29.000000 0.863398 -0.480639 -0.153396
-2.25999999 7.75000000 -0.31000000 215 7 144 0.000000 0.000000 0.000000 0.000000 -8.844074 0.000000 29.000000 -0.467990 0.870374 -0.153081
-2.24000001 7.75000000 -0.31000000 215 7 144 0.000000 0.000000 0.000000 0.000000 -8.844074 0.000000 29.000000 -0.543559 0.814577 0.202502
-2.26999998 7.73999977 -0.30000001 215 7 144 0.000000 0.000000 0.000000 0.000000 -8.844074 0.000000 29.000000 0.665421 -0.681532 0.304514
-2.26999998 7.71999979 -0.31999999 215 7 144 0.000000 0.000000 0.000000 0.000000 -8.844074 0.000000 29.000000 -0.598083 0.780704 0.181099
-2.25999999 7.73000002 -0.31000000 215 7 144 0.000000 0.000000 0.000000 0.000000 -8.844074 0.000000 29.000000 -0.692816 0.720809 0.020994
-2.26999998 7.71999979 -0.31999999 215 7 144 0.000000 0.000000 0.000000 0.000000 -8.844074 0.000000 29.000000 -0.598083 0.780704 0.181099
-2.26999998 7.71000004 -0.31000000 215 7 144 0.000000 0.000000 0.000000 0.000000 -8.844074 0.000000 29.000000 0.836304 -0.434627 -0.334208
-2.30999994 7.73999977 -0.25000000 215 7 144 0.000000 0.000000 0.000000 0.000000 -8.844074 0.000000 29.000000 -0.433234 0.898101 -0.075644
-2.27999997 7.75000000 -0.28000000 215 7 144 0.000000 0.000000 0.000000 0.000000 -8.844074 0.000000 29.000000 -0.349809 0.929649 0.115696
-2.28999996 7.69999981 -0.27000001 215 7 144 0.000000 0.000000 0.000000 0.000000 -8.844074 0.000000 29.000000 0.868683 -0.487310 -0.088987
-2.27999997 7.71000004 -0.31999999 215 7 144 0.000000 0.000000 0.000000 0.000000 -8.844074 0.000000 29.000000 0.893929 -0.399415 -0.203365
-2.27999997 7.71000004 -0.31000000 215 7 144 0.000000 0.000000 0.000000 0.000000 -8.844074 0.000000 29.000000 0.849098 -0.431509 -0.304685
-2.24000001 7.73999977 -0.37000000 215 7 144 0.000000 0.000000 0.000000 0.000000 -8.844074 0.000000 29.000000 -0.295955 0.953916 -0.049538
-2.25000000 7.73999977 -0.37000000 215 7 144 0.000000 0.000000 0.000000 0.000000 -8.844074 0.000000 29.000000 -0.298275 0.951638 -0.073600
-2.25999999 7.73999977 -0.34999999 215 7 144 0.000000 0.000000 0.000000 0.000000 -8.844074 0.000000 29.000000 -0.545511 0.827824 0.130864
-2.24000001 7.76000023 -0.33000001 215 7 144 0.000000 0.000000 0.000000 0.000000 -8.844074 0.000000 29.000000 -0.590074 0.755486 -0.284699
-2.24000001 7.76000023 -0.34000000 215 7 144 0.000000 0.000000 0.000000 0.000000 -8.844074 0.000000 29.000000 -0.550754 0.817877 -0.166577
-2.25999999 7.73999977 -0.37000000 215 7 144 0.000000 0.000000 0.000000 0.000000 -8.844074 0.000000 29.000000 -0.648536 0.726673 -0.226597
-2.25999999 7.73999977 -0.34000000 215 7 144 0.000000 0.000000 0.000000 0.000000 -8.844074 0.000000 29.000000 0.797332 -0.599077 0.073268
-2.25000000 7.73999977 -0.38000000 215 7 144 0.000000 0.000000 0.000000 0.000000 -8.844074 0.000000 29.000000 -0.344315 0.923326 0.170049
-2.24000001 7.76000023 -0.38000000 215 7 144 0.000000 0.000000 0.000000 0.000000 -8.844074 0.000000 29.000000 -0.223736 0.969521 0.099859
-2.24000001 7.75000000 -0.41000000 215 7 144 0.000000 0.000000 0.000000 0.000000 -8.844074 0.000000 29.000000 -0.462257 0.797273 0.388167
-2.25999999 7.73999977 -0.38999999 215 7 144 0.000000 0.000000 0.000000 0.000000 -8.844074 0.000000 29.000000 -0.491514 0.829527 0.265139
-2.24000001 7.75000000 -0.41000000 215 7 144 0.000000 0.000000 0.000000 0.000000 -8.844074 0.000000 29.000000 -0.462257 0.797273 0.388167
-2.25999999 7.73000002 -0.33000001 215 7 144 0.000000 0.000000 0.000000 0.000000 -8.844074 0.000000 29.000000 0.846938 -0.512273 -0.142380
-2.26999998 7.73000002 -0.34999999 215 7 144 0.000000 0.000000 0.000000 0.000000 -8.844074 0.000000 29.000000 0.719209 -0.636284 -0.279072
-2.26999998 7.73000002 -0.38000000 215 7 144 0.000000 0.000000 0.000000 0.000000 -8.844074 0.000000 29.000000 -0.477663 0.810916 0.338014
-2.26999998 7.69999981 -0.38999999 215 7 144 0.000000 0.000000 0.000000 0.000000 -8.844074 0.000000 29.000000 0.812078 -0.537790 0.226519
-2.25999999 7.73000002 -0.38000000 215 7 144 0.000000 0.000000 0.000000 0.000000 -8.844074 0.000000 29.000000 0.655755 -0.619047 -0.432165
-2.29999995 7.71999979 -0.37000000 215 7 144 0.000000 0.000000 0.000000 0.000000 -8.844074 0.000000 29.000000 0.743692 -0.668346 0.015348
-2.29999995 7.71000004 -0.38999999 215 7 144 0.000000 0.000000 0.000000 0.000000 -8.844074 0.000000 29.000000 0.771768 -0.628794 0.094830
-2.27999997 7.71999979 -0.40000001 215 7 144 0.000000 0.000000 0.000000 0.000000 -8.844074 0.000000 29.000000 0.763032 -0.582188 0.280783
-2.30999994 7.71000004 -0.41000000 215 7 144 0.000000 0.000000 0.000000 0.000000 -8.844074 0.000000 29.000000 0.897439 -0.429936 -0.098788
-2.16000009 7.78999996 -0.44999999 215 7 144 0.000000 0.000000 0.000000 0.000000 -8.844074 0.000000 29.000000 -0.063756 0.980393 0.186455
-2.19000006 7.78999996 -0.46000001 215 7 144 0.000000 0.000000 0.000000 0.000000 -8.844074 0.000000 29.000000 0.196241 0.924733 0.326127
-2.21000004 7.78000021 -0.43000001 215 7 144 0.000000 0.000000 0.000000 0.000000 -8.844074 0.000000 29.000000 -0.228240 0.947129 0.225507
-2.18000007 7.78000021 -0.52999997 215 7 144 0.000000 0.000000 0.000000 0.000000 -8.844074 0.000000 29.000000 -0.070857 0.952058 0.297599
-2.15000010 7.78000021 -0.57999998 215 7 144 0.000000 0.000000 0.000000 0.000000 -8.844074 0.000000 29.000000 0.341822 0.939696 0.011352
-2.17000008 7.75000000 -0.41999999 215 7 144 0.000000 0.000000 0.000000 0.000000 -8.844074 0.000000 29.000000 0.227501 0.920019 0.319074
-2.17000008 7.73999977 -0.44999999 215 7 144 0.000000 0.000000 0.000000 0.000000 -8.844074 0.000000 29.000000 0.035504 0.988388 0.147743
-2.16000009 7.76000023 -0.43000001 215 7 144 0.000000 0.000000 0.000000 0.000000 -8.844074 0.000000 29.000000 0.069524 0.961961 0.264192
-2.17000008 7.76000023 -0.47999999 215 7 144 0.000000 0.000000 0.000000 0.000000 -8.844074 0.000000 29.000000 0.230061 0.938369 0.257947
-2.15000010 7.75000000 -0.46000001 215 7 144 0.000000 0.000000 0.000000 0.000000 -8.844074 0.000000 29.000000 -0.035239 0.970883 -0.236949
-2.16000009 7.76999998 -0.47999999 215 7 144 0.000000 0.000000 0.000000 0.000000 -8.844074 0.000000 29.000000 0.125741 0.977292 -0.170559
-2.18000007 7.76000023 -0.47000000 215 7 144 0.000000 0.000000 0.000000 0.000000 -8.844074 0.000000 29.000000 -0.163287 0.973394 0.160756
-2.16000009 7.73000002 -0.43000001 215 7 144 0.000000 0.000000 0.000000 0.000000 -8.844074 0.000000 29.000000 0.286438 0.956066 -0.062380
-2.22000003 7.75000000 -0.41999999 215 7 144 0.000000 0.000000 0.000000 0.000000 -8.844074 0.000000 29.000000 -0.177549 0.916153 0.359359
-2.22000003 7.76000023 -0.41999999 215 7 144 0.000000 0.000000 0.000000 0.000000 -8.844074 0.000000 29.000000 -0.174131 0.980248 0.093763
-2.22000003 7.76000023 -0.44999999 215 7 144 0.000000 0.000000 0.000000 0.000000 -8.844074 0.000000 29.000000 -0.247073 0.963970 -0.098573
-2.22000003 7.75000000 -0.49000001 215 7 144 0.000000 0.000000 0.000000 0.000000 -8.844074 0.000000 29.000000 -0.511241 0.849155 -0.132544
-2.19000006 7.76999998 -0.49000001 215 7 144 0.000000 0.000000 0.000000 0.000000 -8.844074 0.000000 29.000000 -0.076441 0.979176 0.188070
-2.20000005 7.76999998 -0.47000000 215 7 144 0.000000 0.000000 0.000000 0.000000 -8.844074 0.000000 29.000000 -0.037956 0.968500 -0.246104
-2.22000003 7.76000023 -0.47999999 215 7 144 0.000000 0.000000 0.000000 0.000000 -8.844074 0.000000 29.000000 -0.540555 0.813130 0.215916
-2.15000010 7.75000000 -0.50999999 215 7 144 0.000000 0.000000 0.000000 0.000000 -8.844074 0.000000 29.000000 0.377417 0.877608 0.295568
-2.17000008 7.76000023 -0.52999997 215 7 144 0.000000 0.000000 0.000000 0.000000 -8.844074 0.000000 29.000000 -0.140893 0.948677 0.283127
-2.17000008 7.76999998 -0.54000002 215 7 144 0.000000 0.000000 0.000000 0.000000 -8.844074 0.000000 29.000000 -0.051101 0.963446 -0.262985
-2.15000010 7.76999998 -0.54000002 215 7 144 0.000000 0.000000 0.000000 0.000000 -8.844074 0.000000 29.000000 0.475005 0.871081 -0.124850
-2.18000007 7.76000023 -0.55000001 215 7 144 0.000000 0.000000 0.000000 0.000000 -8.844074 0.000000 29.000000 0.012653 0.983477 -0.180592
-2.15000010 7.76000023 -0.55000001 215 7 144 0.000000 0.000000 0.000000 0.000000 -8.844074 0.000000 29.000000 0.340224 0.925466 -0.166612
-2.16000009 7.76999998 -0.55000001 215 7 144 0.000000 0.000000 0.000000 0.000000 -8.844074 0.000000 29.000000 0.082725 0.944110 -0.319080
-2.22000003 7.75000000 -0.50000000 215 7 144 0.000000 0.000000 0.000000 0.000000 -8.844074 0.000000 29.000000 -0.355504 0.933686 0.042973
-2.19000006 7.76999998 -0.50000000 215 7 144 0.000000 0.000000 0.000000 0.000000 -8.844074 0.000000 29.000000 0.115128 0.982827 0.144213
-2.21000004 7.76000023 -0.50000000 215 7 144 0.000000 0.000000 0.000000 0.000000 -8.844074 0.000000 29.000000 -0.468942 0.883107 0.014696
-2.20000005 7.76999998 -0.50000000 215 7 144 0.000000 0.000000 0.000000 0.000000 -8.844074 0.000000 29.000000 -0.396155 0.900353 0.180071
-2.19000006 7.76999998 -0.50999999 215 7 144 0.000000 0.000000 0.000000 0.000000 -8.844074 0.000000 29.000000 0.022501 0.977014 -0.211983
-2.22000003 7.76000023 -0.50999999 215 7 144 0.000000 0.000000 0.000000 0.000000 -8.844074 0.000000 29.000000 -0.151625 0.958537 -0.241282
-2.19000006 7.76999998 -0.56999999 215 7 144 0.000000 0.000000 0.000000 0.000000 -8.844074 0.000000 29.000000 0.027856 0.970121 0.241016
-2.21000004 7.76000023 -0.57999998 215 7 144 0.000000 0.000000 0.000000 0.000000 -8.844074 0.000000 29.000000 -0.302685 0.933161 0.193886
-2.21000004 7.76999998 -0.56999999 215 7 144 0.000000 0.000000 0.000000 0.000000 -8.844074 0.000000 29.000000 -0.434409 0.899750 -0.041692
-2.21000004 7.76999998 -0.56999999 215 7 144 0.000000 0.000000 0.000000 0.000000 -8.844074 0.000000 29.000000 -0.434409 0.899750 -0.041692
-2.24000001 7.76000023 -0.44000000 215 7 144 0.000000 0.000000 0.000000 0.000000 -8.844074 0.000000 29.000000 -0.387544 0.860007 -0.331960
-2.23000002 7.76000023 -0.43000001 215 7 144 0.000000 0.000000 0.000000 0.000000 -8.844074 0.000000 29.000000 -0.246269 0.948340 0.200009
-2.24000001 7.76000023 -0.49000001 215 7 144 0.000000 0.000000 0.000000 0.000000 -8.844074 0.000000 29.000000 -0.653253 0.756766 0.023780
-2.26999998 7.71000004 -0.47999999 215 7 144 0.000000 0.000000 0.000000 0.000000 -8.844074 0.000000 29.000000 0.843937 -0.489392 0.219696
-2.27999997 7.73999977 -0.43000001 215 7 144 0.000000 0.000000 0.000000 0.000000 -8.844074 0.000000 29.000000 0.875194 -0.460094 -0.149494
-2.27999997 7.71000004 -0.44000000 215 7 144 0.000000 0.000000 0.000000 0.000000 -8.844074 0.000000 29.000000 0.927030 -0.288189 -0.239921
-2.28999996 7.71000004 -0.44000000 215 7 144 0.000000 0.000000 0.000000 0.000000 -8.844074 0.000000 29.000000 -0.679001 0.669324 0.301599
-2.27999997 7.69999981 -0.46000001 215 7 144 0.000000 0.000000 0.000000 0.000000 -8.844074 0.000000 29.000000 0.776516 -0.610658 0.155303
-2.24000001 7.75000000 -0.52999997 215 7 144 0.000000 0.000000 0.000000 0.000000 -8.844074 0.000000 29.000000 -0.315978 0.942600 0.107992
-2.24000001 7.76000023 -0.50000000 215 7 144 0.000000 0.000000 0.000000 0.000000 -8.844074 0.000000 29.000000 -0.325107 0.944481 0.047545
-2.25000000 7.73999977 -0.50000000 215 7 144 0.000000 0.000000 0.000000 0.000000 -8.844074 0.000000 29.000000 0.724780 -0.683948 -0.083124
-2.25999999 7.73999977 -0.52999997 215 7 144 0.000000 0.000000 0.000000 0.000000 -8.844074 0.000000 29.000000 0.751533 -0.546125 -0.370061
-2.24000001 7.75000000 -0.51999998 215 7 144 0.000000 0.000000 0.000000 0.000000 -8.844074 0.000000 29.000000 -0.409167 0.894962 -0.177836
-2.25999999 7.73999977 -0.56999999 215 7 144 0.000000 0.000000 0.000000 0.000000 -8.844074 0.000000 29.000000 0.691358 -0.720105 -0.058931
-2.23000002 7.75000000 -0.57999998 215 7 144 0.000000 0.000000 0.000000 0.000000 -8.844074 0.000000 29.000000 -0.295949 0.944606 -0.141894
-2.24000001 7.73000002 -0.51999998 215 7 144 0.000000 0.000000 0.000000 0.000000 -8.844074 0.000000 29.000000 -0.467687 0.877091 0.109459
-2.25999999 7.73000002 -0.50000000 215 7 144 0.000000 0.000000 0.000000 0.000000 -8.844074 0.000000 29.000000 0.811373 -0.533188 0.239548
-2.25999999 7.73000002 -0.55000001 215 7 144 0.000000 0.000000 0.000000 0.000000 -8.844074 0.000000 29.000000 0.821581 -0.558909 -0.112365
-2.26999998 7.73000002 -0.56999999 215 7 144 0.000000 0.000000 0.000000 0.000000 -8.844074 0.000000 29.000000 0.927436 -0.358173 -0.107588
-2.26999998 7.71000004 -0.57999998 215 7 144 0.000000 0.000000 0.000000 0.000000 -8.844074 0.000000 29.000000 0.778406 -0.626932 -0.032258
-2.26999998 7.71999979 -0.56000000 215 7 144 0.000000 0.000000 0.000000 0.000000 -8.844074 0.000000 29.000000 0.873068 -0.438765 0.212690
-2.27999997 7.69999981 -0.54000002 215 7 144 0.000000 0.000000 0.000000 0.000000 -8.844074 0.000000 29.000000 0.901248 -0.300416 -0.312255
-2.27999997 7.71000004 -0.55000001 215 7 144 0.000000 0.000000 0.000000 0.000000 -8.844074 0.000000 29.000000 -0.681806 0.730201 0.044125
-2.01999998 7.69999981 -0.63999999 215 7 144 0.000000 0.000000 0.000000 0.000000 -8.844074 0.000000 29.000000 0.888082 0.458234 -0.036497
-2.14000010 7.78000021 -0.60000002 215 7 144 0.000000 0.000000 0.000000 0.000000 -8.844074 0.000000 29.000000 0.589059 0.807333 -0.034980
-2.13000011 7.78999996 -0.75000000 215 7 144 0.000000 0.000000 0.000000 0.000000 -8.844074 0.000000 29.000000 0.301830 0.930758 0.206367
-2.10999990 7.78999996 -0.73000002 215 7 144 0.000000 0.000000 0.000000 0.000000 -8.844074 0.000000 29.000000 0.404110 0.847227 -0.344820
-2.06999993 7.69999981 -0.63999999 215 7 144 0.000000 0.000000 0.000000 0.000000 -8.844074 0.000000 29.000000 0.678178 0.709074 0.193103
-2.13000011 7.76000023 -0.61000001 215 7 144 0.000000 0.000000 0.000000 0.000000 -8.844074 0.000000 29.000000 0.604783 0.792424 0.079387
-2.13000011 7.76000023 -0.62000000 215 7 144 0.000000 0.000000 0.000000 0.000000 -8.844074 0.000000 29.000000 0.181365 0.937286 0.297661
-2.14000010 7.75000000 -0.66000003 215 7 144 0.000000 0.000000 0.000000 0.000000 -8.844074 0.000000 29.000000 0.324082 0.924130 -0.202374
-2.13000011 7.76999998 -0.64999998 215 7 144 0.000000 0.000000 0.000000 0.000000 -8.844074 0.000000 29.000000 0.591473 0.805795 0.029226
-2.13000011 7.76999998 -0.64999998 215 7 144 0.000000 0.000000 0.000000 0.000000 -8.844074 0.000000 29.000000 0.591473 0.805795 0.029226
-2.10999990 7.73000002 -0.58999997 215 7 144 0.000000 0.000000 0.000000 0.000000 -8.844074 0.000000 29.000000 0.853611 0.520825 0.009470
-2.06999993 7.71000004 -0.69000000 215 7 144 0.000000 0.000000 0.000000 0.000000 -8.844074 0.000000 29.000000 0.670560 0.741145 0.032469
-2.10999990 7.76000023 -0.67000002 215 7 144 0.000000 0.000000 0.000000 0.000000 -8.844074 0.000000 29.000000 0.661251 0.749040 -0.041063
-2.05999994 7.69999981 -0.68000001 215 7 144 0.000000 0.000000 0.000000 0.000000 -8.844074 0.000000 29.000000 0.951882 0.256431 -0.167821
-2.11999989 7.75000000 -0.67000002 215 7 144 0.000000 0.000000 0.000000 0.000000 -8.844074 0.000000 29.000000 0.676482 0.727032 0.117455
-2.13000011 7.75000000 -0.69000000 215 7 144 0.000000 0.000000 0.000000 0.000000 -8.844074 0.000000 29.000000 0.114412 0.990411 -0.077430
-2.13000011 7.78000021 -0.91000003 215 7 144 0.000000 0.000000 0.000000 0.000000 -8.844074 0.000000 29.000000 0.491898 0.867479 -0.074275
-2.06999993 7.71000004 -0.76999998 215 7 144 0.000000 0.000000 0.000000 0.000000 -8.844074 0.000000 29.000000 0.841703 0.488583 -0.229832
-2.07999992 7.71000004 -0.76999998 215 7 144 0.000000 0.000000 0.000000 0.000000 -8.844074 0.000000 29.000000 0.889009 0.440960 0.123355
-2.08999991 7.75000000 -0.92000002 215 7 144 0.000000 0.000000 0.000000 0.000000 -8.844074 0.000000 29.000000 0.742716 0.559893 0.367277
-2.08999991 7.75000000 -0.92000002 215 7 144 0.000000 0.000000 0.000000 0.000000 -8.844074 0.000000 29.000000 0.742716 0.559893 0.367277
-2.09999990 7.75000000 -0.89999998 215 7 144 0.000000 0.000000 0.000000 0.000000 -8.844074 0.000000 29.000000 0.878325 0.459939 0.130388
-2.08999991 7.71999979 -0.87000000 215 7 144 0.000000 0.000000 0.000000 0.000000 -8.844074 0.000000 29.000000 0.728826 0.657946 0.189525
-2.08999991 7.71000004 -0.83999997 215 7 144 0.000000 0.000000 0.000000 0.000000 -8.844074 0.000000 29.000000 0.709525 0.638734 -0.297647
-2.07999992 7.73000002 -0.91000003 215 7 144 0.000000 0.000000 0.000000 0.000000 -8.844074 0.000000 29.000000 0.615891 0.787050 0.035074
-2.07999992 7.73000002 -0.91000003 215 7 144 0.000000 0.000000 0.000000 0.000000 -8.844074 0.000000 29.000000 0.615891 0.787050 0.035074
-2.16000009 7.80000019 -0.63000000 215 7 144 0.000000 0.000000 0.000000 0.000000 -8.844074 0.000000 29.000000 0.152906 0.983653 0.095115
-2.17000008 7.78999996 -0.75000000 215 7 144 0.000000 0.000000 0.000000 0.000000 -8.844074 0.000000 29.000000 -0.246358 0.939500 -0.238007
-2.15000010 7.78999996 -0.69000000 215 7 144 0.000000 0.000000 0.000000 0.000000 -8.844074 0.000000 29.000000 -0.114006 0.988444 0.099902
-2.15000010 7.78000021 -0.75000000 215 7 144 0.000000 0.000000 0.000000 0.000000 -8.844074 0.000000 29.000000 0.279288 0.916008 0.287971
-2.20000005 7.78999996 -0.73000002 215 7 144 0.000000 0.000000 0.000000 0.000000 -8.844074 0.000000 29.000000 -0.456118 0.872638 0.174528
-2.17000008 7.76999998 -0.61000001 215 7 144 0.000000 0.000000 0.000000 0.000000 -8.844074 0.000000 29.000000 -0.227313 0.922118 0.313091
-2.20000005 7.76999998 -0.58999997 215 7 144 0.000000 0.000000 0.000000 0.000000 -8.844074 0.000000 29.000000 -0.328897 0.917752 0.222616
-2.21000004 7.76999998 -0.60000002 215 7 144 0.000000 0.000000 0.000000 0.000000 -8.844074 0.000000 29.000000 -0.549848 0.811826 0.196483
-2.20000005 7.76999998 -0.58999997 215 7 144 0.000000 0.000000 0.000000 0.000000 -8.844074 0.000000 29.000000 -0.328897 0.917752 0.222616
-2.18000007 7.76999998 -0.61000001 215 7 144 0.000000 0.000000 0.000000 0.000000 -8.844074 0.000000 29.000000 0.250719 0.967410 0.035468
-2.17000008 7.76999998 -0.60000002 215 7 144 0.000000 0.000000 0.000000 0.000000 -8.844074 0.000000 29.000000 0.111840 0.993276 0.029898
-2.15000010 7.76000023 -0.58999997 215 7 144 0.000000 0.000000 0.000000 0.000000 -8.844074 0.000000 29.000000 0.346928 0.927444 -0.139600
-2.21000004 7.76000023 -0.74000001 215 7 144 0.000000 0.000000 0.000000 0.000000 -8.844074 0.000000 29.000000 -0.330521 0.882897 0.333539
-2.22000003 7.76999998 -0.70999998 215 7 144 0.000000 0.000000 0.000000 0.000000 -8.844074 0.000000 29.000000 -0.240585 0.895921 0.373423
-2.21000004 7.76999998 -0.73000002 215 7 144 0.000000 0.000000 0.000000 0.000000 -8.844074 0.000000 29.000000 -0.329740 0.886836 -0.323718
-2.16000009 7.76000023 -0.75000000 215 7 144 0.000000 0.000000 0.000000 0.000000 -8.844074 0.000000 29.000000 -0.167647 0.974369 0.150000
-2.17000008 7.76000023 -0.68000001 215 7 144 0.000000 0.000000 0.000000 0.000000 -8.844074 0.000000 29.000000 -0.076881 0.977490 -0.196474
-2.22000003 7.76000023 -0.69999999 215 7 144 0.000000 0.000000 0.000000 0.000000 -8.844074 0.000000 29.000000 -0.269588 0.903047 0.334407
-2.16000009 7.76000023 -0.72000003 215 7 144 0.000000 0.000000 0.000000 0.000000 -8.844074 0.000000 29.000000 0.167710 0.983663 0.065419
-2.19000006 7.75000000 -0.73000002 215 7 144 0.000000 0.000000 0.000000 0.000000 -8.844074 0.000000 29.000000 -0.296049 0.955037 -0.016103
-2.16000009 7.76000023 -0.69999999 215 7 144 0.000000 0.000000 0.000000 0.000000 -8.844074 0.000000 29.000000 0.024532 0.997292 -0.069330
-2.22000003 7.76999998 -0.75000000 215 7 144 0.000000 0.000000 0.000000 0.000000 -8.844074 0.000000 29.000000 -0.125634 0.970810 0.204314
-2.19000006 7.76999998 -0.75000000 215 7 144 0.000000 0.000000 0.000000 0.000000 -8.844074 0.000000 29.000000 -0.344496 0.860467 0.375392
-2.22000003 7.76000023 -0.75000000 215 7 144 0.000000 0.000000 0.000000 0.000000 -8.844074 0.000000 29.000000 -0.225284 0.936117 0.270061
-2.24000001 7.78000021 -0.60000002 215 7 144 0.000000 0.000000 0.000000 0.000000 -8.844074 0.000000 29.000000 0.665374 -0.723767 -0.182863
-2.24000001 7.75000000 -0.62000000 215 7 144 0.000000 0.000000 0.000000 0.000000 -8.844074 0.000000 29.000000 0.708817 -0.693895 -0.126841
-2.23000002 7.76000023 -0.64999998 215 7 144 0.000000 0.000000 0.000000 0.000000 -8.844074 0.000000 29.000000 -0.429268 0.877846 -0.212406
-2.23000002 7.73999977 -0.66000003 215 7 144 0.000000 0.000000 0.000000 0.000000 -8.844074 0.000000 29.000000 -0.537132 0.809567 -0.236833
-2.24000001 7.76000023 -0.63000000 215 7 144 0.000000 0.000000 0.000000 0.000000 -8.844074 0.000000 29.000000 -0.448438 0.877887 -0.167982
-2.26999998 7.71000004 -0.62000000 215 7 144 0.000000 0.000000 0.000000 0.000000 -8.844074 0.000000 29.000000 0.863482 -0.498433 -0.077222
-2.25999999 7.71000004 -0.61000001 215 7 144 0.000000 0.000000 0.000000 0.000000 -8.844074 0.000000 29.000000 0.867398 -0.466834 -0.172301
-2.25999999 7.71999979 -0.61000001 215 7 144 0.000000 0.000000 0.000000 0.000000 -8.844074 0.000000 29.000000 0.822256 -0.534542 0.195343
-2.25000000 7.73000002 -0.61000001 215 7 144 0.000000 0.000000 0.000000 0.000000 -8.844074 0.000000 29.000000 0.909733 -0.414943 0.014399
-2.27999997 7.71000004 -0.61000001 215 7 144 0.000000 0.000000 0.000000 0.000000 -8.844074 0.000000 29.000000 0.676314 -0.682709 0.276601
-2.27999997 7.69999981 -0.62000000 215 7 144 0.000000 0.000000 0.000000 0.000000 -8.844074 0.000000 29.000000 0.774567 -0.625780 0.091898
-2.27999997 7.69999981 -0.66000003 215 7 144 0.000000 0.000000 0.000000 0.000000 -8.844074 0.000000 29.000000 0.968048 -0.211560 0.134629
-2.24000001 7.73999977 -0.69000000 215 7 144 0.000000 0.000000 0.000000 0.000000 -8.844074 0.000000 29.000000 -0.592297 0.757442 0.274712
-2.24000001 7.76000023 -0.69999999 215 7 144 0.000000 0.000000 0.000000 0.000000 -8.844074 0.000000 29.000000 -0.381314 0.914873 0.132692
-2.23000002 7.75000000 -0.72000003 215 7 144 0.000000 0.000000 0.000000 0.000000 -8.844074 0.000000 29.000000 -0.350120 0.892434 -0.284566
-2.23000002 7.75000000 -0.72000003 215 7 144 0.000000 0.000000 0.000000 0.000000 -8.844074 0.000000 29.000000 -0.350120 0.892434 -0.284566
-2.25999999 7.69999981 -0.75000000 215 7 144 0.000000 0.000000 0.000000 0.000000 -8.844074 0.000000 29.000000 0.752712 -0.637144 0.165749
-2.25999999 7.73000002 -0.74000001 215 7 144 0.000000 0.000000 0.000000 0.000000 -8.844074 0.000000 29.000000 -0.672455 0.733987 0.095228
-2.27999997 7.73999977 -0.69999999 215 7 144 0.000000 0.000000 0.000000 0.000000 -8.844074 0.000000 29.000000 0.729873 -0.655806 0.192884
-2.28999996 7.73999977 -0.73000002 215 7 144 0.000000 0.000000 0.000000 0.000000 -8.844074 0.000000 29.000000 0.938885 -0.273206 -0.209412
-2.28999996 7.71999979 -0.70999998 215 7 144 0.000000 0.000000 0.000000 0.000000 -8.844074 0.000000 29.000000 0.946077 -0.306513 0.104825
-2.28999996 7.71000004 -0.73000002 215 7 144 0.000000 0.000000 0.000000 0.000000 -8.844074 0.000000 29.000000 -0.701424 0.712579 -0.015339
-2.27999997 7.71999979 -0.74000001 215 7 144 0.000000 0.000000 0.000000 0.000000 -8.844074 0.000000 29.000000 0.862308 -0.501732 -0.068482
-2.15000010 7.78999996 -0.76999998 215 7 144 0.000000 0.000000 0.000000 0.000000 -8.844074 0.000000 29.000000 -0.191560 0.960442 0.202129
-2.19000006 7.78000021 -0.91000003 215 7 144 0.000000 0.000000 0.000000 0.000000 -8.844074 0.000000 29.000000 -0.140114 0.978319 0.152514
-2.19000006 7.78000021 -0.89999998 215 7 144 0.000000 0.000000 0.000000 0.000000 -8.844074 0.000000 29.000000 -0.314656 0.943968 0.099575
-2.18000007 7.78000021 -0.89999998 215 7 144 0.000000 0.000000 0.000000 0.000000 -8.844074 0.000000 29.000000 -0.328631 0.941021 0.080508
-2.20000005 7.78000021 -0.92000002 215 7 144 0.000000 0.000000 0.000000 0.000000 -8.844074 0.000000 29.000000 -0.118461 0.969343 -0.215268
-2.16000009 7.76000023 -0.79000002 215 7 144 0.000000 0.000000 0.000000 0.000000 -8.844074 0.000000 29.000000 0.328931 0.928005 -0.174963
-2.20000005 7.76999998 -0.75999999 215 7 144 0.000000 0.000000 0.000000 0.000000 -8.844074 0.000000 29.000000 0.036641 0.993746 -0.105481
-2.21000004 7.76999998 -0.76999998 215 7 144 0.000000 0.000000 0.000000 0.000000 -8.844074 0.000000 29.000000 -0.064006 0.997856 0.013641
-2.20000005 7.76999998 -0.76999998 215 7 144 0.000000 0.000000 0.000000 0.000000 -8.844074 0.000000 29.000000 -0.055416 0.984525 0.166249
-2.21000004 7.76999998 -0.77999997 215 7 144 0.000000 0.000000 0.000000 0.000000 -8.844074 0.000000 29.000000 -0.283603 0.958847 -0.013505
-2.21000004 7.76999998 -0.80000001 215 7 144 0.000000 0.000000 0.000000 0.000000 -8.844074 0.000000 29.000000 -0.214474 0.973191 -0.083062
-2.16000009 7.76999998 -0.79000002 215 7 144 0.000000 0.000000 0.000000 0.000000 -8.844074 0.000000 29.000000 0.490752 0.867605 -0.080151
-2.21000004 7.76000023 -0.81000000 215 7 144 0.000000 0.000000 0.000000 0.000000 -8.844074 0.000000 29.000000 -0.112268 0.978333 -0.173953
-2.19000006 7.76999998 -0.79000002 215 7 144 0.000000 0.000000 0.000000 0.000000 -8.844074 0.000000 29.000000 -0.211589 0.976656 -0.037058
-2.21000004 7.76999998 -0.81999999 215 7 144 0.000000 0.000000 0.000000 0.000000 -8.844074 0.000000 29.000000 -0.163690 0.973260 -0.161153
-2.21000004 7.76999998 -0.75999999 215 7 144 0.000000 0.000000 0.000000 0.000000 -8.844074 0.000000 29.000000 -0.209558 0.972499 0.101642
-2.15000010 7.73000002 -0.76999998 215 7 144 0.000000 0.000000 0.000000 0.000000 -8.844074 0.000000 29.000000 0.234921 0.968578 -0.081657
-2.22000003 7.76999998 -0.76999998 215 7 144 0.000000 0.000000 0.000000 0.000000 -8.844074 0.000000 29.000000 -0.116990 0.991572 -0.055655
-2.22000003 7.76000023 -0.85000002 215 7 144 0.000000 0.000000 0.000000 0.000000 -8.844074 0.000000 29.000000 -0.453871 0.837556 0.304140
-2.15000010 7.76000023 -0.89999998 215 7 144 0.000000 0.000000 0.000000 0.000000 -8.844074 0.000000 29.000000 0.332496 0.879064 -0.341605
-2.18000007 7.76999998 -0.83999997 215 7 144 0.000000 0.000000 0.000000 0.000000 -8.844074 0.000000 29.000000 0.018730 0.950251 -0.310923
-2.20000005 7.76999998 -0.88999999 215 7 144 0.000000 0.000000 0.000000 0.000000 -8.844074 0.000000 29.000000 -0.545951 0.837491 -0.023378
-2.21000004 7.76999998 -0.85000002 215 7 144 0.000000 0.000000 0.000000 0.000000 -8.844074 0.000000 29.000000 -0.482343 0.844481 0.232803
-2.20000005 7.76999998 -0.87000000 215 7 144 0.000000 0.000000 0.000000 0.000000 -8.844074 0.000000 29.000000 -0.148779 0.976443 -0.156281
-2.21000004 7.76999998 -0.88000000 215 7 144 0.000000 0.000000 0.000000 0.000000 -8.844074 0.000000 29.000000 -0.291462 0.946915 -0.135657
-2.20000005 7.76999998 -0.88999999 215 7 144 0.000000 0.000000 0.000000 0.000000 -8.844074 0.000000 29.000000 -0.545951 0.837491 -0.023378
-2.22000003 7.76000023 -0.89999998 215 7 144 0.000000 0.000000 0.000000 0.000000 -8.844074 0.000000 29.000000 -0.264746 0.960503 0.085691
-2.22000003 7.76000023 -0.86000001 215 7 144 0.000000 0.000000 0.000000 0.000000 -8.844074 0.000000 29.000000 -0.474560 0.854207 0.212422
-2.18000007 7.76999998 -0.86000001 215 7 144 0.000000 0.000000 0.000000 0.000000 -8.844074 0.000000 29.000000 -0.108805 0.938944 0.326414
-2.18000007 7.76999998 -0.85000002 215 7 144 0.000000 0.000000 0.000000 0.000000 -8.844074 0.000000 29.000000 -0.197893 0.980207 -0.005786
-2.25999999 7.75000000 -0.79000002 215 7 144 0.000000 0.000000 0.000000 0.000000 -8.844074 0.000000 29.000000 0.858879 -0.491413 -0.144362
-2.25999999 7.76000023 -0.76999998 215 7 144 0.000000 0.000000 0.000000 0.000000 -8.844074 0.000000 29.000000 0.840913 -0.538688 -0.051770
-2.26999998 7.73999977 -0.75999999 215 7 144 0.000000 0.000000 0.000000 0.000000 -8.844074 0.000000 29.000000 -0.567869 0.819620 -0.075811
-2.23000002 7.76000023 -0.75999999 215 7 144 0.000000 0.000000 0.000000 0.000000 -8.844074 0.000000 29.000000 -0.586836 0.790030 0.177416
-2.25000000 7.73999977 -0.75999999 215 7 144 0.000000 0.000000 0.000000 0.000000 -8.844074 0.000000 29.000000 -0.654591 0.748734 0.104440
-2.26999998 7.73999977 -0.79000002 215 7 144 0.000000 0.000000 0.000000 0.000000 -8.844074 0.000000 29.000000 0.773986 -0.597870 0.208559
-2.25999999 7.73999977 -0.75999999 215 7 144 0.000000 0.000000 0.000000 0.000000 -8.844074 0.000000 29.000000 -0.626968 0.774661 0.082534
-2.23000002 7.76000023 -0.81999999 215 7 144 0.000000 0.000000 0.000000 0.000000 -8.844074 0.000000 29.000000 -0.212266 0.932001 0.293798
-2.24000001 7.76000023 -0.82999998 215 7 144 0.000000 0.000000 0.000000 0.000000 -8.844074 0.000000 29.000000 -0.217133 0.953496 0.209041
-2.24000001 7.76000023 -0.82999998 215 7 144 0.000000 0.000000 0.000000 0.000000 -8.844074 0.000000 29.000000 -0.217133 0.953496 0.209041
-2.25999999 7.73000002 -0.76999998 215 7 144 0.000000 0.000000 0.000000 0.000000 -8.844074 0.000000 29.000000 0.834436 -0.473935 0.281253
-2.26999998 7.69999981 -0.81999999 215 7 144 0.000000 0.000000 0.000000 0.000000 -8.844074 0.000000 29.000000 0.925754 -0.343851 -0.157309
-2.26999998 7.71000004 -0.81000000 215 7 144 0.000000 0.000000 0.000000 0.000000 -8.844074 0.000000 29.000000 0.990994 -0.133679 -0.007734
-2.25999999 7.69999981 -0.80000001 215 7 144 0.000000 0.000000 0.000000 0.000000 -8.844074 0.000000 29.000000 0.884242 -0.454147 -0.108939
-2.25999999 7.73000002 -0.81999999 215 7 144 0.000000 0.000000 0.000000 0.000000 -8.844074 0.000000 29.000000 0.901457 -0.431364 0.036058
-2.25999999 7.71000004 -0.81999999 215 7 144 0.000000 0.000000 0.000000 0.000000 -8.844074 0.000000 29.000000 0.952780 -0.303660 0.001229
-2.26999998 7.73000002 -0.80000001 215 7 144 0.000000 0.000000 0.000000 0.000000 -8.844074 0.000000 29.000000 0.763837 -0.575668 0.291821
-2.26999998 7.71999979 -0.82999998 215 7 144 0.000000 0.000000 0.000000 0.000000 -8.844074 0.000000 29.000000 0.870897 -0.489623 -0.042516
-2.25999999 7.71999979 -0.81999999 215 7 144 0.000000 0.000000 0.000000 0.000000 -8.844074 0.000000 29.000000 0.917636 -0.377850 -0.123182
-2.25999999 7.73000002 -0.81999999 215 7 144 0.000000 0.000000 0.000000 0.000000 -8.844074 0.000000 29.000000 0.901457 -0.431364 0.036058
-2.24000001 7.75000000 -0.85000002 215 7 144 0.000000 0.000000 0.000000 0.000000 -8.844074 0.000000 29.000000 0.815237 -0.545010 -0.195839
-2.25999999 7.73999977 -0.86000001 215 7 144 0.000000 0.000000 0.000000 0.000000 -8.844074 0.000000 29.000000 -0.498200 0.866018 -0.042546
-2.23000002 7.76999998 -0.86000001 215 7 144 0.000000 0.000000 0.000000 0.000000 -8.844074 0.000000 29.000000 -0.504067 0.863536 0.014865
-2.23000002 7.76000023 -0.88000000 215 7 144 0.000000 0.000000 0.000000 0.000000 -8.844074 0.000000 29.000000 -0.485248 0.872896 0.050862
-2.25999999 7.76000023 -0.89999998 215 7 144 0.000000 0.000000 0.000000 0.000000 -8.844074 0.000000 29.000000 0.834890 -0.531562 0.142830
-2.24000001 7.75000000 -0.91000003 215 7 144 0.000000 0.000000 0.000000 0.000000 -8.844074 0.000000 29.000000 0.774362 -0.632558 0.015293
-2.25999999 7.71999979 -0.87000000 215 7 144 0.000000 0.000000 0.000000 0.000000 -8.844074 0.000000 29.000000 0.934043 -0.289875 0.208654
-2.25000000 7.73000002 -0.83999997 215 7 144 0.000000 0.000000 0.000000 0.000000 -8.844074 0.000000 29.000000 0.717683 -0.647974 0.255071
-2.25999999 7.69999981 -0.86000001 215 7 144 0.000000 0.000000 0.000000 0.000000 -8.844074 0.000000 29.000000 0.885638 -0.461298 -0.053385
-2.26999998 7.71999979 -0.83999997 215 7 144 0.000000 0.000000 0.000000 0.000000 -8.844074 0.000000 29.000000 0.889409 -0.432491 0.147995
-2.26999998 7.71000004 -0.83999997 215 7 144 0.000000 0.000000 0.000000 0.000000 -8.844074 0.000000 29.000000 0.908316 -0.383574 0.166833
-2.26999998 7.71999979 -0.83999997 215 7 144 0.000000 0.000000 0.000000 0.000000 -8.844074 0.000000 29.000000 0.889409 -0.432491 0.147995
-2.25000000 7.73000002 -0.85000002 215 7 144 0.000000 0.000000 0.000000 0.000000 -8.844074 0.000000 29.000000 0.708861 -0.703133 0.055850
-2.25999999 7.71999979 -0.85000002 215 7 144 0.000000 0.000000 0.000000 0.000000 -8.844074 0.000000 29.000000 0.905609 -0.421182 0.049788
-2.26999998 7.69999981 -0.91000003 215 7 144 0.000000 0.000000 0.000000 0.000000 -8.844074 0.000000 29.000000 0.967901 -0.192546 -0.161532
-2.26999998 7.71000004 -0.91000003 215 7 144 0.000000 0.000000 0.000000 0.000000 -8.844074 0.000000 29.000000 0.801573 -0.438536 -0.406409
-2.26999998 7.69999981 -0.88000000 215 7 144 0.000000 0.000000 0.000000 0.000000 -8.844074 0.000000 29.000000 0.807333 -0.589059 0.034980
-2.26999998 7.69999981 -0.89999998 215 7 144 0.000000 0.000000 0.000000 0.000000 -8.844074 0.000000 29.000000 0.985881 -0.123086 0.113526
-2.25999999 7.71999979 -0.89999998 215 7 144 0.000000 0.000000 0.000000 0.000000 -8.844074 0.000000 29.000000 0.810313 -0.534528 -0.240150
-2.26999998 7.69999981 -0.91000003 215 7 144 0.000000 0.000000 0.000000 0.000000 -8.844074 0.000000 29.000000 0.967901 -0.192546 -0.161532
-2.27999997 7.69999981 -0.88000000 215 7 144 0.000000 0.000000 0.000000 0.000000 -8.844074 0.000000 29.000000 0.836568 -0.505585 0.211040
-2.03999996 7.63000011 -0.27000001 215 7 144 0.000000 0.000000 0.000000 0.000000 -8.844074 0.000000 29.000000 0.950019 0.272778 -0.151842
-2.07999992 7.67000008 -0.25000000 215 7 144 0.000000 0.000000 0.000000 0.000000 -8.844074 0.000000 29.000000 0.998472 0.034647 -0.043047
-2.07999992 7.65999985 -0.25999999 215 7 144 0.000000 0.000000 0.000000 0.000000 -8.844074 0.000000 29.000000 0.932207 0.291051 0.215125
-2.06999993 7.67000008 -0.28000000 215 7 144 0.000000 0.000000 0.000000 0.000000 -8.844074 0.000000 29.000000 0.966735 -0.015729 0.255296
-2.06999993 7.67999983 -0.31999999 215 7 144 0.000000 0.000000 0.000000 0.000000 -8.844074 0.000000 29.000000 0.951608 0.269020 -0.148563
-2.06999993 7.65999985 -0.30000001 215 7 144 0.000000 0.000000 0.000000 0.000000 -8.844074 0.000000 29.000000 0.903901 0.274845 -0.327756
-2.06999993 7.67999983 -0.28999999 215 7 144 0.000000 0.000000 0.000000 0.000000 -8.844074 0.000000 29.000000 0.962193 0.109780 -0.249266
-2.08999991 7.65000010 -0.27000001 215 7 144 0.000000 0.000000 0.000000 0.000000 -8.844074 0.000000 29.000000 0.973381 -0.158222 -0.165817
-2.09999990 7.61999989 -0.25000000 215 7 144 0.000000 0.000000 0.000000 0.000000 -8.844074 0.000000 29.000000 0.946979 -0.295180 0.126887
-2.08999991 7.63000011 -0.28999999 215 7 144 0.000000 0.000000 0.000000 0.000000 -8.844074 0.000000 29.000000 0.949885 -0.057841 -0.307202
-2.07999992 7.61000013 -0.30000001 215 7 144 0.000000 0.000000 0.000000 0.000000 -8.844074 0.000000 29.000000 0.950879 0.106530 -0.290656
-2.08999991 7.63999987 -0.31000000 215 7 144 0.000000 0.000000 0.000000 0.000000 -8.844074 0.000000 29.000000 0.997743 -0.024387 0.062558
-2.10999990 7.67999983 -0.31000000 215 7 144 0.000000 0.000000 0.000000 0.000000 -8.844074 0.000000 29.000000 0.973389 0.214518 0.080599
-2.10999990 7.67000008 -0.28999999 215 7 144 0.000000 0.000000 0.000000 0.000000 -8.844074 0.000000 29.000000 0.872638 0.456118 0.174528
-2.11999989 7.63000011 -0.28000000 215 7 144 0.000000 0.000000 0.000000 0.000000 -8.844074 0.000000 29.000000 0.972342 0.050020 0.228141
-2.11999989 7.61000013 -0.25000000 215 7 144 0.000000 0.000000 0.000000 0.000000 -8.844074 0.000000 29.000000 0.916579 -0.361248 0.171416
-2.10999990 7.61999989 -0.31999999 215 7 144 0.000000 0.000000 0.000000 0.000000 -8.844074 0.000000 29.000000 0.832468 -0.550753 -0.060569
-2.09999990 7.69000006 -0.37000000 215 7 144 0.000000 0.000000 0.000000 0.000000 -8.844074 0.000000 29.000000 0.858653 0.422414 -0.290314
-2.09999990 7.65999985 -0.36000001 215 7 144 0.000000 0.000000 0.000000 0.000000 -8.844074 0.000000 29.000000 0.987348 0.026253 -0.156378
-2.08999991 7.67000008 -0.41000000 215 7 144 0.000000 0.000000 0.000000 0.000000 -8.844074 0.000000 29.000000 0.860135 0.473891 0.188665
-2.08999991 7.65999985 -0.41000000 215 7 144 0.000000 0.000000 0.000000 0.000000 -8.844074 0.000000 29.000000 0.959701 0.072647 0.271469
-2.09999990 7.67999983 -0.41000000 215 7 144 0.000000 0.000000 0.000000 0.000000 -8.844074 0.000000 29.000000 0.970005 0.126190 0.207767
-2.09999990 7.63000011 -0.34000000 215 7 144 0.000000 0.000000 0.000000 0.000000 -8.844074 0.000000 29.000000 0.892883 -0.401870 -0.203127
-2.09999990 7.63000011 -0.34000000 215 7 144 0.000000 0.000000 0.000000 0.000000 -8.844074 0.000000 29.000000 0.892883 -0.401870 -0.203127
-2.09999990 7.63000011 -0.33000001 215 7 144 0.000000 0.000000 0.000000 0.000000 -8.844074 0.000000 29.000000 0.953023 -0.294524 -0.070737
-2.08999991 7.65000010 -0.38999999 215 7 144 0.000000 0.000000 0.000000 0.000000 -8.844074 0.000000 29.000000 0.881905 0.220847 0.416497
-2.08999991 7.65000010 -0.41000000 215 7 144 0.000000 0.000000 0.000000 0.000000 -8.844074 0.000000 29.000000 0.990221 -0.028228 0.136621
-2.10999990 7.61999989 -0.34000000 215 7 144 0.000000 0.000000 0.000000 0.000000 -8.844074 0.000000 29.000000 0.929331 -0.315384 -0.192034
-2.14000010 7.57000017 -0.25999999 215 7 144 0.000000 0.000000 0.000000 0.000000 -8.844074 0.000000 29.000000 0.793125 -0.584646 0.170711
-2.14000010 7.57000017 -0.25999999 215 7 144 0.000000 0.000000 0.000000 0.000000 -8.844074 0.000000 29.000000 0.793125 -0.584646 0.170711
-2.13000011 7.59999990 -0.31999999 215 7 144 0.000000 0.000000 0.000000 0.000000 -8.844074 0.000000 29.000000 0.777140 -0.622587 -0.091857
-2.14000010 7.57999992 -0.31999999 215 7 144 0.000000 0.000000 0.000000 0.000000 -8.844074 0.000000 29.000000 -0.656401 0.688657 0.308041
-2.14000010 7.57000017 -0.28999999 215 7 144 0.000000 0.000000 0.000000 0.000000 -8.844074 0.000000 29.000000 -0.558850 0.780490 -0.280217
-2.11999989 7.59000015 -0.31000000 215 7 144 0.000000 0.000000 0.000000 0.000000 -8.844074 0.000000 29.000000 0.881431 -0.442894 0.164088
-2.11999989 7.59999990 -0.33000001 215 7 144 0.000000 0.000000 0.000000 0.000000 -8.844074 0.000000 29.000000 0.951271 -0.282595 0.123387
-2.10999990 7.59999990 -0.34999999 215 7 144 0.000000 0.000000 0.000000 0.000000 -8.844074 0.000000 29.000000 0.995003 -0.052019 -0.085223
-2.10999990 7.57999992 -0.36000001 215 7 144 0.000000 0.000000 0.000000 0.000000 -8.844074 0.000000 29.000000 0.857044 -0.507404 -0.089542
-2.08999991 7.67000008 -0.44999999 215 7 144 0.000000 0.000000 0.000000 0.000000 -8.844074 0.000000 29.000000 0.945555 0.190206 -0.264099
-2.08999991 7.67999983 -0.46000001 215 7 144 0.000000 0.000000 0.000000 0.000000 -8.844074 0.000000 29.000000 0.941626 0.208789 0.264098
-2.08999991 7.67000008 -0.49000001 215 7 144 0.000000 0.000000 0.000000 0.000000 -8.844074 0.000000 29.000000 0.978984 -0.086776 0.184553
-2.08999991 7.65999985 -0.47000000 215 7 144 0.000000 0.000000 0.000000 0.000000 -8.844074 0.000000 29.000000 0.917201 0.049255 0.395368
-2.08999991 7.63999987 -0.43000001 215 7 144 0.000000 0.000000 0.000000 0.000000 -8.844074 0.000000 29.000000 0.981869 0.024518 -0.187968
-2.07999992 7.61000013 -0.49000001 215 7 144 0.000000 0.000000 0.000000 0.000000 -8.844074 0.000000 29.000000 0.867973 -0.495791 -0.028525
-2.08999991 7.63999987 -0.46000001 215 7 144 0.000000 0.000000 0.000000 0.000000 -8.844074 0.000000 29.000000 0.999936 0.008919 -0.006937
-2.10999990 7.61000013 -0.41999999 215 7 144 0.000000 0.000000 0.000000 0.000000 -8.844074 0.000000 29.000000 0.945980 -0.322117 -0.036922
-2.11999989 7.61999989 -0.49000001 215 7 144 0.000000 0.000000 0.000000 0.000000 -8.844074 0.000000 29.000000 0.898212 -0.205264 -0.388692
-2.07999992 7.65999985 -0.52999997 215 7 144 0.000000 0.000000 0.000000 0.000000 -8.844074 0.000000 29.000000 0.986847 -0.105691 -0.122317
-2.06999993 7.67000008 -0.56999999 215 7 144 0.000000 0.000000 0.000000 0.000000 -8.844074 0.000000 29.000000 0.911011 0.326918 -0.251363
-2.07999992 7.61000013 -0.51999998 215 7 144 0.000000 0.000000 0.000000 0.000000 -8.844074 0.000000 29.000000 0.960907 -0.264154 0.082947
-2.06999993 7.61999989 -0.50000000 215 7 144 0.000000 0.000000 0.000000 0.000000 -8.844074 0.000000 29.000000 0.885855 -0.463637 0.017370
-2.06999993 7.61999989 -0.51999998 215 7 144 0.000000 0.000000 0.000000 0.000000 -8.844074 0.000000 29.000000 0.924202 -0.339015 -0.175838
-2.06999993 7.65000010 -0.50999999 215 7 144 0.000000 0.000000 0.000000 0.000000 -8.844074 0.000000 29.000000 0.981350 -0.024563 -0.190656
-2.07999992 7.61000013 -0.52999997 215 7 144 0.000000 0.000000 0.000000 0.000000 -8.844074 0.000000 29.000000 0.876602 -0.295229 -0.380012
-2.07999992 7.63999987 -0.52999997 215 7 144 0.000000 0.000000 0.000000 0.000000 -8.844074 0.000000 29.000000 0.959269 -0.010998 -0.282282
-2.07999992 7.63000011 -0.50999999 215 7 144 0.000000 0.000000 0.000000 0.000000 -8.844074 0.000000 29.000000 0.941315 0.188814 -0.279776
-2.08999991 7.65000010 -0.56999999 215 7 144 0.000000 0.000000 0.000000 0.000000 -8.844074 0.000000 29.000000 0.987098 -0.073944 -0.142020
-2.08999991 7.61000013 -0.55000001 215 7 144 0.000000 0.000000 0.000000 0.000000 -8.844074 0.000000 29.000000 0.935026 -0.354578 -0.001262
-2.08999991 7.61999989 -0.56000000 215 7 144 0.000000 0.000000 0.000000 0.000000 -8.844074 0.000000 29.000000 0.984958 -0.172339 -0.012555
-2.10999990 7.69000006 -0.51999998 215 7 144 0.000000 0.000000 0.000000 0.000000 -8.844074 0.000000 29.000000 0.797182 0.547575 -0.254287
-2.09999990 7.55000019 -0.47000000 215 7 144 0.000000 0.000000 0.000000 0.000000 -8.844074 0.000000 29.000000 0.876712 -0.479813 -0.033981
-2.14000010 7.57999992 -0.44999999 215 7 144 0.000000 0.000000 0.000000 0.000000 -8.844074 0.000000 29.000000 0.521116 -0.726253 -0.448325
-2.09999990 7.59000015 -0.52999997 215 7 144 0.000000 0.000000 0.000000 0.000000 -8.844074 0.000000 29.000000 -0.664912 0.746444 0.026709
-2.09999990 7.53999996 -0.52999997 215 7 144 0.000000 0.000000 0.000000 0.000000 -8.844074 0.000000 29.000000 -0.707853 0.699023 -0.101542
-2.14000010 7.57999992 -0.51999998 215 7 144 0.000000 0.000000 0.000000 0.000000 -8.844074 0.000000 29.000000 0.719225 -0.690166 -0.079914
-2.10999990 7.59000015 -0.50000000 215 7 144 0.000000 0.000000 0.000000 0.000000 -8.844074 0.000000 29.000000 0.780261 -0.565886 0.266392
-2.10999990 7.57999992 -0.56000000 215 7 144 0.000000 0.000000 0.000000 0.000000 -8.844074 0.000000 29.000000 0.782876 -0.581344 -0.221686
-2.10999990 7.55000019 -0.52999997 215 7 144 0.000000 0.000000 0.000000 0.000000 -8.844074 0.000000 29.000000 -0.345881 0.883582 0.315673
-2.11999989 7.55999994 -0.56000000 215 7 144 0.000000 0.000000 0.000000 0.000000 -8.844074 0.000000 29.000000 0.496828 -0.767232 -0.405607
-2.13000011 7.48999977 -0.41999999 215 7 144 0.000000 0.000000 0.000000 0.000000 -8.844074 0.000000 29.000000 -0.168261 0.942536 -0.288643
-2.18000007 7.57000017 -0.25999999 215 7 144 0.000000 0.000000 0.000000 0.000000 -8.844074 0.000000 29.000000 -0.080902 0.972071 0.220303
-2.18000007 7.57000017 -0.31000000 215 7 144 0.000000 0.000000 0.000000 0.000000 -8.844074 0.000000 29.000000 0.164939 0.986224 0.012513
-2.18000007 7.55000019 -0.25999999 215 7 144 0.000000 0.000000 0.000000 0.000000 -8.844074 0.000000 29.000000 -0.264350 0.935714 0.233579
-2.19000006 7.53000021 -0.28999999 215 7 144 0.000000 0.000000 0.000000 0.000000 -8.844074 0.000000 29.000000 -0.177014 0.982485 -0.058213
-2.21000004 7.55999994 -0.31999999 215 7 144 0.000000 0.000000 0.000000 0.000000 -8.844074 0.000000 29.000000 0.519892 0.819176 -0.242205
-2.21000004 7.57000017 -0.36000001 215 7 144 0.000000 0.000000 0.000000 0.000000 -8.844074 0.000000 29.000000 0.231694 0.964312 0.128143
-2.19000006 7.55999994 -0.37000000 215 7 144 0.000000 0.000000 0.000000 0.000000 -8.844074 0.000000 29.000000 0.181792 0.968270 0.171478
-2.21000004 7.55999994 -0.34999999 215 7 144 0.000000 0.000000 0.000000 0.000000 -8.844074 0.000000 29.000000 0.159677 0.983271 0.087642
-2.19000006 7.55999994 -0.40000001 215 7 144 0.000000 0.000000 0.000000 0.000000 -8.844074 0.000000 29.000000 0.370378 0.921125 0.119788
-2.26999998 7.61000013 -0.31999999 215 7 144 0.000000 0.000000 0.000000 0.000000 -8.844074 0.000000 29.000000 0.879853 0.475200 -0.006655
-2.28999996 7.69000006 -0.27000001 215 7 144 0.000000 0.000000 0.000000 0.000000 -8.844074 0.000000 29.000000 0.795883 -0.498027 -0.344295
-2.29999995 7.67000008 -0.25999999 215 7 144 0.000000 0.000000 0.000000 0.000000 -8.844074 0.000000 29.000000 0.955540 -0.294859 0.001223
-2.29999995 7.67999983 -0.27000001 215 7 144 0.000000 0.000000 0.000000 0.000000 -8.844074 0.000000 29.000000 0.959035 -0.273828 0.072596
-2.28999996 7.67000008 -0.31999999 215 7 144 0.000000 0.000000 0.000000 0.000000 -8.844074 0.000000 29.000000 0.994040 0.023066 -0.106544
-2.28999996 7.67000008 -0.30000001 215 7 144 0.000000 0.000000 0.000000 0.000000 -8.844074 0.000000 29.000000 0.939425 -0.314048 0.137311
-2.28999996 7.67000008 -0.31000000 215 7 144 0.000000 0.000000 0.000000 0.000000 -8.844074 0.000000 29.000000 0.984029 -0.177561 -0.012601
-2.27999997 7.61999989 -0.28000000 215 7 144 0.000000 0.000000 0.000000 0.000000 -8.844074 0.000000 29.000000 0.913332 0.361616 0.187240
-2.28999996 7.63000011 -0.31000000 215 7 144 0.000000 0.000000 0.000000 0.000000 -8.844074 0.000000 29.000000 0.909144 0.305976 -0.282552
-2.28999996 7.63000011 -0.31000000 215 7 144 0.000000 0.000000 0.000000 0.000000 -8.844074 0.000000 29.000000 0.909144 0.305976 -0.282552
-2.29999995 7.61999989 -0.30000001 215 7 144 0.000000 0.000000 0.000000 0.000000 -8.844074 0.000000 29.000000 0.931612 0.062107 0.358109
-2.29999995 7.61999989 -0.31999999 215 7 144 0.000000 0.000000 0.000000 0.000000 -8.844074 0.000000 29.000000 0.973756 0.067537 0.217345
-2.26999998 7.69000006 -0.37000000 215 7 144 0.000000 0.000000 0.000000 0.000000 -8.844074 0.000000 29.000000 0.938700 -0.229460 -0.257273
-2.29999995 7.67000008 -0.36000001 215 7 144 0.000000 0.000000 0.000000 0.000000 -8.844074 0.000000 29.000000 0.996984 0.044286 0.063729
-2.29999995 7.65999985 -0.34000000 215 7 144 0.000000 0.000000 0.000000 0.000000 -8.844074 0.000000 29.000000 0.852863 -0.437956 -0.284288
-2.27999997 7.69000006 -0.38999999 215 7 144 0.000000 0.000000 0.000000 0.000000 -8.844074 0.000000 29.000000 0.880424 -0.460770 0.112002
-2.29999995 7.67999983 -0.41000000 215 7 144 0.000000 0.000000 0.000000 0.000000 -8.844074 0.000000 29.000000 0.980013 -0.134367 0.146694
