//X Y Z R G B PointSourceId ScanDirectionFlag NumberOfReturns ReturnNumber GpsTime Intensity Classification Nx Ny Nz
-3.46000004 -2.03999996 0.18000001 51 206 127 0.000000 0.000000 0.000000 0.000000 -8.844074 0.000000 134.000000 0.129289 -0.855632 0.501177
-3.42000008 -2.06999993 0.15000001 51 206 127 0.000000 0.000000 0.000000 0.000000 -8.844074 0.000000 134.000000 0.739773 -0.591496 0.320730
-3.48000002 -2.02999997 0.17000000 51 206 127 0.000000 0.000000 0.000000 0.000000 -8.844074 0.000000 134.000000 -0.082497 0.993356 -0.080237
-3.51999998 -1.78999996 0.43000001 51 206 127 0.000000 0.000000 0.000000 0.000000 -8.844074 0.000000 134.000000 0.603167 -0.452793 0.656634
-3.52999997 -1.78999996 0.43000001 51 206 127 0.000000 0.000000 0.000000 0.000000 -8.844074 0.000000 134.000000 0.684711 -0.406185 0.605132
-3.50999999 -1.80999994 0.36000001 51 206 127 0.000000 0.000000 0.000000 0.000000 -8.844074 0.000000 134.000000 -0.539684 0.832196 -0.127243
-3.50999999 -1.80999994 0.37000000 51 206 127 0.000000 0.000000 0.000000 0.000000 -8.844074 0.000000 134.000000 -0.435642 0.857527 -0.273614
-3.52999997 -1.79999995 0.38000000 51 206 127 0.000000 0.000000 0.000000 0.000000 -8.844074 0.000000 134.000000 -0.458484 0.561852 -0.688560
-3.50000000 -1.77999997 0.34999999 51 206 127 0.000000 0.000000 0.000000 0.000000 -8.844074 0.000000 134.000000 0.775305 -0.218200 0.592698
-3.50999999 -1.80999994 0.36000001 51 206 127 0.000000 0.000000 0.000000 0.000000 -8.844074 0.000000 134.000000 -0.539684 0.832196 -0.127243
-3.53999996 -1.77999997 0.38999999 51 206 127 0.000000 0.000000 0.000000 0.000000 -8.844074 0.000000 134.000000 -0.507414 0.638903 -0.578216
-3.55999994 -1.80999994 0.41000000 51 206 127 0.000000 0.000000 0.000000 0.000000 -8.844074 0.000000 134.000000 -0.574772 0.816035 -0.061025
-3.57999992 -1.79999995 0.37000000 51 206 127 0.000000 0.000000 0.000000 0.000000 -8.844074 0.000000 134.000000 -0.609443 0.756712 -0.236570
-3.57999992 -1.79999995 0.38000000 51 206 127 0.000000 0.000000 0.000000 0.000000 -8.844074 0.000000 134.000000 -0.492198 0.870399 -0.012070
-3.56999993 -1.79999995 0.34999999 51 206 127 0.000000 0.000000 0.000000 0.000000 -8.844074 0.000000 134.000000 -0.650438 0.650438 -0.392249
-3.57999992 -1.82000005 0.34999999 51 206 127 0.000000 0.000000 0.000000 0.000000 -8.844074 0.000000 134.000000 -0.458219 0.704825 -0.541532
-3.57999992 -1.82000005 0.34999999 51 206 127 0.000000 0.000000 0.000000 0.000000 -8.844074 0.000000 134.000000 -0.458219 0.704825 -0.541532
-3.55999994 -1.86000001 0.36000001 51 206 127 0.000000 0.000000 0.000000 0.000000 -8.844074 0.000000 134.000000 -0.413039 0.622046 -0.665175
-3.57999992 -1.83000004 0.38000000 51 206 127 0.000000 0.000000 0.000000 0.000000 -8.844074 0.000000 134.000000 -0.318631 0.722984 -0.613000
-3.54999995 -1.84000003 0.34999999 51 206 127 0.000000 0.000000 0.000000 0.000000 -8.844074 0.000000 134.000000 -0.588055 0.802949 -0.097283
-3.51999998 -1.80999994 0.33000001 51 206 127 0.000000 0.000000 0.000000 0.000000 -8.844074 0.000000 134.000000 -0.568425 0.622400 -0.538064
-3.52999997 -1.77999997 0.28999999 51 206 127 0.000000 0.000000 0.000000 0.000000 -8.844074 0.000000 134.000000 0.739204 -0.429693 0.518595
-3.52999997 -1.84000003 0.34000000 51 206 127 0.000000 0.000000 0.000000 0.000000 -8.844074 0.000000 134.000000 0.581932 -0.615667 0.531329
-3.52999997 -1.82000005 0.28999999 51 206 127 0.000000 0.000000 0.000000 0.000000 -8.844074 0.000000 134.000000 -0.357508 0.765165 -0.535454
-3.57999992 -1.79999995 0.28999999 51 206 127 0.000000 0.000000 0.000000 0.000000 -8.844074 0.000000 134.000000 -0.515917 0.803064 -0.298191
-3.57999992 -1.86000001 0.31999999 51 206 127 0.000000 0.000000 0.000000 0.000000 -8.844074 0.000000 134.000000 -0.565801 0.820769 -0.078782
-3.54999995 -1.84000003 0.33000001 51 206 127 0.000000 0.000000 0.000000 0.000000 -8.844074 0.000000 134.000000 -0.272584 0.903212 -0.331521
-3.55999994 -1.82000005 0.28000000 51 206 127 0.000000 0.000000 0.000000 0.000000 -8.844074 0.000000 134.000000 -0.370950 0.794893 -0.480147
-3.55999994 -1.84000003 0.28999999 51 206 127 0.000000 0.000000 0.000000 0.000000 -8.844074 0.000000 134.000000 0.475691 -0.529102 0.702687
-3.57999992 -1.83000004 0.30000001 51 206 127 0.000000 0.000000 0.000000 0.000000 -8.844074 0.000000 134.000000 -0.314735 0.918336 -0.240003
-3.56999993 -1.83000004 0.27000001 51 206 127 0.000000 0.000000 0.000000 0.000000 -8.844074 0.000000 134.000000 -0.507897 0.759395 -0.406644
-3.56999993 -1.83000004 0.27000001 51 206 127 0.000000 0.000000 0.000000 0.000000 -8.844074 0.000000 134.000000 -0.507897 0.759395 -0.406644
-3.55999994 -1.83000004 0.27000001 51 206 127 0.000000 0.000000 0.000000 0.000000 -8.844074 0.000000 134.000000 -0.407884 0.866180 -0.288727
-3.57999992 -1.88999999 0.33000001 51 206 127 0.000000 0.000000 0.000000 0.000000 -8.844074 0.000000 134.000000 -0.656617 0.653326 -0.376855
-3.57999992 -1.88999999 0.33000001 51 206 127 0.000000 0.000000 0.000000 0.000000 -8.844074 0.000000 134.000000 -0.656617 0.653326 -0.376855
-3.54999995 -1.87000000 0.30000001 51 206 127 0.000000 0.000000 0.000000 0.000000 -8.844074 0.000000 134.000000 -0.575462 0.788367 -0.217534
-3.54999995 -1.87000000 0.28999999 51 206 127 0.000000 0.000000 0.000000 0.000000 -8.844074 0.000000 134.000000 -0.461371 0.878461 -0.124270
-3.54999995 -1.94000006 0.31999999 51 206 127 0.000000 0.000000 0.000000 0.000000 -8.844074 0.000000 134.000000 -0.577795 0.762434 -0.291285
-3.54999995 -1.94000006 0.31999999 51 206 127 0.000000 0.000000 0.000000 0.000000 -8.844074 0.000000 134.000000 -0.577795 0.762434 -0.291285
-3.57999992 -1.92999995 0.31999999 51 206 127 0.000000 0.000000 0.000000 0.000000 -8.844074 0.000000 134.000000 -0.163623 0.972859 -0.163623
-3.57999992 -1.92999995 0.27000001 51 206 127 0.000000 0.000000 0.000000 0.000000 -8.844074 0.000000 134.000000 -0.430596 0.902264 -0.022523
-3.57999992 -1.92999995 0.27000001 51 206 127 0.000000 0.000000 0.000000 0.000000 -8.844074 0.000000 134.000000 -0.430596 0.902264 -0.022523
-3.55999994 -1.92999995 0.28000000 51 206 127 0.000000 0.000000 0.000000 0.000000 -8.844074 0.000000 134.000000 -0.527128 0.810129 -0.256567
-3.60999990 -1.80999994 0.38999999 51 206 127 0.000000 0.000000 0.000000 0.000000 -8.844074 0.000000 134.000000 -0.365335 0.869771 -0.331705
-3.60999990 -1.80999994 0.38999999 51 206 127 0.000000 0.000000 0.000000 0.000000 -8.844074 0.000000 134.000000 -0.365335 0.869771 -0.331705
-3.61999989 -1.80999994 0.41000000 51 206 127 0.000000 0.000000 0.000000 0.000000 -8.844074 0.000000 134.000000 0.677491 -0.611233 0.409145
-3.58999991 -1.80999994 0.38000000 51 206 127 0.000000 0.000000 0.000000 0.000000 -8.844074 0.000000 134.000000 -0.626864 0.777539 0.049751
-3.59999990 -1.82000005 0.41999999 51 206 127 0.000000 0.000000 0.000000 0.000000 -8.844074 0.000000 134.000000 -0.322488 0.918731 -0.227891
-3.59999990 -1.83000004 0.41000000 51 206 127 0.000000 0.000000 0.000000 0.000000 -8.844074 0.000000 134.000000 -0.470038 0.764835 -0.440558
-3.60999990 -1.85000002 0.41000000 51 206 127 0.000000 0.000000 0.000000 0.000000 -8.844074 0.000000 134.000000 0.760361 -0.603585 0.239866
-3.60999990 -1.84000003 0.41999999 51 206 127 0.000000 0.000000 0.000000 0.000000 -8.844074 0.000000 134.000000 0.732797 -0.572855 0.367214
-3.60999990 -1.83000004 0.41999999 51 206 127 0.000000 0.000000 0.000000 0.000000 -8.844074 0.000000 134.000000 -0.504305 0.688603 -0.521059
-3.59999990 -1.82000005 0.41999999 51 206 127 0.000000 0.000000 0.000000 0.000000 -8.844074 0.000000 134.000000 -0.322488 0.918731 -0.227891
-3.58999991 -1.83000004 0.40000001 51 206 127 0.000000 0.000000 0.000000 0.000000 -8.844074 0.000000 134.000000 -0.674959 0.720462 -0.159260
-3.60999990 -1.83000004 0.43000001 51 206 127 0.000000 0.000000 0.000000 0.000000 -8.844074 0.000000 134.000000 0.623551 -0.656807 0.424015
-3.60999990 -1.83000004 0.41999999 51 206 127 0.000000 0.000000 0.000000 0.000000 -8.844074 0.000000 134.000000 -0.504305 0.688603 -0.521059
-3.58999991 -1.85000002 0.38000000 51 206 127 0.000000 0.000000 0.000000 0.000000 -8.844074 0.000000 134.000000 -0.644680 0.493188 -0.584083
-3.59999990 -1.85000002 0.38000000 51 206 127 0.000000 0.000000 0.000000 0.000000 -8.844074 0.000000 134.000000 -0.391367 0.890545 -0.231867
-3.61999989 -1.85000002 0.38000000 51 206 127 0.000000 0.000000 0.000000 0.000000 -8.844074 0.000000 134.000000 -0.160521 0.948288 -0.273830
-3.58999991 -1.82000005 0.36000001 51 206 127 0.000000 0.000000 0.000000 0.000000 -8.844074 0.000000 134.000000 -0.444469 0.860115 -0.250298
-3.58999991 -1.83000004 0.34999999 51 206 127 0.000000 0.000000 0.000000 0.000000 -8.844074 0.000000 134.000000 -0.442989 0.769917 -0.459335
-3.61999989 -1.85000002 0.38000000 51 206 127 0.000000 0.000000 0.000000 0.000000 -8.844074 0.000000 134.000000 -0.160521 0.948288 -0.273830
-3.64000010 -1.80999994 0.41999999 51 206 127 0.000000 0.000000 0.000000 0.000000 -8.844074 0.000000 134.000000 0.722560 -0.509945 0.466757
-3.66000009 -1.85000002 0.41999999 51 206 127 0.000000 0.000000 0.000000 0.000000 -8.844074 0.000000 134.000000 -0.096564 0.923480 -0.371296
-3.63000011 -1.86000001 0.40000001 51 206 127 0.000000 0.000000 0.000000 0.000000 -8.844074 0.000000 134.000000 -0.592126 0.700985 -0.397500
-3.63000011 -1.86000001 0.40000001 51 206 127 0.000000 0.000000 0.000000 0.000000 -8.844074 0.000000 134.000000 -0.592126 0.700985 -0.397500
-3.63000011 -1.85000002 0.41999999 51 206 127 0.000000 0.000000 0.000000 0.000000 -8.844074 0.000000 134.000000 -0.604487 0.752847 -0.260419
-3.66000009 -1.85000002 0.41999999 51 206 127 0.000000 0.000000 0.000000 0.000000 -8.844074 0.000000 134.000000 -0.096564 0.923480 -0.371296
-3.64000010 -1.83000004 0.41999999 51 206 127 0.000000 0.000000 0.000000 0.000000 -8.844074 0.000000 134.000000 -0.651057 0.742114 -0.159350
-3.58999991 -1.84000003 0.31999999 51 206 127 0.000000 0.000000 0.000000 0.000000 -8.844074 0.000000 134.000000 -0.514730 0.807512 -0.288060
-3.58999991 -1.86000001 0.30000001 51 206 127 0.000000 0.000000 0.000000 0.000000 -8.844074 0.000000 134.000000 -0.347934 0.704035 -0.619093
-3.58999991 -1.86000001 0.30000001 51 206 127 0.000000 0.000000 0.000000 0.000000 -8.844074 0.000000 134.000000 -0.347934 0.704035 -0.619093
-3.61999989 -1.89999998 0.41999999 51 206 127 0.000000 0.000000 0.000000 0.000000 -8.844074 0.000000 134.000000 0.285206 -0.864769 0.413320
-3.61999989 -1.88000000 0.40000001 51 206 127 0.000000 0.000000 0.000000 0.000000 -8.844074 0.000000 134.000000 -0.436977 0.794943 -0.420852
-3.59999990 -1.89999998 0.36000001 51 206 127 0.000000 0.000000 0.000000 0.000000 -8.844074 0.000000 134.000000 -0.264154 0.960907 0.082947
-3.60999990 -1.89999998 0.37000000 51 206 127 0.000000 0.000000 0.000000 0.000000 -8.844074 0.000000 134.000000 -0.091371 0.793335 -0.601890
-3.61999989 -1.92999995 0.37000000 51 206 127 0.000000 0.000000 0.000000 0.000000 -8.844074 0.000000 134.000000 -0.061445 0.997131 0.044197
-3.64000010 -1.91999996 0.43000001 51 206 127 0.000000 0.000000 0.000000 0.000000 -8.844074 0.000000 134.000000 -0.432233 0.847425 -0.308295
-3.64000010 -1.91999996 0.43000001 51 206 127 0.000000 0.000000 0.000000 0.000000 -8.844074 0.000000 134.000000 -0.432233 0.847425 -0.308295
-3.59999990 -1.87000000 0.34000000 51 206 127 0.000000 0.000000 0.000000 0.000000 -8.844074 0.000000 134.000000 -0.432900 0.901326 0.014474
-3.59999990 -1.87000000 0.33000001 51 206 127 0.000000 0.000000 0.000000 0.000000 -8.844074 0.000000 134.000000 -0.624017 0.737762 -0.257506
-3.57999992 -1.80999994 0.25000000 51 206 127 0.000000 0.000000 0.000000 0.000000 -8.844074 0.000000 134.000000 0.363089 -0.652245 0.665389
-3.57999992 -1.80999994 0.25000000 51 206 127 0.000000 0.000000 0.000000 0.000000 -8.844074 0.000000 134.000000 0.363089 -0.652245 0.665389
-3.56999993 -1.78999996 0.25999999 51 206 127 0.000000 0.000000 0.000000 0.000000 -8.844074 0.000000 134.000000 -0.462994 0.579996 -0.670255
-3.57999992 -1.78999996 0.18000001 51 206 127 0.000000 0.000000 0.000000 0.000000 -8.844074 0.000000 134.000000 -0.362720 0.883472 -0.296497
-3.57999992 -1.78999996 0.19000000 51 206 127 0.000000 0.000000 0.000000 0.000000 -8.844074 0.000000 134.000000 -0.338460 0.843811 -0.416446
-3.54999995 -1.84000003 0.25000000 51 206 127 0.000000 0.000000 0.000000 0.000000 -8.844074 0.000000 134.000000 0.594110 -0.747842 0.296254
-3.55999994 -1.84000003 0.25999999 51 206 127 0.000000 0.000000 0.000000 0.000000 -8.844074 0.000000 134.000000 -0.585172 0.507599 -0.632390
-3.54999995 -1.84000003 0.25000000 51 206 127 0.000000 0.000000 0.000000 0.000000 -8.844074 0.000000 134.000000 0.594110 -0.747842 0.296254
-3.54999995 -1.84000003 0.25000000 51 206 127 0.000000 0.000000 0.000000 0.000000 -8.844074 0.000000 134.000000 0.594110 -0.747842 0.296254
-3.57999992 -1.85000002 0.18000001 51 206 127 0.000000 0.000000 0.000000 0.000000 -8.844074 0.000000 134.000000 -0.375223 0.922481 -0.090758
-3.56999993 -1.86000001 0.20999999 51 206 127 0.000000 0.000000 0.000000 0.000000 -8.844074 0.000000 134.000000 -0.041836 0.952075 -0.302991
-3.56999993 -1.80999994 0.16000000 51 206 127 0.000000 0.000000 0.000000 0.000000 -8.844074 0.000000 134.000000 -0.154126 0.800558 -0.579095
-3.57999992 -1.82000005 0.13000000 51 206 127 0.000000 0.000000 0.000000 0.000000 -8.844074 0.000000 134.000000 -0.615465 0.776410 -0.135611
-3.56999993 -1.87000000 0.25999999 51 206 127 0.000000 0.000000 0.000000 0.000000 -8.844074 0.000000 134.000000 -0.281707 0.957295 0.065009
-3.56999993 -1.87000000 0.19000000 51 206 127 0.000000 0.000000 0.000000 0.000000 -8.844074 0.000000 134.000000 -0.212875 0.950480 -0.226434
-3.56999993 -1.87000000 0.18000001 51 206 127 0.000000 0.000000 0.000000 0.000000 -8.844074 0.000000 134.000000 0.524606 -0.642684 0.558342
-3.54999995 -1.92999995 0.23999999 51 206 127 0.000000 0.000000 0.000000 0.000000 -8.844074 0.000000 134.000000 0.672936 -0.710235 0.206698
-3.56999993 -1.94000006 0.25000000 51 206 127 0.000000 0.000000 0.000000 0.000000 -8.844074 0.000000 134.000000 -0.479111 0.731100 -0.485742
-3.55999994 -1.87000000 0.15000001 51 206 127 0.000000 0.000000 0.000000 0.000000 -8.844074 0.000000 134.000000 -0.314069 0.903871 -0.290477
-3.55999994 -1.87000000 0.14000000 51 206 127 0.000000 0.000000 0.000000 0.000000 -8.844074 0.000000 134.000000 -0.560557 0.737059 -0.377518
-3.54999995 -1.88999999 0.17000000 51 206 127 0.000000 0.000000 0.000000 0.000000 -8.844074 0.000000 134.000000 0.570951 -0.668063 0.477187
-3.55999994 -1.87000000 0.14000000 51 206 127 0.000000 0.000000 0.000000 0.000000 -8.844074 0.000000 134.000000 -0.560557 0.737059 -0.377518
-3.53999996 -1.88000000 0.10000000 51 206 127 0.000000 0.000000 0.000000 0.000000 -8.844074 0.000000 134.000000 -0.258079 0.799262 -0.542748
-3.55999994 -1.89999998 0.13000000 51 206 127 0.000000 0.000000 0.000000 0.000000 -8.844074 0.000000 134.000000 -0.322177 0.807824 -0.493582
-3.57999992 -1.88999999 0.10000000 51 206 127 0.000000 0.000000 0.000000 0.000000 -8.844074 0.000000 134.000000 -0.330662 0.814789 -0.476216
-3.55999994 -1.91999996 0.14000000 51 206 127 0.000000 0.000000 0.000000 0.000000 -8.844074 0.000000 134.000000 -0.205559 0.823759 -0.528363
-3.56999993 -1.92999995 0.12000000 51 206 127 0.000000 0.000000 0.000000 0.000000 -8.844074 0.000000 134.000000 -0.039434 0.947691 -0.316745
-3.55999994 -1.92999995 0.12000000 51 206 127 0.000000 0.000000 0.000000 0.000000 -8.844074 0.000000 134.000000 -0.268986 0.825615 -0.495991
-3.55999994 -1.92999995 0.13000000 51 206 127 0.000000 0.000000 0.000000 0.000000 -8.844074 0.000000 134.000000 0.099102 0.980010 -0.172511
-3.55999994 -1.92999995 0.12000000 51 206 127 0.000000 0.000000 0.000000 0.000000 -8.844074 0.000000 134.000000 -0.268986 0.825615 -0.495991
-3.58999991 -1.78999996 0.20999999 51 206 127 0.000000 0.000000 0.000000 0.000000 -8.844074 0.000000 134.000000 -0.099656 0.942084 -0.320229
-3.64000010 -1.94000006 0.25000000 51 206 127 0.000000 0.000000 0.000000 0.000000 -8.844074 0.000000 134.000000 -0.068506 0.993896 0.086475
-3.58999991 -1.88000000 0.18000001 51 206 127 0.000000 0.000000 0.000000 0.000000 -8.844074 0.000000 134.000000 -0.200468 0.839554 -0.504938
-3.58999991 -1.88000000 0.18000001 51 206 127 0.000000 0.000000 0.000000 0.000000 -8.844074 0.000000 134.000000 -0.200468 0.839554 -0.504938
-3.61999989 -1.94000006 0.20000000 51 206 127 0.000000 0.000000 0.000000 0.000000 -8.844074 0.000000 134.000000 -0.053675 0.873934 -0.483072
-3.50000000 -1.96000004 0.40000001 51 206 127 0.000000 0.000000 0.000000 0.000000 -8.844074 0.000000 134.000000 -0.522369 0.724684 -0.449404
-3.50000000 -2.01999998 0.36000001 51 206 127 0.000000 0.000000 0.000000 0.000000 -8.844074 0.000000 134.000000 -0.121438 0.875783 -0.467180
-3.57999992 -1.96000004 0.36000001 51 206 127 0.000000 0.000000 0.000000 0.000000 -8.844074 0.000000 134.000000 -0.221266 0.828604 -0.514253
-3.57999992 -1.96000004 0.36000001 51 206 127 0.000000 0.000000 0.000000 0.000000 -8.844074 0.000000 134.000000 -0.221266 0.828604 -0.514253
-3.57999992 -1.96000004 0.36000001 51 206 127 0.000000 0.000000 0.000000 0.000000 -8.844074 0.000000 134.000000 -0.221266 0.828604 -0.514253
-3.54999995 -2.00000000 0.43000001 51 206 127 0.000000 0.000000 0.000000 0.000000 -8.844074 0.000000 134.000000 0.443934 -0.839581 0.313091
-3.50999999 -2.01999998 0.28999999 51 206 127 0.000000 0.000000 0.000000 0.000000 -8.844074 0.000000 134.000000 0.362631 -0.694085 0.621888
-3.57999992 -1.95000005 0.31000000 51 206 127 0.000000 0.000000 0.000000 0.000000 -8.844074 0.000000 134.000000 -0.222031 0.949423 -0.222031
-3.55999994 -1.97000003 0.31999999 51 206 127 0.000000 0.000000 0.000000 0.000000 -8.844074 0.000000 134.000000 0.699504 -0.693381 0.172963
-3.53999996 -1.98000002 0.28000000 51 206 127 0.000000 0.000000 0.000000 0.000000 -8.844074 0.000000 134.000000 -0.475559 0.640240 -0.603271
-3.55999994 -1.98000002 0.30000001 51 206 127 0.000000 0.000000 0.000000 0.000000 -8.844074 0.000000 134.000000 -0.082519 0.947008 -0.310430
-3.56999993 -1.95000005 0.30000001 51 206 127 0.000000 0.000000 0.000000 0.000000 -8.844074 0.000000 134.000000 -0.166352 0.956859 -0.238217
-3.56999993 -1.95000005 0.30000001 51 206 127 0.000000 0.000000 0.000000 0.000000 -8.844074 0.000000 134.000000 -0.166352 0.956859 -0.238217
-3.54999995 -2.00999999 0.28000000 51 206 127 0.000000 0.000000 0.000000 0.000000 -8.844074 0.000000 134.000000 -0.212967 0.874206 -0.436358
-3.50000000 -2.02999997 0.27000001 51 206 127 0.000000 0.000000 0.000000 0.000000 -8.844074 0.000000 134.000000 -0.215631 0.963153 -0.160743
-3.50999999 -2.01999998 0.23000000 51 206 127 0.000000 0.000000 0.000000 0.000000 -8.844074 0.000000 134.000000 -0.054085 0.997923 -0.034996
-3.50999999 -2.01999998 0.22000000 51 206 127 0.000000 0.000000 0.000000 0.000000 -8.844074 0.000000 134.000000 0.027402 0.922537 -0.384934
-3.55999994 -1.95000005 0.15000001 51 206 127 0.000000 0.000000 0.000000 0.000000 -8.844074 0.000000 134.000000 -0.297888 0.953997 -0.033937
-3.54999995 -1.97000003 0.11000000 51 206 127 0.000000 0.000000 0.000000 0.000000 -8.844074 0.000000 134.000000 -0.142012 0.979264 0.144482
-3.55999994 -1.95000005 0.13000000 51 206 127 0.000000 0.000000 0.000000 0.000000 -8.844074 0.000000 134.000000 -0.296234 0.955077 -0.008604
-3.54999995 -1.97000003 0.11000000 51 206 127 0.000000 0.000000 0.000000 0.000000 -8.844074 0.000000 134.000000 -0.142012 0.979264 0.144482
-3.53999996 -2.00000000 0.16000000 51 206 127 0.000000 0.000000 0.000000 0.000000 -8.844074 0.000000 134.000000 -0.075231 0.997071 -0.013775
-3.53999996 -2.00000000 0.16000000 51 206 127 0.000000 0.000000 0.000000 0.000000 -8.844074 0.000000 134.000000 -0.075231 0.997071 -0.013775
-3.53999996 -2.02999997 0.17000000 51 206 127 0.000000 0.000000 0.000000 0.000000 -8.844074 0.000000 134.000000 -0.225869 0.847387 -0.480540
-3.53999996 -2.02999997 0.17000000 51 206 127 0.000000 0.000000 0.000000 0.000000 -8.844074 0.000000 134.000000 -0.225869 0.847387 -0.480540
-3.58999991 -2.00000000 0.22000000 51 206 127 0.000000 0.000000 0.000000 0.000000 -8.844074 0.000000 134.000000 -0.476604 0.878098 0.042334
-3.48000002 -1.94000006 -0.23000000 51 206 127 0.000000 0.000000 0.000000 0.000000 -8.844074 0.000000 134.000000 0.277119 0.915510 -0.291628
-3.49000001 -1.94000006 -0.23999999 51 206 127 0.000000 0.000000 0.000000 0.000000 -8.844074 0.000000 134.000000 0.131122 0.903758 -0.407466
-3.32999992 -2.01999998 0.09000000 51 206 127 0.000000 0.000000 0.000000 0.000000 -8.844074 0.000000 134.000000 0.766547 -0.634636 0.098200
-3.33999991 -2.01999998 0.01000000 51 206 127 0.000000 0.000000 0.000000 0.000000 -8.844074 0.000000 134.000000 -0.499856 0.855439 -0.135529
-3.32999992 -2.00999999 -0.03000000 51 206 127 0.000000 0.000000 0.000000 0.000000 -8.844074 0.000000 134.000000 -0.455479 0.877700 -0.148934
-3.32999992 -1.99000001 -0.01000000 51 206 127 0.000000 0.000000 0.000000 0.000000 -8.844074 0.000000 134.000000 -0.373258 0.805789 -0.459764
-3.33999991 -2.00999999 -0.05000000 51 206 127 0.000000 0.000000 0.000000 0.000000 -8.844074 0.000000 134.000000 -0.431766 0.901822 0.017165
-3.34999990 -2.01999998 -0.07000000 51 206 127 0.000000 0.000000 0.000000 0.000000 -8.844074 0.000000 134.000000 -0.094925 0.937217 -0.335580
-3.35999990 -2.01999998 -0.06000000 51 206 127 0.000000 0.000000 0.000000 0.000000 -8.844074 0.000000 134.000000 -0.339353 0.839781 -0.423800
-3.34999990 -1.99000001 -0.04000000 51 206 127 0.000000 0.000000 0.000000 0.000000 -8.844074 0.000000 134.000000 0.732180 -0.677085 0.073943
-3.35999990 -2.01999998 -0.06000000 51 206 127 0.000000 0.000000 0.000000 0.000000 -8.844074 0.000000 134.000000 -0.339353 0.839781 -0.423800
-3.39000010 -2.01999998 -0.07000000 51 206 127 0.000000 0.000000 0.000000 0.000000 -8.844074 0.000000 134.000000 -0.331123 0.932915 -0.141517
-3.34999990 -2.02999997 0.01000000 51 206 127 0.000000 0.000000 0.000000 0.000000 -8.844074 0.000000 134.000000 -0.357010 0.904910 -0.231692
-3.35999990 -2.03999996 0.01000000 51 206 127 0.000000 0.000000 0.000000 0.000000 -8.844074 0.000000 134.000000 -0.406810 0.898431 -0.165311
-3.36999989 -2.03999996 0.06000000 51 206 127 0.000000 0.000000 0.000000 0.000000 -8.844074 0.000000 134.000000 -0.201192 0.951949 -0.230898
-3.39000010 -2.03999996 0.09000000 51 206 127 0.000000 0.000000 0.000000 0.000000 -8.844074 0.000000 134.000000 -0.244167 0.710446 -0.660037
-3.36999989 -2.02999997 0.07000000 51 206 127 0.000000 0.000000 0.000000 0.000000 -8.844074 0.000000 134.000000 -0.264562 0.948354 -0.175018
-3.40000010 -2.04999995 0.09000000 51 206 127 0.000000 0.000000 0.000000 0.000000 -8.844074 0.000000 134.000000 -0.245605 0.969369 0.001186
-3.39000010 -2.02999997 0.02000000 51 206 127 0.000000 0.000000 0.000000 0.000000 -8.844074 0.000000 134.000000 -0.240244 0.967263 -0.081758
-3.36999989 -2.03999996 0.05000000 51 206 127 0.000000 0.000000 0.000000 0.000000 -8.844074 0.000000 134.000000 -0.427645 0.885941 -0.179523
-3.36999989 -2.04999995 0.05000000 51 206 127 0.000000 0.000000 0.000000 0.000000 -8.844074 0.000000 134.000000 -0.329666 0.680443 -0.654460
-3.39000010 -2.02999997 0.02000000 51 206 127 0.000000 0.000000 0.000000 0.000000 -8.844074 0.000000 134.000000 -0.240244 0.967263 -0.081758
-3.35999990 -2.03999996 0.00000000 51 206 127 0.000000 0.000000 0.000000 0.000000 -8.844074 0.000000 134.000000 -0.318351 0.947442 -0.031708
-3.33999991 -2.02999997 0.00000000 51 206 127 0.000000 0.000000 0.000000 0.000000 -8.844074 0.000000 134.000000 -0.338893 0.898288 -0.279698
-3.34999990 -2.03999996 -0.01000000 51 206 127 0.000000 0.000000 0.000000 0.000000 -8.844074 0.000000 134.000000 -0.455323 0.850856 -0.262156
-3.45000005 -2.01999998 0.03000000 51 206 127 0.000000 0.000000 0.000000 0.000000 -8.844074 0.000000 134.000000 -0.072087 0.846664 -0.527222
-3.48000002 -2.01999998 0.04000000 51 206 127 0.000000 0.000000 0.000000 0.000000 -8.844074 0.000000 134.000000 0.084922 0.975983 -0.200612
-3.48000002 -2.01999998 0.04000000 51 206 127 0.000000 0.000000 0.000000 0.000000 -8.844074 0.000000 134.000000 0.084922 0.975983 -0.200612
-3.45000005 -2.00000000 -0.05000000 51 206 127 0.000000 0.000000 0.000000 0.000000 -8.844074 0.000000 134.000000 -0.445797 0.843441 -0.299787
-3.49000001 -2.00000000 -0.06000000 51 206 127 0.000000 0.000000 0.000000 0.000000 -8.844074 0.000000 134.000000 -0.042897 0.969465 -0.241447
-3.46000004 -2.00999999 -0.05000000 51 206 127 0.000000 0.000000 0.000000 0.000000 -8.844074 0.000000 134.000000 -0.025406 0.969042 -0.245587
-3.45000005 -2.02999997 0.06000000 51 206 127 0.000000 0.000000 0.000000 0.000000 -8.844074 0.000000 134.000000 -0.358166 0.828357 -0.430746
-3.45000005 -2.02999997 0.06000000 51 206 127 0.000000 0.000000 0.000000 0.000000 -8.844074 0.000000 134.000000 -0.358166 0.828357 -0.430746
-3.44000006 -2.02999997 0.02000000 51 206 127 0.000000 0.000000 0.000000 0.000000 -8.844074 0.000000 134.000000 0.030542 0.989802 -0.139138
-3.44000006 -2.02999997 0.02000000 51 206 127 0.000000 0.000000 0.000000 0.000000 -8.844074 0.000000 134.000000 0.030542 0.989802 -0.139138
-3.47000003 -2.04999995 0.06000000 51 206 127 0.000000 0.000000 0.000000 0.000000 -8.844074 0.000000 134.000000 0.393154 -0.715574 0.577394
-3.43000007 -2.02999997 0.00000000 51 206 127 0.000000 0.000000 0.000000 0.000000 -8.844074 0.000000 134.000000 -0.206497 0.976937 -0.054341
-3.42000008 -2.02999997 -0.07000000 51 206 127 0.000000 0.000000 0.000000 0.000000 -8.844074 0.000000 134.000000 0.038090 0.967006 -0.251889
-3.32999992 -2.00999999 -0.10000000 51 206 127 0.000000 0.000000 0.000000 0.000000 -8.844074 0.000000 134.000000 -0.520844 0.831841 -0.191731
-3.33999991 -2.00999999 -0.09000000 51 206 127 0.000000 0.000000 0.000000 0.000000 -8.844074 0.000000 134.000000 -0.117704 0.841368 -0.527490
-3.33999991 -2.00999999 -0.09000000 51 206 127 0.000000 0.000000 0.000000 0.000000 -8.844074 0.000000 134.000000 -0.117704 0.841368 -0.527490
-3.33999991 -2.00999999 -0.09000000 51 206 127 0.000000 0.000000 0.000000 0.000000 -8.844074 0.000000 134.000000 -0.117704 0.841368 -0.527490
-3.33999991 -2.00000000 -0.08000000 51 206 127 0.000000 0.000000 0.000000 0.000000 -8.844074 0.000000 134.000000 -0.113716 0.924797 -0.363069
-3.32999992 -2.01999998 -0.14000000 51 206 127 0.000000 0.000000 0.000000 0.000000 -8.844074 0.000000 134.000000 -0.556347 0.683321 -0.472811
-3.34999990 -2.00000000 -0.14000000 51 206 127 0.000000 0.000000 0.000000 0.000000 -8.844074 0.000000 134.000000 -0.523873 0.803901 -0.281601
-3.35999990 -2.00999999 -0.13000000 51 206 127 0.000000 0.000000 0.000000 0.000000 -8.844074 0.000000 134.000000 -0.044909 0.945653 -0.322061
-3.35999990 -2.01999998 -0.14000000 51 206 127 0.000000 0.000000 0.000000 0.000000 -8.844074 0.000000 134.000000 -0.304588 0.951678 -0.039179
-3.36999989 -2.01999998 -0.09000000 51 206 127 0.000000 0.000000 0.000000 0.000000 -8.844074 0.000000 134.000000 -0.374437 0.926238 -0.043356
-3.38000011 -2.01999998 -0.08000000 51 206 127 0.000000 0.000000 0.000000 0.000000 -8.844074 0.000000 134.000000 -0.474400 0.865082 -0.163029
-3.39000010 -2.01999998 -0.16000000 51 206 127 0.000000 0.000000 0.000000 0.000000 -8.844074 0.000000 134.000000 -0.113716 0.924797 -0.363069
-3.35999990 -2.00999999 -0.20000000 51 206 127 0.000000 0.000000 0.000000 0.000000 -8.844074 0.000000 134.000000 -0.375592 0.807122 -0.455505
-3.32999992 -2.00000000 -0.17000000 51 206 127 0.000000 0.000000 0.000000 0.000000 -8.844074 0.000000 134.000000 -0.566290 0.824068 -0.015083
-3.34999990 -2.00000000 -0.20000000 51 206 127 0.000000 0.000000 0.000000 0.000000 -8.844074 0.000000 134.000000 -0.201911 0.856998 -0.474116
-3.35999990 -2.00999999 -0.20000000 51 206 127 0.000000 0.000000 0.000000 0.000000 -8.844074 0.000000 134.000000 -0.375592 0.807122 -0.455505
-3.34999990 -2.00999999 -0.20999999 51 206 127 0.000000 0.000000 0.000000 0.000000 -8.844074 0.000000 134.000000 -0.375934 0.912172 -0.163141
-3.34999990 -2.01999998 -0.20999999 51 206 127 0.000000 0.000000 0.000000 0.000000 -8.844074 0.000000 134.000000 -0.652613 0.652613 -0.384959
-3.35999990 -2.00999999 -0.22000000 51 206 127 0.000000 0.000000 0.000000 0.000000 -8.844074 0.000000 134.000000 -0.332641 0.940071 0.074943
-3.40000010 -1.96000004 -0.20000000 51 206 127 0.000000 0.000000 0.000000 0.000000 -8.844074 0.000000 134.000000 -0.169497 0.888049 -0.427364
-3.39000010 -2.00999999 -0.19000000 51 206 127 0.000000 0.000000 0.000000 0.000000 -8.844074 0.000000 134.000000 -0.044293 0.952933 -0.299927
-3.36999989 -2.00999999 -0.18000001 51 206 127 0.000000 0.000000 0.000000 0.000000 -8.844074 0.000000 134.000000 -0.370970 0.928075 -0.032541
-3.39000010 -2.01999998 -0.20000000 51 206 127 0.000000 0.000000 0.000000 0.000000 -8.844074 0.000000 134.000000 -0.020403 0.858273 -0.512788
-3.40000010 -2.01999998 -0.23000000 51 206 127 0.000000 0.000000 0.000000 0.000000 -8.844074 0.000000 134.000000 -0.138783 0.971481 -0.192259
-3.32999992 -2.02999997 -0.16000000 51 206 127 0.000000 0.000000 0.000000 0.000000 -8.844074 0.000000 134.000000 -0.287964 0.866940 -0.406807
-3.38000011 -2.02999997 -0.09000000 51 206 127 0.000000 0.000000 0.000000 0.000000 -8.844074 0.000000 134.000000 -0.661315 0.750045 -0.009705
-3.38000011 -2.02999997 -0.08000000 51 206 127 0.000000 0.000000 0.000000 0.000000 -8.844074 0.000000 134.000000 -0.460760 0.866703 -0.191119
-3.42000008 -2.01999998 -0.10000000 51 206 127 0.000000 0.000000 0.000000 0.000000 -8.844074 0.000000 134.000000 -0.074727 0.855841 -0.511813
-3.45000005 -2.01999998 -0.08000000 51 206 127 0.000000 0.000000 0.000000 0.000000 -8.844074 0.000000 134.000000 0.019787 0.998705 0.046863
-3.46000004 -2.01999998 -0.08000000 51 206 127 0.000000 0.000000 0.000000 0.000000 -8.844074 0.000000 134.000000 -0.150971 0.976942 -0.150971
-3.47000003 -2.00999999 -0.12000000 51 206 127 0.000000 0.000000 0.000000 0.000000 -8.844074 0.000000 134.000000 0.199556 0.975467 -0.092961
-3.45000005 -2.00000000 -0.20000000 51 206 127 0.000000 0.000000 0.000000 0.000000 -8.844074 0.000000 134.000000 0.120537 0.990699 -0.063138
-3.45000005 -2.00000000 -0.20000000 51 206 127 0.000000 0.000000 0.000000 0.000000 -8.844074 0.000000 134.000000 0.120537 0.990699 -0.063138
-3.44000006 -2.00000000 -0.20000000 51 206 127 0.000000 0.000000 0.000000 0.000000 -8.844074 0.000000 134.000000 0.044329 0.998953 0.011340
-3.44000006 -2.00000000 -0.23999999 51 206 127 0.000000 0.000000 0.000000 0.000000 -8.844074 0.000000 134.000000 0.228602 0.927187 -0.296757
-3.45000005 -2.00000000 -0.23999999 51 206 127 0.000000 0.000000 0.000000 0.000000 -8.844074 0.000000 134.000000 0.259878 0.956405 -0.133237
-3.44000006 -1.99000001 -0.20999999 51 206 127 0.000000 0.000000 0.000000 0.000000 -8.844074 0.000000 134.000000 -0.445735 0.892841 0.064460
-3.44000006 -2.00000000 -0.20999999 51 206 127 0.000000 0.000000 0.000000 0.000000 -8.844074 0.000000 134.000000 -0.023972 0.987405 -0.156387
-3.48000002 -1.98000002 -0.23999999 51 206 127 0.000000 0.000000 0.000000 0.000000 -8.844074 0.000000 134.000000 0.030140 0.992383 0.119443
-3.48000002 -1.98000002 -0.23999999 51 206 127 0.000000 0.000000 0.000000 0.000000 -8.844074 0.000000 134.000000 0.030140 0.992383 0.119443
-3.48000002 -1.98000002 -0.23000000 51 206 127 0.000000 0.000000 0.000000 0.000000 -8.844074 0.000000 134.000000 0.014815 0.985757 0.167522
-3.46000004 -2.00000000 -0.18000001 51 206 127 0.000000 0.000000 0.000000 0.000000 -8.844074 0.000000 134.000000 0.269850 0.947866 -0.169504
-3.48000002 -1.99000001 -0.17000000 51 206 127 0.000000 0.000000 0.000000 0.000000 -8.844074 0.000000 134.000000 0.251639 0.944677 -0.210387
-3.48000002 -1.99000001 -0.17000000 51 206 127 0.000000 0.000000 0.000000 0.000000 -8.844074 0.000000 134.000000 0.251639 0.944677 -0.210387
-3.55999994 -1.77999997 0.09000000 51 206 127 0.000000 0.000000 0.000000 0.000000 -8.844074 0.000000 134.000000 -0.529877 0.848073 0.001348
-3.55999994 -1.77999997 0.09000000 51 206 127 0.000000 0.000000 0.000000 0.000000 -8.844074 0.000000 134.000000 -0.529877 0.848073 0.001348
-3.54999995 -1.84000003 0.05000000 51 206 127 0.000000 0.000000 0.000000 0.000000 -8.844074 0.000000 134.000000 0.397431 -0.717354 0.572234
-3.56999993 -1.86000001 0.01000000 51 206 127 0.000000 0.000000 0.000000 0.000000 -8.844074 0.000000 134.000000 0.014429 0.991134 -0.132077
-3.51999998 -1.85000002 -0.07000000 51 206 127 0.000000 0.000000 0.000000 0.000000 -8.844074 0.000000 134.000000 -0.482918 0.875205 -0.028407
-3.56999993 -1.77999997 0.00000000 51 206 127 0.000000 0.000000 0.000000 0.000000 -8.844074 0.000000 134.000000 -0.326078 0.937642 -0.120419
-3.53999996 -1.85000002 0.00000000 51 206 127 0.000000 0.000000 0.000000 0.000000 -8.844074 0.000000 134.000000 -0.020933 0.999780 0.000997
-3.56999993 -1.88999999 0.02000000 51 206 127 0.000000 0.000000 0.000000 0.000000 -8.844074 0.000000 134.000000 -0.347562 0.897745 -0.270655
-3.56999993 -1.88999999 0.02000000 51 206 127 0.000000 0.000000 0.000000 0.000000 -8.844074 0.000000 134.000000 -0.347562 0.897745 -0.270655
-3.57999992 -1.91999996 0.08000000 51 206 127 0.000000 0.000000 0.000000 0.000000 -8.844074 0.000000 134.000000 0.169458 0.938217 -0.301717
-3.54999995 -1.91999996 0.09000000 51 206 127 0.000000 0.000000 0.000000 0.000000 -8.844074 0.000000 134.000000 -0.453838 0.886731 -0.087975
-3.57999992 -1.94000006 0.09000000 51 206 127 0.000000 0.000000 0.000000 0.000000 -8.844074 0.000000 134.000000 0.356793 -0.834614 0.419665
-3.53999996 -1.91999996 0.02000000 51 206 127 0.000000 0.000000 0.000000 0.000000 -8.844074 0.000000 134.000000 -0.086922 0.932069 -0.351699
-3.55999994 -1.92999995 0.05000000 51 206 127 0.000000 0.000000 0.000000 0.000000 -8.844074 0.000000 134.000000 0.035066 0.997797 0.056319
-3.57999992 -1.91999996 0.03000000 51 206 127 0.000000 0.000000 0.000000 0.000000 -8.844074 0.000000 134.000000 -0.143428 0.959255 -0.243432
-3.54999995 -1.91999996 0.02000000 51 206 127 0.000000 0.000000 0.000000 0.000000 -8.844074 0.000000 134.000000 -0.139694 0.987250 0.076304
-3.54999995 -1.91999996 0.02000000 51 206 127 0.000000 0.000000 0.000000 0.000000 -8.844074 0.000000 134.000000 -0.139694 0.987250 0.076304
-3.53999996 -1.88000000 0.00000000 51 206 127 0.000000 0.000000 0.000000 0.000000 -8.844074 0.000000 134.000000 -0.415380 0.743744 -0.523740
-3.54999995 -1.88999999 -0.04000000 51 206 127 0.000000 0.000000 0.000000 0.000000 -8.844074 0.000000 134.000000 -0.171146 0.978854 0.112045
-3.54999995 -1.91999996 -0.04000000 51 206 127 0.000000 0.000000 0.000000 0.000000 -8.844074 0.000000 134.000000 0.214843 0.860874 -0.461236
-3.54999995 -1.90999997 -0.06000000 51 206 127 0.000000 0.000000 0.000000 0.000000 -8.844074 0.000000 134.000000 0.197219 0.941960 -0.271693
-3.54999995 -1.91999996 -0.04000000 51 206 127 0.000000 0.000000 0.000000 0.000000 -8.844074 0.000000 134.000000 0.214843 0.860874 -0.461236
-3.58999991 -1.85000002 0.07000000 51 206 127 0.000000 0.000000 0.000000 0.000000 -8.844074 0.000000 134.000000 -0.091810 0.911247 -0.401497
-3.58999991 -1.94000006 -0.07000000 51 206 127 0.000000 0.000000 0.000000 0.000000 -8.844074 0.000000 134.000000 0.207396 0.840181 -0.501081
-3.51999998 -1.85000002 -0.08000000 51 206 127 0.000000 0.000000 0.000000 0.000000 -8.844074 0.000000 134.000000 0.108173 0.941502 -0.319176
-3.53999996 -1.86000001 -0.09000000 51 206 127 0.000000 0.000000 0.000000 0.000000 -8.844074 0.000000 134.000000 -0.353296 0.933805 -0.056475
-3.54999995 -1.86000001 -0.12000000 51 206 127 0.000000 0.000000 0.000000 0.000000 -8.844074 0.000000 134.000000 -0.030531 0.906640 -0.420798
-3.51999998 -1.85000002 -0.20999999 51 206 127 0.000000 0.000000 0.000000 0.000000 -8.844074 0.000000 134.000000 0.143248 0.937249 0.317874
-3.50999999 -1.85000002 -0.22000000 51 206 127 0.000000 0.000000 0.000000 0.000000 -8.844074 0.000000 134.000000 0.389260 0.921120 -0.003854
-3.50999999 -1.94000006 -0.23999999 51 206 127 0.000000 0.000000 0.000000 0.000000 -8.844074 0.000000 134.000000 0.476752 0.833928 -0.277976
-3.50999999 -1.94000006 -0.23999999 51 206 127 0.000000 0.000000 0.000000 0.000000 -8.844074 0.000000 134.000000 0.476752 0.833928 -0.277976
-3.53999996 -1.88000000 -0.20000000 51 206 127 0.000000 0.000000 0.000000 0.000000 -8.844074 0.000000 134.000000 0.322405 0.845730 -0.425201
-3.56999993 -1.92999995 -0.18000001 51 206 127 0.000000 0.000000 0.000000 0.000000 -8.844074 0.000000 134.000000 0.105961 0.937558 -0.331297
-3.53999996 -1.92999995 -0.17000000 51 206 127 0.000000 0.000000 0.000000 0.000000 -8.844074 0.000000 134.000000 0.234680 0.965649 -0.111569
-3.53999996 -1.92999995 -0.17000000 51 206 127 0.000000 0.000000 0.000000 0.000000 -8.844074 0.000000 134.000000 0.234680 0.965649 -0.111569
-3.52999997 -1.98000002 0.02000000 51 206 127 0.000000 0.000000 0.000000 0.000000 -8.844074 0.000000 134.000000 0.117261 0.972132 -0.203000
-3.50000000 -1.99000001 0.09000000 51 206 127 0.000000 0.000000 0.000000 0.000000 -8.844074 0.000000 134.000000 -0.298635 0.952299 -0.062803
-3.50999999 -2.00999999 0.06000000 51 206 127 0.000000 0.000000 0.000000 0.000000 -8.844074 0.000000 134.000000 0.019902 0.895573 -0.444469
-3.50000000 -2.00999999 0.03000000 51 206 127 0.000000 0.000000 0.000000 0.000000 -8.844074 0.000000 134.000000 -0.149523 0.984459 0.092106
-3.50000000 -2.00999999 0.03000000 51 206 127 0.000000 0.000000 0.000000 0.000000 -8.844074 0.000000 134.000000 -0.149523 0.984459 0.092106
-3.51999998 -2.01999998 0.01000000 51 206 127 0.000000 0.000000 0.000000 0.000000 -8.844074 0.000000 134.000000 0.092408 0.994226 -0.054554
-3.50000000 -2.00999999 0.03000000 51 206 127 0.000000 0.000000 0.000000 0.000000 -8.844074 0.000000 134.000000 -0.149523 0.984459 0.092106
-3.53999996 -1.95000005 0.01000000 51 206 127 0.000000 0.000000 0.000000 0.000000 -8.844074 0.000000 134.000000 -0.067438 0.890456 -0.450045
-3.51999998 -1.99000001 0.00000000 51 206 127 0.000000 0.000000 0.000000 0.000000 -8.844074 0.000000 134.000000 0.175995 0.969900 -0.168287
-3.50000000 -2.00999999 -0.03000000 51 206 127 0.000000 0.000000 0.000000 0.000000 -8.844074 0.000000 134.000000 -0.127133 0.834400 -0.536296
-3.50000000 -2.00000000 -0.01000000 51 206 127 0.000000 0.000000 0.000000 0.000000 -8.844074 0.000000 134.000000 -0.281647 0.947358 0.152278
-3.52999997 -1.97000003 -0.08000000 51 206 127 0.000000 0.000000 0.000000 0.000000 -8.844074 0.000000 134.000000 -0.057655 0.984848 -0.163553
-3.50999999 -1.97000003 -0.16000000 51 206 127 0.000000 0.000000 0.000000 0.000000 -8.844074 0.000000 134.000000 0.014401 0.991461 -0.129610
-3.52999997 -1.95000005 -0.20000000 51 206 127 0.000000 0.000000 0.000000 0.000000 -8.844074 0.000000 134.000000 0.294563 0.954486 0.046776
-3.51999998 -1.95000005 -0.17000000 51 206 127 0.000000 0.000000 0.000000 0.000000 -8.844074 0.000000 134.000000 0.456205 0.879310 -0.136718
-3.68000007 -1.87000000 0.41000000 51 206 127 0.000000 0.000000 0.000000 0.000000 -8.844074 0.000000 134.000000 -0.380298 0.918482 -0.108461
-2.64000010 -1.70000005 -1.27999997 51 206 127 0.000000 0.000000 0.000000 0.000000 -8.844074 0.000000 134.000000 0.902331 0.379241 0.204877
-2.63000011 -1.71000004 -1.26999998 51 206 127 0.000000 0.000000 0.000000 0.000000 -8.844074 0.000000 134.000000 0.641751 0.764670 0.058601
-3.10999990 -1.40999997 -1.23000002 51 206 127 0.000000 0.000000 0.000000 0.000000 -8.844074 0.000000 134.000000 0.013562 0.998378 -0.055292
-3.11999989 -1.41999996 -1.20000005 51 206 127 0.000000 0.000000 0.000000 0.000000 -8.844074 0.000000 134.000000 0.144633 0.889277 -0.433898
-2.69000006 -1.85000002 -0.85000002 51 206 127 0.000000 0.000000 0.000000 0.000000 -8.844074 0.000000 134.000000 0.739804 0.226790 0.633448
-2.71000004 -1.84000003 -0.83999997 51 206 127 0.000000 0.000000 0.000000 0.000000 -8.844074 0.000000 134.000000 0.936739 0.158186 0.312246
-2.70000005 -1.86000001 -0.83999997 51 206 127 0.000000 0.000000 0.000000 0.000000 -8.844074 0.000000 134.000000 0.794894 0.440174 0.417601
-2.72000003 -1.83000004 -0.83999997 51 206 127 0.000000 0.000000 0.000000 0.000000 -8.844074 0.000000 134.000000 0.943402 0.324906 0.066547
-2.72000003 -1.83000004 -0.83999997 51 206 127 0.000000 0.000000 0.000000 0.000000 -8.844074 0.000000 134.000000 0.943402 0.324906 0.066547
-2.71000004 -1.84000003 -0.85000002 51 206 127 0.000000 0.000000 0.000000 0.000000 -8.844074 0.000000 134.000000 0.937680 0.131628 0.321607
-2.71000004 -1.84000003 -0.85000002 51 206 127 0.000000 0.000000 0.000000 0.000000 -8.844074 0.000000 134.000000 0.937680 0.131628 0.321607
-2.73000002 -1.82000005 -0.88000000 51 206 127 0.000000 0.000000 0.000000 0.000000 -8.844074 0.000000 134.000000 0.974084 0.218772 0.057443
-2.73000002 -1.82000005 -0.88000000 51 206 127 0.000000 0.000000 0.000000 0.000000 -8.844074 0.000000 134.000000 0.974084 0.218772 0.057443
-2.94000006 -1.86000001 -0.89999998 51 206 127 0.000000 0.000000 0.000000 0.000000 -8.844074 0.000000 134.000000 0.769006 0.004142 0.639228
-2.97000003 -1.85000002 -0.87000000 51 206 127 0.000000 0.000000 0.000000 0.000000 -8.844074 0.000000 134.000000 0.807845 -0.100435 0.580775
-2.95000005 -1.85000002 -0.88999999 51 206 127 0.000000 0.000000 0.000000 0.000000 -8.844074 0.000000 134.000000 0.729024 -0.018191 0.684247
-3.20000005 -1.75999999 -0.28000000 51 206 127 0.000000 0.000000 0.000000 0.000000 -8.844074 0.000000 134.000000 0.925382 -0.320705 0.202030
-3.23000002 -1.72000003 -0.31999999 51 206 127 0.000000 0.000000 0.000000 0.000000 -8.844074 0.000000 134.000000 0.958925 0.272698 0.078097
-3.23000002 -1.73000002 -0.28999999 51 206 127 0.000000 0.000000 0.000000 0.000000 -8.844074 0.000000 134.000000 0.986881 0.119946 0.108070
-3.23000002 -1.74000001 -0.28999999 51 206 127 0.000000 0.000000 0.000000 0.000000 -8.844074 0.000000 134.000000 0.804107 0.366084 0.468396
-3.22000003 -1.76999998 -0.31999999 51 206 127 0.000000 0.000000 0.000000 0.000000 -8.844074 0.000000 134.000000 0.960504 0.096436 0.261021
-3.22000003 -1.76999998 -0.31999999 51 206 127 0.000000 0.000000 0.000000 0.000000 -8.844074 0.000000 134.000000 0.960504 0.096436 0.261021
-3.23000002 -1.74000001 -0.28999999 51 206 127 0.000000 0.000000 0.000000 0.000000 -8.844074 0.000000 134.000000 0.804107 0.366084 0.468396
-3.22000003 -1.75999999 -0.28999999 51 206 127 0.000000 0.000000 0.000000 0.000000 -8.844074 0.000000 134.000000 0.832714 -0.360475 0.420292
-3.22000003 -1.76999998 -0.30000001 51 206 127 0.000000 0.000000 0.000000 0.000000 -8.844074 0.000000 134.000000 0.957819 0.067596 0.279311
-3.23000002 -1.73000002 -0.33000001 51 206 127 0.000000 0.000000 0.000000 0.000000 -8.844074 0.000000 134.000000 0.867256 0.425303 0.258814
-3.24000001 -1.71000004 -0.33000001 51 206 127 0.000000 0.000000 0.000000 0.000000 -8.844074 0.000000 134.000000 0.918074 0.312751 0.243571
-3.24000001 -1.73000002 -0.37000000 51 206 127 0.000000 0.000000 0.000000 0.000000 -8.844074 0.000000 134.000000 0.691581 0.279507 0.666026
-3.23000002 -1.73000002 -0.37000000 51 206 127 0.000000 0.000000 0.000000 0.000000 -8.844074 0.000000 134.000000 0.934043 0.219857 0.281473
-3.24000001 -1.73000002 -0.36000001 51 206 127 0.000000 0.000000 0.000000 0.000000 -8.844074 0.000000 134.000000 0.873075 0.306262 0.379399
-3.24000001 -1.75999999 -0.37000000 51 206 127 0.000000 0.000000 0.000000 0.000000 -8.844074 0.000000 134.000000 0.896467 0.028056 0.442221
-3.21000004 -1.75999999 -0.34999999 51 206 127 0.000000 0.000000 0.000000 0.000000 -8.844074 0.000000 134.000000 0.895704 0.009234 0.444554
-3.21000004 -1.75999999 -0.33000001 51 206 127 0.000000 0.000000 0.000000 0.000000 -8.844074 0.000000 134.000000 0.880009 -0.362000 0.307473
-3.21000004 -1.75999999 -0.33000001 51 206 127 0.000000 0.000000 0.000000 0.000000 -8.844074 0.000000 134.000000 0.880009 -0.362000 0.307473
-3.22000003 -1.74000001 -0.41000000 51 206 127 0.000000 0.000000 0.000000 0.000000 -8.844074 0.000000 134.000000 0.874564 0.363515 0.320927
-3.27999997 -1.67999995 -0.25000000 51 206 127 0.000000 0.000000 0.000000 0.000000 -8.844074 0.000000 134.000000 0.688657 0.656401 0.308041
-3.27999997 -1.66999996 -0.25999999 51 206 127 0.000000 0.000000 0.000000 0.000000 -8.844074 0.000000 134.000000 0.704652 0.616366 0.351509
-3.25999999 -1.67999995 -0.31999999 51 206 127 0.000000 0.000000 0.000000 0.000000 -8.844074 0.000000 134.000000 0.699092 0.545592 0.462168
-3.27999997 -1.67999995 -0.30000001 51 206 127 0.000000 0.000000 0.000000 0.000000 -8.844074 0.000000 134.000000 0.973492 0.044856 0.224279
-3.27999997 -1.67999995 -0.30000001 51 206 127 0.000000 0.000000 0.000000 0.000000 -8.844074 0.000000 134.000000 0.973492 0.044856 0.224279
-3.27999997 -1.69000006 -0.31000000 51 206 127 0.000000 0.000000 0.000000 0.000000 -8.844074 0.000000 134.000000 0.830541 0.102554 0.547435
-3.25000000 -1.69000006 -0.30000001 51 206 127 0.000000 0.000000 0.000000 0.000000 -8.844074 0.000000 134.000000 0.835841 0.529218 0.145940
-3.27999997 -1.69000006 -0.30000001 51 206 127 0.000000 0.000000 0.000000 0.000000 -8.844074 0.000000 134.000000 0.936028 0.327406 0.129060
-3.27999997 -1.69000006 -0.31000000 51 206 127 0.000000 0.000000 0.000000 0.000000 -8.844074 0.000000 134.000000 0.830541 0.102554 0.547435
-3.27999997 -1.69000006 -0.30000001 51 206 127 0.000000 0.000000 0.000000 0.000000 -8.844074 0.000000 134.000000 0.936028 0.327406 0.129060
-3.25999999 -1.66999996 -0.28999999 51 206 127 0.000000 0.000000 0.000000 0.000000 -8.844074 0.000000 134.000000 0.830691 0.467753 0.301927
-3.27999997 -1.67999995 -0.30000001 51 206 127 0.000000 0.000000 0.000000 0.000000 -8.844074 0.000000 134.000000 0.973492 0.044856 0.224279
-3.27999997 -1.66999996 -0.31000000 51 206 127 0.000000 0.000000 0.000000 0.000000 -8.844074 0.000000 134.000000 0.639409 0.646052 0.416861
-3.27999997 -1.69000006 -0.30000001 51 206 127 0.000000 0.000000 0.000000 0.000000 -8.844074 0.000000 134.000000 0.936028 0.327406 0.129060
-3.31999993 -1.63999999 -0.31999999 51 206 127 0.000000 0.000000 0.000000 0.000000 -8.844074 0.000000 134.000000 0.821180 0.514977 0.245890
-3.31999993 -1.63000000 -0.31999999 51 206 127 0.000000 0.000000 0.000000 0.000000 -8.844074 0.000000 134.000000 0.704720 0.676718 0.213127
-3.31999993 -1.63999999 -0.31999999 51 206 127 0.000000 0.000000 0.000000 0.000000 -8.844074 0.000000 134.000000 0.821180 0.514977 0.245890
-3.29999995 -1.65999997 -0.28000000 51 206 127 0.000000 0.000000 0.000000 0.000000 -8.844074 0.000000 134.000000 0.942296 0.322050 -0.091446
-3.31999993 -1.64999998 -0.25999999 51 206 127 0.000000 0.000000 0.000000 0.000000 -8.844074 0.000000 134.000000 0.820322 0.369700 0.436341
-3.30999994 -1.67999995 -0.28000000 51 206 127 0.000000 0.000000 0.000000 0.000000 -8.844074 0.000000 134.000000 0.696503 0.651463 0.300799
-3.29999995 -1.69000006 -0.28000000 51 206 127 0.000000 0.000000 0.000000 0.000000 -8.844074 0.000000 134.000000 0.642644 0.609085 0.464784
-3.29999995 -1.65999997 -0.25999999 51 206 127 0.000000 0.000000 0.000000 0.000000 -8.844074 0.000000 134.000000 0.772276 0.619912 -0.138920
-3.31999993 -1.65999997 -0.25999999 51 206 127 0.000000 0.000000 0.000000 0.000000 -8.844074 0.000000 134.000000 0.907026 0.185430 0.378047
-3.31999993 -1.65999997 -0.25999999 51 206 127 0.000000 0.000000 0.000000 0.000000 -8.844074 0.000000 134.000000 0.907026 0.185430 0.378047
-3.30999994 -1.67999995 -0.27000001 51 206 127 0.000000 0.000000 0.000000 0.000000 -8.844074 0.000000 134.000000 0.858241 0.436005 0.270782
-3.30999994 -1.65999997 -0.28000000 51 206 127 0.000000 0.000000 0.000000 0.000000 -8.844074 0.000000 134.000000 0.782449 0.619379 0.064370
-3.31999993 -1.64999998 -0.27000001 51 206 127 0.000000 0.000000 0.000000 0.000000 -8.844074 0.000000 134.000000 0.625053 0.775878 0.085564
-3.29999995 -1.67999995 -0.31999999 51 206 127 0.000000 0.000000 0.000000 0.000000 -8.844074 0.000000 134.000000 0.913279 0.192946 0.358737
-3.29999995 -1.67999995 -0.31999999 51 206 127 0.000000 0.000000 0.000000 0.000000 -8.844074 0.000000 134.000000 0.913279 0.192946 0.358737
-3.29999995 -1.67999995 -0.30000001 51 206 127 0.000000 0.000000 0.000000 0.000000 -8.844074 0.000000 134.000000 0.900780 0.409961 -0.143274
