//X Y Z R G B PointSourceId ScanDirectionFlag NumberOfReturns ReturnNumber GpsTime Intensity Classification Nx Ny Nz
-1.38999999 14.40999985 -0.69999999 244 30 118 0.000000 0.000000 0.000000 0.000000 119.155926 0.000000 125.000000 -0.335773 0.893903 -0.296973
-1.42999995 14.44999981 -0.68000001 244 30 118 0.000000 0.000000 0.000000 0.000000 119.155926 0.000000 125.000000 -0.343841 0.913554 -0.217239
-1.42999995 14.38000011 -0.70999998 244 30 118 0.000000 0.000000 0.000000 0.000000 119.155926 0.000000 125.000000 -0.681244 0.687566 -0.251317
-1.32000005 14.42000008 -0.77999997 244 30 118 0.000000 0.000000 0.000000 0.000000 119.155926 0.000000 125.000000 -0.544589 0.772706 -0.326111
-1.30999994 14.43999958 -0.77999997 244 30 118 0.000000 0.000000 0.000000 0.000000 119.155926 0.000000 125.000000 -0.050169 0.896264 -0.440674
-1.29999995 14.43000031 -0.79000002 244 30 118 0.000000 0.000000 0.000000 0.000000 119.155926 0.000000 125.000000 0.053465 0.996201 -0.068741
-1.33000004 14.43000031 -0.76999998 244 30 118 0.000000 0.000000 0.000000 0.000000 119.155926 0.000000 125.000000 -0.514954 0.776466 -0.363212
-1.32000005 14.42000008 -0.81999999 244 30 118 0.000000 0.000000 0.000000 0.000000 119.155926 0.000000 125.000000 -0.088966 0.912932 -0.398296
-1.32000005 14.42000008 -0.81999999 244 30 118 0.000000 0.000000 0.000000 0.000000 119.155926 0.000000 125.000000 -0.088966 0.912932 -0.398296
-1.34000003 14.39000034 -0.79000002 244 30 118 0.000000 0.000000 0.000000 0.000000 119.155926 0.000000 125.000000 -0.602938 0.779111 -0.171617
-1.32000005 14.39000034 -0.76999998 244 30 118 0.000000 0.000000 0.000000 0.000000 119.155926 0.000000 125.000000 0.110267 0.977532 -0.179648
-1.30999994 14.39000034 -0.81000000 244 30 118 0.000000 0.000000 0.000000 0.000000 119.155926 0.000000 125.000000 -0.482673 0.841230 -0.243635
-1.29999995 14.39000034 -0.82999998 244 30 118 0.000000 0.000000 0.000000 0.000000 119.155926 0.000000 125.000000 0.198951 0.971946 -0.125453
-1.36000001 14.42000008 -0.75999999 244 30 118 0.000000 0.000000 0.000000 0.000000 119.155926 0.000000 125.000000 -0.060190 0.852461 -0.519315
-1.36000001 14.39000034 -0.76999998 244 30 118 0.000000 0.000000 0.000000 0.000000 119.155926 0.000000 125.000000 -0.372261 0.911397 -0.175433
-1.36000001 14.39999962 -0.75999999 244 30 118 0.000000 0.000000 0.000000 0.000000 119.155926 0.000000 125.000000 -0.088682 0.980361 -0.176149
-1.36000001 14.39999962 -0.75999999 244 30 118 0.000000 0.000000 0.000000 0.000000 119.155926 0.000000 125.000000 -0.088682 0.980361 -0.176149
-1.36000001 14.39999962 -0.75999999 244 30 118 0.000000 0.000000 0.000000 0.000000 119.155926 0.000000 125.000000 -0.088682 0.980361 -0.176149
-1.36000001 14.39999962 -0.81000000 244 30 118 0.000000 0.000000 0.000000 0.000000 119.155926 0.000000 125.000000 -0.067079 0.937792 -0.340657
-1.36000001 14.39000034 -0.80000001 244 30 118 0.000000 0.000000 0.000000 0.000000 119.155926 0.000000 125.000000 -0.548395 0.761929 -0.344567
-1.36000001 14.39999962 -0.80000001 244 30 118 0.000000 0.000000 0.000000 0.000000 119.155926 0.000000 125.000000 -0.311424 0.901801 -0.299616
-1.36000001 14.40999985 -0.82999998 244 30 118 0.000000 0.000000 0.000000 0.000000 119.155926 0.000000 125.000000 0.043777 0.792231 -0.608648
-1.37000000 14.40999985 -0.82999998 244 30 118 0.000000 0.000000 0.000000 0.000000 119.155926 0.000000 125.000000 -0.362296 0.650820 -0.667214
-1.33000004 14.44999981 -0.88000000 244 30 118 0.000000 0.000000 0.000000 0.000000 119.155926 0.000000 125.000000 -0.308493 0.831522 -0.461957
-1.33000004 14.44999981 -0.88000000 244 30 118 0.000000 0.000000 0.000000 0.000000 119.155926 0.000000 125.000000 -0.308493 0.831522 -0.461957
-1.33000004 14.44999981 -0.88000000 244 30 118 0.000000 0.000000 0.000000 0.000000 119.155926 0.000000 125.000000 -0.308493 0.831522 -0.461957
-1.30999994 14.44999981 -0.88000000 244 30 118 0.000000 0.000000 0.000000 0.000000 119.155926 0.000000 125.000000 0.061620 0.993758 -0.092990
-1.32000005 14.44999981 -0.88000000 244 30 118 0.000000 0.000000 0.000000 0.000000 119.155926 0.000000 125.000000 -0.209710 0.849400 -0.484294
-1.30999994 14.40999985 -0.87000000 244 30 118 0.000000 0.000000 0.000000 0.000000 119.155926 0.000000 125.000000 0.360475 0.832714 -0.420292
-1.36000001 14.39000034 -0.89999998 244 30 118 0.000000 0.000000 0.000000 0.000000 119.155926 0.000000 125.000000 0.043800 0.789810 -0.611785
-1.37000000 14.40999985 -0.92000002 244 30 118 0.000000 0.000000 0.000000 0.000000 119.155926 0.000000 125.000000 -0.019436 0.999430 -0.027620
-1.35000002 14.38000011 -0.91000003 244 30 118 0.000000 0.000000 0.000000 0.000000 119.155926 0.000000 125.000000 0.048119 0.873015 -0.485314
-1.33000004 14.35999966 -0.75999999 244 30 118 0.000000 0.000000 0.000000 0.000000 119.155926 0.000000 125.000000 -0.506091 0.796654 -0.330476
-1.30999994 14.35000038 -0.81999999 244 30 118 0.000000 0.000000 0.000000 0.000000 119.155926 0.000000 125.000000 0.164376 0.966842 -0.195439
-1.34000003 14.32999992 -0.77999997 244 30 118 0.000000 0.000000 0.000000 0.000000 119.155926 0.000000 125.000000 -0.195484 0.958801 -0.206122
-1.33000004 14.31999969 -0.80000001 244 30 118 0.000000 0.000000 0.000000 0.000000 119.155926 0.000000 125.000000 -0.527307 0.841077 -0.120569
-1.36000001 14.36999989 -0.75999999 244 30 118 0.000000 0.000000 0.000000 0.000000 119.155926 0.000000 125.000000 -0.222025 0.892513 -0.392588
-1.37000000 14.35999966 -0.79000002 244 30 118 0.000000 0.000000 0.000000 0.000000 119.155926 0.000000 125.000000 -0.456171 0.889601 0.022742
-1.35000002 14.31999969 -0.79000002 244 30 118 0.000000 0.000000 0.000000 0.000000 119.155926 0.000000 125.000000 -0.229167 0.973061 0.025196
-1.36000001 14.31999969 -0.76999998 244 30 118 0.000000 0.000000 0.000000 0.000000 119.155926 0.000000 125.000000 -0.523403 0.837741 0.155686
-1.33000004 14.36999989 -0.87000000 244 30 118 0.000000 0.000000 0.000000 0.000000 119.155926 0.000000 125.000000 0.107989 0.850950 -0.514026
-1.33000004 14.34000015 -0.89999998 244 30 118 0.000000 0.000000 0.000000 0.000000 119.155926 0.000000 125.000000 0.039906 0.941021 -0.335987
-1.32000005 14.32999992 -0.86000001 244 30 118 0.000000 0.000000 0.000000 0.000000 119.155926 0.000000 125.000000 0.088070 0.922704 -0.375314
-1.33000004 14.32999992 -0.92000002 244 30 118 0.000000 0.000000 0.000000 0.000000 119.155926 0.000000 125.000000 0.180505 0.802412 -0.568817
-1.38000000 14.36999989 -0.92000002 244 30 118 0.000000 0.000000 0.000000 0.000000 119.155926 0.000000 125.000000 0.105691 0.986847 -0.122317
-1.39999998 14.38000011 -0.76999998 244 30 118 0.000000 0.000000 0.000000 0.000000 119.155926 0.000000 125.000000 -0.639954 0.623245 -0.449472
-1.38999999 14.38000011 -0.77999997 244 30 118 0.000000 0.000000 0.000000 0.000000 119.155926 0.000000 125.000000 -0.253040 0.966491 -0.043202
-1.40999997 14.38000011 -0.76999998 244 30 118 0.000000 0.000000 0.000000 0.000000 119.155926 0.000000 125.000000 -0.327528 0.849089 -0.414455
-1.40999997 14.35000038 -0.80000001 244 30 118 0.000000 0.000000 0.000000 0.000000 119.155926 0.000000 125.000000 -0.331390 0.937821 0.103308
-1.29999995 14.21000004 -0.70999998 244 30 118 0.000000 0.000000 0.000000 0.000000 119.155926 0.000000 125.000000 0.585938 0.656452 -0.475130
-1.29999995 14.21000004 -0.72000003 244 30 118 0.000000 0.000000 0.000000 0.000000 119.155926 0.000000 125.000000 0.701991 0.498564 -0.508569
-1.29999995 14.21000004 -0.72000003 244 30 118 0.000000 0.000000 0.000000 0.000000 119.155926 0.000000 125.000000 0.701991 0.498564 -0.508569
-1.30999994 14.21000004 -0.72000003 244 30 118 0.000000 0.000000 0.000000 0.000000 119.155926 0.000000 125.000000 0.531480 0.598970 -0.598970
-1.29999995 14.19999981 -0.73000002 244 30 118 0.000000 0.000000 0.000000 0.000000 119.155926 0.000000 125.000000 0.284622 0.880973 -0.377990
-1.37000000 14.17000008 -0.74000001 244 30 118 0.000000 0.000000 0.000000 0.000000 119.155926 0.000000 125.000000 0.870359 0.223207 -0.438924
-1.44000006 14.14000034 -0.69000000 244 30 118 0.000000 0.000000 0.000000 0.000000 119.155926 0.000000 125.000000 0.869773 0.438629 -0.226051
-1.34000003 14.27999973 -0.82999998 244 30 118 0.000000 0.000000 0.000000 0.000000 119.155926 0.000000 125.000000 -0.430392 0.898149 -0.089953
-1.30999994 14.23999977 -0.76999998 244 30 118 0.000000 0.000000 0.000000 0.000000 119.155926 0.000000 125.000000 -0.081022 0.980732 -0.177765
-1.34000003 14.27000046 -0.85000002 244 30 118 0.000000 0.000000 0.000000 0.000000 119.155926 0.000000 125.000000 -0.444977 0.873692 -0.196618
-1.34000003 14.27000046 -0.85000002 244 30 118 0.000000 0.000000 0.000000 0.000000 119.155926 0.000000 125.000000 -0.444977 0.873692 -0.196618
-1.29999995 14.21000004 -0.86000001 244 30 118 0.000000 0.000000 0.000000 0.000000 119.155926 0.000000 125.000000 0.796987 0.354395 -0.489097
-1.30999994 14.23999977 -0.83999997 244 30 118 0.000000 0.000000 0.000000 0.000000 119.155926 0.000000 125.000000 0.507512 0.635655 -0.581700
-1.36000001 14.25000000 -0.91000003 244 30 118 0.000000 0.000000 0.000000 0.000000 119.155926 0.000000 125.000000 0.313064 0.868943 -0.383312
-1.35000002 14.25000000 -0.89999998 244 30 118 0.000000 0.000000 0.000000 0.000000 119.155926 0.000000 125.000000 -0.032126 0.993691 -0.107456
-1.37000000 14.22999954 -0.92000002 244 30 118 0.000000 0.000000 0.000000 0.000000 119.155926 0.000000 125.000000 0.006926 0.735582 -0.677400
-1.36000001 14.22999954 -0.91000003 244 30 118 0.000000 0.000000 0.000000 0.000000 119.155926 0.000000 125.000000 -0.159265 0.932048 -0.325455
-1.36000001 14.23999977 -0.88000000 244 30 118 0.000000 0.000000 0.000000 0.000000 119.155926 0.000000 125.000000 0.031014 0.883232 -0.467910
-1.34000003 14.19999981 -0.82999998 244 30 118 0.000000 0.000000 0.000000 0.000000 119.155926 0.000000 125.000000 -0.182133 0.745368 -0.641292
-1.33000004 14.18000031 -0.82999998 244 30 118 0.000000 0.000000 0.000000 0.000000 119.155926 0.000000 125.000000 -0.480835 -0.396648 0.781964
-1.33000004 14.18000031 -0.82999998 244 30 118 0.000000 0.000000 0.000000 0.000000 119.155926 0.000000 125.000000 -0.480835 -0.396648 0.781964
-1.34000003 14.19999981 -0.82999998 244 30 118 0.000000 0.000000 0.000000 0.000000 119.155926 0.000000 125.000000 -0.182133 0.745368 -0.641292
-1.33000004 14.18000031 -0.82999998 244 30 118 0.000000 0.000000 0.000000 0.000000 119.155926 0.000000 125.000000 -0.480835 -0.396648 0.781964
-1.37000000 14.14000034 -0.77999997 244 30 118 0.000000 0.000000 0.000000 0.000000 119.155926 0.000000 125.000000 0.248201 0.830933 -0.497943
-1.33000004 14.18000031 -0.83999997 244 30 118 0.000000 0.000000 0.000000 0.000000 119.155926 0.000000 125.000000 0.749027 0.567837 -0.341349
-1.33000004 14.17000008 -0.88000000 244 30 118 0.000000 0.000000 0.000000 0.000000 119.155926 0.000000 125.000000 0.848240 0.454139 -0.272483
-1.35000002 14.18000031 -0.87000000 244 30 118 0.000000 0.000000 0.000000 0.000000 119.155926 0.000000 125.000000 -0.117934 0.831360 -0.543077
-1.42999995 14.23999977 -0.92000002 244 30 118 0.000000 0.000000 0.000000 0.000000 119.155926 0.000000 125.000000 -0.472522 0.875929 -0.097325
-1.40999997 14.11999989 -0.81999999 244 30 118 0.000000 0.000000 0.000000 0.000000 119.155926 0.000000 125.000000 -0.472118 -0.626691 0.619970
-1.41999996 14.13000011 -0.82999998 244 30 118 0.000000 0.000000 0.000000 0.000000 119.155926 0.000000 125.000000 0.936631 0.109161 -0.332875
-1.42999995 14.14999962 -0.79000002 244 30 118 0.000000 0.000000 0.000000 0.000000 119.155926 0.000000 125.000000 0.817573 -0.040529 -0.574397
-1.38999999 14.13000011 -0.85000002 244 30 118 0.000000 0.000000 0.000000 0.000000 119.155926 0.000000 125.000000 0.735849 0.448124 -0.507653
-1.29999995 14.56000042 -0.93000001 244 30 118 0.000000 0.000000 0.000000 0.000000 119.155926 0.000000 125.000000 0.086908 0.968582 -0.233014
-1.30999994 14.52000046 -0.97000003 244 30 118 0.000000 0.000000 0.000000 0.000000 119.155926 0.000000 125.000000 -0.023809 -0.645634 0.763276
-1.32000005 14.52000046 -1.09000003 244 30 118 0.000000 0.000000 0.000000 0.000000 119.155926 0.000000 125.000000 -0.176708 0.883541 -0.433738
-1.32000005 14.50000000 -1.13999999 244 30 118 0.000000 0.000000 0.000000 0.000000 119.155926 0.000000 125.000000 -0.187141 0.801817 -0.567510
-1.33000004 14.43999958 -0.99000001 244 30 118 0.000000 0.000000 0.000000 0.000000 119.155926 0.000000 125.000000 -0.345520 0.856827 -0.382706
-1.30999994 14.43999958 -0.98000002 244 30 118 0.000000 0.000000 0.000000 0.000000 119.155926 0.000000 125.000000 0.028754 0.953885 -0.298792
-1.34000003 14.39000034 -0.94000000 244 30 118 0.000000 0.000000 0.000000 0.000000 119.155926 0.000000 125.000000 0.313130 0.842803 -0.437759
-1.36000001 14.39999962 -0.94000000 244 30 118 0.000000 0.000000 0.000000 0.000000 119.155926 0.000000 125.000000 -0.098341 0.732422 -0.673711
-1.36000001 14.39000034 -0.99000001 244 30 118 0.000000 0.000000 0.000000 0.000000 119.155926 0.000000 125.000000 0.267735 0.831063 -0.487495
-1.36000001 14.39000034 -0.97000003 244 30 118 0.000000 0.000000 0.000000 0.000000 119.155926 0.000000 125.000000 -0.019623 0.914443 -0.404239
-1.34000003 14.22000027 -0.98000002 244 30 118 0.000000 0.000000 0.000000 0.000000 119.155926 0.000000 125.000000 0.067740 0.928436 -0.365264
-1.35000002 14.27000046 -0.97000003 244 30 118 0.000000 0.000000 0.000000 0.000000 119.155926 0.000000 125.000000 -0.104102 0.784431 -0.611417
-1.35000002 14.23999977 -0.95999998 244 30 118 0.000000 0.000000 0.000000 0.000000 119.155926 0.000000 125.000000 0.440294 0.761102 -0.476303
-1.38000000 14.22000027 -0.93000001 244 30 118 0.000000 0.000000 0.000000 0.000000 119.155926 0.000000 125.000000 -0.306598 0.838865 -0.449781
-1.36000001 14.22999954 -0.97000003 244 30 118 0.000000 0.000000 0.000000 0.000000 119.155926 0.000000 125.000000 0.143066 0.959464 -0.242819
-1.35000002 14.23999977 -1.00999999 244 30 118 0.000000 0.000000 0.000000 0.000000 119.155926 0.000000 125.000000 0.198217 0.827669 -0.525047
-1.29999995 14.19999981 -0.95999998 244 30 118 0.000000 0.000000 0.000000 0.000000 119.155926 0.000000 125.000000 0.710107 0.172564 -0.682619
-1.29999995 14.18000031 -0.98000002 244 30 118 0.000000 0.000000 0.000000 0.000000 119.155926 0.000000 125.000000 0.399184 0.677454 -0.617825
-1.36000001 14.19999981 -0.93000001 244 30 118 0.000000 0.000000 0.000000 0.000000 119.155926 0.000000 125.000000 -0.222768 -0.612222 0.758656
-1.36000001 14.17000008 -0.94000000 244 30 118 0.000000 0.000000 0.000000 0.000000 119.155926 0.000000 125.000000 -0.067809 -0.748785 0.659335
-1.38000000 14.13000011 -0.93000001 244 30 118 0.000000 0.000000 0.000000 0.000000 119.155926 0.000000 125.000000 0.606663 0.686009 -0.401687
-1.38000000 14.11999989 -0.95999998 244 30 118 0.000000 0.000000 0.000000 0.000000 119.155926 0.000000 125.000000 -0.607366 -0.058319 0.792279
-1.38000000 14.13000011 -0.94000000 244 30 118 0.000000 0.000000 0.000000 0.000000 119.155926 0.000000 125.000000 0.819034 0.488905 -0.300260
-1.40999997 14.14999962 -0.95999998 244 30 118 0.000000 0.000000 0.000000 0.000000 119.155926 0.000000 125.000000 -0.413009 0.768883 -0.488102
-1.39999998 14.15999985 -0.93000001 244 30 118 0.000000 0.000000 0.000000 0.000000 119.155926 0.000000 125.000000 -0.049664 0.951264 -0.304353
-1.38999999 14.14999962 -0.94999999 244 30 118 0.000000 0.000000 0.000000 0.000000 119.155926 0.000000 125.000000 0.100812 0.974518 -0.200380
-1.39999998 14.15999985 -0.94000000 244 30 118 0.000000 0.000000 0.000000 0.000000 119.155926 0.000000 125.000000 -0.379083 0.838387 -0.391667
-1.38999999 14.14999962 -0.94999999 244 30 118 0.000000 0.000000 0.000000 0.000000 119.155926 0.000000 125.000000 0.100812 0.974518 -0.200380
-1.40999997 14.14000034 -0.99000001 244 30 118 0.000000 0.000000 0.000000 0.000000 119.155926 0.000000 125.000000 0.065417 0.971381 -0.228342
-1.41999996 14.14000034 -0.98000002 244 30 118 0.000000 0.000000 0.000000 0.000000 119.155926 0.000000 125.000000 -0.140826 0.988111 0.061684
-1.40999997 14.14000034 -0.98000002 244 30 118 0.000000 0.000000 0.000000 0.000000 119.155926 0.000000 125.000000 -0.214335 0.970216 -0.112875
-1.39999998 14.11999989 -1.01999998 244 30 118 0.000000 0.000000 0.000000 0.000000 119.155926 0.000000 125.000000 0.437034 0.844518 -0.309501
-1.39999998 14.11999989 -1.00999999 244 30 118 0.000000 0.000000 0.000000 0.000000 119.155926 0.000000 125.000000 0.270901 0.887539 -0.372676
-1.46000004 14.15999985 -1.04999995 244 30 118 0.000000 0.000000 0.000000 0.000000 119.155926 0.000000 125.000000 -0.113849 0.956594 -0.268265
-1.53999996 14.14000034 -1.19000006 244 30 118 0.000000 0.000000 0.000000 0.000000 119.155926 0.000000 125.000000 -0.087469 0.983723 -0.156964
-1.52999997 14.15999985 -1.17999995 244 30 118 0.000000 0.000000 0.000000 0.000000 119.155926 0.000000 125.000000 -0.357710 0.912233 -0.199686
-1.35000002 14.28999996 -1.47000003 244 30 118 0.000000 0.000000 0.000000 0.000000 119.155926 0.000000 144.000000 0.628811 0.721613 -0.289605
-1.39999998 14.31000042 -1.45000005 244 30 118 0.000000 0.000000 0.000000 0.000000 119.155926 0.000000 144.000000 0.070088 0.934947 -0.347795
-1.39999998 14.25000000 -1.38000000 244 30 118 0.000000 0.000000 0.000000 0.000000 119.155926 0.000000 144.000000 -0.200573 -0.577220 0.791573
-1.38000000 14.27999973 -1.49000001 244 30 118 0.000000 0.000000 0.000000 0.000000 119.155926 0.000000 144.000000 0.169604 0.907880 -0.383390
-1.37000000 14.23999977 -1.50999999 244 30 118 0.000000 0.000000 0.000000 0.000000 119.155926 0.000000 144.000000 0.677541 0.437821 -0.590975
-1.53999996 14.14999962 -1.25999999 244 30 118 0.000000 0.000000 0.000000 0.000000 119.155926 0.000000 125.000000 -0.226333 0.889058 -0.397931
-1.52999997 14.14999962 -1.26999998 244 30 118 0.000000 0.000000 0.000000 0.000000 119.155926 0.000000 125.000000 0.091506 0.877048 -0.471607
-1.51999998 14.14000034 -1.26999998 244 30 118 0.000000 0.000000 0.000000 0.000000 119.155926 0.000000 125.000000 0.231088 0.896384 -0.378277
-1.50999999 14.13000011 -1.26999998 244 30 118 0.000000 0.000000 0.000000 0.000000 119.155926 0.000000 125.000000 0.345520 0.856827 -0.382706
-1.53999996 14.10000038 -0.51999998 244 30 118 0.000000 0.000000 0.000000 0.000000 119.155926 0.000000 125.000000 0.846644 0.249553 -0.470018
-1.52999997 14.06999969 -0.56000000 244 30 118 0.000000 0.000000 0.000000 0.000000 119.155926 0.000000 125.000000 0.887663 0.067435 -0.455529
-1.53999996 14.06000042 -0.56999999 244 30 118 0.000000 0.000000 0.000000 0.000000 119.155926 0.000000 125.000000 0.865860 0.358340 -0.349112
-1.51999998 14.06000042 -0.55000001 244 30 118 0.000000 0.000000 0.000000 0.000000 119.155926 0.000000 125.000000 -0.433168 -0.552663 0.711989
-1.52999997 14.06000042 -0.56000000 244 30 118 0.000000 0.000000 0.000000 0.000000 119.155926 0.000000 125.000000 0.832406 0.522323 -0.185146
-1.52999997 14.00000000 -0.52999997 244 30 118 0.000000 0.000000 0.000000 0.000000 119.155926 0.000000 125.000000 -0.232453 -0.591274 0.772244
-1.54999995 14.02000046 -0.54000002 244 30 118 0.000000 0.000000 0.000000 0.000000 119.155926 0.000000 125.000000 0.701717 0.179652 -0.689433
-1.54999995 14.02000046 -0.54000002 244 30 118 0.000000 0.000000 0.000000 0.000000 119.155926 0.000000 125.000000 0.701717 0.179652 -0.689433
-1.52999997 14.00000000 -0.52999997 244 30 118 0.000000 0.000000 0.000000 0.000000 119.155926 0.000000 125.000000 -0.232453 -0.591274 0.772244
-1.55999994 14.10000038 -0.50000000 244 30 118 0.000000 0.000000 0.000000 0.000000 119.155926 0.000000 125.000000 0.825986 0.108873 -0.553077
-1.46000004 14.10999966 -0.72000003 244 30 118 0.000000 0.000000 0.000000 0.000000 119.155926 0.000000 125.000000 -0.435245 -0.595335 0.675380
-1.45000005 14.10000038 -0.88999999 244 30 118 0.000000 0.000000 0.000000 0.000000 119.155926 0.000000 125.000000 0.701062 0.172593 -0.691898
-1.47000003 14.10999966 -0.91000003 244 30 118 0.000000 0.000000 0.000000 0.000000 119.155926 0.000000 125.000000 0.741372 0.339052 -0.579146
-1.40999997 14.10000038 -1.00000000 244 30 118 0.000000 0.000000 0.000000 0.000000 119.155926 0.000000 125.000000 0.287852 0.803782 -0.520649
-1.39999998 14.10999966 -0.99000001 244 30 118 0.000000 0.000000 0.000000 0.000000 119.155926 0.000000 125.000000 0.432213 0.622453 -0.652491
-1.39999998 14.09000015 -1.01999998 244 30 118 0.000000 0.000000 0.000000 0.000000 119.155926 0.000000 125.000000 0.690948 0.405953 -0.598159
-1.41999996 14.09000015 -1.00999999 244 30 118 0.000000 0.000000 0.000000 0.000000 119.155926 0.000000 125.000000 0.372823 0.879983 -0.294334
-1.41999996 14.09000015 -1.00999999 244 30 118 0.000000 0.000000 0.000000 0.000000 119.155926 0.000000 125.000000 0.372823 0.879983 -0.294334
-1.40999997 14.06999969 -1.02999997 244 30 118 0.000000 0.000000 0.000000 0.000000 119.155926 0.000000 125.000000 0.814789 -0.330662 -0.476216
-1.41999996 14.06000042 -1.04999995 244 30 118 0.000000 0.000000 0.000000 0.000000 119.155926 0.000000 125.000000 0.893568 0.011914 -0.448770
-1.41999996 14.06999969 -1.04999995 244 30 118 0.000000 0.000000 0.000000 0.000000 119.155926 0.000000 125.000000 0.877846 -0.212406 -0.429268
-1.44000006 14.10999966 -1.03999996 244 30 118 0.000000 0.000000 0.000000 0.000000 119.155926 0.000000 125.000000 -0.383564 0.894982 -0.227787
-1.42999995 14.09000015 -1.01999998 244 30 118 0.000000 0.000000 0.000000 0.000000 119.155926 0.000000 125.000000 0.141910 0.970361 -0.195606
-1.45000005 14.10000038 -1.05999994 244 30 118 0.000000 0.000000 0.000000 0.000000 119.155926 0.000000 125.000000 -0.374437 0.926238 -0.043356
-1.42999995 14.10000038 -1.07000005 244 30 118 0.000000 0.000000 0.000000 0.000000 119.155926 0.000000 125.000000 0.409698 0.888413 -0.207052
-1.45000005 14.07999992 -1.07000005 244 30 118 0.000000 0.000000 0.000000 0.000000 119.155926 0.000000 125.000000 0.210897 0.962792 -0.168980
-1.45000005 14.07999992 -1.07000005 244 30 118 0.000000 0.000000 0.000000 0.000000 119.155926 0.000000 125.000000 0.210897 0.962792 -0.168980
-1.44000006 14.07999992 -1.08000004 244 30 118 0.000000 0.000000 0.000000 0.000000 119.155926 0.000000 125.000000 -0.405107 -0.450298 0.795688
-1.46000004 14.05000019 -1.09000003 244 30 118 0.000000 0.000000 0.000000 0.000000 119.155926 0.000000 125.000000 0.417156 0.869201 -0.265463
-1.42999995 14.06999969 -1.08000004 244 30 118 0.000000 0.000000 0.000000 0.000000 119.155926 0.000000 125.000000 0.613500 0.343365 -0.711139
-1.42999995 14.06999969 -1.08000004 244 30 118 0.000000 0.000000 0.000000 0.000000 119.155926 0.000000 125.000000 0.613500 0.343365 -0.711139
-1.42999995 14.06999969 -1.04999995 244 30 118 0.000000 0.000000 0.000000 0.000000 119.155926 0.000000 125.000000 0.851406 0.317920 -0.417174
-1.44000006 14.06999969 -1.05999994 244 30 118 0.000000 0.000000 0.000000 0.000000 119.155926 0.000000 125.000000 -0.388613 -0.388613 0.835440
-1.42999995 14.05000019 -1.07000005 244 30 118 0.000000 0.000000 0.000000 0.000000 119.155926 0.000000 125.000000 0.961921 0.153122 -0.226411
-1.37000000 14.07999992 -1.11000001 244 30 118 0.000000 0.000000 0.000000 0.000000 119.155926 0.000000 125.000000 0.759362 -0.152476 -0.632550
-1.41999996 14.09000015 -1.13999999 244 30 118 0.000000 0.000000 0.000000 0.000000 119.155926 0.000000 125.000000 0.676202 0.548680 -0.491631
-1.46000004 14.05000019 -1.10000002 244 30 118 0.000000 0.000000 0.000000 0.000000 119.155926 0.000000 125.000000 0.425727 0.879637 -0.212122
-1.45000005 14.06000042 -1.15999997 244 30 118 0.000000 0.000000 0.000000 0.000000 119.155926 0.000000 125.000000 0.542748 0.799262 -0.258079
-1.47000003 14.07999992 -1.09000003 244 30 118 0.000000 0.000000 0.000000 0.000000 119.155926 0.000000 125.000000 -0.072728 0.898814 -0.432254
-1.50000000 14.10999966 -1.13000000 244 30 118 0.000000 0.000000 0.000000 0.000000 119.155926 0.000000 125.000000 -0.005627 0.986950 -0.160928
-1.48000002 14.10999966 -1.13000000 244 30 118 0.000000 0.000000 0.000000 0.000000 119.155926 0.000000 125.000000 -0.049524 0.790967 -0.609851
-1.48000002 14.10999966 -1.13000000 244 30 118 0.000000 0.000000 0.000000 0.000000 119.155926 0.000000 125.000000 -0.049524 0.790967 -0.609851
-1.47000003 14.10999966 -1.10000002 244 30 118 0.000000 0.000000 0.000000 0.000000 119.155926 0.000000 125.000000 0.148571 0.884212 -0.442827
-1.50000000 14.10999966 -1.13999999 244 30 118 0.000000 0.000000 0.000000 0.000000 119.155926 0.000000 125.000000 0.008913 0.930792 -0.365441
-1.48000002 14.06999969 -1.10000002 244 30 118 0.000000 0.000000 0.000000 0.000000 119.155926 0.000000 125.000000 -0.217427 0.947653 -0.233836
-1.50000000 14.03999996 -1.20000005 244 30 118 0.000000 0.000000 0.000000 0.000000 119.155926 0.000000 125.000000 0.454042 0.621585 -0.638340
-1.48000002 14.01000023 -1.16999996 244 30 118 0.000000 0.000000 0.000000 0.000000 119.155926 0.000000 125.000000 0.742742 0.591294 -0.314175
-1.48000002 14.01000023 -1.15999997 244 30 118 0.000000 0.000000 0.000000 0.000000 119.155926 0.000000 125.000000 0.725356 0.546909 -0.418030
-1.48000002 14.02000046 -1.13999999 244 30 118 0.000000 0.000000 0.000000 0.000000 119.155926 0.000000 125.000000 0.600785 0.560169 -0.570323
-1.48000002 14.01000023 -1.15999997 244 30 118 0.000000 0.000000 0.000000 0.000000 119.155926 0.000000 125.000000 0.725356 0.546909 -0.418030
-1.49000001 14.02000046 -1.20000005 244 30 118 0.000000 0.000000 0.000000 0.000000 119.155926 0.000000 125.000000 -0.497488 -0.329010 0.802657
-1.49000001 14.02000046 -1.20000005 244 30 118 0.000000 0.000000 0.000000 0.000000 119.155926 0.000000 125.000000 -0.497488 -0.329010 0.802657
-1.48000002 13.98999977 -1.20000005 244 30 118 0.000000 0.000000 0.000000 0.000000 119.155926 0.000000 125.000000 0.983040 -0.038665 -0.179267
-1.48000002 13.97999954 -1.21000004 244 30 118 0.000000 0.000000 0.000000 0.000000 119.155926 0.000000 125.000000 0.982619 -0.177038 -0.055844
-1.48000002 13.98999977 -1.24000001 244 30 118 0.000000 0.000000 0.000000 0.000000 119.155926 0.000000 125.000000 0.761404 0.175474 -0.624077
-1.49000001 13.96000004 -1.25000000 244 30 118 0.000000 0.000000 0.000000 0.000000 119.155926 0.000000 125.000000 0.974834 -0.049774 -0.217304
-1.48000002 13.98999977 -1.22000003 244 30 118 0.000000 0.000000 0.000000 0.000000 119.155926 0.000000 125.000000 0.770285 -0.148651 -0.620132
-1.48000002 13.97999954 -1.22000003 244 30 118 0.000000 0.000000 0.000000 0.000000 119.155926 0.000000 125.000000 0.906635 0.060803 -0.417512
-1.51999998 13.98999977 -1.26999998 244 30 118 0.000000 0.000000 0.000000 0.000000 119.155926 0.000000 125.000000 0.640733 0.502832 -0.580191
-1.50999999 13.97999954 -1.25999999 244 30 118 0.000000 0.000000 0.000000 0.000000 119.155926 0.000000 125.000000 0.772813 0.262851 -0.577642
-1.52999997 13.98999977 -1.26999998 244 30 118 0.000000 0.000000 0.000000 0.000000 119.155926 0.000000 125.000000 0.498237 0.704864 -0.504903
-1.50999999 13.97999954 -1.25999999 244 30 118 0.000000 0.000000 0.000000 0.000000 119.155926 0.000000 125.000000 0.772813 0.262851 -0.577642
-1.50999999 13.97000027 -1.26999998 244 30 118 0.000000 0.000000 0.000000 0.000000 119.155926 0.000000 125.000000 0.876819 0.094297 -0.471484
-1.48000002 13.90999985 -1.33000004 244 30 118 0.000000 0.000000 0.000000 0.000000 119.155926 0.000000 125.000000 0.896132 0.183859 -0.403911
-1.52999997 13.93000031 -1.29999995 244 30 118 0.000000 0.000000 0.000000 0.000000 119.155926 0.000000 125.000000 0.898137 -0.246287 -0.364269
-1.50999999 13.93999958 -1.27999997 244 30 118 0.000000 0.000000 0.000000 0.000000 119.155926 0.000000 125.000000 0.822079 -0.418195 -0.386393
-1.52999997 13.93000031 -1.32000005 244 30 118 0.000000 0.000000 0.000000 0.000000 119.155926 0.000000 125.000000 0.938269 0.064301 -0.339877
-1.52999997 13.92000008 -1.32000005 244 30 118 0.000000 0.000000 0.000000 0.000000 119.155926 0.000000 125.000000 0.967383 -0.212541 -0.137829
-1.54999995 13.93000031 -1.30999994 244 30 118 0.000000 0.000000 0.000000 0.000000 119.155926 0.000000 125.000000 0.880656 -0.338014 -0.331951
-1.54999995 13.92000008 -1.36000001 244 30 118 0.000000 0.000000 0.000000 0.000000 119.155926 0.000000 125.000000 -0.511248 -0.338161 0.790110
-1.54999995 13.93000031 -1.35000002 244 30 118 0.000000 0.000000 0.000000 0.000000 119.155926 0.000000 125.000000 0.786666 0.138823 -0.601568
-1.53999996 13.90999985 -1.35000002 244 30 118 0.000000 0.000000 0.000000 0.000000 119.155926 0.000000 125.000000 0.748407 -0.110711 -0.653934
-1.53999996 13.89000034 -1.35000002 244 30 118 0.000000 0.000000 0.000000 0.000000 119.155926 0.000000 125.000000 0.930392 -0.156683 -0.331392
-1.55999994 13.90999985 -1.32000005 244 30 118 0.000000 0.000000 0.000000 0.000000 119.155926 0.000000 125.000000 -0.763762 0.530255 0.368098
-1.57000005 13.89000034 -1.37000000 244 30 118 0.000000 0.000000 0.000000 0.000000 119.155926 0.000000 125.000000 0.948392 -0.276558 -0.155142
-1.57000005 13.89999962 -1.36000001 244 30 118 0.000000 0.000000 0.000000 0.000000 119.155926 0.000000 125.000000 0.876735 -0.450767 -0.167761
-1.57000005 13.89000034 -1.37000000 244 30 118 0.000000 0.000000 0.000000 0.000000 119.155926 0.000000 125.000000 0.948392 -0.276558 -0.155142
-1.57000005 13.86999989 -1.41999996 244 30 118 0.000000 0.000000 0.000000 0.000000 119.155926 0.000000 125.000000 0.866954 0.175157 -0.466595
-1.57000005 13.88000011 -1.38999999 244 30 118 0.000000 0.000000 0.000000 0.000000 119.155926 0.000000 125.000000 0.997301 -0.071160 -0.018056
-1.57000005 13.88000011 -1.38999999 244 30 118 0.000000 0.000000 0.000000 0.000000 119.155926 0.000000 125.000000 0.997301 -0.071160 -0.018056
-1.60000002 13.86999989 -1.40999997 244 30 118 0.000000 0.000000 0.000000 0.000000 119.155926 0.000000 125.000000 0.887170 -0.139023 -0.440002
-1.57000005 13.85999966 -1.41999996 244 30 118 0.000000 0.000000 0.000000 0.000000 119.155926 0.000000 125.000000 0.994947 0.069879 -0.072098
-1.57000005 13.85000038 -1.42999995 244 30 118 0.000000 0.000000 0.000000 0.000000 119.155926 0.000000 125.000000 0.996269 0.042464 -0.075129
-1.58000004 13.85000038 -1.44000006 244 30 118 0.000000 0.000000 0.000000 0.000000 119.155926 0.000000 125.000000 0.757365 -0.158729 -0.633405
-1.57000005 13.84000015 -1.42999995 244 30 118 0.000000 0.000000 0.000000 0.000000 119.155926 0.000000 125.000000 0.968570 -0.222733 0.110730
-1.60000002 13.84000015 -1.44000006 244 30 118 0.000000 0.000000 0.000000 0.000000 119.155926 0.000000 125.000000 0.708588 -0.684102 -0.172938
-1.62000000 13.85000038 -1.42999995 244 30 118 0.000000 0.000000 0.000000 0.000000 119.155926 0.000000 125.000000 -0.480787 0.829318 0.284738
-1.60000002 13.84000015 -1.44000006 244 30 118 0.000000 0.000000 0.000000 0.000000 119.155926 0.000000 125.000000 0.708588 -0.684102 -0.172938
-1.62000000 13.82999992 -1.47000003 244 30 118 0.000000 0.000000 0.000000 0.000000 119.155926 0.000000 125.000000 0.754142 -0.653205 -0.067772
-1.62000000 13.82999992 -1.46000004 244 30 118 0.000000 0.000000 0.000000 0.000000 119.155926 0.000000 125.000000 0.847706 -0.530325 -0.012207
-1.61000001 13.80000019 -1.47000003 244 30 118 0.000000 0.000000 0.000000 0.000000 119.155926 0.000000 125.000000 0.895018 -0.395677 -0.205869
-1.61000001 13.80000019 -1.48000002 244 30 118 0.000000 0.000000 0.000000 0.000000 119.155926 0.000000 125.000000 0.714207 -0.680704 0.162943
-1.63000000 13.81999969 -1.49000001 244 30 118 0.000000 0.000000 0.000000 0.000000 119.155926 0.000000 125.000000 0.674165 -0.670932 -0.308790
-1.60000002 13.81999969 -1.48000002 244 30 118 0.000000 0.000000 0.000000 0.000000 119.155926 0.000000 125.000000 0.826231 -0.434442 -0.358612
-1.64999998 13.78999996 -1.51999998 244 30 118 0.000000 0.000000 0.000000 0.000000 119.155926 0.000000 125.000000 0.878722 -0.419220 0.228259
-1.65999997 13.77000046 -1.54999995 244 30 118 0.000000 0.000000 0.000000 0.000000 119.155926 0.000000 125.000000 0.866560 -0.486816 -0.109926
-0.94999999 14.80000019 -0.09000000 244 30 118 0.000000 0.000000 0.000000 0.000000 119.155926 0.000000 125.000000 -0.340655 0.833585 -0.434845
-1.19000006 14.90999985 -0.23999999 244 30 118 0.000000 0.000000 0.000000 0.000000 119.155926 0.000000 137.000000 -0.098993 0.946372 -0.307538
-1.23000002 14.89999962 -0.22000000 244 30 118 0.000000 0.000000 0.000000 0.000000 119.155926 0.000000 137.000000 0.814164 -0.556271 0.166431
-1.25000000 14.89000034 -0.23000000 244 30 118 0.000000 0.000000 0.000000 0.000000 119.155926 0.000000 137.000000 -0.358869 0.930941 -0.067536
-1.23000002 14.86999989 -0.16000000 244 30 118 0.000000 0.000000 0.000000 0.000000 119.155926 0.000000 137.000000 -0.390946 0.914950 -0.100137
-1.24000001 14.88000011 -0.20999999 244 30 118 0.000000 0.000000 0.000000 0.000000 119.155926 0.000000 137.000000 -0.236238 0.968699 0.076246
-1.26999998 14.88000011 -0.20000000 244 30 118 0.000000 0.000000 0.000000 0.000000 119.155926 0.000000 137.000000 0.756260 -0.612805 -0.229217
-0.83999997 14.76000023 0.02000000 244 30 118 0.000000 0.000000 0.000000 0.000000 119.155926 0.000000 125.000000 0.113716 0.924797 -0.363069
-0.87000000 14.72000027 0.01000000 244 30 118 0.000000 0.000000 0.000000 0.000000 119.155926 0.000000 125.000000 0.328990 0.894675 -0.302195
-0.83999997 14.72000027 0.05000000 244 30 118 0.000000 0.000000 0.000000 0.000000 119.155926 0.000000 125.000000 0.321978 0.844608 -0.427748
-0.80000001 14.73999977 -0.02000000 244 30 118 0.000000 0.000000 0.000000 0.000000 119.155926 0.000000 125.000000 0.393312 0.725734 -0.564460
-0.86000001 14.76000023 -0.07000000 244 30 118 0.000000 0.000000 0.000000 0.000000 119.155926 0.000000 125.000000 0.528708 0.797007 -0.291973
-0.88999999 14.76000023 0.05000000 244 30 118 0.000000 0.000000 0.000000 0.000000 119.155926 0.000000 125.000000 0.204841 0.967518 -0.148155
-0.91000003 14.72000027 -0.03000000 244 30 118 0.000000 0.000000 0.000000 0.000000 119.155926 0.000000 125.000000 -0.073428 0.981040 -0.179356
-0.93000001 14.77000046 -0.06000000 244 30 118 0.000000 0.000000 0.000000 0.000000 119.155926 0.000000 125.000000 0.224031 0.861543 -0.455580
-0.93000001 14.67000008 -0.03000000 244 30 118 0.000000 0.000000 0.000000 0.000000 119.155926 0.000000 125.000000 -0.178934 0.908982 -0.376476
-0.94999999 14.67000008 -0.07000000 244 30 118 0.000000 0.000000 0.000000 0.000000 119.155926 0.000000 125.000000 -0.181324 0.784723 -0.592732
-0.94000000 14.67000008 -0.06000000 244 30 118 0.000000 0.000000 0.000000 0.000000 119.155926 0.000000 125.000000 0.196572 0.923464 -0.329506
-0.94000000 14.67000008 -0.07000000 244 30 118 0.000000 0.000000 0.000000 0.000000 119.155926 0.000000 125.000000 -0.159304 -0.744936 0.647837
-0.85000002 14.75000000 -0.08000000 244 30 118 0.000000 0.000000 0.000000 0.000000 119.155926 0.000000 125.000000 0.310576 0.889718 -0.334582
-0.87000000 14.75000000 -0.09000000 244 30 118 0.000000 0.000000 0.000000 0.000000 119.155926 0.000000 125.000000 0.311088 0.733395 -0.604447
-0.91000003 14.75000000 -0.15000001 244 30 118 0.000000 0.000000 0.000000 0.000000 119.155926 0.000000 125.000000 0.199913 0.705120 -0.680324
-0.89999998 14.73999977 -0.19000000 244 30 118 0.000000 0.000000 0.000000 0.000000 119.155926 0.000000 125.000000 0.479421 0.837059 -0.263604
-0.94999999 14.72000027 -0.23000000 244 30 118 0.000000 0.000000 0.000000 0.000000 119.155926 0.000000 125.000000 0.065289 0.926036 -0.371747
-0.89999998 14.64999962 -0.23999999 244 30 118 0.000000 0.000000 0.000000 0.000000 119.155926 0.000000 125.000000 0.371453 0.721634 -0.584180
-0.93000001 14.71000004 -0.20999999 244 30 118 0.000000 0.000000 0.000000 0.000000 119.155926 0.000000 125.000000 0.315985 0.675721 -0.665999
-0.92000002 14.68000031 -0.23999999 244 30 118 0.000000 0.000000 0.000000 0.000000 119.155926 0.000000 125.000000 -0.176158 -0.666336 0.724545
-0.95999998 14.75000000 -0.07000000 244 30 118 0.000000 0.000000 0.000000 0.000000 119.155926 0.000000 125.000000 -0.280783 0.939169 -0.197793
-0.97000003 14.67000008 -0.05000000 244 30 118 0.000000 0.000000 0.000000 0.000000 119.155926 0.000000 125.000000 -0.398427 0.879546 -0.260105
-0.98000002 14.68000031 -0.02000000 244 30 118 0.000000 0.000000 0.000000 0.000000 119.155926 0.000000 125.000000 -0.409130 0.912475 0.001291
-0.98000002 14.69999981 -0.07000000 244 30 118 0.000000 0.000000 0.000000 0.000000 119.155926 0.000000 125.000000 -0.101943 0.946613 -0.305829
-0.97000003 14.67000008 -0.05000000 244 30 118 0.000000 0.000000 0.000000 0.000000 119.155926 0.000000 125.000000 -0.398427 0.879546 -0.260105
-0.99000001 14.77999973 -0.10000000 244 30 118 0.000000 0.000000 0.000000 0.000000 119.155926 0.000000 125.000000 0.077042 -0.705005 0.705005
-1.00999999 14.77000046 -0.10000000 244 30 118 0.000000 0.000000 0.000000 0.000000 119.155926 0.000000 125.000000 0.641578 -0.677677 0.359349
-0.95999998 14.65999985 -0.13000000 244 30 118 0.000000 0.000000 0.000000 0.000000 119.155926 0.000000 125.000000 -0.078632 0.969794 -0.230903
-0.95999998 14.65999985 -0.13000000 244 30 118 0.000000 0.000000 0.000000 0.000000 119.155926 0.000000 125.000000 -0.078632 0.969794 -0.230903
-0.99000001 14.71000004 -0.22000000 244 30 118 0.000000 0.000000 0.000000 0.000000 119.155926 0.000000 125.000000 0.219977 0.706734 -0.672411
-1.00000000 14.71000004 -0.23000000 244 30 118 0.000000 0.000000 0.000000 0.000000 119.155926 0.000000 125.000000 0.380190 0.755485 -0.533571
-1.12000000 14.30000019 -0.07000000 244 30 118 0.000000 0.000000 0.000000 0.000000 119.155926 0.000000 125.000000 0.630712 0.654010 -0.417701
-1.07000005 14.35000038 -0.14000000 244 30 118 0.000000 0.000000 0.000000 0.000000 119.155926 0.000000 125.000000 0.122161 0.869502 -0.478585
-1.07000005 14.31999969 -0.14000000 244 30 118 0.000000 0.000000 0.000000 0.000000 119.155926 0.000000 125.000000 0.434853 0.684769 -0.584803
-1.12000000 14.34000015 -0.10000000 244 30 118 0.000000 0.000000 0.000000 0.000000 119.155926 0.000000 125.000000 -0.391913 -0.542775 0.742832
-1.11000001 14.34000015 -0.10000000 244 30 118 0.000000 0.000000 0.000000 0.000000 119.155926 0.000000 125.000000 -0.158578 -0.523159 0.837351
-1.10000002 14.35999966 -0.14000000 244 30 118 0.000000 0.000000 0.000000 0.000000 119.155926 0.000000 125.000000 -0.149360 -0.728697 0.668350
-1.11000001 14.35000038 -0.15000001 244 30 118 0.000000 0.000000 0.000000 0.000000 119.155926 0.000000 125.000000 0.283432 0.645327 -0.709380
-1.10000002 14.35999966 -0.14000000 244 30 118 0.000000 0.000000 0.000000 0.000000 119.155926 0.000000 125.000000 -0.149360 -0.728697 0.668350
-1.12000000 14.31000042 -0.18000001 244 30 118 0.000000 0.000000 0.000000 0.000000 119.155926 0.000000 125.000000 0.464786 0.544750 -0.698013
-1.21000004 14.30000019 0.01000000 244 30 118 0.000000 0.000000 0.000000 0.000000 119.155926 0.000000 125.000000 0.501936 0.538868 -0.676522
-1.19000006 14.31000042 0.07000000 244 30 118 0.000000 0.000000 0.000000 0.000000 119.155926 0.000000 125.000000 0.371112 0.817083 -0.441193
-1.24000001 14.40999985 0.01000000 244 30 118 0.000000 0.000000 0.000000 0.000000 119.155926 0.000000 125.000000 0.540969 0.635344 -0.551081
-1.25000000 14.34000015 0.08000000 244 30 118 0.000000 0.000000 0.000000 0.000000 119.155926 0.000000 125.000000 0.702442 0.426779 -0.569592
-1.23000002 14.35999966 0.00000000 244 30 118 0.000000 0.000000 0.000000 0.000000 119.155926 0.000000 125.000000 0.569072 0.606223 -0.555563
-1.23000002 14.35999966 -0.05000000 244 30 118 0.000000 0.000000 0.000000 0.000000 119.155926 0.000000 125.000000 0.423757 0.583289 -0.692967
-1.23000002 14.31999969 -0.07000000 244 30 118 0.000000 0.000000 0.000000 0.000000 119.155926 0.000000 125.000000 -0.544573 -0.265224 0.795673
-1.16999996 14.34000015 -0.14000000 244 30 118 0.000000 0.000000 0.000000 0.000000 119.155926 0.000000 125.000000 0.720097 0.483945 -0.497250
-1.21000004 14.34000015 -0.12000000 244 30 118 0.000000 0.000000 0.000000 0.000000 119.155926 0.000000 125.000000 0.729026 0.396603 -0.557877
-1.15999997 14.35000038 -0.20999999 244 30 118 0.000000 0.000000 0.000000 0.000000 119.155926 0.000000 125.000000 0.218867 0.759051 -0.613139
-1.13999999 14.35000038 -0.20999999 244 30 118 0.000000 0.000000 0.000000 0.000000 119.155926 0.000000 125.000000 0.113617 0.855724 -0.504805
-1.13000000 14.31999969 -0.18000001 244 30 118 0.000000 0.000000 0.000000 0.000000 119.155926 0.000000 125.000000 0.502286 0.780077 -0.373080
-1.16999996 14.30000019 -0.19000000 244 30 118 0.000000 0.000000 0.000000 0.000000 119.155926 0.000000 125.000000 0.305907 0.872063 -0.382003
-1.13999999 14.32999992 -0.20999999 244 30 118 0.000000 0.000000 0.000000 0.000000 119.155926 0.000000 125.000000 0.227938 0.935523 -0.269889
-1.20000005 14.34000015 -0.18000001 244 30 118 0.000000 0.000000 0.000000 0.000000 119.155926 0.000000 125.000000 0.312750 0.765033 -0.562949
-1.17999995 14.31000042 -0.20000000 244 30 118 0.000000 0.000000 0.000000 0.000000 119.155926 0.000000 125.000000 0.625737 0.544779 -0.558272
-1.17999995 14.31000042 -0.20000000 244 30 118 0.000000 0.000000 0.000000 0.000000 119.155926 0.000000 125.000000 0.625737 0.544779 -0.558272
-1.27999997 14.31999969 -0.19000000 244 30 118 0.000000 0.000000 0.000000 0.000000 119.155926 0.000000 125.000000 0.670102 0.427336 -0.606916
-1.23000002 14.27000046 -0.17000000 244 30 118 0.000000 0.000000 0.000000 0.000000 119.155926 0.000000 125.000000 0.574322 0.737020 -0.356308
-1.17999995 14.25000000 -0.23000000 244 30 118 0.000000 0.000000 0.000000 0.000000 119.155926 0.000000 125.000000 0.539051 0.818447 -0.198918
-1.23000002 14.27999973 -0.16000000 244 30 118 0.000000 0.000000 0.000000 0.000000 119.155926 0.000000 125.000000 0.714027 0.422452 -0.558300
-1.00000000 14.05000019 -0.18000001 244 30 118 0.000000 0.000000 0.000000 0.000000 119.155926 0.000000 125.000000 -0.236379 0.952269 -0.193155
-1.00999999 14.02999973 -0.23999999 244 30 118 0.000000 0.000000 0.000000 0.000000 119.155926 0.000000 125.000000 -0.048835 0.960424 -0.274228
-1.34000003 14.36999989 -0.08000000 244 30 118 0.000000 0.000000 0.000000 0.000000 119.155926 0.000000 125.000000 0.619970 0.472118 -0.626691
-1.32000005 14.35999966 -0.08000000 244 30 118 0.000000 0.000000 0.000000 0.000000 119.155926 0.000000 125.000000 0.584811 0.464162 -0.665244
-1.39999998 14.42000008 -0.14000000 244 30 118 0.000000 0.000000 0.000000 0.000000 119.155926 0.000000 125.000000 0.992056 -0.014378 -0.124975
-1.38999999 14.42000008 -0.14000000 244 30 118 0.000000 0.000000 0.000000 0.000000 119.155926 0.000000 125.000000 0.888104 0.292041 -0.354942
-1.48000002 14.34000015 -0.20000000 244 30 118 0.000000 0.000000 0.000000 0.000000 119.155926 0.000000 125.000000 -0.648834 -0.064739 0.758171
-1.52999997 14.35000038 -0.20999999 244 30 118 0.000000 0.000000 0.000000 0.000000 119.155926 0.000000 49.000000 -0.630222 -0.145899 0.762584
-0.87000000 14.80000019 -0.46000001 244 30 118 0.000000 0.000000 0.000000 0.000000 119.155926 0.000000 125.000000 -0.205975 -0.627218 0.751113
-0.83999997 14.81999969 -0.46000001 244 30 118 0.000000 0.000000 0.000000 0.000000 119.155926 0.000000 125.000000 0.399869 0.551259 -0.732269
-0.99000001 14.81999969 -0.36000001 244 30 118 0.000000 0.000000 0.000000 0.000000 119.155926 0.000000 125.000000 -0.135179 -0.595680 0.791765
-1.20000005 14.90999985 -0.31000000 244 30 118 0.000000 0.000000 0.000000 0.000000 119.155926 0.000000 137.000000 -0.421312 0.887816 -0.185144
-1.24000001 14.89000034 -0.28999999 244 30 118 0.000000 0.000000 0.000000 0.000000 119.155926 0.000000 137.000000 -0.271109 0.961879 0.035900
-1.23000002 14.89999962 -0.27000001 244 30 118 0.000000 0.000000 0.000000 0.000000 119.155926 0.000000 137.000000 -0.432801 0.895015 0.107850
-1.25999999 14.85999966 -0.33000001 244 30 118 0.000000 0.000000 0.000000 0.000000 119.155926 0.000000 137.000000 -0.608891 0.792812 -0.026474
-1.22000003 14.85999966 -0.43000001 244 30 118 0.000000 0.000000 0.000000 0.000000 119.155926 0.000000 137.000000 -0.212084 0.976545 -0.037145
-0.87000000 14.64000034 -0.28000000 244 30 118 0.000000 0.000000 0.000000 0.000000 119.155926 0.000000 125.000000 0.568497 0.779518 -0.262989
-0.92000002 14.75000000 -0.41000000 244 30 118 0.000000 0.000000 0.000000 0.000000 119.155926 0.000000 125.000000 0.258253 0.925999 -0.275374
-0.91000003 14.68000031 -0.31000000 244 30 118 0.000000 0.000000 0.000000 0.000000 119.155926 0.000000 125.000000 0.465346 0.804362 -0.369399
-0.89999998 14.68000031 -0.31000000 244 30 118 0.000000 0.000000 0.000000 0.000000 119.155926 0.000000 125.000000 0.169073 0.824419 -0.540137
-0.88000000 14.69999981 -0.36000001 244 30 118 0.000000 0.000000 0.000000 0.000000 119.155926 0.000000 125.000000 0.532555 0.600180 -0.596799
-0.94000000 14.69999981 -0.40000001 244 30 118 0.000000 0.000000 0.000000 0.000000 119.155926 0.000000 125.000000 0.103695 0.908371 -0.405103
-0.85000002 14.76000023 -0.47000000 244 30 118 0.000000 0.000000 0.000000 0.000000 119.155926 0.000000 125.000000 0.285378 0.741346 -0.607425
-0.87000000 14.76000023 -0.47999999 244 30 118 0.000000 0.000000 0.000000 0.000000 119.155926 0.000000 125.000000 0.624960 0.735713 -0.261059
-0.86000001 14.75000000 -0.47999999 244 30 118 0.000000 0.000000 0.000000 0.000000 119.155926 0.000000 125.000000 0.429377 0.741950 -0.514923
-0.85000002 14.75000000 -0.54000002 244 30 118 0.000000 0.000000 0.000000 0.000000 119.155926 0.000000 125.000000 -0.415583 -0.477514 0.774126
-0.85000002 14.73999977 -0.50000000 244 30 118 0.000000 0.000000 0.000000 0.000000 119.155926 0.000000 125.000000 0.540262 0.706496 -0.457144
-0.86000001 14.72000027 -0.52999997 244 30 118 0.000000 0.000000 0.000000 0.000000 119.155926 0.000000 125.000000 0.485163 0.780479 -0.394296
-0.88999999 14.77999973 -0.47000000 244 30 118 0.000000 0.000000 0.000000 0.000000 119.155926 0.000000 125.000000 -0.029525 -0.743739 0.667818
-0.91000003 14.72999954 -0.49000001 244 30 118 0.000000 0.000000 0.000000 0.000000 119.155926 0.000000 125.000000 0.399442 0.864692 -0.304555
-0.94999999 14.73999977 -0.43000001 244 30 118 0.000000 0.000000 0.000000 0.000000 119.155926 0.000000 125.000000 -0.189798 -0.560284 0.806262
-0.91000003 14.72999954 -0.56999999 244 30 118 0.000000 0.000000 0.000000 0.000000 119.155926 0.000000 125.000000 0.197943 0.930751 -0.307443
-0.91000003 14.71000004 -0.44999999 244 30 118 0.000000 0.000000 0.000000 0.000000 119.155926 0.000000 125.000000 0.544455 0.800302 -0.251167
-0.88000000 14.68000031 -0.44000000 244 30 118 0.000000 0.000000 0.000000 0.000000 119.155926 0.000000 125.000000 0.242310 0.780081 -0.576853
-0.88000000 14.71000004 -0.50000000 244 30 118 0.000000 0.000000 0.000000 0.000000 119.155926 0.000000 125.000000 0.595866 0.749225 -0.289147
-0.88999999 14.68999958 -0.51999998 244 30 118 0.000000 0.000000 0.000000 0.000000 119.155926 0.000000 125.000000 0.271317 0.885904 -0.376247
-0.89999998 14.67000008 -0.56000000 244 30 118 0.000000 0.000000 0.000000 0.000000 119.155926 0.000000 125.000000 0.262980 0.813838 -0.518180
-0.91000003 14.67000008 -0.56000000 244 30 118 0.000000 0.000000 0.000000 0.000000 119.155926 0.000000 125.000000 0.569848 0.715200 -0.404675
-0.88999999 14.71000004 -0.56999999 244 30 118 0.000000 0.000000 0.000000 0.000000 119.155926 0.000000 125.000000 0.470298 0.712925 -0.520152
-0.91000003 14.68000031 -0.56999999 244 30 118 0.000000 0.000000 0.000000 0.000000 119.155926 0.000000 125.000000 0.602588 0.764524 -0.228890
-0.92000002 14.69999981 -0.54000002 244 30 118 0.000000 0.000000 0.000000 0.000000 119.155926 0.000000 125.000000 -0.383215 -0.493167 0.780982
-0.94999999 14.68999958 -0.50999999 244 30 118 0.000000 0.000000 0.000000 0.000000 119.155926 0.000000 125.000000 -0.245726 -0.520815 0.817540
-0.92000002 14.68999958 -0.55000001 244 30 118 0.000000 0.000000 0.000000 0.000000 119.155926 0.000000 125.000000 0.247419 0.804501 -0.539965
-0.94000000 14.64000034 -0.55000001 244 30 118 0.000000 0.000000 0.000000 0.000000 119.155926 0.000000 125.000000 0.385856 0.876120 -0.289014
-0.93000001 14.65999985 -0.55000001 244 30 118 0.000000 0.000000 0.000000 0.000000 119.155926 0.000000 125.000000 0.281421 0.883392 -0.374727
-0.92000002 14.61999989 -0.49000001 244 30 118 0.000000 0.000000 0.000000 0.000000 119.155926 0.000000 125.000000 0.282805 0.458979 -0.842235
