//X Y Z R G B PointSourceId ScanDirectionFlag NumberOfReturns ReturnNumber GpsTime Intensity Classification Nx Ny Nz
-0.04000000 -20.64999962 0.62000000 133 112 133 0.000000 0.000000 0.000000 0.000000 -8.844074 0.000000 170.000000 -0.042242 0.989827 -0.135859
-0.07000000 -20.67000008 0.63000000 133 112 133 0.000000 0.000000 0.000000 0.000000 -8.844074 0.000000 170.000000 -0.104359 0.994160 -0.027463
-0.04000000 -20.64999962 0.61000001 133 112 133 0.000000 0.000000 0.000000 0.000000 -8.844074 0.000000 170.000000 -0.089929 0.989214 0.115622
-0.04000000 -20.64999962 0.61000001 133 112 133 0.000000 0.000000 0.000000 0.000000 -8.844074 0.000000 170.000000 -0.089929 0.989214 0.115622
-0.07000000 -20.67000008 0.63999999 133 112 133 0.000000 0.000000 0.000000 0.000000 -8.844074 0.000000 170.000000 -0.148952 0.958304 0.243860
-0.05000000 -20.65999985 0.63999999 133 112 133 0.000000 0.000000 0.000000 0.000000 -8.844074 0.000000 170.000000 -0.200720 0.866812 0.456452
-0.05000000 -20.64999962 0.62000000 133 112 133 0.000000 0.000000 0.000000 0.000000 -8.844074 0.000000 170.000000 -0.218537 0.975822 0.003506
-0.05000000 -20.64999962 0.62000000 133 112 133 0.000000 0.000000 0.000000 0.000000 -8.844074 0.000000 170.000000 -0.218537 0.975822 0.003506
-0.05000000 -20.69000053 0.67000002 133 112 133 0.000000 0.000000 0.000000 0.000000 -8.844074 0.000000 170.000000 -0.251757 0.961840 0.107158
-0.05000000 -20.69000053 0.66000003 133 112 133 0.000000 0.000000 0.000000 0.000000 -8.844074 0.000000 170.000000 -0.205369 0.882053 0.424035
-0.05000000 -20.68000031 0.67000002 133 112 133 0.000000 0.000000 0.000000 0.000000 -8.844074 0.000000 170.000000 -0.386291 0.915190 0.114918
-0.04000000 -20.68000031 0.66000003 133 112 133 0.000000 0.000000 0.000000 0.000000 -8.844074 0.000000 170.000000 -0.447970 0.804420 0.390168
-0.06000000 -20.69000053 0.66000003 133 112 133 0.000000 0.000000 0.000000 0.000000 -8.844074 0.000000 170.000000 0.163456 0.908247 0.385188
-0.05000000 -20.69000053 0.67000002 133 112 133 0.000000 0.000000 0.000000 0.000000 -8.844074 0.000000 170.000000 -0.251757 0.961840 0.107158
-0.07000000 -20.68000031 0.66000003 133 112 133 0.000000 0.000000 0.000000 0.000000 -8.844074 0.000000 170.000000 0.198928 0.882653 0.425854
-0.06000000 -20.69000053 0.66000003 133 112 133 0.000000 0.000000 0.000000 0.000000 -8.844074 0.000000 170.000000 0.163456 0.908247 0.385188
-0.11000000 -20.64999962 0.67000002 133 112 133 0.000000 0.000000 0.000000 0.000000 -8.844074 0.000000 170.000000 0.341851 0.933672 -0.106744
-0.08000000 -20.67000008 0.62000000 133 112 133 0.000000 0.000000 0.000000 0.000000 -8.844074 0.000000 170.000000 0.111212 0.847810 0.518507
-0.11000000 -20.64999962 0.63999999 133 112 133 0.000000 0.000000 0.000000 0.000000 -8.844074 0.000000 170.000000 0.328629 0.903361 0.275577
-0.02000000 -20.59000015 0.58999997 133 112 133 0.000000 0.000000 0.000000 0.000000 -8.844074 0.000000 170.000000 -0.164028 0.972723 0.164028
-0.01000000 -20.59000015 0.57999998 133 112 133 0.000000 0.000000 0.000000 0.000000 -8.844074 0.000000 170.000000 -0.498471 0.865035 -0.056928
-0.02000000 -20.61000061 0.60000002 133 112 133 0.000000 0.000000 0.000000 0.000000 -8.844074 0.000000 170.000000 -0.492503 0.820839 0.289248
0.00000000 -20.59000015 0.57999998 133 112 133 0.000000 0.000000 0.000000 0.000000 -8.844074 0.000000 170.000000 -0.344470 0.908412 0.236914
-0.02000000 -20.61000061 0.60000002 133 112 133 0.000000 0.000000 0.000000 0.000000 -8.844074 0.000000 170.000000 -0.492503 0.820839 0.289248
-0.02000000 -20.59000015 0.58999997 133 112 133 0.000000 0.000000 0.000000 0.000000 -8.844074 0.000000 170.000000 -0.164028 0.972723 0.164028
-0.02000000 -20.59000015 0.58999997 133 112 133 0.000000 0.000000 0.000000 0.000000 -8.844074 0.000000 170.000000 -0.164028 0.972723 0.164028
-0.04000000 -20.57999992 0.57999998 133 112 133 0.000000 0.000000 0.000000 0.000000 -8.844074 0.000000 170.000000 0.693499 -0.716664 -0.073838
-0.03000000 -20.57999992 0.57999998 133 112 133 0.000000 0.000000 0.000000 0.000000 -8.844074 0.000000 170.000000 -0.102188 0.891696 0.440949
-0.04000000 -20.56999969 0.51999998 133 112 133 0.000000 0.000000 0.000000 0.000000 -8.844074 0.000000 170.000000 -0.584795 0.772933 0.246147
-0.04000000 -20.56999969 0.52999997 133 112 133 0.000000 0.000000 0.000000 0.000000 -8.844074 0.000000 170.000000 -0.663508 0.740351 0.107876
-0.06000000 -20.57999992 0.52999997 133 112 133 0.000000 0.000000 0.000000 0.000000 -8.844074 0.000000 170.000000 -0.202442 0.911706 0.357504
-0.03000000 -20.57999992 0.55000001 133 112 133 0.000000 0.000000 0.000000 0.000000 -8.844074 0.000000 170.000000 -0.636413 0.707304 0.307734
-0.05000000 -20.56999969 0.51999998 133 112 133 0.000000 0.000000 0.000000 0.000000 -8.844074 0.000000 170.000000 -0.427438 0.859473 0.280363
-0.03000000 -20.56999969 0.54000002 133 112 133 0.000000 0.000000 0.000000 0.000000 -8.844074 0.000000 170.000000 -0.569421 0.784709 0.244929
-0.03000000 -20.56999969 0.51999998 133 112 133 0.000000 0.000000 0.000000 0.000000 -8.844074 0.000000 170.000000 -0.270061 0.890752 0.365552
-0.05000000 -20.62999916 0.57999998 133 112 133 0.000000 0.000000 0.000000 0.000000 -8.844074 0.000000 170.000000 -0.242294 0.912592 0.329346
-0.06000000 -20.60000038 0.56000000 133 112 133 0.000000 0.000000 0.000000 0.000000 -8.844074 0.000000 170.000000 -0.019628 0.912064 0.409578
-0.06000000 -20.62999916 0.58999997 133 112 133 0.000000 0.000000 0.000000 0.000000 -8.844074 0.000000 170.000000 -0.263647 0.812783 0.519494
-0.03000000 -20.61000061 0.58999997 133 112 133 0.000000 0.000000 0.000000 0.000000 -8.844074 0.000000 170.000000 -0.242857 0.812103 0.530574
-0.06000000 -20.59000015 0.56000000 133 112 133 0.000000 0.000000 0.000000 0.000000 -8.844074 0.000000 170.000000 -0.128587 0.980932 -0.145731
-0.06000000 -20.61000061 0.56999999 133 112 133 0.000000 0.000000 0.000000 0.000000 -8.844074 0.000000 170.000000 -0.246567 0.955614 -0.161268
-0.04000000 -20.60000038 0.56000000 133 112 133 0.000000 0.000000 0.000000 0.000000 -8.844074 0.000000 170.000000 -0.512531 0.837183 0.190884
-0.06000000 -20.60000038 0.56000000 133 112 133 0.000000 0.000000 0.000000 0.000000 -8.844074 0.000000 170.000000 -0.019628 0.912064 0.409578
-0.05000000 -20.60000038 0.56000000 133 112 133 0.000000 0.000000 0.000000 0.000000 -8.844074 0.000000 170.000000 0.061801 0.888559 0.454580
-0.07000000 -20.60000038 0.52999997 133 112 133 0.000000 0.000000 0.000000 0.000000 -8.844074 0.000000 170.000000 0.040728 0.985607 0.164074
-0.06000000 -20.60000038 0.54000002 133 112 133 0.000000 0.000000 0.000000 0.000000 -8.844074 0.000000 170.000000 -0.260274 0.965534 -0.001199
-0.07000000 -20.60000038 0.51999998 133 112 133 0.000000 0.000000 0.000000 0.000000 -8.844074 0.000000 170.000000 0.045739 0.983965 0.172399
-0.07000000 -20.60000038 0.55000001 133 112 133 0.000000 0.000000 0.000000 0.000000 -8.844074 0.000000 170.000000 -0.187784 0.981437 0.038974
-0.06000000 -20.60000038 0.55000001 133 112 133 0.000000 0.000000 0.000000 0.000000 -8.844074 0.000000 170.000000 0.037944 0.996311 -0.076973
-0.11000000 -20.57999992 0.55000001 133 112 133 0.000000 0.000000 0.000000 0.000000 -8.844074 0.000000 170.000000 0.394999 0.914376 0.088841
-0.10000000 -20.56999969 0.52999997 133 112 133 0.000000 0.000000 0.000000 0.000000 -8.844074 0.000000 170.000000 0.323415 0.902312 0.285018
-0.09000000 -20.57999992 0.55000001 133 112 133 0.000000 0.000000 0.000000 0.000000 -8.844074 0.000000 170.000000 0.378392 0.873797 0.305449
-0.09000000 -20.57999992 0.51999998 133 112 133 0.000000 0.000000 0.000000 0.000000 -8.844074 0.000000 170.000000 0.289697 0.957099 0.006112
-0.08000000 -20.57999992 0.54000002 133 112 133 0.000000 0.000000 0.000000 0.000000 -8.844074 0.000000 170.000000 0.169312 0.962062 0.213937
-0.11000000 -20.57999992 0.54000002 133 112 133 0.000000 0.000000 0.000000 0.000000 -8.844074 0.000000 170.000000 0.460240 0.855166 0.238474
-0.08000000 -20.62000084 0.56999999 133 112 133 0.000000 0.000000 0.000000 0.000000 -8.844074 0.000000 170.000000 -0.321595 0.928273 0.186778
-0.09000000 -20.62000084 0.56999999 133 112 133 0.000000 0.000000 0.000000 0.000000 -8.844074 0.000000 170.000000 -0.039529 0.947430 0.317510
-0.08000000 -20.61000061 0.56999999 133 112 133 0.000000 0.000000 0.000000 0.000000 -8.844074 0.000000 170.000000 -0.190430 0.952151 0.239051
-0.11000000 -20.61000061 0.58999997 133 112 133 0.000000 0.000000 0.000000 0.000000 -8.844074 0.000000 170.000000 0.248555 0.822857 0.511005
-0.10000000 -20.60000038 0.51999998 133 112 133 0.000000 0.000000 0.000000 0.000000 -8.844074 0.000000 170.000000 0.365822 0.918060 -0.152776
-0.08000000 -20.60000038 0.51999998 133 112 133 0.000000 0.000000 0.000000 0.000000 -8.844074 0.000000 170.000000 -0.146372 0.987131 -0.064404
-0.09000000 -20.61000061 0.54000002 133 112 133 0.000000 0.000000 0.000000 0.000000 -8.844074 0.000000 170.000000 -0.024872 0.917638 0.396639
-0.08000000 -20.60000038 0.52999997 133 112 133 0.000000 0.000000 0.000000 0.000000 -8.844074 0.000000 170.000000 -0.054276 0.958032 0.281477
-0.08000000 -20.60000038 0.55000001 133 112 133 0.000000 0.000000 0.000000 0.000000 -8.844074 0.000000 170.000000 -0.325650 0.942946 0.069315
-0.08000000 -20.61000061 0.54000002 133 112 133 0.000000 0.000000 0.000000 0.000000 -8.844074 0.000000 170.000000 -0.095292 0.932783 0.347613
-0.09000000 -20.62000084 0.55000001 133 112 133 0.000000 0.000000 0.000000 0.000000 -8.844074 0.000000 170.000000 0.303106 0.882174 0.360410
-0.08000000 -20.60000038 0.51999998 133 112 133 0.000000 0.000000 0.000000 0.000000 -8.844074 0.000000 170.000000 -0.146372 0.987131 -0.064404
-0.09000000 -20.60000038 0.52999997 133 112 133 0.000000 0.000000 0.000000 0.000000 -8.844074 0.000000 170.000000 0.146539 0.935386 0.321838
-0.07000000 -20.55999947 0.49000001 133 112 133 0.000000 0.000000 0.000000 0.000000 -8.844074 0.000000 170.000000 -0.036774 0.873052 0.486239
-0.03000000 -20.55999947 0.47999999 133 112 133 0.000000 0.000000 0.000000 0.000000 -8.844074 0.000000 170.000000 -0.319423 0.930372 0.179937
-0.04000000 -20.56999969 0.46000001 133 112 133 0.000000 0.000000 0.000000 0.000000 -8.844074 0.000000 170.000000 -0.235501 0.937822 0.255009
-0.04000000 -20.54999924 0.44999999 133 112 133 0.000000 0.000000 0.000000 0.000000 -8.844074 0.000000 170.000000 -0.408222 0.893440 0.187404
-0.03000000 -20.56999969 0.47000000 133 112 133 0.000000 0.000000 0.000000 0.000000 -8.844074 0.000000 170.000000 -0.416563 0.873730 0.251141
-0.03000000 -20.56999969 0.47000000 133 112 133 0.000000 0.000000 0.000000 0.000000 -8.844074 0.000000 170.000000 -0.416563 0.873730 0.251141
-0.05000000 -20.55999947 0.44000000 133 112 133 0.000000 0.000000 0.000000 0.000000 -8.844074 0.000000 170.000000 -0.466179 0.880560 0.085396
-0.06000000 -20.56999969 0.47000000 133 112 133 0.000000 0.000000 0.000000 0.000000 -8.844074 0.000000 170.000000 -0.409574 0.908186 0.086298
-0.07000000 -20.55999947 0.44000000 133 112 133 0.000000 0.000000 0.000000 0.000000 -8.844074 0.000000 170.000000 0.007116 0.999341 -0.035582
-0.07000000 -20.60000038 0.50999999 133 112 133 0.000000 0.000000 0.000000 0.000000 -8.844074 0.000000 170.000000 -0.354408 0.901460 0.248526
-0.06000000 -20.59000015 0.49000001 133 112 133 0.000000 0.000000 0.000000 0.000000 -8.844074 0.000000 170.000000 0.093812 0.990240 0.103078
-0.04000000 -20.59000015 0.50000000 133 112 133 0.000000 0.000000 0.000000 0.000000 -8.844074 0.000000 170.000000 -0.560573 0.827774 0.023415
-0.08000000 -20.55999947 0.50000000 133 112 133 0.000000 0.000000 0.000000 0.000000 -8.844074 0.000000 170.000000 -0.132199 0.894120 0.427870
-0.08000000 -20.55999947 0.47999999 133 112 133 0.000000 0.000000 0.000000 0.000000 -8.844074 0.000000 170.000000 -0.091148 0.993622 0.066391
-0.11000000 -20.57999992 0.47999999 133 112 133 0.000000 0.000000 0.000000 0.000000 -8.844074 0.000000 170.000000 0.145254 0.846581 0.512057
-0.09000000 -20.56999969 0.50000000 133 112 133 0.000000 0.000000 0.000000 0.000000 -8.844074 0.000000 170.000000 0.045901 0.841510 0.538288
-0.10000000 -20.56999969 0.50999999 133 112 133 0.000000 0.000000 0.000000 0.000000 -8.844074 0.000000 170.000000 0.386735 0.921608 0.032774
-0.08000000 -20.55999947 0.50000000 133 112 133 0.000000 0.000000 0.000000 0.000000 -8.844074 0.000000 170.000000 -0.132199 0.894120 0.427870
-0.09000000 -20.55999947 0.49000001 133 112 133 0.000000 0.000000 0.000000 0.000000 -8.844074 0.000000 170.000000 0.158253 0.985860 0.055096
-0.10000000 -20.56999969 0.50000000 133 112 133 0.000000 0.000000 0.000000 0.000000 -8.844074 0.000000 170.000000 0.286796 0.841786 0.457324
-0.11000000 -20.56999969 0.50999999 133 112 133 0.000000 0.000000 0.000000 0.000000 -8.844074 0.000000 170.000000 0.402697 0.912508 0.071862
-0.09000000 -20.57999992 0.50999999 133 112 133 0.000000 0.000000 0.000000 0.000000 -8.844074 0.000000 170.000000 0.443815 0.880355 0.167340
-0.10000000 -20.57999992 0.47999999 133 112 133 0.000000 0.000000 0.000000 0.000000 -8.844074 0.000000 170.000000 -0.084784 0.890929 0.446159
-0.09000000 -20.57999992 0.50000000 133 112 133 0.000000 0.000000 0.000000 0.000000 -8.844074 0.000000 170.000000 0.414855 0.907239 0.069369
-0.08000000 -20.54999924 0.44999999 133 112 133 0.000000 0.000000 0.000000 0.000000 -8.844074 0.000000 170.000000 0.224162 0.954368 0.197316
-0.09000000 -20.54999924 0.44999999 133 112 133 0.000000 0.000000 0.000000 0.000000 -8.844074 0.000000 170.000000 0.431829 0.833823 0.343893
-0.08000000 -20.54999924 0.44999999 133 112 133 0.000000 0.000000 0.000000 0.000000 -8.844074 0.000000 170.000000 0.224162 0.954368 0.197316
-0.09000000 -20.55999947 0.47000000 133 112 133 0.000000 0.000000 0.000000 0.000000 -8.844074 0.000000 170.000000 0.299371 0.842272 0.448281
-0.08000000 -20.55999947 0.47000000 133 112 133 0.000000 0.000000 0.000000 0.000000 -8.844074 0.000000 170.000000 0.166063 0.983239 0.075266
-0.11000000 -20.55999947 0.44000000 133 112 133 0.000000 0.000000 0.000000 0.000000 -8.844074 0.000000 170.000000 0.193473 0.972422 0.130246
-0.09000000 -20.54999924 0.44000000 133 112 133 0.000000 0.000000 0.000000 0.000000 -8.844074 0.000000 170.000000 0.203458 0.842469 0.498850
-0.08000000 -20.59000015 0.49000001 133 112 133 0.000000 0.000000 0.000000 0.000000 -8.844074 0.000000 170.000000 -0.197108 0.978285 -0.064090
-0.10000000 -20.60000038 0.50000000 133 112 133 0.000000 0.000000 0.000000 0.000000 -8.844074 0.000000 170.000000 0.165330 0.873469 0.457949
-0.09000000 -20.61000061 0.50999999 133 112 133 0.000000 0.000000 0.000000 0.000000 -8.844074 0.000000 170.000000 -0.207700 0.969690 0.128697
-0.08000000 -20.63999939 0.58999997 133 112 133 0.000000 0.000000 0.000000 0.000000 -8.844074 0.000000 170.000000 -0.152933 0.918999 0.363390
-0.12000000 -20.44000053 0.61000001 133 112 133 0.000000 0.000000 0.000000 0.000000 -8.844074 0.000000 170.000000 -0.614915 0.787374 -0.043822
-0.14000000 -20.54000092 0.69000000 133 112 133 0.000000 0.000000 0.000000 0.000000 -8.844074 0.000000 170.000000 0.564349 0.809848 0.160173
-0.13000000 -20.45999908 0.50000000 133 112 133 0.000000 0.000000 0.000000 0.000000 -8.844074 0.000000 170.000000 0.988546 0.080722 -0.127517
-0.15000001 -20.45000076 0.47000000 133 112 133 0.000000 0.000000 0.000000 0.000000 -8.844074 0.000000 170.000000 0.953427 0.250761 -0.167621
-0.13000000 -20.44000053 0.44000000 133 112 133 0.000000 0.000000 0.000000 0.000000 -8.844074 0.000000 170.000000 0.966869 -0.140706 -0.212995
-0.13000000 -20.53000069 0.56999999 133 112 133 0.000000 0.000000 0.000000 0.000000 -8.844074 0.000000 170.000000 0.448652 0.887460 0.105483
-0.14000000 -20.50000000 0.47999999 133 112 133 0.000000 0.000000 0.000000 0.000000 -8.844074 0.000000 170.000000 0.741481 0.657596 -0.133317
-0.14000000 -20.50000000 0.47999999 133 112 133 0.000000 0.000000 0.000000 0.000000 -8.844074 0.000000 170.000000 0.741481 0.657596 -0.133317
-0.14000000 -20.50000000 0.47999999 133 112 133 0.000000 0.000000 0.000000 0.000000 -8.844074 0.000000 170.000000 0.741481 0.657596 -0.133317
-0.14000000 -20.48999977 0.50999999 133 112 133 0.000000 0.000000 0.000000 0.000000 -8.844074 0.000000 170.000000 0.881881 0.465244 -0.076383
-0.14000000 -20.50000000 0.47999999 133 112 133 0.000000 0.000000 0.000000 0.000000 -8.844074 0.000000 170.000000 0.741481 0.657596 -0.133317
-0.14000000 -20.53000069 0.46000001 133 112 133 0.000000 0.000000 0.000000 0.000000 -8.844074 0.000000 170.000000 0.560749 0.768434 0.308332
-0.13000000 -20.52000046 0.44999999 133 112 133 0.000000 0.000000 0.000000 0.000000 -8.844074 0.000000 170.000000 0.711661 0.674612 0.196054
-0.15000001 -20.56999969 0.75999999 133 112 133 0.000000 0.000000 0.000000 0.000000 -8.844074 0.000000 170.000000 0.842969 0.514077 0.158520
-0.13000000 -20.55999947 0.73000002 133 112 133 0.000000 0.000000 0.000000 0.000000 -8.844074 0.000000 170.000000 0.295248 0.952786 -0.070911
-0.15000001 -20.60000038 0.75999999 133 112 133 0.000000 0.000000 0.000000 0.000000 -8.844074 0.000000 170.000000 0.608794 0.786907 -0.100736
-0.14000000 -20.60000038 0.73000002 133 112 133 0.000000 0.000000 0.000000 0.000000 -8.844074 0.000000 170.000000 0.715034 0.698043 0.038230
-0.14000000 -20.59000015 0.75999999 133 112 133 0.000000 0.000000 0.000000 0.000000 -8.844074 0.000000 170.000000 0.274214 0.961575 -0.013406
-0.16000000 -20.55999947 0.75999999 133 112 133 0.000000 0.000000 0.000000 0.000000 -8.844074 0.000000 170.000000 0.918342 0.345980 0.192211
-0.15000001 -20.55999947 0.66000003 133 112 133 0.000000 0.000000 0.000000 0.000000 -8.844074 0.000000 170.000000 0.548395 0.761929 0.344567
-0.12000000 -20.56999969 0.62000000 133 112 133 0.000000 0.000000 0.000000 0.000000 -8.844074 0.000000 170.000000 0.593742 0.800761 -0.079070
-0.14000000 -20.60000038 0.68000001 133 112 133 0.000000 0.000000 0.000000 0.000000 -8.844074 0.000000 170.000000 0.266570 0.777627 0.569418
-0.15000001 -20.61000061 0.62000000 133 112 133 0.000000 0.000000 0.000000 0.000000 -8.844074 0.000000 170.000000 0.358869 0.930941 -0.067536
-0.13000000 -20.70000076 0.69000000 133 112 133 0.000000 0.000000 0.000000 0.000000 -8.844074 0.000000 170.000000 -0.136576 0.976081 0.169154
-0.13000000 -20.64999962 0.69000000 133 112 133 0.000000 0.000000 0.000000 0.000000 -8.844074 0.000000 170.000000 0.308765 0.942474 0.128090
-0.12000000 -20.64999962 0.64999998 133 112 133 0.000000 0.000000 0.000000 0.000000 -8.844074 0.000000 170.000000 0.174697 0.977562 -0.117704
-0.12000000 -20.55999947 0.56000000 133 112 133 0.000000 0.000000 0.000000 0.000000 -8.844074 0.000000 170.000000 0.692865 0.689751 0.210195
-0.12000000 -20.56999969 0.51999998 133 112 133 0.000000 0.000000 0.000000 0.000000 -8.844074 0.000000 170.000000 0.378643 0.925139 -0.027325
-0.12000000 -20.56999969 0.54000002 133 112 133 0.000000 0.000000 0.000000 0.000000 -8.844074 0.000000 170.000000 0.575029 0.734669 0.360004
-0.12000000 -20.56999969 0.51999998 133 112 133 0.000000 0.000000 0.000000 0.000000 -8.844074 0.000000 170.000000 0.378643 0.925139 -0.027325
-0.12000000 -20.62000084 0.60000002 133 112 133 0.000000 0.000000 0.000000 0.000000 -8.844074 0.000000 170.000000 0.570058 0.821270 0.023465
-0.12000000 -20.61000061 0.54000002 133 112 133 0.000000 0.000000 0.000000 0.000000 -8.844074 0.000000 170.000000 0.546315 0.824655 0.146572
-0.13000000 -20.54999924 0.49000001 133 112 133 0.000000 0.000000 0.000000 0.000000 -8.844074 0.000000 170.000000 0.243414 0.938882 0.243414
-0.12000000 -20.57999992 0.47999999 133 112 133 0.000000 0.000000 0.000000 0.000000 -8.844074 0.000000 170.000000 0.071388 0.866458 0.494119
-0.13000000 -20.56999969 0.50999999 133 112 133 0.000000 0.000000 0.000000 0.000000 -8.844074 0.000000 170.000000 0.711024 0.677093 0.189709
0.05000000 -20.75000000 0.94000000 133 112 133 0.000000 0.000000 0.000000 0.000000 -8.844074 0.000000 170.000000 0.542307 -0.798614 -0.260995
0.01000000 -20.71999931 0.94000000 133 112 133 0.000000 0.000000 0.000000 0.000000 -8.844074 0.000000 170.000000 0.773532 -0.629485 0.073464
-0.05000000 -20.80999947 0.94000000 133 112 133 0.000000 0.000000 0.000000 0.000000 -8.844074 0.000000 170.000000 0.173072 0.970485 0.167944
-0.06000000 -20.79999924 0.95999998 133 112 133 0.000000 0.000000 0.000000 0.000000 -8.844074 0.000000 170.000000 -0.069890 0.995103 0.069890
-0.05000000 -20.80999947 0.94000000 133 112 133 0.000000 0.000000 0.000000 0.000000 -8.844074 0.000000 170.000000 0.173072 0.970485 0.167944
-0.07000000 -20.86000061 1.00000000 133 112 133 0.000000 0.000000 0.000000 0.000000 -8.844074 0.000000 170.000000 -0.136757 0.926906 0.349489
-0.07000000 -20.87000084 1.01999998 133 112 133 0.000000 0.000000 0.000000 0.000000 -8.844074 0.000000 170.000000 -0.414090 0.810592 0.414090
-0.05000000 -20.87000084 0.98000002 133 112 133 0.000000 0.000000 0.000000 0.000000 -8.844074 0.000000 170.000000 0.144199 0.971110 0.190138
-0.09000000 -20.84000015 0.95999998 133 112 133 0.000000 0.000000 0.000000 0.000000 -8.844074 0.000000 170.000000 -0.029251 0.981661 0.188376
-0.10000000 -20.87999916 1.00000000 133 112 133 0.000000 0.000000 0.000000 0.000000 -8.844074 0.000000 170.000000 -0.127010 0.983421 0.129429
-0.09000000 -20.87999916 0.94999999 133 112 133 0.000000 0.000000 0.000000 0.000000 -8.844074 0.000000 170.000000 0.116598 0.923181 0.366254
-0.08000000 -20.87000084 0.94999999 133 112 133 0.000000 0.000000 0.000000 0.000000 -8.844074 0.000000 170.000000 -0.216283 0.970110 0.110039
-0.08000000 -20.87999916 0.95999998 133 112 133 0.000000 0.000000 0.000000 0.000000 -8.844074 0.000000 170.000000 0.120869 0.960454 0.250836
0.02000000 -20.72999954 0.89999998 133 112 133 0.000000 0.000000 0.000000 0.000000 -8.844074 0.000000 170.000000 -0.280030 0.959928 0.011006
0.02000000 -20.72999954 0.89999998 133 112 133 0.000000 0.000000 0.000000 0.000000 -8.844074 0.000000 170.000000 -0.280030 0.959928 0.011006
0.02000000 -20.71999931 0.92000002 133 112 133 0.000000 0.000000 0.000000 0.000000 -8.844074 0.000000 170.000000 -0.669886 0.729832 0.136375
0.00000000 -20.71999931 0.88999999 133 112 133 0.000000 0.000000 0.000000 0.000000 -8.844074 0.000000 170.000000 -0.626117 0.772748 -0.104108
0.00000000 -20.72999954 0.86000001 133 112 133 0.000000 0.000000 0.000000 0.000000 -8.844074 0.000000 170.000000 -0.602676 0.790371 0.109977
0.00000000 -20.71999931 0.88999999 133 112 133 0.000000 0.000000 0.000000 0.000000 -8.844074 0.000000 170.000000 -0.626117 0.772748 -0.104108
-0.01000000 -20.79000092 0.89999998 133 112 133 0.000000 0.000000 0.000000 0.000000 -8.844074 0.000000 170.000000 -0.394307 0.897741 0.196426
-0.02000000 -20.77000046 0.93000001 133 112 133 0.000000 0.000000 0.000000 0.000000 -8.844074 0.000000 170.000000 -0.302735 0.951635 0.052372
-0.02000000 -20.72999954 0.85000002 133 112 133 0.000000 0.000000 0.000000 0.000000 -8.844074 0.000000 170.000000 -0.569753 0.764459 0.301634
0.00000000 -20.71999931 0.81000000 133 112 133 0.000000 0.000000 0.000000 0.000000 -8.844074 0.000000 170.000000 -0.636632 0.769914 -0.043955
0.01000000 -20.71999931 0.80000001 133 112 133 0.000000 0.000000 0.000000 0.000000 -8.844074 0.000000 170.000000 -0.582087 0.812698 0.026395
-0.02000000 -20.73999977 0.76999998 133 112 133 0.000000 0.000000 0.000000 0.000000 -8.844074 0.000000 170.000000 0.609970 -0.754231 -0.243047
-0.01000000 -20.77000046 0.82999998 133 112 133 0.000000 0.000000 0.000000 0.000000 -8.844074 0.000000 170.000000 -0.547233 0.835545 0.048985
-0.01000000 -20.76000023 0.80000001 133 112 133 0.000000 0.000000 0.000000 0.000000 -8.844074 0.000000 170.000000 0.087918 0.988199 0.125430
-0.07000000 -20.72999954 0.92000002 133 112 133 0.000000 0.000000 0.000000 0.000000 -8.844074 0.000000 170.000000 -0.189692 0.880819 0.433792
-0.07000000 -20.72999954 0.91000003 133 112 133 0.000000 0.000000 0.000000 0.000000 -8.844074 0.000000 170.000000 -0.186010 0.941072 0.282459
-0.05000000 -20.73999977 0.93000001 133 112 133 0.000000 0.000000 0.000000 0.000000 -8.844074 0.000000 170.000000 -0.502263 0.864328 -0.025862
-0.03000000 -20.75000000 0.88999999 133 112 133 0.000000 0.000000 0.000000 0.000000 -8.844074 0.000000 170.000000 -0.151631 0.908370 0.389707
-0.03000000 -20.75000000 0.88000000 133 112 133 0.000000 0.000000 0.000000 0.000000 -8.844074 0.000000 170.000000 -0.495640 0.771899 0.398137
-0.07000000 -20.72999954 0.88000000 133 112 133 0.000000 0.000000 0.000000 0.000000 -8.844074 0.000000 170.000000 0.044120 0.978979 0.199134
-0.07000000 -20.76000023 0.88999999 133 112 133 0.000000 0.000000 0.000000 0.000000 -8.844074 0.000000 170.000000 -0.240880 0.948550 -0.205497
-0.08000000 -20.72999954 0.91000003 133 112 133 0.000000 0.000000 0.000000 0.000000 -8.844074 0.000000 170.000000 -0.325378 0.872258 0.365096
-0.08000000 -20.73999977 0.89999998 133 112 133 0.000000 0.000000 0.000000 0.000000 -8.844074 0.000000 170.000000 -0.169160 0.939319 0.298437
-0.10000000 -20.73999977 0.87000000 133 112 133 0.000000 0.000000 0.000000 0.000000 -8.844074 0.000000 170.000000 -0.265239 0.921886 0.282444
-0.10000000 -20.77000046 0.91000003 133 112 133 0.000000 0.000000 0.000000 0.000000 -8.844074 0.000000 170.000000 -0.026336 0.813639 0.580774
-0.11000000 -20.77000046 0.91000003 133 112 133 0.000000 0.000000 0.000000 0.000000 -8.844074 0.000000 170.000000 -0.339864 0.932237 0.124207
-0.08000000 -20.77000046 0.88000000 133 112 133 0.000000 0.000000 0.000000 0.000000 -8.844074 0.000000 170.000000 -0.296056 0.935427 -0.193201
-0.06000000 -20.76000023 0.82999998 133 112 133 0.000000 0.000000 0.000000 0.000000 -8.844074 0.000000 170.000000 -0.145378 0.977886 -0.150348
-0.05000000 -20.76000023 0.79000002 133 112 133 0.000000 0.000000 0.000000 0.000000 -8.844074 0.000000 170.000000 -0.476924 0.873182 -0.100480
-0.05000000 -20.78000069 0.79000002 133 112 133 0.000000 0.000000 0.000000 0.000000 -8.844074 0.000000 170.000000 -0.209691 0.906733 0.365875
-0.05000000 -20.78000069 0.79000002 133 112 133 0.000000 0.000000 0.000000 0.000000 -8.844074 0.000000 170.000000 -0.209691 0.906733 0.365875
-0.10000000 -20.75000000 0.81000000 133 112 133 0.000000 0.000000 0.000000 0.000000 -8.844074 0.000000 170.000000 -0.294304 0.909269 0.294304
-0.11000000 -20.79000092 0.76999998 133 112 133 0.000000 0.000000 0.000000 0.000000 -8.844074 0.000000 170.000000 0.001189 0.969226 0.246171
-0.09000000 -20.79000092 0.77999997 133 112 133 0.000000 0.000000 0.000000 0.000000 -8.844074 0.000000 170.000000 0.022057 0.922507 0.385351
-0.05000000 -20.84000015 0.86000001 133 112 133 0.000000 0.000000 0.000000 0.000000 -8.844074 0.000000 170.000000 -0.255388 0.942864 0.213974
-0.06000000 -20.84000015 0.86000001 133 112 133 0.000000 0.000000 0.000000 0.000000 -8.844074 0.000000 170.000000 -0.173497 0.984684 0.017235
-0.03000000 -20.79999924 0.86000001 133 112 133 0.000000 0.000000 0.000000 0.000000 -8.844074 0.000000 170.000000 0.003282 0.992323 -0.123630
-0.05000000 -20.80999947 0.88999999 133 112 133 0.000000 0.000000 0.000000 0.000000 -8.844074 0.000000 170.000000 -0.266540 0.860542 0.434079
-0.11000000 -20.80999947 0.91000003 133 112 133 0.000000 0.000000 0.000000 0.000000 -8.844074 0.000000 170.000000 -0.007792 0.989605 0.143599
-0.11000000 -20.80999947 0.91000003 133 112 133 0.000000 0.000000 0.000000 0.000000 -8.844074 0.000000 170.000000 -0.007792 0.989605 0.143599
-0.08000000 -20.87000084 0.91000003 133 112 133 0.000000 0.000000 0.000000 0.000000 -8.844074 0.000000 170.000000 0.153299 0.985156 0.077244
-0.08000000 -20.86000061 0.86000001 133 112 133 0.000000 0.000000 0.000000 0.000000 -8.844074 0.000000 170.000000 -0.236133 0.911212 0.337540
-0.09000000 -20.85000038 0.88000000 133 112 133 0.000000 0.000000 0.000000 0.000000 -8.844074 0.000000 170.000000 0.167089 0.961746 0.217084
-0.05000000 -20.80999947 0.85000002 133 112 133 0.000000 0.000000 0.000000 0.000000 -8.844074 0.000000 170.000000 -0.259638 0.943764 0.204688
-0.03000000 -20.79999924 0.85000002 133 112 133 0.000000 0.000000 0.000000 0.000000 -8.844074 0.000000 170.000000 -0.354774 0.933410 -0.053674
-0.06000000 -20.80999947 0.83999997 133 112 133 0.000000 0.000000 0.000000 0.000000 -8.844074 0.000000 170.000000 0.028003 0.967945 0.249596
-0.07000000 -20.79999924 0.80000001 133 112 133 0.000000 0.000000 0.000000 0.000000 -8.844074 0.000000 170.000000 0.199666 0.979863 0.001154
-0.04000000 -20.81999969 0.80000001 133 112 133 0.000000 0.000000 0.000000 0.000000 -8.844074 0.000000 170.000000 0.241342 0.961454 0.131760
-0.05000000 -20.81999969 0.80000001 133 112 133 0.000000 0.000000 0.000000 0.000000 -8.844074 0.000000 170.000000 0.099154 0.994809 0.022882
-0.04000000 -20.81999969 0.80000001 133 112 133 0.000000 0.000000 0.000000 0.000000 -8.844074 0.000000 170.000000 0.241342 0.961454 0.131760
-0.11000000 -20.82999992 0.82999998 133 112 133 0.000000 0.000000 0.000000 0.000000 -8.844074 0.000000 170.000000 0.179170 0.952430 0.246527
-0.09000000 -20.82999992 0.82999998 133 112 133 0.000000 0.000000 0.000000 0.000000 -8.844074 0.000000 170.000000 0.316796 0.915671 0.247361
-0.10000000 -20.82999992 0.81999999 133 112 133 0.000000 0.000000 0.000000 0.000000 -8.844074 0.000000 170.000000 -0.204753 0.970349 -0.128447
-0.11000000 -20.82999992 0.83999997 133 112 133 0.000000 0.000000 0.000000 0.000000 -8.844074 0.000000 170.000000 0.015374 0.999310 0.033823
-0.11000000 -20.81999969 0.81000000 133 112 133 0.000000 0.000000 0.000000 0.000000 -8.844074 0.000000 170.000000 0.153097 0.981044 -0.118803
-0.08000000 -20.85000038 0.83999997 133 112 133 0.000000 0.000000 0.000000 0.000000 -8.844074 0.000000 170.000000 -0.427050 0.846336 0.318346
-0.09000000 -20.86000061 0.85000002 133 112 133 0.000000 0.000000 0.000000 0.000000 -8.844074 0.000000 170.000000 -0.218130 0.945228 0.242823
-0.10000000 -20.86000061 0.85000002 133 112 133 0.000000 0.000000 0.000000 0.000000 -8.844074 0.000000 170.000000 -0.022123 0.981575 0.189794
-0.10000000 -20.85000038 0.83999997 133 112 133 0.000000 0.000000 0.000000 0.000000 -8.844074 0.000000 170.000000 -0.058044 0.905756 0.419806
-0.10000000 -20.86000061 0.85000002 133 112 133 0.000000 0.000000 0.000000 0.000000 -8.844074 0.000000 170.000000 -0.022123 0.981575 0.189794
-0.11000000 -20.86000061 0.85000002 133 112 133 0.000000 0.000000 0.000000 0.000000 -8.844074 0.000000 170.000000 0.048055 0.871849 0.487412
-0.11000000 -20.86000061 0.85000002 133 112 133 0.000000 0.000000 0.000000 0.000000 -8.844074 0.000000 170.000000 0.048055 0.871849 0.487412
-0.10000000 -20.89999962 1.02999997 133 112 133 0.000000 0.000000 0.000000 0.000000 -8.844074 0.000000 170.000000 0.159365 0.894455 0.417795
-0.11000000 -20.90999985 1.02999997 133 112 133 0.000000 0.000000 0.000000 0.000000 -8.844074 0.000000 170.000000 -0.286323 0.953102 -0.098056
-0.16000000 -20.87999916 1.03999996 133 112 133 0.000000 0.000000 0.000000 0.000000 -8.844074 0.000000 170.000000 0.218149 0.831408 0.511049
-0.13000000 -20.86000061 1.02999997 133 112 133 0.000000 0.000000 0.000000 0.000000 -8.844074 0.000000 170.000000 -0.166312 0.979395 0.114571
-0.13000000 -20.86000061 1.01999998 133 112 133 0.000000 0.000000 0.000000 0.000000 -8.844074 0.000000 170.000000 -0.190540 0.970602 0.147061
-0.19000000 -20.87999916 1.00999999 133 112 133 0.000000 0.000000 0.000000 0.000000 -8.844074 0.000000 170.000000 -0.120215 0.992055 0.037076
-0.16000000 -20.87999916 1.00999999 133 112 133 0.000000 0.000000 0.000000 0.000000 -8.844074 0.000000 170.000000 0.311219 0.949025 0.049949
-0.18000001 -20.87999916 0.99000001 133 112 133 0.000000 0.000000 0.000000 0.000000 -8.844074 0.000000 170.000000 0.088466 0.991504 -0.095359
-0.18000001 -20.87999916 0.97000003 133 112 133 0.000000 0.000000 0.000000 0.000000 -8.844074 0.000000 170.000000 0.134406 0.961722 0.238799
-0.17000000 -20.86000061 0.95999998 133 112 133 0.000000 0.000000 0.000000 0.000000 -8.844074 0.000000 170.000000 -0.096377 0.995175 0.018409
-0.17000000 -20.86000061 0.95999998 133 112 133 0.000000 0.000000 0.000000 0.000000 -8.844074 0.000000 170.000000 -0.096377 0.995175 0.018409
-0.18000001 -20.87000084 0.98000002 133 112 133 0.000000 0.000000 0.000000 0.000000 -8.844074 0.000000 170.000000 0.359094 0.920791 -0.152301
-0.14000000 -20.79000092 0.85000002 133 112 133 0.000000 0.000000 0.000000 0.000000 -8.844074 0.000000 170.000000 0.151930 0.979515 0.132167
-0.12000000 -20.79000092 0.82999998 133 112 133 0.000000 0.000000 0.000000 0.000000 -8.844074 0.000000 170.000000 -0.102010 0.991449 -0.081379
-0.14000000 -20.79000092 0.82999998 133 112 133 0.000000 0.000000 0.000000 0.000000 -8.844074 0.000000 170.000000 0.419867 0.799516 0.429519
-0.14000000 -20.79000092 0.85000002 133 112 133 0.000000 0.000000 0.000000 0.000000 -8.844074 0.000000 170.000000 0.151930 0.979515 0.132167
-0.14000000 -20.79000092 0.85000002 133 112 133 0.000000 0.000000 0.000000 0.000000 -8.844074 0.000000 170.000000 0.151930 0.979515 0.132167
-0.14000000 -20.80999947 0.93000001 133 112 133 0.000000 0.000000 0.000000 0.000000 -8.844074 0.000000 170.000000 0.137621 0.921642 0.362818
-0.13000000 -20.81999969 0.87000000 133 112 133 0.000000 0.000000 0.000000 0.000000 -8.844074 0.000000 170.000000 0.013187 0.969846 0.243361
-0.14000000 -20.87000084 0.87000000 133 112 133 0.000000 0.000000 0.000000 0.000000 -8.844074 0.000000 170.000000 -0.231271 0.970843 -0.063074
-0.16000000 -20.81999969 0.91000003 133 112 133 0.000000 0.000000 0.000000 0.000000 -8.844074 0.000000 170.000000 0.213996 0.799022 0.561933
-0.16000000 -20.87000084 0.92000002 133 112 133 0.000000 0.000000 0.000000 0.000000 -8.844074 0.000000 170.000000 0.066925 0.997509 -0.022308
-0.14000000 -20.84000015 0.83999997 133 112 133 0.000000 0.000000 0.000000 0.000000 -8.844074 0.000000 170.000000 -0.305077 0.926582 0.219939
-0.13000000 -20.84000015 0.85000002 133 112 133 0.000000 0.000000 0.000000 0.000000 -8.844074 0.000000 170.000000 0.376542 0.898133 0.227097
-0.14000000 -20.92000008 1.10000002 133 112 133 0.000000 0.000000 0.000000 0.000000 -8.844074 0.000000 170.000000 0.254842 0.947142 0.194880
-0.15000001 -20.88999939 1.07000005 133 112 133 0.000000 0.000000 0.000000 0.000000 -8.844074 0.000000 170.000000 -0.213092 0.975354 0.057231
-0.14000000 -20.88999939 1.07000005 133 112 133 0.000000 0.000000 0.000000 0.000000 -8.844074 0.000000 170.000000 0.021100 0.999753 0.007033
-0.15000001 -20.88999939 1.10000002 133 112 133 0.000000 0.000000 0.000000 0.000000 -8.844074 0.000000 170.000000 -0.001237 0.948930 0.315485
-0.15000001 -20.89999962 1.07000005 133 112 133 0.000000 0.000000 0.000000 0.000000 -8.844074 0.000000 170.000000 -0.212107 0.973706 -0.083106
-0.13000000 -20.88999939 1.04999995 133 112 133 0.000000 0.000000 0.000000 0.000000 -8.844074 0.000000 170.000000 0.347143 0.837228 0.422541
-0.12000000 -20.90999985 1.02999997 133 112 133 0.000000 0.000000 0.000000 0.000000 -8.844074 0.000000 170.000000 -0.141031 0.977234 -0.158504
-0.13000000 -20.88999939 1.04999995 133 112 133 0.000000 0.000000 0.000000 0.000000 -8.844074 0.000000 170.000000 0.347143 0.837228 0.422541
-0.14000000 -20.89999962 1.00000000 133 112 133 0.000000 0.000000 0.000000 0.000000 -8.844074 0.000000 170.000000 -0.293174 0.903094 0.313799
-0.13000000 -20.89999962 0.98000002 133 112 133 0.000000 0.000000 0.000000 0.000000 -8.844074 0.000000 170.000000 0.092011 0.969271 -0.228138
-0.14000000 -20.88999939 0.92000002 133 112 133 0.000000 0.000000 0.000000 0.000000 -8.844074 0.000000 170.000000 0.252771 0.883951 0.393366
-0.01000000 -20.72999954 0.75999999 133 112 133 0.000000 0.000000 0.000000 0.000000 -8.844074 0.000000 170.000000 -0.551259 0.732269 0.399869
-0.01000000 -20.73999977 0.69999999 133 112 133 0.000000 0.000000 0.000000 0.000000 -8.844074 0.000000 170.000000 -0.094585 0.989052 0.113268
-0.07000000 -20.75000000 0.74000001 133 112 133 0.000000 0.000000 0.000000 0.000000 -8.844074 0.000000 170.000000 0.080268 0.961944 0.261190
-0.06000000 -20.75000000 0.74000001 133 112 133 0.000000 0.000000 0.000000 0.000000 -8.844074 0.000000 170.000000 0.144793 0.943185 0.299059
-0.05000000 -20.73999977 0.73000002 133 112 133 0.000000 0.000000 0.000000 0.000000 -8.844074 0.000000 170.000000 -0.480221 0.787433 0.386441
-0.06000000 -20.75000000 0.75000000 133 112 133 0.000000 0.000000 0.000000 0.000000 -8.844074 0.000000 170.000000 0.153337 0.953355 0.260006
-0.07000000 -20.75000000 0.75000000 133 112 133 0.000000 0.000000 0.000000 0.000000 -8.844074 0.000000 170.000000 -0.113776 0.922542 0.368743
-0.04000000 -20.71999931 0.75999999 133 112 133 0.000000 0.000000 0.000000 0.000000 -8.844074 0.000000 170.000000 -0.485745 0.862089 0.144411
-0.05000000 -20.75000000 0.74000001 133 112 133 0.000000 0.000000 0.000000 0.000000 -8.844074 0.000000 170.000000 -0.321589 0.832994 0.450224
-0.03000000 -20.72999954 0.69999999 133 112 133 0.000000 0.000000 0.000000 0.000000 -8.844074 0.000000 170.000000 0.018924 0.944922 0.326749
-0.05000000 -20.72999954 0.70999998 133 112 133 0.000000 0.000000 0.000000 0.000000 -8.844074 0.000000 170.000000 -0.357551 0.922398 0.146081
-0.04000000 -20.72999954 0.70999998 133 112 133 0.000000 0.000000 0.000000 0.000000 -8.844074 0.000000 170.000000 -0.044073 0.955744 0.290879
-0.05000000 -20.72999954 0.72000003 133 112 133 0.000000 0.000000 0.000000 0.000000 -8.844074 0.000000 170.000000 -0.174131 0.843867 0.507511
-0.11000000 -20.73999977 0.74000001 133 112 133 0.000000 0.000000 0.000000 0.000000 -8.844074 0.000000 170.000000 -0.217706 0.860315 0.460937
-0.08000000 -20.75000000 0.75000000 133 112 133 0.000000 0.000000 0.000000 0.000000 -8.844074 0.000000 170.000000 -0.416560 0.865163 0.279233
-0.10000000 -20.73999977 0.75999999 133 112 133 0.000000 0.000000 0.000000 0.000000 -8.844074 0.000000 170.000000 -0.201336 0.937251 0.284647
-0.10000000 -20.73999977 0.75999999 133 112 133 0.000000 0.000000 0.000000 0.000000 -8.844074 0.000000 170.000000 -0.201336 0.937251 0.284647
-0.09000000 -20.71999931 0.69000000 133 112 133 0.000000 0.000000 0.000000 0.000000 -8.844074 0.000000 170.000000 -0.090004 0.950907 0.296099
-0.11000000 -20.72999954 0.72000003 133 112 133 0.000000 0.000000 0.000000 0.000000 -8.844074 0.000000 170.000000 -0.262708 0.905535 0.333154
-0.10000000 -20.72999954 0.69000000 133 112 133 0.000000 0.000000 0.000000 0.000000 -8.844074 0.000000 170.000000 0.046495 0.958807 0.280228
-0.11000000 -20.79000092 0.75999999 133 112 133 0.000000 0.000000 0.000000 0.000000 -8.844074 0.000000 170.000000 0.222841 0.816059 0.533282
-0.05000000 -20.71999931 0.68000001 133 112 133 0.000000 0.000000 0.000000 0.000000 -8.844074 0.000000 170.000000 -0.192618 0.946697 0.258190
-0.08000000 -20.71999931 0.67000002 133 112 133 0.000000 0.000000 0.000000 0.000000 -8.844074 0.000000 170.000000 0.170578 0.974191 0.147834
-0.07000000 -20.72999954 0.66000003 133 112 133 0.000000 0.000000 0.000000 0.000000 -8.844074 0.000000 170.000000 0.023359 0.839562 0.542761
-0.02000000 -20.39999962 0.38999999 133 112 133 0.000000 0.000000 0.000000 0.000000 -8.844074 0.000000 170.000000 0.860791 0.499401 0.098173
-0.02000000 -20.39999962 0.38000000 133 112 133 0.000000 0.000000 0.000000 0.000000 -8.844074 0.000000 170.000000 0.783720 0.582766 0.214866
-0.02000000 -20.42000008 0.41000000 133 112 133 0.000000 0.000000 0.000000 0.000000 -8.844074 0.000000 170.000000 0.901212 0.369541 -0.226399
-0.01000000 -20.42000008 0.41000000 133 112 133 0.000000 0.000000 0.000000 0.000000 -8.844074 0.000000 170.000000 0.975344 0.052099 -0.214454
0.01000000 -20.43000031 0.38999999 133 112 133 0.000000 0.000000 0.000000 0.000000 -8.844074 0.000000 170.000000 0.959106 0.254457 0.123966
-0.01000000 -20.42000008 0.41000000 133 112 133 0.000000 0.000000 0.000000 0.000000 -8.844074 0.000000 170.000000 0.975344 0.052099 -0.214454
0.00000000 -20.42000008 0.41999999 133 112 133 0.000000 0.000000 0.000000 0.000000 -8.844074 0.000000 170.000000 0.944791 0.011292 -0.327478
-0.01000000 -20.42000008 0.41000000 133 112 133 0.000000 0.000000 0.000000 0.000000 -8.844074 0.000000 170.000000 0.975344 0.052099 -0.214454
0.00000000 -20.43000031 0.36000001 133 112 133 0.000000 0.000000 0.000000 0.000000 -8.844074 0.000000 170.000000 0.992687 0.078280 -0.091894
0.01000000 -20.45999908 0.38000000 133 112 133 0.000000 0.000000 0.000000 0.000000 -8.844074 0.000000 170.000000 0.977343 -0.207460 0.041972
-0.02000000 -20.42000008 0.34999999 133 112 133 0.000000 0.000000 0.000000 0.000000 -8.844074 0.000000 170.000000 0.913052 -0.392100 -0.112226
0.01000000 -20.44000053 0.37000000 133 112 133 0.000000 0.000000 0.000000 0.000000 -8.844074 0.000000 170.000000 0.978355 -0.147559 -0.145079
0.01000000 -20.42000008 0.38000000 133 112 133 0.000000 0.000000 0.000000 0.000000 -8.844074 0.000000 170.000000 0.983646 0.087675 0.157335
0.01000000 -20.43000031 0.37000000 133 112 133 0.000000 0.000000 0.000000 0.000000 -8.844074 0.000000 170.000000 0.941910 -0.283807 -0.179607
0.00000000 -20.45999908 0.38000000 133 112 133 0.000000 0.000000 0.000000 0.000000 -8.844074 0.000000 170.000000 0.936863 -0.238753 -0.255508
0.05000000 -20.45000076 0.28999999 133 112 133 0.000000 0.000000 0.000000 0.000000 -8.844074 0.000000 170.000000 0.886184 -0.420388 0.194814
-0.02000000 -20.40999985 0.31000000 133 112 133 0.000000 0.000000 0.000000 0.000000 -8.844074 0.000000 170.000000 0.986914 0.112824 0.115199
-0.02000000 -20.37999916 0.31999999 133 112 133 0.000000 0.000000 0.000000 0.000000 -8.844074 0.000000 170.000000 0.788413 0.316958 0.527202
-0.01000000 -20.38999939 0.33000001 133 112 133 0.000000 0.000000 0.000000 0.000000 -8.844074 0.000000 170.000000 0.834045 0.428803 0.347126
-0.02000000 -20.38999939 0.28999999 133 112 133 0.000000 0.000000 0.000000 0.000000 -8.844074 0.000000 170.000000 0.969856 0.240329 -0.040258
-0.02000000 -20.38999939 0.30000001 133 112 133 0.000000 0.000000 0.000000 0.000000 -8.844074 0.000000 170.000000 0.951829 0.281974 -0.120468
-0.01000000 -20.40999985 0.28000000 133 112 133 0.000000 0.000000 0.000000 0.000000 -8.844074 0.000000 170.000000 0.936243 -0.283245 0.207899
-0.01000000 -20.38999939 0.28000000 133 112 133 0.000000 0.000000 0.000000 0.000000 -8.844074 0.000000 170.000000 0.846548 0.309106 0.433370
-0.02000000 -20.43000031 0.31999999 133 112 133 0.000000 0.000000 0.000000 0.000000 -8.844074 0.000000 170.000000 0.894865 -0.425381 -0.135155
-0.02000000 -20.42000008 0.34000000 133 112 133 0.000000 0.000000 0.000000 0.000000 -8.844074 0.000000 170.000000 0.934460 -0.355681 -0.016573
0.03000000 -20.50000000 0.41999999 133 112 133 0.000000 0.000000 0.000000 0.000000 -8.844074 0.000000 170.000000 0.829301 -0.495728 0.257902
0.00000000 -20.50000000 0.43000001 133 112 133 0.000000 0.000000 0.000000 0.000000 -8.844074 0.000000 170.000000 0.735072 -0.558262 -0.384726
0.00000000 -20.50000000 0.41000000 133 112 133 0.000000 0.000000 0.000000 0.000000 -8.844074 0.000000 170.000000 0.773794 -0.618737 -0.135675
0.00000000 -20.47999954 0.38999999 133 112 133 0.000000 0.000000 0.000000 0.000000 -8.844074 0.000000 170.000000 0.819667 -0.541916 0.185670
-0.01000000 -20.50000000 0.43000001 133 112 133 0.000000 0.000000 0.000000 0.000000 -8.844074 0.000000 170.000000 -0.659628 0.746996 -0.083000
0.00000000 -20.48999977 0.41999999 133 112 133 0.000000 0.000000 0.000000 0.000000 -8.844074 0.000000 170.000000 0.851552 -0.510353 -0.119998
0.00000000 -20.46999931 0.38999999 133 112 133 0.000000 0.000000 0.000000 0.000000 -8.844074 0.000000 170.000000 0.964115 -0.207435 -0.165687
0.00000000 -20.47999954 0.40000001 133 112 133 0.000000 0.000000 0.000000 0.000000 -8.844074 0.000000 170.000000 0.870717 -0.487435 -0.065269
0.00000000 -20.46999931 0.38999999 133 112 133 0.000000 0.000000 0.000000 0.000000 -8.844074 0.000000 170.000000 0.964115 -0.207435 -0.165687
0.00000000 -20.50000000 0.41000000 133 112 133 0.000000 0.000000 0.000000 0.000000 -8.844074 0.000000 170.000000 0.773794 -0.618737 -0.135675
-0.01000000 -20.50000000 0.43000001 133 112 133 0.000000 0.000000 0.000000 0.000000 -8.844074 0.000000 170.000000 -0.659628 0.746996 -0.083000
-0.02000000 -20.47999954 0.40000001 133 112 133 0.000000 0.000000 0.000000 0.000000 -8.844074 0.000000 170.000000 -0.593573 0.794884 -0.125820
0.01000000 -20.47999954 0.34999999 133 112 133 0.000000 0.000000 0.000000 0.000000 -8.844074 0.000000 170.000000 0.876146 -0.434367 -0.209030
-0.01000000 -20.48999977 0.34999999 133 112 133 0.000000 0.000000 0.000000 0.000000 -8.844074 0.000000 170.000000 -0.502252 0.848939 0.164454
0.01000000 -20.47999954 0.37000000 133 112 133 0.000000 0.000000 0.000000 0.000000 -8.844074 0.000000 170.000000 0.783552 -0.619783 0.043766
0.00000000 -20.47999954 0.34999999 133 112 133 0.000000 0.000000 0.000000 0.000000 -8.844074 0.000000 170.000000 0.757381 -0.603070 -0.250361
0.01000000 -20.47999954 0.37000000 133 112 133 0.000000 0.000000 0.000000 0.000000 -8.844074 0.000000 170.000000 0.783552 -0.619783 0.043766
0.00000000 -20.48999977 0.37000000 133 112 133 0.000000 0.000000 0.000000 0.000000 -8.844074 0.000000 170.000000 0.864670 -0.499434 0.053955
0.00000000 -20.47999954 0.36000001 133 112 133 0.000000 0.000000 0.000000 0.000000 -8.844074 0.000000 170.000000 -0.641865 0.766006 0.035267
0.00000000 -20.47999954 0.37000000 133 112 133 0.000000 0.000000 0.000000 0.000000 -8.844074 0.000000 170.000000 -0.530714 0.841377 -0.102116
-0.02000000 -20.50000000 0.37000000 133 112 133 0.000000 0.000000 0.000000 0.000000 -8.844074 0.000000 170.000000 0.771788 -0.610428 -0.178105
-0.02000000 -20.51000023 0.40000001 133 112 133 0.000000 0.000000 0.000000 0.000000 -8.844074 0.000000 170.000000 -0.479735 0.877037 -0.025676
-0.01000000 -20.51000023 0.40000001 133 112 133 0.000000 0.000000 0.000000 0.000000 -8.844074 0.000000 170.000000 -0.543270 0.830280 -0.124469
-0.02000000 -20.52000046 0.41999999 133 112 133 0.000000 0.000000 0.000000 0.000000 -8.844074 0.000000 170.000000 -0.619300 0.775973 0.119722
-0.01000000 -20.51000023 0.41000000 133 112 133 0.000000 0.000000 0.000000 0.000000 -8.844074 0.000000 170.000000 -0.438139 0.773666 0.457684
0.00000000 -20.51000023 0.38999999 133 112 133 0.000000 0.000000 0.000000 0.000000 -8.844074 0.000000 170.000000 -0.679552 0.724161 -0.117472
-0.02000000 -20.52000046 0.38999999 133 112 133 0.000000 0.000000 0.000000 0.000000 -8.844074 0.000000 170.000000 -0.339720 0.915955 -0.213580
-0.02000000 -20.51000023 0.41000000 133 112 133 0.000000 0.000000 0.000000 0.000000 -8.844074 0.000000 170.000000 -0.330298 0.885319 0.327282
-0.02000000 -20.52000046 0.43000001 133 112 133 0.000000 0.000000 0.000000 0.000000 -8.844074 0.000000 170.000000 -0.683471 0.710871 -0.165921
-0.02000000 -20.51000023 0.41000000 133 112 133 0.000000 0.000000 0.000000 0.000000 -8.844074 0.000000 170.000000 -0.330298 0.885319 0.327282
-0.02000000 -20.52000046 0.43000001 133 112 133 0.000000 0.000000 0.000000 0.000000 -8.844074 0.000000 170.000000 -0.683471 0.710871 -0.165921
-0.02000000 -20.51000023 0.34999999 133 112 133 0.000000 0.000000 0.000000 0.000000 -8.844074 0.000000 170.000000 -0.638842 0.638842 0.428675
-0.02000000 -20.50000000 0.31000000 133 112 133 0.000000 0.000000 0.000000 0.000000 -8.844074 0.000000 170.000000 -0.243978 0.967155 -0.071317
-0.02000000 -20.50000000 0.31000000 133 112 133 0.000000 0.000000 0.000000 0.000000 -8.844074 0.000000 170.000000 -0.243978 0.967155 -0.071317
-0.01000000 -20.48999977 0.27000001 133 112 133 0.000000 0.000000 0.000000 0.000000 -8.844074 0.000000 170.000000 -0.710394 0.679708 -0.182585
-0.02000000 -20.48999977 0.27000001 133 112 133 0.000000 0.000000 0.000000 0.000000 -8.844074 0.000000 170.000000 -0.153995 0.988040 -0.007868
-0.02000000 -20.48999977 0.28000000 133 112 133 0.000000 0.000000 0.000000 0.000000 -8.844074 0.000000 170.000000 -0.469726 0.875205 -0.115647
-0.02000000 -20.48999977 0.27000001 133 112 133 0.000000 0.000000 0.000000 0.000000 -8.844074 0.000000 170.000000 -0.153995 0.988040 -0.007868
0.00000000 -20.51000023 0.34000000 133 112 133 0.000000 0.000000 0.000000 0.000000 -8.844074 0.000000 170.000000 -0.535839 0.815274 0.219556
-0.07000000 -20.37999916 0.41999999 133 112 133 0.000000 0.000000 0.000000 0.000000 -8.844074 0.000000 170.000000 -0.001195 0.967043 0.254611
