//X Y Z R G B PointSourceId ScanDirectionFlag NumberOfReturns ReturnNumber GpsTime Intensity Classification Nx Ny Nz
16.72999954 -3.25000000 -0.03000000 139 33 169 0.000000 0.000000 0.000000 0.000000 -8.844074 0.000000 239.000000 0.859044 -0.270072 -0.434862
16.73999977 -3.25000000 -0.05000000 139 33 169 0.000000 0.000000 0.000000 0.000000 -8.844074 0.000000 239.000000 0.818462 -0.569924 0.072847
16.73999977 -3.27999997 0.00000000 139 33 169 0.000000 0.000000 0.000000 0.000000 -8.844074 0.000000 239.000000 -0.725181 0.656855 0.206529
16.68000031 -3.24000001 -0.06000000 139 33 169 0.000000 0.000000 0.000000 0.000000 -8.844074 0.000000 239.000000 -0.516036 0.834985 0.191069
16.72999954 -3.25000000 -0.08000000 139 33 169 0.000000 0.000000 0.000000 0.000000 -8.844074 0.000000 239.000000 0.726204 -0.686567 -0.035390
16.63999939 -3.25000000 -0.12000000 139 33 169 0.000000 0.000000 0.000000 0.000000 -8.844074 0.000000 239.000000 0.728957 -0.684525 -0.006942
16.63999939 -3.28999996 -0.08000000 139 33 169 0.000000 0.000000 0.000000 0.000000 -8.844074 0.000000 239.000000 0.806249 -0.580088 0.116018
16.78000069 -3.31999993 0.01000000 139 33 169 0.000000 0.000000 0.000000 0.000000 -8.844074 0.000000 239.000000 -0.380769 0.908426 0.172558
16.72999954 -3.33999991 -0.07000000 139 33 169 0.000000 0.000000 0.000000 0.000000 -8.844074 0.000000 239.000000 -0.487148 0.862324 -0.138146
16.72999954 -3.33999991 -0.07000000 139 33 169 0.000000 0.000000 0.000000 0.000000 -8.844074 0.000000 239.000000 -0.487148 0.862324 -0.138146
16.77000046 -3.31999993 -0.03000000 139 33 169 0.000000 0.000000 0.000000 0.000000 -8.844074 0.000000 239.000000 -0.452939 0.815290 0.360762
16.72999954 -3.29999995 -0.02000000 139 33 169 0.000000 0.000000 0.000000 0.000000 -8.844074 0.000000 239.000000 0.919410 -0.381152 -0.096996
16.76000023 -3.32999992 -0.05000000 139 33 169 0.000000 0.000000 0.000000 0.000000 -8.844074 0.000000 239.000000 0.849682 -0.527155 -0.012196
16.77000046 -3.29999995 -0.06000000 139 33 169 0.000000 0.000000 0.000000 0.000000 -8.844074 0.000000 239.000000 -0.649631 0.688511 0.322385
16.70999908 -3.34999990 -0.07000000 139 33 169 0.000000 0.000000 0.000000 0.000000 -8.844074 0.000000 239.000000 -0.396313 0.878519 0.266720
16.72999954 -3.34999990 -0.09000000 139 33 169 0.000000 0.000000 0.000000 0.000000 -8.844074 0.000000 239.000000 -0.405353 0.906820 0.115616
16.73999977 -3.33999991 -0.08000000 139 33 169 0.000000 0.000000 0.000000 0.000000 -8.844074 0.000000 239.000000 0.795334 -0.596134 -0.109853
16.72999954 -3.29999995 -0.12000000 139 33 169 0.000000 0.000000 0.000000 0.000000 -8.844074 0.000000 239.000000 0.855398 -0.464792 -0.228611
16.72999954 -3.34999990 -0.09000000 139 33 169 0.000000 0.000000 0.000000 0.000000 -8.844074 0.000000 239.000000 -0.405353 0.906820 0.115616
16.70999908 -3.29999995 -0.13000000 139 33 169 0.000000 0.000000 0.000000 0.000000 -8.844074 0.000000 239.000000 0.812078 -0.226519 -0.537790
16.69000053 -3.33999991 -0.14000000 139 33 169 0.000000 0.000000 0.000000 0.000000 -8.844074 0.000000 239.000000 -0.725139 0.512741 0.459642
16.68000031 -3.33999991 -0.14000000 139 33 169 0.000000 0.000000 0.000000 0.000000 -8.844074 0.000000 239.000000 -0.667106 0.583508 0.463128
16.68000031 -3.34999990 -0.11000000 139 33 169 0.000000 0.000000 0.000000 0.000000 -8.844074 0.000000 239.000000 -0.663681 0.744653 -0.070850
16.67000008 -3.38000011 -0.13000000 139 33 169 0.000000 0.000000 0.000000 0.000000 -8.844074 0.000000 239.000000 -0.706165 0.700268 0.104672
16.67000008 -3.34999990 -0.15000001 139 33 169 0.000000 0.000000 0.000000 0.000000 -8.844074 0.000000 239.000000 0.719164 -0.547226 -0.428192
16.67000008 -3.35999990 -0.12000000 139 33 169 0.000000 0.000000 0.000000 0.000000 -8.844074 0.000000 239.000000 0.838872 -0.528504 -0.130296
16.62999916 -3.31999993 -0.14000000 139 33 169 0.000000 0.000000 0.000000 0.000000 -8.844074 0.000000 239.000000 -0.516518 0.760926 0.392684
16.65999985 -3.34999990 -0.18000001 139 33 169 0.000000 0.000000 0.000000 0.000000 -8.844074 0.000000 239.000000 0.697037 -0.483078 -0.529882
16.60000038 -3.28999996 -0.14000000 139 33 169 0.000000 0.000000 0.000000 0.000000 -8.844074 0.000000 239.000000 0.711743 -0.697128 -0.086228
16.60000038 -3.28999996 -0.12000000 139 33 169 0.000000 0.000000 0.000000 0.000000 -8.844074 0.000000 239.000000 -0.312667 0.905706 0.286244
16.60000038 -3.28999996 -0.12000000 139 33 169 0.000000 0.000000 0.000000 0.000000 -8.844074 0.000000 239.000000 -0.312667 0.905706 0.286244
16.60000038 -3.27999997 -0.17000000 139 33 169 0.000000 0.000000 0.000000 0.000000 -8.844074 0.000000 239.000000 0.777835 -0.613609 -0.135860
16.60000038 -3.33999991 -0.15000001 139 33 169 0.000000 0.000000 0.000000 0.000000 -8.844074 0.000000 239.000000 -0.713191 0.653099 -0.254598
16.59000015 -3.34999990 -0.16000000 139 33 169 0.000000 0.000000 0.000000 0.000000 -8.844074 0.000000 239.000000 0.755354 -0.655197 -0.012520
16.60000038 -3.31999993 -0.18000001 139 33 169 0.000000 0.000000 0.000000 0.000000 -8.844074 0.000000 239.000000 0.927022 -0.354651 -0.121869
16.54999924 -3.30999994 -0.19000000 139 33 169 0.000000 0.000000 0.000000 0.000000 -8.844074 0.000000 239.000000 -0.525259 0.834759 0.165166
16.61000061 -3.39000010 -0.16000000 139 33 169 0.000000 0.000000 0.000000 0.000000 -8.844074 0.000000 239.000000 0.792014 -0.557691 -0.248383
16.56999969 -3.41000009 -0.18000001 139 33 169 0.000000 0.000000 0.000000 0.000000 -8.844074 0.000000 239.000000 -0.483305 0.862941 -0.147474
16.55999947 -3.41000009 -0.20999999 139 33 169 0.000000 0.000000 0.000000 0.000000 -8.844074 0.000000 239.000000 0.667529 -0.670777 -0.323207
16.56999969 -3.40000010 -0.23000000 139 33 169 0.000000 0.000000 0.000000 0.000000 -8.844074 0.000000 239.000000 -0.435294 0.788060 0.435294
16.57999992 -3.40000010 -0.17000000 139 33 169 0.000000 0.000000 0.000000 0.000000 -8.844074 0.000000 239.000000 0.695829 -0.667168 0.265912
16.57999992 -3.40000010 -0.19000000 139 33 169 0.000000 0.000000 0.000000 0.000000 -8.844074 0.000000 239.000000 -0.397912 0.917155 -0.022179
16.53000069 -3.30999994 -0.16000000 139 33 169 0.000000 0.000000 0.000000 0.000000 -8.844074 0.000000 239.000000 0.672243 -0.703583 0.230349
16.52000046 -3.32999992 -0.19000000 139 33 169 0.000000 0.000000 0.000000 0.000000 -8.844074 0.000000 239.000000 -0.627021 0.748380 0.216268
16.51000023 -3.33999991 -0.19000000 139 33 169 0.000000 0.000000 0.000000 0.000000 -8.844074 0.000000 239.000000 -0.384838 0.840361 0.381697
16.53000069 -3.31999993 -0.20000000 139 33 169 0.000000 0.000000 0.000000 0.000000 -8.844074 0.000000 239.000000 -0.384831 0.919543 -0.079667
16.53000069 -3.33999991 -0.23999999 139 33 169 0.000000 0.000000 0.000000 0.000000 -8.844074 0.000000 239.000000 -0.642689 0.761651 -0.082694
16.51000023 -3.34999990 -0.18000001 139 33 169 0.000000 0.000000 0.000000 0.000000 -8.844074 0.000000 239.000000 0.407350 -0.844353 -0.348042
16.52000046 -3.38000011 -0.23999999 139 33 169 0.000000 0.000000 0.000000 0.000000 -8.844074 0.000000 239.000000 -0.406432 0.890628 0.203949
16.48999977 -3.36999989 -0.22000000 139 33 169 0.000000 0.000000 0.000000 0.000000 -8.844074 0.000000 239.000000 -0.387578 0.921632 0.019444
16.65999985 -3.49000001 -0.22000000 139 33 169 0.000000 0.000000 0.000000 0.000000 -8.844074 0.000000 239.000000 0.748433 -0.508277 -0.426031
16.62000084 -3.55999994 -0.23999999 139 33 169 0.000000 0.000000 0.000000 0.000000 -8.844074 0.000000 239.000000 -0.214802 0.969785 -0.115662
16.56999969 -3.45000005 -0.36000001 139 33 169 0.000000 0.000000 0.000000 0.000000 -8.844074 0.000000 239.000000 -0.656932 0.682885 0.319545
16.47999954 -3.38000011 -0.30000001 139 33 169 0.000000 0.000000 0.000000 0.000000 -8.844074 0.000000 239.000000 0.737165 -0.655089 -0.165672
16.54000092 -3.44000006 -0.25999999 139 33 169 0.000000 0.000000 0.000000 0.000000 -8.844074 0.000000 239.000000 0.753658 -0.601978 0.263859
16.38999939 -3.38000011 -0.36000001 139 33 169 0.000000 0.000000 0.000000 0.000000 -8.844074 0.000000 239.000000 -0.412304 0.902002 0.128053
16.38999939 -3.39000010 -0.34000000 139 33 169 0.000000 0.000000 0.000000 0.000000 -8.844074 0.000000 239.000000 -0.442446 0.894481 0.064381
16.38999939 -3.39000010 -0.34999999 139 33 169 0.000000 0.000000 0.000000 0.000000 -8.844074 0.000000 239.000000 -0.398607 0.895041 0.200034
16.39999962 -3.42000008 -0.36000001 139 33 169 0.000000 0.000000 0.000000 0.000000 -8.844074 0.000000 239.000000 0.624012 -0.756518 0.195678
16.40999985 -3.41000009 -0.34000000 139 33 169 0.000000 0.000000 0.000000 0.000000 -8.844074 0.000000 239.000000 -0.186286 0.982342 -0.017356
16.36000061 -3.41000009 -0.41000000 139 33 169 0.000000 0.000000 0.000000 0.000000 -8.844074 0.000000 239.000000 -0.342930 0.936107 0.078119
16.37000084 -3.40000010 -0.41000000 139 33 169 0.000000 0.000000 0.000000 0.000000 -8.844074 0.000000 239.000000 -0.573582 0.809503 -0.125333
16.38999939 -3.38000011 -0.55000001 139 33 169 0.000000 0.000000 0.000000 0.000000 -8.844074 0.000000 239.000000 0.859603 -0.505070 -0.077378
16.40999985 -3.35999990 -0.50999999 139 33 169 0.000000 0.000000 0.000000 0.000000 -8.844074 0.000000 239.000000 0.745060 -0.363563 -0.559203
16.43000031 -3.45000005 -0.41999999 139 33 169 0.000000 0.000000 0.000000 0.000000 -8.844074 0.000000 239.000000 0.891393 -0.451765 -0.036411
16.40999985 -3.41000009 -0.44000000 139 33 169 0.000000 0.000000 0.000000 0.000000 -8.844074 0.000000 239.000000 0.937611 -0.346647 -0.026862
16.40999985 -3.40000010 -0.56000000 139 33 169 0.000000 0.000000 0.000000 0.000000 -8.844074 0.000000 239.000000 0.918903 -0.352553 -0.176984
16.39999962 -3.46000004 -0.54000002 139 33 169 0.000000 0.000000 0.000000 0.000000 -8.844074 0.000000 239.000000 -0.574480 0.664923 0.477337
16.38999939 -3.44000006 -0.56000000 139 33 169 0.000000 0.000000 0.000000 0.000000 -8.844074 0.000000 239.000000 0.844519 -0.525127 -0.105025
16.35000038 -3.42000008 -0.41999999 139 33 169 0.000000 0.000000 0.000000 0.000000 -8.844074 0.000000 239.000000 -0.661088 0.747504 -0.064813
16.35000038 -3.43000007 -0.43000001 139 33 169 0.000000 0.000000 0.000000 0.000000 -8.844074 0.000000 239.000000 -0.238535 0.965622 -0.103323
16.30999947 -3.40000010 -0.46000001 139 33 169 0.000000 0.000000 0.000000 0.000000 -8.844074 0.000000 239.000000 0.782822 -0.585187 -0.211532
16.34000015 -3.39000010 -0.50999999 139 33 169 0.000000 0.000000 0.000000 0.000000 -8.844074 0.000000 239.000000 0.854605 -0.513889 0.074620
16.30999947 -3.43000007 -0.56999999 139 33 169 0.000000 0.000000 0.000000 0.000000 -8.844074 0.000000 239.000000 0.805478 -0.590306 0.052377
16.30999947 -3.43000007 -0.55000001 139 33 169 0.000000 0.000000 0.000000 0.000000 -8.844074 0.000000 239.000000 0.855851 -0.313041 -0.411734
16.32999992 -3.46000004 -0.56000000 139 33 169 0.000000 0.000000 0.000000 0.000000 -8.844074 0.000000 239.000000 -0.709525 0.638734 0.297647
16.42000008 -3.34999990 -0.63999999 139 33 169 0.000000 0.000000 0.000000 0.000000 -8.844074 0.000000 239.000000 0.861339 -0.346693 -0.371347
16.43000031 -3.36999989 -0.63999999 139 33 169 0.000000 0.000000 0.000000 0.000000 -8.844074 0.000000 239.000000 0.933699 0.199580 -0.297276
16.43000031 -3.36999989 -0.64999998 139 33 169 0.000000 0.000000 0.000000 0.000000 -8.844074 0.000000 239.000000 0.970826 0.075826 -0.227479
16.43000031 -3.35999990 -0.64999998 139 33 169 0.000000 0.000000 0.000000 0.000000 -8.844074 0.000000 239.000000 0.884857 0.108667 -0.453013
16.45000076 -3.34999990 -0.67000002 139 33 169 0.000000 0.000000 0.000000 0.000000 -8.844074 0.000000 239.000000 0.665629 -0.416641 -0.619151
16.42000008 -3.34999990 -0.69000000 139 33 169 0.000000 0.000000 0.000000 0.000000 -8.844074 0.000000 239.000000 0.887773 -0.350002 -0.298929
16.40999985 -3.38000011 -0.74000001 139 33 169 0.000000 0.000000 0.000000 0.000000 -8.844074 0.000000 239.000000 -0.663630 -0.136321 0.735535
16.42000008 -3.39000010 -0.63999999 139 33 169 0.000000 0.000000 0.000000 0.000000 -8.844074 0.000000 239.000000 0.923416 -0.372892 -0.090850
16.40999985 -3.42000008 -0.58999997 139 33 169 0.000000 0.000000 0.000000 0.000000 -8.844074 0.000000 239.000000 0.753919 -0.612853 -0.236677
16.39999962 -3.41000009 -0.64999998 139 33 169 0.000000 0.000000 0.000000 0.000000 -8.844074 0.000000 239.000000 0.747021 -0.479875 -0.460086
16.32999992 -3.36999989 -0.63999999 139 33 169 0.000000 0.000000 0.000000 0.000000 -8.844074 0.000000 239.000000 -0.650988 0.395893 0.647675
16.37000084 -3.38000011 -0.58999997 139 33 169 0.000000 0.000000 0.000000 0.000000 -8.844074 0.000000 239.000000 0.773938 -0.287644 -0.564164
16.29999924 -3.46000004 -0.63000000 139 33 169 0.000000 0.000000 0.000000 0.000000 -8.844074 0.000000 239.000000 0.731740 -0.599283 -0.324679
16.29999924 -3.45000005 -0.64999998 139 33 169 0.000000 0.000000 0.000000 0.000000 -8.844074 0.000000 239.000000 0.833859 -0.162015 -0.527665
16.29999924 -3.45000005 -0.64999998 139 33 169 0.000000 0.000000 0.000000 0.000000 -8.844074 0.000000 239.000000 0.833859 -0.162015 -0.527665
16.30999947 -3.42000008 -0.72000003 139 33 169 0.000000 0.000000 0.000000 0.000000 -8.844074 0.000000 239.000000 0.794430 -0.514230 -0.323185
16.31999969 -3.40000010 -0.69999999 139 33 169 0.000000 0.000000 0.000000 0.000000 -8.844074 0.000000 239.000000 0.850025 -0.422690 -0.314308
16.37999916 -3.39000010 -0.82999998 139 33 169 0.000000 0.000000 0.000000 0.000000 -8.844074 0.000000 239.000000 0.912190 0.277876 -0.301154
16.44000053 -3.41000009 -0.87000000 139 33 169 0.000000 0.000000 0.000000 0.000000 -8.844074 0.000000 239.000000 0.717629 0.237116 -0.654817
16.38999939 -3.42000008 -0.86000001 139 33 169 0.000000 0.000000 0.000000 0.000000 -8.844074 0.000000 239.000000 0.950355 -0.109403 -0.291302
16.38999939 -3.43000007 -0.86000001 139 33 169 0.000000 0.000000 0.000000 0.000000 -8.844074 0.000000 239.000000 0.977044 -0.059325 -0.204610
16.37000084 -3.34999990 -0.87000000 139 33 169 0.000000 0.000000 0.000000 0.000000 -8.844074 0.000000 239.000000 0.788411 0.382113 -0.482076
16.37000084 -3.40000010 -0.77999997 139 33 169 0.000000 0.000000 0.000000 0.000000 -8.844074 0.000000 239.000000 0.895144 -0.150384 -0.419644
16.37000084 -3.41000009 -0.93000001 139 33 169 0.000000 0.000000 0.000000 0.000000 -8.844074 0.000000 239.000000 0.982049 0.073144 -0.173867
16.32999992 -3.45000005 -0.98000002 139 33 169 0.000000 0.000000 0.000000 0.000000 -8.844074 0.000000 239.000000 0.978025 -0.066656 -0.197544
16.55999947 -3.50000000 -0.25000000 139 33 169 0.000000 0.000000 0.000000 0.000000 -8.844074 0.000000 239.000000 -0.544255 0.832985 -0.099612
16.56999969 -3.48000002 -0.31000000 139 33 169 0.000000 0.000000 0.000000 0.000000 -8.844074 0.000000 239.000000 0.716655 -0.697020 0.023842
16.57999992 -3.50999999 -0.28000000 139 33 169 0.000000 0.000000 0.000000 0.000000 -8.844074 0.000000 239.000000 0.826721 -0.560939 -0.043364
16.57999992 -3.50999999 -0.28000000 139 33 169 0.000000 0.000000 0.000000 0.000000 -8.844074 0.000000 239.000000 0.826721 -0.560939 -0.043364
16.54999924 -3.52999997 -0.28999999 139 33 169 0.000000 0.000000 0.000000 0.000000 -8.844074 0.000000 239.000000 -0.673428 0.704678 -0.223434
16.60000038 -3.56999993 -0.25999999 139 33 169 0.000000 0.000000 0.000000 0.000000 -8.844074 0.000000 239.000000 -0.216605 0.958110 -0.187370
16.54999924 -3.56999993 -0.31999999 139 33 169 0.000000 0.000000 0.000000 0.000000 -8.844074 0.000000 239.000000 -0.672802 0.739664 0.015323
16.54000092 -3.52999997 -0.34000000 139 33 169 0.000000 0.000000 0.000000 0.000000 -8.844074 0.000000 239.000000 -0.571899 0.820314 0.004095
16.54000092 -3.52999997 -0.33000001 139 33 169 0.000000 0.000000 0.000000 0.000000 -8.844074 0.000000 239.000000 -0.532470 0.799490 0.278015
16.46999931 -3.51999998 -0.40000001 139 33 169 0.000000 0.000000 0.000000 0.000000 -8.844074 0.000000 239.000000 0.769924 -0.635151 0.061651
16.45999908 -3.52999997 -0.38999999 139 33 169 0.000000 0.000000 0.000000 0.000000 -8.844074 0.000000 239.000000 -0.504303 0.837476 0.210505
16.45999908 -3.52999997 -0.40000001 139 33 169 0.000000 0.000000 0.000000 0.000000 -8.844074 0.000000 239.000000 -0.275518 0.959911 -0.051581
16.52000046 -3.55999994 -0.36000001 139 33 169 0.000000 0.000000 0.000000 0.000000 -8.844074 0.000000 239.000000 -0.568523 0.793466 0.217240
16.48999977 -3.50999999 -0.43000001 139 33 169 0.000000 0.000000 0.000000 0.000000 -8.844074 0.000000 239.000000 0.657008 -0.679719 -0.326071
16.47999954 -3.50000000 -0.41999999 139 33 169 0.000000 0.000000 0.000000 0.000000 -8.844074 0.000000 239.000000 -0.720733 0.541793 0.432440
16.44000053 -3.48000002 -0.41000000 139 33 169 0.000000 0.000000 0.000000 0.000000 -8.844074 0.000000 239.000000 -0.421432 0.838164 0.346232
16.44000053 -3.47000003 -0.44999999 139 33 169 0.000000 0.000000 0.000000 0.000000 -8.844074 0.000000 239.000000 0.577837 -0.684412 -0.444618
16.44000053 -3.48000002 -0.41999999 139 33 169 0.000000 0.000000 0.000000 0.000000 -8.844074 0.000000 239.000000 -0.390068 0.841231 0.374403
16.43000031 -3.50000000 -0.47999999 139 33 169 0.000000 0.000000 0.000000 0.000000 -8.844074 0.000000 239.000000 0.720124 -0.674450 -0.162903
16.44000053 -3.50999999 -0.41999999 139 33 169 0.000000 0.000000 0.000000 0.000000 -8.844074 0.000000 239.000000 -0.522655 0.823067 -0.222243
16.39999962 -3.48000002 -0.44000000 139 33 169 0.000000 0.000000 0.000000 0.000000 -8.844074 0.000000 239.000000 -0.355004 0.931048 0.084397
16.37999916 -3.49000001 -0.43000001 139 33 169 0.000000 0.000000 0.000000 0.000000 -8.844074 0.000000 239.000000 -0.239701 0.940791 -0.239701
16.37999916 -3.49000001 -0.43000001 139 33 169 0.000000 0.000000 0.000000 0.000000 -8.844074 0.000000 239.000000 -0.239701 0.940791 -0.239701
16.38999939 -3.49000001 -0.44000000 139 33 169 0.000000 0.000000 0.000000 0.000000 -8.844074 0.000000 239.000000 -0.330883 0.928428 0.168932
16.39999962 -3.48000002 -0.49000001 139 33 169 0.000000 0.000000 0.000000 0.000000 -8.844074 0.000000 239.000000 -0.478355 0.856867 0.192236
16.37999916 -3.47000003 -0.55000001 139 33 169 0.000000 0.000000 0.000000 0.000000 -8.844074 0.000000 239.000000 -0.455823 0.817940 0.350999
16.42000008 -3.48000002 -0.50999999 139 33 169 0.000000 0.000000 0.000000 0.000000 -8.844074 0.000000 239.000000 0.788934 -0.524362 -0.320355
16.36000061 -3.48000002 -0.47000000 139 33 169 0.000000 0.000000 0.000000 0.000000 -8.844074 0.000000 239.000000 -0.472734 0.868376 0.149820
16.37000084 -3.48000002 -0.46000001 139 33 169 0.000000 0.000000 0.000000 0.000000 -8.844074 0.000000 239.000000 -0.486386 0.746891 0.453411
16.35000038 -3.47000003 -0.55000001 139 33 169 0.000000 0.000000 0.000000 0.000000 -8.844074 0.000000 239.000000 -0.585501 0.785278 0.201314
16.32999992 -3.48000002 -0.50000000 139 33 169 0.000000 0.000000 0.000000 0.000000 -8.844074 0.000000 239.000000 -0.574564 0.707028 0.412295
16.30999947 -3.47000003 -0.60000002 139 33 169 0.000000 0.000000 0.000000 0.000000 -8.844074 0.000000 239.000000 0.611959 -0.520924 -0.595101
16.30999947 -3.50999999 -0.61000001 139 33 169 0.000000 0.000000 0.000000 0.000000 -8.844074 0.000000 239.000000 -0.633030 0.639711 0.435939
16.29999924 -3.48000002 -0.64999998 139 33 169 0.000000 0.000000 0.000000 0.000000 -8.844074 0.000000 239.000000 0.810467 -0.508312 -0.291139
16.32999992 -3.48000002 -0.60000002 139 33 169 0.000000 0.000000 0.000000 0.000000 -8.844074 0.000000 239.000000 0.568076 -0.628760 -0.530990
16.29999924 -3.48000002 -0.61000001 139 33 169 0.000000 0.000000 0.000000 0.000000 -8.844074 0.000000 239.000000 -0.586450 0.808654 0.046410
16.26000023 -3.42000008 -0.54000002 139 33 169 0.000000 0.000000 0.000000 0.000000 -8.844074 0.000000 239.000000 0.851585 -0.446507 -0.274655
16.27000046 -3.44000006 -0.57999998 139 33 169 0.000000 0.000000 0.000000 0.000000 -8.844074 0.000000 239.000000 -0.619961 0.784355 -0.020898
16.28000069 -3.44000006 -0.55000001 139 33 169 0.000000 0.000000 0.000000 0.000000 -8.844074 0.000000 239.000000 0.878559 -0.469405 -0.088276
16.20999908 -3.43000007 -0.57999998 139 33 169 0.000000 0.000000 0.000000 0.000000 -8.844074 0.000000 239.000000 -0.215870 0.970784 0.104779
16.21999931 -3.46000004 -0.57999998 139 33 169 0.000000 0.000000 0.000000 0.000000 -8.844074 0.000000 239.000000 0.792454 -0.606834 -0.061397
16.23999977 -3.43000007 -0.56000000 139 33 169 0.000000 0.000000 0.000000 0.000000 -8.844074 0.000000 239.000000 -0.556065 0.826195 -0.090522
16.23999977 -3.44000006 -0.56999999 139 33 169 0.000000 0.000000 0.000000 0.000000 -8.844074 0.000000 239.000000 0.635273 -0.758423 0.145677
16.23999977 -3.44000006 -0.56999999 139 33 169 0.000000 0.000000 0.000000 0.000000 -8.844074 0.000000 239.000000 0.635273 -0.758423 0.145677
16.28000069 -3.38000011 -0.67000002 139 33 169 0.000000 0.000000 0.000000 0.000000 -8.844074 0.000000 239.000000 0.824083 -0.359054 -0.438140
16.25000000 -3.42000008 -0.60000002 139 33 169 0.000000 0.000000 0.000000 0.000000 -8.844074 0.000000 239.000000 -0.661887 0.696975 0.275919
16.25000000 -3.42000008 -0.64999998 139 33 169 0.000000 0.000000 0.000000 0.000000 -8.844074 0.000000 239.000000 0.520888 -0.615289 -0.591689
16.20999908 -3.42000008 -0.63000000 139 33 169 0.000000 0.000000 0.000000 0.000000 -8.844074 0.000000 239.000000 0.813853 -0.573889 0.091071
16.22999954 -3.44000006 -0.63999999 139 33 169 0.000000 0.000000 0.000000 0.000000 -8.844074 0.000000 239.000000 0.820446 -0.474000 -0.319675
16.23999977 -3.44000006 -0.66000003 139 33 169 0.000000 0.000000 0.000000 0.000000 -8.844074 0.000000 239.000000 0.930068 -0.324896 -0.171512
16.25000000 -3.42000008 -0.70999998 139 33 169 0.000000 0.000000 0.000000 0.000000 -8.844074 0.000000 239.000000 -0.682292 0.104628 0.723554
16.27000046 -3.44000006 -0.67000002 139 33 169 0.000000 0.000000 0.000000 0.000000 -8.844074 0.000000 239.000000 0.897781 -0.395952 -0.192900
16.22999954 -3.41000009 -0.69999999 139 33 169 0.000000 0.000000 0.000000 0.000000 -8.844074 0.000000 239.000000 0.948995 -0.288825 -0.126444
16.20999908 -3.42000008 -0.75000000 139 33 169 0.000000 0.000000 0.000000 0.000000 -8.844074 0.000000 239.000000 0.787370 0.204133 -0.581702
16.23999977 -3.42000008 -0.72000003 139 33 169 0.000000 0.000000 0.000000 0.000000 -8.844074 0.000000 239.000000 0.759898 -0.162294 -0.629457
16.20999908 -3.43000007 -0.68000001 139 33 169 0.000000 0.000000 0.000000 0.000000 -8.844074 0.000000 239.000000 0.769414 -0.605972 -0.201991
16.18000031 -3.46000004 -0.63000000 139 33 169 0.000000 0.000000 0.000000 0.000000 -8.844074 0.000000 239.000000 -0.497323 0.865091 0.065474
16.18000031 -3.46000004 -0.63999999 139 33 169 0.000000 0.000000 0.000000 0.000000 -8.844074 0.000000 239.000000 -0.463285 0.879816 0.106258
16.20000076 -3.45000005 -0.60000002 139 33 169 0.000000 0.000000 0.000000 0.000000 -8.844074 0.000000 239.000000 -0.451699 0.812420 -0.368702
16.19000053 -3.41000009 -0.70999998 139 33 169 0.000000 0.000000 0.000000 0.000000 -8.844074 0.000000 239.000000 0.892751 -0.344283 -0.290628
16.14999962 -3.42000008 -0.67000002 139 33 169 0.000000 0.000000 0.000000 0.000000 -8.844074 0.000000 239.000000 -0.652800 0.740648 0.159035
16.15999985 -3.43000007 -0.70999998 139 33 169 0.000000 0.000000 0.000000 0.000000 -8.844074 0.000000 239.000000 0.800716 -0.595915 -0.061156
16.14999962 -3.44000006 -0.72000003 139 33 169 0.000000 0.000000 0.000000 0.000000 -8.844074 0.000000 239.000000 0.891698 -0.336067 -0.303207
16.14999962 -3.46000004 -0.73000002 139 33 169 0.000000 0.000000 0.000000 0.000000 -8.844074 0.000000 239.000000 0.910089 -0.239497 -0.338199
16.12000084 -3.38000011 -0.85000002 139 33 169 0.000000 0.000000 0.000000 0.000000 -8.844074 0.000000 239.000000 0.597952 0.438054 -0.671239
16.20000076 -3.46000004 -0.76999998 139 33 169 0.000000 0.000000 0.000000 0.000000 -8.844074 0.000000 239.000000 0.663322 -0.656771 -0.358685
16.17000008 -3.44000006 -0.80000001 139 33 169 0.000000 0.000000 0.000000 0.000000 -8.844074 0.000000 239.000000 0.815649 0.017942 -0.578269
16.18000031 -3.46000004 -0.80000001 139 33 169 0.000000 0.000000 0.000000 0.000000 -8.844074 0.000000 239.000000 0.721124 -0.152691 -0.675770
16.15999985 -3.40000010 -0.77999997 139 33 169 0.000000 0.000000 0.000000 0.000000 -8.844074 0.000000 239.000000 0.720138 0.382214 -0.579063
16.12000084 -3.42000008 -0.77999997 139 33 169 0.000000 0.000000 0.000000 0.000000 -8.844074 0.000000 239.000000 -0.534209 0.127332 0.835708
16.13999939 -3.40000010 -0.80000001 139 33 169 0.000000 0.000000 0.000000 0.000000 -8.844074 0.000000 239.000000 0.850044 -0.222739 -0.477297
16.12999916 -3.43000007 -0.77999997 139 33 169 0.000000 0.000000 0.000000 0.000000 -8.844074 0.000000 239.000000 0.655001 -0.269331 -0.705999
16.12999916 -3.43000007 -0.77999997 139 33 169 0.000000 0.000000 0.000000 0.000000 -8.844074 0.000000 239.000000 0.655001 -0.269331 -0.705999
16.13999939 -3.43000007 -0.75999999 139 33 169 0.000000 0.000000 0.000000 0.000000 -8.844074 0.000000 239.000000 0.804652 -0.308265 -0.507452
16.15999985 -3.44000006 -0.82999998 139 33 169 0.000000 0.000000 0.000000 0.000000 -8.844074 0.000000 239.000000 0.861949 0.006723 -0.506950
16.15999985 -3.44000006 -0.81000000 139 33 169 0.000000 0.000000 0.000000 0.000000 -8.844074 0.000000 239.000000 0.791288 -0.448235 -0.415871
16.12999916 -3.42000008 -0.88000000 139 33 169 0.000000 0.000000 0.000000 0.000000 -8.844074 0.000000 239.000000 0.685018 0.189342 -0.703491
16.12000084 -3.39000010 -0.85000002 139 33 169 0.000000 0.000000 0.000000 0.000000 -8.844074 0.000000 239.000000 0.770443 0.347265 -0.534626
16.13999939 -3.43000007 -0.86000001 139 33 169 0.000000 0.000000 0.000000 0.000000 -8.844074 0.000000 239.000000 -0.700003 0.015369 0.713975
16.12999916 -3.39000010 -0.83999997 139 33 169 0.000000 0.000000 0.000000 0.000000 -8.844074 0.000000 239.000000 -0.668296 -0.234297 0.706035
16.12999916 -3.39000010 -0.83999997 139 33 169 0.000000 0.000000 0.000000 0.000000 -8.844074 0.000000 239.000000 -0.668296 -0.234297 0.706035
16.14999962 -3.43000007 -0.85000002 139 33 169 0.000000 0.000000 0.000000 0.000000 -8.844074 0.000000 239.000000 0.861319 0.023132 -0.507538
16.13999939 -3.43000007 -0.86000001 139 33 169 0.000000 0.000000 0.000000 0.000000 -8.844074 0.000000 239.000000 -0.700003 0.015369 0.713975
16.12000084 -3.39000010 -0.88000000 139 33 169 0.000000 0.000000 0.000000 0.000000 -8.844074 0.000000 239.000000 0.709244 0.405046 -0.576984
16.07999992 -3.36999989 -0.91000003 139 33 169 0.000000 0.000000 0.000000 0.000000 -8.844074 0.000000 239.000000 0.631307 0.510096 -0.584169
16.11000061 -3.44000006 -0.81000000 139 33 169 0.000000 0.000000 0.000000 0.000000 -8.844074 0.000000 239.000000 0.699474 -0.095316 -0.708273
16.11000061 -3.44000006 -0.79000002 139 33 169 0.000000 0.000000 0.000000 0.000000 -8.844074 0.000000 239.000000 0.828859 0.156248 -0.537196
16.11000061 -3.41000009 -0.79000002 139 33 169 0.000000 0.000000 0.000000 0.000000 -8.844074 0.000000 239.000000 0.720965 0.244528 -0.648395
16.11000061 -3.40000010 -0.79000002 139 33 169 0.000000 0.000000 0.000000 0.000000 -8.844074 0.000000 239.000000 0.814457 0.118867 -0.567918
16.07999992 -3.39000010 -0.86000001 139 33 169 0.000000 0.000000 0.000000 0.000000 -8.844074 0.000000 239.000000 0.858001 0.231524 -0.458509
16.11000061 -3.42000008 -0.83999997 139 33 169 0.000000 0.000000 0.000000 0.000000 -8.844074 0.000000 239.000000 0.921912 -0.068240 -0.381342
16.09000015 -3.43000007 -0.86000001 139 33 169 0.000000 0.000000 0.000000 0.000000 -8.844074 0.000000 239.000000 -0.528165 -0.149425 0.835891
16.09000015 -3.45000005 -0.86000001 139 33 169 0.000000 0.000000 0.000000 0.000000 -8.844074 0.000000 239.000000 0.857910 -0.369442 -0.357076
16.10000038 -3.43000007 -0.91000003 139 33 169 0.000000 0.000000 0.000000 0.000000 -8.844074 0.000000 239.000000 0.902869 0.204341 -0.378249
16.04000092 -3.41000009 -0.87000000 139 33 169 0.000000 0.000000 0.000000 0.000000 -8.844074 0.000000 239.000000 0.459723 0.683733 -0.566713
16.02000046 -3.35999990 -0.92000002 139 33 169 0.000000 0.000000 0.000000 0.000000 -8.844074 0.000000 239.000000 0.576131 0.495506 -0.650037
16.06999969 -3.38000011 -0.93000001 139 33 169 0.000000 0.000000 0.000000 0.000000 -8.844074 0.000000 239.000000 -0.532247 -0.372735 0.760120
16.04000092 -3.33999991 -0.94999999 139 33 169 0.000000 0.000000 0.000000 0.000000 -8.844074 0.000000 239.000000 -0.091631 -0.606513 0.789776
16.06999969 -3.38000011 -0.93000001 139 33 169 0.000000 0.000000 0.000000 0.000000 -8.844074 0.000000 239.000000 -0.532247 -0.372735 0.760120
16.06999969 -3.42000008 -0.95999998 139 33 169 0.000000 0.000000 0.000000 0.000000 -8.844074 0.000000 239.000000 0.880912 -0.031123 -0.472255
16.06999969 -3.41000009 -0.95999998 139 33 169 0.000000 0.000000 0.000000 0.000000 -8.844074 0.000000 239.000000 0.871283 0.325014 -0.367739
15.98999977 -3.30999994 -0.97000003 139 33 169 0.000000 0.000000 0.000000 0.000000 -8.844074 0.000000 239.000000 0.016337 0.946270 -0.322963
16.03000069 -3.31999993 -0.97000003 139 33 169 0.000000 0.000000 0.000000 0.000000 -8.844074 0.000000 239.000000 0.477041 0.838295 -0.263994
15.97000027 -3.35999990 -1.00000000 139 33 169 0.000000 0.000000 0.000000 0.000000 -8.844074 0.000000 239.000000 0.362607 0.899912 -0.242228
15.96000004 -3.34999990 -1.08000004 139 33 169 0.000000 0.000000 0.000000 0.000000 -8.844074 0.000000 239.000000 0.178631 0.944971 -0.274082
15.98999977 -3.36999989 -1.05999994 139 33 169 0.000000 0.000000 0.000000 0.000000 -8.844074 0.000000 239.000000 0.514029 0.837733 -0.184331
16.01000023 -3.36999989 -1.02999997 139 33 169 0.000000 0.000000 0.000000 0.000000 -8.844074 0.000000 239.000000 0.281215 0.871007 -0.402822
15.97999954 -3.35999990 -1.09000003 139 33 169 0.000000 0.000000 0.000000 0.000000 -8.844074 0.000000 239.000000 0.705670 0.648065 -0.286429
16.01000023 -3.40000010 -1.02999997 139 33 169 0.000000 0.000000 0.000000 0.000000 -8.844074 0.000000 239.000000 -0.572964 -0.452692 0.683214
15.97999954 -3.35999990 -1.10000002 139 33 169 0.000000 0.000000 0.000000 0.000000 -8.844074 0.000000 239.000000 0.461086 0.648873 -0.605280
15.96000004 -3.40000010 -1.12000000 139 33 169 0.000000 0.000000 0.000000 0.000000 -8.844074 0.000000 239.000000 0.609443 0.756712 -0.236570
15.97999954 -3.36999989 -1.11000001 139 33 169 0.000000 0.000000 0.000000 0.000000 -8.844074 0.000000 239.000000 0.600900 0.651115 -0.463647
15.97000027 -3.40000010 -1.12000000 139 33 169 0.000000 0.000000 0.000000 0.000000 -8.844074 0.000000 239.000000 0.774756 0.339862 -0.533148
15.94999981 -3.44000006 -1.02999997 139 33 169 0.000000 0.000000 0.000000 0.000000 -8.844074 0.000000 239.000000 0.145430 0.781122 -0.607206
15.90999985 -3.33999991 -1.23000002 139 33 169 0.000000 0.000000 0.000000 0.000000 -8.844074 0.000000 239.000000 0.541532 0.704825 -0.458219
15.89999962 -3.29999995 -1.20000005 139 33 169 0.000000 0.000000 0.000000 0.000000 -8.844074 0.000000 239.000000 0.142734 0.982062 -0.123215
15.90999985 -3.41000009 -1.15999997 139 33 169 0.000000 0.000000 0.000000 0.000000 -8.844074 0.000000 239.000000 0.233770 0.898324 -0.371974
15.90999985 -3.40000010 -1.14999998 139 33 169 0.000000 0.000000 0.000000 0.000000 -8.844074 0.000000 239.000000 0.309091 0.767121 -0.562128
15.93999958 -3.43000007 -1.13000000 139 33 169 0.000000 0.000000 0.000000 0.000000 -8.844074 0.000000 239.000000 0.765758 0.578678 -0.280619
15.94999981 -3.39000010 -1.19000006 139 33 169 0.000000 0.000000 0.000000 0.000000 -8.844074 0.000000 239.000000 0.682039 0.547977 -0.484298
15.89999962 -3.40000010 -1.19000006 139 33 169 0.000000 0.000000 0.000000 0.000000 -8.844074 0.000000 239.000000 -0.435822 -0.619502 0.652898
15.86999989 -3.39000010 -1.25000000 139 33 169 0.000000 0.000000 0.000000 0.000000 -8.844074 0.000000 239.000000 0.457362 0.601440 -0.655050
15.88000011 -3.41000009 -1.25000000 139 33 169 0.000000 0.000000 0.000000 0.000000 -8.844074 0.000000 239.000000 0.489818 0.718953 -0.493138
15.86999989 -3.41000009 -1.24000001 139 33 169 0.000000 0.000000 0.000000 0.000000 -8.844074 0.000000 239.000000 0.125853 0.860716 -0.493284
15.85999966 -3.30999994 -1.19000006 139 33 169 0.000000 0.000000 0.000000 0.000000 -8.844074 0.000000 239.000000 0.447200 0.699893 -0.556922
15.61999989 -3.20000005 -1.05999994 139 33 169 0.000000 0.000000 0.000000 0.000000 -8.844074 0.000000 242.000000 0.745071 -0.666198 -0.032394
15.81999969 -3.28999996 -1.40999997 139 33 169 0.000000 0.000000 0.000000 0.000000 -8.844074 0.000000 239.000000 0.583935 0.590706 -0.556854
15.90999985 -3.33999991 -1.28999996 139 33 169 0.000000 0.000000 0.000000 0.000000 -8.844074 0.000000 239.000000 0.527871 0.551482 -0.645925
15.89000034 -3.35999990 -1.30999994 139 33 169 0.000000 0.000000 0.000000 0.000000 -8.844074 0.000000 239.000000 0.354983 0.675614 -0.646168
15.86999989 -3.32999992 -1.36000001 139 33 169 0.000000 0.000000 0.000000 0.000000 -8.844074 0.000000 239.000000 0.346802 0.913773 -0.211535
15.86999989 -3.35999990 -1.40999997 139 33 169 0.000000 0.000000 0.000000 0.000000 -8.844074 0.000000 239.000000 0.477568 0.678649 -0.558000
15.86999989 -3.29999995 -1.35000002 139 33 169 0.000000 0.000000 0.000000 0.000000 -8.844074 0.000000 239.000000 0.603396 0.729576 -0.321919
15.90999985 -3.42000008 -1.27999997 139 33 169 0.000000 0.000000 0.000000 0.000000 -8.844074 0.000000 239.000000 0.658056 0.506585 -0.557076
15.85000038 -3.33999991 -1.39999998 139 33 169 0.000000 0.000000 0.000000 0.000000 -8.844074 0.000000 239.000000 0.113360 0.957698 -0.264507
15.80000019 -3.32999992 -1.38000000 139 33 169 0.000000 0.000000 0.000000 0.000000 -8.844074 0.000000 239.000000 -0.212902 0.850097 -0.481671
15.78999996 -3.34999990 -1.36000001 139 33 169 0.000000 0.000000 0.000000 0.000000 -8.844074 0.000000 239.000000 0.416372 0.769063 -0.484950
15.81999969 -3.38000011 -1.38000000 139 33 169 0.000000 0.000000 0.000000 0.000000 -8.844074 0.000000 239.000000 -0.055804 0.734042 -0.676807
15.80000019 -3.31999993 -1.44000006 139 33 169 0.000000 0.000000 0.000000 0.000000 -8.844074 0.000000 239.000000 0.177836 0.894962 -0.409167
15.81999969 -3.32999992 -1.42999995 139 33 169 0.000000 0.000000 0.000000 0.000000 -8.844074 0.000000 239.000000 0.598803 0.774287 -0.204732
15.82999992 -3.36999989 -1.42999995 139 33 169 0.000000 0.000000 0.000000 0.000000 -8.844074 0.000000 239.000000 -0.073818 -0.684623 0.725150
15.72999954 -3.39000010 -1.49000001 139 33 169 0.000000 0.000000 0.000000 0.000000 -8.844074 0.000000 239.000000 0.088743 0.971175 -0.221233
15.68999958 -3.45000005 -1.44000006 139 33 169 0.000000 0.000000 0.000000 0.000000 -8.844074 0.000000 239.000000 -0.206930 0.804727 -0.556412
16.27000046 -3.50000000 -0.61000001 139 33 169 0.000000 0.000000 0.000000 0.000000 -8.844074 0.000000 239.000000 0.737952 -0.663412 -0.123737
16.28000069 -3.48000002 -0.62000000 139 33 169 0.000000 0.000000 0.000000 0.000000 -8.844074 0.000000 239.000000 -0.548334 0.679130 0.487967
16.27000046 -3.49000001 -0.62000000 139 33 169 0.000000 0.000000 0.000000 0.000000 -8.844074 0.000000 239.000000 0.618332 -0.631737 -0.467519
16.26000023 -3.52999997 -0.58999997 139 33 169 0.000000 0.000000 0.000000 0.000000 -8.844074 0.000000 239.000000 -0.376733 0.911266 0.166331
16.25000000 -3.51999998 -0.64999998 139 33 169 0.000000 0.000000 0.000000 0.000000 -8.844074 0.000000 239.000000 0.844518 -0.437034 -0.309501
16.26000023 -3.51999998 -0.63000000 139 33 169 0.000000 0.000000 0.000000 0.000000 -8.844074 0.000000 239.000000 0.862244 -0.504695 -0.042631
16.25000000 -3.52999997 -0.63999999 139 33 169 0.000000 0.000000 0.000000 0.000000 -8.844074 0.000000 239.000000 0.799661 -0.600092 0.020788
16.22999954 -3.52999997 -0.64999998 139 33 169 0.000000 0.000000 0.000000 0.000000 -8.844074 0.000000 239.000000 -0.512823 0.837660 0.187985
16.23999977 -3.51999998 -0.63999999 139 33 169 0.000000 0.000000 0.000000 0.000000 -8.844074 0.000000 239.000000 -0.281265 0.952077 -0.120165
16.22999954 -3.54999995 -0.63000000 139 33 169 0.000000 0.000000 0.000000 0.000000 -8.844074 0.000000 239.000000 -0.375080 0.881213 -0.287712
16.21999931 -3.53999996 -0.66000003 139 33 169 0.000000 0.000000 0.000000 0.000000 -8.844074 0.000000 239.000000 -0.604149 0.795674 -0.043656
16.23999977 -3.55999994 -0.64999998 139 33 169 0.000000 0.000000 0.000000 0.000000 -8.844074 0.000000 239.000000 -0.517733 0.854605 -0.040038
16.21999931 -3.55999994 -0.67000002 139 33 169 0.000000 0.000000 0.000000 0.000000 -8.844074 0.000000 239.000000 -0.434702 0.855581 -0.281097
16.20999908 -3.55999994 -0.68000001 139 33 169 0.000000 0.000000 0.000000 0.000000 -8.844074 0.000000 239.000000 -0.409837 0.818080 0.403459
16.22999954 -3.55999994 -0.68000001 139 33 169 0.000000 0.000000 0.000000 0.000000 -8.844074 0.000000 239.000000 -0.445539 0.819728 0.359919
16.17000008 -3.47000003 -0.63999999 139 33 169 0.000000 0.000000 0.000000 0.000000 -8.844074 0.000000 239.000000 0.744266 -0.662703 -0.083020
16.17000008 -3.48000002 -0.64999998 139 33 169 0.000000 0.000000 0.000000 0.000000 -8.844074 0.000000 239.000000 -0.703377 0.706290 -0.080095
16.18000031 -3.47000003 -0.63000000 139 33 169 0.000000 0.000000 0.000000 0.000000 -8.844074 0.000000 239.000000 -0.448533 0.852672 0.267895
16.15999985 -3.56999993 -0.74000001 139 33 169 0.000000 0.000000 0.000000 0.000000 -8.844074 0.000000 239.000000 0.824370 -0.539069 -0.172682
16.18000031 -3.55999994 -0.69999999 139 33 169 0.000000 0.000000 0.000000 0.000000 -8.844074 0.000000 239.000000 -0.684652 0.642168 0.344777
16.20000076 -3.57999992 -0.68000001 139 33 169 0.000000 0.000000 0.000000 0.000000 -8.844074 0.000000 239.000000 0.801142 -0.598460 0.004108
16.17000008 -3.48000002 -0.79000002 139 33 169 0.000000 0.000000 0.000000 0.000000 -8.844074 0.000000 239.000000 0.704168 -0.551016 -0.447804
16.18000031 -3.49000001 -0.75999999 139 33 169 0.000000 0.000000 0.000000 0.000000 -8.844074 0.000000 239.000000 0.846348 -0.236368 -0.477310
16.12999916 -3.56999993 -0.81999999 139 33 169 0.000000 0.000000 0.000000 0.000000 -8.844074 0.000000 239.000000 0.835404 -0.468262 -0.287802
16.10000038 -3.49000001 -0.81999999 139 33 169 0.000000 0.000000 0.000000 0.000000 -8.844074 0.000000 239.000000 0.748380 -0.216268 -0.627021
16.07999992 -3.49000001 -0.82999998 139 33 169 0.000000 0.000000 0.000000 0.000000 -8.844074 0.000000 239.000000 0.546417 -0.603935 -0.580251
16.06999969 -3.48000002 -0.82999998 139 33 169 0.000000 0.000000 0.000000 0.000000 -8.844074 0.000000 239.000000 0.823064 -0.439285 -0.359992
16.04999924 -3.50999999 -0.82999998 139 33 169 0.000000 0.000000 0.000000 0.000000 -8.844074 0.000000 239.000000 0.812652 -0.562146 -0.153584
16.04000092 -3.50999999 -0.83999997 139 33 169 0.000000 0.000000 0.000000 0.000000 -8.844074 0.000000 239.000000 -0.683736 0.708210 -0.175905
16.09000015 -3.47000003 -0.83999997 139 33 169 0.000000 0.000000 0.000000 0.000000 -8.844074 0.000000 239.000000 0.942330 -0.320313 -0.097024
16.04999924 -3.52999997 -0.86000001 139 33 169 0.000000 0.000000 0.000000 0.000000 -8.844074 0.000000 239.000000 -0.492141 0.699006 0.518833
16.11000061 -3.59999990 -0.80000001 139 33 169 0.000000 0.000000 0.000000 0.000000 -8.844074 0.000000 239.000000 0.740013 -0.651880 -0.165629
16.11000061 -3.59999990 -0.81999999 139 33 169 0.000000 0.000000 0.000000 0.000000 -8.844074 0.000000 239.000000 0.816941 -0.540063 -0.202334
16.04000092 -3.61999989 -0.88999999 139 33 169 0.000000 0.000000 0.000000 0.000000 -8.844074 0.000000 239.000000 -0.268023 0.949529 0.162969
16.05999947 -3.63000011 -0.87000000 139 33 169 0.000000 0.000000 0.000000 0.000000 -8.844074 0.000000 239.000000 -0.269054 0.962995 0.015827
16.02000046 -3.50000000 -0.88999999 139 33 169 0.000000 0.000000 0.000000 0.000000 -8.844074 0.000000 239.000000 -0.540859 0.750013 0.380726
16.00000000 -3.53999996 -0.88000000 139 33 169 0.000000 0.000000 0.000000 0.000000 -8.844074 0.000000 239.000000 -0.244984 0.968968 0.032908
16.02000046 -3.52999997 -0.88000000 139 33 169 0.000000 0.000000 0.000000 0.000000 -8.844074 0.000000 239.000000 -0.593183 0.708205 0.382858
15.97000027 -3.52999997 -0.91000003 139 33 169 0.000000 0.000000 0.000000 0.000000 -8.844074 0.000000 239.000000 -0.426463 0.896558 0.119635
15.77999973 -3.88000011 -0.91000003 139 33 169 0.000000 0.000000 0.000000 0.000000 -8.844074 0.000000 239.000000 -0.058453 0.941737 -0.331232
15.69999981 -3.91000009 -0.92000002 139 33 169 0.000000 0.000000 0.000000 0.000000 -8.844074 0.000000 239.000000 0.451994 0.833608 -0.317490
15.69999981 -3.91000009 -0.92000002 139 33 169 0.000000 0.000000 0.000000 0.000000 -8.844074 0.000000 239.000000 0.451994 0.833608 -0.317490
16.01000023 -3.52999997 -0.94999999 139 33 169 0.000000 0.000000 0.000000 0.000000 -8.844074 0.000000 239.000000 0.592194 -0.605691 -0.531456
16.00000000 -3.52999997 -0.97000003 139 33 169 0.000000 0.000000 0.000000 0.000000 -8.844074 0.000000 239.000000 0.823695 -0.475390 -0.309082
16.01000023 -3.51999998 -0.97000003 139 33 169 0.000000 0.000000 0.000000 0.000000 -8.844074 0.000000 239.000000 0.902366 -0.242098 -0.356545
16.00000000 -3.51999998 -0.95999998 139 33 169 0.000000 0.000000 0.000000 0.000000 -8.844074 0.000000 239.000000 0.815735 -0.446826 -0.367319
15.98999977 -3.54999995 -0.93000001 139 33 169 0.000000 0.000000 0.000000 0.000000 -8.844074 0.000000 239.000000 -0.340224 0.940324 0.006277
16.01000023 -3.63000011 -0.93000001 139 33 169 0.000000 0.000000 0.000000 0.000000 -8.844074 0.000000 239.000000 -0.509585 0.860179 -0.020383
15.96000004 -3.55999994 -0.94000000 139 33 169 0.000000 0.000000 0.000000 0.000000 -8.844074 0.000000 239.000000 -0.666285 0.732462 0.139875
15.90999985 -3.50999999 -1.04999995 139 33 169 0.000000 0.000000 0.000000 0.000000 -8.844074 0.000000 239.000000 -0.742091 -0.061721 0.667451
15.93999958 -3.56999993 -0.99000001 139 33 169 0.000000 0.000000 0.000000 0.000000 -8.844074 0.000000 239.000000 -0.410070 0.910220 -0.057813
15.93000031 -3.57999992 -1.00999999 139 33 169 0.000000 0.000000 0.000000 0.000000 -8.844074 0.000000 239.000000 -0.410845 0.910773 -0.041217
15.89999962 -3.58999991 -1.01999998 139 33 169 0.000000 0.000000 0.000000 0.000000 -8.844074 0.000000 239.000000 -0.655907 0.678693 0.330395
15.86999989 -3.57999992 -1.08000004 139 33 169 0.000000 0.000000 0.000000 0.000000 -8.844074 0.000000 239.000000 0.720301 -0.678020 -0.146476
15.88000011 -3.56999993 -1.04999995 139 33 169 0.000000 0.000000 0.000000 0.000000 -8.844074 0.000000 239.000000 -0.429549 0.822642 0.372487
15.86999989 -3.57999992 -1.08000004 139 33 169 0.000000 0.000000 0.000000 0.000000 -8.844074 0.000000 239.000000 0.720301 -0.678020 -0.146476
15.88000011 -3.56999993 -1.04999995 139 33 169 0.000000 0.000000 0.000000 0.000000 -8.844074 0.000000 239.000000 -0.429549 0.822642 0.372487
15.86999989 -3.53999996 -1.12000000 139 33 169 0.000000 0.000000 0.000000 0.000000 -8.844074 0.000000 239.000000 0.914080 0.162472 -0.371566
15.89999962 -3.52999997 -1.15999997 139 33 169 0.000000 0.000000 0.000000 0.000000 -8.844074 0.000000 239.000000 0.837880 0.197770 -0.508767
15.92000008 -3.53999996 -1.19000006 139 33 169 0.000000 0.000000 0.000000 0.000000 -8.844074 0.000000 239.000000 0.825784 -0.124674 -0.550034
15.93000031 -3.58999991 -1.15999997 139 33 169 0.000000 0.000000 0.000000 0.000000 -8.844074 0.000000 239.000000 0.851221 0.060103 -0.521355
15.93000031 -3.63000011 -1.13999999 139 33 169 0.000000 0.000000 0.000000 0.000000 -8.844074 0.000000 239.000000 0.768632 -0.539815 -0.343226
15.88000011 -3.56999993 -1.11000001 139 33 169 0.000000 0.000000 0.000000 0.000000 -8.844074 0.000000 239.000000 0.940078 -0.066867 -0.334337
15.89000034 -3.58999991 -1.11000001 139 33 169 0.000000 0.000000 0.000000 0.000000 -8.844074 0.000000 239.000000 0.810995 -0.140849 -0.567845
15.86999989 -3.61999989 -1.13000000 139 33 169 0.000000 0.000000 0.000000 0.000000 -8.844074 0.000000 239.000000 0.729953 -0.441945 -0.521395
15.92000008 -3.59999990 -1.24000001 139 33 169 0.000000 0.000000 0.000000 0.000000 -8.844074 0.000000 239.000000 0.939180 -0.293752 -0.177906
15.89000034 -3.63000011 -1.25000000 139 33 169 0.000000 0.000000 0.000000 0.000000 -8.844074 0.000000 239.000000 0.901874 -0.009189 -0.431902
15.84000015 -3.54999995 -1.15999997 139 33 169 0.000000 0.000000 0.000000 0.000000 -8.844074 0.000000 239.000000 0.778841 -0.004135 -0.627208
15.78999996 -3.54999995 -1.14999998 139 33 169 0.000000 0.000000 0.000000 0.000000 -8.844074 0.000000 239.000000 -0.180631 0.799938 -0.572252
15.85000038 -3.53999996 -1.13999999 139 33 169 0.000000 0.000000 0.000000 0.000000 -8.844074 0.000000 239.000000 0.750768 0.088926 -0.654553
15.81000042 -3.54999995 -1.24000001 139 33 169 0.000000 0.000000 0.000000 0.000000 -8.844074 0.000000 239.000000 -0.249480 -0.525302 0.813521
15.82999992 -3.57999992 -1.13999999 139 33 169 0.000000 0.000000 0.000000 0.000000 -8.844074 0.000000 239.000000 -0.731869 0.282224 0.620255
15.80000019 -3.60999990 -1.20000005 139 33 169 0.000000 0.000000 0.000000 0.000000 -8.844074 0.000000 239.000000 0.778122 -0.262518 -0.570623
15.93999958 -3.66000009 -1.05999994 139 33 169 0.000000 0.000000 0.000000 0.000000 -8.844074 0.000000 239.000000 -0.429315 0.900880 -0.064057
15.93999958 -3.65000010 -1.05999994 139 33 169 0.000000 0.000000 0.000000 0.000000 -8.844074 0.000000 239.000000 0.741180 -0.660972 0.117341
15.93999958 -3.66000009 -1.04999995 139 33 169 0.000000 0.000000 0.000000 0.000000 -8.844074 0.000000 239.000000 -0.379122 0.908461 -0.175970
15.94999981 -3.65000010 -1.07000005 139 33 169 0.000000 0.000000 0.000000 0.000000 -8.844074 0.000000 239.000000 0.867134 -0.480458 -0.131296
15.90999985 -3.65000010 -1.15999997 139 33 169 0.000000 0.000000 0.000000 0.000000 -8.844074 0.000000 239.000000 0.637173 -0.717019 -0.282656
15.93000031 -3.65000010 -1.15999997 139 33 169 0.000000 0.000000 0.000000 0.000000 -8.844074 0.000000 239.000000 0.879064 -0.341605 -0.332496
15.93999958 -3.66000009 -1.11000001 139 33 169 0.000000 0.000000 0.000000 0.000000 -8.844074 0.000000 239.000000 0.844502 -0.351225 -0.404299
15.89999962 -3.67000008 -1.21000004 139 33 169 0.000000 0.000000 0.000000 0.000000 -8.844074 0.000000 239.000000 -0.543290 0.736970 0.402133
15.88000011 -3.64000010 -1.25000000 139 33 169 0.000000 0.000000 0.000000 0.000000 -8.844074 0.000000 239.000000 0.827945 -0.436839 -0.351679
15.89999962 -3.67000008 -1.20000005 139 33 169 0.000000 0.000000 0.000000 0.000000 -8.844074 0.000000 239.000000 -0.604712 0.773113 0.191365
15.90999985 -3.65000010 -1.21000004 139 33 169 0.000000 0.000000 0.000000 0.000000 -8.844074 0.000000 239.000000 0.883640 -0.359779 -0.299565
15.80000019 -3.67000008 -1.16999996 139 33 169 0.000000 0.000000 0.000000 0.000000 -8.844074 0.000000 239.000000 0.737318 -0.666394 -0.110819
15.80000019 -3.66000009 -1.13999999 139 33 169 0.000000 0.000000 0.000000 0.000000 -8.844074 0.000000 239.000000 -0.547249 0.776997 -0.311118
15.75000000 -3.58999991 -1.19000006 139 33 169 0.000000 0.000000 0.000000 0.000000 -8.844074 0.000000 239.000000 -0.218804 0.971491 0.091273
15.73999977 -3.57999992 -1.20000005 139 33 169 0.000000 0.000000 0.000000 0.000000 -8.844074 0.000000 239.000000 -0.038331 0.995513 -0.086519
15.72000027 -3.58999991 -1.25000000 139 33 169 0.000000 0.000000 0.000000 0.000000 -8.844074 0.000000 239.000000 -0.100571 0.794367 -0.599055
15.72000027 -3.63000011 -1.19000006 139 33 169 0.000000 0.000000 0.000000 0.000000 -8.844074 0.000000 239.000000 -0.216583 -0.680911 0.699609
15.63000011 -3.61999989 -1.23000002 139 33 169 0.000000 0.000000 0.000000 0.000000 -8.844074 0.000000 239.000000 0.822565 0.162722 -0.544893
15.69999981 -3.68000007 -1.05999994 139 33 169 0.000000 0.000000 0.000000 0.000000 -8.844074 0.000000 239.000000 0.391418 0.846774 -0.360230
15.71000004 -3.67000008 -1.03999996 139 33 169 0.000000 0.000000 0.000000 0.000000 -8.844074 0.000000 239.000000 -0.181106 -0.585930 0.789865
15.71000004 -3.67000008 -1.03999996 139 33 169 0.000000 0.000000 0.000000 0.000000 -8.844074 0.000000 239.000000 -0.181106 -0.585930 0.789865
15.72999954 -3.75999999 -0.98000002 139 33 169 0.000000 0.000000 0.000000 0.000000 -8.844074 0.000000 239.000000 0.023173 0.964730 -0.262221
