//X Y Z R G B PointSourceId ScanDirectionFlag NumberOfReturns ReturnNumber GpsTime Intensity Classification Nx Ny Nz
-0.92000002 14.72000027 -0.31000000 252 214 22 0.000000 0.000000 0.000000 0.000000 119.155926 0.000000 125.000000 0.909243 0.415916 -0.017057
-0.88999999 14.78999996 -0.38000000 252 214 22 0.000000 0.000000 0.000000 0.000000 119.155926 0.000000 125.000000 0.504603 0.805151 0.311620
-0.88000000 14.63000011 -0.31000000 252 214 22 0.000000 0.000000 0.000000 0.000000 119.155926 0.000000 125.000000 0.998800 -0.007215 0.048445
-0.92000002 14.65999985 -0.28999999 252 214 22 0.000000 0.000000 0.000000 0.000000 119.155926 0.000000 125.000000 0.858978 0.490217 0.147797
-0.94999999 14.67000008 -0.43000001 252 214 22 0.000000 0.000000 0.000000 0.000000 119.155926 0.000000 125.000000 0.711484 0.690514 -0.130314
-0.89999998 14.65999985 -0.57999998 252 214 22 0.000000 0.000000 0.000000 0.000000 119.155926 0.000000 125.000000 0.897170 0.366823 0.246022
-0.89999998 14.65999985 -0.57999998 252 214 22 0.000000 0.000000 0.000000 0.000000 119.155926 0.000000 125.000000 0.897170 0.366823 0.246022
-0.92000002 14.65999985 -0.54000002 252 214 22 0.000000 0.000000 0.000000 0.000000 119.155926 0.000000 125.000000 0.832994 0.414135 0.366895
-0.92000002 14.64999962 -0.57999998 252 214 22 0.000000 0.000000 0.000000 0.000000 119.155926 0.000000 125.000000 0.821639 0.272840 0.500467
-0.92000002 14.61999989 -0.41000000 252 214 22 0.000000 0.000000 0.000000 0.000000 119.155926 0.000000 125.000000 0.960062 0.261601 -0.099228
-0.91000003 14.53999996 -0.36000001 252 214 22 0.000000 0.000000 0.000000 0.000000 119.155926 0.000000 125.000000 0.999863 0.014983 0.006992
-0.86000001 14.77000046 -0.89999998 252 214 22 0.000000 0.000000 0.000000 0.000000 119.155926 0.000000 125.000000 0.251240 0.966594 0.050743
-0.94999999 14.65999985 -0.86000001 252 214 22 0.000000 0.000000 0.000000 0.000000 119.155926 0.000000 125.000000 0.371689 0.888171 -0.270183
-0.81000000 14.61999989 -0.63999999 252 214 22 0.000000 0.000000 0.000000 0.000000 119.155926 0.000000 125.000000 0.956675 0.230829 0.177458
-0.82999998 14.55000019 -0.60000002 252 214 22 0.000000 0.000000 0.000000 0.000000 119.155926 0.000000 125.000000 0.920151 0.068508 0.385523
-0.82999998 14.51000023 -0.58999997 252 214 22 0.000000 0.000000 0.000000 0.000000 119.155926 0.000000 125.000000 0.874404 0.017461 0.484885
-0.89999998 14.59000015 -0.58999997 252 214 22 0.000000 0.000000 0.000000 0.000000 119.155926 0.000000 125.000000 0.731327 0.261755 0.629798
-0.88999999 14.60000038 -0.61000001 252 214 22 0.000000 0.000000 0.000000 0.000000 119.155926 0.000000 125.000000 0.919284 0.188972 0.345264
-0.93000001 14.56999969 -0.69999999 252 214 22 0.000000 0.000000 0.000000 0.000000 119.155926 0.000000 125.000000 0.947876 0.166318 0.271788
-0.93000001 14.56000042 -0.70999998 252 214 22 0.000000 0.000000 0.000000 0.000000 119.155926 0.000000 125.000000 0.791716 0.258679 0.553417
-0.95999998 14.77000046 -0.30000001 252 214 22 0.000000 0.000000 0.000000 0.000000 119.155926 0.000000 125.000000 0.837727 0.543049 -0.057532
-0.98000002 14.72000027 -0.25000000 252 214 22 0.000000 0.000000 0.000000 0.000000 119.155926 0.000000 125.000000 0.620426 0.546042 0.562948
-1.00999999 14.76000023 -0.27000001 252 214 22 0.000000 0.000000 0.000000 0.000000 119.155926 0.000000 125.000000 0.927468 0.350377 0.130533
-1.01999998 14.73999977 -0.25999999 252 214 22 0.000000 0.000000 0.000000 0.000000 119.155926 0.000000 125.000000 0.820411 0.553369 0.143906
-1.01999998 14.73999977 -0.27000001 252 214 22 0.000000 0.000000 0.000000 0.000000 119.155926 0.000000 125.000000 0.948265 0.316923 -0.018790
-1.01999998 14.72000027 -0.27000001 252 214 22 0.000000 0.000000 0.000000 0.000000 119.155926 0.000000 125.000000 0.926927 0.366210 -0.081827
-1.01999998 14.73999977 -0.27000001 252 214 22 0.000000 0.000000 0.000000 0.000000 119.155926 0.000000 125.000000 0.948265 0.316923 -0.018790
-1.00999999 14.72000027 -0.30000001 252 214 22 0.000000 0.000000 0.000000 0.000000 119.155926 0.000000 125.000000 0.958573 0.271488 0.086207
-1.03999996 14.77999973 -0.38000000 252 214 22 0.000000 0.000000 0.000000 0.000000 119.155926 0.000000 125.000000 0.716027 0.615361 0.329600
-1.00000000 14.69999981 -0.28999999 252 214 22 0.000000 0.000000 0.000000 0.000000 119.155926 0.000000 125.000000 0.847888 0.527667 0.051514
-1.00000000 14.68999958 -0.27000001 252 214 22 0.000000 0.000000 0.000000 0.000000 119.155926 0.000000 125.000000 0.820769 0.565801 -0.078782
-0.95999998 14.63000011 -0.38999999 252 214 22 0.000000 0.000000 0.000000 0.000000 119.155926 0.000000 125.000000 0.947337 0.300763 -0.109971
-1.01999998 14.77000046 -0.41999999 252 214 22 0.000000 0.000000 0.000000 0.000000 119.155926 0.000000 125.000000 0.481798 0.858341 -0.176412
-1.00999999 14.76000023 -0.47000000 252 214 22 0.000000 0.000000 0.000000 0.000000 119.155926 0.000000 125.000000 0.806949 0.437966 0.396255
-0.98000002 14.64000034 -0.41999999 252 214 22 0.000000 0.000000 0.000000 0.000000 119.155926 0.000000 125.000000 0.711248 0.702929 -0.004159
-0.97000003 14.59000015 -0.36000001 252 214 22 0.000000 0.000000 0.000000 0.000000 119.155926 0.000000 125.000000 0.845664 0.514433 0.142165
-0.97000003 14.59000015 -0.36000001 252 214 22 0.000000 0.000000 0.000000 0.000000 119.155926 0.000000 125.000000 0.845664 0.514433 0.142165
-0.99000001 14.56000042 -0.34000000 252 214 22 0.000000 0.000000 0.000000 0.000000 119.155926 0.000000 125.000000 0.749245 0.492361 0.442960
-1.00000000 14.57999992 -0.41000000 252 214 22 0.000000 0.000000 0.000000 0.000000 119.155926 0.000000 125.000000 0.996897 -0.013802 0.077501
-1.09000003 14.57999992 -0.57999998 252 214 22 0.000000 0.000000 0.000000 0.000000 119.155926 0.000000 125.000000 0.949960 0.311647 0.021277
-1.09000003 14.57999992 -0.56999999 252 214 22 0.000000 0.000000 0.000000 0.000000 119.155926 0.000000 125.000000 0.703840 0.615656 0.354369
-1.25000000 14.53999996 -0.41000000 252 214 22 0.000000 0.000000 0.000000 0.000000 119.155926 0.000000 125.000000 0.888878 0.355251 0.289297
-1.22000003 14.56000042 -0.41000000 252 214 22 0.000000 0.000000 0.000000 0.000000 119.155926 0.000000 125.000000 0.847115 0.497512 0.186754
-1.15999997 14.55000019 -0.44999999 252 214 22 0.000000 0.000000 0.000000 0.000000 119.155926 0.000000 125.000000 0.887895 0.267114 0.374557
-1.20000005 14.59000015 -0.47999999 252 214 22 0.000000 0.000000 0.000000 0.000000 119.155926 0.000000 125.000000 0.671053 0.607777 0.424612
-1.19000006 14.56000042 -0.51999998 252 214 22 0.000000 0.000000 0.000000 0.000000 119.155926 0.000000 125.000000 0.889428 0.445417 0.102572
-1.17999995 14.56000042 -0.52999997 252 214 22 0.000000 0.000000 0.000000 0.000000 119.155926 0.000000 125.000000 0.548935 0.807258 0.216806
-1.17999995 14.52999973 -0.44000000 252 214 22 0.000000 0.000000 0.000000 0.000000 119.155926 0.000000 125.000000 0.957572 0.206431 0.201103
-1.25000000 14.52000046 -0.41999999 252 214 22 0.000000 0.000000 0.000000 0.000000 119.155926 0.000000 125.000000 0.882410 0.413769 0.223939
-0.98000002 14.77000046 -0.68000001 252 214 22 0.000000 0.000000 0.000000 0.000000 119.155926 0.000000 125.000000 0.808930 0.552997 0.199566
-1.03999996 14.77999973 -0.72000003 252 214 22 0.000000 0.000000 0.000000 0.000000 119.155926 0.000000 125.000000 0.397437 0.874967 -0.276544
-1.03999996 14.71000004 -0.72000003 252 214 22 0.000000 0.000000 0.000000 0.000000 119.155926 0.000000 125.000000 0.242339 0.946079 -0.214956
-1.07000005 14.72000027 -0.66000003 252 214 22 0.000000 0.000000 0.000000 0.000000 119.155926 0.000000 125.000000 0.751630 0.659251 0.020995
-1.05999994 14.71000004 -0.70999998 252 214 22 0.000000 0.000000 0.000000 0.000000 119.155926 0.000000 125.000000 0.462026 0.814500 -0.350886
-0.99000001 14.77999973 -0.81000000 252 214 22 0.000000 0.000000 0.000000 0.000000 119.155926 0.000000 125.000000 0.380769 0.908426 -0.172558
-0.95999998 14.75000000 -0.82999998 252 214 22 0.000000 0.000000 0.000000 0.000000 119.155926 0.000000 125.000000 0.138680 0.980579 -0.138680
-0.97000003 14.75000000 -0.82999998 252 214 22 0.000000 0.000000 0.000000 0.000000 119.155926 0.000000 125.000000 0.092139 0.984808 0.147183
-0.95999998 14.75000000 -0.82999998 252 214 22 0.000000 0.000000 0.000000 0.000000 119.155926 0.000000 125.000000 0.138680 0.980579 -0.138680
-0.98000002 14.69999981 -0.77999997 252 214 22 0.000000 0.000000 0.000000 0.000000 119.155926 0.000000 125.000000 0.693833 0.674867 -0.251297
-1.01999998 14.64000034 -0.79000002 252 214 22 0.000000 0.000000 0.000000 0.000000 119.155926 0.000000 125.000000 0.454928 0.859981 -0.231243
-0.97000003 14.63000011 -0.85000002 252 214 22 0.000000 0.000000 0.000000 0.000000 119.155926 0.000000 125.000000 0.723947 0.645086 -0.244470
-0.98000002 14.63000011 -0.83999997 252 214 22 0.000000 0.000000 0.000000 0.000000 119.155926 0.000000 125.000000 0.259599 0.950967 -0.168134
-1.03999996 14.68000031 -0.83999997 252 214 22 0.000000 0.000000 0.000000 0.000000 119.155926 0.000000 125.000000 0.056903 0.997409 0.044019
-1.03999996 14.68000031 -0.83999997 252 214 22 0.000000 0.000000 0.000000 0.000000 119.155926 0.000000 125.000000 0.056903 0.997409 0.044019
-1.00999999 14.63000011 -0.86000001 252 214 22 0.000000 0.000000 0.000000 0.000000 119.155926 0.000000 125.000000 0.386185 0.907747 -0.163879
-0.97000003 14.60000038 -0.62000000 252 214 22 0.000000 0.000000 0.000000 0.000000 119.155926 0.000000 125.000000 0.839905 0.326890 0.433247
-0.95999998 14.60000038 -0.63000000 252 214 22 0.000000 0.000000 0.000000 0.000000 119.155926 0.000000 125.000000 0.792403 0.411533 0.450265
-0.95999998 14.60000038 -0.63000000 252 214 22 0.000000 0.000000 0.000000 0.000000 119.155926 0.000000 125.000000 0.792403 0.411533 0.450265
-0.97000003 14.56000042 -0.75000000 252 214 22 0.000000 0.000000 0.000000 0.000000 119.155926 0.000000 125.000000 0.851754 0.490766 -0.183478
-1.01999998 14.60999966 -0.77999997 252 214 22 0.000000 0.000000 0.000000 0.000000 119.155926 0.000000 125.000000 0.459376 0.856593 -0.234994
-0.95999998 14.60999966 -0.88999999 252 214 22 0.000000 0.000000 0.000000 0.000000 119.155926 0.000000 125.000000 0.255959 0.965718 0.043278
-1.04999995 14.59000015 -0.82999998 252 214 22 0.000000 0.000000 0.000000 0.000000 119.155926 0.000000 125.000000 0.441898 0.812007 -0.381276
-1.07000005 14.59000015 -0.81999999 252 214 22 0.000000 0.000000 0.000000 0.000000 119.155926 0.000000 125.000000 0.337540 0.911212 -0.236133
-1.07000005 14.52999973 -0.80000001 252 214 22 0.000000 0.000000 0.000000 0.000000 119.155926 0.000000 125.000000 0.766034 0.633196 -0.110699
-1.10000002 14.48999977 -0.81000000 252 214 22 0.000000 0.000000 0.000000 0.000000 119.155926 0.000000 125.000000 0.253188 0.955750 -0.149792
-1.05999994 14.52000046 -0.86000001 252 214 22 0.000000 0.000000 0.000000 0.000000 119.155926 0.000000 125.000000 0.337424 0.925466 -0.172212
-1.12000000 14.51000023 -0.85000002 252 214 22 0.000000 0.000000 0.000000 0.000000 119.155926 0.000000 125.000000 0.111371 0.940613 -0.320694
-1.28999996 14.73999977 -0.88999999 252 214 22 0.000000 0.000000 0.000000 0.000000 119.155926 0.000000 125.000000 -0.178639 0.752726 -0.633634
-1.14999998 14.60999966 -0.85000002 252 214 22 0.000000 0.000000 0.000000 0.000000 119.155926 0.000000 125.000000 -0.030331 0.913880 -0.404850
-1.14999998 14.59000015 -0.89999998 252 214 22 0.000000 0.000000 0.000000 0.000000 119.155926 0.000000 125.000000 -0.185147 0.962500 0.198278
-1.20000005 14.57999992 -0.91000003 252 214 22 0.000000 0.000000 0.000000 0.000000 119.155926 0.000000 125.000000 -0.117629 0.837924 -0.532960
-1.21000004 14.51000023 -0.81000000 252 214 22 0.000000 0.000000 0.000000 0.000000 119.155926 0.000000 125.000000 -0.080755 0.848633 -0.522781
-1.19000006 14.48999977 -0.79000002 252 214 22 0.000000 0.000000 0.000000 0.000000 119.155926 0.000000 125.000000 -0.559732 0.778550 -0.283830
-1.20000005 14.48999977 -0.77999997 252 214 22 0.000000 0.000000 0.000000 0.000000 119.155926 0.000000 125.000000 -0.515212 0.852027 -0.092767
-1.21000004 14.48999977 -0.77999997 252 214 22 0.000000 0.000000 0.000000 0.000000 119.155926 0.000000 125.000000 -0.270820 0.958781 -0.085995
-1.19000006 14.48999977 -0.79000002 252 214 22 0.000000 0.000000 0.000000 0.000000 119.155926 0.000000 125.000000 -0.559732 0.778550 -0.283830
-1.17999995 14.47000027 -0.80000001 252 214 22 0.000000 0.000000 0.000000 0.000000 119.155926 0.000000 125.000000 -0.064571 0.776291 -0.627059
-1.13000000 14.52999973 -0.89999998 252 214 22 0.000000 0.000000 0.000000 0.000000 119.155926 0.000000 125.000000 -0.270565 0.915870 -0.296609
-1.15999997 14.51000023 -0.88000000 252 214 22 0.000000 0.000000 0.000000 0.000000 119.155926 0.000000 125.000000 -0.019242 0.932576 -0.360459
-1.25000000 14.55000019 -0.86000001 252 214 22 0.000000 0.000000 0.000000 0.000000 119.155926 0.000000 125.000000 -0.278633 0.733999 -0.619362
-1.24000001 14.55000019 -0.86000001 252 214 22 0.000000 0.000000 0.000000 0.000000 119.155926 0.000000 125.000000 -0.453589 0.806203 -0.379861
-1.25000000 14.48999977 -0.80000001 252 214 22 0.000000 0.000000 0.000000 0.000000 119.155926 0.000000 125.000000 0.477554 -0.735334 0.480859
-1.22000003 14.52999973 -0.86000001 252 214 22 0.000000 0.000000 0.000000 0.000000 119.155926 0.000000 125.000000 -0.235841 0.921923 -0.307308
-1.12000000 14.43999958 -0.88999999 252 214 22 0.000000 0.000000 0.000000 0.000000 119.155926 0.000000 125.000000 -0.202376 0.974631 0.095601
-1.26999998 14.38000011 -0.63999999 252 214 22 0.000000 0.000000 0.000000 0.000000 119.155926 0.000000 125.000000 0.556602 0.768336 0.315996
-1.25000000 14.31000042 -0.74000001 252 214 22 0.000000 0.000000 0.000000 0.000000 119.155926 0.000000 125.000000 0.207821 0.978048 0.015264
-1.28999996 14.30000019 -0.77999997 252 214 22 0.000000 0.000000 0.000000 0.000000 119.155926 0.000000 125.000000 0.387510 0.839343 0.381234
-1.28999996 14.27000046 -0.69000000 252 214 22 0.000000 0.000000 0.000000 0.000000 119.155926 0.000000 125.000000 0.353485 0.910403 -0.214976
-1.28999996 14.22000027 -0.81000000 252 214 22 0.000000 0.000000 0.000000 0.000000 119.155926 0.000000 125.000000 0.516930 0.772964 0.367846
-1.25000000 14.27999973 -0.83999997 252 214 22 0.000000 0.000000 0.000000 0.000000 119.155926 0.000000 125.000000 0.671839 0.655492 0.344910
-1.24000001 14.27999973 -0.86000001 252 214 22 0.000000 0.000000 0.000000 0.000000 119.155926 0.000000 125.000000 0.487648 0.820065 -0.299488
-1.25000000 14.21000004 -0.83999997 252 214 22 0.000000 0.000000 0.000000 0.000000 119.155926 0.000000 125.000000 0.586918 0.809589 0.009622
-1.25999999 14.22000027 -0.86000001 252 214 22 0.000000 0.000000 0.000000 0.000000 119.155926 0.000000 125.000000 0.558424 0.811295 0.173096
-1.28999996 14.18999958 -0.76999998 252 214 22 0.000000 0.000000 0.000000 0.000000 119.155926 0.000000 125.000000 0.237043 0.969270 0.065776
-1.24000001 14.19999981 -0.88999999 252 214 22 0.000000 0.000000 0.000000 0.000000 119.155926 0.000000 125.000000 0.524415 0.806190 -0.273948
-0.98000002 14.64000034 -1.00999999 252 214 22 0.000000 0.000000 0.000000 0.000000 119.155926 0.000000 125.000000 0.185679 0.950082 -0.250735
-0.98000002 14.64000034 -1.01999998 252 214 22 0.000000 0.000000 0.000000 0.000000 119.155926 0.000000 125.000000 -0.011928 0.994381 0.105185
-1.07000005 14.63000011 -0.95999998 252 214 22 0.000000 0.000000 0.000000 0.000000 119.155926 0.000000 125.000000 -0.075560 0.982281 -0.171509
-1.04999995 14.64999962 -1.07000005 252 214 22 0.000000 0.000000 0.000000 0.000000 119.155926 0.000000 125.000000 -0.177296 0.979406 0.096596
-1.03999996 14.60000038 -0.95999998 252 214 22 0.000000 0.000000 0.000000 0.000000 119.155926 0.000000 125.000000 0.334913 0.938551 -0.083397
-1.03999996 14.60000038 -0.97000003 252 214 22 0.000000 0.000000 0.000000 0.000000 119.155926 0.000000 125.000000 0.297875 0.942590 -0.150978
-1.03999996 14.60000038 -0.99000001 252 214 22 0.000000 0.000000 0.000000 0.000000 119.155926 0.000000 125.000000 0.285313 0.916769 -0.279520
-1.03999996 14.47000027 -1.09000003 252 214 22 0.000000 0.000000 0.000000 0.000000 119.155926 0.000000 125.000000 -0.005043 0.999559 -0.029250
-1.04999995 14.60999966 -0.95999998 252 214 22 0.000000 0.000000 0.000000 0.000000 119.155926 0.000000 125.000000 0.542333 0.793850 -0.275096
-1.07000005 14.60000038 -0.94000000 252 214 22 0.000000 0.000000 0.000000 0.000000 119.155926 0.000000 125.000000 0.054221 0.959584 -0.276148
-1.04999995 14.60000038 -0.97000003 252 214 22 0.000000 0.000000 0.000000 0.000000 119.155926 0.000000 125.000000 0.120312 0.936812 -0.328493
-1.04999995 14.60000038 -0.98000002 252 214 22 0.000000 0.000000 0.000000 0.000000 119.155926 0.000000 125.000000 0.058811 0.964749 -0.256516
-1.08000004 14.55000019 -0.98000002 252 214 22 0.000000 0.000000 0.000000 0.000000 119.155926 0.000000 125.000000 0.115273 0.950007 -0.290170
-1.09000003 14.60999966 -0.95999998 252 214 22 0.000000 0.000000 0.000000 0.000000 119.155926 0.000000 125.000000 0.230650 0.948531 -0.217002
-1.09000003 14.61999989 -0.94999999 252 214 22 0.000000 0.000000 0.000000 0.000000 119.155926 0.000000 125.000000 -0.046255 0.997176 -0.059164
-1.12000000 14.56999969 -0.98000002 252 214 22 0.000000 0.000000 0.000000 0.000000 119.155926 0.000000 125.000000 -0.280648 0.952620 -0.117266
-1.10000002 14.57999992 -0.99000001 252 214 22 0.000000 0.000000 0.000000 0.000000 119.155926 0.000000 125.000000 -0.229587 0.944470 -0.235086
-1.12000000 14.60999966 -1.05999994 252 214 22 0.000000 0.000000 0.000000 0.000000 119.155926 0.000000 125.000000 -0.127302 0.929440 -0.346316
-1.10000002 14.56000042 -1.01999998 252 214 22 0.000000 0.000000 0.000000 0.000000 119.155926 0.000000 125.000000 -0.265881 0.903409 -0.336391
-1.09000003 14.56999969 -1.01999998 252 214 22 0.000000 0.000000 0.000000 0.000000 119.155926 0.000000 125.000000 -0.262487 0.929345 -0.259649
-1.07000005 14.57999992 -1.05999994 252 214 22 0.000000 0.000000 0.000000 0.000000 119.155926 0.000000 125.000000 0.352432 0.934140 -0.056337
-1.07000005 14.53999996 -1.00000000 252 214 22 0.000000 0.000000 0.000000 0.000000 119.155926 0.000000 125.000000 0.369561 0.866398 -0.335825
-1.05999994 14.53999996 -0.99000001 252 214 22 0.000000 0.000000 0.000000 0.000000 119.155926 0.000000 125.000000 0.459677 0.812785 -0.357880
-1.07000005 14.53999996 -0.99000001 252 214 22 0.000000 0.000000 0.000000 0.000000 119.155926 0.000000 125.000000 0.262084 0.934813 -0.239660
-1.10000002 14.53999996 -0.94000000 252 214 22 0.000000 0.000000 0.000000 0.000000 119.155926 0.000000 125.000000 -0.109287 0.992599 -0.052954
-1.07000005 14.51000023 -1.04999995 252 214 22 0.000000 0.000000 0.000000 0.000000 119.155926 0.000000 125.000000 0.140445 0.989858 0.021348
-1.11000001 14.50000000 -1.08000004 252 214 22 0.000000 0.000000 0.000000 0.000000 119.155926 0.000000 125.000000 -0.406187 0.890092 -0.206759
-1.10000002 14.50000000 -1.09000003 252 214 22 0.000000 0.000000 0.000000 0.000000 119.155926 0.000000 125.000000 -0.507520 0.717184 -0.477568
-1.02999997 14.57999992 -1.14999998 252 214 22 0.000000 0.000000 0.000000 0.000000 119.155926 0.000000 125.000000 -0.038726 0.958167 -0.283577
-1.03999996 14.52999973 -1.12000000 252 214 22 0.000000 0.000000 0.000000 0.000000 119.155926 0.000000 125.000000 0.375392 0.860467 -0.344496
-1.03999996 14.47000027 -1.10000002 252 214 22 0.000000 0.000000 0.000000 0.000000 119.155926 0.000000 125.000000 0.131275 0.976437 0.171283
-1.03999996 14.46000004 -1.11000001 252 214 22 0.000000 0.000000 0.000000 0.000000 119.155926 0.000000 125.000000 -0.032866 0.918920 -0.393072
-1.04999995 14.52999973 -1.14999998 252 214 22 0.000000 0.000000 0.000000 0.000000 119.155926 0.000000 125.000000 0.090783 0.962816 -0.254449
-1.05999994 14.52999973 -1.14999998 252 214 22 0.000000 0.000000 0.000000 0.000000 119.155926 0.000000 125.000000 -0.447987 0.814667 -0.368274
-1.05999994 14.53999996 -1.13999999 252 214 22 0.000000 0.000000 0.000000 0.000000 119.155926 0.000000 125.000000 0.053861 0.871451 -0.487516
-1.04999995 14.46000004 -1.10000002 252 214 22 0.000000 0.000000 0.000000 0.000000 119.155926 0.000000 125.000000 -0.147227 0.893365 -0.424527
-1.04999995 14.50000000 -1.13999999 252 214 22 0.000000 0.000000 0.000000 0.000000 119.155926 0.000000 125.000000 -0.128632 0.981279 -0.143333
-1.05999994 14.46000004 -1.15999997 252 214 22 0.000000 0.000000 0.000000 0.000000 119.155926 0.000000 125.000000 -0.305797 0.952057 -0.008666
-1.10000002 14.47999954 -1.13000000 252 214 22 0.000000 0.000000 0.000000 0.000000 119.155926 0.000000 125.000000 -0.509900 0.783348 -0.355482
-1.10000002 14.48999977 -1.11000001 252 214 22 0.000000 0.000000 0.000000 0.000000 119.155926 0.000000 125.000000 -0.508312 0.810467 -0.291139
-1.16999996 14.55000019 -0.95999998 252 214 22 0.000000 0.000000 0.000000 0.000000 119.155926 0.000000 125.000000 -0.372168 0.765463 -0.524935
-1.13999999 14.59000015 -1.02999997 252 214 22 0.000000 0.000000 0.000000 0.000000 119.155926 0.000000 125.000000 -0.063524 0.831454 -0.551950
-1.14999998 14.59000015 -1.01999998 252 214 22 0.000000 0.000000 0.000000 0.000000 119.155926 0.000000 125.000000 -0.013748 0.948594 -0.316198
-1.16999996 14.59000015 -1.01999998 252 214 22 0.000000 0.000000 0.000000 0.000000 119.155926 0.000000 125.000000 0.003957 0.887728 -0.460352
-1.13000000 14.56000042 -1.01999998 252 214 22 0.000000 0.000000 0.000000 0.000000 119.155926 0.000000 125.000000 -0.256967 0.954637 -0.150452
-1.13999999 14.55000019 -1.09000003 252 214 22 0.000000 0.000000 0.000000 0.000000 119.155926 0.000000 125.000000 -0.183304 0.878391 -0.441395
-1.14999998 14.57999992 -1.04999995 252 214 22 0.000000 0.000000 0.000000 0.000000 119.155926 0.000000 125.000000 -0.067949 0.994724 -0.076860
-1.19000006 14.56999969 -1.07000005 252 214 22 0.000000 0.000000 0.000000 0.000000 119.155926 0.000000 125.000000 -0.431561 0.790386 -0.434793
-1.13000000 14.52999973 -0.98000002 252 214 22 0.000000 0.000000 0.000000 0.000000 119.155926 0.000000 125.000000 -0.175558 0.970051 0.167869
-1.15999997 14.53999996 -1.00000000 252 214 22 0.000000 0.000000 0.000000 0.000000 119.155926 0.000000 125.000000 -0.349902 0.839450 -0.415803
-1.17999995 14.53999996 -0.94999999 252 214 22 0.000000 0.000000 0.000000 0.000000 119.155926 0.000000 125.000000 -0.308777 0.939932 -0.145547
-1.17999995 14.53999996 -1.00000000 252 214 22 0.000000 0.000000 0.000000 0.000000 119.155926 0.000000 125.000000 -0.148332 0.940343 -0.306190
-1.16999996 14.52999973 -1.00999999 252 214 22 0.000000 0.000000 0.000000 0.000000 119.155926 0.000000 125.000000 -0.330779 0.794190 -0.509752
-1.20000005 14.52999973 -1.00999999 252 214 22 0.000000 0.000000 0.000000 0.000000 119.155926 0.000000 125.000000 -0.283928 0.857924 -0.428195
-1.21000004 14.51000023 -1.04999995 252 214 22 0.000000 0.000000 0.000000 0.000000 119.155926 0.000000 125.000000 -0.602954 0.767256 -0.218552
-1.23000002 14.60999966 -0.93000001 252 214 22 0.000000 0.000000 0.000000 0.000000 119.155926 0.000000 125.000000 -0.143948 0.983444 -0.110078
-1.26999998 14.52000046 -1.05999994 252 214 22 0.000000 0.000000 0.000000 0.000000 119.155926 0.000000 125.000000 -0.584152 0.784520 -0.208075
-1.19000006 14.56999969 -1.14999998 252 214 22 0.000000 0.000000 0.000000 0.000000 119.155926 0.000000 125.000000 0.810129 -0.527128 0.256567
-1.16999996 14.55000019 -1.19000006 252 214 22 0.000000 0.000000 0.000000 0.000000 119.155926 0.000000 125.000000 -0.545431 0.837967 -0.017771
-1.25999999 14.56000042 -1.16999996 252 214 22 0.000000 0.000000 0.000000 0.000000 119.155926 0.000000 125.000000 -0.649595 0.754698 -0.091965
-1.28999996 14.52999973 -1.10000002 252 214 22 0.000000 0.000000 0.000000 0.000000 119.155926 0.000000 125.000000 0.942945 -0.179283 0.280557
-1.28999996 14.47999954 -1.19000006 252 214 22 0.000000 0.000000 0.000000 0.000000 119.155926 0.000000 125.000000 0.965798 -0.069075 0.249927
-1.25999999 14.64999962 -1.36000001 252 214 22 0.000000 0.000000 0.000000 0.000000 119.155926 0.000000 125.000000 0.318688 -0.873724 0.367483
-1.13999999 14.50000000 -1.28999996 252 214 22 0.000000 0.000000 0.000000 0.000000 119.155926 0.000000 125.000000 0.564583 -0.668452 0.484167
-1.13999999 14.50000000 -1.28999996 252 214 22 0.000000 0.000000 0.000000 0.000000 119.155926 0.000000 125.000000 0.564583 -0.668452 0.484167
-1.14999998 14.47999954 -1.30999994 252 214 22 0.000000 0.000000 0.000000 0.000000 119.155926 0.000000 125.000000 0.734812 -0.634110 0.240741
-1.17999995 14.47999954 -1.33000004 252 214 22 0.000000 0.000000 0.000000 0.000000 119.155926 0.000000 125.000000 -0.453451 0.778506 -0.433948
-1.28999996 14.57999992 -1.34000003 252 214 22 0.000000 0.000000 0.000000 0.000000 119.155926 0.000000 125.000000 -0.752740 0.645419 -0.129680
-1.28999996 14.60999966 -1.36000001 252 214 22 0.000000 0.000000 0.000000 0.000000 119.155926 0.000000 125.000000 0.821180 -0.245890 0.514977
-1.23000002 14.46000004 -1.28999996 252 214 22 0.000000 0.000000 0.000000 0.000000 119.155926 0.000000 125.000000 0.777262 -0.451366 0.438330
-1.04999995 14.43999958 -1.13000000 252 214 22 0.000000 0.000000 0.000000 0.000000 119.155926 0.000000 125.000000 -0.017079 0.907789 -0.419080
-1.12000000 14.38000011 -1.12000000 252 214 22 0.000000 0.000000 0.000000 0.000000 119.155926 0.000000 125.000000 0.946675 0.031683 0.320628
-1.16999996 14.42000008 -1.05999994 252 214 22 0.000000 0.000000 0.000000 0.000000 119.155926 0.000000 125.000000 0.920019 -0.227501 0.319074
-1.16999996 14.42000008 -1.05999994 252 214 22 0.000000 0.000000 0.000000 0.000000 119.155926 0.000000 125.000000 0.920019 -0.227501 0.319074
-1.13000000 14.44999981 -1.09000003 252 214 22 0.000000 0.000000 0.000000 0.000000 119.155926 0.000000 125.000000 -0.398775 0.842901 -0.361243
-1.20000005 14.44999981 -1.08000004 252 214 22 0.000000 0.000000 0.000000 0.000000 119.155926 0.000000 125.000000 0.948277 -0.206028 0.241504
-1.13000000 14.36999989 -1.09000003 252 214 22 0.000000 0.000000 0.000000 0.000000 119.155926 0.000000 125.000000 0.784451 -0.255221 0.565243
-1.27999997 14.35999966 -0.94999999 252 214 22 0.000000 0.000000 0.000000 0.000000 119.155926 0.000000 125.000000 0.716698 0.268563 0.643598
-1.16999996 14.44999981 -1.10000002 252 214 22 0.000000 0.000000 0.000000 0.000000 119.155926 0.000000 125.000000 -0.446988 0.778572 -0.440486
-1.16999996 14.43000031 -1.13000000 252 214 22 0.000000 0.000000 0.000000 0.000000 119.155926 0.000000 125.000000 0.896652 -0.334571 0.289962
-1.13999999 14.40999985 -1.12000000 252 214 22 0.000000 0.000000 0.000000 0.000000 119.155926 0.000000 125.000000 0.761800 -0.643266 0.076614
-1.14999998 14.43999958 -1.25000000 252 214 22 0.000000 0.000000 0.000000 0.000000 119.155926 0.000000 125.000000 0.792125 -0.602482 0.097739
-1.13999999 14.43999958 -1.25999999 252 214 22 0.000000 0.000000 0.000000 0.000000 119.155926 0.000000 125.000000 0.951873 -0.184974 0.244382
-1.30999994 14.81000042 -1.00000000 252 214 22 0.000000 0.000000 0.000000 0.000000 119.155926 0.000000 141.000000 0.020304 0.973420 -0.228127
-1.33000004 14.80000019 -1.03999996 252 214 22 0.000000 0.000000 0.000000 0.000000 119.155926 0.000000 141.000000 0.633699 -0.742689 0.216423
-1.32000005 14.52000046 -0.34999999 252 214 22 0.000000 0.000000 0.000000 0.000000 119.155926 0.000000 125.000000 0.797012 0.479490 0.367235
-1.30999994 14.72999954 -0.85000002 252 214 22 0.000000 0.000000 0.000000 0.000000 119.155926 0.000000 125.000000 -0.408522 0.896438 -0.171781
-1.30999994 14.72000027 -0.91000003 252 214 22 0.000000 0.000000 0.000000 0.000000 119.155926 0.000000 125.000000 -0.457392 0.703552 -0.543881
-1.38000000 14.67000008 -0.88000000 252 214 22 0.000000 0.000000 0.000000 0.000000 119.155926 0.000000 125.000000 -0.376191 0.820636 -0.430159
-1.37000000 14.64000034 -0.87000000 252 214 22 0.000000 0.000000 0.000000 0.000000 119.155926 0.000000 125.000000 -0.606615 0.794343 -0.032222
-1.35000002 14.59000015 -0.88999999 252 214 22 0.000000 0.000000 0.000000 0.000000 119.155926 0.000000 125.000000 -0.606725 0.792312 -0.064241
-1.35000002 14.34000015 -0.57999998 252 214 22 0.000000 0.000000 0.000000 0.000000 119.155926 0.000000 125.000000 0.454939 0.771276 0.445155
-1.32000005 14.38000011 -0.61000001 252 214 22 0.000000 0.000000 0.000000 0.000000 119.155926 0.000000 125.000000 0.672399 0.649495 0.355014
-1.35000002 14.39000034 -0.62000000 252 214 22 0.000000 0.000000 0.000000 0.000000 119.155926 0.000000 125.000000 0.546800 0.749197 0.373783
-1.34000003 14.31999969 -0.62000000 252 214 22 0.000000 0.000000 0.000000 0.000000 119.155926 0.000000 125.000000 0.415245 0.892705 0.175069
-1.34000003 14.30000019 -0.64999998 252 214 22 0.000000 0.000000 0.000000 0.000000 119.155926 0.000000 125.000000 0.309566 0.899076 0.309566
-1.29999995 14.31000042 -0.64999998 252 214 22 0.000000 0.000000 0.000000 0.000000 119.155926 0.000000 125.000000 0.354975 0.922934 0.148950
-1.34000003 14.30000019 -0.63999999 252 214 22 0.000000 0.000000 0.000000 0.000000 119.155926 0.000000 125.000000 0.697200 0.714450 -0.058939
-1.30999994 14.28999996 -0.63999999 252 214 22 0.000000 0.000000 0.000000 0.000000 119.155926 0.000000 125.000000 0.306413 0.927712 -0.213218
-1.32000005 14.28999996 -0.64999998 252 214 22 0.000000 0.000000 0.000000 0.000000 119.155926 0.000000 125.000000 0.446083 0.882062 -0.151582
-1.36000001 14.30000019 -0.60000002 252 214 22 0.000000 0.000000 0.000000 0.000000 119.155926 0.000000 125.000000 0.767178 0.573398 0.287493
-1.34000003 14.35999966 -0.72000003 252 214 22 0.000000 0.000000 0.000000 0.000000 119.155926 0.000000 125.000000 0.965561 0.209227 0.154646
-1.33000004 14.28999996 -0.74000001 252 214 22 0.000000 0.000000 0.000000 0.000000 119.155926 0.000000 125.000000 0.740918 0.660739 0.120269
-1.36000001 14.31000042 -0.74000001 252 214 22 0.000000 0.000000 0.000000 0.000000 119.155926 0.000000 125.000000 0.576982 0.782269 0.234836
-1.36000001 14.44999981 -0.85000002 252 214 22 0.000000 0.000000 0.000000 0.000000 119.155926 0.000000 125.000000 0.888176 0.058847 0.455720
-1.36000001 14.43999958 -0.85000002 252 214 22 0.000000 0.000000 0.000000 0.000000 119.155926 0.000000 125.000000 0.964003 0.252749 0.082556
-1.37000000 14.39999962 -0.91000003 252 214 22 0.000000 0.000000 0.000000 0.000000 119.155926 0.000000 125.000000 0.781798 0.459977 0.420968
-1.32000005 14.35000038 -0.77999997 252 214 22 0.000000 0.000000 0.000000 0.000000 119.155926 0.000000 125.000000 0.666336 0.724545 0.176158
-1.34000003 14.34000015 -0.81999999 252 214 22 0.000000 0.000000 0.000000 0.000000 119.155926 0.000000 125.000000 0.659689 0.727349 0.189141
-1.38000000 14.34000015 -0.81999999 252 214 22 0.000000 0.000000 0.000000 0.000000 119.155926 0.000000 125.000000 0.871681 0.346535 0.346535
-1.36000001 14.35999966 -0.91000003 252 214 22 0.000000 0.000000 0.000000 0.000000 119.155926 0.000000 125.000000 0.899122 0.374023 0.227347
-1.36000001 14.32999992 -0.86000001 252 214 22 0.000000 0.000000 0.000000 0.000000 119.155926 0.000000 125.000000 0.987389 0.056987 0.147701
-1.37000000 14.31000042 -0.91000003 252 214 22 0.000000 0.000000 0.000000 0.000000 119.155926 0.000000 125.000000 0.968996 0.107948 0.222247
-1.39999998 14.32999992 -0.80000001 252 214 22 0.000000 0.000000 0.000000 0.000000 119.155926 0.000000 125.000000 0.750920 0.573283 0.327821
-1.38999999 14.35000038 -0.88999999 252 214 22 0.000000 0.000000 0.000000 0.000000 119.155926 0.000000 125.000000 0.980963 0.022215 0.192919
-1.38999999 14.36999989 -0.83999997 252 214 22 0.000000 0.000000 0.000000 0.000000 119.155926 0.000000 125.000000 0.679749 0.518624 0.518624
-1.33000004 14.27999973 -0.62000000 252 214 22 0.000000 0.000000 0.000000 0.000000 119.155926 0.000000 125.000000 0.292330 0.952347 -0.087049
-1.30999994 14.26000023 -0.69999999 252 214 22 0.000000 0.000000 0.000000 0.000000 119.155926 0.000000 125.000000 0.729022 0.684073 0.023879
-1.30999994 14.27000046 -0.72000003 252 214 22 0.000000 0.000000 0.000000 0.000000 119.155926 0.000000 125.000000 0.324199 0.891920 0.315235
-1.30999994 14.25000000 -0.73000002 252 214 22 0.000000 0.000000 0.000000 0.000000 119.155926 0.000000 125.000000 0.236966 0.954558 -0.180737
-1.32000005 14.22000027 -0.69999999 252 214 22 0.000000 0.000000 0.000000 0.000000 119.155926 0.000000 125.000000 0.323663 0.906550 -0.270940
-1.36000001 14.22000027 -0.69000000 252 214 22 0.000000 0.000000 0.000000 0.000000 119.155926 0.000000 125.000000 0.314933 0.912869 0.259783
-1.38000000 14.14000034 -0.74000001 252 214 22 0.000000 0.000000 0.000000 0.000000 119.155926 0.000000 125.000000 0.608648 0.792231 -0.043777
-1.38999999 14.27000046 -0.69999999 252 214 22 0.000000 0.000000 0.000000 0.000000 119.155926 0.000000 125.000000 0.583826 0.810005 -0.055131
-1.45000005 14.11999989 -0.73000002 252 214 22 0.000000 0.000000 0.000000 0.000000 119.155926 0.000000 125.000000 0.288264 0.939273 0.186199
-1.46000004 14.11999989 -0.72000003 252 214 22 0.000000 0.000000 0.000000 0.000000 119.155926 0.000000 125.000000 0.500554 0.863837 0.056850
-1.46000004 14.11999989 -0.73000002 252 214 22 0.000000 0.000000 0.000000 0.000000 119.155926 0.000000 125.000000 0.516222 0.848802 0.114234
-1.30999994 14.22999954 -0.80000001 252 214 22 0.000000 0.000000 0.000000 0.000000 119.155926 0.000000 125.000000 0.807723 0.530700 0.256790
-1.33000004 14.22999954 -0.80000001 252 214 22 0.000000 0.000000 0.000000 0.000000 119.155926 0.000000 125.000000 0.776149 0.610370 -0.158244
-1.35000002 14.23999977 -0.75999999 252 214 22 0.000000 0.000000 0.000000 0.000000 119.155926 0.000000 125.000000 0.497538 0.842337 -0.207182
-1.33000004 14.27000046 -0.89999998 252 214 22 0.000000 0.000000 0.000000 0.000000 119.155926 0.000000 125.000000 0.726630 0.627617 0.279473
-1.29999995 14.23999977 -0.85000002 252 214 22 0.000000 0.000000 0.000000 0.000000 119.155926 0.000000 125.000000 0.568504 0.801969 -0.183437
-1.35000002 14.25000000 -0.88999999 252 214 22 0.000000 0.000000 0.000000 0.000000 119.155926 0.000000 125.000000 0.685894 0.682726 0.251864
-1.33000004 14.17000008 -0.86000001 252 214 22 0.000000 0.000000 0.000000 0.000000 119.155926 0.000000 125.000000 0.528458 0.804448 -0.271286
-1.35000002 14.17000008 -0.92000002 252 214 22 0.000000 0.000000 0.000000 0.000000 119.155926 0.000000 125.000000 0.342020 0.934855 0.095229
-1.35000002 14.17000008 -0.92000002 252 214 22 0.000000 0.000000 0.000000 0.000000 119.155926 0.000000 125.000000 0.342020 0.934855 0.095229
-1.38000000 14.15999985 -0.91000003 252 214 22 0.000000 0.000000 0.000000 0.000000 119.155926 0.000000 125.000000 0.637432 0.769703 0.035178
-1.40999997 14.14999962 -0.82999998 252 214 22 0.000000 0.000000 0.000000 0.000000 119.155926 0.000000 125.000000 0.702704 0.644815 -0.300699
-1.40999997 14.14999962 -0.81000000 252 214 22 0.000000 0.000000 0.000000 0.000000 119.155926 0.000000 125.000000 0.894246 0.443710 0.058706
-1.39999998 14.11999989 -0.80000001 252 214 22 0.000000 0.000000 0.000000 0.000000 119.155926 0.000000 125.000000 0.341240 0.930529 0.132933
-1.39999998 14.14000034 -0.80000001 252 214 22 0.000000 0.000000 0.000000 0.000000 119.155926 0.000000 125.000000 0.681400 0.618705 0.391021
-1.42999995 14.13000011 -0.79000002 252 214 22 0.000000 0.000000 0.000000 0.000000 119.155926 0.000000 125.000000 0.261783 0.948117 0.180400
-1.42999995 14.13000011 -0.79000002 252 214 22 0.000000 0.000000 0.000000 0.000000 119.155926 0.000000 125.000000 0.261783 0.948117 0.180400
-1.42999995 14.13000011 -0.81000000 252 214 22 0.000000 0.000000 0.000000 0.000000 119.155926 0.000000 125.000000 0.362378 0.932010 -0.006358
-1.41999996 14.18000031 -0.83999997 252 214 22 0.000000 0.000000 0.000000 0.000000 119.155926 0.000000 125.000000 0.865818 0.473197 0.162616
-1.38999999 14.17000008 -0.89999998 252 214 22 0.000000 0.000000 0.000000 0.000000 119.155926 0.000000 125.000000 0.654300 0.756234 -0.001377
-1.38999999 14.17000008 -0.89999998 252 214 22 0.000000 0.000000 0.000000 0.000000 119.155926 0.000000 125.000000 0.654300 0.756234 -0.001377
-1.39999998 14.11999989 -0.91000003 252 214 22 0.000000 0.000000 0.000000 0.000000 119.155926 0.000000 125.000000 0.395823 0.917409 0.041039
-1.44000006 14.13000011 -0.89999998 252 214 22 0.000000 0.000000 0.000000 0.000000 119.155926 0.000000 125.000000 0.720002 0.477230 0.503835
-1.50000000 14.38000011 -0.62000000 252 214 22 0.000000 0.000000 0.000000 0.000000 119.155926 0.000000 125.000000 0.642737 0.642737 0.416866
-1.49000001 14.14999962 -0.75000000 252 214 22 0.000000 0.000000 0.000000 0.000000 119.155926 0.000000 125.000000 0.545607 0.781029 0.303822
-1.47000003 14.11999989 -0.72000003 252 214 22 0.000000 0.000000 0.000000 0.000000 119.155926 0.000000 125.000000 0.412130 0.793553 0.447686
-1.37000000 14.77000046 -0.97000003 252 214 22 0.000000 0.000000 0.000000 0.000000 119.155926 0.000000 141.000000 -0.246168 0.812819 -0.527945
-1.36000001 14.75000000 -1.02999997 252 214 22 0.000000 0.000000 0.000000 0.000000 119.155926 0.000000 141.000000 -0.504847 0.849262 -0.154545
-1.38999999 14.78999996 -1.07000005 252 214 22 0.000000 0.000000 0.000000 0.000000 119.155926 0.000000 141.000000 -0.209031 0.909646 -0.358957
-1.38999999 14.77999973 -1.08000004 252 214 22 0.000000 0.000000 0.000000 0.000000 119.155926 0.000000 141.000000 -0.216638 0.868047 -0.446723
-1.38999999 14.77000046 -1.10000002 252 214 22 0.000000 0.000000 0.000000 0.000000 119.155926 0.000000 141.000000 -0.262825 0.892416 -0.366766
-1.33000004 14.52999973 -0.95999998 252 214 22 0.000000 0.000000 0.000000 0.000000 119.155926 0.000000 125.000000 0.958147 -0.272098 0.088980
-1.34000003 14.59000015 -1.13999999 252 214 22 0.000000 0.000000 0.000000 0.000000 119.155926 0.000000 125.000000 0.908921 -0.197341 0.367314
-1.32000005 14.65999985 -1.37000000 252 214 22 0.000000 0.000000 0.000000 0.000000 119.155926 0.000000 125.000000 0.531329 -0.581932 0.615667
-1.29999995 14.59000015 -1.30999994 252 214 22 0.000000 0.000000 0.000000 0.000000 119.155926 0.000000 125.000000 0.750308 -0.660551 -0.026646
-1.32000005 14.55000019 -1.27999997 252 214 22 0.000000 0.000000 0.000000 0.000000 119.155926 0.000000 125.000000 0.784297 -0.248909 0.568263
-1.30999994 14.56999969 -1.27999997 252 214 22 0.000000 0.000000 0.000000 0.000000 119.155926 0.000000 125.000000 0.921469 -0.296647 0.250789
-1.30999994 14.56999969 -1.32000005 252 214 22 0.000000 0.000000 0.000000 0.000000 119.155926 0.000000 125.000000 -0.654939 0.744452 -0.129794
-1.33000004 14.57999992 -1.32000005 252 214 22 0.000000 0.000000 0.000000 0.000000 119.155926 0.000000 125.000000 0.876621 -0.478780 0.048015
-1.30999994 14.57999992 -1.30999994 252 214 22 0.000000 0.000000 0.000000 0.000000 119.155926 0.000000 125.000000 0.745082 -0.576994 0.334560
-1.32000005 14.56000042 -1.33000004 252 214 22 0.000000 0.000000 0.000000 0.000000 119.155926 0.000000 125.000000 -0.588118 0.764711 -0.263313
-1.29999995 14.61999989 -1.38000000 252 214 22 0.000000 0.000000 0.000000 0.000000 119.155926 0.000000 125.000000 -0.436142 0.766108 -0.472079
-1.29999995 14.60000038 -1.36000001 252 214 22 0.000000 0.000000 0.000000 0.000000 119.155926 0.000000 125.000000 0.846748 -0.262784 0.462561
-1.33000004 14.51000023 -1.25999999 252 214 22 0.000000 0.000000 0.000000 0.000000 119.155926 0.000000 125.000000 0.706641 -0.408759 0.577559
-1.30999994 14.52999973 -1.26999998 252 214 22 0.000000 0.000000 0.000000 0.000000 119.155926 0.000000 125.000000 0.836312 -0.462541 0.294344
-1.33000004 14.51000023 -1.25999999 252 214 22 0.000000 0.000000 0.000000 0.000000 119.155926 0.000000 125.000000 0.706641 -0.408759 0.577559
-1.36000001 14.39999962 -0.95999998 252 214 22 0.000000 0.000000 0.000000 0.000000 119.155926 0.000000 125.000000 0.948452 0.314453 0.039466
-1.38000000 14.38000011 -0.99000001 252 214 22 0.000000 0.000000 0.000000 0.000000 119.155926 0.000000 125.000000 0.926351 0.217047 0.307838
-1.38000000 14.38000011 -0.99000001 252 214 22 0.000000 0.000000 0.000000 0.000000 119.155926 0.000000 125.000000 0.926351 0.217047 0.307838
-1.30999994 14.36999989 -0.94000000 252 214 22 0.000000 0.000000 0.000000 0.000000 119.155926 0.000000 125.000000 0.704035 0.347934 0.619093
-1.38000000 14.36999989 -0.93000001 252 214 22 0.000000 0.000000 0.000000 0.000000 119.155926 0.000000 125.000000 0.758887 0.496637 0.421240
-1.38000000 14.36999989 -0.99000001 252 214 22 0.000000 0.000000 0.000000 0.000000 119.155926 0.000000 125.000000 0.850754 0.120294 0.511612
-1.38000000 14.35999966 -1.00000000 252 214 22 0.000000 0.000000 0.000000 0.000000 119.155926 0.000000 125.000000 0.819194 0.215900 0.531328
-1.35000002 14.34000015 -1.01999998 252 214 22 0.000000 0.000000 0.000000 0.000000 119.155926 0.000000 125.000000 0.937349 0.056215 0.343826
-1.38999999 14.35999966 -0.98000002 252 214 22 0.000000 0.000000 0.000000 0.000000 119.155926 0.000000 125.000000 0.900893 0.326925 0.285505
-1.32000005 14.44999981 -1.11000001 252 214 22 0.000000 0.000000 0.000000 0.000000 119.155926 0.000000 125.000000 0.976184 -0.215212 0.027347
-1.38000000 14.14999962 -0.94999999 252 214 22 0.000000 0.000000 0.000000 0.000000 119.155926 0.000000 125.000000 0.769832 0.636072 -0.052650
-1.38000000 14.14999962 -0.94999999 252 214 22 0.000000 0.000000 0.000000 0.000000 119.155926 0.000000 125.000000 0.769832 0.636072 -0.052650
-1.38999999 14.19999981 -0.94000000 252 214 22 0.000000 0.000000 0.000000 0.000000 119.155926 0.000000 125.000000 0.733048 0.645892 0.213222
-1.40999997 14.13000011 -0.95999998 252 214 22 0.000000 0.000000 0.000000 0.000000 119.155926 0.000000 125.000000 0.914150 0.394902 0.091552
-1.46000004 14.13000011 -0.97000003 252 214 22 0.000000 0.000000 0.000000 0.000000 119.155926 0.000000 125.000000 0.490073 0.773371 0.402153
-1.42999995 14.15999985 -1.02999997 252 214 22 0.000000 0.000000 0.000000 0.000000 119.155926 0.000000 125.000000 0.807109 0.576928 -0.125419
-1.40999997 14.13000011 -1.04999995 252 214 22 0.000000 0.000000 0.000000 0.000000 119.155926 0.000000 125.000000 0.862055 0.440875 0.249981
-1.50000000 14.14999962 -0.94999999 252 214 22 0.000000 0.000000 0.000000 0.000000 119.155926 0.000000 125.000000 0.772371 0.630890 0.073628
-1.49000001 14.14000034 -0.98000002 252 214 22 0.000000 0.000000 0.000000 0.000000 119.155926 0.000000 125.000000 0.603193 0.797324 0.020800
-1.50999999 14.14999962 -0.95999998 252 214 22 0.000000 0.000000 0.000000 0.000000 119.155926 0.000000 125.000000 0.761787 0.606002 0.229003
-1.47000003 14.14999962 -1.00999999 252 214 22 0.000000 0.000000 0.000000 0.000000 119.155926 0.000000 125.000000 0.831745 0.554953 0.015073
-1.47000003 14.13000011 -1.07000005 252 214 22 0.000000 0.000000 0.000000 0.000000 119.155926 0.000000 125.000000 0.871619 0.287497 0.397020
-1.50999999 14.09000015 -0.52999997 252 214 22 0.000000 0.000000 0.000000 0.000000 119.155926 0.000000 125.000000 0.642226 0.755473 -0.129637
-1.46000004 14.06999969 -0.72000003 252 214 22 0.000000 0.000000 0.000000 0.000000 119.155926 0.000000 125.000000 0.762071 0.598658 0.246691
-1.46000004 14.09000015 -0.69999999 252 214 22 0.000000 0.000000 0.000000 0.000000 119.155926 0.000000 125.000000 0.769412 0.590770 -0.242890
-1.39999998 14.06999969 -0.69000000 252 214 22 0.000000 0.000000 0.000000 0.000000 119.155926 0.000000 125.000000 0.474313 0.873135 0.112525
-1.36000001 14.10999966 -0.80000001 252 214 22 0.000000 0.000000 0.000000 0.000000 119.155926 0.000000 125.000000 0.456050 0.808089 -0.372841
-1.38000000 14.10999966 -0.76999998 252 214 22 0.000000 0.000000 0.000000 0.000000 119.155926 0.000000 125.000000 0.313002 0.858829 0.405515
-1.36000001 14.10999966 -0.80000001 252 214 22 0.000000 0.000000 0.000000 0.000000 119.155926 0.000000 125.000000 0.456050 0.808089 -0.372841
-1.49000001 14.09000015 -0.66000003 252 214 22 0.000000 0.000000 0.000000 0.000000 119.155926 0.000000 125.000000 0.435225 0.874906 0.212413
-1.48000002 14.09000015 -0.66000003 252 214 22 0.000000 0.000000 0.000000 0.000000 119.155926 0.000000 125.000000 0.613378 0.751427 0.243155
-1.47000003 14.05000019 -0.63999999 252 214 22 0.000000 0.000000 0.000000 0.000000 119.155926 0.000000 125.000000 0.591294 0.724864 0.353473
-1.47000003 14.05000019 -0.64999998 252 214 22 0.000000 0.000000 0.000000 0.000000 119.155926 0.000000 125.000000 0.541936 0.770289 0.336097
-1.48000002 14.07999992 -0.72000003 252 214 22 0.000000 0.000000 0.000000 0.000000 119.155926 0.000000 125.000000 0.767134 0.637599 -0.070524
-1.35000002 14.10000038 -0.97000003 252 214 22 0.000000 0.000000 0.000000 0.000000 119.155926 0.000000 125.000000 0.342512 0.932770 -0.112366
-1.45000005 14.10999966 -1.02999997 252 214 22 0.000000 0.000000 0.000000 0.000000 119.155926 0.000000 125.000000 0.675682 0.709698 -0.199458
-1.44000006 14.10000038 -1.09000003 252 214 22 0.000000 0.000000 0.000000 0.000000 119.155926 0.000000 125.000000 0.873432 0.373457 0.312484
-1.44000006 14.10000038 -1.08000004 252 214 22 0.000000 0.000000 0.000000 0.000000 119.155926 0.000000 125.000000 0.906319 0.422247 0.017100
-1.44000006 14.06999969 -1.08000004 252 214 22 0.000000 0.000000 0.000000 0.000000 119.155926 0.000000 125.000000 0.838818 0.541941 0.051813
-1.44000006 14.06000042 -1.07000005 252 214 22 0.000000 0.000000 0.000000 0.000000 119.155926 0.000000 125.000000 0.818580 0.474745 0.323331
-1.41999996 14.10000038 -1.12000000 252 214 22 0.000000 0.000000 0.000000 0.000000 119.155926 0.000000 125.000000 0.915673 0.386924 -0.108779
-1.47000003 14.07999992 -1.07000005 252 214 22 0.000000 0.000000 0.000000 0.000000 119.155926 0.000000 125.000000 0.632208 0.655439 0.413175
-1.50000000 14.10999966 -1.09000003 252 214 22 0.000000 0.000000 0.000000 0.000000 119.155926 0.000000 125.000000 0.541808 0.828213 0.143203
-1.47000003 14.10000038 -1.12000000 252 214 22 0.000000 0.000000 0.000000 0.000000 119.155926 0.000000 125.000000 0.854703 0.452490 0.254430
-1.05999994 14.81000042 -0.23999999 252 214 22 0.000000 0.000000 0.000000 0.000000 119.155926 0.000000 125.000000 0.846017 0.532372 -0.028888
-0.92000002 14.69999981 -0.23999999 252 214 22 0.000000 0.000000 0.000000 0.000000 119.155926 0.000000 125.000000 0.982860 0.120276 0.139714
-0.89999998 14.61999989 -0.22000000 252 214 22 0.000000 0.000000 0.000000 0.000000 119.155926 0.000000 125.000000 0.986296 0.050072 0.157202
-0.98000002 14.68999958 0.00000000 252 214 22 0.000000 0.000000 0.000000 0.000000 119.155926 0.000000 125.000000 0.812563 0.304514 0.497004
-1.00000000 14.68999958 -0.04000000 252 214 22 0.000000 0.000000 0.000000 0.000000 119.155926 0.000000 125.000000 0.768632 0.539815 0.343226
-0.97000003 14.68000031 0.00000000 252 214 22 0.000000 0.000000 0.000000 0.000000 119.155926 0.000000 125.000000 0.898282 0.128730 0.420141
-0.98000002 14.68999958 -0.01000000 252 214 22 0.000000 0.000000 0.000000 0.000000 119.155926 0.000000 125.000000 0.974369 0.150000 0.167647
-0.95999998 14.68999958 -0.12000000 252 214 22 0.000000 0.000000 0.000000 0.000000 119.155926 0.000000 125.000000 0.879167 0.205385 0.429979
-0.99000001 14.64999962 -0.13000000 252 214 22 0.000000 0.000000 0.000000 0.000000 119.155926 0.000000 125.000000 0.992449 -0.069346 0.101177
-0.97000003 14.65999985 -0.20999999 252 214 22 0.000000 0.000000 0.000000 0.000000 119.155926 0.000000 125.000000 0.822055 0.282338 0.494481
-0.97000003 14.68000031 -0.18000001 252 214 22 0.000000 0.000000 0.000000 0.000000 119.155926 0.000000 125.000000 0.795688 0.450298 0.405107
-0.99000001 14.84000015 -0.63000000 252 214 22 0.000000 0.000000 0.000000 0.000000 119.155926 0.000000 125.000000 0.177038 0.982619 -0.055844
-1.00999999 14.85999966 -0.74000001 252 214 22 0.000000 0.000000 0.000000 0.000000 119.155926 0.000000 125.000000 0.074706 0.985403 -0.152969
-1.00999999 14.82999992 -0.69999999 252 214 22 0.000000 0.000000 0.000000 0.000000 119.155926 0.000000 125.000000 0.751699 0.658966 0.026696
-1.01999998 14.82999992 -0.70999998 252 214 22 0.000000 0.000000 0.000000 0.000000 119.155926 0.000000 125.000000 0.164339 0.961055 -0.222186
-0.79000002 14.67000008 -0.49000001 252 214 22 0.000000 0.000000 0.000000 0.000000 119.155926 0.000000 125.000000 0.784286 0.184269 0.592402
