//X Y Z R G B PointSourceId ScanDirectionFlag NumberOfReturns ReturnNumber GpsTime Intensity Classification Nx Ny Nz
3.65000010 6.40000010 -0.44000000 148 243 60 0.000000 0.000000 0.000000 0.000000 -8.844074 0.000000 154.000000 -0.587024 0.807688 0.055166
3.65000010 6.40000010 -0.43000001 148 243 60 0.000000 0.000000 0.000000 0.000000 -8.844074 0.000000 154.000000 -0.604782 0.795618 0.035080
3.66000009 6.42000008 -0.44000000 148 243 60 0.000000 0.000000 0.000000 0.000000 -8.844074 0.000000 154.000000 0.694117 -0.697182 0.179275
3.67000008 6.40000010 -0.47000000 148 243 60 0.000000 0.000000 0.000000 0.000000 -8.844074 0.000000 154.000000 -0.568709 0.819568 -0.069841
3.66000009 6.38999987 -0.47000000 148 243 60 0.000000 0.000000 0.000000 0.000000 -8.844074 0.000000 154.000000 -0.597031 0.744288 -0.299316
3.66000009 6.38999987 -0.47000000 148 243 60 0.000000 0.000000 0.000000 0.000000 -8.844074 0.000000 154.000000 -0.597031 0.744288 -0.299316
3.68000007 6.40999985 -0.47999999 148 243 60 0.000000 0.000000 0.000000 0.000000 -8.844074 0.000000 154.000000 0.809633 -0.568972 -0.144100
3.67000008 6.40000010 -0.46000001 148 243 60 0.000000 0.000000 0.000000 0.000000 -8.844074 0.000000 154.000000 -0.405372 0.891232 -0.203418
3.65000010 6.38999987 -0.47000000 148 243 60 0.000000 0.000000 0.000000 0.000000 -8.844074 0.000000 154.000000 0.585773 -0.672554 0.452263
3.66000009 6.38999987 -0.47999999 148 243 60 0.000000 0.000000 0.000000 0.000000 -8.844074 0.000000 154.000000 0.767787 -0.599590 0.225820
3.69000006 6.42000008 -0.47999999 148 243 60 0.000000 0.000000 0.000000 0.000000 -8.844074 0.000000 154.000000 0.899687 -0.418164 0.125308
3.68000007 6.40999985 -0.47000000 148 243 60 0.000000 0.000000 0.000000 0.000000 -8.844074 0.000000 154.000000 0.884328 -0.437081 0.164087
3.65000010 6.40000010 -0.49000001 148 243 60 0.000000 0.000000 0.000000 0.000000 -8.844074 0.000000 154.000000 -0.321207 0.920795 -0.221276
3.68000007 6.40999985 -0.47000000 148 243 60 0.000000 0.000000 0.000000 0.000000 -8.844074 0.000000 154.000000 0.884328 -0.437081 0.164087
3.65000010 6.36999989 -0.41999999 148 243 60 0.000000 0.000000 0.000000 0.000000 -8.844074 0.000000 154.000000 0.656560 -0.719239 0.227210
3.61999989 6.38999987 -0.43000001 148 243 60 0.000000 0.000000 0.000000 0.000000 -8.844074 0.000000 154.000000 -0.195909 0.925985 -0.322756
3.64000010 6.40000010 -0.43000001 148 243 60 0.000000 0.000000 0.000000 0.000000 -8.844074 0.000000 154.000000 -0.299028 0.940777 -0.159755
3.60999990 6.38999987 -0.41999999 148 243 60 0.000000 0.000000 0.000000 0.000000 -8.844074 0.000000 154.000000 -0.285203 0.958429 -0.008568
3.61999989 6.38999987 -0.41999999 148 243 60 0.000000 0.000000 0.000000 0.000000 -8.844074 0.000000 154.000000 -0.542295 0.808035 -0.230205
3.63000011 6.40000010 -0.41999999 148 243 60 0.000000 0.000000 0.000000 0.000000 -8.844074 0.000000 154.000000 0.661471 -0.628315 0.409482
3.61999989 6.40000010 -0.49000001 148 243 60 0.000000 0.000000 0.000000 0.000000 -8.844074 0.000000 154.000000 -0.431382 0.826420 -0.361855
3.60999990 6.36999989 -0.49000001 148 243 60 0.000000 0.000000 0.000000 0.000000 -8.844074 0.000000 154.000000 -0.144557 0.982744 0.115403
3.63000011 6.38000011 -0.47999999 148 243 60 0.000000 0.000000 0.000000 0.000000 -8.844074 0.000000 154.000000 -0.537628 0.836148 -0.108685
3.60999990 6.36999989 -0.47999999 148 243 60 0.000000 0.000000 0.000000 0.000000 -8.844074 0.000000 154.000000 -0.486363 0.775903 -0.401778
3.60999990 6.36999989 -0.46000001 148 243 60 0.000000 0.000000 0.000000 0.000000 -8.844074 0.000000 154.000000 -0.353197 0.935528 0.006330
3.64000010 6.36999989 -0.46000001 148 243 60 0.000000 0.000000 0.000000 0.000000 -8.844074 0.000000 154.000000 -0.419042 0.827015 -0.374766
3.60999990 6.36999989 -0.47999999 148 243 60 0.000000 0.000000 0.000000 0.000000 -8.844074 0.000000 154.000000 -0.486363 0.775903 -0.401778
3.64000010 6.38000011 -0.47000000 148 243 60 0.000000 0.000000 0.000000 0.000000 -8.844074 0.000000 154.000000 -0.267192 0.944077 0.193200
3.65000010 6.40000010 -0.51999998 148 243 60 0.000000 0.000000 0.000000 0.000000 -8.844074 0.000000 154.000000 0.746297 -0.658324 0.098236
3.65000010 6.38999987 -0.54000002 148 243 60 0.000000 0.000000 0.000000 0.000000 -8.844074 0.000000 154.000000 -0.596691 0.777692 0.197874
3.68000007 6.42000008 -0.54000002 148 243 60 0.000000 0.000000 0.000000 0.000000 -8.844074 0.000000 154.000000 0.900879 -0.423371 0.095779
3.66000009 6.40000010 -0.52999997 148 243 60 0.000000 0.000000 0.000000 0.000000 -8.844074 0.000000 154.000000 -0.623961 0.735099 -0.265144
3.65000010 6.40000010 -0.50999999 148 243 60 0.000000 0.000000 0.000000 0.000000 -8.844074 0.000000 154.000000 -0.394864 0.917827 0.040939
3.66000009 6.38999987 -0.54000002 148 243 60 0.000000 0.000000 0.000000 0.000000 -8.844074 0.000000 154.000000 -0.316978 0.945716 -0.071744
3.67000008 6.40999985 -0.55000001 148 243 60 0.000000 0.000000 0.000000 0.000000 -8.844074 0.000000 154.000000 0.771943 -0.629475 -0.088679
3.65000010 6.40000010 -0.57999998 148 243 60 0.000000 0.000000 0.000000 0.000000 -8.844074 0.000000 154.000000 -0.502263 0.864328 -0.025862
3.69000006 6.40000010 -0.57999998 148 243 60 0.000000 0.000000 0.000000 0.000000 -8.844074 0.000000 154.000000 0.711604 -0.700104 0.058941
3.67000008 6.40999985 -0.56000000 148 243 60 0.000000 0.000000 0.000000 0.000000 -8.844074 0.000000 154.000000 0.837365 -0.538614 0.093360
3.67000008 6.38000011 -0.54000002 148 243 60 0.000000 0.000000 0.000000 0.000000 -8.844074 0.000000 154.000000 -0.402679 0.891752 -0.206465
3.63000011 6.38999987 -0.52999997 148 243 60 0.000000 0.000000 0.000000 0.000000 -8.844074 0.000000 154.000000 -0.371158 0.909982 -0.184863
3.64000010 6.38999987 -0.56000000 148 243 60 0.000000 0.000000 0.000000 0.000000 -8.844074 0.000000 154.000000 -0.571302 0.820647 -0.012330
3.63000011 6.38000011 -0.54000002 148 243 60 0.000000 0.000000 0.000000 0.000000 -8.844074 0.000000 154.000000 -0.335040 0.832095 -0.442001
3.63000011 6.38000011 -0.51999998 148 243 60 0.000000 0.000000 0.000000 0.000000 -8.844074 0.000000 154.000000 0.718160 -0.655302 0.234149
3.63000011 6.38000011 -0.50999999 148 243 60 0.000000 0.000000 0.000000 0.000000 -8.844074 0.000000 154.000000 -0.372731 0.915653 0.150499
3.61999989 6.38000011 -0.51999998 148 243 60 0.000000 0.000000 0.000000 0.000000 -8.844074 0.000000 154.000000 -0.556964 0.789163 -0.258870
3.61999989 6.34999990 -0.50000000 148 243 60 0.000000 0.000000 0.000000 0.000000 -8.844074 0.000000 154.000000 0.676427 -0.698400 0.233846
3.61999989 6.34999990 -0.50000000 148 243 60 0.000000 0.000000 0.000000 0.000000 -8.844074 0.000000 154.000000 0.676427 -0.698400 0.233846
3.60999990 6.34999990 -0.54000002 148 243 60 0.000000 0.000000 0.000000 0.000000 -8.844074 0.000000 154.000000 -0.447710 0.894100 -0.011886
3.60999990 6.36999989 -0.50999999 148 243 60 0.000000 0.000000 0.000000 0.000000 -8.844074 0.000000 154.000000 -0.553077 0.825986 -0.108873
3.60999990 6.38000011 -0.50000000 148 243 60 0.000000 0.000000 0.000000 0.000000 -8.844074 0.000000 154.000000 -0.626064 0.778694 0.040984
3.63000011 6.38000011 -0.55000001 148 243 60 0.000000 0.000000 0.000000 0.000000 -8.844074 0.000000 154.000000 -0.275495 0.961171 0.015917
3.64000010 6.36999989 -0.56000000 148 243 60 0.000000 0.000000 0.000000 0.000000 -8.844074 0.000000 154.000000 -0.507478 0.812280 0.287519
3.63000011 6.36999989 -0.56999999 148 243 60 0.000000 0.000000 0.000000 0.000000 -8.844074 0.000000 154.000000 -0.704874 0.689650 0.165942
3.60999990 6.36000013 -0.55000001 148 243 60 0.000000 0.000000 0.000000 0.000000 -8.844074 0.000000 154.000000 -0.225942 0.850693 -0.474629
3.61999989 6.36000013 -0.56000000 148 243 60 0.000000 0.000000 0.000000 0.000000 -8.844074 0.000000 154.000000 -0.678119 0.732598 0.058780
3.58999991 6.67000008 -0.27000001 148 243 60 0.000000 0.000000 0.000000 0.000000 -8.844074 0.000000 154.000000 0.388420 0.883319 0.262446
3.58999991 6.67000008 -0.27000001 148 243 60 0.000000 0.000000 0.000000 0.000000 -8.844074 0.000000 154.000000 0.388420 0.883319 0.262446
3.58999991 6.67000008 -0.27000001 148 243 60 0.000000 0.000000 0.000000 0.000000 -8.844074 0.000000 154.000000 0.388420 0.883319 0.262446
3.59999990 6.65999985 -0.27000001 148 243 60 0.000000 0.000000 0.000000 0.000000 -8.844074 0.000000 154.000000 0.575616 0.813900 0.078950
3.59999990 6.65999985 -0.25000000 148 243 60 0.000000 0.000000 0.000000 0.000000 -8.844074 0.000000 154.000000 0.678009 0.728014 0.101481
3.59999990 6.67000008 -0.31000000 148 243 60 0.000000 0.000000 0.000000 0.000000 -8.844074 0.000000 154.000000 0.701663 0.679882 -0.213144
3.58999991 6.67000008 -0.31000000 148 243 60 0.000000 0.000000 0.000000 0.000000 -8.844074 0.000000 154.000000 0.359301 0.877786 -0.316852
3.55999994 6.67000008 -0.25999999 148 243 60 0.000000 0.000000 0.000000 0.000000 -8.844074 0.000000 154.000000 0.261987 0.930409 -0.256323
3.55999994 6.67000008 -0.31000000 148 243 60 0.000000 0.000000 0.000000 0.000000 -8.844074 0.000000 154.000000 0.407133 0.852967 0.326635
3.52999997 6.67000008 -0.30000001 148 243 60 0.000000 0.000000 0.000000 0.000000 -8.844074 0.000000 154.000000 -0.089293 0.969644 0.227634
3.52999997 6.67000008 -0.28999999 148 243 60 0.000000 0.000000 0.000000 0.000000 -8.844074 0.000000 154.000000 0.174113 0.972239 0.156321
3.58999991 6.65999985 -0.34999999 148 243 60 0.000000 0.000000 0.000000 0.000000 -8.844074 0.000000 154.000000 0.503323 0.825450 0.255533
3.59999990 6.67000008 -0.36000001 148 243 60 0.000000 0.000000 0.000000 0.000000 -8.844074 0.000000 154.000000 0.224075 0.944413 0.240571
3.58999991 6.67000008 -0.37000000 148 243 60 0.000000 0.000000 0.000000 0.000000 -8.844074 0.000000 154.000000 0.334098 0.908922 -0.249479
3.57999992 6.67000008 -0.37000000 148 243 60 0.000000 0.000000 0.000000 0.000000 -8.844074 0.000000 154.000000 0.446701 0.874237 -0.190180
3.59999990 6.65999985 -0.34999999 148 243 60 0.000000 0.000000 0.000000 0.000000 -8.844074 0.000000 154.000000 0.333937 0.933659 0.129486
3.57999992 6.67000008 -0.34999999 148 243 60 0.000000 0.000000 0.000000 0.000000 -8.844074 0.000000 154.000000 0.586818 0.776717 0.228812
3.58999991 6.67000008 -0.34999999 148 243 60 0.000000 0.000000 0.000000 0.000000 -8.844074 0.000000 154.000000 0.533809 0.798352 0.278715
3.59999990 6.67000008 -0.34999999 148 243 60 0.000000 0.000000 0.000000 0.000000 -8.844074 0.000000 154.000000 0.209668 0.964992 0.157576
3.57999992 6.67000008 -0.34000000 148 243 60 0.000000 0.000000 0.000000 0.000000 -8.844074 0.000000 154.000000 0.666584 0.741773 0.073744
3.57999992 6.67000008 -0.40000001 148 243 60 0.000000 0.000000 0.000000 0.000000 -8.844074 0.000000 154.000000 0.428466 0.887434 0.169934
3.57999992 6.67000008 -0.38000000 148 243 60 0.000000 0.000000 0.000000 0.000000 -8.844074 0.000000 154.000000 0.433112 0.899956 -0.049923
3.59999990 6.65999985 -0.41000000 148 243 60 0.000000 0.000000 0.000000 0.000000 -8.844074 0.000000 154.000000 0.358122 0.930586 0.075885
3.58999991 6.65999985 -0.38000000 148 243 60 0.000000 0.000000 0.000000 0.000000 -8.844074 0.000000 154.000000 0.267771 0.947393 -0.175342
3.58999991 6.67000008 -0.38000000 148 243 60 0.000000 0.000000 0.000000 0.000000 -8.844074 0.000000 154.000000 0.383309 0.919670 0.085330
3.58999991 6.67000008 -0.40000001 148 243 60 0.000000 0.000000 0.000000 0.000000 -8.844074 0.000000 154.000000 0.438113 0.889069 0.132718
3.58999991 6.67000008 -0.38999999 148 243 60 0.000000 0.000000 0.000000 0.000000 -8.844074 0.000000 154.000000 0.319907 0.947077 0.026554
3.56999993 6.67000008 -0.41000000 148 243 60 0.000000 0.000000 0.000000 0.000000 -8.844074 0.000000 154.000000 0.082154 0.925245 -0.370367
3.55999994 6.67000008 -0.36000001 148 243 60 0.000000 0.000000 0.000000 0.000000 -8.844074 0.000000 154.000000 -0.222768 0.974157 -0.037329
3.54999995 6.67000008 -0.34000000 148 243 60 0.000000 0.000000 0.000000 0.000000 -8.844074 0.000000 154.000000 -0.073144 0.982049 0.173867
3.53999996 6.65999985 -0.37000000 148 243 60 0.000000 0.000000 0.000000 0.000000 -8.844074 0.000000 154.000000 -0.053936 0.979245 -0.195370
3.54999995 6.67000008 -0.34999999 148 243 60 0.000000 0.000000 0.000000 0.000000 -8.844074 0.000000 154.000000 0.113307 0.968840 0.220249
3.52999997 6.67000008 -0.36000001 148 243 60 0.000000 0.000000 0.000000 0.000000 -8.844074 0.000000 154.000000 0.312667 0.905706 -0.286244
3.53999996 6.67000008 -0.34999999 148 243 60 0.000000 0.000000 0.000000 0.000000 -8.844074 0.000000 154.000000 0.323339 0.918283 -0.228493
3.55999994 6.67000008 -0.38000000 148 243 60 0.000000 0.000000 0.000000 0.000000 -8.844074 0.000000 154.000000 -0.015404 0.999235 0.035944
3.48000002 6.67000008 -0.31000000 148 243 60 0.000000 0.000000 0.000000 0.000000 -8.844074 0.000000 154.000000 -0.640271 0.768047 -0.012500
3.48000002 6.67000008 -0.31000000 148 243 60 0.000000 0.000000 0.000000 0.000000 -8.844074 0.000000 154.000000 -0.640271 0.768047 -0.012500
3.44000006 6.67000008 -0.25999999 148 243 60 0.000000 0.000000 0.000000 0.000000 -8.844074 0.000000 154.000000 -0.322117 0.945980 0.036922
3.44000006 6.65999985 -0.28000000 148 243 60 0.000000 0.000000 0.000000 0.000000 -8.844074 0.000000 154.000000 -0.569727 0.660480 -0.489058
3.44000006 6.67000008 -0.25999999 148 243 60 0.000000 0.000000 0.000000 0.000000 -8.844074 0.000000 154.000000 -0.322117 0.945980 0.036922
3.44000006 6.67000008 -0.31999999 148 243 60 0.000000 0.000000 0.000000 0.000000 -8.844074 0.000000 154.000000 -0.529378 0.817851 -0.225561
3.45000005 6.67000008 -0.28999999 148 243 60 0.000000 0.000000 0.000000 0.000000 -8.844074 0.000000 154.000000 -0.218811 0.970104 -0.104979
3.44000006 6.65999985 -0.30000001 148 243 60 0.000000 0.000000 0.000000 0.000000 -8.844074 0.000000 154.000000 -0.393783 0.905558 -0.157797
3.45000005 6.67000008 -0.31000000 148 243 60 0.000000 0.000000 0.000000 0.000000 -8.844074 0.000000 154.000000 0.705664 -0.671241 0.226876
3.45000005 6.67000008 -0.31999999 148 243 60 0.000000 0.000000 0.000000 0.000000 -8.844074 0.000000 154.000000 0.752587 -0.649088 -0.110892
3.47000003 6.65999985 -0.31000000 148 243 60 0.000000 0.000000 0.000000 0.000000 -8.844074 0.000000 154.000000 -0.576891 0.815507 0.046320
3.50000000 6.67000008 -0.37000000 148 243 60 0.000000 0.000000 0.000000 0.000000 -8.844074 0.000000 154.000000 -0.400616 0.904570 -0.145807
3.49000001 6.67000008 -0.36000001 148 243 60 0.000000 0.000000 0.000000 0.000000 -8.844074 0.000000 154.000000 -0.447067 0.826206 -0.342804
3.49000001 6.67000008 -0.37000000 148 243 60 0.000000 0.000000 0.000000 0.000000 -8.844074 0.000000 154.000000 -0.231172 0.966837 0.108562
3.50000000 6.67000008 -0.37000000 148 243 60 0.000000 0.000000 0.000000 0.000000 -8.844074 0.000000 154.000000 -0.400616 0.904570 -0.145807
3.48000002 6.67000008 -0.36000001 148 243 60 0.000000 0.000000 0.000000 0.000000 -8.844074 0.000000 154.000000 -0.090878 0.995283 -0.033943
3.48000002 6.65000010 -0.38000000 148 243 60 0.000000 0.000000 0.000000 0.000000 -8.844074 0.000000 154.000000 -0.152817 0.969554 0.191342
3.50999999 6.65999985 -0.40000001 148 243 60 0.000000 0.000000 0.000000 0.000000 -8.844074 0.000000 154.000000 -0.172003 0.972137 0.159262
3.50000000 6.67000008 -0.38999999 148 243 60 0.000000 0.000000 0.000000 0.000000 -8.844074 0.000000 154.000000 -0.437966 0.806949 -0.396255
3.50000000 6.65000010 -0.41000000 148 243 60 0.000000 0.000000 0.000000 0.000000 -8.844074 0.000000 154.000000 -0.149105 0.979656 -0.134318
3.50999999 6.67000008 -0.40000001 148 243 60 0.000000 0.000000 0.000000 0.000000 -8.844074 0.000000 154.000000 -0.021100 0.999736 0.009043
3.48000002 6.65999985 -0.41000000 148 243 60 0.000000 0.000000 0.000000 0.000000 -8.844074 0.000000 154.000000 -0.050978 0.996784 0.061824
3.50000000 6.67000008 -0.38999999 148 243 60 0.000000 0.000000 0.000000 0.000000 -8.844074 0.000000 154.000000 -0.437966 0.806949 -0.396255
3.51999998 6.67000008 -0.41000000 148 243 60 0.000000 0.000000 0.000000 0.000000 -8.844074 0.000000 154.000000 -0.305414 0.910396 0.279110
3.45000005 6.65000010 -0.34999999 148 243 60 0.000000 0.000000 0.000000 0.000000 -8.844074 0.000000 154.000000 -0.586519 0.801135 -0.119068
3.44000006 6.63999987 -0.34999999 148 243 60 0.000000 0.000000 0.000000 0.000000 -8.844074 0.000000 154.000000 -0.620638 0.637367 -0.456696
3.44000006 6.63999987 -0.37000000 148 243 60 0.000000 0.000000 0.000000 0.000000 -8.844074 0.000000 154.000000 0.730041 -0.652542 -0.203048
3.47000003 6.65999985 -0.37000000 148 243 60 0.000000 0.000000 0.000000 0.000000 -8.844074 0.000000 154.000000 -0.482406 0.825866 -0.291941
3.47000003 6.67000008 -0.37000000 148 243 60 0.000000 0.000000 0.000000 0.000000 -8.844074 0.000000 154.000000 -0.290526 0.955311 -0.054553
3.47000003 6.65999985 -0.33000001 148 243 60 0.000000 0.000000 0.000000 0.000000 -8.844074 0.000000 154.000000 -0.318424 0.944790 0.077313
3.47000003 6.67000008 -0.36000001 148 243 60 0.000000 0.000000 0.000000 0.000000 -8.844074 0.000000 154.000000 -0.424994 0.902944 -0.063817
3.44000006 6.63999987 -0.33000001 148 243 60 0.000000 0.000000 0.000000 0.000000 -8.844074 0.000000 154.000000 -0.521766 0.846611 0.104928
3.46000004 6.65999985 -0.34999999 148 243 60 0.000000 0.000000 0.000000 0.000000 -8.844074 0.000000 154.000000 -0.642686 0.764697 0.046818
3.46000004 6.65000010 -0.37000000 148 243 60 0.000000 0.000000 0.000000 0.000000 -8.844074 0.000000 154.000000 -0.395578 0.909968 -0.124404
3.45000005 6.65000010 -0.34000000 148 243 60 0.000000 0.000000 0.000000 0.000000 -8.844074 0.000000 154.000000 -0.313118 0.949414 0.023893
3.46000004 6.65999985 -0.34999999 148 243 60 0.000000 0.000000 0.000000 0.000000 -8.844074 0.000000 154.000000 -0.642686 0.764697 0.046818
3.46000004 6.65000010 -0.38999999 148 243 60 0.000000 0.000000 0.000000 0.000000 -8.844074 0.000000 154.000000 -0.584646 0.793125 -0.170711
3.47000003 6.65999985 -0.38000000 148 243 60 0.000000 0.000000 0.000000 0.000000 -8.844074 0.000000 154.000000 -0.180371 0.970932 -0.157345
3.46000004 6.65999985 -0.40000001 148 243 60 0.000000 0.000000 0.000000 0.000000 -8.844074 0.000000 154.000000 -0.402930 0.817008 -0.412486
3.44000006 6.65000010 -0.41000000 148 243 60 0.000000 0.000000 0.000000 0.000000 -8.844074 0.000000 154.000000 -0.563186 0.770592 -0.298345
3.46000004 6.65000010 -0.38000000 148 243 60 0.000000 0.000000 0.000000 0.000000 -8.844074 0.000000 154.000000 -0.480433 0.877023 -0.003993
3.46000004 6.65999985 -0.38000000 148 243 60 0.000000 0.000000 0.000000 0.000000 -8.844074 0.000000 154.000000 0.726400 -0.672258 -0.142874
3.56999993 6.67000008 -0.44000000 148 243 60 0.000000 0.000000 0.000000 0.000000 -8.844074 0.000000 154.000000 0.239997 0.966338 -0.092697
3.56999993 6.67000008 -0.44000000 148 243 60 0.000000 0.000000 0.000000 0.000000 -8.844074 0.000000 154.000000 0.239997 0.966338 -0.092697
3.59999990 6.67000008 -0.44999999 148 243 60 0.000000 0.000000 0.000000 0.000000 -8.844074 0.000000 154.000000 0.356778 0.923181 -0.142989
3.56999993 6.67000008 -0.44999999 148 243 60 0.000000 0.000000 0.000000 0.000000 -8.844074 0.000000 154.000000 -0.229137 0.955408 -0.186258
3.59999990 6.67000008 -0.44000000 148 243 60 0.000000 0.000000 0.000000 0.000000 -8.844074 0.000000 154.000000 0.268398 0.960380 -0.075050
3.59999990 6.67000008 -0.44999999 148 243 60 0.000000 0.000000 0.000000 0.000000 -8.844074 0.000000 154.000000 0.356778 0.923181 -0.142989
3.59999990 6.67000008 -0.41999999 148 243 60 0.000000 0.000000 0.000000 0.000000 -8.844074 0.000000 154.000000 0.284400 0.941130 0.182730
3.58999991 6.67000008 -0.47999999 148 243 60 0.000000 0.000000 0.000000 0.000000 -8.844074 0.000000 154.000000 -0.123495 0.991361 0.044186
3.57999992 6.67000008 -0.49000001 148 243 60 0.000000 0.000000 0.000000 0.000000 -8.844074 0.000000 154.000000 -0.027289 0.999603 0.007075
3.57999992 6.67000008 -0.46000001 148 243 60 0.000000 0.000000 0.000000 0.000000 -8.844074 0.000000 154.000000 0.171369 0.964116 -0.202765
3.57999992 6.63999987 -0.47999999 148 243 60 0.000000 0.000000 0.000000 0.000000 -8.844074 0.000000 154.000000 0.401240 0.844633 -0.354403
3.58999991 6.67000008 -0.47999999 148 243 60 0.000000 0.000000 0.000000 0.000000 -8.844074 0.000000 154.000000 -0.123495 0.991361 0.044186
3.57999992 6.67000008 -0.47999999 148 243 60 0.000000 0.000000 0.000000 0.000000 -8.844074 0.000000 154.000000 0.061631 0.937585 -0.342251
3.53999996 6.67000008 -0.41999999 148 243 60 0.000000 0.000000 0.000000 0.000000 -8.844074 0.000000 154.000000 -0.084597 0.977160 -0.194942
3.53999996 6.67000008 -0.44999999 148 243 60 0.000000 0.000000 0.000000 0.000000 -8.844074 0.000000 154.000000 0.144543 0.989391 -0.014566
3.55999994 6.67000008 -0.41999999 148 243 60 0.000000 0.000000 0.000000 0.000000 -8.844074 0.000000 154.000000 0.291638 0.931268 -0.218376
3.54999995 6.67000008 -0.44999999 148 243 60 0.000000 0.000000 0.000000 0.000000 -8.844074 0.000000 154.000000 -0.047393 0.946588 -0.318945
3.53999996 6.67000008 -0.44999999 148 243 60 0.000000 0.000000 0.000000 0.000000 -8.844074 0.000000 154.000000 0.144543 0.989391 -0.014566
3.53999996 6.67000008 -0.44999999 148 243 60 0.000000 0.000000 0.000000 0.000000 -8.844074 0.000000 154.000000 0.144543 0.989391 -0.014566
3.53999996 6.65999985 -0.47999999 148 243 60 0.000000 0.000000 0.000000 0.000000 -8.844074 0.000000 154.000000 0.001059 0.996132 -0.087863
3.52999997 6.67000008 -0.47999999 148 243 60 0.000000 0.000000 0.000000 0.000000 -8.844074 0.000000 154.000000 0.015986 0.957940 -0.286521
3.52999997 6.65999985 -0.49000001 148 243 60 0.000000 0.000000 0.000000 0.000000 -8.844074 0.000000 154.000000 -0.342444 0.911740 -0.226851
3.52999997 6.67000008 -0.46000001 148 243 60 0.000000 0.000000 0.000000 0.000000 -8.844074 0.000000 154.000000 0.097865 0.993275 -0.061869
3.54999995 6.67000008 -0.46000001 148 243 60 0.000000 0.000000 0.000000 0.000000 -8.844074 0.000000 154.000000 -0.033269 0.987732 0.152576
3.55999994 6.67000008 -0.47000000 148 243 60 0.000000 0.000000 0.000000 0.000000 -8.844074 0.000000 154.000000 -0.003176 0.996311 -0.085761
3.53999996 6.67000008 -0.46000001 148 243 60 0.000000 0.000000 0.000000 0.000000 -8.844074 0.000000 154.000000 0.258801 0.963246 0.071959
3.52999997 6.67000008 -0.49000001 148 243 60 0.000000 0.000000 0.000000 0.000000 -8.844074 0.000000 154.000000 -0.158599 0.985664 -0.057566
3.55999994 6.67000008 -0.47999999 148 243 60 0.000000 0.000000 0.000000 0.000000 -8.844074 0.000000 154.000000 0.219007 0.965445 -0.141253
3.54999995 6.67000008 -0.49000001 148 243 60 0.000000 0.000000 0.000000 0.000000 -8.844074 0.000000 154.000000 0.233038 0.971999 -0.030186
3.54999995 6.67000008 -0.46000001 148 243 60 0.000000 0.000000 0.000000 0.000000 -8.844074 0.000000 154.000000 -0.033269 0.987732 0.152576
3.55999994 6.67000008 -0.47000000 148 243 60 0.000000 0.000000 0.000000 0.000000 -8.844074 0.000000 154.000000 -0.003176 0.996311 -0.085761
3.53999996 6.67000008 -0.47999999 148 243 60 0.000000 0.000000 0.000000 0.000000 -8.844074 0.000000 154.000000 -0.066235 0.997737 -0.011565
3.54999995 6.67000008 -0.46000001 148 243 60 0.000000 0.000000 0.000000 0.000000 -8.844074 0.000000 154.000000 -0.033269 0.987732 0.152576
3.57999992 6.65000010 -0.51999998 148 243 60 0.000000 0.000000 0.000000 0.000000 -8.844074 0.000000 154.000000 -0.135427 0.982149 0.130547
3.59999990 6.65000010 -0.52999997 148 243 60 0.000000 0.000000 0.000000 0.000000 -8.844074 0.000000 154.000000 0.305995 0.950996 -0.044439
3.57999992 6.65999985 -0.52999997 148 243 60 0.000000 0.000000 0.000000 0.000000 -8.844074 0.000000 154.000000 0.242823 0.945228 0.218130
3.59999990 6.65000010 -0.50000000 148 243 60 0.000000 0.000000 0.000000 0.000000 -8.844074 0.000000 154.000000 0.091954 0.985223 -0.144499
3.59999990 6.65999985 -0.50999999 148 243 60 0.000000 0.000000 0.000000 0.000000 -8.844074 0.000000 154.000000 0.525791 0.836822 -0.152553
3.57999992 6.65999985 -0.54000002 148 243 60 0.000000 0.000000 0.000000 0.000000 -8.844074 0.000000 154.000000 0.292033 0.950099 -0.109678
3.58999991 6.63999987 -0.50999999 148 243 60 0.000000 0.000000 0.000000 0.000000 -8.844074 0.000000 154.000000 0.175522 0.892115 -0.416320
3.59999990 6.63999987 -0.56000000 148 243 60 0.000000 0.000000 0.000000 0.000000 -8.844074 0.000000 154.000000 0.464341 0.816163 0.343898
3.57999992 6.65999985 -0.55000001 148 243 60 0.000000 0.000000 0.000000 0.000000 -8.844074 0.000000 154.000000 0.202674 0.963680 0.173907
3.57999992 6.65999985 -0.57999998 148 243 60 0.000000 0.000000 0.000000 0.000000 -8.844074 0.000000 154.000000 -0.160318 0.978067 -0.132977
3.57999992 6.65999985 -0.56999999 148 243 60 0.000000 0.000000 0.000000 0.000000 -8.844074 0.000000 154.000000 0.036235 0.897830 -0.438849
3.57999992 6.65999985 -0.56000000 148 243 60 0.000000 0.000000 0.000000 0.000000 -8.844074 0.000000 154.000000 0.164897 0.980831 0.103824
3.55999994 6.65999985 -0.54000002 148 243 60 0.000000 0.000000 0.000000 0.000000 -8.844074 0.000000 154.000000 -0.230194 0.972600 -0.032541
3.53999996 6.67000008 -0.50000000 148 243 60 0.000000 0.000000 0.000000 0.000000 -8.844074 0.000000 154.000000 -0.247771 0.945909 -0.209442
3.52999997 6.63999987 -0.54000002 148 243 60 0.000000 0.000000 0.000000 0.000000 -8.844074 0.000000 154.000000 -0.037887 0.926270 -0.374950
3.53999996 6.67000008 -0.50000000 148 243 60 0.000000 0.000000 0.000000 0.000000 -8.844074 0.000000 154.000000 -0.247771 0.945909 -0.209442
3.52999997 6.65999985 -0.50999999 148 243 60 0.000000 0.000000 0.000000 0.000000 -8.844074 0.000000 154.000000 -0.305092 0.951020 -0.049785
3.53999996 6.67000008 -0.50000000 148 243 60 0.000000 0.000000 0.000000 0.000000 -8.844074 0.000000 154.000000 -0.247771 0.945909 -0.209442
3.52999997 6.65999985 -0.50000000 148 243 60 0.000000 0.000000 0.000000 0.000000 -8.844074 0.000000 154.000000 -0.383265 0.899143 -0.211306
3.54999995 6.65999985 -0.57999998 148 243 60 0.000000 0.000000 0.000000 0.000000 -8.844074 0.000000 154.000000 -0.302391 0.950922 -0.065625
3.54999995 6.65999985 -0.56000000 148 243 60 0.000000 0.000000 0.000000 0.000000 -8.844074 0.000000 154.000000 0.258456 0.937426 -0.233309
3.54999995 6.65999985 -0.56000000 148 243 60 0.000000 0.000000 0.000000 0.000000 -8.844074 0.000000 154.000000 0.258456 0.937426 -0.233309
3.52999997 6.67000008 -0.55000001 148 243 60 0.000000 0.000000 0.000000 0.000000 -8.844074 0.000000 154.000000 -0.237947 0.953133 -0.186863
3.53999996 6.65999985 -0.55000001 148 243 60 0.000000 0.000000 0.000000 0.000000 -8.844074 0.000000 154.000000 0.033003 0.988950 0.144530
3.54999995 6.65999985 -0.55000001 148 243 60 0.000000 0.000000 0.000000 0.000000 -8.844074 0.000000 154.000000 -0.064673 0.997658 0.022264
3.52999997 6.65999985 -0.56000000 148 243 60 0.000000 0.000000 0.000000 0.000000 -8.844074 0.000000 154.000000 -0.338468 0.921935 -0.188352
3.52999997 6.65999985 -0.56999999 148 243 60 0.000000 0.000000 0.000000 0.000000 -8.844074 0.000000 154.000000 -0.144778 0.987966 -0.054437
3.53999996 6.63999987 -0.56000000 148 243 60 0.000000 0.000000 0.000000 0.000000 -8.844074 0.000000 154.000000 -0.188972 0.919284 -0.345264
3.55999994 6.65999985 -0.55000001 148 243 60 0.000000 0.000000 0.000000 0.000000 -8.844074 0.000000 154.000000 0.043380 0.983667 0.174692
3.53999996 6.65999985 -0.56999999 148 243 60 0.000000 0.000000 0.000000 0.000000 -8.844074 0.000000 154.000000 -0.039722 0.997335 -0.061193
3.55999994 6.65000010 -0.57999998 148 243 60 0.000000 0.000000 0.000000 0.000000 -8.844074 0.000000 154.000000 0.299962 0.949660 -0.090381
3.50999999 6.65999985 -0.44999999 148 243 60 0.000000 0.000000 0.000000 0.000000 -8.844074 0.000000 154.000000 -0.133913 0.970554 -0.200232
3.48000002 6.67000008 -0.41999999 148 243 60 0.000000 0.000000 0.000000 0.000000 -8.844074 0.000000 154.000000 -0.316372 0.941038 0.119817
3.48000002 6.67000008 -0.41999999 148 243 60 0.000000 0.000000 0.000000 0.000000 -8.844074 0.000000 154.000000 -0.316372 0.941038 0.119817
3.49000001 6.67000008 -0.44000000 148 243 60 0.000000 0.000000 0.000000 0.000000 -8.844074 0.000000 154.000000 -0.276063 0.879478 -0.387695
3.49000001 6.65999985 -0.44999999 148 243 60 0.000000 0.000000 0.000000 0.000000 -8.844074 0.000000 154.000000 -0.253507 0.880525 -0.400511
3.49000001 6.65999985 -0.43000001 148 243 60 0.000000 0.000000 0.000000 0.000000 -8.844074 0.000000 154.000000 -0.357777 0.924143 -0.133994
3.48000002 6.65999985 -0.44999999 148 243 60 0.000000 0.000000 0.000000 0.000000 -8.844074 0.000000 154.000000 -0.226434 0.950480 -0.212875
3.49000001 6.65999985 -0.44999999 148 243 60 0.000000 0.000000 0.000000 0.000000 -8.844074 0.000000 154.000000 -0.253507 0.880525 -0.400511
3.51999998 6.65999985 -0.43000001 148 243 60 0.000000 0.000000 0.000000 0.000000 -8.844074 0.000000 154.000000 0.059772 0.925806 -0.373244
3.50999999 6.65999985 -0.44999999 148 243 60 0.000000 0.000000 0.000000 0.000000 -8.844074 0.000000 154.000000 -0.133913 0.970554 -0.200232
3.50999999 6.65999985 -0.43000001 148 243 60 0.000000 0.000000 0.000000 0.000000 -8.844074 0.000000 154.000000 0.021277 0.949960 -0.311647
3.50999999 6.67000008 -0.41999999 148 243 60 0.000000 0.000000 0.000000 0.000000 -8.844074 0.000000 154.000000 0.160166 0.940462 -0.299798
3.48000002 6.65999985 -0.44000000 148 243 60 0.000000 0.000000 0.000000 0.000000 -8.844074 0.000000 154.000000 -0.585930 0.799535 -0.132020
3.50000000 6.67000008 -0.43000001 148 243 60 0.000000 0.000000 0.000000 0.000000 -8.844074 0.000000 154.000000 -0.005713 0.983762 -0.179385
3.48000002 6.65999985 -0.44000000 148 243 60 0.000000 0.000000 0.000000 0.000000 -8.844074 0.000000 154.000000 -0.585930 0.799535 -0.132020
3.48000002 6.65000010 -0.47999999 148 243 60 0.000000 0.000000 0.000000 0.000000 -8.844074 0.000000 154.000000 -0.507840 0.835283 -0.210716
3.49000001 6.65999985 -0.49000001 148 243 60 0.000000 0.000000 0.000000 0.000000 -8.844074 0.000000 154.000000 -0.538355 0.841614 0.043124
3.50999999 6.65999985 -0.47000000 148 243 60 0.000000 0.000000 0.000000 0.000000 -8.844074 0.000000 154.000000 -0.143107 0.987784 0.061664
3.50000000 6.65999985 -0.49000001 148 243 60 0.000000 0.000000 0.000000 0.000000 -8.844074 0.000000 154.000000 -0.232137 0.972595 -0.013095
3.49000001 6.65999985 -0.46000001 148 243 60 0.000000 0.000000 0.000000 0.000000 -8.844074 0.000000 154.000000 -0.299000 0.954072 0.018610
3.49000001 6.65000010 -0.49000001 148 243 60 0.000000 0.000000 0.000000 0.000000 -8.844074 0.000000 154.000000 -0.330637 0.913943 -0.235344
3.49000001 6.65999985 -0.47999999 148 243 60 0.000000 0.000000 0.000000 0.000000 -8.844074 0.000000 154.000000 -0.392971 0.895507 -0.208903
3.48000002 6.65000010 -0.47999999 148 243 60 0.000000 0.000000 0.000000 0.000000 -8.844074 0.000000 154.000000 -0.507840 0.835283 -0.210716
3.48000002 6.65000010 -0.47999999 148 243 60 0.000000 0.000000 0.000000 0.000000 -8.844074 0.000000 154.000000 -0.507840 0.835283 -0.210716
3.45000005 6.65000010 -0.41999999 148 243 60 0.000000 0.000000 0.000000 0.000000 -8.844074 0.000000 154.000000 -0.428493 0.870517 -0.242061
3.45000005 6.63999987 -0.41999999 148 243 60 0.000000 0.000000 0.000000 0.000000 -8.844074 0.000000 154.000000 -0.627563 0.610738 -0.482870
3.45000005 6.63999987 -0.44999999 148 243 60 0.000000 0.000000 0.000000 0.000000 -8.844074 0.000000 154.000000 0.645519 -0.681472 0.344821
3.46000004 6.65000010 -0.43000001 148 243 60 0.000000 0.000000 0.000000 0.000000 -8.844074 0.000000 154.000000 -0.394455 0.917739 -0.046485
3.45000005 6.65000010 -0.44000000 148 243 60 0.000000 0.000000 0.000000 0.000000 -8.844074 0.000000 154.000000 -0.349776 0.894532 -0.278332
3.46000004 6.65999985 -0.44999999 148 243 60 0.000000 0.000000 0.000000 0.000000 -8.844074 0.000000 154.000000 -0.579146 0.741372 -0.339052
3.46000004 6.65000010 -0.41999999 148 243 60 0.000000 0.000000 0.000000 0.000000 -8.844074 0.000000 154.000000 -0.421044 0.906763 0.022438
3.46000004 6.65000010 -0.41999999 148 243 60 0.000000 0.000000 0.000000 0.000000 -8.844074 0.000000 154.000000 -0.421044 0.906763 0.022438
3.45000005 6.63999987 -0.43000001 148 243 60 0.000000 0.000000 0.000000 0.000000 -8.844074 0.000000 154.000000 -0.526274 0.849497 0.037295
3.47000003 6.63999987 -0.47999999 148 243 60 0.000000 0.000000 0.000000 0.000000 -8.844074 0.000000 154.000000 0.630513 -0.637203 0.443199
3.45000005 6.63999987 -0.47999999 148 243 60 0.000000 0.000000 0.000000 0.000000 -8.844074 0.000000 154.000000 -0.594902 0.781478 0.188105
3.47000003 6.65000010 -0.47000000 148 243 60 0.000000 0.000000 0.000000 0.000000 -8.844074 0.000000 154.000000 -0.278254 0.954947 -0.103202
3.45000005 6.63999987 -0.46000001 148 243 60 0.000000 0.000000 0.000000 0.000000 -8.844074 0.000000 154.000000 -0.683470 0.702067 -0.199926
3.47000003 6.65000010 -0.47999999 148 243 60 0.000000 0.000000 0.000000 0.000000 -8.844074 0.000000 154.000000 -0.340264 0.921961 -0.184957
3.45000005 6.65000010 -0.46000001 148 243 60 0.000000 0.000000 0.000000 0.000000 -8.844074 0.000000 154.000000 -0.632213 0.712647 -0.304041
3.45000005 6.63000011 -0.46000001 148 243 60 0.000000 0.000000 0.000000 0.000000 -8.844074 0.000000 154.000000 -0.590642 0.803331 -0.076166
3.45000005 6.63000011 -0.47000000 148 243 60 0.000000 0.000000 0.000000 0.000000 -8.844074 0.000000 154.000000 -0.459663 0.836742 -0.297612
3.50999999 6.67000008 -0.51999998 148 243 60 0.000000 0.000000 0.000000 0.000000 -8.844074 0.000000 154.000000 0.016149 0.995869 -0.089359
3.49000001 6.63999987 -0.51999998 148 243 60 0.000000 0.000000 0.000000 0.000000 -8.844074 0.000000 154.000000 -0.246045 0.956250 0.158267
3.50999999 6.65000010 -0.50999999 148 243 60 0.000000 0.000000 0.000000 0.000000 -8.844074 0.000000 154.000000 -0.452772 0.881108 0.136550
3.50000000 6.65000010 -0.50000000 148 243 60 0.000000 0.000000 0.000000 0.000000 -8.844074 0.000000 154.000000 -0.297829 0.865994 -0.401687
3.51999998 6.65999985 -0.50999999 148 243 60 0.000000 0.000000 0.000000 0.000000 -8.844074 0.000000 154.000000 -0.379044 0.872257 0.309020
3.50999999 6.65000010 -0.50999999 148 243 60 0.000000 0.000000 0.000000 0.000000 -8.844074 0.000000 154.000000 -0.452772 0.881108 0.136550
3.51999998 6.65000010 -0.50000000 148 243 60 0.000000 0.000000 0.000000 0.000000 -8.844074 0.000000 154.000000 -0.298613 0.886837 -0.352634
3.50999999 6.67000008 -0.51999998 148 243 60 0.000000 0.000000 0.000000 0.000000 -8.844074 0.000000 154.000000 0.016149 0.995869 -0.089359
3.51999998 6.65999985 -0.50999999 148 243 60 0.000000 0.000000 0.000000 0.000000 -8.844074 0.000000 154.000000 -0.379044 0.872257 0.309020
3.51999998 6.65999985 -0.51999998 148 243 60 0.000000 0.000000 0.000000 0.000000 -8.844074 0.000000 154.000000 -0.151295 0.987462 0.045042
3.48000002 6.65999985 -0.54000002 148 243 60 0.000000 0.000000 0.000000 0.000000 -8.844074 0.000000 154.000000 -0.628642 0.744076 -0.226186
3.49000001 6.63999987 -0.51999998 148 243 60 0.000000 0.000000 0.000000 0.000000 -8.844074 0.000000 154.000000 -0.246045 0.956250 0.158267
3.51999998 6.67000008 -0.51999998 148 243 60 0.000000 0.000000 0.000000 0.000000 -8.844074 0.000000 154.000000 -0.048831 0.991388 -0.121510
3.50999999 6.67000008 -0.50000000 148 243 60 0.000000 0.000000 0.000000 0.000000 -8.844074 0.000000 154.000000 -0.080121 0.913927 -0.397891
3.50000000 6.67000008 -0.50000000 148 243 60 0.000000 0.000000 0.000000 0.000000 -8.844074 0.000000 154.000000 -0.191758 0.980227 -0.048833
3.51999998 6.63999987 -0.50999999 148 243 60 0.000000 0.000000 0.000000 0.000000 -8.844074 0.000000 154.000000 -0.345764 0.843289 -0.411475
3.48000002 6.65000010 -0.50000000 148 243 60 0.000000 0.000000 0.000000 0.000000 -8.844074 0.000000 154.000000 -0.209691 0.906733 -0.365875
3.51999998 6.65999985 -0.57999998 148 243 60 0.000000 0.000000 0.000000 0.000000 -8.844074 0.000000 154.000000 -0.343349 0.911251 -0.227451
3.48000002 6.63999987 -0.55000001 148 243 60 0.000000 0.000000 0.000000 0.000000 -8.844074 0.000000 154.000000 -0.164074 0.985607 0.040728
3.49000001 6.63999987 -0.55000001 148 243 60 0.000000 0.000000 0.000000 0.000000 -8.844074 0.000000 154.000000 -0.373668 0.854319 -0.361264
3.48000002 6.63999987 -0.55000001 148 243 60 0.000000 0.000000 0.000000 0.000000 -8.844074 0.000000 154.000000 -0.164074 0.985607 0.040728
3.51999998 6.65000010 -0.55000001 148 243 60 0.000000 0.000000 0.000000 0.000000 -8.844074 0.000000 154.000000 -0.023466 0.991139 0.130737
3.51999998 6.65000010 -0.56999999 148 243 60 0.000000 0.000000 0.000000 0.000000 -8.844074 0.000000 154.000000 0.092782 0.976064 -0.196697
3.50000000 6.63000011 -0.54000002 148 243 60 0.000000 0.000000 0.000000 0.000000 -8.844074 0.000000 154.000000 -0.312705 0.938116 0.148842
3.48000002 6.63000011 -0.57999998 148 243 60 0.000000 0.000000 0.000000 0.000000 -8.844074 0.000000 154.000000 -0.314572 0.943716 0.102203
3.44000006 6.65000010 -0.54000002 148 243 60 0.000000 0.000000 0.000000 0.000000 -8.844074 0.000000 154.000000 0.829469 -0.549613 0.099536
3.47000003 6.65000010 -0.50000000 148 243 60 0.000000 0.000000 0.000000 0.000000 -8.844074 0.000000 154.000000 -0.236666 0.919412 -0.314120
3.47000003 6.63999987 -0.52999997 148 243 60 0.000000 0.000000 0.000000 0.000000 -8.844074 0.000000 154.000000 -0.589826 0.798693 -0.119142
3.46000004 6.63999987 -0.50000000 148 243 60 0.000000 0.000000 0.000000 0.000000 -8.844074 0.000000 154.000000 -0.618106 0.783695 -0.061382
3.46000004 6.63000011 -0.50999999 148 243 60 0.000000 0.000000 0.000000 0.000000 -8.844074 0.000000 154.000000 -0.422467 0.897212 0.128577
3.46000004 6.63000011 -0.50999999 148 243 60 0.000000 0.000000 0.000000 0.000000 -8.844074 0.000000 154.000000 -0.422467 0.897212 0.128577
3.44000006 6.61000013 -0.50999999 148 243 60 0.000000 0.000000 0.000000 0.000000 -8.844074 0.000000 154.000000 0.789209 -0.598247 -0.138746
3.44000006 6.61000013 -0.50999999 148 243 60 0.000000 0.000000 0.000000 0.000000 -8.844074 0.000000 154.000000 0.789209 -0.598247 -0.138746
3.45000005 6.61000013 -0.56999999 148 243 60 0.000000 0.000000 0.000000 0.000000 -8.844074 0.000000 154.000000 -0.515568 0.805674 -0.291682
3.47000003 6.61999989 -0.56000000 148 243 60 0.000000 0.000000 0.000000 0.000000 -8.844074 0.000000 154.000000 0.808741 -0.551901 -0.203332
3.45000005 6.59999990 -0.57999998 148 243 60 0.000000 0.000000 0.000000 0.000000 -8.844074 0.000000 154.000000 0.890130 -0.429966 0.150991
3.47000003 6.61000013 -0.56999999 148 243 60 0.000000 0.000000 0.000000 0.000000 -8.844074 0.000000 154.000000 -0.576756 0.795893 0.184136
3.47000003 6.63000011 -0.57999998 148 243 60 0.000000 0.000000 0.000000 0.000000 -8.844074 0.000000 154.000000 -0.544789 0.752947 -0.369155
3.44000006 6.59999990 -0.56999999 148 243 60 0.000000 0.000000 0.000000 0.000000 -8.844074 0.000000 154.000000 0.745060 -0.559203 0.363563
3.46000004 6.59000015 -0.55000001 148 243 60 0.000000 0.000000 0.000000 0.000000 -8.844074 0.000000 154.000000 0.845735 -0.476964 -0.239244
3.44000006 6.59000015 -0.57999998 148 243 60 0.000000 0.000000 0.000000 0.000000 -8.844074 0.000000 154.000000 0.951765 -0.204433 0.228803
3.57999992 6.38999987 -0.27000001 148 243 60 0.000000 0.000000 0.000000 0.000000 -8.844074 0.000000 154.000000 -0.198669 0.937772 -0.284805
3.59999990 6.40000010 -0.25999999 148 243 60 0.000000 0.000000 0.000000 0.000000 -8.844074 0.000000 154.000000 -0.334107 0.818642 -0.467117
3.56999993 6.38999987 -0.28000000 148 243 60 0.000000 0.000000 0.000000 0.000000 -8.844074 0.000000 154.000000 -0.109212 0.913790 -0.391229
3.57999992 6.38999987 -0.28000000 148 243 60 0.000000 0.000000 0.000000 0.000000 -8.844074 0.000000 154.000000 -0.320698 0.813592 -0.484996
3.57999992 6.38999987 -0.28000000 148 243 60 0.000000 0.000000 0.000000 0.000000 -8.844074 0.000000 154.000000 -0.320698 0.813592 -0.484996
3.59999990 6.38999987 -0.28000000 148 243 60 0.000000 0.000000 0.000000 0.000000 -8.844074 0.000000 154.000000 -0.111518 0.973587 -0.199228
3.56999993 6.40000010 -0.25000000 148 243 60 0.000000 0.000000 0.000000 0.000000 -8.844074 0.000000 154.000000 -0.384327 0.921586 -0.054524
3.58999991 6.38999987 -0.27000001 148 243 60 0.000000 0.000000 0.000000 0.000000 -8.844074 0.000000 154.000000 -0.402643 0.915334 0.006473
3.57999992 6.42000008 -0.25999999 148 243 60 0.000000 0.000000 0.000000 0.000000 -8.844074 0.000000 154.000000 -0.561893 0.827118 -0.012304
3.57999992 6.38999987 -0.31999999 148 243 60 0.000000 0.000000 0.000000 0.000000 -8.844074 0.000000 154.000000 -0.555458 0.820664 -0.134076
3.56999993 6.38000011 -0.28999999 148 243 60 0.000000 0.000000 0.000000 0.000000 -8.844074 0.000000 154.000000 -0.338999 0.940243 0.031981
3.56999993 6.38000011 -0.31000000 148 243 60 0.000000 0.000000 0.000000 0.000000 -8.844074 0.000000 154.000000 -0.500606 0.826077 -0.258827
3.52999997 6.40000010 -0.27000001 148 243 60 0.000000 0.000000 0.000000 0.000000 -8.844074 0.000000 154.000000 -0.042590 0.972262 0.229984
3.55999994 6.40000010 -0.25999999 148 243 60 0.000000 0.000000 0.000000 0.000000 -8.844074 0.000000 154.000000 -0.317863 0.900365 -0.297165
3.55999994 6.40000010 -0.25999999 148 243 60 0.000000 0.000000 0.000000 0.000000 -8.844074 0.000000 154.000000 -0.317863 0.900365 -0.297165
3.52999997 6.40000010 -0.27000001 148 243 60 0.000000 0.000000 0.000000 0.000000 -8.844074 0.000000 154.000000 -0.042590 0.972262 0.229984
3.54999995 6.38999987 -0.27000001 148 243 60 0.000000 0.000000 0.000000 0.000000 -8.844074 0.000000 154.000000 -0.331246 0.929985 0.159386
3.54999995 6.38999987 -0.27000001 148 243 60 0.000000 0.000000 0.000000 0.000000 -8.844074 0.000000 154.000000 -0.331246 0.929985 0.159386
3.55999994 6.38999987 -0.28000000 148 243 60 0.000000 0.000000 0.000000 0.000000 -8.844074 0.000000 154.000000 0.089168 0.995886 -0.016115
3.53999996 6.40000010 -0.30000001 148 243 60 0.000000 0.000000 0.000000 0.000000 -8.844074 0.000000 154.000000 -0.363117 0.860664 -0.356936
3.55999994 6.38999987 -0.31999999 148 243 60 0.000000 0.000000 0.000000 0.000000 -8.844074 0.000000 154.000000 -0.179278 0.904994 -0.385806
3.52999997 6.40000010 -0.28999999 148 243 60 0.000000 0.000000 0.000000 0.000000 -8.844074 0.000000 154.000000 -0.229609 0.954691 -0.189327
3.53999996 6.40000010 -0.28999999 148 243 60 0.000000 0.000000 0.000000 0.000000 -8.844074 0.000000 154.000000 -0.150320 0.986987 -0.057098
3.54999995 6.38999987 -0.28999999 148 243 60 0.000000 0.000000 0.000000 0.000000 -8.844074 0.000000 154.000000 0.203606 0.962859 -0.177334
3.55999994 6.36999989 -0.28000000 148 243 60 0.000000 0.000000 0.000000 0.000000 -8.844074 0.000000 154.000000 -0.084382 0.990618 -0.107500
3.58999991 6.42000008 -0.33000001 148 243 60 0.000000 0.000000 0.000000 0.000000 -8.844074 0.000000 154.000000 -0.541562 0.735800 -0.406583
3.59999990 6.40000010 -0.41000000 148 243 60 0.000000 0.000000 0.000000 0.000000 -8.844074 0.000000 154.000000 -0.521950 0.762600 -0.382113
3.58999991 6.38999987 -0.38999999 148 243 60 0.000000 0.000000 0.000000 0.000000 -8.844074 0.000000 154.000000 -0.055859 0.998091 -0.026349
3.59999990 6.38999987 -0.40000001 148 243 60 0.000000 0.000000 0.000000 0.000000 -8.844074 0.000000 154.000000 -0.385435 0.915925 -0.111900
3.58999991 6.38999987 -0.40000001 148 243 60 0.000000 0.000000 0.000000 0.000000 -8.844074 0.000000 154.000000 -0.495868 0.860942 -0.113547
3.57999992 6.38999987 -0.38000000 148 243 60 0.000000 0.000000 0.000000 0.000000 -8.844074 0.000000 154.000000 -0.364968 0.896906 0.249715
3.57999992 6.36999989 -0.34000000 148 243 60 0.000000 0.000000 0.000000 0.000000 -8.844074 0.000000 154.000000 -0.555272 0.830820 -0.037575
3.59999990 6.38000011 -0.34000000 148 243 60 0.000000 0.000000 0.000000 0.000000 -8.844074 0.000000 154.000000 -0.024823 0.977553 -0.209222
3.59999990 6.38000011 -0.37000000 148 243 60 0.000000 0.000000 0.000000 0.000000 -8.844074 0.000000 154.000000 -0.138205 0.988342 -0.063876
3.58999991 6.38000011 -0.36000001 148 243 60 0.000000 0.000000 0.000000 0.000000 -8.844074 0.000000 154.000000 -0.383484 0.918451 0.096895
3.56999993 6.36000013 -0.33000001 148 243 60 0.000000 0.000000 0.000000 0.000000 -8.844074 0.000000 154.000000 -0.591469 0.804228 -0.058154
3.57999992 6.38000011 -0.41000000 148 243 60 0.000000 0.000000 0.000000 0.000000 -8.844074 0.000000 154.000000 -0.395639 0.904113 0.161398
3.56999993 6.38000011 -0.41000000 148 243 60 0.000000 0.000000 0.000000 0.000000 -8.844074 0.000000 154.000000 -0.008701 0.948398 0.316961
3.53999996 6.38999987 -0.34999999 148 243 60 0.000000 0.000000 0.000000 0.000000 -8.844074 0.000000 154.000000 -0.113187 0.928677 -0.353197
3.55999994 6.38999987 -0.36000001 148 243 60 0.000000 0.000000 0.000000 0.000000 -8.844074 0.000000 154.000000 -0.060952 0.906152 -0.418537
3.52999997 6.38999987 -0.34999999 148 243 60 0.000000 0.000000 0.000000 0.000000 -8.844074 0.000000 154.000000 -0.317874 0.937249 0.143248
3.52999997 6.38999987 -0.38999999 148 243 60 0.000000 0.000000 0.000000 0.000000 -8.844074 0.000000 154.000000 0.134864 0.982930 -0.125144
3.53999996 6.36999989 -0.33000001 148 243 60 0.000000 0.000000 0.000000 0.000000 -8.844074 0.000000 154.000000 -0.096052 0.948675 -0.301313
3.52999997 6.36000013 -0.36000001 148 243 60 0.000000 0.000000 0.000000 0.000000 -8.844074 0.000000 154.000000 -0.334399 0.941699 0.037155
3.52999997 6.36999989 -0.34000000 148 243 60 0.000000 0.000000 0.000000 0.000000 -8.844074 0.000000 154.000000 0.334972 0.942187 0.008782
3.52999997 6.36999989 -0.34000000 148 243 60 0.000000 0.000000 0.000000 0.000000 -8.844074 0.000000 154.000000 0.334972 0.942187 0.008782
3.54999995 6.36999989 -0.33000001 148 243 60 0.000000 0.000000 0.000000 0.000000 -8.844074 0.000000 154.000000 -0.074949 0.908923 -0.410174
3.52999997 6.36999989 -0.34999999 148 243 60 0.000000 0.000000 0.000000 0.000000 -8.844074 0.000000 154.000000 0.258551 0.896804 -0.359017
3.52999997 6.36999989 -0.34000000 148 243 60 0.000000 0.000000 0.000000 0.000000 -8.844074 0.000000 154.000000 0.334972 0.942187 0.008782
3.52999997 6.36999989 -0.36000001 148 243 60 0.000000 0.000000 0.000000 0.000000 -8.844074 0.000000 154.000000 0.111573 0.974070 0.196820
3.54999995 6.38000011 -0.37000000 148 243 60 0.000000 0.000000 0.000000 0.000000 -8.844074 0.000000 154.000000 -0.080839 0.958522 -0.273314
3.55999994 6.36999989 -0.34000000 148 243 60 0.000000 0.000000 0.000000 0.000000 -8.844074 0.000000 154.000000 -0.012466 0.987072 -0.159790
3.53999996 6.36999989 -0.41000000 148 243 60 0.000000 0.000000 0.000000 0.000000 -8.844074 0.000000 154.000000 0.013065 0.972723 0.231601
3.53999996 6.36000013 -0.38000000 148 243 60 0.000000 0.000000 0.000000 0.000000 -8.844074 0.000000 154.000000 0.323716 0.935636 -0.140687
3.55999994 6.36999989 -0.38000000 148 243 60 0.000000 0.000000 0.000000 0.000000 -8.844074 0.000000 154.000000 0.014815 0.985757 0.167522
3.53999996 6.36999989 -0.40000001 148 243 60 0.000000 0.000000 0.000000 0.000000 -8.844074 0.000000 154.000000 -0.024025 0.944548 -0.327494
3.52999997 6.36000013 -0.41000000 148 243 60 0.000000 0.000000 0.000000 0.000000 -8.844074 0.000000 154.000000 -0.146975 0.982668 -0.112964
3.54999995 6.36000013 -0.41000000 148 243 60 0.000000 0.000000 0.000000 0.000000 -8.844074 0.000000 154.000000 0.349918 0.929939 -0.113009
3.53999996 6.36000013 -0.40000001 148 243 60 0.000000 0.000000 0.000000 0.000000 -8.844074 0.000000 154.000000 0.155693 0.987570 0.021592
3.53999996 6.38000011 -0.38000000 148 243 60 0.000000 0.000000 0.000000 0.000000 -8.844074 0.000000 154.000000 -0.059002 0.934860 0.350081
3.55999994 6.36000013 -0.41000000 148 243 60 0.000000 0.000000 0.000000 0.000000 -8.844074 0.000000 154.000000 -0.126945 0.885760 -0.446446
3.54999995 6.38000011 -0.38999999 148 243 60 0.000000 0.000000 0.000000 0.000000 -8.844074 0.000000 154.000000 -0.099554 0.920536 -0.377761
3.48000002 6.38999987 -0.27000001 148 243 60 0.000000 0.000000 0.000000 0.000000 -8.844074 0.000000 154.000000 0.082484 0.983828 -0.158991
3.49000001 6.38999987 -0.25999999 148 243 60 0.000000 0.000000 0.000000 0.000000 -8.844074 0.000000 154.000000 0.016065 0.955254 -0.295350
3.48000002 6.38999987 -0.25999999 148 243 60 0.000000 0.000000 0.000000 0.000000 -8.844074 0.000000 154.000000 0.273691 0.908887 -0.314671
