//X Y Z R G B PointSourceId ScanDirectionFlag NumberOfReturns ReturnNumber GpsTime Intensity Classification Nx Ny Nz
-5.21000004 6.73999977 -0.20999999 100 59 176 0.000000 0.000000 0.000000 0.000000 -8.844074 0.000000 175.000000 -0.093294 0.947397 -0.306163
-5.21999979 6.73999977 -0.20999999 100 59 176 0.000000 0.000000 0.000000 0.000000 -8.844074 0.000000 175.000000 0.062950 0.857515 -0.510592
-5.21000004 6.73999977 -0.22000000 100 59 176 0.000000 0.000000 0.000000 0.000000 -8.844074 0.000000 175.000000 0.054565 0.994428 -0.090200
-5.19000006 6.71999979 -0.20000000 100 59 176 0.000000 0.000000 0.000000 0.000000 -8.844074 0.000000 175.000000 0.394396 0.890716 -0.226002
-5.19999981 6.71999979 -0.22000000 100 59 176 0.000000 0.000000 0.000000 0.000000 -8.844074 0.000000 175.000000 0.046747 0.786196 -0.616207
-5.21999979 6.71999979 -0.20999999 100 59 176 0.000000 0.000000 0.000000 0.000000 -8.844074 0.000000 175.000000 -0.122675 0.939613 -0.319496
-5.23999977 6.73999977 -0.20000000 100 59 176 0.000000 0.000000 0.000000 0.000000 -8.844074 0.000000 175.000000 0.081213 0.991716 -0.099515
-5.26000023 6.75000000 -0.19000000 100 59 176 0.000000 0.000000 0.000000 0.000000 -8.844074 0.000000 175.000000 0.391075 0.901927 -0.183271
-5.26999998 6.75000000 -0.20000000 100 59 176 0.000000 0.000000 0.000000 0.000000 -8.844074 0.000000 175.000000 -0.040092 0.988549 -0.145476
-5.26999998 6.76000023 -0.18000001 100 59 176 0.000000 0.000000 0.000000 0.000000 -8.844074 0.000000 175.000000 0.016065 0.955254 -0.295350
-5.25000000 6.75000000 -0.18000001 100 59 176 0.000000 0.000000 0.000000 0.000000 -8.844074 0.000000 175.000000 0.502755 0.703189 -0.502755
-5.23999977 6.75000000 -0.17000000 100 59 176 0.000000 0.000000 0.000000 0.000000 -8.844074 0.000000 175.000000 0.160429 0.963879 -0.212601
-5.26000023 6.76000023 -0.17000000 100 59 176 0.000000 0.000000 0.000000 0.000000 -8.844074 0.000000 175.000000 -0.004008 0.867000 -0.498291
-5.26999998 6.76000023 -0.18000001 100 59 176 0.000000 0.000000 0.000000 0.000000 -8.844074 0.000000 175.000000 0.016065 0.955254 -0.295350
-5.23999977 6.75000000 -0.17000000 100 59 176 0.000000 0.000000 0.000000 0.000000 -8.844074 0.000000 175.000000 0.160429 0.963879 -0.212601
-5.26999998 6.75000000 -0.23999999 100 59 176 0.000000 0.000000 0.000000 0.000000 -8.844074 0.000000 175.000000 0.307098 0.918410 -0.249427
-5.26999998 6.75000000 -0.23999999 100 59 176 0.000000 0.000000 0.000000 0.000000 -8.844074 0.000000 175.000000 0.307098 0.918410 -0.249427
-5.23999977 6.73999977 -0.20999999 100 59 176 0.000000 0.000000 0.000000 0.000000 -8.844074 0.000000 175.000000 0.196517 0.910865 -0.362912
-5.23000002 6.73999977 -0.20999999 100 59 176 0.000000 0.000000 0.000000 0.000000 -8.844074 0.000000 175.000000 0.017465 0.877299 -0.479626
-5.26000023 6.73999977 -0.22000000 100 59 176 0.000000 0.000000 0.000000 0.000000 -8.844074 0.000000 175.000000 0.491859 0.751772 -0.439219
-5.26000023 6.75000000 -0.20999999 100 59 176 0.000000 0.000000 0.000000 0.000000 -8.844074 0.000000 175.000000 0.338468 0.921935 -0.188352
-5.26000023 6.73999977 -0.22000000 100 59 176 0.000000 0.000000 0.000000 0.000000 -8.844074 0.000000 175.000000 0.491859 0.751772 -0.439219
-5.23999977 6.71999979 -0.23000000 100 59 176 0.000000 0.000000 0.000000 0.000000 -8.844074 0.000000 175.000000 0.129390 0.986447 -0.100900
-5.28000021 6.78000021 -0.10000000 100 59 176 0.000000 0.000000 0.000000 0.000000 -8.844074 0.000000 175.000000 -0.241125 0.798045 -0.552253
-5.30000019 6.76999998 -0.10000000 100 59 176 0.000000 0.000000 0.000000 0.000000 -8.844074 0.000000 175.000000 0.320704 0.850564 -0.416761
-5.28999996 6.78000021 -0.09000000 100 59 176 0.000000 0.000000 0.000000 0.000000 -8.844074 0.000000 175.000000 -0.081821 0.819642 -0.567003
-5.28999996 6.78000021 -0.09000000 100 59 176 0.000000 0.000000 0.000000 0.000000 -8.844074 0.000000 175.000000 -0.081821 0.819642 -0.567003
-5.30000019 6.78999996 -0.08000000 100 59 176 0.000000 0.000000 0.000000 0.000000 -8.844074 0.000000 175.000000 0.009465 -0.525959 0.850457
-5.28999996 6.78999996 -0.08000000 100 59 176 0.000000 0.000000 0.000000 0.000000 -8.844074 0.000000 175.000000 0.438807 -0.528225 0.726930
-5.28999996 6.76999998 -0.13000000 100 59 176 0.000000 0.000000 0.000000 0.000000 -8.844074 0.000000 175.000000 0.052020 0.828101 -0.558160
-5.30000019 6.76999998 -0.15000001 100 59 176 0.000000 0.000000 0.000000 0.000000 -8.844074 0.000000 175.000000 0.421238 0.885041 -0.198143
-5.28000021 6.76999998 -0.13000000 100 59 176 0.000000 0.000000 0.000000 0.000000 -8.844074 0.000000 175.000000 -0.174104 0.879299 -0.443307
-5.28999996 6.76999998 -0.14000000 100 59 176 0.000000 0.000000 0.000000 0.000000 -8.844074 0.000000 175.000000 0.151480 0.926944 -0.343261
-5.34000015 6.78000021 -0.11000000 100 59 176 0.000000 0.000000 0.000000 0.000000 -8.844074 0.000000 175.000000 -0.196484 0.895096 -0.400246
-5.34000015 6.78000021 -0.09000000 100 59 176 0.000000 0.000000 0.000000 0.000000 -8.844074 0.000000 175.000000 -0.006122 0.956210 -0.292617
-5.32000017 6.78000021 -0.10000000 100 59 176 0.000000 0.000000 0.000000 0.000000 -8.844074 0.000000 175.000000 -0.043552 0.961869 -0.270020
-5.34999990 6.78999996 -0.09000000 100 59 176 0.000000 0.000000 0.000000 0.000000 -8.844074 0.000000 175.000000 -0.271104 0.853136 -0.445714
-5.34000015 6.78000021 -0.11000000 100 59 176 0.000000 0.000000 0.000000 0.000000 -8.844074 0.000000 175.000000 -0.196484 0.895096 -0.400246
-5.34999990 6.80000019 -0.10000000 100 59 176 0.000000 0.000000 0.000000 0.000000 -8.844074 0.000000 175.000000 0.247869 -0.727819 0.639407
-5.34000015 6.78000021 -0.11000000 100 59 176 0.000000 0.000000 0.000000 0.000000 -8.844074 0.000000 175.000000 -0.196484 0.895096 -0.400246
-5.32999992 6.78999996 -0.08000000 100 59 176 0.000000 0.000000 0.000000 0.000000 -8.844074 0.000000 175.000000 0.064843 0.742088 -0.667159
-5.34000015 6.78000021 -0.14000000 100 59 176 0.000000 0.000000 0.000000 0.000000 -8.844074 0.000000 175.000000 0.031838 0.979902 -0.196924
-5.32000017 6.78000021 -0.13000000 100 59 176 0.000000 0.000000 0.000000 0.000000 -8.844074 0.000000 175.000000 -0.025450 0.968313 -0.248441
-5.34999990 6.76999998 -0.13000000 100 59 176 0.000000 0.000000 0.000000 0.000000 -8.844074 0.000000 175.000000 -0.061629 0.962171 -0.265383
-5.34999990 6.76999998 -0.13000000 100 59 176 0.000000 0.000000 0.000000 0.000000 -8.844074 0.000000 175.000000 -0.061629 0.962171 -0.265383
-5.34999990 6.76999998 -0.15000001 100 59 176 0.000000 0.000000 0.000000 0.000000 -8.844074 0.000000 175.000000 -0.048259 0.935185 -0.350857
-5.34999990 6.78000021 -0.20000000 100 59 176 0.000000 0.000000 0.000000 0.000000 -8.844074 0.000000 175.000000 0.485132 0.873781 0.033973
-5.34000015 6.78000021 -0.19000000 100 59 176 0.000000 0.000000 0.000000 0.000000 -8.844074 0.000000 175.000000 0.407083 0.912972 -0.027666
-5.34000015 6.76999998 -0.20999999 100 59 176 0.000000 0.000000 0.000000 0.000000 -8.844074 0.000000 175.000000 0.512656 0.856290 -0.062860
-5.34999990 6.76999998 -0.22000000 100 59 176 0.000000 0.000000 0.000000 0.000000 -8.844074 0.000000 175.000000 0.622507 0.736554 0.264526
-5.34000015 6.76999998 -0.23000000 100 59 176 0.000000 0.000000 0.000000 0.000000 -8.844074 0.000000 175.000000 0.123495 0.991361 0.044186
-5.34000015 6.76999998 -0.23000000 100 59 176 0.000000 0.000000 0.000000 0.000000 -8.844074 0.000000 175.000000 0.123495 0.991361 0.044186
-5.34000015 6.76999998 -0.19000000 100 59 176 0.000000 0.000000 0.000000 0.000000 -8.844074 0.000000 175.000000 0.534533 0.843188 -0.057522
-5.32000017 6.76999998 -0.19000000 100 59 176 0.000000 0.000000 0.000000 0.000000 -8.844074 0.000000 175.000000 0.053642 0.935464 -0.349327
-5.28999996 6.76000023 -0.14000000 100 59 176 0.000000 0.000000 0.000000 0.000000 -8.844074 0.000000 175.000000 0.225670 0.892355 -0.390866
-5.28000021 6.75000000 -0.12000000 100 59 176 0.000000 0.000000 0.000000 0.000000 -8.844074 0.000000 175.000000 -0.053955 -0.499434 0.864670
-5.30000019 6.73999977 -0.19000000 100 59 176 0.000000 0.000000 0.000000 0.000000 -8.844074 0.000000 175.000000 0.307538 0.946372 0.098993
-5.30000019 6.75000000 -0.19000000 100 59 176 0.000000 0.000000 0.000000 0.000000 -8.844074 0.000000 175.000000 0.191738 0.978231 0.079382
-5.28999996 6.73999977 -0.17000000 100 59 176 0.000000 0.000000 0.000000 0.000000 -8.844074 0.000000 175.000000 0.176705 0.804990 -0.566363
-5.30999994 6.76000023 -0.19000000 100 59 176 0.000000 0.000000 0.000000 0.000000 -8.844074 0.000000 175.000000 0.388485 0.921190 -0.022088
-5.28000021 6.76000023 -0.18000001 100 59 176 0.000000 0.000000 0.000000 0.000000 -8.844074 0.000000 175.000000 -0.049620 0.952964 -0.298994
-5.30000019 6.76000023 -0.18000001 100 59 176 0.000000 0.000000 0.000000 0.000000 -8.844074 0.000000 175.000000 0.085289 0.975259 -0.203951
-5.30999994 6.76000023 -0.19000000 100 59 176 0.000000 0.000000 0.000000 0.000000 -8.844074 0.000000 175.000000 0.388485 0.921190 -0.022088
-5.28000021 6.76000023 -0.17000000 100 59 176 0.000000 0.000000 0.000000 0.000000 -8.844074 0.000000 175.000000 0.088628 0.991018 -0.100138
-5.28999996 6.75000000 -0.20000000 100 59 176 0.000000 0.000000 0.000000 0.000000 -8.844074 0.000000 175.000000 0.038020 0.996126 -0.079299
-5.28999996 6.76000023 -0.18000001 100 59 176 0.000000 0.000000 0.000000 0.000000 -8.844074 0.000000 175.000000 -0.042513 0.972934 -0.227139
-5.28999996 6.75000000 -0.23000000 100 59 176 0.000000 0.000000 0.000000 0.000000 -8.844074 0.000000 175.000000 0.721603 0.669513 0.176188
-5.28999996 6.76000023 -0.22000000 100 59 176 0.000000 0.000000 0.000000 0.000000 -8.844074 0.000000 175.000000 0.725302 0.684766 -0.070938
-5.30999994 6.76000023 -0.20999999 100 59 176 0.000000 0.000000 0.000000 0.000000 -8.844074 0.000000 175.000000 0.072246 0.994767 -0.072246
-5.30000019 6.76000023 -0.20999999 100 59 176 0.000000 0.000000 0.000000 0.000000 -8.844074 0.000000 175.000000 0.042077 0.990518 0.130780
-5.30000019 6.73999977 -0.22000000 100 59 176 0.000000 0.000000 0.000000 0.000000 -8.844074 0.000000 175.000000 0.297345 0.926179 -0.231901
-5.30999994 6.76000023 -0.23999999 100 59 176 0.000000 0.000000 0.000000 0.000000 -8.844074 0.000000 175.000000 0.408343 0.898355 -0.161905
-5.34000015 6.76000023 -0.18000001 100 59 176 0.000000 0.000000 0.000000 0.000000 -8.844074 0.000000 175.000000 0.639492 0.744277 -0.192618
-5.32000017 6.76000023 -0.23000000 100 59 176 0.000000 0.000000 0.000000 0.000000 -8.844074 0.000000 175.000000 0.233138 0.922541 0.307514
-5.32000017 6.76000023 -0.20999999 100 59 176 0.000000 0.000000 0.000000 0.000000 -8.844074 0.000000 175.000000 0.131804 0.975347 -0.176993
-4.98000002 6.67000008 -0.23999999 100 59 176 0.000000 0.000000 0.000000 0.000000 -8.844074 0.000000 175.000000 -0.413089 0.691799 -0.592260
-5.44000006 7.03999996 0.15000001 100 59 176 0.000000 0.000000 0.000000 0.000000 -8.844074 0.000000 175.000000 0.680816 0.149447 0.717046
-5.40000010 7.01999998 0.10000000 100 59 176 0.000000 0.000000 0.000000 0.000000 -8.844074 0.000000 175.000000 0.706734 0.219977 0.672411
-5.42999983 7.05000019 0.06000000 100 59 176 0.000000 0.000000 0.000000 0.000000 -8.844074 0.000000 175.000000 0.398800 0.603991 0.690039
-5.40000010 7.03999996 0.09000000 100 59 176 0.000000 0.000000 0.000000 0.000000 -8.844074 0.000000 175.000000 0.548296 0.558419 0.622527
-5.44999981 7.03999996 0.07000000 100 59 176 0.000000 0.000000 0.000000 0.000000 -8.844074 0.000000 175.000000 0.503368 0.031375 0.863502
-5.44999981 7.01999998 0.02000000 100 59 176 0.000000 0.000000 0.000000 0.000000 -8.844074 0.000000 175.000000 0.136427 0.398030 0.907171
-5.44999981 6.98000002 0.27000001 100 59 176 0.000000 0.000000 0.000000 0.000000 -8.844074 0.000000 175.000000 0.428440 -0.252825 0.867478
-5.48999977 6.96000004 0.31000000 100 59 176 0.000000 0.000000 0.000000 0.000000 -8.844074 0.000000 175.000000 0.440047 -0.370148 0.818138
-5.42999983 6.98999977 0.25000000 100 59 176 0.000000 0.000000 0.000000 0.000000 -8.844074 0.000000 175.000000 0.459742 -0.076392 0.884761
-5.38000011 6.96999979 0.12000000 100 59 176 0.000000 0.000000 0.000000 0.000000 -8.844074 0.000000 175.000000 0.541808 0.143203 0.828213
-5.42999983 6.96000004 0.16000000 100 59 176 0.000000 0.000000 0.000000 0.000000 -8.844074 0.000000 175.000000 0.510447 0.270053 0.816404
-5.40999985 6.92000008 0.15000001 100 59 176 0.000000 0.000000 0.000000 0.000000 -8.844074 0.000000 175.000000 0.504186 -0.490874 0.710520
-5.44000006 6.92000008 0.14000000 100 59 176 0.000000 0.000000 0.000000 0.000000 -8.844074 0.000000 175.000000 0.220452 -0.553441 0.803184
-5.40999985 6.92000008 0.15000001 100 59 176 0.000000 0.000000 0.000000 0.000000 -8.844074 0.000000 175.000000 0.504186 -0.490874 0.710520
-5.42000008 6.92999983 0.15000001 100 59 176 0.000000 0.000000 0.000000 0.000000 -8.844074 0.000000 175.000000 0.227876 -0.198211 0.953302
-5.44000006 6.90999985 0.10000000 100 59 176 0.000000 0.000000 0.000000 0.000000 -8.844074 0.000000 175.000000 0.278945 -0.041279 0.959420
-5.42000008 6.90000010 0.13000000 100 59 176 0.000000 0.000000 0.000000 0.000000 -8.844074 0.000000 175.000000 0.658045 -0.347800 0.667842
-5.44000006 6.88000011 0.12000000 100 59 176 0.000000 0.000000 0.000000 0.000000 -8.844074 0.000000 175.000000 0.179226 -0.644909 0.742947
-5.42000008 6.88999987 0.13000000 100 59 176 0.000000 0.000000 0.000000 0.000000 -8.844074 0.000000 175.000000 0.405263 -0.603760 0.686466
-5.42000008 6.88999987 0.13000000 100 59 176 0.000000 0.000000 0.000000 0.000000 -8.844074 0.000000 175.000000 0.405263 -0.603760 0.686466
-5.46000004 6.94000006 0.20999999 100 59 176 0.000000 0.000000 0.000000 0.000000 -8.844074 0.000000 175.000000 0.107293 -0.499271 0.859777
-5.51000023 6.98999977 0.23000000 100 59 176 0.000000 0.000000 0.000000 0.000000 -8.844074 0.000000 175.000000 0.297441 0.196898 0.934216
-5.46000004 6.92000008 0.25000000 100 59 176 0.000000 0.000000 0.000000 0.000000 -8.844074 0.000000 175.000000 0.605392 -0.416310 0.678370
-5.46000004 6.90999985 0.11000000 100 59 176 0.000000 0.000000 0.000000 0.000000 -8.844074 0.000000 175.000000 0.423236 0.019777 0.905804
-5.46000004 6.88999987 0.17000000 100 59 176 0.000000 0.000000 0.000000 0.000000 -8.844074 0.000000 175.000000 0.282338 -0.494481 0.822055
-5.44999981 6.88999987 0.16000000 100 59 176 0.000000 0.000000 0.000000 0.000000 -8.844074 0.000000 175.000000 0.108127 -0.439529 0.891697
-5.55000019 6.98000002 0.13000000 100 59 176 0.000000 0.000000 0.000000 0.000000 -8.844074 0.000000 175.000000 0.274397 -0.522139 0.807513
-5.55000019 6.98999977 0.10000000 100 59 176 0.000000 0.000000 0.000000 0.000000 -8.844074 0.000000 175.000000 0.345854 0.148620 0.926443
-5.55999994 6.96000004 0.12000000 100 59 176 0.000000 0.000000 0.000000 0.000000 -8.844074 0.000000 175.000000 0.281652 -0.603085 0.746298
-5.55000019 6.94999981 0.11000000 100 59 176 0.000000 0.000000 0.000000 0.000000 -8.844074 0.000000 175.000000 0.125333 -0.573582 0.809503
-5.57000017 6.94999981 0.12000000 100 59 176 0.000000 0.000000 0.000000 0.000000 -8.844074 0.000000 175.000000 0.076865 -0.688881 0.720787
-5.42000008 6.98999977 0.08000000 100 59 176 0.000000 0.000000 0.000000 0.000000 -8.844074 0.000000 175.000000 0.648857 0.344858 0.678276
-5.42000008 6.98999977 0.08000000 100 59 176 0.000000 0.000000 0.000000 0.000000 -8.844074 0.000000 175.000000 0.648857 0.344858 0.678276
-5.36999989 6.92999983 0.09000000 100 59 176 0.000000 0.000000 0.000000 0.000000 -8.844074 0.000000 175.000000 0.394403 0.027516 0.918526
-5.38999987 6.90000010 0.05000000 100 59 176 0.000000 0.000000 0.000000 0.000000 -8.844074 0.000000 175.000000 0.487537 -0.371687 0.790036
-5.38000011 6.88999987 0.07000000 100 59 176 0.000000 0.000000 0.000000 0.000000 -8.844074 0.000000 175.000000 0.224104 -0.557943 0.799048
-5.36999989 6.86999989 0.03000000 100 59 176 0.000000 0.000000 0.000000 0.000000 -8.844074 0.000000 175.000000 0.465344 -0.259549 0.846220
-5.40999985 6.90999985 0.04000000 100 59 176 0.000000 0.000000 0.000000 0.000000 -8.844074 0.000000 175.000000 0.342706 -0.532563 0.773905
-5.40999985 6.84999990 0.06000000 100 59 176 0.000000 0.000000 0.000000 0.000000 -8.844074 0.000000 175.000000 0.340216 -0.463643 0.818100
-5.42000008 6.84999990 0.02000000 100 59 176 0.000000 0.000000 0.000000 0.000000 -8.844074 0.000000 175.000000 -0.144099 -0.373537 0.916355
-5.40999985 6.86000013 0.03000000 100 59 176 0.000000 0.000000 0.000000 0.000000 -8.844074 0.000000 175.000000 -0.025326 -0.446537 0.894407
-5.42000008 6.86000013 0.03000000 100 59 176 0.000000 0.000000 0.000000 0.000000 -8.844074 0.000000 175.000000 -0.354729 0.714362 -0.603203
-5.42999983 6.84999990 0.01000000 100 59 176 0.000000 0.000000 0.000000 0.000000 -8.844074 0.000000 175.000000 -0.190539 0.800265 -0.568569
-5.36999989 6.86000013 0.00000000 100 59 176 0.000000 0.000000 0.000000 0.000000 -8.844074 0.000000 175.000000 0.094164 -0.139458 0.985741
-5.36000013 6.84999990 -0.02000000 100 59 176 0.000000 0.000000 0.000000 0.000000 -8.844074 0.000000 175.000000 -0.421393 0.637920 -0.644582
-5.36999989 6.86000013 0.00000000 100 59 176 0.000000 0.000000 0.000000 0.000000 -8.844074 0.000000 175.000000 0.094164 -0.139458 0.985741
-5.38000011 6.84999990 0.00000000 100 59 176 0.000000 0.000000 0.000000 0.000000 -8.844074 0.000000 175.000000 0.288921 -0.123823 0.949312
-5.38000011 6.86000013 0.00000000 100 59 176 0.000000 0.000000 0.000000 0.000000 -8.844074 0.000000 175.000000 0.329203 -0.491419 0.806308
-5.51000023 6.94000006 0.02000000 100 59 176 0.000000 0.000000 0.000000 0.000000 -8.844074 0.000000 175.000000 0.424127 -0.643676 0.637023
-5.48000002 6.92999983 0.02000000 100 59 176 0.000000 0.000000 0.000000 0.000000 -8.844074 0.000000 175.000000 -0.117249 -0.373818 0.920061
-5.46999979 6.86999989 0.07000000 100 59 176 0.000000 0.000000 0.000000 0.000000 -8.844074 0.000000 175.000000 0.470594 -0.523806 0.710048
-5.46999979 6.86999989 0.07000000 100 59 176 0.000000 0.000000 0.000000 0.000000 -8.844074 0.000000 175.000000 0.470594 -0.523806 0.710048
-5.44999981 6.86000013 0.06000000 100 59 176 0.000000 0.000000 0.000000 0.000000 -8.844074 0.000000 175.000000 -0.026681 -0.652985 0.756901
-5.46000004 6.86999989 0.07000000 100 59 176 0.000000 0.000000 0.000000 0.000000 -8.844074 0.000000 175.000000 0.403951 -0.226390 0.886325
-5.46999979 6.86000013 0.04000000 100 59 176 0.000000 0.000000 0.000000 0.000000 -8.844074 0.000000 175.000000 -0.049938 -0.660607 0.749069
-5.48000002 6.84999990 0.04000000 100 59 176 0.000000 0.000000 0.000000 0.000000 -8.844074 0.000000 175.000000 -0.049556 -0.601752 0.797144
-5.46000004 6.84999990 0.03000000 100 59 176 0.000000 0.000000 0.000000 0.000000 -8.844074 0.000000 175.000000 -0.067423 0.787556 -0.612544
-5.51999998 6.84999990 0.01000000 100 59 176 0.000000 0.000000 0.000000 0.000000 -8.844074 0.000000 175.000000 0.060047 0.853223 -0.518078
-5.48000002 6.84999990 -0.01000000 100 59 176 0.000000 0.000000 0.000000 0.000000 -8.844074 0.000000 175.000000 0.083820 0.902783 -0.421849
-5.50000000 6.84999990 0.00000000 100 59 176 0.000000 0.000000 0.000000 0.000000 -8.844074 0.000000 175.000000 -0.136696 -0.674467 0.725540
-5.51999998 6.88000011 0.00000000 100 59 176 0.000000 0.000000 0.000000 0.000000 -8.844074 0.000000 175.000000 0.191555 0.767752 -0.611443
-5.36000013 6.82000017 0.01000000 100 59 176 0.000000 0.000000 0.000000 0.000000 -8.844074 0.000000 175.000000 -0.159679 -0.694986 0.701069
-5.36999989 6.82999992 0.01000000 100 59 176 0.000000 0.000000 0.000000 0.000000 -8.844074 0.000000 175.000000 0.003840 -0.385249 0.922805
-5.38999987 6.84000015 -0.02000000 100 59 176 0.000000 0.000000 0.000000 0.000000 -8.844074 0.000000 175.000000 0.395875 -0.727687 0.560138
-5.38999987 6.82999992 0.00000000 100 59 176 0.000000 0.000000 0.000000 0.000000 -8.844074 0.000000 175.000000 -0.114007 -0.670715 0.732901
-5.36999989 6.82000017 -0.03000000 100 59 176 0.000000 0.000000 0.000000 0.000000 -8.844074 0.000000 175.000000 -0.353276 0.779143 -0.517815
-5.36999989 6.82999992 -0.03000000 100 59 176 0.000000 0.000000 0.000000 0.000000 -8.844074 0.000000 175.000000 -0.365669 0.710020 -0.601795
-5.36000013 6.84000015 -0.03000000 100 59 176 0.000000 0.000000 0.000000 0.000000 -8.844074 0.000000 175.000000 -0.409582 0.731984 -0.544465
-5.38000011 6.84000015 -0.02000000 100 59 176 0.000000 0.000000 0.000000 0.000000 -8.844074 0.000000 175.000000 -0.347489 0.716186 -0.605251
-5.38999987 6.82999992 -0.03000000 100 59 176 0.000000 0.000000 0.000000 0.000000 -8.844074 0.000000 175.000000 0.227398 -0.675921 0.701014
-5.38000011 6.82000017 -0.04000000 100 59 176 0.000000 0.000000 0.000000 0.000000 -8.844074 0.000000 175.000000 0.383772 -0.543814 0.746315
-5.36000013 6.82000017 -0.04000000 100 59 176 0.000000 0.000000 0.000000 0.000000 -8.844074 0.000000 175.000000 -0.212967 -0.436358 0.874206
-5.36000013 6.80999994 -0.05000000 100 59 176 0.000000 0.000000 0.000000 0.000000 -8.844074 0.000000 175.000000 0.083453 -0.510619 0.855747
-5.36999989 6.80999994 -0.05000000 100 59 176 0.000000 0.000000 0.000000 0.000000 -8.844074 0.000000 175.000000 0.185831 -0.664997 0.723357
-5.38999987 6.82000017 -0.04000000 100 59 176 0.000000 0.000000 0.000000 0.000000 -8.844074 0.000000 175.000000 -0.107707 0.733294 -0.671326
-5.36999989 6.82999992 -0.04000000 100 59 176 0.000000 0.000000 0.000000 0.000000 -8.844074 0.000000 175.000000 0.390541 -0.581692 0.713521
-5.38000011 6.80999994 -0.06000000 100 59 176 0.000000 0.000000 0.000000 0.000000 -8.844074 0.000000 175.000000 -0.038671 0.905437 -0.422715
-5.36999989 6.82999992 -0.04000000 100 59 176 0.000000 0.000000 0.000000 0.000000 -8.844074 0.000000 175.000000 0.390541 -0.581692 0.713521
-5.36999989 6.80999994 -0.05000000 100 59 176 0.000000 0.000000 0.000000 0.000000 -8.844074 0.000000 175.000000 0.185831 -0.664997 0.723357
-5.38999987 6.80000019 -0.03000000 100 59 176 0.000000 0.000000 0.000000 0.000000 -8.844074 0.000000 175.000000 -0.122175 0.802232 -0.584378
-5.36000013 6.80000019 -0.05000000 100 59 176 0.000000 0.000000 0.000000 0.000000 -8.844074 0.000000 175.000000 0.099088 -0.524160 0.845836
-5.36999989 6.80000019 -0.05000000 100 59 176 0.000000 0.000000 0.000000 0.000000 -8.844074 0.000000 175.000000 0.012048 -0.480598 0.876858
-5.38999987 6.80000019 -0.06000000 100 59 176 0.000000 0.000000 0.000000 0.000000 -8.844074 0.000000 175.000000 -0.172381 0.828927 -0.532132
-5.36999989 6.80000019 -0.05000000 100 59 176 0.000000 0.000000 0.000000 0.000000 -8.844074 0.000000 175.000000 0.012048 -0.480598 0.876858
-5.36999989 6.78999996 -0.06000000 100 59 176 0.000000 0.000000 0.000000 0.000000 -8.844074 0.000000 175.000000 0.310961 0.832875 -0.457847
-5.42999983 6.82999992 -0.02000000 100 59 176 0.000000 0.000000 0.000000 0.000000 -8.844074 0.000000 175.000000 0.091254 0.806800 -0.583735
-5.40999985 6.82999992 -0.02000000 100 59 176 0.000000 0.000000 0.000000 0.000000 -8.844074 0.000000 175.000000 0.116806 0.776244 -0.619517
-5.42000008 6.82000017 0.00000000 100 59 176 0.000000 0.000000 0.000000 0.000000 -8.844074 0.000000 175.000000 0.033907 0.880226 -0.473342
-5.40000010 6.82999992 0.00000000 100 59 176 0.000000 0.000000 0.000000 0.000000 -8.844074 0.000000 175.000000 -0.046330 -0.821309 0.568599
-5.40999985 6.82000017 -0.02000000 100 59 176 0.000000 0.000000 0.000000 0.000000 -8.844074 0.000000 175.000000 0.157800 0.798018 -0.581606
-5.42000008 6.82000017 -0.04000000 100 59 176 0.000000 0.000000 0.000000 0.000000 -8.844074 0.000000 175.000000 -0.202429 0.856201 -0.475334
-5.40000010 6.80999994 -0.05000000 100 59 176 0.000000 0.000000 0.000000 0.000000 -8.844074 0.000000 175.000000 0.320807 0.837227 -0.442870
-5.42000008 6.82000017 -0.04000000 100 59 176 0.000000 0.000000 0.000000 0.000000 -8.844074 0.000000 175.000000 -0.202429 0.856201 -0.475334
-5.42000008 6.82000017 -0.05000000 100 59 176 0.000000 0.000000 0.000000 0.000000 -8.844074 0.000000 175.000000 0.049830 -0.767384 0.639249
-5.42999983 6.82000017 -0.05000000 100 59 176 0.000000 0.000000 0.000000 0.000000 -8.844074 0.000000 175.000000 -0.272204 0.733836 -0.622407
-5.40000010 6.80999994 -0.06000000 100 59 176 0.000000 0.000000 0.000000 0.000000 -8.844074 0.000000 175.000000 0.253389 0.766464 -0.590193
-5.40000010 6.80000019 -0.06000000 100 59 176 0.000000 0.000000 0.000000 0.000000 -8.844074 0.000000 175.000000 0.138321 0.801669 -0.581545
-5.40000010 6.80000019 -0.06000000 100 59 176 0.000000 0.000000 0.000000 0.000000 -8.844074 0.000000 175.000000 0.138321 0.801669 -0.581545
-5.40999985 6.78999996 -0.07000000 100 59 176 0.000000 0.000000 0.000000 0.000000 -8.844074 0.000000 175.000000 0.262167 -0.713412 0.649856
-5.40999985 6.80000019 -0.07000000 100 59 176 0.000000 0.000000 0.000000 0.000000 -8.844074 0.000000 175.000000 0.170375 0.800612 -0.574450
-5.44999981 6.84000015 0.08000000 100 59 176 0.000000 0.000000 0.000000 0.000000 -8.844074 0.000000 175.000000 0.068738 -0.184508 0.980424
-5.46999979 6.84000015 0.03000000 100 59 176 0.000000 0.000000 0.000000 0.000000 -8.844074 0.000000 175.000000 0.358455 -0.493478 0.792458
-5.46999979 6.84000015 -0.02000000 100 59 176 0.000000 0.000000 0.000000 0.000000 -8.844074 0.000000 175.000000 -0.187996 0.784082 -0.591500
-5.46000004 6.84000015 -0.02000000 100 59 176 0.000000 0.000000 0.000000 0.000000 -8.844074 0.000000 175.000000 0.072632 0.827435 -0.556845
-5.46000004 6.80999994 -0.02000000 100 59 176 0.000000 0.000000 0.000000 0.000000 -8.844074 0.000000 175.000000 0.023359 -0.542761 0.839562
-5.48000002 6.82000017 -0.02000000 100 59 176 0.000000 0.000000 0.000000 0.000000 -8.844074 0.000000 175.000000 0.055494 -0.621822 0.781190
-5.44999981 6.82999992 -0.03000000 100 59 176 0.000000 0.000000 0.000000 0.000000 -8.844074 0.000000 175.000000 0.058925 0.722914 -0.688421
-5.44999981 6.80999994 -0.06000000 100 59 176 0.000000 0.000000 0.000000 0.000000 -8.844074 0.000000 175.000000 0.135689 0.889837 -0.435635
-5.44999981 6.78999996 -0.06000000 100 59 176 0.000000 0.000000 0.000000 0.000000 -8.844074 0.000000 175.000000 0.233391 0.731502 -0.640651
-5.44999981 6.80000019 -0.07000000 100 59 176 0.000000 0.000000 0.000000 0.000000 -8.844074 0.000000 175.000000 0.009712 0.761664 -0.647900
-5.46999979 6.78999996 -0.05000000 100 59 176 0.000000 0.000000 0.000000 0.000000 -8.844074 0.000000 175.000000 0.023040 0.868762 -0.494693
-5.46000004 6.80000019 -0.04000000 100 59 176 0.000000 0.000000 0.000000 0.000000 -8.844074 0.000000 175.000000 -0.111360 0.966397 -0.231679
-5.48000002 6.80000019 -0.06000000 100 59 176 0.000000 0.000000 0.000000 0.000000 -8.844074 0.000000 175.000000 0.558963 0.735995 -0.381931
-5.48000002 6.80000019 -0.04000000 100 59 176 0.000000 0.000000 0.000000 0.000000 -8.844074 0.000000 175.000000 0.137776 0.937152 -0.320569
-5.46000004 6.78999996 -0.07000000 100 59 176 0.000000 0.000000 0.000000 0.000000 -8.844074 0.000000 175.000000 0.583512 0.727347 -0.361222
-5.50000000 6.82999992 -0.02000000 100 59 176 0.000000 0.000000 0.000000 0.000000 -8.844074 0.000000 175.000000 0.297311 -0.689441 0.660513
-5.48999977 6.82999992 -0.03000000 100 59 176 0.000000 0.000000 0.000000 0.000000 -8.844074 0.000000 175.000000 0.221134 0.858963 -0.461824
-5.51000023 6.82999992 -0.01000000 100 59 176 0.000000 0.000000 0.000000 0.000000 -8.844074 0.000000 175.000000 0.092361 0.856822 -0.507273
-5.51999998 6.84000015 0.00000000 100 59 176 0.000000 0.000000 0.000000 0.000000 -8.844074 0.000000 175.000000 -0.245267 -0.513672 0.822183
-5.51999998 6.82000017 -0.01000000 100 59 176 0.000000 0.000000 0.000000 0.000000 -8.844074 0.000000 175.000000 -0.117213 -0.648380 0.752240
-5.51000023 6.82000017 -0.07000000 100 59 176 0.000000 0.000000 0.000000 0.000000 -8.844074 0.000000 175.000000 0.082304 0.798497 -0.596346
-5.51000023 6.82999992 -0.04000000 100 59 176 0.000000 0.000000 0.000000 0.000000 -8.844074 0.000000 175.000000 0.421020 0.670636 -0.610728
-5.51000023 6.78000021 -0.06000000 100 59 176 0.000000 0.000000 0.000000 0.000000 -8.844074 0.000000 175.000000 0.413561 0.815945 -0.403981
-5.48999977 6.80000019 -0.05000000 100 59 176 0.000000 0.000000 0.000000 0.000000 -8.844074 0.000000 175.000000 0.476650 0.837609 -0.266863
-5.51999998 6.78999996 -0.04000000 100 59 176 0.000000 0.000000 0.000000 0.000000 -8.844074 0.000000 175.000000 0.168775 0.927568 -0.333366
-5.51000023 6.78000021 -0.07000000 100 59 176 0.000000 0.000000 0.000000 0.000000 -8.844074 0.000000 175.000000 0.542307 0.798614 -0.260995
-5.48999977 6.80000019 -0.05000000 100 59 176 0.000000 0.000000 0.000000 0.000000 -8.844074 0.000000 175.000000 0.476650 0.837609 -0.266863
-5.48999977 6.80000019 -0.04000000 100 59 176 0.000000 0.000000 0.000000 0.000000 -8.844074 0.000000 175.000000 0.272099 0.940605 -0.203038
-5.38000011 6.78000021 -0.10000000 100 59 176 0.000000 0.000000 0.000000 0.000000 -8.844074 0.000000 175.000000 -0.139426 0.843894 -0.518077
-5.36999989 6.78999996 -0.11000000 100 59 176 0.000000 0.000000 0.000000 0.000000 -8.844074 0.000000 175.000000 0.175857 0.944718 -0.276736
-5.38000011 6.78999996 -0.09000000 100 59 176 0.000000 0.000000 0.000000 0.000000 -8.844074 0.000000 175.000000 0.026268 0.828130 -0.559921
-5.38000011 6.78000021 -0.11000000 100 59 176 0.000000 0.000000 0.000000 0.000000 -8.844074 0.000000 175.000000 -0.143008 0.950267 -0.276660
-5.36000013 6.78000021 -0.10000000 100 59 176 0.000000 0.000000 0.000000 0.000000 -8.844074 0.000000 175.000000 -0.117629 0.837924 -0.532960
-5.38000011 6.78000021 -0.11000000 100 59 176 0.000000 0.000000 0.000000 0.000000 -8.844074 0.000000 175.000000 -0.143008 0.950267 -0.276660
-5.36000013 6.78999996 -0.08000000 100 59 176 0.000000 0.000000 0.000000 0.000000 -8.844074 0.000000 175.000000 -0.004023 -0.510937 0.859609
-5.36999989 6.78000021 -0.10000000 100 59 176 0.000000 0.000000 0.000000 0.000000 -8.844074 0.000000 175.000000 0.176006 0.736164 -0.653517
-5.36999989 6.78999996 -0.13000000 100 59 176 0.000000 0.000000 0.000000 0.000000 -8.844074 0.000000 175.000000 -0.196487 0.943964 -0.265189
-5.36000013 6.78000021 -0.12000000 100 59 176 0.000000 0.000000 0.000000 0.000000 -8.844074 0.000000 175.000000 -0.031742 0.994949 -0.095226
-5.42999983 6.78000021 -0.11000000 100 59 176 0.000000 0.000000 0.000000 0.000000 -8.844074 0.000000 175.000000 -0.015124 0.815309 -0.578828
-5.42000008 6.78000021 -0.11000000 100 59 176 0.000000 0.000000 0.000000 0.000000 -8.844074 0.000000 175.000000 0.006361 0.929942 -0.367651
-5.44000006 6.78999996 -0.09000000 100 59 176 0.000000 0.000000 0.000000 0.000000 -8.844074 0.000000 175.000000 -0.194238 0.892327 -0.407462
-5.42999983 6.78999996 -0.10000000 100 59 176 0.000000 0.000000 0.000000 0.000000 -8.844074 0.000000 175.000000 0.039593 0.946396 -0.320574
-5.42000008 6.78000021 -0.10000000 100 59 176 0.000000 0.000000 0.000000 0.000000 -8.844074 0.000000 175.000000 0.021870 0.930106 -0.366639
-5.42999983 6.80000019 -0.08000000 100 59 176 0.000000 0.000000 0.000000 0.000000 -8.844074 0.000000 175.000000 0.242098 0.902366 -0.356545
-5.44000006 6.78000021 -0.12000000 100 59 176 0.000000 0.000000 0.000000 0.000000 -8.844074 0.000000 175.000000 0.354042 0.799397 -0.485406
-5.40000010 6.78000021 -0.14000000 100 59 176 0.000000 0.000000 0.000000 0.000000 -8.844074 0.000000 175.000000 0.613338 0.779667 -0.126232
-5.44000006 6.76999998 -0.13000000 100 59 176 0.000000 0.000000 0.000000 0.000000 -8.844074 0.000000 175.000000 0.501675 0.759866 -0.413432
-5.40000010 6.78000021 -0.13000000 100 59 176 0.000000 0.000000 0.000000 0.000000 -8.844074 0.000000 175.000000 0.623947 0.745922 -0.233003
-5.40999985 6.78999996 -0.13000000 100 59 176 0.000000 0.000000 0.000000 0.000000 -8.844074 0.000000 175.000000 0.310014 0.906535 -0.286506
-5.44000006 6.76999998 -0.14000000 100 59 176 0.000000 0.000000 0.000000 0.000000 -8.844074 0.000000 175.000000 0.283902 0.930803 -0.230229
-5.40000010 6.78999996 -0.12000000 100 59 176 0.000000 0.000000 0.000000 0.000000 -8.844074 0.000000 175.000000 0.260897 0.873174 -0.411704
-5.40999985 6.78999996 -0.13000000 100 59 176 0.000000 0.000000 0.000000 0.000000 -8.844074 0.000000 175.000000 0.310014 0.906535 -0.286506
-5.38999987 6.78000021 -0.17000000 100 59 176 0.000000 0.000000 0.000000 0.000000 -8.844074 0.000000 175.000000 0.236926 0.883628 -0.403817
-5.38000011 6.78000021 -0.18000001 100 59 176 0.000000 0.000000 0.000000 0.000000 -8.844074 0.000000 175.000000 0.338229 0.878181 0.338229
-5.38999987 6.78999996 -0.20000000 100 59 176 0.000000 0.000000 0.000000 0.000000 -8.844074 0.000000 175.000000 0.197185 0.967884 0.155944
-5.36999989 6.78000021 -0.20000000 100 59 176 0.000000 0.000000 0.000000 0.000000 -8.844074 0.000000 175.000000 0.281117 0.930937 -0.233087
-5.38999987 6.78000021 -0.20999999 100 59 176 0.000000 0.000000 0.000000 0.000000 -8.844074 0.000000 175.000000 0.070023 0.934085 0.350117
-5.36999989 6.76999998 -0.20999999 100 59 176 0.000000 0.000000 0.000000 0.000000 -8.844074 0.000000 175.000000 0.394888 0.876016 0.276875
-5.36999989 6.78000021 -0.22000000 100 59 176 0.000000 0.000000 0.000000 0.000000 -8.844074 0.000000 175.000000 0.089799 0.931496 0.352494
-5.38999987 6.76999998 -0.23000000 100 59 176 0.000000 0.000000 0.000000 0.000000 -8.844074 0.000000 175.000000 0.602570 0.589068 0.538431
-5.38999987 6.80000019 -0.22000000 100 59 176 0.000000 0.000000 0.000000 0.000000 -8.844074 0.000000 175.000000 0.567418 0.712995 0.411916
-5.38000011 6.80000019 -0.23999999 100 59 176 0.000000 0.000000 0.000000 0.000000 -8.844074 0.000000 175.000000 0.133970 0.822961 0.552076
-5.38000011 6.78999996 -0.22000000 100 59 176 0.000000 0.000000 0.000000 0.000000 -8.844074 0.000000 175.000000 0.315137 0.849163 0.423805
-5.42000008 6.80999994 -0.23999999 100 59 176 0.000000 0.000000 0.000000 0.000000 -8.844074 0.000000 175.000000 0.747640 0.541507 0.384454
-5.40999985 6.82999992 -0.23999999 100 59 176 0.000000 0.000000 0.000000 0.000000 -8.844074 0.000000 175.000000 0.390177 0.480840 0.785210
-5.44000006 6.82999992 -0.23999999 100 59 176 0.000000 0.000000 0.000000 0.000000 -8.844074 0.000000 175.000000 0.303890 0.424212 0.853051
-5.42000008 6.84000015 -0.23000000 100 59 176 0.000000 0.000000 0.000000 0.000000 -8.844074 0.000000 175.000000 0.558679 0.451946 0.695430
-5.42000008 6.76999998 -0.20000000 100 59 176 0.000000 0.000000 0.000000 0.000000 -8.844074 0.000000 175.000000 0.449729 0.880658 0.148946
-5.42000008 6.76999998 -0.17000000 100 59 176 0.000000 0.000000 0.000000 0.000000 -8.844074 0.000000 175.000000 0.228084 0.969044 0.094510
-5.42000008 6.76999998 -0.20000000 100 59 176 0.000000 0.000000 0.000000 0.000000 -8.844074 0.000000 175.000000 0.449729 0.880658 0.148946
-5.42000008 6.76999998 -0.17000000 100 59 176 0.000000 0.000000 0.000000 0.000000 -8.844074 0.000000 175.000000 0.228084 0.969044 0.094510
-5.40999985 6.76999998 -0.20000000 100 59 176 0.000000 0.000000 0.000000 0.000000 -8.844074 0.000000 175.000000 0.343280 0.918737 -0.195143
-5.42000008 6.76999998 -0.19000000 100 59 176 0.000000 0.000000 0.000000 0.000000 -8.844074 0.000000 175.000000 0.113689 0.991044 0.070051
-5.44000006 6.78999996 -0.19000000 100 59 176 0.000000 0.000000 0.000000 0.000000 -8.844074 0.000000 175.000000 0.782789 0.601798 0.158368
-5.40999985 6.78000021 -0.22000000 100 59 176 0.000000 0.000000 0.000000 0.000000 -8.844074 0.000000 175.000000 0.281671 0.929939 0.236377
-5.40000010 6.73999977 -0.11000000 100 59 176 0.000000 0.000000 0.000000 0.000000 -8.844074 0.000000 175.000000 0.381314 0.914873 -0.132692
-5.42999983 6.76000023 -0.14000000 100 59 176 0.000000 0.000000 0.000000 0.000000 -8.844074 0.000000 175.000000 0.383722 0.917356 0.105902
-5.40999985 6.76000023 -0.15000001 100 59 176 0.000000 0.000000 0.000000 0.000000 -8.844074 0.000000 175.000000 0.230098 0.967430 0.105515
-5.40999985 6.76000023 -0.16000000 100 59 176 0.000000 0.000000 0.000000 0.000000 -8.844074 0.000000 175.000000 0.361334 0.929334 -0.076000
-5.42999983 6.76000023 -0.12000000 100 59 176 0.000000 0.000000 0.000000 0.000000 -8.844074 0.000000 175.000000 -0.130076 0.957829 -0.256209
-5.40000010 6.76000023 -0.12000000 100 59 176 0.000000 0.000000 0.000000 0.000000 -8.844074 0.000000 175.000000 0.149666 0.988255 0.030847
-5.40999985 6.76000023 -0.14000000 100 59 176 0.000000 0.000000 0.000000 0.000000 -8.844074 0.000000 175.000000 -0.033066 0.988571 -0.147088
-5.36000013 6.73000002 -0.18000001 100 59 176 0.000000 0.000000 0.000000 0.000000 -8.844074 0.000000 175.000000 0.112048 0.984332 -0.136144
-5.36000013 6.76000023 -0.20999999 100 59 176 0.000000 0.000000 0.000000 0.000000 -8.844074 0.000000 175.000000 0.477325 0.806184 0.349612
-5.38000011 6.71999979 -0.20000000 100 59 176 0.000000 0.000000 0.000000 0.000000 -8.844074 0.000000 175.000000 0.121708 0.979814 0.158590
-5.40000010 6.76000023 -0.19000000 100 59 176 0.000000 0.000000 0.000000 0.000000 -8.844074 0.000000 175.000000 0.433785 0.900734 0.022552
-5.44000006 6.75000000 -0.20000000 100 59 176 0.000000 0.000000 0.000000 0.000000 -8.844074 0.000000 175.000000 0.079613 0.996757 0.011677
-5.40000010 6.75000000 -0.20999999 100 59 176 0.000000 0.000000 0.000000 0.000000 -8.844074 0.000000 175.000000 0.596016 0.800852 -0.058321
-5.48000002 6.78000021 -0.08000000 100 59 176 0.000000 0.000000 0.000000 0.000000 -8.844074 0.000000 175.000000 0.390730 0.916242 0.088493
-5.48000002 6.78000021 -0.09000000 100 59 176 0.000000 0.000000 0.000000 0.000000 -8.844074 0.000000 175.000000 0.292732 0.945645 0.141644
-5.44999981 6.78999996 -0.08000000 100 59 176 0.000000 0.000000 0.000000 0.000000 -8.844074 0.000000 175.000000 -0.069401 0.962786 -0.261202
-5.48000002 6.78000021 -0.10000000 100 59 176 0.000000 0.000000 0.000000 0.000000 -8.844074 0.000000 175.000000 0.468291 0.849635 -0.242535
-5.46999979 6.78000021 -0.11000000 100 59 176 0.000000 0.000000 0.000000 0.000000 -8.844074 0.000000 175.000000 0.098211 0.965527 -0.241063
-5.48000002 6.78999996 -0.10000000 100 59 176 0.000000 0.000000 0.000000 0.000000 -8.844074 0.000000 175.000000 0.233310 0.969420 -0.076106
-5.48000002 6.78000021 -0.09000000 100 59 176 0.000000 0.000000 0.000000 0.000000 -8.844074 0.000000 175.000000 0.292732 0.945645 0.141644
-5.44999981 6.76999998 -0.13000000 100 59 176 0.000000 0.000000 0.000000 0.000000 -8.844074 0.000000 175.000000 -0.015343 0.999312 -0.033754
-5.46000004 6.76999998 -0.12000000 100 59 176 0.000000 0.000000 0.000000 0.000000 -8.844074 0.000000 175.000000 0.301386 0.932193 0.200457
-5.46999979 6.76999998 -0.12000000 100 59 176 0.000000 0.000000 0.000000 0.000000 -8.844074 0.000000 175.000000 -0.061698 0.996906 -0.048709
-5.46000004 6.80000019 -0.12000000 100 59 176 0.000000 0.000000 0.000000 0.000000 -8.844074 0.000000 175.000000 0.410391 0.844189 -0.344854
-5.44999981 6.78999996 -0.14000000 100 59 176 0.000000 0.000000 0.000000 0.000000 -8.844074 0.000000 175.000000 0.515472 0.814477 0.266301
-5.44999981 6.82000017 -0.23000000 100 59 176 0.000000 0.000000 0.000000 0.000000 -8.844074 0.000000 175.000000 0.220342 0.661025 0.717283
-5.46999979 6.76999998 -0.17000000 100 59 176 0.000000 0.000000 0.000000 0.000000 -8.844074 0.000000 175.000000 0.225195 0.969976 0.091839
-5.46999979 6.76999998 -0.18000001 100 59 176 0.000000 0.000000 0.000000 0.000000 -8.844074 0.000000 175.000000 0.137022 0.989089 -0.054118
-5.51999998 6.75000000 -0.11000000 100 59 176 0.000000 0.000000 0.000000 0.000000 -8.844074 0.000000 175.000000 0.423577 0.842464 -0.332922
-5.51999998 6.75000000 -0.11000000 100 59 176 0.000000 0.000000 0.000000 0.000000 -8.844074 0.000000 175.000000 0.423577 0.842464 -0.332922
-5.51999998 6.75000000 -0.11000000 100 59 176 0.000000 0.000000 0.000000 0.000000 -8.844074 0.000000 175.000000 0.423577 0.842464 -0.332922
-5.51999998 6.75000000 -0.11000000 100 59 176 0.000000 0.000000 0.000000 0.000000 -8.844074 0.000000 175.000000 0.423577 0.842464 -0.332922
-5.50000000 6.76000023 -0.09000000 100 59 176 0.000000 0.000000 0.000000 0.000000 -8.844074 0.000000 175.000000 0.336865 0.934833 -0.112288
-5.50000000 6.73999977 -0.12000000 100 59 176 0.000000 0.000000 0.000000 0.000000 -8.844074 0.000000 175.000000 0.300391 0.953522 -0.023682
-5.51999998 6.75000000 -0.13000000 100 59 176 0.000000 0.000000 0.000000 0.000000 -8.844074 0.000000 175.000000 0.036137 0.995403 0.088699
-5.51000023 6.73999977 -0.19000000 100 59 176 0.000000 0.000000 0.000000 0.000000 -8.844074 0.000000 175.000000 0.204700 0.956605 0.207376
-5.50000000 6.73000002 -0.19000000 100 59 176 0.000000 0.000000 0.000000 0.000000 -8.844074 0.000000 175.000000 0.100798 0.965873 0.238597
-5.55000019 6.75000000 -0.10000000 100 59 176 0.000000 0.000000 0.000000 0.000000 -8.844074 0.000000 175.000000 0.569401 0.821545 -0.029093
-5.55000019 6.75000000 -0.10000000 100 59 176 0.000000 0.000000 0.000000 0.000000 -8.844074 0.000000 175.000000 0.569401 0.821545 -0.029093
-5.55999994 6.75000000 -0.10000000 100 59 176 0.000000 0.000000 0.000000 0.000000 -8.844074 0.000000 175.000000 0.469897 0.880540 -0.062010
-5.55999994 6.75000000 -0.10000000 100 59 176 0.000000 0.000000 0.000000 0.000000 -8.844074 0.000000 175.000000 0.469897 0.880540 -0.062010
-5.55999994 6.76000023 -0.11000000 100 59 176 0.000000 0.000000 0.000000 0.000000 -8.844074 0.000000 175.000000 0.195930 0.966673 0.164789
-5.55999994 6.71999979 -0.11000000 100 59 176 0.000000 0.000000 0.000000 0.000000 -8.844074 0.000000 175.000000 0.097117 0.969913 -0.223244
-5.55000019 6.71999979 -0.10000000 100 59 176 0.000000 0.000000 0.000000 0.000000 -8.844074 0.000000 175.000000 0.119513 0.991390 0.053496
-5.57999992 6.73000002 -0.12000000 100 59 176 0.000000 0.000000 0.000000 0.000000 -8.844074 0.000000 175.000000 0.519146 0.843795 0.136002
-5.57999992 6.73000002 -0.13000000 100 59 176 0.000000 0.000000 0.000000 0.000000 -8.844074 0.000000 175.000000 0.663294 0.740112 -0.110795
-5.57000017 6.71999979 -0.13000000 100 59 176 0.000000 0.000000 0.000000 0.000000 -8.844074 0.000000 175.000000 0.409936 0.911411 -0.035820
-5.57000017 6.71000004 -0.13000000 100 59 176 0.000000 0.000000 0.000000 0.000000 -8.844074 0.000000 175.000000 0.490855 0.824325 -0.282047
-5.57999992 6.71999979 -0.14000000 100 59 176 0.000000 0.000000 0.000000 0.000000 -8.844074 0.000000 175.000000 0.126748 0.983804 -0.126748
-5.57000017 6.73000002 -0.20000000 100 59 176 0.000000 0.000000 0.000000 0.000000 -8.844074 0.000000 175.000000 0.282974 0.946405 0.155703
-5.59999990 6.71999979 -0.20000000 100 59 176 0.000000 0.000000 0.000000 0.000000 -8.844074 0.000000 175.000000 0.494408 0.732518 0.467951
-5.57000017 6.71999979 -0.17000000 100 59 176 0.000000 0.000000 0.000000 0.000000 -8.844074 0.000000 175.000000 0.501676 0.733473 0.458627
-5.57000017 6.71000004 -0.17000000 100 59 176 0.000000 0.000000 0.000000 0.000000 -8.844074 0.000000 175.000000 0.388684 0.739647 0.549406
-5.65000010 6.75000000 -0.16000000 100 59 176 0.000000 0.000000 0.000000 0.000000 -8.844074 0.000000 175.000000 0.734374 0.678421 0.020982
-5.63000011 6.67999983 -0.11000000 100 59 176 0.000000 0.000000 0.000000 0.000000 -8.844074 0.000000 175.000000 0.201447 0.971759 0.122895
-5.65000010 6.69000006 -0.13000000 100 59 176 0.000000 0.000000 0.000000 0.000000 -8.844074 0.000000 175.000000 0.456353 0.763861 0.456353
-5.65000010 6.69999981 -0.14000000 100 59 176 0.000000 0.000000 0.000000 0.000000 -8.844074 0.000000 175.000000 0.200057 0.843851 0.497887
-5.67000008 6.69000006 -0.11000000 100 59 176 0.000000 0.000000 0.000000 0.000000 -8.844074 0.000000 175.000000 0.665757 0.665757 0.336948
-5.67000008 6.69999981 -0.13000000 100 59 176 0.000000 0.000000 0.000000 0.000000 -8.844074 0.000000 175.000000 0.484713 0.750895 0.448565
-5.61999989 6.75000000 -0.18000001 100 59 176 0.000000 0.000000 0.000000 0.000000 -8.844074 0.000000 175.000000 0.304479 0.773153 0.556351
-5.65000010 6.69999981 -0.17000000 100 59 176 0.000000 0.000000 0.000000 0.000000 -8.844074 0.000000 175.000000 0.632623 0.770965 0.073494
-5.92999983 6.92000008 0.10000000 100 59 176 0.000000 0.000000 0.000000 0.000000 -8.844074 0.000000 220.000000 0.309443 0.941841 -0.131074
-6.01000023 6.96999979 0.10000000 100 59 176 0.000000 0.000000 0.000000 0.000000 -8.844074 0.000000 220.000000 0.530996 0.845969 0.048779
-5.94999981 6.92000008 0.11000000 100 59 176 0.000000 0.000000 0.000000 0.000000 -8.844074 0.000000 220.000000 0.486117 0.743182 -0.459751
-5.94999981 6.92999983 0.12000000 100 59 176 0.000000 0.000000 0.000000 0.000000 -8.844074 0.000000 220.000000 0.503223 0.821049 -0.269528
-5.94999981 6.92999983 0.12000000 100 59 176 0.000000 0.000000 0.000000 0.000000 -8.844074 0.000000 220.000000 0.503223 0.821049 -0.269528
-5.96000004 6.92999983 0.12000000 100 59 176 0.000000 0.000000 0.000000 0.000000 -8.844074 0.000000 220.000000 0.665420 0.715287 -0.213495
-5.94999981 6.84999990 0.10000000 100 59 176 0.000000 0.000000 0.000000 0.000000 -8.844074 0.000000 220.000000 0.340055 0.796654 -0.499705
-5.94999981 6.84999990 0.10000000 100 59 176 0.000000 0.000000 0.000000 0.000000 -8.844074 0.000000 220.000000 0.340055 0.796654 -0.499705
-6.01999998 6.88000011 0.10000000 100 59 176 0.000000 0.000000 0.000000 0.000000 -8.844074 0.000000 220.000000 0.407933 0.906363 -0.109989
-6.03000021 6.86999989 0.11000000 100 59 176 0.000000 0.000000 0.000000 0.000000 -8.844074 0.000000 220.000000 0.578507 0.740554 -0.341919
-5.86000013 6.84999990 -0.01000000 100 59 176 0.000000 0.000000 0.000000 0.000000 -8.844074 0.000000 220.000000 0.530607 0.798273 -0.284985
-5.71000004 6.69000006 -0.02000000 100 59 176 0.000000 0.000000 0.000000 0.000000 -8.844074 0.000000 175.000000 0.085596 0.982545 0.165164
-5.71000004 6.69999981 -0.04000000 100 59 176 0.000000 0.000000 0.000000 0.000000 -8.844074 0.000000 175.000000 0.194785 0.980840 -0.003458
-5.76999998 6.76000023 -0.01000000 100 59 176 0.000000 0.000000 0.000000 0.000000 -8.844074 0.000000 220.000000 0.458908 0.886120 0.064771
-5.76999998 6.76000023 -0.02000000 100 59 176 0.000000 0.000000 0.000000 0.000000 -8.844074 0.000000 220.000000 0.441303 0.856646 -0.267225
-5.75000000 6.71000004 0.00000000 100 59 176 0.000000 0.000000 0.000000 0.000000 -8.844074 0.000000 220.000000 0.222907 0.844619 -0.486755
-5.73999977 6.71000004 -0.01000000 100 59 176 0.000000 0.000000 0.000000 0.000000 -8.844074 0.000000 220.000000 0.295872 0.863088 -0.409315
-5.76999998 6.71000004 -0.02000000 100 59 176 0.000000 0.000000 0.000000 0.000000 -8.844074 0.000000 220.000000 0.201305 0.974016 -0.103778
-5.76000023 6.67999983 -0.07000000 100 59 176 0.000000 0.000000 0.000000 0.000000 -8.844074 0.000000 175.000000 0.391439 0.920203 0.001283
-5.86000013 6.80000019 0.06000000 100 59 176 0.000000 0.000000 0.000000 0.000000 -8.844074 0.000000 220.000000 0.477639 0.866720 0.143727
-5.84999990 6.80000019 0.08000000 100 59 176 0.000000 0.000000 0.000000 0.000000 -8.844074 0.000000 220.000000 0.643566 0.765359 -0.006920
-5.80999994 6.82000017 -0.01000000 100 59 176 0.000000 0.000000 0.000000 0.000000 -8.844074 0.000000 220.000000 0.515225 0.800580 -0.305964
-5.82000017 6.82000017 -0.01000000 100 59 176 0.000000 0.000000 0.000000 0.000000 -8.844074 0.000000 220.000000 0.618556 0.784819 0.038043
-5.80000019 6.80000019 -0.02000000 100 59 176 0.000000 0.000000 0.000000 0.000000 -8.844074 0.000000 220.000000 0.655998 0.737809 -0.159076
-5.80000019 6.80000019 -0.03000000 100 59 176 0.000000 0.000000 0.000000 0.000000 -8.844074 0.000000 220.000000 0.518711 0.802505 -0.294830
-5.78000021 6.78999996 -0.03000000 100 59 176 0.000000 0.000000 0.000000 0.000000 -8.844074 0.000000 220.000000 0.702874 0.708624 -0.061807
-5.84000015 6.82999992 -0.01000000 100 59 176 0.000000 0.000000 0.000000 0.000000 -8.844074 0.000000 220.000000 0.607678 0.785102 -0.119761
-5.86000013 6.84000015 0.00000000 100 59 176 0.000000 0.000000 0.000000 0.000000 -8.844074 0.000000 220.000000 0.088243 0.973162 0.212530
-5.82000017 6.69999981 -0.06000000 100 59 176 0.000000 0.000000 0.000000 0.000000 -8.844074 0.000000 220.000000 0.227891 0.973059 -0.034967
-5.80000019 6.67999983 -0.04000000 100 59 176 0.000000 0.000000 0.000000 0.000000 -8.844074 0.000000 220.000000 0.649312 0.758248 -0.058768
