//X Y Z R G B PointSourceId ScanDirectionFlag NumberOfReturns ReturnNumber GpsTime Intensity Classification Nx Ny Nz
8.52999973 4.32000017 -0.09000000 80 36 197 0.000000 0.000000 0.000000 0.000000 -8.844074 0.000000 122.000000 0.068577 0.968805 -0.238149
8.52999973 4.32000017 -0.09000000 80 36 197 0.000000 0.000000 0.000000 0.000000 -8.844074 0.000000 122.000000 0.068577 0.968805 -0.238149
8.52999973 4.34000015 -0.12000000 80 36 197 0.000000 0.000000 0.000000 0.000000 -8.844074 0.000000 122.000000 0.489665 0.868489 -0.077168
8.52000046 4.32999992 -0.14000000 80 36 197 0.000000 0.000000 0.000000 0.000000 -8.844074 0.000000 122.000000 0.161149 0.962964 -0.216176
8.52000046 4.32000017 -0.16000000 80 36 197 0.000000 0.000000 0.000000 0.000000 -8.844074 0.000000 122.000000 0.247796 0.930297 -0.270452
8.53999996 4.32000017 -0.12000000 80 36 197 0.000000 0.000000 0.000000 0.000000 -8.844074 0.000000 122.000000 0.504231 0.773370 -0.384253
8.55000019 4.32000017 -0.14000000 80 36 197 0.000000 0.000000 0.000000 0.000000 -8.844074 0.000000 122.000000 0.344490 0.935043 -0.083795
8.53999996 4.32000017 -0.15000001 80 36 197 0.000000 0.000000 0.000000 0.000000 -8.844074 0.000000 122.000000 0.160224 0.887725 -0.431593
8.56999969 4.32000017 -0.19000000 80 36 197 0.000000 0.000000 0.000000 0.000000 -8.844074 0.000000 122.000000 -0.151118 0.940741 -0.303596
8.56999969 4.32999992 -0.22000000 80 36 197 0.000000 0.000000 0.000000 0.000000 -8.844074 0.000000 122.000000 -0.425731 0.904841 -0.003906
8.57999992 4.32999992 -0.22000000 80 36 197 0.000000 0.000000 0.000000 0.000000 -8.844074 0.000000 122.000000 -0.001326 0.876523 -0.481358
8.56000042 4.32000017 -0.23000000 80 36 197 0.000000 0.000000 0.000000 0.000000 -8.844074 0.000000 122.000000 -0.087469 0.983723 -0.156964
8.56999969 4.34000015 -0.23999999 80 36 197 0.000000 0.000000 0.000000 0.000000 -8.844074 0.000000 122.000000 -0.255199 0.966882 0.003594
8.56999969 4.34000015 -0.23999999 80 36 197 0.000000 0.000000 0.000000 0.000000 -8.844074 0.000000 122.000000 -0.255199 0.966882 0.003594
8.53999996 4.30000019 -0.06000000 80 36 197 0.000000 0.000000 0.000000 0.000000 -8.844074 0.000000 122.000000 0.115840 0.988736 -0.094778
8.52999973 4.30999994 -0.04000000 80 36 197 0.000000 0.000000 0.000000 0.000000 -8.844074 0.000000 122.000000 0.187874 0.963018 -0.193129
8.52000046 4.30999994 -0.05000000 80 36 197 0.000000 0.000000 0.000000 0.000000 -8.844074 0.000000 122.000000 0.217888 0.972402 -0.083420
8.52999973 4.28999996 -0.10000000 80 36 197 0.000000 0.000000 0.000000 0.000000 -8.844074 0.000000 122.000000 0.445155 0.771276 -0.454939
8.52000046 4.30999994 -0.23999999 80 36 197 0.000000 0.000000 0.000000 0.000000 -8.844074 0.000000 122.000000 0.567592 0.765849 -0.302183
8.53999996 4.30000019 -0.22000000 80 36 197 0.000000 0.000000 0.000000 0.000000 -8.844074 0.000000 122.000000 0.479595 0.789636 -0.382707
8.48999977 4.40999985 0.01000000 80 36 197 0.000000 0.000000 0.000000 0.000000 -8.844074 0.000000 122.000000 0.913941 0.241883 -0.325890
8.47000027 4.40999985 -0.01000000 80 36 197 0.000000 0.000000 0.000000 0.000000 -8.844074 0.000000 122.000000 0.650154 0.610041 -0.452935
8.50000000 4.40000010 0.00000000 80 36 197 0.000000 0.000000 0.000000 0.000000 -8.844074 0.000000 122.000000 0.863341 0.504619 -0.001339
8.44999981 4.46000004 -0.06000000 80 36 197 0.000000 0.000000 0.000000 0.000000 -8.844074 0.000000 122.000000 0.935843 -0.006315 -0.352362
8.44999981 4.42999983 -0.06000000 80 36 197 0.000000 0.000000 0.000000 0.000000 -8.844074 0.000000 122.000000 0.866920 0.378990 -0.323753
8.47999954 4.38000011 0.01000000 80 36 197 0.000000 0.000000 0.000000 0.000000 -8.844074 0.000000 122.000000 0.924175 0.166884 -0.343585
8.47999954 4.38000011 -0.03000000 80 36 197 0.000000 0.000000 0.000000 0.000000 -8.844074 0.000000 122.000000 0.952019 0.241718 -0.187703
8.47999954 4.36999989 -0.02000000 80 36 197 0.000000 0.000000 0.000000 0.000000 -8.844074 0.000000 122.000000 0.883345 0.455142 -0.112013
8.47999954 4.36999989 -0.02000000 80 36 197 0.000000 0.000000 0.000000 0.000000 -8.844074 0.000000 122.000000 0.883345 0.455142 -0.112013
8.48999977 4.36000013 0.00000000 80 36 197 0.000000 0.000000 0.000000 0.000000 -8.844074 0.000000 122.000000 0.518244 0.672543 -0.528307
8.47000027 4.36000013 -0.03000000 80 36 197 0.000000 0.000000 0.000000 0.000000 -8.844074 0.000000 122.000000 0.499865 0.781342 -0.373685
8.47999954 4.36999989 -0.01000000 80 36 197 0.000000 0.000000 0.000000 0.000000 -8.844074 0.000000 122.000000 0.824298 0.550024 -0.134188
8.47000027 4.36999989 -0.06000000 80 36 197 0.000000 0.000000 0.000000 0.000000 -8.844074 0.000000 122.000000 0.856862 0.501402 -0.119932
8.50000000 4.34999990 -0.03000000 80 36 197 0.000000 0.000000 0.000000 0.000000 -8.844074 0.000000 122.000000 0.692025 0.551953 -0.465241
8.46000004 4.38000011 -0.06000000 80 36 197 0.000000 0.000000 0.000000 0.000000 -8.844074 0.000000 122.000000 0.617510 0.482903 -0.620875
8.46000004 4.36000013 -0.04000000 80 36 197 0.000000 0.000000 0.000000 0.000000 -8.844074 0.000000 122.000000 0.694456 0.717365 -0.055843
8.51000023 4.44000006 -0.11000000 80 36 197 0.000000 0.000000 0.000000 0.000000 -8.844074 0.000000 122.000000 0.804546 0.166924 -0.569949
8.51000023 4.48000002 -0.08000000 80 36 197 0.000000 0.000000 0.000000 0.000000 -8.844074 0.000000 122.000000 0.955183 -0.283065 -0.086600
8.46000004 4.46000004 -0.12000000 80 36 197 0.000000 0.000000 0.000000 0.000000 -8.844074 0.000000 122.000000 0.819585 0.034787 -0.571901
8.51000023 4.32999992 -0.08000000 80 36 197 0.000000 0.000000 0.000000 0.000000 -8.844074 0.000000 122.000000 0.319200 0.947587 -0.013769
8.51000023 4.32999992 -0.09000000 80 36 197 0.000000 0.000000 0.000000 0.000000 -8.844074 0.000000 122.000000 0.211347 0.965970 -0.149110
8.51000023 4.32000017 -0.11000000 80 36 197 0.000000 0.000000 0.000000 0.000000 -8.844074 0.000000 122.000000 0.142215 0.929229 -0.341040
8.47000027 4.32999992 -0.10000000 80 36 197 0.000000 0.000000 0.000000 0.000000 -8.844074 0.000000 122.000000 0.890694 0.412547 -0.190967
8.44999981 4.38000011 -0.11000000 80 36 197 0.000000 0.000000 0.000000 0.000000 -8.844074 0.000000 122.000000 0.702687 0.529102 -0.475691
8.43999958 4.36000013 -0.14000000 80 36 197 0.000000 0.000000 0.000000 0.000000 -8.844074 0.000000 122.000000 0.817162 0.570146 -0.084732
8.46000004 4.38999987 -0.13000000 80 36 197 0.000000 0.000000 0.000000 0.000000 -8.844074 0.000000 122.000000 0.978485 0.205564 0.017620
8.44999981 4.36999989 -0.14000000 80 36 197 0.000000 0.000000 0.000000 0.000000 -8.844074 0.000000 122.000000 0.654779 0.503288 -0.563884
8.43999958 4.36999989 -0.14000000 80 36 197 0.000000 0.000000 0.000000 0.000000 -8.844074 0.000000 122.000000 0.818607 0.526796 -0.228841
8.46000004 4.32999992 -0.16000000 80 36 197 0.000000 0.000000 0.000000 0.000000 -8.844074 0.000000 122.000000 0.493940 0.720121 -0.487287
8.48999977 4.32000017 -0.20000000 80 36 197 0.000000 0.000000 0.000000 0.000000 -8.844074 0.000000 122.000000 0.534128 0.809707 -0.243067
8.50000000 4.32000017 -0.18000001 80 36 197 0.000000 0.000000 0.000000 0.000000 -8.844074 0.000000 122.000000 0.114341 0.979891 -0.163520
8.50000000 4.32000017 -0.19000000 80 36 197 0.000000 0.000000 0.000000 0.000000 -8.844074 0.000000 122.000000 0.157251 0.974958 -0.157251
8.50000000 4.32000017 -0.23000000 80 36 197 0.000000 0.000000 0.000000 0.000000 -8.844074 0.000000 122.000000 0.064912 0.879765 -0.470957
8.47999954 4.32000017 -0.23999999 80 36 197 0.000000 0.000000 0.000000 0.000000 -8.844074 0.000000 122.000000 0.490445 0.691310 -0.530618
8.51000023 4.32000017 -0.22000000 80 36 197 0.000000 0.000000 0.000000 0.000000 -8.844074 0.000000 122.000000 0.271667 0.933241 -0.235070
8.43999958 4.32000017 -0.22000000 80 36 197 0.000000 0.000000 0.000000 0.000000 -8.844074 0.000000 122.000000 0.610625 0.570029 -0.549731
8.42000008 4.42000008 -0.23999999 80 36 197 0.000000 0.000000 0.000000 0.000000 -8.844074 0.000000 122.000000 0.966729 0.089958 -0.239465
8.42000008 4.38000011 -0.11000000 80 36 197 0.000000 0.000000 0.000000 0.000000 -8.844074 0.000000 122.000000 0.842359 0.485918 -0.233058
8.40999985 4.34000015 -0.20999999 80 36 197 0.000000 0.000000 0.000000 0.000000 -8.844074 0.000000 122.000000 0.573826 0.594138 -0.563670
8.47999954 4.30999994 -0.23000000 80 36 197 0.000000 0.000000 0.000000 0.000000 -8.844074 0.000000 122.000000 0.491413 0.858879 -0.144362
8.50000000 4.30999994 -0.23000000 80 36 197 0.000000 0.000000 0.000000 0.000000 -8.844074 0.000000 122.000000 0.224769 0.779716 -0.584399
8.57999992 4.40000010 -0.31000000 80 36 197 0.000000 0.000000 0.000000 0.000000 -8.844074 0.000000 122.000000 0.813345 -0.506186 -0.286786
8.57999992 4.42000008 -0.34000000 80 36 197 0.000000 0.000000 0.000000 0.000000 -8.844074 0.000000 122.000000 0.945368 -0.325946 -0.006244
8.52999973 4.40000010 -0.38999999 80 36 197 0.000000 0.000000 0.000000 0.000000 -8.844074 0.000000 122.000000 -0.095280 0.976309 -0.194272
8.55000019 4.36000013 -0.31999999 80 36 197 0.000000 0.000000 0.000000 0.000000 -8.844074 0.000000 122.000000 -0.340226 0.835671 -0.431162
8.52999973 4.34999990 -0.36000001 80 36 197 0.000000 0.000000 0.000000 0.000000 -8.844074 0.000000 122.000000 -0.239207 0.935846 -0.258791
8.52000046 4.30000019 -0.34000000 80 36 197 0.000000 0.000000 0.000000 0.000000 -8.844074 0.000000 122.000000 0.144910 0.943946 -0.296591
8.47999954 4.48999977 -0.28999999 80 36 197 0.000000 0.000000 0.000000 0.000000 -8.844074 0.000000 122.000000 0.815508 -0.337288 -0.470302
8.47999954 4.48000002 -0.28000000 80 36 197 0.000000 0.000000 0.000000 0.000000 -8.844074 0.000000 122.000000 0.957305 -0.252200 -0.141285
8.47999954 4.42999983 -0.40000001 80 36 197 0.000000 0.000000 0.000000 0.000000 -8.844074 0.000000 122.000000 0.970857 -0.139058 0.195192
8.43000031 4.44999981 -0.36000001 80 36 197 0.000000 0.000000 0.000000 0.000000 -8.844074 0.000000 122.000000 0.811657 -0.564436 -0.150417
8.47999954 4.32000017 -0.28000000 80 36 197 0.000000 0.000000 0.000000 0.000000 -8.844074 0.000000 122.000000 0.497755 0.857647 0.129155
8.47000027 4.32000017 -0.28000000 80 36 197 0.000000 0.000000 0.000000 0.000000 -8.844074 0.000000 122.000000 0.326918 0.911011 -0.251363
8.43999958 4.32000017 -0.25999999 80 36 197 0.000000 0.000000 0.000000 0.000000 -8.844074 0.000000 122.000000 0.673853 0.617561 -0.405636
8.47000027 4.32000017 -0.34999999 80 36 197 0.000000 0.000000 0.000000 0.000000 -8.844074 0.000000 122.000000 0.565134 0.763652 -0.312185
8.50000000 4.32000017 -0.38000000 80 36 197 0.000000 0.000000 0.000000 0.000000 -8.844074 0.000000 122.000000 0.017563 0.999034 0.040292
8.48999977 4.32000017 -0.38000000 80 36 197 0.000000 0.000000 0.000000 0.000000 -8.844074 0.000000 122.000000 0.378474 0.828209 -0.413313
8.36999989 4.40999985 -0.30000001 80 36 197 0.000000 0.000000 0.000000 0.000000 -8.844074 0.000000 122.000000 0.966695 0.255285 -0.018148
8.42000008 4.42000008 -0.31999999 80 36 197 0.000000 0.000000 0.000000 0.000000 -8.844074 0.000000 122.000000 0.962250 -0.238284 -0.131512
8.42000008 4.44000006 -0.38999999 80 36 197 0.000000 0.000000 0.000000 0.000000 -8.844074 0.000000 122.000000 0.785210 -0.480840 -0.390177
8.42000008 4.44000006 -0.40000001 80 36 197 0.000000 0.000000 0.000000 0.000000 -8.844074 0.000000 122.000000 0.820661 -0.446046 -0.357154
8.40999985 4.38000011 -0.25999999 80 36 197 0.000000 0.000000 0.000000 0.000000 -8.844074 0.000000 122.000000 0.744633 0.369872 -0.555623
8.39000034 4.38999987 -0.28000000 80 36 197 0.000000 0.000000 0.000000 0.000000 -8.844074 0.000000 122.000000 0.760240 0.539786 -0.361479
8.39000034 4.36000013 -0.30000001 80 36 197 0.000000 0.000000 0.000000 0.000000 -8.844074 0.000000 122.000000 0.749070 0.581536 -0.317348
8.36999989 4.38000011 -0.31000000 80 36 197 0.000000 0.000000 0.000000 0.000000 -8.844074 0.000000 122.000000 0.865631 0.336720 -0.370545
8.38000011 4.36999989 -0.30000001 80 36 197 0.000000 0.000000 0.000000 0.000000 -8.844074 0.000000 122.000000 0.760654 0.407318 -0.505467
8.39000034 4.38999987 -0.34999999 80 36 197 0.000000 0.000000 0.000000 0.000000 -8.844074 0.000000 122.000000 0.866289 0.065565 -0.495222
8.39999962 4.32999992 -0.38000000 80 36 197 0.000000 0.000000 0.000000 0.000000 -8.844074 0.000000 122.000000 0.736655 0.433423 -0.519119
8.38000011 4.34999990 -0.40000001 80 36 197 0.000000 0.000000 0.000000 0.000000 -8.844074 0.000000 122.000000 0.642859 0.753749 -0.136364
8.47000027 4.46999979 -0.41999999 80 36 197 0.000000 0.000000 0.000000 0.000000 -8.844074 0.000000 122.000000 -0.649982 0.759482 0.026673
8.47000027 4.44000006 -0.49000001 80 36 197 0.000000 0.000000 0.000000 0.000000 -8.844074 0.000000 122.000000 0.625948 -0.697859 -0.348112
8.47000027 4.42999983 -0.56000000 80 36 197 0.000000 0.000000 0.000000 0.000000 -8.844074 0.000000 122.000000 -0.271297 0.927524 0.257093
8.43999958 4.44999981 -0.50000000 80 36 197 0.000000 0.000000 0.000000 0.000000 -8.844074 0.000000 122.000000 -0.571313 0.820311 0.026283
8.44999981 4.46000004 -0.54000002 80 36 197 0.000000 0.000000 0.000000 0.000000 -8.844074 0.000000 122.000000 -0.662906 0.704041 -0.254720
8.47999954 4.32000017 -0.41999999 80 36 197 0.000000 0.000000 0.000000 0.000000 -8.844074 0.000000 122.000000 0.376076 0.872435 -0.312128
8.48999977 4.34999990 -0.47999999 80 36 197 0.000000 0.000000 0.000000 0.000000 -8.844074 0.000000 122.000000 0.122812 0.920398 -0.371195
8.46000004 4.32999992 -0.41999999 80 36 197 0.000000 0.000000 0.000000 0.000000 -8.844074 0.000000 122.000000 0.292607 0.933823 -0.205805
8.44999981 4.32000017 -0.47999999 80 36 197 0.000000 0.000000 0.000000 0.000000 -8.844074 0.000000 122.000000 0.323865 0.853827 -0.407543
8.48999977 4.38999987 -0.55000001 80 36 197 0.000000 0.000000 0.000000 0.000000 -8.844074 0.000000 122.000000 -0.357193 0.869220 -0.341863
8.50000000 4.34999990 -0.57999998 80 36 197 0.000000 0.000000 0.000000 0.000000 -8.844074 0.000000 122.000000 -0.619491 0.782590 -0.061520
8.38000011 4.42000008 -0.44000000 80 36 197 0.000000 0.000000 0.000000 0.000000 -8.844074 0.000000 122.000000 0.968028 -0.008397 -0.250704
8.39000034 4.44999981 -0.50000000 80 36 197 0.000000 0.000000 0.000000 0.000000 -8.844074 0.000000 122.000000 0.817257 -0.374377 -0.438101
8.35000038 4.42000008 -0.57999998 80 36 197 0.000000 0.000000 0.000000 0.000000 -8.844074 0.000000 122.000000 0.984091 -0.087501 0.154626
8.35000038 4.36999989 -0.47000000 80 36 197 0.000000 0.000000 0.000000 0.000000 -8.844074 0.000000 122.000000 0.834049 0.043164 -0.549999
8.36999989 4.32999992 -0.43000001 80 36 197 0.000000 0.000000 0.000000 0.000000 -8.844074 0.000000 122.000000 0.606700 0.475613 -0.636951
8.36999989 4.32999992 -0.43000001 80 36 197 0.000000 0.000000 0.000000 0.000000 -8.844074 0.000000 122.000000 0.606700 0.475613 -0.636951
8.34000015 4.34000015 -0.38000000 80 36 197 0.000000 0.000000 0.000000 0.000000 -8.844074 0.000000 122.000000 0.634154 0.686591 -0.355585
8.34000015 4.34000015 -0.56999999 80 36 197 0.000000 0.000000 0.000000 0.000000 -8.844074 0.000000 122.000000 0.777079 0.224903 -0.587850
8.47999954 4.40000010 -0.66000003 80 36 197 0.000000 0.000000 0.000000 0.000000 -8.844074 0.000000 122.000000 0.684038 0.387347 -0.618106
8.47000027 4.32000017 -0.60000002 80 36 197 0.000000 0.000000 0.000000 0.000000 -8.844074 0.000000 122.000000 -0.006910 0.999972 -0.002961
8.46000004 4.32999992 -0.70999998 80 36 197 0.000000 0.000000 0.000000 0.000000 -8.844074 0.000000 122.000000 0.092057 0.989318 0.113032
8.46000004 4.32999992 -0.70999998 80 36 197 0.000000 0.000000 0.000000 0.000000 -8.844074 0.000000 122.000000 0.092057 0.989318 0.113032
8.35999966 4.42999983 -0.64999998 80 36 197 0.000000 0.000000 0.000000 0.000000 -8.844074 0.000000 122.000000 0.979473 -0.200587 -0.019941
8.40999985 4.32999992 -0.61000001 80 36 197 0.000000 0.000000 0.000000 0.000000 -8.844074 0.000000 122.000000 0.640370 0.586586 -0.495825
8.46000004 4.40000010 -0.75999999 80 36 197 0.000000 0.000000 0.000000 0.000000 -8.844074 0.000000 122.000000 0.815100 0.465545 -0.344789
8.47000027 4.36000013 -0.80000001 80 36 197 0.000000 0.000000 0.000000 0.000000 -8.844074 0.000000 122.000000 0.946406 0.060850 -0.317195
8.46000004 4.38000011 -0.77999997 80 36 197 0.000000 0.000000 0.000000 0.000000 -8.844074 0.000000 122.000000 0.921977 0.385363 0.038142
8.46000004 4.36999989 -0.79000002 80 36 197 0.000000 0.000000 0.000000 0.000000 -8.844074 0.000000 122.000000 0.991904 0.126603 0.009908
8.43000031 4.36000013 -0.89999998 80 36 197 0.000000 0.000000 0.000000 0.000000 -8.844074 0.000000 122.000000 0.931198 -0.180097 -0.316915
8.43000031 4.36000013 -0.91000003 80 36 197 0.000000 0.000000 0.000000 0.000000 -8.844074 0.000000 122.000000 0.993725 0.025311 -0.108947
8.46000004 4.34000015 -0.86000001 80 36 197 0.000000 0.000000 0.000000 0.000000 -8.844074 0.000000 122.000000 0.956460 -0.078314 -0.281161
8.44999981 4.32000017 -0.88000000 80 36 197 0.000000 0.000000 0.000000 0.000000 -8.844074 0.000000 122.000000 0.922851 -0.377469 -0.076568
8.44999981 4.32000017 -0.88000000 80 36 197 0.000000 0.000000 0.000000 0.000000 -8.844074 0.000000 122.000000 0.922851 -0.377469 -0.076568
8.42000008 4.36999989 -0.77999997 80 36 197 0.000000 0.000000 0.000000 0.000000 -8.844074 0.000000 122.000000 0.893333 0.113953 -0.434708
8.40999985 4.32999992 -0.83999997 80 36 197 0.000000 0.000000 0.000000 0.000000 -8.844074 0.000000 122.000000 0.447955 0.773740 -0.447955
8.30000019 4.32000017 -0.73000002 80 36 197 0.000000 0.000000 0.000000 0.000000 -8.844074 0.000000 122.000000 0.903474 0.183000 -0.387615
8.31000042 4.34999990 -0.73000002 80 36 197 0.000000 0.000000 0.000000 0.000000 -8.844074 0.000000 122.000000 0.999603 0.007075 -0.027289
8.32999992 4.32000017 -0.72000003 80 36 197 0.000000 0.000000 0.000000 0.000000 -8.844074 0.000000 122.000000 0.844583 0.276381 -0.458576
8.32999992 4.32000017 -0.72000003 80 36 197 0.000000 0.000000 0.000000 0.000000 -8.844074 0.000000 122.000000 0.844583 0.276381 -0.458576
8.31000042 4.36999989 -0.80000001 80 36 197 0.000000 0.000000 0.000000 0.000000 -8.844074 0.000000 122.000000 0.997192 -0.071457 0.022397
8.30000019 4.34000015 -0.81000000 80 36 197 0.000000 0.000000 0.000000 0.000000 -8.844074 0.000000 122.000000 0.986704 0.144654 0.074091
8.31000042 4.38999987 -0.85000002 80 36 197 0.000000 0.000000 0.000000 0.000000 -8.844074 0.000000 122.000000 0.965696 -0.259673 -0.001197
8.31000042 4.36999989 -0.85000002 80 36 197 0.000000 0.000000 0.000000 0.000000 -8.844074 0.000000 122.000000 0.926750 -0.243432 -0.286139
8.47999954 4.30000019 -0.36000001 80 36 197 0.000000 0.000000 0.000000 0.000000 -8.844074 0.000000 122.000000 0.532019 0.839343 0.111622
8.51000023 4.30000019 -0.34000000 80 36 197 0.000000 0.000000 0.000000 0.000000 -8.844074 0.000000 122.000000 0.285732 0.940017 -0.186347
8.47999954 4.30000019 -0.36000001 80 36 197 0.000000 0.000000 0.000000 0.000000 -8.844074 0.000000 122.000000 0.532019 0.839343 0.111622
8.47000027 4.30000019 -0.34999999 80 36 197 0.000000 0.000000 0.000000 0.000000 -8.844074 0.000000 122.000000 0.321919 0.729576 -0.603396
8.48999977 4.28000021 -0.40000001 80 36 197 0.000000 0.000000 0.000000 0.000000 -8.844074 0.000000 122.000000 0.421432 0.838164 -0.346232
8.39000034 4.30999994 -0.40000001 80 36 197 0.000000 0.000000 0.000000 0.000000 -8.844074 0.000000 122.000000 0.726070 0.444904 -0.524292
8.47000027 4.30999994 -0.46000001 80 36 197 0.000000 0.000000 0.000000 0.000000 -8.844074 0.000000 122.000000 0.059688 0.975719 -0.210736
8.43999958 4.30000019 -0.47999999 80 36 197 0.000000 0.000000 0.000000 0.000000 -8.844074 0.000000 122.000000 0.161668 0.878249 -0.450048
8.43999958 4.30000019 -0.47999999 80 36 197 0.000000 0.000000 0.000000 0.000000 -8.844074 0.000000 122.000000 0.161668 0.878249 -0.450048
8.48999977 4.28999996 -0.51999998 80 36 197 0.000000 0.000000 0.000000 0.000000 -8.844074 0.000000 122.000000 0.175638 0.978903 0.104400
8.47999954 4.30000019 -0.51999998 80 36 197 0.000000 0.000000 0.000000 0.000000 -8.844074 0.000000 122.000000 0.310919 0.921295 -0.233548
8.47999954 4.30000019 -0.51999998 80 36 197 0.000000 0.000000 0.000000 0.000000 -8.844074 0.000000 122.000000 0.310919 0.921295 -0.233548
8.46000004 4.30999994 -0.50999999 80 36 197 0.000000 0.000000 0.000000 0.000000 -8.844074 0.000000 122.000000 0.455313 0.817025 -0.353780
8.43999958 4.30999994 -0.50999999 80 36 197 0.000000 0.000000 0.000000 0.000000 -8.844074 0.000000 122.000000 0.542954 0.835203 -0.087388
8.43999958 4.30000019 -0.56999999 80 36 197 0.000000 0.000000 0.000000 0.000000 -8.844074 0.000000 122.000000 0.603167 0.656634 -0.452793
8.43999958 4.30000019 -0.56999999 80 36 197 0.000000 0.000000 0.000000 0.000000 -8.844074 0.000000 122.000000 0.603167 0.656634 -0.452793
8.43000031 4.30000019 -0.57999998 80 36 197 0.000000 0.000000 0.000000 0.000000 -8.844074 0.000000 122.000000 0.091384 0.875882 -0.473792
8.39000034 4.28000021 -0.56000000 80 36 197 0.000000 0.000000 0.000000 0.000000 -8.844074 0.000000 122.000000 0.348951 0.751462 -0.559945
8.44999981 4.30999994 -0.68000001 80 36 197 0.000000 0.000000 0.000000 0.000000 -8.844074 0.000000 122.000000 0.315837 0.906378 -0.280581
8.42000008 4.30000019 -0.63000000 80 36 197 0.000000 0.000000 0.000000 0.000000 -8.844074 0.000000 122.000000 0.130971 0.902717 -0.409814
8.42000008 4.30000019 -0.64999998 80 36 197 0.000000 0.000000 0.000000 0.000000 -8.844074 0.000000 122.000000 0.281075 0.893788 -0.349485
8.39999962 4.28999996 -0.63999999 80 36 197 0.000000 0.000000 0.000000 0.000000 -8.844074 0.000000 122.000000 0.229406 0.889502 -0.395170
8.35999966 4.30000019 -0.58999997 80 36 197 0.000000 0.000000 0.000000 0.000000 -8.844074 0.000000 122.000000 0.853827 0.342460 -0.392047
8.38000011 4.30999994 -0.64999998 80 36 197 0.000000 0.000000 0.000000 0.000000 -8.844074 0.000000 122.000000 0.872638 0.456118 -0.174528
8.38000011 4.28999996 -0.67000002 80 36 197 0.000000 0.000000 0.000000 0.000000 -8.844074 0.000000 122.000000 0.548352 0.642838 -0.534854
8.44999981 4.30999994 -0.89999998 80 36 197 0.000000 0.000000 0.000000 0.000000 -8.844074 0.000000 122.000000 0.885636 -0.389799 -0.252399
8.39999962 4.26999998 -0.76999998 80 36 197 0.000000 0.000000 0.000000 0.000000 -8.844074 0.000000 122.000000 0.609974 0.717329 -0.336706
8.36999989 4.28000021 -0.80000001 80 36 197 0.000000 0.000000 0.000000 0.000000 -8.844074 0.000000 122.000000 0.469289 0.827142 -0.309197
8.36999989 4.23999977 -0.81999999 80 36 197 0.000000 0.000000 0.000000 0.000000 -8.844074 0.000000 122.000000 0.444939 0.694904 -0.564922
8.42000008 4.25000000 -0.86000001 80 36 197 0.000000 0.000000 0.000000 0.000000 -8.844074 0.000000 122.000000 0.176484 0.882420 -0.436105
8.38000011 4.25000000 -0.86000001 80 36 197 0.000000 0.000000 0.000000 0.000000 -8.844074 0.000000 122.000000 0.147664 0.800965 -0.580215
8.38000011 4.26000023 -0.85000002 80 36 197 0.000000 0.000000 0.000000 0.000000 -8.844074 0.000000 122.000000 0.135051 0.858226 -0.495186
8.34000015 4.30000019 -0.63000000 80 36 197 0.000000 0.000000 0.000000 0.000000 -8.844074 0.000000 122.000000 0.676522 0.501936 -0.538868
8.34000015 4.30999994 -0.62000000 80 36 197 0.000000 0.000000 0.000000 0.000000 -8.844074 0.000000 122.000000 0.843789 0.213598 -0.492337
8.34000015 4.30000019 -0.69000000 80 36 197 0.000000 0.000000 0.000000 0.000000 -8.844074 0.000000 122.000000 0.736119 0.538503 -0.410053
8.30000019 4.30000019 -0.79000002 80 36 197 0.000000 0.000000 0.000000 0.000000 -8.844074 0.000000 122.000000 0.727209 0.482045 -0.488671
8.30000019 4.30000019 -0.79000002 80 36 197 0.000000 0.000000 0.000000 0.000000 -8.844074 0.000000 122.000000 0.727209 0.482045 -0.488671
8.30000019 4.30000019 -0.76999998 80 36 197 0.000000 0.000000 0.000000 0.000000 -8.844074 0.000000 122.000000 0.697355 0.437719 -0.567537
8.28999996 4.28000021 -0.82999998 80 36 197 0.000000 0.000000 0.000000 0.000000 -8.844074 0.000000 122.000000 0.725618 0.479871 -0.493155
8.28999996 4.28000021 -0.82999998 80 36 197 0.000000 0.000000 0.000000 0.000000 -8.844074 0.000000 122.000000 0.725618 0.479871 -0.493155
8.31000042 4.28999996 -0.86000001 80 36 197 0.000000 0.000000 0.000000 0.000000 -8.844074 0.000000 122.000000 0.818204 0.354290 -0.452792
8.31999969 4.25000000 -0.85000002 80 36 197 0.000000 0.000000 0.000000 0.000000 -8.844074 0.000000 122.000000 0.321870 0.773448 -0.546057
8.47000027 4.36000013 -1.00000000 80 36 197 0.000000 0.000000 0.000000 0.000000 -8.844074 0.000000 122.000000 0.970321 0.035218 -0.239241
8.43000031 4.38000011 -0.98000002 80 36 197 0.000000 0.000000 0.000000 0.000000 -8.844074 0.000000 122.000000 0.770436 0.574267 -0.276851
8.44999981 4.32999992 -0.94000000 80 36 197 0.000000 0.000000 0.000000 0.000000 -8.844074 0.000000 122.000000 0.962642 -0.264821 -0.056478
8.43000031 4.34999990 -0.97000003 80 36 197 0.000000 0.000000 0.000000 0.000000 -8.844074 0.000000 122.000000 0.929862 0.364316 -0.051294
8.44999981 4.36999989 -1.01999998 80 36 197 0.000000 0.000000 0.000000 0.000000 -8.844074 0.000000 122.000000 0.951629 0.168251 -0.257088
8.46000004 4.36999989 -1.02999997 80 36 197 0.000000 0.000000 0.000000 0.000000 -8.844074 0.000000 122.000000 0.967017 0.187707 -0.172173
8.46000004 4.32000017 -1.08000004 80 36 197 0.000000 0.000000 0.000000 0.000000 -8.844074 0.000000 122.000000 0.965483 -0.196745 -0.170686
8.36999989 4.42999983 -0.94000000 80 36 197 0.000000 0.000000 0.000000 0.000000 -8.844074 0.000000 122.000000 -0.619697 0.777918 0.104015
8.36999989 4.40000010 -1.00000000 80 36 197 0.000000 0.000000 0.000000 0.000000 -8.844074 0.000000 122.000000 0.094227 0.916322 -0.389198
8.42000008 4.40999985 -1.01999998 80 36 197 0.000000 0.000000 0.000000 0.000000 -8.844074 0.000000 122.000000 0.642276 0.721569 -0.258496
8.42000008 4.34999990 -1.00000000 80 36 197 0.000000 0.000000 0.000000 0.000000 -8.844074 0.000000 122.000000 0.808477 0.495212 -0.318011
8.42000008 4.38000011 -1.00000000 80 36 197 0.000000 0.000000 0.000000 0.000000 -8.844074 0.000000 122.000000 0.895431 0.416913 -0.156163
8.40999985 4.36000013 -1.08000004 80 36 197 0.000000 0.000000 0.000000 0.000000 -8.844074 0.000000 122.000000 0.639711 0.435939 -0.633030
8.39999962 4.36000013 -1.08000004 80 36 197 0.000000 0.000000 0.000000 0.000000 -8.844074 0.000000 122.000000 0.561808 0.695175 -0.448446
8.40999985 4.36000013 -1.09000003 80 36 197 0.000000 0.000000 0.000000 0.000000 -8.844074 0.000000 122.000000 0.824921 0.495574 -0.271867
8.40999985 4.38999987 -1.05999994 80 36 197 0.000000 0.000000 0.000000 0.000000 -8.844074 0.000000 122.000000 0.854311 0.500904 -0.138734
8.39999962 4.36999989 -1.07000005 80 36 197 0.000000 0.000000 0.000000 0.000000 -8.844074 0.000000 122.000000 0.462269 0.748514 -0.475430
8.40999985 4.34999990 -1.00999999 80 36 197 0.000000 0.000000 0.000000 0.000000 -8.844074 0.000000 122.000000 0.845972 0.494360 -0.199848
8.38000011 4.38000011 -1.08000004 80 36 197 0.000000 0.000000 0.000000 0.000000 -8.844074 0.000000 122.000000 0.535353 0.768255 -0.350971
8.35999966 4.36999989 -1.05999994 80 36 197 0.000000 0.000000 0.000000 0.000000 -8.844074 0.000000 122.000000 0.163117 0.938949 -0.302931
8.43999958 4.34000015 -1.25000000 80 36 197 0.000000 0.000000 0.000000 0.000000 -8.844074 0.000000 122.000000 0.893961 -0.073004 -0.442159
8.43000031 4.36000013 -1.17999995 80 36 197 0.000000 0.000000 0.000000 0.000000 -8.844074 0.000000 122.000000 0.785367 0.416163 -0.458265
8.43999958 4.32000017 -1.17999995 80 36 197 0.000000 0.000000 0.000000 0.000000 -8.844074 0.000000 122.000000 0.970110 -0.216283 -0.110039
8.43999958 4.36000013 -1.24000001 80 36 197 0.000000 0.000000 0.000000 0.000000 -8.844074 0.000000 122.000000 0.691617 0.348261 -0.632756
8.35000038 4.36999989 -1.15999997 80 36 197 0.000000 0.000000 0.000000 0.000000 -8.844074 0.000000 122.000000 0.257437 0.939296 0.226823
8.39999962 4.36000013 -1.22000003 80 36 197 0.000000 0.000000 0.000000 0.000000 -8.844074 0.000000 122.000000 0.791786 0.264974 -0.550330
8.30000019 4.32000017 -1.08000004 80 36 197 0.000000 0.000000 0.000000 0.000000 -8.844074 0.000000 122.000000 0.901541 0.033390 -0.431404
8.28999996 4.32000017 -1.09000003 80 36 197 0.000000 0.000000 0.000000 0.000000 -8.844074 0.000000 122.000000 0.867323 0.068436 -0.493019
8.27999973 4.32999992 -1.15999997 80 36 197 0.000000 0.000000 0.000000 0.000000 -8.844074 0.000000 122.000000 0.890415 0.006596 -0.455101
8.31000042 4.36000013 -1.17999995 80 36 197 0.000000 0.000000 0.000000 0.000000 -8.844074 0.000000 122.000000 -0.367570 0.843066 -0.392597
8.31999969 4.34999990 -1.20000005 80 36 197 0.000000 0.000000 0.000000 0.000000 -8.844074 0.000000 122.000000 -0.280113 0.953437 -0.111782
8.30000019 4.34000015 -1.19000006 80 36 197 0.000000 0.000000 0.000000 0.000000 -8.844074 0.000000 122.000000 -0.514433 0.845664 0.142165
8.30000019 4.32999992 -1.22000003 80 36 197 0.000000 0.000000 0.000000 0.000000 -8.844074 0.000000 122.000000 -0.472439 0.867357 0.156505
8.39999962 4.32000017 -1.27999997 80 36 197 0.000000 0.000000 0.000000 0.000000 -8.844074 0.000000 122.000000 0.856739 -0.166629 -0.488091
8.42000008 4.32000017 -1.28999996 80 36 197 0.000000 0.000000 0.000000 0.000000 -8.844074 0.000000 122.000000 0.970387 -0.047845 -0.236770
8.38000011 4.36000013 -1.25999999 80 36 197 0.000000 0.000000 0.000000 0.000000 -8.844074 0.000000 122.000000 0.711888 0.634754 -0.300504
8.38000011 4.36000013 -1.26999998 80 36 197 0.000000 0.000000 0.000000 0.000000 -8.844074 0.000000 122.000000 0.875733 0.477546 -0.071005
8.35999966 4.34999990 -1.35000002 80 36 197 0.000000 0.000000 0.000000 0.000000 -8.844074 0.000000 122.000000 0.844128 0.533355 0.054595
8.39000034 4.32000017 -1.42999995 80 36 197 0.000000 0.000000 0.000000 0.000000 -8.844074 0.000000 122.000000 0.999619 0.011118 -0.025268
8.38000011 4.32999992 -1.50999999 80 36 197 0.000000 0.000000 0.000000 0.000000 -8.844074 0.000000 122.000000 0.988722 0.139598 -0.054224
8.35000038 4.34999990 -1.58000004 80 36 197 0.000000 0.000000 0.000000 0.000000 -8.844074 0.000000 122.000000 0.671481 0.737907 -0.067870
8.35999966 4.32999992 -1.59000003 80 36 197 0.000000 0.000000 0.000000 0.000000 -8.844074 0.000000 122.000000 0.889069 0.438113 -0.132718
8.39999962 4.32999992 -1.54999995 80 36 197 0.000000 0.000000 0.000000 0.000000 -8.844074 0.000000 122.000000 0.886062 0.213775 -0.411333
8.31999969 4.34999990 -1.38000000 80 36 197 0.000000 0.000000 0.000000 0.000000 -8.844074 0.000000 122.000000 0.313825 0.949038 0.028988
8.31000042 4.32000017 -1.38000000 80 36 197 0.000000 0.000000 0.000000 0.000000 -8.844074 0.000000 122.000000 0.753081 0.656641 0.041129
8.26000023 4.32999992 -1.38000000 80 36 197 0.000000 0.000000 0.000000 0.000000 -8.844074 0.000000 122.000000 -0.562749 0.756244 -0.333779
8.27999973 4.32999992 -1.38999999 80 36 197 0.000000 0.000000 0.000000 0.000000 -8.844074 0.000000 122.000000 -0.464452 0.883424 -0.062019
8.31999969 4.36000013 -1.44000006 80 36 197 0.000000 0.000000 0.000000 0.000000 -8.844074 0.000000 122.000000 0.340768 0.932698 0.118115
8.32999992 4.34999990 -1.46000004 80 36 197 0.000000 0.000000 0.000000 0.000000 -8.844074 0.000000 122.000000 0.581253 0.795638 0.170602
8.34000015 4.34000015 -1.46000004 80 36 197 0.000000 0.000000 0.000000 0.000000 -8.844074 0.000000 122.000000 0.631769 0.773740 0.046850
8.31000042 4.32000017 -1.52999997 80 36 197 0.000000 0.000000 0.000000 0.000000 -8.844074 0.000000 122.000000 0.628994 0.768112 0.119879
8.44999981 4.30999994 -0.94999999 80 36 197 0.000000 0.000000 0.000000 0.000000 -8.844074 0.000000 122.000000 0.920675 -0.310710 -0.236254
8.43000031 4.28999996 -1.02999997 80 36 197 0.000000 0.000000 0.000000 0.000000 -8.844074 0.000000 122.000000 0.792493 -0.447089 -0.414808
8.39000034 4.23000002 -0.95999998 80 36 197 0.000000 0.000000 0.000000 0.000000 -8.844074 0.000000 122.000000 0.183000 0.903474 -0.387615
8.39000034 4.23000002 -0.98000002 80 36 197 0.000000 0.000000 0.000000 0.000000 -8.844074 0.000000 122.000000 0.073621 0.882064 -0.465341
8.38000011 4.23000002 -1.02999997 80 36 197 0.000000 0.000000 0.000000 0.000000 -8.844074 0.000000 122.000000 -0.435640 0.863690 -0.253491
8.35000038 4.21999979 -1.03999996 80 36 197 0.000000 0.000000 0.000000 0.000000 -8.844074 0.000000 122.000000 0.193286 0.846565 -0.495952
8.35000038 4.21999979 -1.02999997 80 36 197 0.000000 0.000000 0.000000 0.000000 -8.844074 0.000000 122.000000 -0.221631 0.908254 -0.354900
8.43000031 4.30999994 -1.14999998 80 36 197 0.000000 0.000000 0.000000 0.000000 -8.844074 0.000000 122.000000 0.928345 -0.369510 0.040476
8.43000031 4.23999977 -1.20000005 80 36 197 0.000000 0.000000 0.000000 0.000000 -8.844074 0.000000 122.000000 0.949866 -0.240524 -0.199757
8.42000008 4.23000002 -1.22000003 80 36 197 0.000000 0.000000 0.000000 0.000000 -8.844074 0.000000 122.000000 0.880759 -0.452592 -0.139370
8.39999962 4.21999979 -1.13999999 80 36 197 0.000000 0.000000 0.000000 0.000000 -8.844074 0.000000 122.000000 0.778473 -0.626986 0.029456
8.39999962 4.21999979 -1.13999999 80 36 197 0.000000 0.000000 0.000000 0.000000 -8.844074 0.000000 122.000000 0.778473 -0.626986 0.029456
8.40999985 4.21000004 -1.16999996 80 36 197 0.000000 0.000000 0.000000 0.000000 -8.844074 0.000000 122.000000 0.823019 -0.551142 -0.137416
8.40999985 4.21000004 -1.16999996 80 36 197 0.000000 0.000000 0.000000 0.000000 -8.844074 0.000000 122.000000 0.823019 -0.551142 -0.137416
8.36999989 4.21000004 -1.13999999 80 36 197 0.000000 0.000000 0.000000 0.000000 -8.844074 0.000000 122.000000 -0.234312 0.906686 -0.350740
8.36999989 4.21000004 -1.13999999 80 36 197 0.000000 0.000000 0.000000 0.000000 -8.844074 0.000000 122.000000 -0.234312 0.906686 -0.350740
8.39999962 4.19999981 -1.17999995 80 36 197 0.000000 0.000000 0.000000 0.000000 -8.844074 0.000000 122.000000 -0.453589 0.806203 -0.379861
8.38000011 4.21000004 -1.19000006 80 36 197 0.000000 0.000000 0.000000 0.000000 -8.844074 0.000000 122.000000 0.719269 -0.693833 0.035328
8.38000011 4.19000006 -1.23000002 80 36 197 0.000000 0.000000 0.000000 0.000000 -8.844074 0.000000 122.000000 -0.626974 0.769265 0.123023
8.38000011 4.19000006 -1.24000001 80 36 197 0.000000 0.000000 0.000000 0.000000 -8.844074 0.000000 122.000000 0.786073 -0.618120 -0.004130
8.27999973 4.28000021 -0.99000001 80 36 197 0.000000 0.000000 0.000000 0.000000 -8.844074 0.000000 122.000000 0.790591 0.231430 -0.566927
8.27000046 4.28999996 -1.05999994 80 36 197 0.000000 0.000000 0.000000 0.000000 -8.844074 0.000000 122.000000 0.823445 0.433142 -0.366505
8.22999954 4.23000002 -1.08000004 80 36 197 0.000000 0.000000 0.000000 0.000000 -8.844074 0.000000 122.000000 0.781163 0.297510 -0.548882
8.32999992 4.17000008 -1.22000003 80 36 197 0.000000 0.000000 0.000000 0.000000 -8.844074 0.000000 122.000000 -0.444917 0.854669 -0.267562
8.32999992 4.17000008 -1.24000001 80 36 197 0.000000 0.000000 0.000000 0.000000 -8.844074 0.000000 122.000000 -0.325378 0.872258 -0.365096
8.26000023 4.21999979 -1.20000005 80 36 197 0.000000 0.000000 0.000000 0.000000 -8.844074 0.000000 122.000000 0.439590 0.749115 -0.495568
8.26000023 4.21000004 -1.25000000 80 36 197 0.000000 0.000000 0.000000 0.000000 -8.844074 0.000000 122.000000 0.332378 0.718260 -0.611251
8.43000031 4.26000023 -1.29999995 80 36 197 0.000000 0.000000 0.000000 0.000000 -8.844074 0.000000 122.000000 0.807634 -0.190121 -0.558195
8.40999985 4.25000000 -1.25999999 80 36 197 0.000000 0.000000 0.000000 0.000000 -8.844074 0.000000 122.000000 0.865479 -0.266184 -0.424373
8.42000008 4.23000002 -1.29999995 80 36 197 0.000000 0.000000 0.000000 0.000000 -8.844074 0.000000 122.000000 0.901930 -0.383646 -0.198338
8.42000008 4.25000000 -1.35000002 80 36 197 0.000000 0.000000 0.000000 0.000000 -8.844074 0.000000 122.000000 0.993956 -0.081987 -0.073002
8.40999985 4.23000002 -1.40999997 80 36 197 0.000000 0.000000 0.000000 0.000000 -8.844074 0.000000 122.000000 0.959318 -0.278915 -0.043776
8.42000008 4.26000023 -1.39999998 80 36 197 0.000000 0.000000 0.000000 0.000000 -8.844074 0.000000 122.000000 0.997954 -0.030690 -0.056089
8.39000034 4.19999981 -1.26999998 80 36 197 0.000000 0.000000 0.000000 0.000000 -8.844074 0.000000 122.000000 -0.580433 0.718553 0.383119
8.39000034 4.19000006 -1.25999999 80 36 197 0.000000 0.000000 0.000000 0.000000 -8.844074 0.000000 122.000000 -0.545366 0.770592 -0.329794
8.38000011 4.19000006 -1.25999999 80 36 197 0.000000 0.000000 0.000000 0.000000 -8.844074 0.000000 122.000000 -0.720615 0.665064 0.195970
8.38000011 4.19000006 -1.25999999 80 36 197 0.000000 0.000000 0.000000 0.000000 -8.844074 0.000000 122.000000 -0.720615 0.665064 0.195970
8.38000011 4.19000006 -1.27999997 80 36 197 0.000000 0.000000 0.000000 0.000000 -8.844074 0.000000 122.000000 -0.612520 0.766034 -0.194963
8.38000011 4.19999981 -1.27999997 80 36 197 0.000000 0.000000 0.000000 0.000000 -8.844074 0.000000 122.000000 0.604823 -0.736376 0.303214
8.36999989 4.17000008 -1.32000005 80 36 197 0.000000 0.000000 0.000000 0.000000 -8.844074 0.000000 122.000000 -0.575556 0.808134 -0.125121
8.35999966 4.17000008 -1.33000004 80 36 197 0.000000 0.000000 0.000000 0.000000 -8.844074 0.000000 122.000000 -0.602782 0.737806 0.303802
8.38000011 4.17999983 -1.34000003 80 36 197 0.000000 0.000000 0.000000 0.000000 -8.844074 0.000000 122.000000 -0.493779 0.770817 0.402520
8.36999989 4.17999983 -1.32000005 80 36 197 0.000000 0.000000 0.000000 0.000000 -8.844074 0.000000 122.000000 0.719094 -0.689922 0.083141
8.35000038 4.17000008 -1.34000003 80 36 197 0.000000 0.000000 0.000000 0.000000 -8.844074 0.000000 122.000000 -0.711203 0.702819 -0.015370
8.39000034 4.19999981 -1.37000000 80 36 197 0.000000 0.000000 0.000000 0.000000 -8.844074 0.000000 122.000000 0.715937 -0.689257 -0.111170
8.39999962 4.21999979 -1.35000002 80 36 197 0.000000 0.000000 0.000000 0.000000 -8.844074 0.000000 122.000000 0.903760 -0.393873 -0.167575
8.39999962 4.19999981 -1.36000001 80 36 197 0.000000 0.000000 0.000000 0.000000 -8.844074 0.000000 122.000000 0.738611 -0.621572 -0.260965
8.39000034 4.19000006 -1.36000001 80 36 197 0.000000 0.000000 0.000000 0.000000 -8.844074 0.000000 122.000000 -0.522460 0.740015 0.423572
8.39999962 4.19999981 -1.38999999 80 36 197 0.000000 0.000000 0.000000 0.000000 -8.844074 0.000000 122.000000 0.944363 -0.243308 -0.221314
8.39000034 4.19000006 -1.40999997 80 36 197 0.000000 0.000000 0.000000 0.000000 -8.844074 0.000000 122.000000 0.728337 -0.492747 -0.476157
8.39000034 4.19999981 -1.41999996 80 36 197 0.000000 0.000000 0.000000 0.000000 -8.844074 0.000000 122.000000 -0.648857 0.678276 0.344858
8.35999966 4.17999983 -1.35000002 80 36 197 0.000000 0.000000 0.000000 0.000000 -8.844074 0.000000 122.000000 -0.457383 0.845465 -0.275662
8.36999989 4.17999983 -1.38000000 80 36 197 0.000000 0.000000 0.000000 0.000000 -8.844074 0.000000 122.000000 -0.526242 0.807321 -0.267025
8.39999962 4.23000002 -1.47000003 80 36 197 0.000000 0.000000 0.000000 0.000000 -8.844074 0.000000 122.000000 0.931640 -0.290874 -0.217804
8.39999962 4.25000000 -1.45000005 80 36 197 0.000000 0.000000 0.000000 0.000000 -8.844074 0.000000 122.000000 0.827602 -0.288336 -0.481599
8.40999985 4.23999977 -1.42999995 80 36 197 0.000000 0.000000 0.000000 0.000000 -8.844074 0.000000 122.000000 0.980037 -0.136835 -0.144232
8.40999985 4.23000002 -1.46000004 80 36 197 0.000000 0.000000 0.000000 0.000000 -8.844074 0.000000 122.000000 0.890486 -0.244476 -0.383753
8.35000038 4.30000019 -1.48000002 80 36 197 0.000000 0.000000 0.000000 0.000000 -8.844074 0.000000 122.000000 0.848252 0.400002 -0.347083
8.40999985 4.28000021 -1.55999994 80 36 197 0.000000 0.000000 0.000000 0.000000 -8.844074 0.000000 122.000000 0.881562 0.462574 -0.094202
8.39000034 4.30999994 -1.55999994 80 36 197 0.000000 0.000000 0.000000 0.000000 -8.844074 0.000000 122.000000 0.688805 0.445305 -0.572058
8.40999985 4.28999996 -1.58000004 80 36 197 0.000000 0.000000 0.000000 0.000000 -8.844074 0.000000 122.000000 0.780810 0.355792 -0.513564
8.39000034 4.25000000 -1.51999998 80 36 197 0.000000 0.000000 0.000000 0.000000 -8.844074 0.000000 122.000000 0.923180 -0.205624 -0.324744
8.39000034 4.23999977 -1.59000003 80 36 197 0.000000 0.000000 0.000000 0.000000 -8.844074 0.000000 122.000000 0.990357 -0.067864 -0.120775
8.39000034 4.23000002 -1.59000003 80 36 197 0.000000 0.000000 0.000000 0.000000 -8.844074 0.000000 122.000000 0.930803 -0.230229 -0.283902
8.36999989 4.26000023 -1.54999995 80 36 197 0.000000 0.000000 0.000000 0.000000 -8.844074 0.000000 122.000000 0.979702 0.193062 -0.053962
8.36999989 4.23000002 -1.53999996 80 36 197 0.000000 0.000000 0.000000 0.000000 -8.844074 0.000000 122.000000 0.997844 0.065552 0.003122
8.39000034 4.19999981 -1.46000004 80 36 197 0.000000 0.000000 0.000000 0.000000 -8.844074 0.000000 122.000000 0.928352 -0.343476 0.142081
8.39999962 4.21999979 -1.42999995 80 36 197 0.000000 0.000000 0.000000 0.000000 -8.844074 0.000000 122.000000 0.978458 -0.049223 -0.200494
8.39000034 4.21000004 -1.47000003 80 36 197 0.000000 0.000000 0.000000 0.000000 -8.844074 0.000000 122.000000 0.961149 -0.229469 0.153417
8.39000034 4.19999981 -1.44000006 80 36 197 0.000000 0.000000 0.000000 0.000000 -8.844074 0.000000 122.000000 0.838930 -0.530692 0.120678
8.39999962 4.21999979 -1.42999995 80 36 197 0.000000 0.000000 0.000000 0.000000 -8.844074 0.000000 122.000000 0.978458 -0.049223 -0.200494
8.39000034 4.19000006 -1.50999999 80 36 197 0.000000 0.000000 0.000000 0.000000 -8.844074 0.000000 122.000000 0.751849 -0.599254 0.274989
8.39000034 4.19000006 -1.49000001 80 36 197 0.000000 0.000000 0.000000 0.000000 -8.844074 0.000000 122.000000 0.915482 -0.393127 -0.085699
8.39000034 4.19999981 -1.48000002 80 36 197 0.000000 0.000000 0.000000 0.000000 -8.844074 0.000000 122.000000 0.915688 -0.357446 0.183707
8.39000034 4.21000004 -1.48000002 80 36 197 0.000000 0.000000 0.000000 0.000000 -8.844074 0.000000 122.000000 0.968379 -0.211633 0.132110
8.39000034 4.19999981 -1.48000002 80 36 197 0.000000 0.000000 0.000000 0.000000 -8.844074 0.000000 122.000000 0.915688 -0.357446 0.183707
8.39999962 4.21999979 -1.50999999 80 36 197 0.000000 0.000000 0.000000 0.000000 -8.844074 0.000000 122.000000 0.967563 -0.210004 0.140432
8.39000034 4.17000008 -1.46000004 80 36 197 0.000000 0.000000 0.000000 0.000000 -8.844074 0.000000 122.000000 0.911152 -0.402983 -0.086061
8.38000011 4.19000006 -1.44000006 80 36 197 0.000000 0.000000 0.000000 0.000000 -8.844074 0.000000 122.000000 0.897441 -0.438599 -0.047234
8.36999989 4.17999983 -1.45000005 80 36 197 0.000000 0.000000 0.000000 0.000000 -8.844074 0.000000 122.000000 -0.517038 0.806202 -0.287593
8.35999966 4.17000008 -1.42999995 80 36 197 0.000000 0.000000 0.000000 0.000000 -8.844074 0.000000 122.000000 0.845444 -0.521718 -0.114171
8.39999962 4.21000004 -1.52999997 80 36 197 0.000000 0.000000 0.000000 0.000000 -8.844074 0.000000 122.000000 0.873730 -0.251141 -0.416563
8.39000034 4.19999981 -1.53999996 80 36 197 0.000000 0.000000 0.000000 0.000000 -8.844074 0.000000 122.000000 0.932525 -0.234889 -0.274272
8.39000034 4.19000006 -1.57000005 80 36 197 0.000000 0.000000 0.000000 0.000000 -8.844074 0.000000 122.000000 0.882225 -0.460108 -0.099901
8.39000034 4.21999979 -1.59000003 80 36 197 0.000000 0.000000 0.000000 0.000000 -8.844074 0.000000 122.000000 0.985492 -0.160538 -0.055075
8.36999989 4.19999981 -1.59000003 80 36 197 0.000000 0.000000 0.000000 0.000000 -8.844074 0.000000 122.000000 0.723067 -0.668034 -0.175798
8.38000011 4.19999981 -1.59000003 80 36 197 0.000000 0.000000 0.000000 0.000000 -8.844074 0.000000 122.000000 0.752766 -0.589747 -0.292476
8.36999989 4.19000006 -1.55999994 80 36 197 0.000000 0.000000 0.000000 0.000000 -8.844074 0.000000 122.000000 0.832615 -0.552768 0.034635
8.36999989 4.17000008 -1.52999997 80 36 197 0.000000 0.000000 0.000000 0.000000 -8.844074 0.000000 122.000000 0.707356 -0.544248 -0.451044
8.35999966 4.17000008 -1.53999996 80 36 197 0.000000 0.000000 0.000000 0.000000 -8.844074 0.000000 122.000000 -0.629272 0.681848 0.372963
8.36999989 4.17000008 -1.52999997 80 36 197 0.000000 0.000000 0.000000 0.000000 -8.844074 0.000000 122.000000 0.707356 -0.544248 -0.451044
8.35999966 4.15999985 -1.52999997 80 36 197 0.000000 0.000000 0.000000 0.000000 -8.844074 0.000000 122.000000 0.717859 -0.624295 -0.308115
8.36999989 4.17999983 -1.59000003 80 36 197 0.000000 0.000000 0.000000 0.000000 -8.844074 0.000000 122.000000 0.870643 -0.431562 -0.236081
8.38000011 4.17000008 -1.59000003 80 36 197 0.000000 0.000000 0.000000 0.000000 -8.844074 0.000000 122.000000 0.971045 -0.225621 -0.078531
8.26000023 4.26000023 -1.25999999 80 36 197 0.000000 0.000000 0.000000 0.000000 -8.844074 0.000000 122.000000 0.719565 0.418506 -0.554148
8.28999996 4.28999996 -1.34000003 80 36 197 0.000000 0.000000 0.000000 0.000000 -8.844074 0.000000 122.000000 0.819335 0.569417 -0.066740
8.31000042 4.17000008 -1.34000003 80 36 197 0.000000 0.000000 0.000000 0.000000 -8.844074 0.000000 122.000000 -0.305799 0.874799 -0.375783
8.31000042 4.17000008 -1.35000002 80 36 197 0.000000 0.000000 0.000000 0.000000 -8.844074 0.000000 122.000000 -0.514589 0.816191 -0.262736
8.25000000 4.21000004 -1.25999999 80 36 197 0.000000 0.000000 0.000000 0.000000 -8.844074 0.000000 122.000000 0.532900 0.734181 -0.420710
8.31000042 4.17000008 -1.50000000 80 36 197 0.000000 0.000000 0.000000 0.000000 -8.844074 0.000000 122.000000 -0.474400 0.857513 -0.199039
8.30000019 4.15999985 -1.52999997 80 36 197 0.000000 0.000000 0.000000 0.000000 -8.844074 0.000000 122.000000 -0.475305 0.879649 -0.017406
8.31999969 4.17999983 -1.54999995 80 36 197 0.000000 0.000000 0.000000 0.000000 -8.844074 0.000000 122.000000 -0.689609 0.723455 0.032436
8.34000015 4.15999985 -1.59000003 80 36 197 0.000000 0.000000 0.000000 0.000000 -8.844074 0.000000 122.000000 -0.716370 0.673418 -0.182544
8.31000042 4.15000010 -1.59000003 80 36 197 0.000000 0.000000 0.000000 0.000000 -8.844074 0.000000 122.000000 -0.629475 0.771943 -0.088679
8.23999977 4.28999996 -1.45000005 80 36 197 0.000000 0.000000 0.000000 0.000000 -8.844074 0.000000 122.000000 0.848675 -0.508619 -0.145110
8.25000000 4.30000019 -1.42999995 80 36 197 0.000000 0.000000 0.000000 0.000000 -8.844074 0.000000 122.000000 -0.509338 0.845944 -0.157969
8.23999977 4.28000021 -1.50999999 80 36 197 0.000000 0.000000 0.000000 0.000000 -8.844074 0.000000 122.000000 0.725056 -0.684371 -0.077010
8.23999977 4.30999994 -1.52999997 80 36 197 0.000000 0.000000 0.000000 0.000000 -8.844074 0.000000 122.000000 -0.227688 0.967994 0.105576
8.23999977 4.30999994 -1.53999996 80 36 197 0.000000 0.000000 0.000000 0.000000 -8.844074 0.000000 122.000000 -0.284288 0.852863 -0.437956
8.22999954 4.30999994 -1.55999994 80 36 197 0.000000 0.000000 0.000000 0.000000 -8.844074 0.000000 122.000000 -0.301770 0.940812 -0.154299
8.19999981 4.30000019 -1.53999996 80 36 197 0.000000 0.000000 0.000000 0.000000 -8.844074 0.000000 122.000000 -0.700495 0.711908 0.049933
8.22000027 4.21999979 -1.45000005 80 36 197 0.000000 0.000000 0.000000 0.000000 -8.844074 0.000000 122.000000 0.531844 0.839068 -0.114484
8.34000015 4.13000011 -1.33000004 80 36 197 0.000000 0.000000 0.000000 0.000000 -8.844074 0.000000 122.000000 -0.547910 0.836284 -0.020598
8.28999996 4.13999987 -1.59000003 80 36 197 0.000000 0.000000 0.000000 0.000000 -8.844074 0.000000 122.000000 -0.623694 0.763304 -0.168443
8.27000046 4.13999987 -1.57000005 80 36 197 0.000000 0.000000 0.000000 0.000000 -8.844074 0.000000 122.000000 -0.563676 0.778410 -0.276312
8.32999992 4.13000011 -1.53999996 80 36 197 0.000000 0.000000 0.000000 0.000000 -8.844074 0.000000 122.000000 -0.443119 0.847639 -0.291810
8.30000019 4.13999987 -1.52999997 80 36 197 0.000000 0.000000 0.000000 0.000000 -8.844074 0.000000 122.000000 -0.453523 0.876422 0.161868
8.40999985 4.30999994 -1.63999999 80 36 197 0.000000 0.000000 0.000000 0.000000 -8.844074 0.000000 122.000000 0.742832 0.391913 -0.542775
8.39000034 4.23999977 -1.60000002 80 36 197 0.000000 0.000000 0.000000 0.000000 -8.844074 0.000000 122.000000 0.892279 -0.294437 -0.342264
8.39000034 4.25000000 -1.62000000 80 36 197 0.000000 0.000000 0.000000 0.000000 -8.844074 0.000000 122.000000 0.985948 -0.113259 -0.122796
