//X Y Z R G B PointSourceId ScanDirectionFlag NumberOfReturns ReturnNumber GpsTime Intensity Classification Nx Ny Nz
11.88000011 -1.13000000 -0.18000001 142 253 58 0.000000 0.000000 0.000000 0.000000 -8.844074 0.000000 252.000000 -0.067240 0.799732 -0.596580
11.86999989 -1.10000002 -0.19000000 142 253 58 0.000000 0.000000 0.000000 0.000000 -8.844074 0.000000 252.000000 0.457146 -0.744307 0.486852
12.39999962 -0.67000002 -0.33000001 142 253 58 0.000000 0.000000 0.000000 0.000000 -8.844074 0.000000 252.000000 0.662066 0.258793 0.703346
12.46000004 -0.74000001 -0.36000001 142 253 58 0.000000 0.000000 0.000000 0.000000 -8.844074 0.000000 252.000000 0.789570 0.286397 0.542730
12.44999981 -0.75000000 -0.38000000 142 253 58 0.000000 0.000000 0.000000 0.000000 -8.844074 0.000000 252.000000 0.789835 -0.076250 0.608561
12.40999985 -0.68000001 -0.36000001 142 253 58 0.000000 0.000000 0.000000 0.000000 -8.844074 0.000000 252.000000 0.870330 -0.267910 0.413218
12.40999985 -0.69999999 -0.38999999 142 253 58 0.000000 0.000000 0.000000 0.000000 -8.844074 0.000000 252.000000 0.861382 0.185323 0.472945
12.43999958 -0.75000000 -0.33000001 142 253 58 0.000000 0.000000 0.000000 0.000000 -8.844074 0.000000 252.000000 0.675778 0.322494 0.662814
12.39999962 -0.67000002 -0.46000001 142 253 58 0.000000 0.000000 0.000000 0.000000 -8.844074 0.000000 252.000000 0.865015 0.137649 0.482496
12.39999962 -0.63000000 -0.57999998 142 253 58 0.000000 0.000000 0.000000 0.000000 -8.844074 0.000000 252.000000 0.601359 0.493552 0.628310
12.39999962 -0.63999999 -0.50000000 142 253 58 0.000000 0.000000 0.000000 0.000000 -8.844074 0.000000 252.000000 0.865446 0.207767 0.455891
12.43000031 -0.67000002 -0.52999997 142 253 58 0.000000 0.000000 0.000000 0.000000 -8.844074 0.000000 252.000000 0.729720 0.285820 0.621140
12.44999981 -0.73000002 -0.52999997 142 253 58 0.000000 0.000000 0.000000 0.000000 -8.844074 0.000000 252.000000 0.627281 0.373734 0.683258
12.46000004 -0.73000002 -0.56999999 142 253 58 0.000000 0.000000 0.000000 0.000000 -8.844074 0.000000 252.000000 0.615270 -0.257812 0.744967
12.43000031 -0.68000001 -0.52999997 142 253 58 0.000000 0.000000 0.000000 0.000000 -8.844074 0.000000 252.000000 0.641449 -0.094975 0.761264
12.39999962 -0.68000001 -0.55000001 142 253 58 0.000000 0.000000 0.000000 0.000000 -8.844074 0.000000 252.000000 0.943904 -0.088450 0.318155
12.42000008 -0.68000001 -0.56000000 142 253 58 0.000000 0.000000 0.000000 0.000000 -8.844074 0.000000 252.000000 0.720699 0.400755 0.565675
12.43999958 -0.70999998 -0.57999998 142 253 58 0.000000 0.000000 0.000000 0.000000 -8.844074 0.000000 252.000000 0.533061 0.201986 0.821613
12.43000031 -0.73000002 -0.52999997 142 253 58 0.000000 0.000000 0.000000 0.000000 -8.844074 0.000000 252.000000 0.803435 -0.001369 0.595391
12.43000031 -0.72000003 -0.52999997 142 253 58 0.000000 0.000000 0.000000 0.000000 -8.844074 0.000000 252.000000 0.645960 -0.079838 0.759185
12.27000046 -0.58999997 -0.38999999 142 253 58 0.000000 0.000000 0.000000 0.000000 -8.844074 0.000000 252.000000 0.709311 0.101751 0.697513
12.35999966 -0.58999997 -0.47000000 142 253 58 0.000000 0.000000 0.000000 0.000000 -8.844074 0.000000 252.000000 0.811518 -0.067032 0.580470
12.30000019 -0.58999997 -0.41999999 142 253 58 0.000000 0.000000 0.000000 0.000000 -8.844074 0.000000 252.000000 0.682199 0.301587 0.666071
12.23999977 -0.56999999 -0.46000001 142 253 58 0.000000 0.000000 0.000000 0.000000 -8.844074 0.000000 252.000000 0.746036 0.162578 0.645754
12.27999973 -0.58999997 -0.54000002 142 253 58 0.000000 0.000000 0.000000 0.000000 -8.844074 0.000000 252.000000 0.905060 0.072350 0.419085
12.25000000 -0.58999997 -0.54000002 142 253 58 0.000000 0.000000 0.000000 0.000000 -8.844074 0.000000 252.000000 0.912869 0.259783 0.314933
12.32999992 -0.63000000 -0.25000000 142 253 58 0.000000 0.000000 0.000000 0.000000 -8.844074 0.000000 252.000000 0.730980 0.469087 0.495607
12.35000038 -0.66000003 -0.25999999 142 253 58 0.000000 0.000000 0.000000 0.000000 -8.844074 0.000000 252.000000 0.570904 0.112429 0.813283
12.39000034 -0.63999999 -0.36000001 142 253 58 0.000000 0.000000 0.000000 0.000000 -8.844074 0.000000 252.000000 0.820734 0.212443 0.530344
12.32999992 -0.61000001 -0.36000001 142 253 58 0.000000 0.000000 0.000000 0.000000 -8.844074 0.000000 252.000000 0.867758 0.249009 0.430106
12.30000019 -0.62000000 -0.33000001 142 253 58 0.000000 0.000000 0.000000 0.000000 -8.844074 0.000000 252.000000 0.719181 0.347360 0.601764
12.35999966 -0.60000002 -0.41999999 142 253 58 0.000000 0.000000 0.000000 0.000000 -8.844074 0.000000 252.000000 0.888082 -0.036497 0.458234
12.39000034 -0.62000000 -0.41999999 142 253 58 0.000000 0.000000 0.000000 0.000000 -8.844074 0.000000 252.000000 0.820979 0.218622 0.527445
12.39000034 -0.60000002 -0.47999999 142 253 58 0.000000 0.000000 0.000000 0.000000 -8.844074 0.000000 252.000000 0.864615 0.259840 0.430028
12.30000019 -0.60000002 -0.41999999 142 253 58 0.000000 0.000000 0.000000 0.000000 -8.844074 0.000000 252.000000 0.612488 0.507876 0.605739
12.27000046 -0.61000001 -0.50000000 142 253 58 0.000000 0.000000 0.000000 0.000000 -8.844074 0.000000 252.000000 0.913700 -0.054849 0.402670
12.42000008 -0.63000000 -0.66000003 142 253 58 0.000000 0.000000 0.000000 0.000000 -8.844074 0.000000 252.000000 0.852672 0.267895 0.448533
12.40999985 -0.67000002 -0.62000000 142 253 58 0.000000 0.000000 0.000000 0.000000 -8.844074 0.000000 252.000000 0.958544 0.033655 0.282951
12.39999962 -0.62000000 -0.74000001 142 253 58 0.000000 0.000000 0.000000 0.000000 -8.844074 0.000000 252.000000 0.687340 0.412404 0.597903
12.40999985 -0.67000002 -0.69000000 142 253 58 0.000000 0.000000 0.000000 0.000000 -8.844074 0.000000 252.000000 0.888740 0.176002 0.423279
12.43000031 -0.67000002 -0.68000001 142 253 58 0.000000 0.000000 0.000000 0.000000 -8.844074 0.000000 252.000000 0.961812 -0.056577 0.267799
12.43999958 -0.67000002 -0.72000003 142 253 58 0.000000 0.000000 0.000000 0.000000 -8.844074 0.000000 252.000000 0.802461 0.115895 0.585342
12.46000004 -0.75999999 -0.62000000 142 253 58 0.000000 0.000000 0.000000 0.000000 -8.844074 0.000000 252.000000 0.698021 -0.172596 0.694966
12.44999981 -0.75999999 -0.62000000 142 253 58 0.000000 0.000000 0.000000 0.000000 -8.844074 0.000000 252.000000 0.745009 0.172160 0.644455
12.44999981 -0.74000001 -0.60000002 142 253 58 0.000000 0.000000 0.000000 0.000000 -8.844074 0.000000 252.000000 0.852377 -0.258621 0.454499
12.46000004 -0.68000001 -0.73000002 142 253 58 0.000000 0.000000 0.000000 0.000000 -8.844074 0.000000 252.000000 0.685156 0.409766 0.602207
12.39999962 -0.63000000 -0.79000002 142 253 58 0.000000 0.000000 0.000000 0.000000 -8.844074 0.000000 252.000000 0.872133 0.085668 0.481710
12.39999962 -0.61000001 -0.82999998 142 253 58 0.000000 0.000000 0.000000 0.000000 -8.844074 0.000000 252.000000 0.794739 0.064207 0.603545
12.39999962 -0.60000002 -0.82999998 142 253 58 0.000000 0.000000 0.000000 0.000000 -8.844074 0.000000 252.000000 0.672373 0.394833 0.626116
12.43999958 -0.67000002 -0.87000000 142 253 58 0.000000 0.000000 0.000000 0.000000 -8.844074 0.000000 252.000000 0.529691 0.449988 0.718984
12.42000008 -0.63999999 -0.88999999 142 253 58 0.000000 0.000000 0.000000 0.000000 -8.844074 0.000000 252.000000 0.560626 0.506752 0.654905
12.42000008 -0.63999999 -0.88999999 142 253 58 0.000000 0.000000 0.000000 0.000000 -8.844074 0.000000 252.000000 0.560626 0.506752 0.654905
12.46000004 -0.75999999 -0.75999999 142 253 58 0.000000 0.000000 0.000000 0.000000 -8.844074 0.000000 252.000000 0.773891 0.293983 0.560952
12.47000027 -0.75999999 -0.75999999 142 253 58 0.000000 0.000000 0.000000 0.000000 -8.844074 0.000000 252.000000 0.752542 0.390146 0.530534
12.46000004 -0.74000001 -0.80000001 142 253 58 0.000000 0.000000 0.000000 0.000000 -8.844074 0.000000 252.000000 0.833778 0.251212 0.491636
12.46000004 -0.74000001 -0.80000001 142 253 58 0.000000 0.000000 0.000000 0.000000 -8.844074 0.000000 252.000000 0.833778 0.251212 0.491636
12.46000004 -0.72000003 -0.85000002 142 253 58 0.000000 0.000000 0.000000 0.000000 -8.844074 0.000000 252.000000 0.729769 0.403597 0.551857
12.46000004 -0.72000003 -0.85000002 142 253 58 0.000000 0.000000 0.000000 0.000000 -8.844074 0.000000 252.000000 0.729769 0.403597 0.551857
12.46000004 -0.72000003 -0.88999999 142 253 58 0.000000 0.000000 0.000000 0.000000 -8.844074 0.000000 252.000000 0.639704 0.545183 0.541807
12.32999992 -0.57999998 -0.74000001 142 253 58 0.000000 0.000000 0.000000 0.000000 -8.844074 0.000000 252.000000 0.915242 0.337648 0.219831
12.27999973 -0.56000000 -0.61000001 142 253 58 0.000000 0.000000 0.000000 0.000000 -8.844074 0.000000 252.000000 0.949312 0.123823 0.288921
12.30000019 -0.57999998 -0.61000001 142 253 58 0.000000 0.000000 0.000000 0.000000 -8.844074 0.000000 252.000000 0.850448 0.444448 0.281432
12.28999996 -0.56999999 -0.66000003 142 253 58 0.000000 0.000000 0.000000 0.000000 -8.844074 0.000000 252.000000 0.910342 0.227224 0.345901
12.27999973 -0.56999999 -0.64999998 142 253 58 0.000000 0.000000 0.000000 0.000000 -8.844074 0.000000 252.000000 0.681656 0.588324 0.434993
12.25000000 -0.55000001 -0.60000002 142 253 58 0.000000 0.000000 0.000000 0.000000 -8.844074 0.000000 252.000000 0.671079 0.654751 0.347785
12.35999966 -0.58999997 -0.79000002 142 253 58 0.000000 0.000000 0.000000 0.000000 -8.844074 0.000000 252.000000 0.569736 0.382560 0.727357
12.35999966 -0.58999997 -0.79000002 142 253 58 0.000000 0.000000 0.000000 0.000000 -8.844074 0.000000 252.000000 0.569736 0.382560 0.727357
12.31999969 -0.56999999 -0.76999998 142 253 58 0.000000 0.000000 0.000000 0.000000 -8.844074 0.000000 252.000000 0.501840 0.555548 0.662965
12.32999992 -0.55000001 -0.91000003 142 253 58 0.000000 0.000000 0.000000 0.000000 -8.844074 0.000000 252.000000 0.932288 0.229205 0.279827
12.28999996 -0.52999997 -0.80000001 142 253 58 0.000000 0.000000 0.000000 0.000000 -8.844074 0.000000 252.000000 0.735176 0.363513 0.572166
12.28999996 -0.52999997 -0.81000000 142 253 58 0.000000 0.000000 0.000000 0.000000 -8.844074 0.000000 252.000000 0.883751 0.336883 0.324797
12.25000000 -0.54000002 -0.79000002 142 253 58 0.000000 0.000000 0.000000 0.000000 -8.844074 0.000000 252.000000 0.768443 0.635304 0.076700
12.23999977 -0.52999997 -0.81999999 142 253 58 0.000000 0.000000 0.000000 0.000000 -8.844074 0.000000 252.000000 0.670316 0.695670 0.258301
12.30000019 -0.56000000 -0.87000000 142 253 58 0.000000 0.000000 0.000000 0.000000 -8.844074 0.000000 252.000000 0.901991 0.348730 0.254559
12.25000000 -0.52999997 -0.87000000 142 253 58 0.000000 0.000000 0.000000 0.000000 -8.844074 0.000000 252.000000 0.477986 0.704488 0.524619
12.26000023 -0.51999998 -0.91000003 142 253 58 0.000000 0.000000 0.000000 0.000000 -8.844074 0.000000 252.000000 0.644373 0.513143 0.566981
12.34000015 -0.60000002 -0.58999997 142 253 58 0.000000 0.000000 0.000000 0.000000 -8.844074 0.000000 252.000000 0.978190 0.180873 0.102125
12.35999966 -0.60000002 -0.73000002 142 253 58 0.000000 0.000000 0.000000 0.000000 -8.844074 0.000000 252.000000 0.824794 0.258425 0.502923
12.38000011 -0.60000002 -0.81999999 142 253 58 0.000000 0.000000 0.000000 0.000000 -8.844074 0.000000 252.000000 0.606365 0.471990 0.639958
12.36999989 -0.60000002 -0.88000000 142 253 58 0.000000 0.000000 0.000000 0.000000 -8.844074 0.000000 252.000000 0.957348 0.174426 0.230349
12.40999985 -0.56000000 -1.04999995 142 253 58 0.000000 0.000000 0.000000 0.000000 -8.844074 0.000000 252.000000 0.497380 0.678245 0.540922
12.50000000 -0.75999999 -1.09000003 142 253 58 0.000000 0.000000 0.000000 0.000000 -8.844074 0.000000 252.000000 0.612279 0.504329 0.608906
12.44999981 -0.67000002 -0.93000001 142 253 58 0.000000 0.000000 0.000000 0.000000 -8.844074 0.000000 252.000000 0.516292 0.556653 0.650830
12.40999985 -0.63000000 -0.93000001 142 253 58 0.000000 0.000000 0.000000 0.000000 -8.844074 0.000000 252.000000 0.947882 0.052589 0.314251
12.39999962 -0.61000001 -1.00000000 142 253 58 0.000000 0.000000 0.000000 0.000000 -8.844074 0.000000 252.000000 0.496044 0.630564 0.596934
12.43999958 -0.64999998 -0.98000002 142 253 58 0.000000 0.000000 0.000000 0.000000 -8.844074 0.000000 252.000000 0.660783 0.202723 0.722682
12.43999958 -0.64999998 -0.98000002 142 253 58 0.000000 0.000000 0.000000 0.000000 -8.844074 0.000000 252.000000 0.660783 0.202723 0.722682
12.44999981 -0.63000000 -1.02999997 142 253 58 0.000000 0.000000 0.000000 0.000000 -8.844074 0.000000 252.000000 0.778721 0.349860 0.520760
12.47000027 -0.63999999 -1.02999997 142 253 58 0.000000 0.000000 0.000000 0.000000 -8.844074 0.000000 252.000000 0.603935 0.580251 0.546417
12.43000031 -0.63000000 -1.04999995 142 253 58 0.000000 0.000000 0.000000 0.000000 -8.844074 0.000000 252.000000 0.738284 0.402850 0.540970
12.42000008 -0.61000001 -1.08000004 142 253 58 0.000000 0.000000 0.000000 0.000000 -8.844074 0.000000 252.000000 0.749836 0.313101 0.582849
12.43999958 -0.63999999 -1.00999999 142 253 58 0.000000 0.000000 0.000000 0.000000 -8.844074 0.000000 252.000000 0.519173 0.452825 0.724851
12.43999958 -0.66000003 -1.08000004 142 253 58 0.000000 0.000000 0.000000 0.000000 -8.844074 0.000000 252.000000 0.722810 0.438317 0.534251
12.46000004 -0.72000003 -0.94000000 142 253 58 0.000000 0.000000 0.000000 0.000000 -8.844074 0.000000 252.000000 0.638340 0.621585 0.454042
12.47000027 -0.72000003 -0.97000003 142 253 58 0.000000 0.000000 0.000000 0.000000 -8.844074 0.000000 252.000000 0.886083 0.003962 0.463510
12.46000004 -0.69999999 -1.08000004 142 253 58 0.000000 0.000000 0.000000 0.000000 -8.844074 0.000000 252.000000 0.645476 0.474467 0.598533
12.46000004 -0.69999999 -1.08000004 142 253 58 0.000000 0.000000 0.000000 0.000000 -8.844074 0.000000 252.000000 0.645476 0.474467 0.598533
12.47000027 -0.73000002 -1.02999997 142 253 58 0.000000 0.000000 0.000000 0.000000 -8.844074 0.000000 252.000000 0.624495 0.611029 0.486466
12.47000027 -0.74000001 -1.08000004 142 253 58 0.000000 0.000000 0.000000 0.000000 -8.844074 0.000000 252.000000 0.864926 0.101169 0.491597
12.48999977 -0.60000002 -1.24000001 142 253 58 0.000000 0.000000 0.000000 0.000000 -8.844074 0.000000 252.000000 0.549008 0.663175 0.508714
12.50000000 -0.68000001 -1.22000003 142 253 58 0.000000 0.000000 0.000000 0.000000 -8.844074 0.000000 252.000000 0.590108 0.647269 0.482510
12.44999981 -0.63000000 -1.12000000 142 253 58 0.000000 0.000000 0.000000 0.000000 -8.844074 0.000000 252.000000 0.584426 0.441234 0.680998
12.44999981 -0.66000003 -1.13000000 142 253 58 0.000000 0.000000 0.000000 0.000000 -8.844074 0.000000 252.000000 0.642217 0.474536 0.601974
12.47000027 -0.63999999 -1.16999996 142 253 58 0.000000 0.000000 0.000000 0.000000 -8.844074 0.000000 252.000000 0.771894 0.328978 0.544017
12.44999981 -0.62000000 -1.19000006 142 253 58 0.000000 0.000000 0.000000 0.000000 -8.844074 0.000000 252.000000 0.497514 0.738833 0.454539
12.44999981 -0.67000002 -1.21000004 142 253 58 0.000000 0.000000 0.000000 0.000000 -8.844074 0.000000 252.000000 0.725185 0.399592 0.560744
12.43000031 -0.61000001 -1.23000002 142 253 58 0.000000 0.000000 0.000000 0.000000 -8.844074 0.000000 252.000000 0.471274 0.739156 0.481196
12.47999954 -0.75000000 -1.10000002 142 253 58 0.000000 0.000000 0.000000 0.000000 -8.844074 0.000000 252.000000 0.562485 0.569241 0.599646
12.46000004 -0.68000001 -1.22000003 142 253 58 0.000000 0.000000 0.000000 0.000000 -8.844074 0.000000 252.000000 0.515254 0.754071 0.407296
12.39000034 -0.57999998 -0.95999998 142 253 58 0.000000 0.000000 0.000000 0.000000 -8.844074 0.000000 252.000000 0.749025 0.275120 0.602719
12.26000023 -0.51999998 -0.97000003 142 253 58 0.000000 0.000000 0.000000 0.000000 -8.844074 0.000000 252.000000 0.863526 0.465204 0.194702
12.43000031 -0.56999999 -1.25999999 142 253 58 0.000000 0.000000 0.000000 0.000000 -8.844074 0.000000 252.000000 0.452044 0.723602 0.521590
12.44999981 -0.54000002 -1.37000000 142 253 58 0.000000 0.000000 0.000000 0.000000 -8.844074 0.000000 252.000000 0.253609 0.966654 -0.035530
12.47000027 -0.54000002 -1.41999996 142 253 58 0.000000 0.000000 0.000000 0.000000 -8.844074 0.000000 252.000000 0.203932 0.919835 -0.335134
12.40999985 -0.51999998 -1.35000002 142 253 58 0.000000 0.000000 0.000000 0.000000 -8.844074 0.000000 252.000000 0.033686 0.999344 -0.013270
12.52999973 -0.56999999 -1.46000004 142 253 58 0.000000 0.000000 0.000000 0.000000 -8.844074 0.000000 252.000000 0.193849 0.976651 0.092603
12.51000023 -0.56000000 -1.46000004 142 253 58 0.000000 0.000000 0.000000 0.000000 -8.844074 0.000000 252.000000 0.392526 0.809084 0.437386
12.47000027 -0.54000002 -1.42999995 142 253 58 0.000000 0.000000 0.000000 0.000000 -8.844074 0.000000 252.000000 0.228151 0.941640 -0.247509
12.48999977 -0.63000000 -1.41999996 142 253 58 0.000000 0.000000 0.000000 0.000000 -8.844074 0.000000 252.000000 0.157367 0.940095 0.302418
12.52000046 -0.63000000 -1.42999995 142 253 58 0.000000 0.000000 0.000000 0.000000 -8.844074 0.000000 252.000000 0.256618 0.880906 0.397683
12.52999973 -0.63000000 -1.45000005 142 253 58 0.000000 0.000000 0.000000 0.000000 -8.844074 0.000000 252.000000 0.300967 0.878704 0.370538
12.35999966 -0.52999997 -1.26999998 142 253 58 0.000000 0.000000 0.000000 0.000000 -8.844074 0.000000 252.000000 0.118689 0.968652 0.218234
12.43000031 -0.76999998 -0.30000001 142 253 58 0.000000 0.000000 0.000000 0.000000 -8.844074 0.000000 252.000000 0.668831 -0.406609 0.622361
12.46000004 -0.81000000 -0.34999999 142 253 58 0.000000 0.000000 0.000000 0.000000 -8.844074 0.000000 252.000000 0.523641 -0.139344 0.840466
12.43000031 -0.91000003 -0.34999999 142 253 58 0.000000 0.000000 0.000000 0.000000 -8.844074 0.000000 252.000000 0.500119 -0.203976 0.841590
12.48999977 -0.88999999 -0.57999998 142 253 58 0.000000 0.000000 0.000000 0.000000 -8.844074 0.000000 252.000000 0.805085 -0.416201 0.422629
12.48999977 -0.88999999 -0.55000001 142 253 58 0.000000 0.000000 0.000000 0.000000 -8.844074 0.000000 252.000000 0.807781 -0.186411 0.559233
12.44999981 -0.80000001 -0.44000000 142 253 58 0.000000 0.000000 0.000000 0.000000 -8.844074 0.000000 252.000000 0.772203 0.175155 0.610756
12.46000004 -0.76999998 -0.47000000 142 253 58 0.000000 0.000000 0.000000 0.000000 -8.844074 0.000000 252.000000 0.698335 -0.333703 0.633222
12.46000004 -0.82999998 -0.41999999 142 253 58 0.000000 0.000000 0.000000 0.000000 -8.844074 0.000000 252.000000 0.694442 -0.220037 0.685079
12.46000004 -0.76999998 -0.55000001 142 253 58 0.000000 0.000000 0.000000 0.000000 -8.844074 0.000000 252.000000 0.813387 -0.052158 0.579380
12.47999954 -0.82999998 -0.52999997 142 253 58 0.000000 0.000000 0.000000 0.000000 -8.844074 0.000000 252.000000 0.731789 0.162789 0.661805
12.46000004 -0.81000000 -0.51999998 142 253 58 0.000000 0.000000 0.000000 0.000000 -8.844074 0.000000 252.000000 0.888829 -0.160423 0.429240
12.47999954 -0.81999999 -0.57999998 142 253 58 0.000000 0.000000 0.000000 0.000000 -8.844074 0.000000 252.000000 0.901529 -0.161447 0.401473
12.47000027 -0.81000000 -0.56999999 142 253 58 0.000000 0.000000 0.000000 0.000000 -8.844074 0.000000 252.000000 0.778550 0.283830 0.559732
12.47999954 -0.85000002 -0.44000000 142 253 58 0.000000 0.000000 0.000000 0.000000 -8.844074 0.000000 252.000000 0.688216 -0.537512 0.487277
12.47000027 -0.87000000 -0.49000001 142 253 58 0.000000 0.000000 0.000000 0.000000 -8.844074 0.000000 252.000000 0.886174 -0.373363 0.274399
12.47000027 -0.85000002 -0.50999999 142 253 58 0.000000 0.000000 0.000000 0.000000 -8.844074 0.000000 252.000000 0.842520 -0.040252 0.537159
12.47000027 -0.88000000 -0.56999999 142 253 58 0.000000 0.000000 0.000000 0.000000 -8.844074 0.000000 252.000000 0.796368 0.144930 0.587191
12.47000027 -0.94999999 -0.33000001 142 253 58 0.000000 0.000000 0.000000 0.000000 -8.844074 0.000000 252.000000 0.522088 -0.397703 0.754491
12.44999981 -0.95999998 -0.38999999 142 253 58 0.000000 0.000000 0.000000 0.000000 -8.844074 0.000000 252.000000 0.854811 0.104525 0.508304
12.44999981 -0.95999998 -0.38999999 142 253 58 0.000000 0.000000 0.000000 0.000000 -8.844074 0.000000 252.000000 0.854811 0.104525 0.508304
12.43000031 -1.02999997 -0.34999999 142 253 58 0.000000 0.000000 0.000000 0.000000 -8.844074 0.000000 252.000000 0.492084 -0.200144 0.847228
12.44999981 -0.99000001 -0.49000001 142 253 58 0.000000 0.000000 0.000000 0.000000 -8.844074 0.000000 252.000000 0.650779 -0.446679 0.613974
12.43000031 -0.99000001 -0.43000001 142 253 58 0.000000 0.000000 0.000000 0.000000 -8.844074 0.000000 252.000000 0.514965 -0.606140 0.606140
12.42000008 -1.04999995 -0.51999998 142 253 58 0.000000 0.000000 0.000000 0.000000 -8.844074 0.000000 252.000000 -0.548075 0.741128 -0.387742
12.40999985 -1.03999996 -0.56999999 142 253 58 0.000000 0.000000 0.000000 0.000000 -8.844074 0.000000 252.000000 0.610576 -0.573366 0.546305
12.42000008 -1.05999994 -0.56000000 142 253 58 0.000000 0.000000 0.000000 0.000000 -8.844074 0.000000 252.000000 -0.620325 0.708245 -0.337027
12.43000031 -1.07000005 -0.56999999 142 253 58 0.000000 0.000000 0.000000 0.000000 -8.844074 0.000000 252.000000 0.699173 -0.162988 0.696126
12.50000000 -0.77999997 -0.69999999 142 253 58 0.000000 0.000000 0.000000 0.000000 -8.844074 0.000000 252.000000 0.596076 0.141923 0.790286
12.48999977 -0.85000002 -0.69999999 142 253 58 0.000000 0.000000 0.000000 0.000000 -8.844074 0.000000 252.000000 0.607678 0.119761 0.785102
12.48999977 -0.92000002 -0.74000001 142 253 58 0.000000 0.000000 0.000000 0.000000 -8.844074 0.000000 252.000000 0.704931 -0.304879 0.640407
12.44999981 -0.76999998 -0.61000001 142 253 58 0.000000 0.000000 0.000000 0.000000 -8.844074 0.000000 252.000000 0.832023 0.155726 0.532435
12.47999954 -0.79000002 -0.62000000 142 253 58 0.000000 0.000000 0.000000 0.000000 -8.844074 0.000000 252.000000 0.718647 -0.162569 0.676105
12.47000027 -0.77999997 -0.62000000 142 253 58 0.000000 0.000000 0.000000 0.000000 -8.844074 0.000000 252.000000 0.639315 0.240332 0.730422
12.47000027 -0.77999997 -0.61000001 142 253 58 0.000000 0.000000 0.000000 0.000000 -8.844074 0.000000 252.000000 0.678229 0.203313 0.706165
12.47000027 -0.79000002 -0.73000002 142 253 58 0.000000 0.000000 0.000000 0.000000 -8.844074 0.000000 252.000000 0.644685 0.076783 0.760583
12.46000004 -0.76999998 -0.75000000 142 253 58 0.000000 0.000000 0.000000 0.000000 -8.844074 0.000000 252.000000 0.620924 0.383754 0.683510
12.47000027 -0.81000000 -0.68000001 142 253 58 0.000000 0.000000 0.000000 0.000000 -8.844074 0.000000 252.000000 0.892662 -0.330449 0.306525
12.47000027 -0.81000000 -0.68000001 142 253 58 0.000000 0.000000 0.000000 0.000000 -8.844074 0.000000 252.000000 0.892662 -0.330449 0.306525
12.43999958 -0.81000000 -0.69000000 142 253 58 0.000000 0.000000 0.000000 0.000000 -8.844074 0.000000 252.000000 0.739258 0.296665 0.604556
12.47000027 -0.85000002 -0.60000002 142 253 58 0.000000 0.000000 0.000000 0.000000 -8.844074 0.000000 252.000000 0.685958 -0.351983 0.636844
12.46000004 -0.88000000 -0.63999999 142 253 58 0.000000 0.000000 0.000000 0.000000 -8.844074 0.000000 252.000000 0.854190 -0.316653 0.412421
12.46000004 -0.93000001 -0.60000002 142 253 58 0.000000 0.000000 0.000000 0.000000 -8.844074 0.000000 252.000000 0.811701 -0.460868 0.358807
12.44999981 -0.91000003 -0.58999997 142 253 58 0.000000 0.000000 0.000000 0.000000 -8.844074 0.000000 252.000000 0.595263 -0.332504 0.731508
12.47000027 -0.87000000 -0.68000001 142 253 58 0.000000 0.000000 0.000000 0.000000 -8.844074 0.000000 252.000000 0.872268 -0.125020 0.472778
12.47000027 -0.86000001 -0.70999998 142 253 58 0.000000 0.000000 0.000000 0.000000 -8.844074 0.000000 252.000000 0.783764 0.076500 0.616330
12.47999954 -0.83999997 -0.75999999 142 253 58 0.000000 0.000000 0.000000 0.000000 -8.844074 0.000000 252.000000 0.851552 -0.119998 0.510353
12.47000027 -0.81000000 -0.75999999 142 253 58 0.000000 0.000000 0.000000 0.000000 -8.844074 0.000000 252.000000 0.863536 -0.014865 0.504067
12.47999954 -0.83999997 -0.75999999 142 253 58 0.000000 0.000000 0.000000 0.000000 -8.844074 0.000000 252.000000 0.851552 -0.119998 0.510353
12.47000027 -0.82999998 -0.75999999 142 253 58 0.000000 0.000000 0.000000 0.000000 -8.844074 0.000000 252.000000 0.773227 0.290556 0.563646
12.47000027 -0.82999998 -0.80000001 142 253 58 0.000000 0.000000 0.000000 0.000000 -8.844074 0.000000 252.000000 0.710013 0.130045 0.692076
12.47000027 -0.76999998 -0.88000000 142 253 58 0.000000 0.000000 0.000000 0.000000 -8.844074 0.000000 252.000000 0.557554 0.227037 0.798491
12.47000027 -0.82999998 -0.88999999 142 253 58 0.000000 0.000000 0.000000 0.000000 -8.844074 0.000000 252.000000 0.679987 0.095462 0.726984
12.47999954 -0.89999998 -0.81000000 142 253 58 0.000000 0.000000 0.000000 0.000000 -8.844074 0.000000 252.000000 0.663518 -0.026653 0.747685
12.44999981 -0.85000002 -0.88000000 142 253 58 0.000000 0.000000 0.000000 0.000000 -8.844074 0.000000 252.000000 0.719285 0.216878 0.659995
12.47999954 -0.88999999 -0.87000000 142 253 58 0.000000 0.000000 0.000000 0.000000 -8.844074 0.000000 252.000000 0.864005 -0.269716 0.425145
12.47999954 -0.91000003 -0.83999997 142 253 58 0.000000 0.000000 0.000000 0.000000 -8.844074 0.000000 252.000000 0.807848 0.173650 0.563229
12.44999981 -0.94999999 -0.60000002 142 253 58 0.000000 0.000000 0.000000 0.000000 -8.844074 0.000000 252.000000 0.803946 0.106512 0.585086
12.46000004 -0.97000003 -0.62000000 142 253 58 0.000000 0.000000 0.000000 0.000000 -8.844074 0.000000 252.000000 0.706672 -0.601737 0.372192
12.47000027 -0.95999998 -0.63000000 142 253 58 0.000000 0.000000 0.000000 0.000000 -8.844074 0.000000 252.000000 0.885513 0.003971 0.464597
12.44999981 -0.98000002 -0.62000000 142 253 58 0.000000 0.000000 0.000000 0.000000 -8.844074 0.000000 252.000000 0.485976 -0.271712 0.830662
12.47000027 -0.98000002 -0.63999999 142 253 58 0.000000 0.000000 0.000000 0.000000 -8.844074 0.000000 252.000000 0.510581 -0.451095 0.731997
12.47999954 -0.97000003 -0.70999998 142 253 58 0.000000 0.000000 0.000000 0.000000 -8.844074 0.000000 252.000000 0.594138 -0.573826 0.563670
12.47000027 -0.94000000 -0.67000002 142 253 58 0.000000 0.000000 0.000000 0.000000 -8.844074 0.000000 252.000000 0.793368 -0.237545 0.560481
12.47000027 -1.00999999 -0.73000002 142 253 58 0.000000 0.000000 0.000000 0.000000 -8.844074 0.000000 252.000000 0.470754 -0.594725 0.651685
12.43000031 -0.98000002 -0.69999999 142 253 58 0.000000 0.000000 0.000000 0.000000 -8.844074 0.000000 252.000000 0.643943 -0.067708 0.762071
12.43000031 -1.03999996 -0.63000000 142 253 58 0.000000 0.000000 0.000000 0.000000 -8.844074 0.000000 252.000000 0.690039 -0.398800 0.603991
12.42000008 -1.01999998 -0.72000003 142 253 58 0.000000 0.000000 0.000000 0.000000 -8.844074 0.000000 252.000000 0.842456 -0.086954 0.531702
12.39999962 -1.09000003 -0.70999998 142 253 58 0.000000 0.000000 0.000000 0.000000 -8.844074 0.000000 252.000000 -0.546057 0.773448 -0.321870
12.44999981 -0.99000001 -0.75999999 142 253 58 0.000000 0.000000 0.000000 0.000000 -8.844074 0.000000 252.000000 -0.563566 0.600799 -0.566951
12.44999981 -1.00999999 -0.82999998 142 253 58 0.000000 0.000000 0.000000 0.000000 -8.844074 0.000000 252.000000 0.612521 -0.278419 0.739798
12.46000004 -1.04999995 -0.77999997 142 253 58 0.000000 0.000000 0.000000 0.000000 -8.844074 0.000000 252.000000 0.581297 -0.338415 0.739979
12.47000027 -1.05999994 -0.80000001 142 253 58 0.000000 0.000000 0.000000 0.000000 -8.844074 0.000000 252.000000 -0.454509 0.707568 -0.541082
12.43999958 -1.03999996 -0.81000000 142 253 58 0.000000 0.000000 0.000000 0.000000 -8.844074 0.000000 252.000000 0.723014 -0.372164 0.582018
12.43000031 -1.03999996 -0.81000000 142 253 58 0.000000 0.000000 0.000000 0.000000 -8.844074 0.000000 252.000000 -0.648815 0.674964 -0.351373
12.44999981 -1.01999998 -0.87000000 142 253 58 0.000000 0.000000 0.000000 0.000000 -8.844074 0.000000 252.000000 0.743021 -0.453061 0.492601
12.43999958 -1.01999998 -0.91000003 142 253 58 0.000000 0.000000 0.000000 0.000000 -8.844074 0.000000 252.000000 0.615746 -0.286282 0.734097
12.39999962 -1.08000004 -0.88000000 142 253 58 0.000000 0.000000 0.000000 0.000000 -8.844074 0.000000 252.000000 -0.545007 0.778354 -0.311661
12.43999958 -1.09000003 -0.91000003 142 253 58 0.000000 0.000000 0.000000 0.000000 -8.844074 0.000000 252.000000 0.814067 -0.182750 0.551270
12.39000034 -1.09000003 -0.70999998 142 253 58 0.000000 0.000000 0.000000 0.000000 -8.844074 0.000000 252.000000 0.580191 -0.640733 0.502832
12.38000011 -1.09000003 -0.89999998 142 253 58 0.000000 0.000000 0.000000 0.000000 -8.844074 0.000000 252.000000 0.488001 -0.501325 0.714513
12.38000011 -1.09000003 -0.88999999 142 253 58 0.000000 0.000000 0.000000 0.000000 -8.844074 0.000000 252.000000 -0.563728 0.396089 -0.724793
12.39000034 -1.05999994 -0.89999998 142 253 58 0.000000 0.000000 0.000000 0.000000 -8.844074 0.000000 252.000000 0.542527 -0.420500 0.727217
12.36999989 -1.12000000 -0.72000003 142 253 58 0.000000 0.000000 0.000000 0.000000 -8.844074 0.000000 252.000000 0.740087 -0.446690 0.502732
12.32999992 -1.13999999 -0.75999999 142 253 58 0.000000 0.000000 0.000000 0.000000 -8.844074 0.000000 252.000000 0.651444 -0.347763 0.674301
12.35000038 -1.16999996 -0.88999999 142 253 58 0.000000 0.000000 0.000000 0.000000 -8.844074 0.000000 252.000000 -0.481238 0.558370 -0.675746
12.27000046 -1.17999995 -0.87000000 142 253 58 0.000000 0.000000 0.000000 0.000000 -8.844074 0.000000 252.000000 -0.022297 0.911572 -0.410535
12.26000023 -1.20000005 -0.76999998 142 253 58 0.000000 0.000000 0.000000 0.000000 -8.844074 0.000000 252.000000 -0.352975 0.781702 -0.514150
12.27000046 -1.20000005 -0.76999998 142 253 58 0.000000 0.000000 0.000000 0.000000 -8.844074 0.000000 252.000000 -0.058252 0.805577 -0.589620
12.27999973 -1.20000005 -0.87000000 142 253 58 0.000000 0.000000 0.000000 0.000000 -8.844074 0.000000 252.000000 -0.352012 0.747822 -0.562894
12.30000019 -1.20000005 -0.87000000 142 253 58 0.000000 0.000000 0.000000 0.000000 -8.844074 0.000000 252.000000 -0.164629 0.780854 -0.602632
12.23999977 -1.22000003 -0.87000000 142 253 58 0.000000 0.000000 0.000000 0.000000 -8.844074 0.000000 252.000000 -0.075865 0.817341 -0.571137
12.23999977 -1.21000004 -0.86000001 142 253 58 0.000000 0.000000 0.000000 0.000000 -8.844074 0.000000 252.000000 -0.089823 0.902379 -0.421479
12.23999977 -1.22000003 -0.87000000 142 253 58 0.000000 0.000000 0.000000 0.000000 -8.844074 0.000000 252.000000 -0.075865 0.817341 -0.571137
12.25000000 -1.22000003 -0.88000000 142 253 58 0.000000 0.000000 0.000000 0.000000 -8.844074 0.000000 252.000000 -0.475430 0.748514 -0.462269
12.27000046 -1.22000003 -0.88999999 142 253 58 0.000000 0.000000 0.000000 0.000000 -8.844074 0.000000 252.000000 -0.337679 0.667202 -0.663939
12.27000046 -1.22000003 -0.88999999 142 253 58 0.000000 0.000000 0.000000 0.000000 -8.844074 0.000000 252.000000 -0.337679 0.667202 -0.663939
12.48999977 -0.88000000 -1.08000004 142 253 58 0.000000 0.000000 0.000000 0.000000 -8.844074 0.000000 252.000000 0.862980 -0.318426 0.392264
12.48999977 -0.88999999 -1.08000004 142 253 58 0.000000 0.000000 0.000000 0.000000 -8.844074 0.000000 252.000000 0.765333 -0.091840 0.637049
12.47999954 -0.83999997 -0.98000002 142 253 58 0.000000 0.000000 0.000000 0.000000 -8.844074 0.000000 252.000000 0.838957 -0.148918 0.523426
12.47000027 -0.82999998 -1.05999994 142 253 58 0.000000 0.000000 0.000000 0.000000 -8.844074 0.000000 252.000000 0.827933 0.121197 0.547575
12.47000027 -0.77999997 -1.07000005 142 253 58 0.000000 0.000000 0.000000 0.000000 -8.844074 0.000000 252.000000 0.898848 -0.137738 0.416054
12.47999954 -0.87000000 -1.03999996 142 253 58 0.000000 0.000000 0.000000 0.000000 -8.844074 0.000000 252.000000 0.847964 0.222989 0.480867
12.47000027 -0.86000001 -1.03999996 142 253 58 0.000000 0.000000 0.000000 0.000000 -8.844074 0.000000 252.000000 0.863286 -0.279613 0.420183
12.47000027 -0.86000001 -1.03999996 142 253 58 0.000000 0.000000 0.000000 0.000000 -8.844074 0.000000 252.000000 0.863286 -0.279613 0.420183
12.47999954 -0.85000002 -1.03999996 142 253 58 0.000000 0.000000 0.000000 0.000000 -8.844074 0.000000 252.000000 0.742406 -0.018176 0.669703
12.47999954 -0.83999997 -1.12000000 142 253 58 0.000000 0.000000 0.000000 0.000000 -8.844074 0.000000 252.000000 0.564883 0.037659 0.824311
12.47000027 -0.85000002 -1.12000000 142 253 58 0.000000 0.000000 0.000000 0.000000 -8.844074 0.000000 252.000000 0.707090 -0.006946 0.707090
12.44999981 -0.99000001 -0.94999999 142 253 58 0.000000 0.000000 0.000000 0.000000 -8.844074 0.000000 252.000000 0.824190 -0.189034 0.533833
12.44999981 -0.99000001 -0.94999999 142 253 58 0.000000 0.000000 0.000000 0.000000 -8.844074 0.000000 252.000000 0.824190 -0.189034 0.533833
12.44999981 -1.00999999 -0.94999999 142 253 58 0.000000 0.000000 0.000000 0.000000 -8.844074 0.000000 252.000000 0.765765 -0.426150 0.481664
12.47999954 -0.94999999 -1.09000003 142 253 58 0.000000 0.000000 0.000000 0.000000 -8.844074 0.000000 252.000000 0.697064 -0.021038 0.716700
12.43000031 -1.00000000 -1.08000004 142 253 58 0.000000 0.000000 0.000000 0.000000 -8.844074 0.000000 252.000000 0.597685 -0.506769 0.621255
12.43999958 -1.00000000 -1.07000005 142 253 58 0.000000 0.000000 0.000000 0.000000 -8.844074 0.000000 252.000000 -0.752735 0.428026 -0.500184
12.43000031 -1.02999997 -0.97000003 142 253 58 0.000000 0.000000 0.000000 0.000000 -8.844074 0.000000 252.000000 0.717184 -0.507520 0.477568
12.40999985 -1.09000003 -1.02999997 142 253 58 0.000000 0.000000 0.000000 0.000000 -8.844074 0.000000 252.000000 0.468664 -0.273774 0.839882
12.46000004 -1.00999999 -1.11000001 142 253 58 0.000000 0.000000 0.000000 0.000000 -8.844074 0.000000 252.000000 0.838007 -0.207607 0.504623
12.39999962 -1.11000001 -1.05999994 142 253 58 0.000000 0.000000 0.000000 0.000000 -8.844074 0.000000 252.000000 -0.363515 0.874564 -0.320927
12.34000015 -1.15999997 -1.00000000 142 253 58 0.000000 0.000000 0.000000 0.000000 -8.844074 0.000000 252.000000 -0.370096 0.741823 -0.559220
12.34000015 -1.20000005 -1.02999997 142 253 58 0.000000 0.000000 0.000000 0.000000 -8.844074 0.000000 252.000000 -0.509413 0.496052 -0.703158
12.31000042 -1.16999996 -1.03999996 142 253 58 0.000000 0.000000 0.000000 0.000000 -8.844074 0.000000 252.000000 -0.166833 0.908316 -0.383574
12.27999973 -1.19000006 -0.97000003 142 253 58 0.000000 0.000000 0.000000 0.000000 -8.844074 0.000000 252.000000 -0.477928 0.591959 -0.648975
12.28999996 -1.21000004 -0.97000003 142 253 58 0.000000 0.000000 0.000000 0.000000 -8.844074 0.000000 252.000000 -0.514983 0.518337 -0.682729
12.23999977 -1.22000003 -0.99000001 142 253 58 0.000000 0.000000 0.000000 0.000000 -8.844074 0.000000 252.000000 0.074785 0.962062 -0.262381
12.35999966 -1.13000000 -1.22000003 142 253 58 0.000000 0.000000 0.000000 0.000000 -8.844074 0.000000 252.000000 -0.565386 0.636270 -0.524881
12.32999992 -1.17999995 -1.17999995 142 253 58 0.000000 0.000000 0.000000 0.000000 -8.844074 0.000000 252.000000 -0.329203 0.806308 -0.491419
12.35999966 -1.20000005 -1.23000002 142 253 58 0.000000 0.000000 0.000000 0.000000 -8.844074 0.000000 252.000000 -0.224733 0.827079 -0.515204
12.25000000 -1.23000002 -1.12000000 142 253 58 0.000000 0.000000 0.000000 0.000000 -8.844074 0.000000 252.000000 0.223773 -0.718266 0.658802
12.30000019 -1.19000006 -1.13000000 142 253 58 0.000000 0.000000 0.000000 0.000000 -8.844074 0.000000 252.000000 -0.108959 0.823729 -0.556416
12.28999996 -1.20000005 -1.13000000 142 253 58 0.000000 0.000000 0.000000 0.000000 -8.844074 0.000000 252.000000 0.208388 -0.606641 0.767177
12.31000042 -1.22000003 -1.20000005 142 253 58 0.000000 0.000000 0.000000 0.000000 -8.844074 0.000000 252.000000 -0.159993 0.892213 -0.422324
12.15999985 -0.58999997 -0.30000001 142 253 58 0.000000 0.000000 0.000000 0.000000 -8.844074 0.000000 252.000000 0.969838 0.065815 0.234698
12.15999985 -0.58999997 -0.30000001 142 253 58 0.000000 0.000000 0.000000 0.000000 -8.844074 0.000000 252.000000 0.969838 0.065815 0.234698
12.22000027 -0.58999997 -0.34000000 142 253 58 0.000000 0.000000 0.000000 0.000000 -8.844074 0.000000 252.000000 0.747248 0.544494 0.380982
12.21000004 -0.57999998 -0.34000000 142 253 58 0.000000 0.000000 0.000000 0.000000 -8.844074 0.000000 252.000000 0.871150 0.206991 0.445255
12.22000027 -0.57999998 -0.34999999 142 253 58 0.000000 0.000000 0.000000 0.000000 -8.844074 0.000000 252.000000 0.897482 0.249055 0.364003
12.14999962 -0.58999997 -0.36000001 142 253 58 0.000000 0.000000 0.000000 0.000000 -8.844074 0.000000 252.000000 0.941130 0.284400 0.182730
12.18000031 -0.57999998 -0.37000000 142 253 58 0.000000 0.000000 0.000000 0.000000 -8.844074 0.000000 252.000000 0.890845 -0.099294 0.443325
12.18999958 -0.57999998 -0.50999999 142 253 58 0.000000 0.000000 0.000000 0.000000 -8.844074 0.000000 252.000000 0.607994 0.079429 0.789959
12.18999958 -0.57999998 -0.50999999 142 253 58 0.000000 0.000000 0.000000 0.000000 -8.844074 0.000000 252.000000 0.607994 0.079429 0.789959
12.11999989 -0.58999997 -0.57999998 142 253 58 0.000000 0.000000 0.000000 0.000000 -8.844074 0.000000 252.000000 0.602207 0.685156 0.409766
12.10999966 -0.58999997 -0.57999998 142 253 58 0.000000 0.000000 0.000000 0.000000 -8.844074 0.000000 252.000000 0.705672 0.294164 0.644589
12.10999966 -0.58999997 -0.57999998 142 253 58 0.000000 0.000000 0.000000 0.000000 -8.844074 0.000000 252.000000 0.705672 0.294164 0.644589
12.22999954 -0.61000001 -0.25999999 142 253 58 0.000000 0.000000 0.000000 0.000000 -8.844074 0.000000 252.000000 0.707592 -0.268726 0.653529
12.19999981 -0.61000001 -0.34999999 142 253 58 0.000000 0.000000 0.000000 0.000000 -8.844074 0.000000 252.000000 0.790040 0.453990 0.411984
12.14000034 -0.61000001 -0.34000000 142 253 58 0.000000 0.000000 0.000000 0.000000 -8.844074 0.000000 252.000000 0.795185 -0.026460 0.605789
12.19999981 -0.61000001 -0.41999999 142 253 58 0.000000 0.000000 0.000000 0.000000 -8.844074 0.000000 252.000000 0.744469 0.202756 0.636126
12.06999969 -0.60000002 -0.44999999 142 253 58 0.000000 0.000000 0.000000 0.000000 -8.844074 0.000000 252.000000 0.930235 -0.118493 0.347306
12.09000015 -0.62000000 -0.54000002 142 253 58 0.000000 0.000000 0.000000 0.000000 -8.844074 0.000000 252.000000 0.943828 0.213567 0.252147
12.09000015 -0.61000001 -0.54000002 142 253 58 0.000000 0.000000 0.000000 0.000000 -8.844074 0.000000 252.000000 0.886450 0.347657 0.305517
12.02999973 -0.58999997 -0.57999998 142 253 58 0.000000 0.000000 0.000000 0.000000 -8.844074 0.000000 252.000000 0.687521 0.618274 0.380857
12.00000000 -0.66000003 -0.25999999 142 253 58 0.000000 0.000000 0.000000 0.000000 -8.844074 0.000000 252.000000 0.646049 -0.192735 0.738562
11.94999981 -0.64999998 -0.28999999 142 253 58 0.000000 0.000000 0.000000 0.000000 -8.844074 0.000000 252.000000 0.671763 -0.064731 0.737932
11.93000031 -0.61000001 -0.25999999 142 253 58 0.000000 0.000000 0.000000 0.000000 -8.844074 0.000000 252.000000 0.700528 0.393944 0.595037
11.90999985 -0.64999998 -0.28999999 142 253 58 0.000000 0.000000 0.000000 0.000000 -8.844074 0.000000 252.000000 0.706075 -0.450226 0.546585
11.92000008 -0.68000001 -0.36000001 142 253 58 0.000000 0.000000 0.000000 0.000000 -8.844074 0.000000 252.000000 0.699427 -0.376868 0.607267
11.92000008 -0.68000001 -0.33000001 142 253 58 0.000000 0.000000 0.000000 0.000000 -8.844074 0.000000 252.000000 0.859078 -0.277171 0.430304
11.90999985 -0.68000001 -0.38999999 142 253 58 0.000000 0.000000 0.000000 0.000000 -8.844074 0.000000 252.000000 0.678603 0.179225 0.712304
12.06000042 -0.60000002 -0.44000000 142 253 58 0.000000 0.000000 0.000000 0.000000 -8.844074 0.000000 252.000000 0.793912 0.141504 0.591338
12.00000000 -0.63000000 -0.46000001 142 253 58 0.000000 0.000000 0.000000 0.000000 -8.844074 0.000000 252.000000 0.962656 0.028277 0.269248
12.01000023 -0.62000000 -0.50999999 142 253 58 0.000000 0.000000 0.000000 0.000000 -8.844074 0.000000 252.000000 0.827586 0.477153 0.295678
11.97000027 -0.62000000 -0.46000001 142 253 58 0.000000 0.000000 0.000000 0.000000 -8.844074 0.000000 252.000000 0.652123 0.520687 0.551018
11.96000004 -0.67000002 -0.44000000 142 253 58 0.000000 0.000000 0.000000 0.000000 -8.844074 0.000000 252.000000 0.711053 -0.258133 0.654042
11.93000031 -0.67000002 -0.47999999 142 253 58 0.000000 0.000000 0.000000 0.000000 -8.844074 0.000000 252.000000 0.575121 -0.193741 0.794796
11.96000004 -0.63000000 -0.55000001 142 253 58 0.000000 0.000000 0.000000 0.000000 -8.844074 0.000000 252.000000 0.673146 0.086151 0.734474
11.97000027 -0.63000000 -0.56999999 142 253 58 0.000000 0.000000 0.000000 0.000000 -8.844074 0.000000 252.000000 0.963045 -0.046097 0.265367
11.94999981 -0.67000002 -0.50999999 142 253 58 0.000000 0.000000 0.000000 0.000000 -8.844074 0.000000 252.000000 0.784920 0.070313 0.615595
11.93000031 -0.66000003 -0.54000002 142 253 58 0.000000 0.000000 0.000000 0.000000 -8.844074 0.000000 252.000000 0.624010 -0.165492 0.763691
12.19999981 -0.54000002 -0.69000000 142 253 58 0.000000 0.000000 0.000000 0.000000 -8.844074 0.000000 252.000000 0.829958 0.485564 0.274584
12.21000004 -0.56000000 -0.70999998 142 253 58 0.000000 0.000000 0.000000 0.000000 -8.844074 0.000000 252.000000 0.720167 0.199788 0.664412
12.19999981 -0.56999999 -0.68000001 142 253 58 0.000000 0.000000 0.000000 0.000000 -8.844074 0.000000 252.000000 0.610625 0.570029 0.549731
12.21000004 -0.56999999 -0.72000003 142 253 58 0.000000 0.000000 0.000000 0.000000 -8.844074 0.000000 252.000000 0.709354 0.694483 0.120456
12.17000008 -0.54000002 -0.70999998 142 253 58 0.000000 0.000000 0.000000 0.000000 -8.844074 0.000000 252.000000 0.425150 0.776998 0.464244
12.15999985 -0.56999999 -0.74000001 142 253 58 0.000000 0.000000 0.000000 0.000000 -8.844074 0.000000 252.000000 0.738007 0.265048 0.620561
12.15999985 -0.56999999 -0.75000000 142 253 58 0.000000 0.000000 0.000000 0.000000 -8.844074 0.000000 252.000000 0.691543 0.715135 0.101741
12.11999989 -0.55000001 -0.62000000 142 253 58 0.000000 0.000000 0.000000 0.000000 -8.844074 0.000000 252.000000 0.842872 0.504525 0.187139
12.13000011 -0.58999997 -0.60000002 142 253 58 0.000000 0.000000 0.000000 0.000000 -8.844074 0.000000 252.000000 0.597580 0.282058 0.750561
12.11999989 -0.56000000 -0.60000002 142 253 58 0.000000 0.000000 0.000000 0.000000 -8.844074 0.000000 252.000000 0.960457 0.266581 0.080357
12.10999966 -0.58999997 -0.70999998 142 253 58 0.000000 0.000000 0.000000 0.000000 -8.844074 0.000000 252.000000 0.768907 0.626131 0.129391
12.13000011 -0.57999998 -0.69999999 142 253 58 0.000000 0.000000 0.000000 0.000000 -8.844074 0.000000 252.000000 0.697386 0.454383 0.554247
12.13000011 -0.57999998 -0.69999999 142 253 58 0.000000 0.000000 0.000000 0.000000 -8.844074 0.000000 252.000000 0.697386 0.454383 0.554247
12.14000034 -0.56000000 -0.75000000 142 253 58 0.000000 0.000000 0.000000 0.000000 -8.844074 0.000000 252.000000 0.399729 0.816975 0.415654
12.13000011 -0.56999999 -0.73000002 142 253 58 0.000000 0.000000 0.000000 0.000000 -8.844074 0.000000 252.000000 0.549932 0.733790 0.398906
12.06999969 -0.56999999 -0.69999999 142 253 58 0.000000 0.000000 0.000000 0.000000 -8.844074 0.000000 252.000000 0.660993 0.699219 0.272361
12.10000038 -0.57999998 -0.75000000 142 253 58 0.000000 0.000000 0.000000 0.000000 -8.844074 0.000000 252.000000 0.502416 0.769071 0.395104
12.18999958 -0.56000000 -0.80000001 142 253 58 0.000000 0.000000 0.000000 0.000000 -8.844074 0.000000 252.000000 0.513277 0.546934 0.661370
12.18000031 -0.56999999 -0.77999997 142 253 58 0.000000 0.000000 0.000000 0.000000 -8.844074 0.000000 252.000000 0.540638 0.544006 0.641692
12.19999981 -0.54000002 -0.87000000 142 253 58 0.000000 0.000000 0.000000 0.000000 -8.844074 0.000000 252.000000 0.858563 0.497822 0.122652
12.21000004 -0.56999999 -0.92000002 142 253 58 0.000000 0.000000 0.000000 0.000000 -8.844074 0.000000 252.000000 0.797967 0.593734 0.103575
12.14999962 -0.52999997 -0.92000002 142 253 58 0.000000 0.000000 0.000000 0.000000 -8.844074 0.000000 252.000000 0.580155 0.813341 0.043547
12.14999962 -0.52999997 -0.92000002 142 253 58 0.000000 0.000000 0.000000 0.000000 -8.844074 0.000000 252.000000 0.580155 0.813341 0.043547
12.18000031 -0.52999997 -0.88999999 142 253 58 0.000000 0.000000 0.000000 0.000000 -8.844074 0.000000 252.000000 0.558071 0.800978 -0.216772
12.11999989 -0.56999999 -0.75999999 142 253 58 0.000000 0.000000 0.000000 0.000000 -8.844074 0.000000 252.000000 0.517443 0.849983 0.098902
12.10999966 -0.56999999 -0.89999998 142 253 58 0.000000 0.000000 0.000000 0.000000 -8.844074 0.000000 252.000000 0.646265 0.763010 0.012508
12.09000015 -0.52999997 -0.88000000 142 253 58 0.000000 0.000000 0.000000 0.000000 -8.844074 0.000000 252.000000 0.625868 0.779928 0.001376
12.07999992 -0.56000000 -0.87000000 142 253 58 0.000000 0.000000 0.000000 0.000000 -8.844074 0.000000 252.000000 0.779744 0.505300 0.369692
12.11999989 -0.62000000 -0.72000003 142 253 58 0.000000 0.000000 0.000000 0.000000 -8.844074 0.000000 252.000000 0.765895 0.478480 0.429489
12.06000042 -0.57999998 -0.58999997 142 253 58 0.000000 0.000000 0.000000 0.000000 -8.844074 0.000000 252.000000 0.774611 0.561474 0.291076
12.06000042 -0.56999999 -0.61000001 142 253 58 0.000000 0.000000 0.000000 0.000000 -8.844074 0.000000 252.000000 0.749569 0.565010 0.344834
12.06000042 -0.55000001 -0.85000002 142 253 58 0.000000 0.000000 0.000000 0.000000 -8.844074 0.000000 252.000000 0.431660 0.793801 0.428426
12.06000042 -0.56999999 -0.88999999 142 253 58 0.000000 0.000000 0.000000 0.000000 -8.844074 0.000000 252.000000 0.606074 0.728905 0.318391
12.02000046 -0.60000002 -0.61000001 142 253 58 0.000000 0.000000 0.000000 0.000000 -8.844074 0.000000 252.000000 0.567185 0.693596 0.444101
12.02999973 -0.60000002 -0.62000000 142 253 58 0.000000 0.000000 0.000000 0.000000 -8.844074 0.000000 252.000000 0.496184 0.566827 0.657654
11.98999977 -0.62000000 -0.58999997 142 253 58 0.000000 0.000000 0.000000 0.000000 -8.844074 0.000000 252.000000 0.903843 0.001300 0.427862
12.06000042 -0.62000000 -0.68000001 142 253 58 0.000000 0.000000 0.000000 0.000000 -8.844074 0.000000 252.000000 0.767011 0.610227 0.198285
12.01000023 -0.63000000 -0.69999999 142 253 58 0.000000 0.000000 0.000000 0.000000 -8.844074 0.000000 252.000000 0.690683 0.645179 0.326652
11.89000034 -0.67000002 -0.31999999 142 253 58 0.000000 0.000000 0.000000 0.000000 -8.844074 0.000000 252.000000 0.619885 -0.318844 0.716995
11.86999989 -0.69999999 -0.25000000 142 253 58 0.000000 0.000000 0.000000 0.000000 -8.844074 0.000000 252.000000 0.814392 -0.206272 0.542419
11.89000034 -0.68000001 -0.31999999 142 253 58 0.000000 0.000000 0.000000 0.000000 -8.844074 0.000000 252.000000 0.820840 -0.262234 0.507400
11.89000034 -0.69000000 -0.31999999 142 253 58 0.000000 0.000000 0.000000 0.000000 -8.844074 0.000000 252.000000 0.866203 -0.311220 0.390941
11.86999989 -0.72000003 -0.25999999 142 253 58 0.000000 0.000000 0.000000 0.000000 -8.844074 0.000000 252.000000 0.717931 -0.358148 0.596913
11.81999969 -0.69999999 -0.28999999 142 253 58 0.000000 0.000000 0.000000 0.000000 -8.844074 0.000000 252.000000 0.567537 -0.437719 0.697355
11.84000015 -0.75999999 -0.30000001 142 253 58 0.000000 0.000000 0.000000 0.000000 -8.844074 0.000000 252.000000 0.665056 -0.611718 0.428370
11.84000015 -0.75999999 -0.31000000 142 253 58 0.000000 0.000000 0.000000 0.000000 -8.844074 0.000000 252.000000 0.694380 -0.557835 0.454594
11.85000038 -0.75000000 -0.34999999 142 253 58 0.000000 0.000000 0.000000 0.000000 -8.844074 0.000000 252.000000 0.918692 -0.158977 0.361568
11.88000011 -0.70999998 -0.43000001 142 253 58 0.000000 0.000000 0.000000 0.000000 -8.844074 0.000000 252.000000 0.596841 -0.138419 0.790330
12.14999962 -0.51999998 -1.00000000 142 253 58 0.000000 0.000000 0.000000 0.000000 -8.844074 0.000000 252.000000 0.460994 0.808734 -0.365286
12.15999985 -0.52999997 -0.99000001 142 253 58 0.000000 0.000000 0.000000 0.000000 -8.844074 0.000000 252.000000 0.430098 0.800594 0.417211
12.18000031 -0.50999999 -1.00999999 142 253 58 0.000000 0.000000 0.000000 0.000000 -8.844074 0.000000 252.000000 0.449148 0.800096 0.397633
