//X Y Z R G B PointSourceId ScanDirectionFlag NumberOfReturns ReturnNumber GpsTime Intensity Classification Nx Ny Nz
-3.69000006 16.92000008 -1.19000006 7 83 210 0.000000 0.000000 0.000000 0.000000 119.155926 0.000000 122.000000 -0.011872 0.895679 -0.444542
-3.73000002 16.89999962 -1.19000006 7 83 210 0.000000 0.000000 0.000000 0.000000 119.155926 0.000000 122.000000 -0.546300 0.765465 -0.340028
-3.79999995 16.92000008 -1.13000000 7 83 210 0.000000 0.000000 0.000000 0.000000 119.155926 0.000000 122.000000 -0.653686 0.741246 -0.152476
-3.81999993 16.92000008 -1.16999996 7 83 210 0.000000 0.000000 0.000000 0.000000 119.155926 0.000000 122.000000 -0.306361 0.870311 -0.385619
-3.79999995 16.89999962 -1.23000002 7 83 210 0.000000 0.000000 0.000000 0.000000 119.155926 0.000000 122.000000 -0.464714 0.885233 -0.020088
-3.76999998 16.86000061 -1.23000002 7 83 210 0.000000 0.000000 0.000000 0.000000 119.155926 0.000000 122.000000 0.763777 -0.568429 0.305831
-3.89000010 17.15999985 -0.99000001 7 83 210 0.000000 0.000000 0.000000 0.000000 119.155926 0.000000 122.000000 -0.464575 0.711016 -0.527850
-3.92000008 17.02000046 -0.97000003 7 83 210 0.000000 0.000000 0.000000 0.000000 119.155926 0.000000 122.000000 -0.519522 0.849739 0.089671
-3.93000007 17.04000092 -0.99000001 7 83 210 0.000000 0.000000 0.000000 0.000000 119.155926 0.000000 122.000000 0.945366 -0.290778 0.147418
-3.83999991 16.92000008 -1.09000003 7 83 210 0.000000 0.000000 0.000000 0.000000 119.155926 0.000000 122.000000 -0.304169 0.906629 -0.292414
-3.84999990 16.93000031 -1.08000004 7 83 210 0.000000 0.000000 0.000000 0.000000 119.155926 0.000000 122.000000 -0.633115 0.773496 -0.029480
-3.84999990 16.93000031 -1.08000004 7 83 210 0.000000 0.000000 0.000000 0.000000 119.155926 0.000000 122.000000 -0.633115 0.773496 -0.029480
-3.83999991 16.84000015 -1.07000005 7 83 210 0.000000 0.000000 0.000000 0.000000 119.155926 0.000000 215.000000 -0.601649 0.797991 0.035061
-3.91000009 16.94000053 -1.13999999 7 83 210 0.000000 0.000000 0.000000 0.000000 119.155926 0.000000 122.000000 0.684194 -0.719814 0.117248
-3.85999990 16.84000015 -1.21000004 7 83 210 0.000000 0.000000 0.000000 0.000000 119.155926 0.000000 215.000000 0.648966 -0.554571 0.520859
-3.83999991 16.89999962 -1.23000002 7 83 210 0.000000 0.000000 0.000000 0.000000 119.155926 0.000000 122.000000 0.768514 -0.625257 0.135796
-3.93000007 16.93000031 -1.10000002 7 83 210 0.000000 0.000000 0.000000 0.000000 119.155926 0.000000 122.000000 -0.637008 0.759337 -0.132772
-3.68000007 17.00000000 -1.35000002 7 83 210 0.000000 0.000000 0.000000 0.000000 119.155926 0.000000 122.000000 -0.300467 0.786938 -0.538933
-3.67000008 17.00000000 -1.40999997 7 83 210 0.000000 0.000000 0.000000 0.000000 119.155926 0.000000 122.000000 -0.068738 0.980424 -0.184508
-3.68000007 17.00000000 -1.55999994 7 83 210 0.000000 0.000000 0.000000 0.000000 119.155926 0.000000 122.000000 -0.193528 0.951402 -0.239542
-3.67000008 16.96999931 -1.27999997 7 83 210 0.000000 0.000000 0.000000 0.000000 119.155926 0.000000 122.000000 -0.408770 0.819131 -0.402408
-3.69000006 16.94000053 -1.34000003 7 83 210 0.000000 0.000000 0.000000 0.000000 119.155926 0.000000 122.000000 0.380303 -0.546788 0.745917
-3.71000004 16.96999931 -1.34000003 7 83 210 0.000000 0.000000 0.000000 0.000000 119.155926 0.000000 122.000000 0.234322 -0.702967 0.671514
-3.73000002 16.94000053 -1.28999996 7 83 210 0.000000 0.000000 0.000000 0.000000 119.155926 0.000000 122.000000 -0.296212 0.734925 -0.610036
-3.68000007 16.98999977 -1.35000002 7 83 210 0.000000 0.000000 0.000000 0.000000 119.155926 0.000000 122.000000 0.233899 0.803931 -0.546797
-3.74000001 16.95000076 -1.41999996 7 83 210 0.000000 0.000000 0.000000 0.000000 119.155926 0.000000 122.000000 0.583924 -0.634408 0.506517
-3.75000000 16.93000031 -1.27999997 7 83 210 0.000000 0.000000 0.000000 0.000000 119.155926 0.000000 122.000000 -0.589673 0.613327 -0.525468
-3.76999998 16.90999985 -1.26999998 7 83 210 0.000000 0.000000 0.000000 0.000000 119.155926 0.000000 122.000000 0.666982 -0.640632 0.380427
-3.81999993 16.90999985 -1.36000001 7 83 210 0.000000 0.000000 0.000000 0.000000 119.155926 0.000000 122.000000 -0.564349 0.809848 -0.160173
-3.78999996 16.87000084 -1.36000001 7 83 210 0.000000 0.000000 0.000000 0.000000 119.155926 0.000000 122.000000 0.286311 -0.641401 0.711780
-3.82999992 16.89999962 -1.35000002 7 83 210 0.000000 0.000000 0.000000 0.000000 119.155926 0.000000 122.000000 -0.359117 0.690358 -0.628045
-3.69000006 16.95999908 -1.50000000 7 83 210 0.000000 0.000000 0.000000 0.000000 119.155926 0.000000 122.000000 -0.084050 0.986112 -0.143241
-3.68000007 16.93000031 -1.48000002 7 83 210 0.000000 0.000000 0.000000 0.000000 119.155926 0.000000 122.000000 0.451095 -0.731997 0.510581
-3.68000007 16.93000031 -1.49000001 7 83 210 0.000000 0.000000 0.000000 0.000000 119.155926 0.000000 122.000000 -0.189657 0.928617 -0.318905
-3.68000007 16.96999931 -1.59000003 7 83 210 0.000000 0.000000 0.000000 0.000000 119.155926 0.000000 122.000000 0.041847 0.892290 -0.449520
-3.70000005 16.95000076 -1.57000005 7 83 210 0.000000 0.000000 0.000000 0.000000 119.155926 0.000000 122.000000 -0.172950 0.705574 -0.687207
-3.71000004 16.96999931 -1.53999996 7 83 210 0.000000 0.000000 0.000000 0.000000 119.155926 0.000000 122.000000 0.036411 0.891393 -0.451765
-3.71000004 16.89999962 -1.50999999 7 83 210 0.000000 0.000000 0.000000 0.000000 119.155926 0.000000 122.000000 0.141839 -0.792807 0.592739
-3.73000002 16.89999962 -1.51999998 7 83 210 0.000000 0.000000 0.000000 0.000000 119.155926 0.000000 122.000000 -0.165948 -0.701855 0.692720
-3.76999998 16.90999985 -1.49000001 7 83 210 0.000000 0.000000 0.000000 0.000000 119.155926 0.000000 122.000000 -0.287314 0.769873 -0.569865
-3.82999992 16.89999962 -1.42999995 7 83 210 0.000000 0.000000 0.000000 0.000000 119.155926 0.000000 122.000000 -0.188774 0.762770 -0.618504
-3.98000002 17.00000000 -1.38000000 7 83 210 0.000000 0.000000 0.000000 0.000000 119.155926 0.000000 122.000000 0.811518 -0.577176 0.091133
-3.85999990 16.90999985 -1.30999994 7 83 210 0.000000 0.000000 0.000000 0.000000 119.155926 0.000000 122.000000 -0.146800 0.899329 -0.411895
-3.84999990 16.92000008 -1.36000001 7 83 210 0.000000 0.000000 0.000000 0.000000 119.155926 0.000000 122.000000 -0.321360 0.924441 -0.205274
-3.85999990 16.88999939 -1.41999996 7 83 210 0.000000 0.000000 0.000000 0.000000 119.155926 0.000000 122.000000 -0.265953 0.822744 -0.502356
-3.84999990 16.88999939 -1.41999996 7 83 210 0.000000 0.000000 0.000000 0.000000 119.155926 0.000000 122.000000 -0.197620 0.869233 -0.453190
-3.99000001 16.95999908 -1.40999997 7 83 210 0.000000 0.000000 0.000000 0.000000 119.155926 0.000000 122.000000 0.701570 -0.528261 0.478268
-3.98000002 16.96999931 -1.39999998 7 83 210 0.000000 0.000000 0.000000 0.000000 119.155926 0.000000 122.000000 -0.545813 0.835023 -0.069467
-3.99000001 16.95000076 -1.41999996 7 83 210 0.000000 0.000000 0.000000 0.000000 119.155926 0.000000 122.000000 -0.159121 0.931205 -0.327928
-3.88000011 16.88999939 -1.45000005 7 83 210 0.000000 0.000000 0.000000 0.000000 119.155926 0.000000 122.000000 -0.355326 0.934184 0.032302
-3.90000010 16.88999939 -1.42999995 7 83 210 0.000000 0.000000 0.000000 0.000000 119.155926 0.000000 122.000000 -0.179705 0.979207 -0.094131
-3.84999990 16.88999939 -1.59000003 7 83 210 0.000000 0.000000 0.000000 0.000000 119.155926 0.000000 122.000000 -0.178920 0.865026 -0.468741
-3.34999990 16.76000023 -0.41000000 7 83 210 0.000000 0.000000 0.000000 0.000000 119.155926 0.000000 215.000000 0.220028 -0.697536 0.681932
-3.35999990 16.76000023 -0.41000000 7 83 210 0.000000 0.000000 0.000000 0.000000 119.155926 0.000000 215.000000 0.029649 0.934587 -0.354498
-3.32999992 16.76000023 -0.40000001 7 83 210 0.000000 0.000000 0.000000 0.000000 119.155926 0.000000 215.000000 -0.019902 0.895573 -0.444469
-3.34999990 16.76000023 -0.41000000 7 83 210 0.000000 0.000000 0.000000 0.000000 119.155926 0.000000 215.000000 0.220028 -0.697536 0.681932
-3.35999990 16.76000023 -0.41000000 7 83 210 0.000000 0.000000 0.000000 0.000000 119.155926 0.000000 215.000000 0.029649 0.934587 -0.354498
-3.38000011 16.73999977 -0.38999999 7 83 210 0.000000 0.000000 0.000000 0.000000 119.155926 0.000000 215.000000 0.218766 -0.761803 0.609752
-3.35999990 16.77000046 -0.46000001 7 83 210 0.000000 0.000000 0.000000 0.000000 119.155926 0.000000 215.000000 0.192980 0.945739 -0.261413
-3.35999990 16.76000023 -0.49000001 7 83 210 0.000000 0.000000 0.000000 0.000000 119.155926 0.000000 215.000000 -0.277868 0.852026 -0.443668
-3.36999989 16.75000000 -0.44999999 7 83 210 0.000000 0.000000 0.000000 0.000000 119.155926 0.000000 215.000000 0.192946 0.913279 -0.358737
-3.39000010 16.77000046 -0.44000000 7 83 210 0.000000 0.000000 0.000000 0.000000 119.155926 0.000000 215.000000 0.259460 0.904444 -0.338617
-3.38000011 16.76000023 -0.43000001 7 83 210 0.000000 0.000000 0.000000 0.000000 119.155926 0.000000 215.000000 0.406789 0.655843 -0.635919
-3.41000009 16.75000000 -0.54000002 7 83 210 0.000000 0.000000 0.000000 0.000000 119.155926 0.000000 215.000000 -0.243677 -0.535470 0.808637
-3.41000009 16.77000046 -0.50999999 7 83 210 0.000000 0.000000 0.000000 0.000000 119.155926 0.000000 215.000000 0.065789 0.917015 -0.393390
-3.32999992 16.71999931 -0.44999999 7 83 210 0.000000 0.000000 0.000000 0.000000 119.155926 0.000000 215.000000 0.150556 -0.558995 0.815388
-3.45000005 16.75000000 -0.56999999 7 83 210 0.000000 0.000000 0.000000 0.000000 119.155926 0.000000 215.000000 -0.273750 -0.583894 0.764284
-3.42000008 16.76000023 -0.55000001 7 83 210 0.000000 0.000000 0.000000 0.000000 119.155926 0.000000 215.000000 -0.174058 -0.585743 0.791586
-3.42000008 16.77000046 -0.55000001 7 83 210 0.000000 0.000000 0.000000 0.000000 119.155926 0.000000 215.000000 -0.319883 -0.573861 0.753896
-3.49000001 16.63999939 -0.30000001 7 83 210 0.000000 0.000000 0.000000 0.000000 119.155926 0.000000 230.000000 0.392245 0.647121 -0.653741
-3.64000010 16.65999985 -0.33000001 7 83 210 0.000000 0.000000 0.000000 0.000000 119.155926 0.000000 230.000000 0.749546 0.168762 -0.640079
-3.52999997 16.63999939 -0.27000001 7 83 210 0.000000 0.000000 0.000000 0.000000 119.155926 0.000000 230.000000 0.214335 0.885425 -0.412410
-3.53999996 16.62999916 -0.28000000 7 83 210 0.000000 0.000000 0.000000 0.000000 119.155926 0.000000 230.000000 0.492361 0.442960 -0.749245
-3.53999996 16.62999916 -0.28000000 7 83 210 0.000000 0.000000 0.000000 0.000000 119.155926 0.000000 230.000000 0.492361 0.442960 -0.749245
-3.53999996 16.62000084 -0.28999999 7 83 210 0.000000 0.000000 0.000000 0.000000 119.155926 0.000000 230.000000 0.189519 0.817204 -0.544297
-3.53999996 16.61000061 -0.37000000 7 83 210 0.000000 0.000000 0.000000 0.000000 119.155926 0.000000 230.000000 0.647907 0.580592 -0.493082
-3.52999997 16.60000038 -0.36000001 7 83 210 0.000000 0.000000 0.000000 0.000000 119.155926 0.000000 230.000000 0.629826 0.701435 -0.333629
-3.56999993 16.63999939 -0.36000001 7 83 210 0.000000 0.000000 0.000000 0.000000 119.155926 0.000000 230.000000 0.255350 0.848617 -0.463299
-3.66000009 16.62999916 -0.33000001 7 83 210 0.000000 0.000000 0.000000 0.000000 119.155926 0.000000 230.000000 0.549906 0.762773 -0.340265
-3.58999991 16.64999962 -0.34999999 7 83 210 0.000000 0.000000 0.000000 0.000000 119.155926 0.000000 230.000000 0.755217 0.550578 -0.355683
-3.32999992 16.78000069 -0.61000001 7 83 210 0.000000 0.000000 0.000000 0.000000 119.155926 0.000000 44.000000 -0.377734 0.925513 -0.027259
-3.35999990 16.76000023 -0.63999999 7 83 210 0.000000 0.000000 0.000000 0.000000 119.155926 0.000000 44.000000 -0.594931 0.671589 -0.441616
-3.33999991 16.75000000 -0.75000000 7 83 210 0.000000 0.000000 0.000000 0.000000 119.155926 0.000000 44.000000 0.943824 -0.319873 0.082930
-3.33999991 16.70999908 -0.64999998 7 83 210 0.000000 0.000000 0.000000 0.000000 119.155926 0.000000 44.000000 -0.381931 0.735995 -0.558963
-3.32999992 16.70999908 -0.69999999 7 83 210 0.000000 0.000000 0.000000 0.000000 119.155926 0.000000 44.000000 0.761875 -0.527952 0.375252
-3.32999992 16.70000076 -0.73000002 7 83 210 0.000000 0.000000 0.000000 0.000000 119.155926 0.000000 44.000000 0.791242 -0.560268 0.245020
-3.32999992 16.70999908 -0.73000002 7 83 210 0.000000 0.000000 0.000000 0.000000 119.155926 0.000000 44.000000 -0.544886 0.835113 0.075402
-3.34999990 16.68000031 -0.82999998 7 83 210 0.000000 0.000000 0.000000 0.000000 119.155926 0.000000 44.000000 0.780320 -0.593288 0.197763
-3.38000011 16.69000053 -0.81999999 7 83 210 0.000000 0.000000 0.000000 0.000000 119.155926 0.000000 44.000000 0.956656 -0.287877 -0.043999
-3.39000010 16.68000031 -0.92000002 7 83 210 0.000000 0.000000 0.000000 0.000000 119.155926 0.000000 174.000000 0.788306 -0.100915 -0.606952
-3.45000005 16.80999947 -0.88999999 7 83 210 0.000000 0.000000 0.000000 0.000000 119.155926 0.000000 215.000000 -0.197324 0.890150 -0.410726
-3.56999993 16.80999947 -0.82999998 7 83 210 0.000000 0.000000 0.000000 0.000000 119.155926 0.000000 215.000000 0.899751 -0.335375 0.279233
-3.50999999 16.79999924 -0.91000003 7 83 210 0.000000 0.000000 0.000000 0.000000 119.155926 0.000000 215.000000 0.014663 0.886466 -0.462562
-3.50999999 16.81999969 -0.91000003 7 83 210 0.000000 0.000000 0.000000 0.000000 119.155926 0.000000 215.000000 0.122609 -0.604182 0.787357
-3.61999989 16.79000092 -0.87000000 7 83 210 0.000000 0.000000 0.000000 0.000000 119.155926 0.000000 215.000000 0.847585 -0.497788 0.183868
-3.59999990 16.79000092 -0.91000003 7 83 210 0.000000 0.000000 0.000000 0.000000 119.155926 0.000000 215.000000 -0.520785 0.681541 -0.514086
-3.65000010 16.79999924 -0.88000000 7 83 210 0.000000 0.000000 0.000000 0.000000 119.155926 0.000000 215.000000 0.869881 -0.488525 0.068199
-3.64000010 16.80999947 -0.88000000 7 83 210 0.000000 0.000000 0.000000 0.000000 119.155926 0.000000 215.000000 0.935992 -0.272823 0.222456
-3.64000010 16.80999947 -0.88000000 7 83 210 0.000000 0.000000 0.000000 0.000000 119.155926 0.000000 215.000000 0.935992 -0.272823 0.222456
-3.66000009 16.79000092 -0.92000002 7 83 210 0.000000 0.000000 0.000000 0.000000 119.155926 0.000000 215.000000 0.897244 -0.441376 0.011858
-3.70000005 16.68000031 -0.33000001 7 83 210 0.000000 0.000000 0.000000 0.000000 119.155926 0.000000 230.000000 0.696518 0.095313 -0.711181
-3.32999992 16.77000046 -1.04999995 7 83 210 0.000000 0.000000 0.000000 0.000000 119.155926 0.000000 174.000000 0.362681 0.557846 -0.746505
-3.35999990 16.67000008 -1.00000000 7 83 210 0.000000 0.000000 0.000000 0.000000 119.155926 0.000000 174.000000 0.918482 -0.108461 -0.380298
-3.38000011 16.70000076 -0.93000001 7 83 210 0.000000 0.000000 0.000000 0.000000 119.155926 0.000000 174.000000 0.948361 -0.238796 -0.208776
-3.38000011 16.68000031 -0.94000000 7 83 210 0.000000 0.000000 0.000000 0.000000 119.155926 0.000000 174.000000 0.985437 -0.168637 -0.021797
-3.40000010 16.69000053 -0.94999999 7 83 210 0.000000 0.000000 0.000000 0.000000 119.155926 0.000000 174.000000 0.852221 0.199201 -0.483774
-3.41000009 16.69000053 -0.99000001 7 83 210 0.000000 0.000000 0.000000 0.000000 119.155926 0.000000 174.000000 0.616239 0.420239 -0.666070
-3.41000009 16.65999985 -0.99000001 7 83 210 0.000000 0.000000 0.000000 0.000000 119.155926 0.000000 174.000000 0.688615 -0.055834 -0.722974
-3.41000009 16.68000031 -0.99000001 7 83 210 0.000000 0.000000 0.000000 0.000000 119.155926 0.000000 174.000000 0.634566 0.510009 -0.580704
-3.32999992 16.65999985 -1.01999998 7 83 210 0.000000 0.000000 0.000000 0.000000 119.155926 0.000000 174.000000 0.943838 0.001247 -0.330406
-3.32999992 16.67000008 -1.01999998 7 83 210 0.000000 0.000000 0.000000 0.000000 119.155926 0.000000 174.000000 0.871148 -0.239227 -0.428803
-3.41000009 16.67000008 -1.03999996 7 83 210 0.000000 0.000000 0.000000 0.000000 119.155926 0.000000 174.000000 0.864145 0.134615 -0.484905
-3.38000011 16.69000053 -1.01999998 7 83 210 0.000000 0.000000 0.000000 0.000000 119.155926 0.000000 174.000000 0.926106 0.359772 -0.113540
-3.36999989 16.65999985 -1.09000003 7 83 210 0.000000 0.000000 0.000000 0.000000 119.155926 0.000000 174.000000 0.918451 0.096895 -0.383484
-3.49000001 16.79999924 -0.94000000 7 83 210 0.000000 0.000000 0.000000 0.000000 119.155926 0.000000 215.000000 -0.201189 -0.582065 0.787860
-3.49000001 16.79000092 -0.94000000 7 83 210 0.000000 0.000000 0.000000 0.000000 119.155926 0.000000 215.000000 0.118834 -0.576564 0.808364
-3.47000003 16.79000092 -0.94000000 7 83 210 0.000000 0.000000 0.000000 0.000000 119.155926 0.000000 174.000000 -0.040529 0.817573 -0.574397
-3.46000004 16.75000000 -0.95999998 7 83 210 0.000000 0.000000 0.000000 0.000000 119.155926 0.000000 174.000000 0.427921 0.796095 -0.427921
-3.49000001 16.78000069 -0.94000000 7 83 210 0.000000 0.000000 0.000000 0.000000 119.155926 0.000000 174.000000 -0.340521 0.653345 -0.676155
-3.46000004 16.75000000 -0.98000002 7 83 210 0.000000 0.000000 0.000000 0.000000 119.155926 0.000000 174.000000 -0.255106 -0.383405 0.887649
-3.47000003 16.78000069 -0.97000003 7 83 210 0.000000 0.000000 0.000000 0.000000 119.155926 0.000000 174.000000 0.193147 -0.690695 0.696875
-3.43000007 16.72999954 -1.00000000 7 83 210 0.000000 0.000000 0.000000 0.000000 119.155926 0.000000 174.000000 0.230426 0.732033 -0.641117
-3.46000004 16.71999931 -0.97000003 7 83 210 0.000000 0.000000 0.000000 0.000000 119.155926 0.000000 174.000000 -0.197770 -0.508767 0.837880
-3.44000006 16.73999977 -1.00000000 7 83 210 0.000000 0.000000 0.000000 0.000000 119.155926 0.000000 174.000000 -0.339199 -0.598872 0.725463
-3.42000008 16.72999954 -0.99000001 7 83 210 0.000000 0.000000 0.000000 0.000000 119.155926 0.000000 174.000000 0.407277 0.783724 -0.468937
-3.42000008 16.70000076 -1.01999998 7 83 210 0.000000 0.000000 0.000000 0.000000 119.155926 0.000000 174.000000 0.919666 0.303677 -0.248986
-3.38000011 16.65999985 -1.10000002 7 83 210 0.000000 0.000000 0.000000 0.000000 119.155926 0.000000 174.000000 -0.593875 -0.076212 0.800940
-3.35999990 16.63999939 -1.03999996 7 83 210 0.000000 0.000000 0.000000 0.000000 119.155926 0.000000 174.000000 0.961866 0.233615 -0.142257
-3.35999990 16.62000084 -1.02999997 7 83 210 0.000000 0.000000 0.000000 0.000000 119.155926 0.000000 174.000000 0.929535 0.156539 -0.333857
-3.42000008 16.62000084 -1.11000001 7 83 210 0.000000 0.000000 0.000000 0.000000 119.155926 0.000000 174.000000 0.792734 0.289562 -0.536401
-3.36999989 16.64999962 -1.10000002 7 83 210 0.000000 0.000000 0.000000 0.000000 119.155926 0.000000 174.000000 0.744860 -0.006935 -0.667184
-3.66000009 16.79999924 -0.93000001 7 83 210 0.000000 0.000000 0.000000 0.000000 119.155926 0.000000 215.000000 0.819952 -0.557921 -0.128072
-3.52999997 16.79000092 -0.93000001 7 83 210 0.000000 0.000000 0.000000 0.000000 119.155926 0.000000 215.000000 0.136497 -0.703482 0.697482
-3.35999990 16.81999969 -1.55999994 7 83 210 0.000000 0.000000 0.000000 0.000000 119.155926 0.000000 135.000000 0.625588 0.568256 -0.534532
-3.35999990 16.80999947 -1.55999994 7 83 210 0.000000 0.000000 0.000000 0.000000 119.155926 0.000000 135.000000 -0.522693 -0.401441 0.752088
-3.36999989 16.81999969 -1.57000005 7 83 210 0.000000 0.000000 0.000000 0.000000 119.155926 0.000000 135.000000 0.683435 0.434006 -0.586989
-3.39000010 16.81999969 -1.59000003 7 83 210 0.000000 0.000000 0.000000 0.000000 119.155926 0.000000 135.000000 0.531499 0.474850 -0.701446
-3.56999993 16.53000069 -1.25999999 7 83 210 0.000000 0.000000 0.000000 0.000000 119.155926 0.000000 87.000000 -0.541003 -0.265013 0.798175
-3.59999990 16.50000000 -1.35000002 7 83 210 0.000000 0.000000 0.000000 0.000000 119.155926 0.000000 87.000000 0.685073 0.330332 -0.649273
-3.66000009 16.51000023 -1.52999997 7 83 210 0.000000 0.000000 0.000000 0.000000 119.155926 0.000000 87.000000 0.212135 0.876724 -0.431687
-3.66000009 16.51000023 -1.51999998 7 83 210 0.000000 0.000000 0.000000 0.000000 119.155926 0.000000 87.000000 0.052675 0.900882 -0.430857
-3.65000010 16.51000023 -1.52999997 7 83 210 0.000000 0.000000 0.000000 0.000000 119.155926 0.000000 87.000000 0.298670 0.877818 -0.374475
-3.60999990 16.46999931 -1.38000000 7 83 210 0.000000 0.000000 0.000000 0.000000 119.155926 0.000000 87.000000 0.283552 0.859852 -0.424562
-3.64000010 16.47999954 -1.44000006 7 83 210 0.000000 0.000000 0.000000 0.000000 119.155926 0.000000 87.000000 0.023713 -0.629102 0.776961
-3.66000009 16.45000076 -1.48000002 7 83 210 0.000000 0.000000 0.000000 0.000000 119.155926 0.000000 87.000000 -0.052993 -0.711819 0.700361
-3.66000009 16.45999908 -1.47000003 7 83 210 0.000000 0.000000 0.000000 0.000000 119.155926 0.000000 87.000000 -0.202682 -0.725632 0.657555
-3.64000010 16.46999931 -1.46000004 7 83 210 0.000000 0.000000 0.000000 0.000000 119.155926 0.000000 87.000000 0.373216 0.659294 -0.652718
-3.69000006 16.77000046 -0.94000000 7 83 210 0.000000 0.000000 0.000000 0.000000 119.155926 0.000000 215.000000 -0.679256 0.726407 0.104614
-3.73000002 16.79000092 -0.95999998 7 83 210 0.000000 0.000000 0.000000 0.000000 119.155926 0.000000 215.000000 0.809707 -0.534128 -0.243067
-3.74000001 16.79000092 -1.00999999 7 83 210 0.000000 0.000000 0.000000 0.000000 119.155926 0.000000 215.000000 0.792279 -0.607366 -0.058319
-3.74000001 16.78000069 -1.01999998 7 83 210 0.000000 0.000000 0.000000 0.000000 119.155926 0.000000 215.000000 0.782244 -0.610062 0.126168
-3.72000003 16.79000092 -1.02999997 7 83 210 0.000000 0.000000 0.000000 0.000000 119.155926 0.000000 215.000000 0.809283 -0.431084 0.399033
-3.76999998 16.76000023 -1.05999994 7 83 210 0.000000 0.000000 0.000000 0.000000 119.155926 0.000000 215.000000 0.748959 -0.660511 -0.052784
-3.82999992 16.79999924 -1.07000005 7 83 210 0.000000 0.000000 0.000000 0.000000 119.155926 0.000000 215.000000 0.659689 -0.727349 0.189141
-3.86999989 16.79999924 -1.22000003 7 83 210 0.000000 0.000000 0.000000 0.000000 119.155926 0.000000 215.000000 0.823019 -0.551142 0.137416
-3.86999989 16.78000069 -1.17999995 7 83 210 0.000000 0.000000 0.000000 0.000000 119.155926 0.000000 215.000000 -0.461989 0.782950 -0.416601
-3.88000011 16.79000092 -1.23000002 7 83 210 0.000000 0.000000 0.000000 0.000000 119.155926 0.000000 215.000000 -0.639249 0.767384 -0.049830
-3.88000011 16.76000023 -1.20000005 7 83 210 0.000000 0.000000 0.000000 0.000000 119.155926 0.000000 215.000000 -0.461401 0.886054 0.044915
-3.91000009 16.78000069 -1.20000005 7 83 210 0.000000 0.000000 0.000000 0.000000 119.155926 0.000000 215.000000 -0.690212 0.723542 -0.009721
-3.90000010 16.75000000 -1.21000004 7 83 210 0.000000 0.000000 0.000000 0.000000 119.155926 0.000000 215.000000 -0.537097 0.842423 -0.043023
-3.90000010 16.77000046 -1.24000001 7 83 210 0.000000 0.000000 0.000000 0.000000 119.155926 0.000000 215.000000 0.765781 -0.632986 -0.113613
-3.90000010 16.78000069 -1.24000001 7 83 210 0.000000 0.000000 0.000000 0.000000 119.155926 0.000000 215.000000 0.805483 -0.577040 -0.134989
-3.89000010 16.78000069 -1.25000000 7 83 210 0.000000 0.000000 0.000000 0.000000 119.155926 0.000000 215.000000 -0.564551 0.793465 -0.227367
-3.90000010 16.77000046 -1.25000000 7 83 210 0.000000 0.000000 0.000000 0.000000 119.155926 0.000000 215.000000 -0.472650 0.876166 -0.094530
-3.89000010 16.78000069 -1.23000002 7 83 210 0.000000 0.000000 0.000000 0.000000 119.155926 0.000000 215.000000 -0.670078 0.721974 0.172480
-3.90000010 16.78000069 -1.23000002 7 83 210 0.000000 0.000000 0.000000 0.000000 119.155926 0.000000 215.000000 -0.665479 0.718221 -0.203212
-3.86999989 16.70000076 -1.17999995 7 83 210 0.000000 0.000000 0.000000 0.000000 119.155926 0.000000 215.000000 0.853657 -0.474254 0.215296
-3.90000010 16.73999977 -1.20000005 7 83 210 0.000000 0.000000 0.000000 0.000000 119.155926 0.000000 215.000000 -0.524935 0.839602 -0.139689
-3.91000009 16.73999977 -1.17999995 7 83 210 0.000000 0.000000 0.000000 0.000000 119.155926 0.000000 215.000000 -0.646701 0.663156 -0.376831
-3.91000009 16.73999977 -1.22000003 7 83 210 0.000000 0.000000 0.000000 0.000000 119.155926 0.000000 215.000000 -0.441686 0.895603 -0.053002
-3.91000009 16.73999977 -1.25000000 7 83 210 0.000000 0.000000 0.000000 0.000000 119.155926 0.000000 215.000000 0.924322 -0.326981 0.196755
-3.93000007 16.75000000 -1.15999997 7 83 210 0.000000 0.000000 0.000000 0.000000 119.155926 0.000000 215.000000 0.860773 -0.508944 0.006714
-3.95000005 16.79000092 -1.15999997 7 83 210 0.000000 0.000000 0.000000 0.000000 119.155926 0.000000 215.000000 -0.600100 0.757606 0.256736
-3.92000008 16.75000000 -1.15999997 7 83 210 0.000000 0.000000 0.000000 0.000000 119.155926 0.000000 215.000000 0.699173 -0.696126 0.162988
-3.96000004 16.78000069 -1.19000006 7 83 210 0.000000 0.000000 0.000000 0.000000 119.155926 0.000000 215.000000 0.622814 -0.755722 0.202453
-3.94000006 16.79999924 -1.20000005 7 83 210 0.000000 0.000000 0.000000 0.000000 119.155926 0.000000 215.000000 -0.436977 0.899189 0.022579
-3.92000008 16.73999977 -1.23000002 7 83 210 0.000000 0.000000 0.000000 0.000000 119.155926 0.000000 215.000000 -0.480437 0.850932 -0.212356
-3.94000006 16.70999908 -1.25000000 7 83 210 0.000000 0.000000 0.000000 0.000000 119.155926 0.000000 215.000000 -0.561390 0.746893 -0.356361
-3.95000005 16.72999954 -1.25000000 7 83 210 0.000000 0.000000 0.000000 0.000000 119.155926 0.000000 215.000000 -0.677753 0.732433 0.064753
-3.68000007 16.50000000 -1.29999995 7 83 210 0.000000 0.000000 0.000000 0.000000 119.155926 0.000000 87.000000 -0.210061 0.891657 -0.401026
-3.70000005 16.53000069 -1.35000002 7 83 210 0.000000 0.000000 0.000000 0.000000 119.155926 0.000000 87.000000 -0.091068 0.943680 -0.318080
-3.71000004 16.50000000 -1.38000000 7 83 210 0.000000 0.000000 0.000000 0.000000 119.155926 0.000000 87.000000 -0.090231 0.834991 -0.542816
-3.71000004 16.50000000 -1.38000000 7 83 210 0.000000 0.000000 0.000000 0.000000 119.155926 0.000000 87.000000 -0.090231 0.834991 -0.542816
-3.68000007 16.55999947 -1.50999999 7 83 210 0.000000 0.000000 0.000000 0.000000 119.155926 0.000000 87.000000 -0.167162 0.850604 -0.498528
-3.67000008 16.52000046 -1.47000003 7 83 210 0.000000 0.000000 0.000000 0.000000 119.155926 0.000000 87.000000 -0.107668 0.857034 -0.503885
-3.68000007 16.51000023 -1.44000006 7 83 210 0.000000 0.000000 0.000000 0.000000 119.155926 0.000000 87.000000 -0.092141 -0.732742 0.674240
-3.69000006 16.50000000 -1.50999999 7 83 210 0.000000 0.000000 0.000000 0.000000 119.155926 0.000000 87.000000 -0.216247 0.729639 -0.648741
-3.70000005 16.48999977 -1.50999999 7 83 210 0.000000 0.000000 0.000000 0.000000 119.155926 0.000000 87.000000 0.155369 0.875585 -0.457395
-3.69000006 16.50000000 -1.50000000 7 83 210 0.000000 0.000000 0.000000 0.000000 119.155926 0.000000 87.000000 -0.079049 0.952479 -0.294167
-3.73000002 16.56999969 -1.49000001 7 83 210 0.000000 0.000000 0.000000 0.000000 119.155926 0.000000 87.000000 -0.511187 0.782100 -0.356380
-3.71000004 16.48999977 -1.47000003 7 83 210 0.000000 0.000000 0.000000 0.000000 119.155926 0.000000 87.000000 -0.245394 0.941369 -0.231530
-3.72000003 16.48999977 -1.47000003 7 83 210 0.000000 0.000000 0.000000 0.000000 119.155926 0.000000 87.000000 -0.049620 0.952964 -0.298994
-3.69000006 16.54000092 -1.53999996 7 83 210 0.000000 0.000000 0.000000 0.000000 119.155926 0.000000 87.000000 0.026427 0.950099 -0.310827
-3.67000008 16.51000023 -1.52999997 7 83 210 0.000000 0.000000 0.000000 0.000000 119.155926 0.000000 87.000000 -0.106983 0.930342 -0.350740
-3.68000007 16.52000046 -1.59000003 7 83 210 0.000000 0.000000 0.000000 0.000000 119.155926 0.000000 87.000000 0.067559 0.763275 -0.642531
-3.72000003 16.51000023 -1.58000004 7 83 210 0.000000 0.000000 0.000000 0.000000 119.155926 0.000000 87.000000 -0.084616 0.827519 -0.555025
-3.78999996 16.62999916 -1.52999997 7 83 210 0.000000 0.000000 0.000000 0.000000 119.155926 0.000000 215.000000 -0.424687 0.796087 -0.431146
-3.82999992 16.57999992 -1.59000003 7 83 210 0.000000 0.000000 0.000000 0.000000 119.155926 0.000000 215.000000 -0.363117 0.860664 -0.356936
-3.77999997 16.63999939 -1.52999997 7 83 210 0.000000 0.000000 0.000000 0.000000 119.155926 0.000000 215.000000 0.612138 -0.642325 0.461200
-3.78999996 16.63999939 -1.51999998 7 83 210 0.000000 0.000000 0.000000 0.000000 119.155926 0.000000 215.000000 -0.464505 0.759949 -0.454657
-3.88000011 16.77000046 -1.28999996 7 83 210 0.000000 0.000000 0.000000 0.000000 119.155926 0.000000 215.000000 -0.643861 0.742207 -0.185936
-3.91000009 16.77000046 -1.28999996 7 83 210 0.000000 0.000000 0.000000 0.000000 119.155926 0.000000 215.000000 0.552716 -0.623707 0.552716
-3.89000010 16.77000046 -1.25999999 7 83 210 0.000000 0.000000 0.000000 0.000000 119.155926 0.000000 215.000000 -0.459335 0.769917 -0.442989
-3.91000009 16.70000076 -1.29999995 7 83 210 0.000000 0.000000 0.000000 0.000000 119.155926 0.000000 215.000000 0.898558 -0.437964 0.027955
-3.89000010 16.70999908 -1.34000003 7 83 210 0.000000 0.000000 0.000000 0.000000 119.155926 0.000000 215.000000 -0.447129 0.892898 -0.053003
-3.90000010 16.73999977 -1.34000003 7 83 210 0.000000 0.000000 0.000000 0.000000 119.155926 0.000000 215.000000 0.728654 -0.647519 0.223121
-3.91000009 16.69000053 -1.33000004 7 83 210 0.000000 0.000000 0.000000 0.000000 119.155926 0.000000 215.000000 -0.488617 0.870651 0.056751
-3.86999989 16.70000076 -1.40999997 7 83 210 0.000000 0.000000 0.000000 0.000000 119.155926 0.000000 215.000000 -0.548745 0.835989 -0.001355
-3.85999990 16.70000076 -1.39999998 7 83 210 0.000000 0.000000 0.000000 0.000000 119.155926 0.000000 215.000000 -0.459070 0.886622 0.056185
-3.84999990 16.71999931 -1.39999998 7 83 210 0.000000 0.000000 0.000000 0.000000 119.155926 0.000000 215.000000 -0.473998 0.710166 -0.520567
-3.88000011 16.69000053 -1.35000002 7 83 210 0.000000 0.000000 0.000000 0.000000 119.155926 0.000000 215.000000 -0.506097 0.788868 -0.348644
-3.90000010 16.67000008 -1.36000001 7 83 210 0.000000 0.000000 0.000000 0.000000 119.155926 0.000000 215.000000 -0.391667 0.838387 -0.379083
-3.90000010 16.67000008 -1.41999996 7 83 210 0.000000 0.000000 0.000000 0.000000 119.155926 0.000000 215.000000 -0.294690 0.898879 -0.324307
-3.89000010 16.68000031 -1.40999997 7 83 210 0.000000 0.000000 0.000000 0.000000 119.155926 0.000000 215.000000 0.666267 -0.636508 0.388518
-3.95000005 16.75000000 -1.32000005 7 83 210 0.000000 0.000000 0.000000 0.000000 119.155926 0.000000 215.000000 -0.447499 0.893653 0.033596
-3.95000005 16.76000023 -1.32000005 7 83 210 0.000000 0.000000 0.000000 0.000000 119.155926 0.000000 215.000000 0.713476 -0.656776 0.244125
-3.96000004 16.77000046 -1.26999998 7 83 210 0.000000 0.000000 0.000000 0.000000 119.155926 0.000000 215.000000 0.750166 -0.658367 -0.061677
-3.93000007 16.71999931 -1.26999998 7 83 210 0.000000 0.000000 0.000000 0.000000 119.155926 0.000000 215.000000 0.818228 -0.518159 0.249026
-3.93000007 16.71999931 -1.25999999 7 83 210 0.000000 0.000000 0.000000 0.000000 119.155926 0.000000 215.000000 -0.619451 0.785005 -0.006898
-3.92000008 16.70000076 -1.39999998 7 83 210 0.000000 0.000000 0.000000 0.000000 119.155926 0.000000 215.000000 -0.489580 0.867700 0.086065
-3.94000006 16.69000053 -1.38000000 7 83 210 0.000000 0.000000 0.000000 0.000000 119.155926 0.000000 215.000000 0.756807 -0.636440 -0.148954
-3.93000007 16.70000076 -1.39999998 7 83 210 0.000000 0.000000 0.000000 0.000000 119.155926 0.000000 215.000000 -0.617740 0.785832 -0.029416
-3.93000007 16.67000008 -1.40999997 7 83 210 0.000000 0.000000 0.000000 0.000000 119.155926 0.000000 215.000000 -0.690339 0.693442 -0.206326
-3.84999990 16.70999908 -1.45000005 7 83 210 0.000000 0.000000 0.000000 0.000000 119.155926 0.000000 215.000000 0.414852 -0.570215 0.709050
-3.85999990 16.69000053 -1.47000003 7 83 210 0.000000 0.000000 0.000000 0.000000 119.155926 0.000000 215.000000 0.394717 -0.592901 0.701902
-3.89000010 16.70999908 -1.44000006 7 83 210 0.000000 0.000000 0.000000 0.000000 119.155926 0.000000 215.000000 -0.470964 0.827708 -0.305110
-3.90000010 16.70000076 -1.42999995 7 83 210 0.000000 0.000000 0.000000 0.000000 119.155926 0.000000 215.000000 -0.626462 0.774720 -0.085757
-3.91000009 16.67000008 -1.45000005 7 83 210 0.000000 0.000000 0.000000 0.000000 119.155926 0.000000 215.000000 -0.343782 0.929991 -0.130117
-3.88000011 16.67000008 -1.44000006 7 83 210 0.000000 0.000000 0.000000 0.000000 119.155926 0.000000 215.000000 -0.514678 0.629426 -0.582177
-3.90000010 16.64999962 -1.41999996 7 83 210 0.000000 0.000000 0.000000 0.000000 119.155926 0.000000 215.000000 -0.491839 0.866707 -0.083148
-3.90000010 16.63999939 -1.36000001 7 83 210 0.000000 0.000000 0.000000 0.000000 119.155926 0.000000 215.000000 -0.686521 0.713562 -0.139708
-3.89000010 16.64999962 -1.47000003 7 83 210 0.000000 0.000000 0.000000 0.000000 119.155926 0.000000 215.000000 -0.479472 0.877475 0.012020
-3.90000010 16.62999916 -1.49000001 7 83 210 0.000000 0.000000 0.000000 0.000000 119.155926 0.000000 215.000000 0.381305 -0.658618 0.648714
-3.88000011 16.63999939 -1.50000000 7 83 210 0.000000 0.000000 0.000000 0.000000 119.155926 0.000000 215.000000 -0.512122 0.858113 0.037070
-3.89000010 16.64999962 -1.48000002 7 83 210 0.000000 0.000000 0.000000 0.000000 119.155926 0.000000 215.000000 -0.336391 0.903409 -0.265881
-3.89000010 16.62000084 -1.50000000 7 83 210 0.000000 0.000000 0.000000 0.000000 119.155926 0.000000 215.000000 -0.670395 0.713746 -0.202822
-3.85999990 16.62999916 -1.58000004 7 83 210 0.000000 0.000000 0.000000 0.000000 119.155926 0.000000 215.000000 -0.114277 0.843336 -0.525096
-3.84999990 16.60000038 -1.59000003 7 83 210 0.000000 0.000000 0.000000 0.000000 119.155926 0.000000 215.000000 -0.333612 0.817429 -0.469587
-3.84999990 16.60000038 -1.59000003 7 83 210 0.000000 0.000000 0.000000 0.000000 119.155926 0.000000 215.000000 -0.333612 0.817429 -0.469587
-3.84999990 16.60000038 -1.55999994 7 83 210 0.000000 0.000000 0.000000 0.000000 119.155926 0.000000 215.000000 -0.268427 0.722689 -0.636920
-3.89000010 16.64999962 -1.54999995 7 83 210 0.000000 0.000000 0.000000 0.000000 119.155926 0.000000 215.000000 -0.331644 0.780245 -0.530310
-3.88000011 16.61000061 -1.51999998 7 83 210 0.000000 0.000000 0.000000 0.000000 119.155926 0.000000 215.000000 -0.597689 0.736236 -0.317371
-3.91000009 16.59000015 -1.51999998 7 83 210 0.000000 0.000000 0.000000 0.000000 119.155926 0.000000 215.000000 -0.166331 0.911266 -0.376733
-3.90000010 16.59000015 -1.55999994 7 83 210 0.000000 0.000000 0.000000 0.000000 119.155926 0.000000 215.000000 -0.618705 0.681400 -0.391021
-3.89000010 16.60000038 -1.58000004 7 83 210 0.000000 0.000000 0.000000 0.000000 119.155926 0.000000 215.000000 -0.460790 0.825648 -0.325541
-3.89000010 16.59000015 -1.55999994 7 83 210 0.000000 0.000000 0.000000 0.000000 119.155926 0.000000 215.000000 -0.441130 0.803658 -0.399423
-3.72000003 16.47999954 -1.47000003 7 83 210 0.000000 0.000000 0.000000 0.000000 119.155926 0.000000 87.000000 0.009724 -0.701495 0.712608
-3.34999990 16.82999992 -1.60000002 7 83 210 0.000000 0.000000 0.000000 0.000000 119.155926 0.000000 135.000000 -0.534696 -0.335590 0.775551
-3.65000010 16.95999908 -1.60000002 7 83 210 0.000000 0.000000 0.000000 0.000000 119.155926 0.000000 122.000000 -0.013898 0.941279 -0.337344
-3.67000008 16.95999908 -1.61000001 7 83 210 0.000000 0.000000 0.000000 0.000000 119.155926 0.000000 122.000000 -0.022742 0.889601 -0.456171
-3.71000004 16.92000008 -1.74000001 7 83 210 0.000000 0.000000 0.000000 0.000000 119.155926 0.000000 122.000000 -0.017997 0.796033 -0.604985
-3.73000002 16.89999962 -1.63999999 7 83 210 0.000000 0.000000 0.000000 0.000000 119.155926 0.000000 122.000000 0.032486 0.733060 -0.679387
-3.75999999 16.89999962 -1.64999998 7 83 210 0.000000 0.000000 0.000000 0.000000 119.155926 0.000000 122.000000 -0.216273 0.814476 -0.538382
-3.78999996 16.89999962 -1.71000004 7 83 210 0.000000 0.000000 0.000000 0.000000 119.155926 0.000000 122.000000 -0.437577 0.816280 -0.377112
-3.95000005 16.87999916 -1.69000006 7 83 210 0.000000 0.000000 0.000000 0.000000 119.155926 0.000000 122.000000 -0.443832 0.832772 -0.330913
-3.34999990 16.81999969 -1.62000000 7 83 210 0.000000 0.000000 0.000000 0.000000 119.155926 0.000000 135.000000 -0.283720 -0.681248 0.674836
-3.43000007 16.78000069 -1.62000000 7 83 210 0.000000 0.000000 0.000000 0.000000 119.155926 0.000000 135.000000 0.323201 0.674011 -0.664267
-3.48000002 16.77000046 -1.67999995 7 83 210 0.000000 0.000000 0.000000 0.000000 119.155926 0.000000 135.000000 0.385358 0.569018 -0.726441
-3.49000001 16.78000069 -1.65999997 7 83 210 0.000000 0.000000 0.000000 0.000000 119.155926 0.000000 135.000000 0.667846 0.628073 -0.399382
-3.49000001 16.77000046 -1.67999995 7 83 210 0.000000 0.000000 0.000000 0.000000 119.155926 0.000000 135.000000 0.257411 0.740648 -0.620629
-3.47000003 16.78000069 -1.72000003 7 83 210 0.000000 0.000000 0.000000 0.000000 119.155926 0.000000 135.000000 0.609944 0.729036 -0.310605
-3.48000002 16.75000000 -1.70000005 7 83 210 0.000000 0.000000 0.000000 0.000000 119.155926 0.000000 135.000000 -0.219227 -0.392843 0.893092
-3.53999996 16.80999947 -1.73000002 7 83 210 0.000000 0.000000 0.000000 0.000000 119.155926 0.000000 135.000000 0.464292 0.703926 -0.537513
-3.51999998 16.77000046 -1.73000002 7 83 210 0.000000 0.000000 0.000000 0.000000 119.155926 0.000000 135.000000 0.053974 0.867743 -0.494074
-3.50000000 16.71999931 -1.73000002 7 83 210 0.000000 0.000000 0.000000 0.000000 119.155926 0.000000 135.000000 -0.179652 -0.689433 0.701717
-3.50999999 16.71999931 -1.73000002 7 83 210 0.000000 0.000000 0.000000 0.000000 119.155926 0.000000 135.000000 0.159576 0.868152 -0.469944
-3.53999996 16.70000076 -1.75000000 7 83 210 0.000000 0.000000 0.000000 0.000000 119.155926 0.000000 135.000000 -0.372335 -0.347615 0.860541
-3.55999994 16.67000008 -1.72000003 7 83 210 0.000000 0.000000 0.000000 0.000000 119.155926 0.000000 135.000000 -0.425767 -0.350354 0.834251
-3.55999994 16.77000046 -1.76999998 7 83 210 0.000000 0.000000 0.000000 0.000000 119.155926 0.000000 135.000000 -0.158991 0.743473 -0.649592
-3.55999994 16.70000076 -1.78999996 7 83 210 0.000000 0.000000 0.000000 0.000000 119.155926 0.000000 135.000000 -0.313531 -0.477387 0.820853
-3.68000007 16.54000092 -1.63999999 7 83 210 0.000000 0.000000 0.000000 0.000000 119.155926 0.000000 87.000000 -0.263164 -0.584633 0.767430
-3.68000007 16.50000000 -1.67999995 7 83 210 0.000000 0.000000 0.000000 0.000000 119.155926 0.000000 87.000000 0.380291 0.676621 -0.630526
-3.67000008 16.51000023 -1.67999995 7 83 210 0.000000 0.000000 0.000000 0.000000 119.155926 0.000000 87.000000 0.503423 0.722736 -0.473517
-3.71000004 16.48999977 -1.63000000 7 83 210 0.000000 0.000000 0.000000 0.000000 119.155926 0.000000 87.000000 0.366923 0.856153 -0.363826
-3.74000001 16.52000046 -1.63999999 7 83 210 0.000000 0.000000 0.000000 0.000000 119.155926 0.000000 87.000000 0.371899 0.793706 -0.481375
-3.67000008 16.48999977 -1.69000006 7 83 210 0.000000 0.000000 0.000000 0.000000 119.155926 0.000000 87.000000 -0.251267 -0.449234 0.857353
-3.81999993 16.57999992 -1.71000004 7 83 210 0.000000 0.000000 0.000000 0.000000 119.155926 0.000000 215.000000 0.321919 -0.729576 0.603396
-3.82999992 16.53000069 -1.72000003 7 83 210 0.000000 0.000000 0.000000 0.000000 119.155926 0.000000 215.000000 -0.400956 0.717760 -0.569258
-3.79999995 16.54000092 -1.70000005 7 83 210 0.000000 0.000000 0.000000 0.000000 119.155926 0.000000 215.000000 -0.445389 0.665582 -0.598857
-3.81999993 16.54000092 -1.72000003 7 83 210 0.000000 0.000000 0.000000 0.000000 119.155926 0.000000 215.000000 -0.029620 -0.692551 0.720761
-3.81999993 16.52000046 -1.73000002 7 83 210 0.000000 0.000000 0.000000 0.000000 119.155926 0.000000 215.000000 -0.117541 0.936279 -0.331008
-3.81999993 16.52000046 -1.73000002 7 83 210 0.000000 0.000000 0.000000 0.000000 119.155926 0.000000 215.000000 -0.117541 0.936279 -0.331008
-3.83999991 16.61000061 -1.61000001 7 83 210 0.000000 0.000000 0.000000 0.000000 119.155926 0.000000 215.000000 0.112149 0.881573 -0.458532
-3.88000011 16.62999916 -1.63000000 7 83 210 0.000000 0.000000 0.000000 0.000000 119.155926 0.000000 215.000000 0.640733 -0.580191 0.502832
-3.84999990 16.56999969 -1.63000000 7 83 210 0.000000 0.000000 0.000000 0.000000 119.155926 0.000000 215.000000 -0.223054 0.750271 -0.622366
-3.86999989 16.55999947 -1.63999999 7 83 210 0.000000 0.000000 0.000000 0.000000 119.155926 0.000000 215.000000 -0.347224 0.919789 -0.182824
-3.85999990 16.56999969 -1.62000000 7 83 210 0.000000 0.000000 0.000000 0.000000 119.155926 0.000000 215.000000 -0.138696 0.932422 -0.333695
-3.86999989 16.55999947 -1.64999998 7 83 210 0.000000 0.000000 0.000000 0.000000 119.155926 0.000000 215.000000 -0.617624 0.637710 -0.460289
-3.84999990 16.54999924 -1.65999997 7 83 210 0.000000 0.000000 0.000000 0.000000 119.155926 0.000000 215.000000 0.010310 0.984055 -0.177565
-3.84999990 16.54999924 -1.66999996 7 83 210 0.000000 0.000000 0.000000 0.000000 119.155926 0.000000 215.000000 0.003450 0.980927 -0.194345
-3.85999990 16.55999947 -1.64999998 7 83 210 0.000000 0.000000 0.000000 0.000000 119.155926 0.000000 215.000000 -0.165882 0.973768 -0.155752
-3.84999990 16.54999924 -1.67999995 7 83 210 0.000000 0.000000 0.000000 0.000000 119.155926 0.000000 215.000000 -0.041180 0.959618 -0.278277
-3.88000011 16.56999969 -1.62000000 7 83 210 0.000000 0.000000 0.000000 0.000000 119.155926 0.000000 215.000000 0.366926 -0.774263 0.515637
-3.88000011 16.54000092 -1.67999995 7 83 210 0.000000 0.000000 0.000000 0.000000 119.155926 0.000000 215.000000 0.546492 -0.593866 0.590482
-3.83999991 16.56999969 -1.75000000 7 83 210 0.000000 0.000000 0.000000 0.000000 119.155926 0.000000 215.000000 0.126464 -0.626370 0.769200
-3.84999990 16.54000092 -1.73000002 7 83 210 0.000000 0.000000 0.000000 0.000000 119.155926 0.000000 215.000000 0.041894 0.977931 -0.204683
-3.85999990 16.52000046 -1.75999999 7 83 210 0.000000 0.000000 0.000000 0.000000 119.155926 0.000000 215.000000 -0.237620 0.964608 -0.114314
-3.67000008 16.47999954 -1.69000006 7 83 210 0.000000 0.000000 0.000000 0.000000 119.155926 0.000000 87.000000 0.338284 0.752641 -0.564885
-3.75999999 16.47999954 -1.63000000 7 83 210 0.000000 0.000000 0.000000 0.000000 119.155926 0.000000 87.000000 0.137314 0.950532 -0.278627
-3.09999990 17.95999908 -0.16000000 7 83 210 0.000000 0.000000 0.000000 0.000000 119.155926 0.000000 192.000000 0.206260 -0.551555 0.808235
-3.09999990 17.86000061 -0.22000000 7 83 210 0.000000 0.000000 0.000000 0.000000 119.155926 0.000000 192.000000 0.082754 -0.631540 0.770914
-3.22000003 17.97999954 -0.10000000 7 83 210 0.000000 0.000000 0.000000 0.000000 119.155926 0.000000 192.000000 0.086037 -0.689751 0.718916
-3.06999993 17.80999947 -0.23999999 7 83 210 0.000000 0.000000 0.000000 0.000000 119.155926 0.000000 60.000000 -0.291925 -0.591825 0.751347
-3.04999995 17.80999947 -0.23999999 7 83 210 0.000000 0.000000 0.000000 0.000000 119.155926 0.000000 60.000000 0.247160 -0.612390 0.750926
-3.09999990 17.77000046 -0.22000000 7 83 210 0.000000 0.000000 0.000000 0.000000 119.155926 0.000000 60.000000 0.174829 -0.612661 0.770767
-3.10999990 17.75000000 -0.23000000 7 83 210 0.000000 0.000000 0.000000 0.000000 119.155926 0.000000 60.000000 -0.117524 -0.709605 0.694729
-3.22000003 17.79000092 -0.20000000 7 83 210 0.000000 0.000000 0.000000 0.000000 119.155926 0.000000 60.000000 -0.162943 0.714207 -0.680704
-3.21000004 17.77000046 -0.19000000 7 83 210 0.000000 0.000000 0.000000 0.000000 119.155926 0.000000 60.000000 0.095448 0.729814 -0.676950
-3.17000008 17.80999947 -0.20999999 7 83 210 0.000000 0.000000 0.000000 0.000000 119.155926 0.000000 60.000000 0.148296 -0.591687 0.792411
-3.20000005 17.75000000 -0.23000000 7 83 210 0.000000 0.000000 0.000000 0.000000 119.155926 0.000000 60.000000 0.145055 0.929733 -0.338461
-3.17000008 17.72999954 -0.22000000 7 83 210 0.000000 0.000000 0.000000 0.000000 119.155926 0.000000 60.000000 -0.379254 0.756880 -0.532258
-3.16000009 17.69000053 -0.23000000 7 83 210 0.000000 0.000000 0.000000 0.000000 119.155926 0.000000 60.000000 0.110533 0.761941 -0.638144
-3.27999997 17.81999969 -0.15000001 7 83 210 0.000000 0.000000 0.000000 0.000000 119.155926 0.000000 60.000000 0.683843 -0.631366 0.365700
-3.28999996 17.81999969 -0.16000000 7 83 210 0.000000 0.000000 0.000000 0.000000 119.155926 0.000000 60.000000 -0.014579 0.894597 -0.446636
-3.31999993 17.77000046 -0.16000000 7 83 210 0.000000 0.000000 0.000000 0.000000 119.155926 0.000000 60.000000 0.451044 -0.544248 0.707356
-3.25999999 17.77000046 -0.20000000 7 83 210 0.000000 0.000000 0.000000 0.000000 119.155926 0.000000 60.000000 -0.467089 0.678032 -0.567538
-3.27999997 17.69000053 -0.23000000 7 83 210 0.000000 0.000000 0.000000 0.000000 119.155926 0.000000 60.000000 -0.218867 0.759051 -0.613139
-3.25000000 17.67000008 -0.23999999 7 83 210 0.000000 0.000000 0.000000 0.000000 119.155926 0.000000 60.000000 -0.021039 -0.713929 0.699902
-3.32999992 17.77000046 -0.17000000 7 83 210 0.000000 0.000000 0.000000 0.000000 119.155926 0.000000 60.000000 -0.422230 0.744242 -0.517519
-3.19000006 16.75000000 -0.16000000 7 83 210 0.000000 0.000000 0.000000 0.000000 119.155926 0.000000 215.000000 -0.106743 0.984674 -0.137926
-3.19000006 16.78000069 -0.14000000 7 83 210 0.000000 0.000000 0.000000 0.000000 119.155926 0.000000 215.000000 -0.155311 0.977837 -0.140401
-3.20000005 16.77000046 -0.19000000 7 83 210 0.000000 0.000000 0.000000 0.000000 119.155926 0.000000 215.000000 -0.321308 0.939724 -0.116961
-3.19000006 16.77000046 -0.18000001 7 83 210 0.000000 0.000000 0.000000 0.000000 119.155926 0.000000 215.000000 0.001381 -0.705724 0.708486
-3.23000002 16.75000000 -0.20999999 7 83 210 0.000000 0.000000 0.000000 0.000000 119.155926 0.000000 215.000000 -0.064515 0.960139 -0.271976
-3.31999993 16.62999916 -0.22000000 7 83 210 0.000000 0.000000 0.000000 0.000000 119.155926 0.000000 215.000000 0.142977 0.696825 -0.702846
-3.53999996 16.64999962 -0.23999999 7 83 210 0.000000 0.000000 0.000000 0.000000 119.155926 0.000000 230.000000 0.574453 0.645206 -0.503699
-3.32999992 16.63999939 -0.22000000 7 83 210 0.000000 0.000000 0.000000 0.000000 119.155926 0.000000 215.000000 -0.073297 -0.613681 0.786144
-2.64000010 17.39999962 -0.44000000 7 83 210 0.000000 0.000000 0.000000 0.000000 119.155926 0.000000 135.000000 0.606188 0.572417 -0.552155
-2.63000011 17.26000023 -0.50000000 7 83 210 0.000000 0.000000 0.000000 0.000000 119.155926 0.000000 135.000000 0.679387 -0.032486 -0.733060
-2.75999999 17.69000053 -0.34999999 7 83 210 0.000000 0.000000 0.000000 0.000000 119.155926 0.000000 60.000000 -0.303002 -0.329869 0.894079
-2.68000007 17.62999916 -0.40000001 7 83 210 0.000000 0.000000 0.000000 0.000000 119.155926 0.000000 60.000000 -0.281782 -0.448079 0.848425
-2.68000007 17.64999962 -0.38000000 7 83 210 0.000000 0.000000 0.000000 0.000000 119.155926 0.000000 60.000000 -0.318391 -0.606074 0.728905
-2.73000002 17.51000023 -0.50000000 7 83 210 0.000000 0.000000 0.000000 0.000000 119.155926 0.000000 135.000000 -0.722699 -0.117235 0.681148
-2.75000000 17.54000092 -0.50999999 7 83 210 0.000000 0.000000 0.000000 0.000000 119.155926 0.000000 135.000000 0.673370 0.305197 -0.673370
-2.93000007 17.70999908 -0.33000001 7 83 210 0.000000 0.000000 0.000000 0.000000 119.155926 0.000000 60.000000 0.604648 0.730414 -0.317642
-2.83999991 17.64999962 -0.34999999 7 83 210 0.000000 0.000000 0.000000 0.000000 119.155926 0.000000 60.000000 -0.202142 -0.628030 0.751476
-2.82999992 17.63999939 -0.37000000 7 83 210 0.000000 0.000000 0.000000 0.000000 119.155926 0.000000 60.000000 0.333393 0.854418 -0.398521
-2.81999993 17.64999962 -0.36000001 7 83 210 0.000000 0.000000 0.000000 0.000000 119.155926 0.000000 60.000000 0.503023 0.315778 -0.804520
-2.97000003 17.61000061 -0.31000000 7 83 210 0.000000 0.000000 0.000000 0.000000 119.155926 0.000000 60.000000 0.310159 0.532838 -0.787328
-2.91000009 17.62999916 -0.34999999 7 83 210 0.000000 0.000000 0.000000 0.000000 119.155926 0.000000 60.000000 0.566455 0.650499 -0.505944
-2.92000008 17.59000015 -0.33000001 7 83 210 0.000000 0.000000 0.000000 0.000000 119.155926 0.000000 60.000000 0.064907 0.725520 -0.685133
