//X Y Z R G B PointSourceId ScanDirectionFlag NumberOfReturns ReturnNumber GpsTime Intensity Classification Nx Ny Nz
7.80999994 -5.42000008 -0.04000000 61 189 130 97.000000 1.000000 4.000000 1.000000 -8.844074 114.000000 81.000000 0.981870 -0.188955 -0.015070
7.80000019 -5.42999983 -0.06000000 61 189 130 97.000000 1.000000 4.000000 1.000000 -8.844074 114.000000 81.000000 0.930072 -0.299706 -0.212467
7.76000023 -5.48999977 -0.05000000 61 189 130 97.000000 1.000000 4.000000 1.000000 -8.844074 114.000000 81.000000 0.697943 -0.688657 -0.196538
7.80999994 -5.46999979 -0.11000000 61 189 130 97.000000 1.000000 4.000000 1.000000 -8.844074 114.000000 81.000000 0.759532 -0.337032 -0.556345
7.80999994 -5.46000004 -0.11000000 61 189 130 97.000000 1.000000 4.000000 1.000000 -8.844074 114.000000 81.000000 0.780490 -0.280217 -0.558850
7.80999994 -5.46000004 -0.11000000 61 189 130 97.000000 1.000000 4.000000 1.000000 -8.844074 114.000000 81.000000 0.780490 -0.280217 -0.558850
7.80999994 -5.46000004 -0.20999999 61 189 130 97.000000 1.000000 4.000000 1.000000 -8.844074 114.000000 81.000000 0.987464 0.135350 -0.081210
7.92999983 -5.51999998 0.47999999 61 189 130 97.000000 1.000000 4.000000 1.000000 -8.844074 114.000000 81.000000 0.899024 -0.366378 -0.239838
7.92000008 -5.53999996 0.50000000 61 189 130 97.000000 1.000000 4.000000 1.000000 -8.844074 114.000000 81.000000 0.907886 0.066497 -0.413909
7.92000008 -5.55000019 0.44000000 61 189 130 97.000000 1.000000 4.000000 1.000000 -8.844074 114.000000 81.000000 0.851514 -0.384504 -0.356484
7.92000008 -5.55000019 0.44000000 61 189 130 97.000000 1.000000 4.000000 1.000000 -8.844074 114.000000 81.000000 0.851514 -0.384504 -0.356484
7.90999985 -5.53000021 0.44999999 61 189 130 97.000000 1.000000 4.000000 1.000000 -8.844074 114.000000 81.000000 0.875454 -0.435498 -0.209574
7.88000011 -5.57999992 0.44000000 61 189 130 97.000000 1.000000 4.000000 1.000000 -8.844074 114.000000 81.000000 -0.521263 0.809289 0.270806
7.88999987 -5.57999992 0.44999999 61 189 130 97.000000 1.000000 4.000000 1.000000 -8.844074 114.000000 81.000000 -0.607304 0.729732 0.314123
7.88000011 -5.57999992 0.44000000 61 189 130 97.000000 1.000000 4.000000 1.000000 -8.844074 114.000000 81.000000 -0.521263 0.809289 0.270806
7.86000013 -5.53000021 0.44999999 61 189 130 97.000000 1.000000 4.000000 1.000000 -8.844074 114.000000 81.000000 0.939530 -0.003763 -0.342446
7.94999981 -5.53000021 0.33000001 61 189 130 97.000000 1.000000 4.000000 1.000000 -8.844074 114.000000 81.000000 0.915805 -0.049323 -0.398582
7.94000006 -5.55999994 0.33000001 61 189 130 97.000000 1.000000 4.000000 1.000000 -8.844074 114.000000 81.000000 0.832325 -0.377468 -0.405897
7.92000008 -5.55000019 0.31999999 61 189 130 97.000000 1.000000 4.000000 1.000000 -8.844074 114.000000 81.000000 0.882415 -0.091188 -0.461550
7.92000008 -5.55000019 0.31999999 61 189 130 97.000000 1.000000 4.000000 1.000000 -8.844074 114.000000 81.000000 0.882415 -0.091188 -0.461550
7.94999981 -5.55000019 0.33000001 61 189 130 97.000000 1.000000 4.000000 1.000000 -8.844074 114.000000 81.000000 0.861101 -0.137950 -0.489361
7.90000010 -5.55999994 0.41999999 61 189 130 97.000000 1.000000 4.000000 1.000000 -8.844074 114.000000 81.000000 0.776331 -0.614783 -0.139111
7.90000010 -5.55999994 0.43000001 61 189 130 97.000000 1.000000 4.000000 1.000000 -8.844074 114.000000 81.000000 -0.670465 0.640813 0.373945
7.84999990 -5.57999992 0.28000000 61 189 130 97.000000 1.000000 4.000000 1.000000 -8.844074 114.000000 81.000000 -0.532535 0.819402 0.212099
7.92999983 -5.53999996 0.22000000 61 189 130 97.000000 1.000000 4.000000 1.000000 -8.844074 114.000000 81.000000 0.707727 -0.432592 -0.558558
7.92999983 -5.53999996 0.22000000 61 189 130 97.000000 1.000000 4.000000 1.000000 -8.844074 114.000000 81.000000 0.707727 -0.432592 -0.558558
7.94000006 -5.50000000 0.16000000 61 189 130 97.000000 1.000000 4.000000 1.000000 -8.844074 114.000000 81.000000 0.894374 -0.212249 -0.393759
7.92000008 -5.50000000 0.10000000 61 189 130 97.000000 1.000000 4.000000 1.000000 -8.844074 114.000000 81.000000 0.767844 -0.487442 -0.415712
7.92999983 -5.50000000 0.13000000 61 189 130 97.000000 1.000000 4.000000 1.000000 -8.844074 114.000000 81.000000 0.838029 -0.060563 -0.542254
7.84000015 -5.57000017 0.25999999 61 189 130 97.000000 1.000000 4.000000 1.000000 -8.844074 114.000000 81.000000 0.814766 -0.422530 -0.397019
7.88000011 -5.61000013 0.19000000 61 189 130 97.000000 1.000000 4.000000 1.000000 -8.844074 114.000000 81.000000 0.836525 -0.520405 -0.171480
7.86000013 -5.59999990 0.20999999 61 189 130 97.000000 1.000000 4.000000 1.000000 -8.844074 114.000000 81.000000 0.854040 -0.327046 -0.404545
7.84000015 -5.59000015 0.19000000 61 189 130 97.000000 1.000000 4.000000 1.000000 -8.844074 114.000000 81.000000 -0.457754 0.883113 0.102819
7.86999989 -5.61999989 0.17000000 61 189 130 97.000000 1.000000 4.000000 1.000000 -8.844074 114.000000 81.000000 0.819283 -0.496583 -0.286671
7.92000008 -5.55000019 0.05000000 61 189 130 97.000000 1.000000 4.000000 1.000000 -8.844074 114.000000 81.000000 0.984392 0.031380 -0.173169
7.92000008 -5.55999994 0.03000000 61 189 130 97.000000 1.000000 4.000000 1.000000 -8.844074 114.000000 81.000000 0.963652 -0.182242 -0.195353
7.96999979 -5.51999998 -0.04000000 61 189 130 97.000000 1.000000 4.000000 1.000000 -8.844074 114.000000 81.000000 0.795989 -0.217088 -0.565044
7.94000006 -5.50000000 -0.01000000 61 189 130 97.000000 1.000000 4.000000 1.000000 -8.844074 114.000000 81.000000 0.829738 0.004074 -0.558138
7.92999983 -5.57000017 0.00000000 61 189 130 97.000000 1.000000 4.000000 1.000000 -8.844074 114.000000 81.000000 0.983508 -0.067787 -0.167684
7.94999981 -5.53999996 -0.05000000 61 189 130 97.000000 1.000000 4.000000 1.000000 -8.844074 114.000000 81.000000 0.924455 0.046157 -0.378486
7.92999983 -5.59000015 -0.03000000 61 189 130 97.000000 1.000000 4.000000 1.000000 -8.844074 114.000000 81.000000 0.888610 -0.379557 -0.257503
7.84999990 -5.57999992 0.01000000 61 189 130 97.000000 1.000000 4.000000 1.000000 -8.844074 114.000000 81.000000 -0.568426 0.732237 0.375128
7.84999990 -5.57999992 0.01000000 61 189 130 97.000000 1.000000 4.000000 1.000000 -8.844074 114.000000 81.000000 -0.568426 0.732237 0.375128
7.86000013 -5.57000017 0.02000000 61 189 130 97.000000 1.000000 4.000000 1.000000 -8.844074 114.000000 81.000000 -0.662238 0.612195 0.432039
7.94000006 -5.51999998 -0.10000000 61 189 130 97.000000 1.000000 4.000000 1.000000 -8.844074 114.000000 81.000000 0.796463 -0.112942 -0.594047
7.94000006 -5.51999998 -0.10000000 61 189 130 97.000000 1.000000 4.000000 1.000000 -8.844074 114.000000 81.000000 0.796463 -0.112942 -0.594047
7.94999981 -5.57999992 -0.20000000 61 189 130 97.000000 1.000000 4.000000 1.000000 -8.844074 114.000000 81.000000 -0.653389 0.498860 0.569405
7.94999981 -5.55000019 -0.17000000 61 189 130 97.000000 1.000000 4.000000 1.000000 -8.844074 114.000000 81.000000 0.958147 0.031068 -0.284586
7.94000006 -5.55999994 -0.18000001 61 189 130 97.000000 1.000000 4.000000 1.000000 -8.844074 114.000000 81.000000 0.906171 -0.027780 -0.421998
7.94999981 -5.57000017 -0.20000000 61 189 130 97.000000 1.000000 4.000000 1.000000 -8.844074 114.000000 81.000000 0.902624 -0.278297 -0.328361
7.94999981 -5.53999996 -0.22000000 61 189 130 97.000000 1.000000 4.000000 1.000000 -8.844074 114.000000 81.000000 0.696037 -0.569787 -0.436892
7.94999981 -5.53999996 -0.22000000 61 189 130 97.000000 1.000000 4.000000 1.000000 -8.844074 114.000000 81.000000 0.696037 -0.569787 -0.436892
7.94000006 -5.59999990 -0.09000000 61 189 130 97.000000 1.000000 4.000000 1.000000 -8.844074 114.000000 81.000000 0.814406 -0.300873 -0.496205
7.92999983 -5.59000015 -0.10000000 61 189 130 97.000000 1.000000 4.000000 1.000000 -8.844074 114.000000 81.000000 0.898250 -0.391620 -0.199449
7.94000006 -5.59000015 -0.23000000 61 189 130 97.000000 1.000000 4.000000 1.000000 -8.844074 114.000000 81.000000 0.868749 -0.386280 -0.309940
7.84000015 -5.50000000 -0.23999999 61 189 130 97.000000 1.000000 4.000000 1.000000 -8.844074 114.000000 81.000000 0.938240 0.050751 -0.342243
7.90000010 -5.63000011 -0.13000000 61 189 130 97.000000 1.000000 4.000000 1.000000 -8.844074 114.000000 81.000000 0.633299 -0.538726 -0.555614
7.82000017 -5.55999994 0.27000001 61 189 130 97.000000 1.000000 4.000000 1.000000 -8.844074 114.000000 81.000000 -0.607020 0.783011 0.135722
7.82000017 -5.59000015 0.31000000 61 189 130 97.000000 1.000000 4.000000 1.000000 -8.844074 114.000000 81.000000 0.761568 -0.616947 -0.198469
7.78999996 -5.59000015 0.27000001 61 189 130 97.000000 1.000000 4.000000 1.000000 -8.844074 114.000000 81.000000 -0.199720 0.806505 0.556473
7.82000017 -5.55999994 0.19000000 61 189 130 97.000000 1.000000 4.000000 1.000000 -8.844074 114.000000 81.000000 -0.717629 0.654817 0.237116
7.80999994 -5.57000017 0.19000000 61 189 130 97.000000 1.000000 4.000000 1.000000 -8.844074 114.000000 81.000000 -0.754146 0.588330 0.291773
7.82000017 -5.57000017 0.15000001 61 189 130 97.000000 1.000000 4.000000 1.000000 -8.844074 114.000000 81.000000 -0.850665 0.377900 0.365459
7.78000021 -5.51999998 0.17000000 61 189 130 97.000000 1.000000 4.000000 1.000000 -8.844074 114.000000 81.000000 0.847091 -0.305077 -0.435160
7.78999996 -5.51000023 0.12000000 61 189 130 97.000000 1.000000 4.000000 1.000000 -8.844074 114.000000 81.000000 0.785054 -0.616930 -0.055566
7.78000021 -5.51999998 0.12000000 61 189 130 97.000000 1.000000 4.000000 1.000000 -8.844074 114.000000 81.000000 -0.628056 0.746498 0.219742
7.80999994 -5.51000023 0.01000000 61 189 130 97.000000 1.000000 4.000000 1.000000 -8.844074 114.000000 81.000000 0.844489 -0.269190 -0.463007
7.82000017 -5.57000017 0.08000000 61 189 130 97.000000 1.000000 4.000000 1.000000 -8.844074 114.000000 81.000000 0.850752 -0.505180 -0.144965
7.82999992 -5.53999996 0.08000000 61 189 130 97.000000 1.000000 4.000000 1.000000 -8.844074 114.000000 81.000000 0.829787 -0.535873 -0.155863
7.80999994 -5.57999992 0.08000000 61 189 130 97.000000 1.000000 4.000000 1.000000 -8.844074 114.000000 81.000000 0.902561 -0.399072 -0.161631
7.78999996 -5.53999996 0.06000000 61 189 130 97.000000 1.000000 4.000000 1.000000 -8.844074 114.000000 81.000000 -0.854009 0.435468 0.284670
7.78000021 -5.53999996 0.04000000 61 189 130 97.000000 1.000000 4.000000 1.000000 -8.844074 114.000000 81.000000 -0.531176 0.845116 -0.060265
7.78000021 -5.53999996 0.02000000 61 189 130 97.000000 1.000000 4.000000 1.000000 -8.844074 114.000000 81.000000 0.426572 -0.736207 -0.525391
7.76000023 -5.50000000 -0.03000000 61 189 130 97.000000 1.000000 4.000000 1.000000 -8.844074 114.000000 81.000000 0.797967 -0.593734 -0.103575
7.78999996 -5.51999998 -0.05000000 61 189 130 97.000000 1.000000 4.000000 1.000000 -8.844074 114.000000 81.000000 0.919514 -0.246067 -0.306505
7.78999996 -5.51999998 -0.05000000 61 189 130 97.000000 1.000000 4.000000 1.000000 -8.844074 114.000000 81.000000 0.919514 -0.246067 -0.306505
7.76999998 -5.53000021 -0.05000000 61 189 130 97.000000 1.000000 4.000000 1.000000 -8.844074 114.000000 81.000000 0.890715 -0.446052 -0.087543
7.76999998 -5.53000021 -0.04000000 61 189 130 97.000000 1.000000 4.000000 1.000000 -8.844074 114.000000 81.000000 0.729298 -0.637939 -0.247300
7.76999998 -5.55999994 -0.01000000 61 189 130 97.000000 1.000000 4.000000 1.000000 -8.844074 114.000000 81.000000 -0.556497 0.829864 -0.040447
7.80999994 -5.59000015 -0.02000000 61 189 130 97.000000 1.000000 4.000000 1.000000 -8.844074 114.000000 81.000000 -0.406960 0.886433 0.220498
7.82000017 -5.55000019 -0.09000000 61 189 130 97.000000 1.000000 4.000000 1.000000 -8.844074 114.000000 81.000000 -0.574445 0.790055 0.214069
7.82999992 -5.55000019 -0.10000000 61 189 130 97.000000 1.000000 4.000000 1.000000 -8.844074 114.000000 81.000000 0.962384 -0.248648 -0.109508
7.80999994 -5.53999996 -0.13000000 61 189 130 97.000000 1.000000 4.000000 1.000000 -8.844074 114.000000 81.000000 0.773670 -0.549418 -0.315555
7.78000021 -5.53000021 -0.10000000 61 189 130 97.000000 1.000000 4.000000 1.000000 -8.844074 114.000000 81.000000 -0.447911 0.870525 0.203867
7.78000021 -5.53000021 -0.10000000 61 189 130 97.000000 1.000000 4.000000 1.000000 -8.844074 114.000000 81.000000 -0.447911 0.870525 0.203867
7.76000023 -5.51999998 -0.14000000 61 189 130 97.000000 1.000000 4.000000 1.000000 -8.844074 114.000000 81.000000 0.795095 -0.559511 -0.234034
7.80999994 -5.53000021 -0.18000001 61 189 130 97.000000 1.000000 4.000000 1.000000 -8.844074 114.000000 81.000000 0.964175 -0.222502 -0.144431
7.82999992 -5.51999998 -0.23999999 61 189 130 97.000000 1.000000 4.000000 1.000000 -8.844074 114.000000 81.000000 0.841486 -0.528644 -0.111522
7.78999996 -5.53000021 -0.19000000 61 189 130 97.000000 1.000000 4.000000 1.000000 -8.844074 114.000000 81.000000 -0.504863 0.771093 0.387981
7.82000017 -5.59000015 -0.17000000 61 189 130 97.000000 1.000000 4.000000 1.000000 -8.844074 114.000000 81.000000 -0.487185 0.713319 0.503813
7.92999983 -5.46000004 -0.38999999 61 189 130 97.000000 1.000000 4.000000 1.000000 -8.844074 114.000000 81.000000 0.777374 -0.360404 -0.515556
7.92999983 -5.46000004 -0.40000001 61 189 130 97.000000 1.000000 4.000000 1.000000 -8.844074 114.000000 81.000000 0.791869 -0.489899 -0.364613
7.84999990 -5.40999985 -0.34999999 61 189 130 97.000000 1.000000 4.000000 1.000000 -8.844074 114.000000 81.000000 0.940777 -0.269386 -0.205838
7.84999990 -5.40000010 -0.34999999 61 189 130 97.000000 1.000000 4.000000 1.000000 -8.844074 114.000000 81.000000 0.934569 -0.254371 -0.248750
7.86000013 -5.40999985 -0.34999999 61 189 130 97.000000 1.000000 4.000000 1.000000 -8.844074 114.000000 81.000000 0.886893 0.364661 -0.283626
7.86000013 -5.38999987 -0.34000000 61 189 130 97.000000 1.000000 4.000000 1.000000 -8.844074 114.000000 81.000000 0.919277 0.001282 -0.393609
7.88999987 -5.48999977 -0.28999999 61 189 130 97.000000 1.000000 4.000000 1.000000 -8.844074 114.000000 81.000000 0.758719 -0.249765 -0.601634
7.84000015 -5.44999981 -0.28000000 61 189 130 97.000000 1.000000 4.000000 1.000000 -8.844074 114.000000 81.000000 0.942723 -0.304322 -0.136607
7.84000015 -5.42000008 -0.37000000 61 189 130 97.000000 1.000000 4.000000 1.000000 -8.844074 114.000000 81.000000 0.974317 0.219616 -0.049747
7.84000015 -5.44000006 -0.36000001 61 189 130 97.000000 1.000000 4.000000 1.000000 -8.844074 114.000000 81.000000 0.906065 -0.415337 0.080874
7.84000015 -5.42999983 -0.37000000 61 189 130 97.000000 1.000000 4.000000 1.000000 -8.844074 114.000000 81.000000 0.985312 0.170118 -0.014842
7.84000015 -5.42999983 -0.38999999 61 189 130 97.000000 1.000000 4.000000 1.000000 -8.844074 114.000000 81.000000 0.991808 -0.127155 -0.012163
7.84000015 -5.42000008 -0.38999999 61 189 130 97.000000 1.000000 4.000000 1.000000 -8.844074 114.000000 81.000000 0.975894 0.204999 -0.074880
7.84000015 -5.44000006 -0.38999999 61 189 130 97.000000 1.000000 4.000000 1.000000 -8.844074 114.000000 81.000000 0.989344 -0.108629 0.096949
7.84000015 -5.42999983 -0.38000000 61 189 130 97.000000 1.000000 4.000000 1.000000 -8.844074 114.000000 81.000000 0.993047 -0.093769 0.071174
7.86000013 -5.44999981 -0.38999999 61 189 130 97.000000 1.000000 4.000000 1.000000 -8.844074 114.000000 81.000000 0.911127 -0.392078 -0.126972
7.84000015 -5.44000006 -0.40000001 61 189 130 97.000000 1.000000 4.000000 1.000000 -8.844074 114.000000 81.000000 0.932849 -0.315584 -0.173780
7.84000015 -5.44000006 -0.38000000 61 189 130 97.000000 1.000000 4.000000 1.000000 -8.844074 114.000000 81.000000 0.979461 -0.129689 -0.154392
7.94000006 -5.40000010 -0.51999998 61 189 130 97.000000 1.000000 4.000000 1.000000 -8.844074 114.000000 81.000000 0.900361 -0.394540 -0.183541
7.92999983 -5.40999985 -0.52999997 61 189 130 97.000000 1.000000 4.000000 1.000000 -8.844074 114.000000 81.000000 0.902953 -0.319642 -0.287236
7.94999981 -5.46999979 -0.51999998 61 189 130 97.000000 1.000000 4.000000 1.000000 -8.844074 114.000000 81.000000 0.874990 0.127872 -0.466949
7.86000013 -5.42999983 -0.41999999 61 189 130 97.000000 1.000000 4.000000 1.000000 -8.844074 114.000000 81.000000 0.992038 -0.090185 -0.087902
7.86000013 -5.44000006 -0.41999999 61 189 130 97.000000 1.000000 4.000000 1.000000 -8.844074 114.000000 81.000000 0.926638 -0.341393 0.157459
7.84000015 -5.44999981 -0.47000000 61 189 130 97.000000 1.000000 4.000000 1.000000 -8.844074 114.000000 81.000000 0.994133 0.102613 -0.034204
7.84000015 -5.46000004 -0.46000001 61 189 130 97.000000 1.000000 4.000000 1.000000 -8.844074 114.000000 81.000000 0.824193 -0.385894 -0.414478
7.84000015 -5.46000004 -0.46000001 61 189 130 97.000000 1.000000 4.000000 1.000000 -8.844074 114.000000 81.000000 0.824193 -0.385894 -0.414478
7.90999985 -5.44999981 -0.51999998 61 189 130 97.000000 1.000000 4.000000 1.000000 -8.844074 114.000000 81.000000 0.940462 -0.160166 -0.299798
7.90999985 -5.44999981 -0.51999998 61 189 130 97.000000 1.000000 4.000000 1.000000 -8.844074 114.000000 81.000000 0.940462 -0.160166 -0.299798
7.88999987 -5.42999983 -0.56000000 61 189 130 97.000000 1.000000 4.000000 1.000000 -8.844074 114.000000 81.000000 0.981778 0.186949 0.034098
7.88999987 -5.42999983 -0.56000000 61 189 130 97.000000 1.000000 4.000000 1.000000 -8.844074 114.000000 81.000000 0.981778 0.186949 0.034098
7.94999981 -5.40999985 -0.69999999 61 189 130 97.000000 1.000000 4.000000 1.000000 -8.844074 114.000000 81.000000 0.887632 0.047576 -0.458089
7.98000002 -5.48000002 -0.61000001 61 189 130 97.000000 1.000000 4.000000 1.000000 -8.844074 114.000000 81.000000 0.818580 -0.323331 -0.474745
7.94999981 -5.42000008 -0.69999999 61 189 130 97.000000 1.000000 4.000000 1.000000 -8.844074 114.000000 81.000000 0.812818 -0.445533 -0.375270
7.90000010 -5.38999987 -0.61000001 61 189 130 97.000000 1.000000 4.000000 1.000000 -8.844074 114.000000 81.000000 0.978854 -0.171146 0.112045
7.90000010 -5.38999987 -0.61000001 61 189 130 97.000000 1.000000 4.000000 1.000000 -8.844074 114.000000 81.000000 0.978854 -0.171146 0.112045
7.88000011 -5.40999985 -0.70999998 61 189 130 97.000000 1.000000 4.000000 1.000000 -8.844074 114.000000 81.000000 0.959291 -0.280980 -0.028469
7.88000011 -5.38999987 -0.69000000 61 189 130 97.000000 1.000000 4.000000 1.000000 -8.844074 114.000000 81.000000 0.992549 0.071464 -0.098688
7.88000011 -5.40999985 -0.69999999 61 189 130 97.000000 1.000000 4.000000 1.000000 -8.844074 114.000000 81.000000 0.972674 -0.070448 -0.221231
7.88000011 -5.40999985 -0.68000001 61 189 130 97.000000 1.000000 4.000000 1.000000 -8.844074 114.000000 81.000000 0.942885 -0.299824 0.145164
7.88000011 -5.40999985 -0.67000002 61 189 130 97.000000 1.000000 4.000000 1.000000 -8.844074 114.000000 81.000000 0.979152 0.066404 -0.191967
7.88000011 -5.44000006 -0.58999997 61 189 130 97.000000 1.000000 4.000000 1.000000 -8.844074 114.000000 81.000000 0.837246 -0.204391 -0.507192
7.84999990 -5.42999983 -0.58999997 61 189 130 97.000000 1.000000 4.000000 1.000000 -8.844074 114.000000 81.000000 0.863587 -0.083118 -0.497302
7.88000011 -5.42000008 -0.68000001 61 189 130 97.000000 1.000000 4.000000 1.000000 -8.844074 114.000000 81.000000 0.992440 0.115504 -0.041492
7.90999985 -5.42000008 -0.69000000 61 189 130 97.000000 1.000000 4.000000 1.000000 -8.844074 114.000000 81.000000 0.903235 0.025200 -0.428406
7.92000008 -5.38000011 -0.80000001 61 189 130 97.000000 1.000000 4.000000 1.000000 -8.844074 114.000000 81.000000 0.983111 0.153196 -0.100120
7.92000008 -5.38999987 -0.80000001 61 189 130 97.000000 1.000000 4.000000 1.000000 -8.844074 114.000000 81.000000 0.846867 -0.430426 -0.312331
7.94000006 -5.38000011 -0.88999999 61 189 130 97.000000 1.000000 4.000000 1.000000 -8.844074 114.000000 81.000000 0.997156 -0.067622 0.033274
7.94999981 -5.42999983 -0.79000002 61 189 130 97.000000 1.000000 4.000000 1.000000 -8.844074 114.000000 81.000000 0.841703 -0.229832 -0.488583
7.94000006 -5.44999981 -0.87000000 61 189 130 97.000000 1.000000 4.000000 1.000000 -8.844074 114.000000 81.000000 0.916701 -0.006465 -0.399521
7.94999981 -5.46000004 -0.87000000 61 189 130 97.000000 1.000000 4.000000 1.000000 -8.844074 114.000000 81.000000 0.938740 -0.034673 -0.342878
7.88000011 -5.40999985 -0.76999998 61 189 130 97.000000 1.000000 4.000000 1.000000 -8.844074 114.000000 81.000000 0.975347 -0.176993 -0.131804
7.88000011 -5.38999987 -0.75999999 61 189 130 97.000000 1.000000 4.000000 1.000000 -8.844074 114.000000 81.000000 0.998813 0.034442 -0.034442
7.88000011 -5.40000010 -0.77999997 61 189 130 97.000000 1.000000 4.000000 1.000000 -8.844074 114.000000 81.000000 0.992355 0.037003 -0.117737
7.88000011 -5.36999989 -0.82999998 61 189 130 97.000000 1.000000 4.000000 1.000000 -8.844074 114.000000 81.000000 0.940732 0.331946 -0.069538
7.88000011 -5.40999985 -0.82999998 61 189 130 97.000000 1.000000 4.000000 1.000000 -8.844074 114.000000 81.000000 0.985898 0.115918 0.120698
7.88000011 -5.36000013 -0.88999999 61 189 130 97.000000 1.000000 4.000000 1.000000 -8.844074 114.000000 81.000000 0.982628 -0.080583 0.167179
7.88000011 -5.34999990 -0.91000003 61 189 130 97.000000 1.000000 4.000000 1.000000 -8.844074 114.000000 81.000000 0.997774 0.052178 0.041530
7.88000011 -5.36999989 -0.87000000 61 189 130 97.000000 1.000000 4.000000 1.000000 -8.844074 114.000000 81.000000 0.917237 0.281671 -0.281671
7.88000011 -5.38000011 -0.87000000 61 189 130 97.000000 1.000000 4.000000 1.000000 -8.844074 114.000000 81.000000 0.973141 -0.101447 -0.206652
7.88000011 -5.40000010 -0.86000001 61 189 130 97.000000 1.000000 4.000000 1.000000 -8.844074 114.000000 81.000000 0.834076 -0.496145 -0.241160
7.88000011 -5.38000011 -0.88999999 61 189 130 97.000000 1.000000 4.000000 1.000000 -8.844074 114.000000 81.000000 0.999876 -0.014924 -0.004975
7.88000011 -5.36999989 -0.89999998 61 189 130 97.000000 1.000000 4.000000 1.000000 -8.844074 114.000000 81.000000 0.978268 -0.178876 0.104858
7.82000017 -5.38999987 -0.25000000 61 189 130 97.000000 1.000000 4.000000 1.000000 -8.844074 114.000000 81.000000 0.807458 0.233128 -0.541907
7.82999992 -5.40000010 -0.37000000 61 189 130 97.000000 1.000000 4.000000 1.000000 -8.844074 114.000000 81.000000 0.912386 0.033010 -0.407999
7.82999992 -5.44000006 -0.31000000 61 189 130 97.000000 1.000000 4.000000 1.000000 -8.844074 114.000000 81.000000 0.822776 -0.494915 -0.279463
7.80000019 -5.48000002 -0.25000000 61 189 130 97.000000 1.000000 4.000000 1.000000 -8.844074 114.000000 81.000000 0.816506 -0.121670 -0.564371
7.80000019 -5.46999979 -0.25000000 61 189 130 97.000000 1.000000 4.000000 1.000000 -8.844074 114.000000 81.000000 0.835169 -0.099528 -0.540913
7.80999994 -5.48999977 -0.30000001 61 189 130 97.000000 1.000000 4.000000 1.000000 -8.844074 114.000000 81.000000 0.809726 -0.266788 -0.522655
7.82000017 -5.44999981 -0.36000001 61 189 130 97.000000 1.000000 4.000000 1.000000 -8.844074 114.000000 81.000000 0.922704 -0.088070 -0.375314
7.82000017 -5.46999979 -0.33000001 61 189 130 97.000000 1.000000 4.000000 1.000000 -8.844074 114.000000 81.000000 0.886074 -0.163873 -0.433611
7.82000017 -5.48000002 -0.34000000 61 189 130 97.000000 1.000000 4.000000 1.000000 -8.844074 114.000000 81.000000 0.823906 -0.319795 -0.467878
7.82000017 -5.48000002 -0.34000000 61 189 130 97.000000 1.000000 4.000000 1.000000 -8.844074 114.000000 81.000000 0.823906 -0.319795 -0.467878
7.82000017 -5.46999979 -0.38000000 61 189 130 97.000000 1.000000 4.000000 1.000000 -8.844074 114.000000 81.000000 0.871672 -0.343479 -0.349585
7.78000021 -5.46000004 -0.38000000 61 189 130 97.000000 1.000000 4.000000 1.000000 -8.844074 114.000000 81.000000 0.867007 0.001336 -0.498295
7.82000017 -5.42999983 -0.43000001 61 189 130 97.000000 1.000000 4.000000 1.000000 -8.844074 114.000000 81.000000 0.967107 -0.202718 -0.153653
7.80999994 -5.42999983 -0.44000000 61 189 130 97.000000 1.000000 4.000000 1.000000 -8.844074 114.000000 81.000000 0.939746 -0.212380 -0.267904
7.82000017 -5.42999983 -0.41999999 61 189 130 97.000000 1.000000 4.000000 1.000000 -8.844074 114.000000 81.000000 0.950880 -0.057746 -0.304127
7.82000017 -5.42999983 -0.47999999 61 189 130 97.000000 1.000000 4.000000 1.000000 -8.844074 114.000000 81.000000 0.944863 -0.246187 -0.215929
7.82000017 -5.42999983 -0.47999999 61 189 130 97.000000 1.000000 4.000000 1.000000 -8.844074 114.000000 81.000000 0.944863 -0.246187 -0.215929
7.82000017 -5.42999983 -0.47999999 61 189 130 97.000000 1.000000 4.000000 1.000000 -8.844074 114.000000 81.000000 0.944863 -0.246187 -0.215929
7.82000017 -5.46000004 -0.44999999 61 189 130 97.000000 1.000000 4.000000 1.000000 -8.844074 114.000000 81.000000 0.857232 -0.141655 -0.495063
7.82000017 -5.46000004 -0.46000001 61 189 130 97.000000 1.000000 4.000000 1.000000 -8.844074 114.000000 81.000000 0.813291 -0.436205 -0.385075
7.80000019 -5.48000002 -0.54000002 61 189 130 97.000000 1.000000 4.000000 1.000000 -8.844074 114.000000 81.000000 0.847260 -0.266018 -0.459766
7.80000019 -5.48000002 -0.51999998 61 189 130 97.000000 1.000000 4.000000 1.000000 -8.844074 114.000000 81.000000 0.994423 -0.096235 -0.043140
7.80999994 -5.48000002 -0.52999997 61 189 130 97.000000 1.000000 4.000000 1.000000 -8.844074 114.000000 81.000000 0.989703 -0.125878 0.068136
7.80000019 -5.48000002 -0.51999998 61 189 130 97.000000 1.000000 4.000000 1.000000 -8.844074 114.000000 81.000000 0.994423 -0.096235 -0.043140
7.80000019 -5.48000002 -0.54000002 61 189 130 97.000000 1.000000 4.000000 1.000000 -8.844074 114.000000 81.000000 0.847260 -0.266018 -0.459766
7.80999994 -5.46000004 -0.50999999 61 189 130 97.000000 1.000000 4.000000 1.000000 -8.844074 114.000000 81.000000 0.860874 -0.214843 -0.461236
7.80000019 -5.46999979 -0.55000001 61 189 130 97.000000 1.000000 4.000000 1.000000 -8.844074 114.000000 81.000000 0.859679 -0.393570 -0.325660
7.82000017 -5.46000004 -0.56999999 61 189 130 97.000000 1.000000 4.000000 1.000000 -8.844074 114.000000 81.000000 0.728385 -0.482825 -0.486143
7.82000017 -5.46999979 -0.56000000 61 189 130 97.000000 1.000000 4.000000 1.000000 -8.844074 114.000000 81.000000 0.994369 -0.052218 0.092215
7.82000017 -5.48000002 -0.56999999 61 189 130 97.000000 1.000000 4.000000 1.000000 -8.844074 114.000000 81.000000 0.949675 -0.296362 -0.101422
7.78000021 -5.46000004 -0.56999999 61 189 130 97.000000 1.000000 4.000000 1.000000 -8.844074 114.000000 81.000000 0.713271 -0.507104 -0.483827
7.78000021 -5.48999977 -0.57999998 61 189 130 97.000000 1.000000 4.000000 1.000000 -8.844074 114.000000 81.000000 0.770327 -0.395749 -0.499979
7.78999996 -5.38999987 -0.64999998 61 189 130 97.000000 1.000000 4.000000 1.000000 -8.844074 114.000000 81.000000 0.871331 0.306721 -0.383020
7.82999992 -5.40999985 -0.66000003 61 189 130 97.000000 1.000000 4.000000 1.000000 -8.844074 114.000000 81.000000 0.998232 -0.005194 0.059208
7.78999996 -5.38000011 -0.63999999 61 189 130 97.000000 1.000000 4.000000 1.000000 -8.844074 114.000000 81.000000 0.889718 0.310576 -0.334582
7.82999992 -5.40999985 -0.69000000 61 189 130 97.000000 1.000000 4.000000 1.000000 -8.844074 114.000000 81.000000 0.991138 -0.072354 -0.111403
7.82999992 -5.38999987 -0.73000002 61 189 130 97.000000 1.000000 4.000000 1.000000 -8.844074 114.000000 81.000000 0.994276 -0.094428 -0.049992
7.80000019 -5.40999985 -0.75000000 61 189 130 97.000000 1.000000 4.000000 1.000000 -8.844074 114.000000 81.000000 0.863635 0.113146 -0.491255
7.82000017 -5.40000010 -0.73000002 61 189 130 97.000000 1.000000 4.000000 1.000000 -8.844074 114.000000 81.000000 0.960961 0.051368 -0.271875
7.82000017 -5.38999987 -0.74000001 61 189 130 97.000000 1.000000 4.000000 1.000000 -8.844074 114.000000 81.000000 0.981048 -0.155159 0.116064
7.82999992 -5.40999985 -0.69999999 61 189 130 97.000000 1.000000 4.000000 1.000000 -8.844074 114.000000 81.000000 0.983257 0.181400 -0.017331
7.82000017 -5.38000011 -0.74000001 61 189 130 97.000000 1.000000 4.000000 1.000000 -8.844074 114.000000 81.000000 0.971673 -0.227832 -0.062808
7.82999992 -5.40999985 -0.75000000 61 189 130 97.000000 1.000000 4.000000 1.000000 -8.844074 114.000000 81.000000 0.984055 -0.176507 0.021919
7.82999992 -5.38999987 -0.75000000 61 189 130 97.000000 1.000000 4.000000 1.000000 -8.844074 114.000000 81.000000 0.987125 0.088452 0.133268
7.82999992 -5.42000008 -0.64999998 61 189 130 97.000000 1.000000 4.000000 1.000000 -8.844074 114.000000 81.000000 0.986157 0.145615 0.079319
7.82999992 -5.42000008 -0.64999998 61 189 130 97.000000 1.000000 4.000000 1.000000 -8.844074 114.000000 81.000000 0.986157 0.145615 0.079319
7.80000019 -5.42999983 -0.64999998 61 189 130 97.000000 1.000000 4.000000 1.000000 -8.844074 114.000000 81.000000 0.857795 0.089324 -0.506170
7.82999992 -5.42000008 -0.66000003 61 189 130 97.000000 1.000000 4.000000 1.000000 -8.844074 114.000000 81.000000 0.998212 0.059331 -0.007286
7.80999994 -5.46999979 -0.58999997 61 189 130 97.000000 1.000000 4.000000 1.000000 -8.844074 114.000000 81.000000 0.959049 -0.283217 0.003647
7.80999994 -5.46999979 -0.58999997 61 189 130 97.000000 1.000000 4.000000 1.000000 -8.844074 114.000000 81.000000 0.959049 -0.283217 0.003647
7.80000019 -5.46999979 -0.61000001 61 189 130 97.000000 1.000000 4.000000 1.000000 -8.844074 114.000000 81.000000 0.986093 -0.155946 0.057454
7.80999994 -5.46999979 -0.66000003 61 189 130 97.000000 1.000000 4.000000 1.000000 -8.844074 114.000000 81.000000 0.872347 -0.395970 -0.286737
7.78000021 -5.44000006 -0.66000003 61 189 130 97.000000 1.000000 4.000000 1.000000 -8.844074 114.000000 81.000000 0.740030 -0.546408 -0.392167
7.78000021 -5.48000002 -0.60000002 61 189 130 97.000000 1.000000 4.000000 1.000000 -8.844074 114.000000 81.000000 0.768686 -0.409639 -0.491241
7.82999992 -5.42000008 -0.69000000 61 189 130 97.000000 1.000000 4.000000 1.000000 -8.844074 114.000000 81.000000 0.970748 -0.219768 0.096698
7.82999992 -5.42000008 -0.72000003 61 189 130 97.000000 1.000000 4.000000 1.000000 -8.844074 114.000000 81.000000 0.986634 0.138247 -0.086257
7.80999994 -5.46000004 -0.68000001 61 189 130 97.000000 1.000000 4.000000 1.000000 -8.844074 114.000000 81.000000 0.835619 -0.495239 -0.237653
7.82000017 -5.46999979 -0.68000001 61 189 130 97.000000 1.000000 4.000000 1.000000 -8.844074 114.000000 81.000000 0.796821 -0.264563 -0.543216
7.80999994 -5.46999979 -0.75000000 61 189 130 97.000000 1.000000 4.000000 1.000000 -8.844074 114.000000 81.000000 0.788213 -0.285905 -0.544957
7.80999994 -5.46000004 -0.72000003 61 189 130 97.000000 1.000000 4.000000 1.000000 -8.844074 114.000000 81.000000 0.989446 -0.058745 -0.132464
7.76000023 -5.44000006 -0.69999999 61 189 130 97.000000 1.000000 4.000000 1.000000 -8.844074 114.000000 81.000000 0.705609 -0.475410 -0.525453
7.78999996 -5.46000004 -0.73000002 61 189 130 97.000000 1.000000 4.000000 1.000000 -8.844074 114.000000 81.000000 0.894158 0.003939 -0.447735
7.82999992 -5.40999985 -0.76999998 61 189 130 97.000000 1.000000 4.000000 1.000000 -8.844074 114.000000 81.000000 0.992402 0.076164 0.096626
7.82999992 -5.40000010 -0.75999999 61 189 130 97.000000 1.000000 4.000000 1.000000 -8.844074 114.000000 81.000000 0.981664 -0.085730 -0.170252
7.82999992 -5.40999985 -0.76999998 61 189 130 97.000000 1.000000 4.000000 1.000000 -8.844074 114.000000 81.000000 0.992402 0.076164 0.096626
7.82999992 -5.40999985 -0.75999999 61 189 130 97.000000 1.000000 4.000000 1.000000 -8.844074 114.000000 81.000000 0.949247 -0.208371 -0.235609
7.82999992 -5.40000010 -0.79000002 61 189 130 97.000000 1.000000 4.000000 1.000000 -8.844074 114.000000 81.000000 0.989221 -0.130739 -0.065948
7.82999992 -5.36999989 -0.82999998 61 189 130 97.000000 1.000000 4.000000 1.000000 -8.844074 114.000000 81.000000 0.957134 -0.281660 -0.067547
7.82999992 -5.38999987 -0.82999998 61 189 130 97.000000 1.000000 4.000000 1.000000 -8.844074 114.000000 81.000000 0.983956 -0.177962 0.012630
7.82999992 -5.36999989 -0.82999998 61 189 130 97.000000 1.000000 4.000000 1.000000 -8.844074 114.000000 81.000000 0.957134 -0.281660 -0.067547
7.82999992 -5.36999989 -0.81000000 61 189 130 97.000000 1.000000 4.000000 1.000000 -8.844074 114.000000 81.000000 0.980788 -0.194296 0.017452
7.82999992 -5.40000010 -0.81000000 61 189 130 97.000000 1.000000 4.000000 1.000000 -8.844074 114.000000 81.000000 0.934849 -0.354861 0.011447
7.82999992 -5.40000010 -0.82999998 61 189 130 97.000000 1.000000 4.000000 1.000000 -8.844074 114.000000 81.000000 0.996461 -0.072647 -0.042287
7.82999992 -5.38000011 -0.82999998 61 189 130 97.000000 1.000000 4.000000 1.000000 -8.844074 114.000000 81.000000 0.988525 -0.111400 -0.102019
7.80000019 -5.40000010 -0.82999998 61 189 130 97.000000 1.000000 4.000000 1.000000 -8.844074 114.000000 81.000000 0.888423 -0.151190 -0.433412
7.82999992 -5.38000011 -0.81000000 61 189 130 97.000000 1.000000 4.000000 1.000000 -8.844074 114.000000 81.000000 0.989422 -0.136432 0.049299
7.78999996 -5.38000011 -0.82999998 61 189 130 97.000000 1.000000 4.000000 1.000000 -8.844074 114.000000 81.000000 0.941784 -0.099906 -0.321032
7.82999992 -5.36000013 -0.91000003 61 189 130 97.000000 1.000000 4.000000 1.000000 -8.844074 114.000000 81.000000 0.983510 0.092693 -0.155291
7.82999992 -5.36999989 -0.85000002 61 189 130 97.000000 1.000000 4.000000 1.000000 -8.844074 114.000000 81.000000 0.964145 0.035801 -0.262949
7.82000017 -5.38999987 -0.85000002 61 189 130 97.000000 1.000000 4.000000 1.000000 -8.844074 114.000000 81.000000 0.973394 -0.160756 0.163287
7.82999992 -5.40999985 -0.83999997 61 189 130 97.000000 1.000000 4.000000 1.000000 -8.844074 114.000000 81.000000 0.957865 0.033631 -0.285242
7.82000017 -5.40000010 -0.83999997 61 189 130 97.000000 1.000000 4.000000 1.000000 -8.844074 114.000000 81.000000 0.885374 0.160845 -0.436166
7.82000017 -5.38999987 -0.85000002 61 189 130 97.000000 1.000000 4.000000 1.000000 -8.844074 114.000000 81.000000 0.973394 -0.160756 0.163287
7.80000019 -5.36999989 -0.85000002 61 189 130 97.000000 1.000000 4.000000 1.000000 -8.844074 114.000000 81.000000 0.955520 -0.253831 -0.150172
7.82999992 -5.40000010 -0.86000001 61 189 130 97.000000 1.000000 4.000000 1.000000 -8.844074 114.000000 81.000000 0.993577 -0.084392 0.075390
7.82999992 -5.38000011 -0.86000001 61 189 130 97.000000 1.000000 4.000000 1.000000 -8.844074 114.000000 81.000000 0.909207 -0.416342 0.001297
7.82999992 -5.38000011 -0.85000002 61 189 130 97.000000 1.000000 4.000000 1.000000 -8.844074 114.000000 81.000000 0.957702 -0.270852 -0.097196
7.82999992 -5.36999989 -0.89999998 61 189 130 97.000000 1.000000 4.000000 1.000000 -8.844074 114.000000 81.000000 0.974834 0.049774 -0.217304
7.82999992 -5.36999989 -0.88999999 61 189 130 97.000000 1.000000 4.000000 1.000000 -8.844074 114.000000 81.000000 0.978806 -0.039247 -0.200994
7.82999992 -5.36999989 -0.88999999 61 189 130 97.000000 1.000000 4.000000 1.000000 -8.844074 114.000000 81.000000 0.978806 -0.039247 -0.200994
7.82999992 -5.38000011 -0.92000002 61 189 130 97.000000 1.000000 4.000000 1.000000 -8.844074 114.000000 81.000000 0.980066 0.029414 -0.196484
7.80999994 -5.44000006 -0.76999998 61 189 130 97.000000 1.000000 4.000000 1.000000 -8.844074 114.000000 81.000000 0.905821 -0.423416 -0.014420
7.80999994 -5.44000006 -0.75999999 61 189 130 97.000000 1.000000 4.000000 1.000000 -8.844074 114.000000 81.000000 0.896092 -0.418748 0.147205
7.80999994 -5.44000006 -0.77999997 61 189 130 97.000000 1.000000 4.000000 1.000000 -8.844074 114.000000 81.000000 0.889814 -0.328616 -0.316612
7.80999994 -5.42000008 -0.79000002 61 189 130 97.000000 1.000000 4.000000 1.000000 -8.844074 114.000000 81.000000 0.787204 -0.528528 -0.317756
7.80000019 -5.44999981 -0.79000002 61 189 130 97.000000 1.000000 4.000000 1.000000 -8.844074 114.000000 81.000000 0.830933 -0.497943 -0.248201
7.80999994 -5.44999981 -0.80000001 61 189 130 97.000000 1.000000 4.000000 1.000000 -8.844074 114.000000 81.000000 0.942892 -0.297113 0.150591
7.80000019 -5.48000002 -0.75999999 61 189 130 97.000000 1.000000 4.000000 1.000000 -8.844074 114.000000 81.000000 0.871120 -0.449658 -0.197375
7.80000019 -5.46000004 -0.81999999 61 189 130 97.000000 1.000000 4.000000 1.000000 -8.844074 114.000000 81.000000 0.975485 -0.197080 -0.097920
7.80000019 -5.46999979 -0.80000001 61 189 130 97.000000 1.000000 4.000000 1.000000 -8.844074 114.000000 81.000000 0.939530 -0.189010 -0.285584
7.80000019 -5.46000004 -0.81999999 61 189 130 97.000000 1.000000 4.000000 1.000000 -8.844074 114.000000 81.000000 0.975485 -0.197080 -0.097920
7.76999998 -5.44000006 -0.77999997 61 189 130 97.000000 1.000000 4.000000 1.000000 -8.844074 114.000000 81.000000 0.757075 -0.260788 -0.599022
7.78999996 -5.48000002 -0.76999998 61 189 130 97.000000 1.000000 4.000000 1.000000 -8.844074 114.000000 81.000000 0.973756 -0.135139 -0.183132
7.78999996 -5.48000002 -0.76999998 61 189 130 97.000000 1.000000 4.000000 1.000000 -8.844074 114.000000 81.000000 0.973756 -0.135139 -0.183132
7.78000021 -5.46999979 -0.77999997 61 189 130 97.000000 1.000000 4.000000 1.000000 -8.844074 114.000000 81.000000 0.836587 -0.127021 -0.532905
7.82000017 -5.42000008 -0.83999997 61 189 130 97.000000 1.000000 4.000000 1.000000 -8.844074 114.000000 81.000000 0.781172 -0.556169 -0.283630
7.80000019 -5.42999983 -0.86000001 61 189 130 97.000000 1.000000 4.000000 1.000000 -8.844074 114.000000 81.000000 0.922873 -0.256115 -0.287593
7.80000019 -5.42999983 -0.86000001 61 189 130 97.000000 1.000000 4.000000 1.000000 -8.844074 114.000000 81.000000 0.922873 -0.256115 -0.287593
7.80000019 -5.44000006 -0.88000000 61 189 130 97.000000 1.000000 4.000000 1.000000 -8.844074 114.000000 81.000000 0.972492 -0.229464 -0.040065
7.80999994 -5.42000008 -0.91000003 61 189 130 97.000000 1.000000 4.000000 1.000000 -8.844074 114.000000 81.000000 0.883633 -0.463251 -0.067759
7.80000019 -5.48000002 -0.89999998 61 189 130 97.000000 1.000000 4.000000 1.000000 -8.844074 114.000000 81.000000 0.990852 -0.041995 -0.128255
7.78000021 -5.44999981 -0.92000002 61 189 130 97.000000 1.000000 4.000000 1.000000 -8.844074 114.000000 81.000000 0.894559 -0.017229 -0.446617
7.78999996 -5.46999979 -0.85000002 61 189 130 97.000000 1.000000 4.000000 1.000000 -8.844074 114.000000 81.000000 0.847758 -0.256014 -0.464504
7.76000023 -5.46000004 -0.83999997 61 189 130 97.000000 1.000000 4.000000 1.000000 -8.844074 114.000000 81.000000 0.910810 -0.138937 -0.388743
7.78999996 -5.46000004 -0.91000003 61 189 130 97.000000 1.000000 4.000000 1.000000 -8.844074 114.000000 81.000000 0.981256 -0.041428 -0.188202
7.76999998 -5.48999977 -0.92000002 61 189 130 97.000000 1.000000 4.000000 1.000000 -8.844074 114.000000 81.000000 0.633299 -0.555614 -0.538726
7.90000010 -5.32000017 -1.10000002 61 189 130 97.000000 1.000000 4.000000 1.000000 -8.844074 114.000000 81.000000 0.831521 0.284427 -0.477153
7.88000011 -5.34999990 -0.94000000 61 189 130 97.000000 1.000000 4.000000 1.000000 -8.844074 114.000000 81.000000 0.997364 0.072364 0.005244
7.88000011 -5.32999992 -0.95999998 61 189 130 97.000000 1.000000 4.000000 1.000000 -8.844074 114.000000 81.000000 0.919346 0.309326 -0.243145
7.88000011 -5.36000013 -0.94000000 61 189 130 97.000000 1.000000 4.000000 1.000000 -8.844074 114.000000 81.000000 0.944468 0.310382 -0.107901
7.90000010 -5.36000013 -0.99000001 61 189 130 97.000000 1.000000 4.000000 1.000000 -8.844074 114.000000 81.000000 0.959042 0.200298 -0.200298
7.88000011 -5.34999990 -1.00000000 61 189 130 97.000000 1.000000 4.000000 1.000000 -8.844074 114.000000 81.000000 0.966551 -0.203144 -0.156563
7.90000010 -5.36000013 -1.00000000 61 189 130 97.000000 1.000000 4.000000 1.000000 -8.844074 114.000000 81.000000 0.988208 0.151245 -0.023881
7.88000011 -5.34000015 -1.00000000 61 189 130 97.000000 1.000000 4.000000 1.000000 -8.844074 114.000000 81.000000 0.910265 0.218522 -0.351661
7.88000011 -5.34000015 -1.00000000 61 189 130 97.000000 1.000000 4.000000 1.000000 -8.844074 114.000000 81.000000 0.910265 0.218522 -0.351661
7.88000011 -5.36999989 -0.93000001 61 189 130 97.000000 1.000000 4.000000 1.000000 -8.844074 114.000000 81.000000 0.958637 0.143335 -0.245906
7.88000011 -5.34999990 -1.01999998 61 189 130 97.000000 1.000000 4.000000 1.000000 -8.844074 114.000000 81.000000 0.975784 0.178665 0.126190
7.90999985 -5.38000011 -1.07000005 61 189 130 97.000000 1.000000 4.000000 1.000000 -8.844074 114.000000 81.000000 0.965107 -0.251054 0.074433
7.90999985 -5.38000011 -1.07000005 61 189 130 97.000000 1.000000 4.000000 1.000000 -8.844074 114.000000 81.000000 0.965107 -0.251054 0.074433
7.88999987 -5.32999992 -1.13000000 61 189 130 97.000000 1.000000 4.000000 1.000000 -8.844074 114.000000 81.000000 0.915124 0.262500 -0.306008
7.90000010 -5.34000015 -1.11000001 61 189 130 97.000000 1.000000 4.000000 1.000000 -8.844074 114.000000 81.000000 0.981862 0.185057 -0.041255
7.88000011 -5.32999992 -1.14999998 61 189 130 97.000000 1.000000 4.000000 1.000000 -8.844074 114.000000 81.000000 0.979755 0.200115 0.005784
7.88000011 -5.34999990 -1.13999999 61 189 130 97.000000 1.000000 4.000000 1.000000 -8.844074 114.000000 81.000000 0.991496 0.123230 -0.041831
7.88000011 -5.34999990 -1.13999999 61 189 130 97.000000 1.000000 4.000000 1.000000 -8.844074 114.000000 81.000000 0.991496 0.123230 -0.041831
7.88000011 -5.34000015 -1.13999999 61 189 130 97.000000 1.000000 4.000000 1.000000 -8.844074 114.000000 81.000000 0.951649 0.259052 -0.165096
7.88999987 -5.36000013 -1.15999997 61 189 130 97.000000 1.000000 4.000000 1.000000 -8.844074 114.000000 81.000000 0.936739 0.312246 -0.158186
7.88000011 -5.38999987 -1.15999997 61 189 130 97.000000 1.000000 4.000000 1.000000 -8.844074 114.000000 81.000000 0.947603 -0.214681 -0.236559
7.88000011 -5.36000013 -1.19000006 61 189 130 97.000000 1.000000 4.000000 1.000000 -8.844074 114.000000 81.000000 0.994492 -0.025163 -0.101747
7.88999987 -5.34999990 -1.20000005 61 189 130 97.000000 1.000000 4.000000 1.000000 -8.844074 114.000000 81.000000 0.893975 -0.403966 -0.193962
7.88000011 -5.36999989 -1.19000006 61 189 130 97.000000 1.000000 4.000000 1.000000 -8.844074 114.000000 81.000000 0.948361 0.238796 -0.208776
7.88000011 -5.36999989 -1.21000004 61 189 130 97.000000 1.000000 4.000000 1.000000 -8.844074 114.000000 81.000000 0.994526 0.056671 0.087785
7.88000011 -5.38000011 -1.21000004 61 189 130 97.000000 1.000000 4.000000 1.000000 -8.844074 114.000000 81.000000 0.962678 0.239698 -0.125679
7.88000011 -5.36999989 -1.21000004 61 189 130 97.000000 1.000000 4.000000 1.000000 -8.844074 114.000000 81.000000 0.994526 0.056671 0.087785
7.88000011 -5.36999989 -1.19000006 61 189 130 97.000000 1.000000 4.000000 1.000000 -8.844074 114.000000 81.000000 0.948361 0.238796 -0.208776
7.75000000 -5.30000019 -1.15999997 61 189 130 97.000000 1.000000 4.000000 1.000000 -8.844074 114.000000 81.000000 0.957470 0.193092 -0.214399
7.80999994 -5.36000013 -0.95999998 61 189 130 97.000000 1.000000 4.000000 1.000000 -8.844074 114.000000 81.000000 0.869113 -0.258467 -0.421709
7.80999994 -5.32999992 -0.99000001 61 189 130 97.000000 1.000000 4.000000 1.000000 -8.844074 114.000000 81.000000 0.986383 -0.129693 -0.101137
7.82000017 -5.34000015 -0.98000002 61 189 130 97.000000 1.000000 4.000000 1.000000 -8.844074 114.000000 81.000000 0.952500 0.248537 -0.175991
7.82999992 -5.34999990 -1.00000000 61 189 130 97.000000 1.000000 4.000000 1.000000 -8.844074 114.000000 81.000000 0.953472 0.301420 -0.006151
7.82000017 -5.34999990 -0.97000003 61 189 130 97.000000 1.000000 4.000000 1.000000 -8.844074 114.000000 81.000000 0.939720 -0.335894 0.064042
7.82999992 -5.38000011 -0.94000000 61 189 130 97.000000 1.000000 4.000000 1.000000 -8.844074 114.000000 81.000000 0.955865 -0.275153 -0.103020
7.80000019 -5.36999989 -0.99000001 61 189 130 97.000000 1.000000 4.000000 1.000000 -8.844074 114.000000 81.000000 0.983653 0.152906 0.095115
7.82999992 -5.36999989 -0.98000002 61 189 130 97.000000 1.000000 4.000000 1.000000 -8.844074 114.000000 81.000000 0.891899 -0.442460 -0.093517
7.78999996 -5.36000013 -0.93000001 61 189 130 97.000000 1.000000 4.000000 1.000000 -8.844074 114.000000 81.000000 0.906378 0.280581 -0.315837
7.78000021 -5.40999985 -0.95999998 61 189 130 97.000000 1.000000 4.000000 1.000000 -8.844074 114.000000 81.000000 0.834884 -0.514820 -0.194756
7.78999996 -5.40999985 -0.97000003 61 189 130 97.000000 1.000000 4.000000 1.000000 -8.844074 114.000000 81.000000 0.787895 -0.519403 -0.330820
7.78000021 -5.38000011 -0.99000001 61 189 130 97.000000 1.000000 4.000000 1.000000 -8.844074 114.000000 81.000000 0.823113 -0.288949 -0.488870
7.82000017 -5.34000015 -1.00999999 61 189 130 97.000000 1.000000 4.000000 1.000000 -8.844074 114.000000 81.000000 0.869201 -0.417156 -0.265463
7.80999994 -5.32999992 -1.00999999 61 189 130 97.000000 1.000000 4.000000 1.000000 -8.844074 114.000000 81.000000 0.992029 -0.114247 0.053165
7.82999992 -5.36000013 -1.05999994 61 189 130 97.000000 1.000000 4.000000 1.000000 -8.844074 114.000000 81.000000 0.994429 0.009739 0.104961
7.82999992 -5.34000015 -1.09000003 61 189 130 97.000000 1.000000 4.000000 1.000000 -8.844074 114.000000 81.000000 0.865140 -0.382628 -0.324235
7.82999992 -5.38000011 -1.02999997 61 189 130 97.000000 1.000000 4.000000 1.000000 -8.844074 114.000000 81.000000 0.879852 -0.256311 -0.400205
7.80000019 -5.36999989 -1.04999995 61 189 130 97.000000 1.000000 4.000000 1.000000 -8.844074 114.000000 81.000000 0.937968 -0.120114 -0.325252
7.76999998 -5.32999992 -1.07000005 61 189 130 97.000000 1.000000 4.000000 1.000000 -8.844074 114.000000 81.000000 0.987803 -0.137097 -0.073822
7.78000021 -5.36999989 -1.00999999 61 189 130 97.000000 1.000000 4.000000 1.000000 -8.844074 114.000000 81.000000 0.991470 0.065033 -0.112952
7.78000021 -5.38000011 -1.04999995 61 189 130 97.000000 1.000000 4.000000 1.000000 -8.844074 114.000000 81.000000 0.915133 0.168316 -0.366336
7.80000019 -5.42000008 -0.94999999 61 189 130 97.000000 1.000000 4.000000 1.000000 -8.844074 114.000000 81.000000 0.842416 -0.538324 0.023286
7.78999996 -5.42999983 -0.93000001 61 189 130 97.000000 1.000000 4.000000 1.000000 -8.844074 114.000000 81.000000 0.805815 -0.572592 -0.150997
7.78999996 -5.42999983 -0.94000000 61 189 130 97.000000 1.000000 4.000000 1.000000 -8.844074 114.000000 81.000000 0.884344 -0.414859 -0.214073
7.78000021 -5.44999981 -0.93000001 61 189 130 97.000000 1.000000 4.000000 1.000000 -8.844074 114.000000 81.000000 0.924721 -0.284420 -0.252976
7.78000021 -5.42000008 -0.94999999 61 189 130 97.000000 1.000000 4.000000 1.000000 -8.844074 114.000000 81.000000 0.906378 -0.386817 -0.169857
7.78999996 -5.44999981 -0.98000002 61 189 130 97.000000 1.000000 4.000000 1.000000 -8.844074 114.000000 81.000000 0.954408 -0.239606 0.178031
7.78000021 -5.46000004 -0.95999998 61 189 130 97.000000 1.000000 4.000000 1.000000 -8.844074 114.000000 81.000000 0.874641 -0.292558 -0.386540
7.78999996 -5.46000004 -0.99000001 61 189 130 97.000000 1.000000 4.000000 1.000000 -8.844074 114.000000 81.000000 0.943123 -0.222317 -0.247173
7.76999998 -5.46999979 -0.99000001 61 189 130 97.000000 1.000000 4.000000 1.000000 -8.844074 114.000000 81.000000 0.978283 -0.205143 0.029645
7.76999998 -5.46000004 -1.00000000 61 189 130 97.000000 1.000000 4.000000 1.000000 -8.844074 114.000000 81.000000 0.953565 -0.283846 -0.100720
7.78000021 -5.46999979 -1.00000000 61 189 130 97.000000 1.000000 4.000000 1.000000 -8.844074 114.000000 81.000000 0.906424 -0.173266 -0.385194
7.78000021 -5.44999981 -1.00999999 61 189 130 97.000000 1.000000 4.000000 1.000000 -8.844074 114.000000 81.000000 0.983861 -0.150162 0.097305
7.76999998 -5.44000006 -1.01999998 61 189 130 97.000000 1.000000 4.000000 1.000000 -8.844074 114.000000 81.000000 -0.688494 0.527678 0.497525
7.78999996 -5.42000008 -1.07000005 61 189 130 97.000000 1.000000 4.000000 1.000000 -8.844074 114.000000 81.000000 0.953158 -0.265285 0.145307
7.78000021 -5.42999983 -1.05999994 61 189 130 97.000000 1.000000 4.000000 1.000000 -8.844074 114.000000 81.000000 0.947936 -0.318457 0.001239
7.78000021 -5.42999983 -1.08000004 61 189 130 97.000000 1.000000 4.000000 1.000000 -8.844074 114.000000 81.000000 0.811210 -0.576118 -0.100131
7.78000021 -5.48000002 -1.05999994 61 189 130 97.000000 1.000000 4.000000 1.000000 -8.844074 114.000000 81.000000 -0.757706 0.610852 0.229655
7.78000021 -5.46999979 -1.05999994 61 189 130 97.000000 1.000000 4.000000 1.000000 -8.844074 114.000000 81.000000 0.903760 -0.393873 -0.167575
