//X Y Z R G B PointSourceId ScanDirectionFlag NumberOfReturns ReturnNumber GpsTime Intensity Classification Nx Ny Nz
1.27999997 1.55999994 0.07000000 178 202 65 0.000000 0.000000 0.000000 0.000000 -8.844074 0.000000 149.000000 -0.302060 0.934020 0.190701
1.26999998 1.55999994 0.08000000 178 202 65 0.000000 0.000000 0.000000 0.000000 -8.844074 0.000000 149.000000 -0.421405 0.779354 -0.463708
1.24000001 1.55999994 0.04000000 178 202 65 0.000000 0.000000 0.000000 0.000000 -8.844074 0.000000 149.000000 -0.383066 0.923713 0.003843
1.27999997 1.54999995 0.04000000 178 202 65 0.000000 0.000000 0.000000 0.000000 -8.844074 0.000000 149.000000 -0.661425 0.745738 0.079952
1.26999998 1.53999996 0.05000000 178 202 65 0.000000 0.000000 0.000000 0.000000 -8.844074 0.000000 149.000000 -0.184074 0.897178 -0.401483
1.29999995 1.60000002 0.00000000 178 202 65 0.000000 0.000000 0.000000 0.000000 -8.844074 0.000000 149.000000 0.833408 -0.398586 0.382832
1.26999998 1.58000004 -0.03000000 178 202 65 0.000000 0.000000 0.000000 0.000000 -8.844074 0.000000 149.000000 -0.512389 0.801104 -0.309337
1.24000001 1.60000002 -0.02000000 178 202 65 0.000000 0.000000 0.000000 0.000000 -8.844074 0.000000 149.000000 -0.306876 0.917746 -0.252128
1.27999997 1.58000004 -0.04000000 178 202 65 0.000000 0.000000 0.000000 0.000000 -8.844074 0.000000 149.000000 0.711073 -0.561897 0.422666
1.24000001 1.55999994 0.00000000 178 202 65 0.000000 0.000000 0.000000 0.000000 -8.844074 0.000000 149.000000 -0.138859 0.956146 -0.257882
1.26999998 1.54999995 -0.02000000 178 202 65 0.000000 0.000000 0.000000 0.000000 -8.844074 0.000000 149.000000 0.658515 -0.720786 0.216392
1.25000000 1.55999994 -0.07000000 178 202 65 0.000000 0.000000 0.000000 0.000000 -8.844074 0.000000 149.000000 0.811489 -0.584327 0.006842
1.25999999 1.58000004 -0.09000000 178 202 65 0.000000 0.000000 0.000000 0.000000 -8.844074 0.000000 149.000000 0.739873 -0.594800 0.314325
1.24000001 1.57000005 -0.11000000 178 202 65 0.000000 0.000000 0.000000 0.000000 -8.844074 0.000000 149.000000 -0.362262 0.925476 -0.110729
1.24000001 1.57000005 -0.11000000 178 202 65 0.000000 0.000000 0.000000 0.000000 -8.844074 0.000000 149.000000 -0.362262 0.925476 -0.110729
1.24000001 1.57000005 -0.15000001 178 202 65 0.000000 0.000000 0.000000 0.000000 -8.844074 0.000000 149.000000 0.697566 -0.685137 -0.209736
1.25000000 1.58000004 -0.15000001 178 202 65 0.000000 0.000000 0.000000 0.000000 -8.844074 0.000000 149.000000 0.890694 -0.190967 -0.412547
1.24000001 1.59000003 -0.13000000 178 202 65 0.000000 0.000000 0.000000 0.000000 -8.844074 0.000000 149.000000 0.874214 -0.433384 -0.218926
1.24000001 1.53999996 -0.09000000 178 202 65 0.000000 0.000000 0.000000 0.000000 -8.844074 0.000000 149.000000 -0.679427 0.731138 -0.061766
1.25999999 1.54999995 -0.10000000 178 202 65 0.000000 0.000000 0.000000 0.000000 -8.844074 0.000000 149.000000 0.727186 -0.684157 0.055937
1.25000000 1.54999995 -0.08000000 178 202 65 0.000000 0.000000 0.000000 0.000000 -8.844074 0.000000 149.000000 0.769632 -0.623178 0.138982
1.24000001 1.59000003 -0.18000001 178 202 65 0.000000 0.000000 0.000000 0.000000 -8.844074 0.000000 149.000000 0.864769 0.285206 -0.413320
1.24000001 1.58000004 -0.23000000 178 202 65 0.000000 0.000000 0.000000 0.000000 -8.844074 0.000000 149.000000 0.873356 -0.181151 -0.452142
1.21000004 1.55999994 0.06000000 178 202 65 0.000000 0.000000 0.000000 0.000000 -8.844074 0.000000 149.000000 0.204936 0.964634 -0.165776
1.23000002 1.54999995 0.02000000 178 202 65 0.000000 0.000000 0.000000 0.000000 -8.844074 0.000000 149.000000 -0.348522 0.934252 -0.075535
1.20000005 1.54999995 0.03000000 178 202 65 0.000000 0.000000 0.000000 0.000000 -8.844074 0.000000 149.000000 0.145731 0.980932 -0.128587
1.20000005 1.54999995 0.03000000 178 202 65 0.000000 0.000000 0.000000 0.000000 -8.844074 0.000000 149.000000 0.145731 0.980932 -0.128587
1.15999997 1.59000003 0.09000000 178 202 65 0.000000 0.000000 0.000000 0.000000 -8.844074 0.000000 149.000000 0.401059 0.893997 -0.199800
1.15999997 1.55999994 0.09000000 178 202 65 0.000000 0.000000 0.000000 0.000000 -8.844074 0.000000 149.000000 0.722575 0.687961 -0.067786
1.16999996 1.53999996 0.01000000 178 202 65 0.000000 0.000000 0.000000 0.000000 -8.844074 0.000000 149.000000 0.565406 0.816697 0.115419
1.17999995 1.53999996 0.02000000 178 202 65 0.000000 0.000000 0.000000 0.000000 -8.844074 0.000000 149.000000 0.084270 0.838418 -0.538473
1.17999995 1.52999997 0.01000000 178 202 65 0.000000 0.000000 0.000000 0.000000 -8.844074 0.000000 149.000000 0.306368 0.951617 -0.023759
1.15999997 1.54999995 0.02000000 178 202 65 0.000000 0.000000 0.000000 0.000000 -8.844074 0.000000 149.000000 0.635565 0.730190 -0.250757
1.16999996 1.54999995 0.04000000 178 202 65 0.000000 0.000000 0.000000 0.000000 -8.844074 0.000000 149.000000 0.749124 0.661325 -0.038235
1.16999996 1.53999996 0.01000000 178 202 65 0.000000 0.000000 0.000000 0.000000 -8.844074 0.000000 149.000000 0.565406 0.816697 0.115419
1.23000002 1.60000002 -0.02000000 178 202 65 0.000000 0.000000 0.000000 0.000000 -8.844074 0.000000 149.000000 -0.595064 0.759220 -0.263596
1.23000002 1.60000002 0.00000000 178 202 65 0.000000 0.000000 0.000000 0.000000 -8.844074 0.000000 149.000000 -0.458367 0.884690 -0.084986
1.22000003 1.58000004 -0.05000000 178 202 65 0.000000 0.000000 0.000000 0.000000 -8.844074 0.000000 149.000000 -0.278563 0.948731 -0.149375
1.21000004 1.58000004 -0.06000000 178 202 65 0.000000 0.000000 0.000000 0.000000 -8.844074 0.000000 149.000000 -0.273835 0.961494 0.023331
1.21000004 1.52999997 -0.01000000 178 202 65 0.000000 0.000000 0.000000 0.000000 -8.844074 0.000000 149.000000 -0.152122 0.843315 -0.515441
1.21000004 1.55999994 0.00000000 178 202 65 0.000000 0.000000 0.000000 0.000000 -8.844074 0.000000 149.000000 -0.118544 0.992943 -0.003263
1.21000004 1.55999994 0.00000000 178 202 65 0.000000 0.000000 0.000000 0.000000 -8.844074 0.000000 149.000000 -0.118544 0.992943 -0.003263
1.21000004 1.53999996 -0.06000000 178 202 65 0.000000 0.000000 0.000000 0.000000 -8.844074 0.000000 149.000000 0.051542 0.851147 -0.522390
1.21000004 1.54999995 -0.05000000 178 202 65 0.000000 0.000000 0.000000 0.000000 -8.844074 0.000000 149.000000 0.161282 0.935987 -0.312915
1.23000002 1.55999994 -0.04000000 178 202 65 0.000000 0.000000 0.000000 0.000000 -8.844074 0.000000 149.000000 -0.248645 0.956020 0.155569
1.23000002 1.54999995 -0.07000000 178 202 65 0.000000 0.000000 0.000000 0.000000 -8.844074 0.000000 149.000000 -0.089447 0.994962 0.045276
1.21000004 1.53999996 -0.07000000 178 202 65 0.000000 0.000000 0.000000 0.000000 -8.844074 0.000000 149.000000 0.134968 0.985386 -0.103913
1.16999996 1.58000004 -0.01000000 178 202 65 0.000000 0.000000 0.000000 0.000000 -8.844074 0.000000 149.000000 0.482774 0.871244 -0.088673
1.16999996 1.57000005 -0.04000000 178 202 65 0.000000 0.000000 0.000000 0.000000 -8.844074 0.000000 149.000000 0.487967 0.805860 -0.335378
1.16999996 1.57000005 -0.04000000 178 202 65 0.000000 0.000000 0.000000 0.000000 -8.844074 0.000000 149.000000 0.487967 0.805860 -0.335378
1.16999996 1.52999997 -0.01000000 178 202 65 0.000000 0.000000 0.000000 0.000000 -8.844074 0.000000 149.000000 0.155587 0.834241 -0.528995
1.15999997 1.55999994 0.00000000 178 202 65 0.000000 0.000000 0.000000 0.000000 -8.844074 0.000000 149.000000 0.542837 0.781622 -0.307236
1.16999996 1.52999997 -0.01000000 178 202 65 0.000000 0.000000 0.000000 0.000000 -8.844074 0.000000 149.000000 0.155587 0.834241 -0.528995
1.19000006 1.52999997 -0.02000000 178 202 65 0.000000 0.000000 0.000000 0.000000 -8.844074 0.000000 149.000000 0.034575 0.842245 -0.537986
1.19000006 1.54999995 -0.02000000 178 202 65 0.000000 0.000000 0.000000 0.000000 -8.844074 0.000000 149.000000 0.427382 0.903721 0.025140
1.17999995 1.53999996 -0.07000000 178 202 65 0.000000 0.000000 0.000000 0.000000 -8.844074 0.000000 149.000000 0.572270 0.779228 -0.255562
1.17999995 1.46000004 -0.07000000 178 202 65 0.000000 0.000000 0.000000 0.000000 -8.844074 0.000000 149.000000 0.128190 0.976983 -0.170505
1.14999998 1.59000003 0.09000000 178 202 65 0.000000 0.000000 0.000000 0.000000 -8.844074 0.000000 149.000000 0.807873 0.554363 -0.200059
1.13999999 1.59000003 0.08000000 178 202 65 0.000000 0.000000 0.000000 0.000000 -8.844074 0.000000 149.000000 0.666180 0.505088 -0.548717
1.12000000 1.60000002 0.06000000 178 202 65 0.000000 0.000000 0.000000 0.000000 -8.844074 0.000000 149.000000 0.858009 0.086510 -0.506296
1.13999999 1.59000003 0.07000000 178 202 65 0.000000 0.000000 0.000000 0.000000 -8.844074 0.000000 149.000000 0.750408 0.435138 -0.497536
1.13000000 1.58000004 0.03000000 178 202 65 0.000000 0.000000 0.000000 0.000000 -8.844074 0.000000 149.000000 0.927209 0.370620 0.054076
1.13000000 1.58000004 0.05000000 178 202 65 0.000000 0.000000 0.000000 0.000000 -8.844074 0.000000 149.000000 0.798351 0.420949 -0.430626
1.12000000 1.58000004 0.01000000 178 202 65 0.000000 0.000000 0.000000 0.000000 -8.844074 0.000000 149.000000 0.962931 0.048583 -0.265336
1.13000000 1.58000004 0.02000000 178 202 65 0.000000 0.000000 0.000000 0.000000 -8.844074 0.000000 149.000000 0.551924 0.676065 -0.488176
1.13999999 1.55999994 0.03000000 178 202 65 0.000000 0.000000 0.000000 0.000000 -8.844074 0.000000 149.000000 0.869114 0.392552 -0.300906
1.10000002 1.60000002 0.08000000 178 202 65 0.000000 0.000000 0.000000 0.000000 -8.844074 0.000000 149.000000 0.907704 0.410595 -0.086513
1.13999999 1.58000004 -0.02000000 178 202 65 0.000000 0.000000 0.000000 0.000000 -8.844074 0.000000 149.000000 0.606486 0.599728 -0.522017
1.13000000 1.57000005 -0.02000000 178 202 65 0.000000 0.000000 0.000000 0.000000 -8.844074 0.000000 149.000000 0.943365 0.273260 -0.188124
1.14999998 1.57000005 0.00000000 178 202 65 0.000000 0.000000 0.000000 0.000000 -8.844074 0.000000 149.000000 0.679544 0.689048 -0.251859
1.12000000 1.59000003 -0.07000000 178 202 65 0.000000 0.000000 0.000000 0.000000 -8.844074 0.000000 149.000000 0.949097 0.265963 -0.168758
1.13999999 1.54999995 -0.05000000 178 202 65 0.000000 0.000000 0.000000 0.000000 -8.844074 0.000000 149.000000 0.445155 0.771276 -0.454939
1.14999998 1.55999994 -0.04000000 178 202 65 0.000000 0.000000 0.000000 0.000000 -8.844074 0.000000 149.000000 0.653484 0.586288 -0.478774
1.14999998 1.54999995 -0.05000000 178 202 65 0.000000 0.000000 0.000000 0.000000 -8.844074 0.000000 149.000000 0.330756 0.897343 -0.292193
1.12000000 1.53999996 -0.06000000 178 202 65 0.000000 0.000000 0.000000 0.000000 -8.844074 0.000000 149.000000 0.589592 0.582834 -0.559183
1.11000001 1.60000002 -0.07000000 178 202 65 0.000000 0.000000 0.000000 0.000000 -8.844074 0.000000 149.000000 0.865876 0.433694 -0.249336
1.13000000 1.48000002 0.01000000 178 202 65 0.000000 0.000000 0.000000 0.000000 -8.844074 0.000000 149.000000 0.346132 0.934156 -0.086867
1.22000003 1.55999994 -0.11000000 178 202 65 0.000000 0.000000 0.000000 0.000000 -8.844074 0.000000 149.000000 -0.206149 0.973273 0.101200
1.23000002 1.52999997 -0.09000000 178 202 65 0.000000 0.000000 0.000000 0.000000 -8.844074 0.000000 149.000000 0.020556 0.968571 -0.247886
1.21000004 1.52999997 -0.16000000 178 202 65 0.000000 0.000000 0.000000 0.000000 -8.844074 0.000000 149.000000 0.003568 0.969220 -0.246170
1.22000003 1.55999994 -0.12000000 178 202 65 0.000000 0.000000 0.000000 0.000000 -8.844074 0.000000 149.000000 -0.159754 0.951813 -0.261782
1.22000003 1.52999997 -0.12000000 178 202 65 0.000000 0.000000 0.000000 0.000000 -8.844074 0.000000 149.000000 -0.537252 0.790822 -0.293191
1.22000003 1.53999996 -0.13000000 178 202 65 0.000000 0.000000 0.000000 0.000000 -8.844074 0.000000 149.000000 -0.235614 0.959567 0.154005
1.22000003 1.53999996 -0.14000000 178 202 65 0.000000 0.000000 0.000000 0.000000 -8.844074 0.000000 149.000000 -0.530895 0.840464 0.108494
1.22000003 1.53999996 -0.13000000 178 202 65 0.000000 0.000000 0.000000 0.000000 -8.844074 0.000000 149.000000 -0.235614 0.959567 0.154005
1.16999996 1.53999996 -0.11000000 178 202 65 0.000000 0.000000 0.000000 0.000000 -8.844074 0.000000 149.000000 0.334885 0.915545 -0.222778
1.15999997 1.53999996 -0.11000000 178 202 65 0.000000 0.000000 0.000000 0.000000 -8.844074 0.000000 149.000000 0.234632 0.971353 -0.037687
1.15999997 1.53999996 -0.11000000 178 202 65 0.000000 0.000000 0.000000 0.000000 -8.844074 0.000000 149.000000 0.234632 0.971353 -0.037687
1.19000006 1.53999996 -0.13000000 178 202 65 0.000000 0.000000 0.000000 0.000000 -8.844074 0.000000 149.000000 -0.074678 0.985043 -0.155284
1.21000004 1.57000005 -0.18000001 178 202 65 0.000000 0.000000 0.000000 0.000000 -8.844074 0.000000 149.000000 0.827479 -0.553097 -0.096756
1.22000003 1.54999995 -0.20000000 178 202 65 0.000000 0.000000 0.000000 0.000000 -8.844074 0.000000 149.000000 -0.418929 0.829954 -0.368341
1.22000003 1.54999995 -0.20000000 178 202 65 0.000000 0.000000 0.000000 0.000000 -8.844074 0.000000 149.000000 -0.418929 0.829954 -0.368341
1.22000003 1.55999994 -0.20999999 178 202 65 0.000000 0.000000 0.000000 0.000000 -8.844074 0.000000 149.000000 0.728224 -0.543278 0.417779
1.21000004 1.54999995 -0.20999999 178 202 65 0.000000 0.000000 0.000000 0.000000 -8.844074 0.000000 149.000000 -0.241459 0.902909 -0.355603
1.19000006 1.52999997 -0.22000000 178 202 65 0.000000 0.000000 0.000000 0.000000 -8.844074 0.000000 149.000000 -0.017682 0.850074 -0.526366
1.19000006 1.52999997 -0.20999999 178 202 65 0.000000 0.000000 0.000000 0.000000 -8.844074 0.000000 149.000000 0.000978 0.999999 0.000978
1.19000006 1.52999997 -0.22000000 178 202 65 0.000000 0.000000 0.000000 0.000000 -8.844074 0.000000 149.000000 -0.017682 0.850074 -0.526366
1.20000005 1.50000000 -0.23999999 178 202 65 0.000000 0.000000 0.000000 0.000000 -8.844074 0.000000 149.000000 -0.274876 0.796356 -0.538758
1.21000004 1.51999998 -0.20999999 178 202 65 0.000000 0.000000 0.000000 0.000000 -8.844074 0.000000 149.000000 -0.313504 0.920472 0.233339
1.15999997 1.50999999 -0.23000000 178 202 65 0.000000 0.000000 0.000000 0.000000 -8.844074 0.000000 149.000000 0.146781 0.946670 -0.286829
1.12000000 1.59000003 -0.08000000 178 202 65 0.000000 0.000000 0.000000 0.000000 -8.844074 0.000000 149.000000 0.883366 0.100030 -0.457885
1.12000000 1.59000003 -0.08000000 178 202 65 0.000000 0.000000 0.000000 0.000000 -8.844074 0.000000 149.000000 0.883366 0.100030 -0.457885
1.12000000 1.53999996 -0.11000000 178 202 65 0.000000 0.000000 0.000000 0.000000 -8.844074 0.000000 149.000000 0.451699 0.812420 -0.368702
1.14999998 1.54999995 -0.11000000 178 202 65 0.000000 0.000000 0.000000 0.000000 -8.844074 0.000000 149.000000 0.589498 0.807627 -0.015186
1.13000000 1.53999996 -0.11000000 178 202 65 0.000000 0.000000 0.000000 0.000000 -8.844074 0.000000 149.000000 0.688630 0.662947 -0.293751
1.13000000 1.53999996 -0.10000000 178 202 65 0.000000 0.000000 0.000000 0.000000 -8.844074 0.000000 149.000000 0.835934 0.548624 0.015050
1.13000000 1.53999996 -0.10000000 178 202 65 0.000000 0.000000 0.000000 0.000000 -8.844074 0.000000 149.000000 0.835934 0.548624 0.015050
1.13999999 1.55999994 -0.11000000 178 202 65 0.000000 0.000000 0.000000 0.000000 -8.844074 0.000000 149.000000 0.549517 0.811337 -0.199409
1.11000001 1.59000003 -0.10000000 178 202 65 0.000000 0.000000 0.000000 0.000000 -8.844074 0.000000 149.000000 0.891834 0.256718 -0.372463
1.07000005 1.59000003 -0.14000000 178 202 65 0.000000 0.000000 0.000000 0.000000 -8.844074 0.000000 149.000000 0.903989 -0.305262 -0.299363
1.10000002 1.57000005 -0.16000000 178 202 65 0.000000 0.000000 0.000000 0.000000 -8.844074 0.000000 149.000000 0.895778 0.428905 -0.116718
1.09000003 1.53999996 -0.10000000 178 202 65 0.000000 0.000000 0.000000 0.000000 -8.844074 0.000000 149.000000 0.678049 0.678049 -0.283723
1.13000000 1.52999997 -0.19000000 178 202 65 0.000000 0.000000 0.000000 0.000000 -8.844074 0.000000 149.000000 0.719159 0.693627 -0.041135
1.07000005 1.59000003 -0.22000000 178 202 65 0.000000 0.000000 0.000000 0.000000 -8.844074 0.000000 149.000000 0.886844 -0.326732 -0.326732
1.09000003 1.54999995 -0.20000000 178 202 65 0.000000 0.000000 0.000000 0.000000 -8.844074 0.000000 149.000000 0.802972 0.469603 -0.367027
1.08000004 1.55999994 -0.20000000 178 202 65 0.000000 0.000000 0.000000 0.000000 -8.844074 0.000000 149.000000 0.935966 0.170050 -0.308302
1.10000002 1.52999997 -0.19000000 178 202 65 0.000000 0.000000 0.000000 0.000000 -8.844074 0.000000 149.000000 0.675481 0.659204 -0.330416
1.10000002 1.52999997 -0.19000000 178 202 65 0.000000 0.000000 0.000000 0.000000 -8.844074 0.000000 149.000000 0.675481 0.659204 -0.330416
1.08000004 1.55999994 -0.20999999 178 202 65 0.000000 0.000000 0.000000 0.000000 -8.844074 0.000000 149.000000 0.990255 0.096130 -0.100763
1.08000004 1.55999994 -0.20999999 178 202 65 0.000000 0.000000 0.000000 0.000000 -8.844074 0.000000 149.000000 0.990255 0.096130 -0.100763
1.14999998 1.51999998 -0.11000000 178 202 65 0.000000 0.000000 0.000000 0.000000 -8.844074 0.000000 149.000000 0.318478 0.905535 -0.280319
1.12000000 1.51999998 -0.14000000 178 202 65 0.000000 0.000000 0.000000 0.000000 -8.844074 0.000000 149.000000 0.615172 0.727605 -0.303570
1.13000000 1.49000001 -0.15000001 178 202 65 0.000000 0.000000 0.000000 0.000000 -8.844074 0.000000 149.000000 0.573737 0.641037 -0.509801
1.14999998 1.51999998 -0.14000000 178 202 65 0.000000 0.000000 0.000000 0.000000 -8.844074 0.000000 149.000000 0.157798 0.963742 -0.215179
1.12000000 1.50999999 -0.22000000 178 202 65 0.000000 0.000000 0.000000 0.000000 -8.844074 0.000000 149.000000 0.676724 0.673509 -0.297373
1.14999998 1.48000002 -0.22000000 178 202 65 0.000000 0.000000 0.000000 0.000000 -8.844074 0.000000 149.000000 0.218252 0.974208 0.057306
1.12000000 1.45000005 -0.19000000 178 202 65 0.000000 0.000000 0.000000 0.000000 -8.844074 0.000000 149.000000 0.751067 0.601806 -0.271527
1.11000001 1.51999998 -0.23999999 178 202 65 0.000000 0.000000 0.000000 0.000000 -8.844074 0.000000 149.000000 0.623465 0.726041 -0.290096
1.10000002 1.50000000 -0.22000000 178 202 65 0.000000 0.000000 0.000000 0.000000 -8.844074 0.000000 149.000000 0.688542 0.588994 -0.423080
1.13000000 1.26999998 0.04000000 178 202 65 0.000000 0.000000 0.000000 0.000000 -8.844074 0.000000 125.000000 0.437684 0.776117 -0.453955
1.04999995 1.61000001 -0.20000000 178 202 65 0.000000 0.000000 0.000000 0.000000 -8.844074 0.000000 149.000000 0.955519 -0.293526 -0.028728
1.05999994 1.54999995 -0.23999999 178 202 65 0.000000 0.000000 0.000000 0.000000 -8.844074 0.000000 149.000000 0.962696 -0.043477 -0.267070
1.04999995 1.54999995 -0.20000000 178 202 65 0.000000 0.000000 0.000000 0.000000 -8.844074 0.000000 149.000000 0.991236 -0.051212 0.121771
1.05999994 1.54999995 -0.23000000 178 202 65 0.000000 0.000000 0.000000 0.000000 -8.844074 0.000000 149.000000 0.922394 -0.164262 -0.349583
1.13000000 1.25999999 0.12000000 178 202 65 0.000000 0.000000 0.000000 0.000000 -8.844074 0.000000 125.000000 0.021567 0.999260 0.031837
1.30999994 1.24000001 -0.18000001 178 202 65 0.000000 0.000000 0.000000 0.000000 -8.844074 0.000000 125.000000 -0.129469 0.983720 -0.124629
1.15999997 1.25000000 0.02000000 178 202 65 0.000000 0.000000 0.000000 0.000000 -8.844074 0.000000 125.000000 0.144144 0.947041 -0.286941
1.17999995 1.24000001 0.05000000 178 202 65 0.000000 0.000000 0.000000 0.000000 -8.844074 0.000000 125.000000 0.273026 0.876398 -0.396717
1.13000000 1.24000001 0.03000000 178 202 65 0.000000 0.000000 0.000000 0.000000 -8.844074 0.000000 125.000000 0.295312 0.803817 -0.516401
1.10000002 1.24000001 0.04000000 178 202 65 0.000000 0.000000 0.000000 0.000000 -8.844074 0.000000 125.000000 0.133147 0.929283 -0.344535
1.11000001 1.24000001 0.05000000 178 202 65 0.000000 0.000000 0.000000 0.000000 -8.844074 0.000000 125.000000 0.155338 0.922232 -0.354059
1.08000004 1.24000001 0.02000000 178 202 65 0.000000 0.000000 0.000000 0.000000 -8.844074 0.000000 125.000000 0.653042 0.724736 -0.219759
1.13000000 1.25000000 -0.02000000 178 202 65 0.000000 0.000000 0.000000 0.000000 -8.844074 0.000000 125.000000 0.498342 0.861032 -0.101382
1.13000000 1.23000002 -0.07000000 178 202 65 0.000000 0.000000 0.000000 0.000000 -8.844074 0.000000 125.000000 0.208776 0.948361 -0.238796
1.15999997 1.19000006 -0.12000000 178 202 65 0.000000 0.000000 0.000000 0.000000 -8.844074 0.000000 125.000000 0.203976 0.841590 -0.500119
1.20000005 1.17999995 -0.17000000 178 202 65 0.000000 0.000000 0.000000 0.000000 -8.844074 0.000000 125.000000 0.068188 0.997645 0.007343
1.12000000 1.22000003 -0.16000000 178 202 65 0.000000 0.000000 0.000000 0.000000 -8.844074 0.000000 125.000000 0.213404 0.971050 -0.107333
1.41999996 1.28999996 -1.15999997 178 202 65 0.000000 0.000000 0.000000 0.000000 -8.844074 0.000000 125.000000 0.953801 -0.021140 0.299695
1.41999996 1.27999997 -1.13000000 178 202 65 0.000000 0.000000 0.000000 0.000000 -8.844074 0.000000 125.000000 0.998643 -0.050814 -0.011407
1.45000005 1.34000003 -1.23000002 178 202 65 0.000000 0.000000 0.000000 0.000000 -8.844074 0.000000 125.000000 0.957240 0.254123 0.138253
1.41999996 1.28999996 -1.20000005 178 202 65 0.000000 0.000000 0.000000 0.000000 -8.844074 0.000000 125.000000 0.907807 -0.009143 -0.419289
1.41999996 1.28999996 -1.19000006 178 202 65 0.000000 0.000000 0.000000 0.000000 -8.844074 0.000000 125.000000 0.991118 0.053482 -0.121756
1.42999995 1.28999996 -1.23000002 178 202 65 0.000000 0.000000 0.000000 0.000000 -8.844074 0.000000 125.000000 0.888263 -0.295089 -0.352010
1.44000006 1.27999997 -1.24000001 178 202 65 0.000000 0.000000 0.000000 0.000000 -8.844074 0.000000 125.000000 0.986310 -0.098750 -0.132063
1.45000005 1.28999996 -1.23000002 178 202 65 0.000000 0.000000 0.000000 0.000000 -8.844074 0.000000 125.000000 0.872894 -0.390146 -0.292989
1.41999996 1.37000000 -1.35000002 178 202 65 0.000000 0.000000 0.000000 0.000000 -8.844074 0.000000 125.000000 0.880112 -0.139723 -0.453740
1.41999996 1.38000000 -1.38999999 178 202 65 0.000000 0.000000 0.000000 0.000000 -8.844074 0.000000 125.000000 0.942864 0.213974 -0.255388
1.41999996 1.36000001 -1.40999997 178 202 65 0.000000 0.000000 0.000000 0.000000 -8.844074 0.000000 125.000000 0.820734 0.212443 -0.530344
1.41999996 1.36000001 -1.39999998 178 202 65 0.000000 0.000000 0.000000 0.000000 -8.844074 0.000000 125.000000 0.957587 0.267082 -0.108136
1.41999996 1.26999998 -1.25999999 178 202 65 0.000000 0.000000 0.000000 0.000000 -8.844074 0.000000 125.000000 0.924932 -0.273048 -0.264471
1.42999995 1.25000000 -1.14999998 178 202 65 0.000000 0.000000 0.000000 0.000000 -8.844074 0.000000 125.000000 0.805593 -0.473784 -0.355737
1.41999996 1.25999999 -1.16999996 178 202 65 0.000000 0.000000 0.000000 0.000000 -8.844074 0.000000 125.000000 0.976113 -0.133731 -0.171226
1.41999996 1.25999999 -1.16999996 178 202 65 0.000000 0.000000 0.000000 0.000000 -8.844074 0.000000 125.000000 0.976113 -0.133731 -0.171226
1.42999995 1.24000001 -1.13999999 178 202 65 0.000000 0.000000 0.000000 0.000000 -8.844074 0.000000 125.000000 0.889218 -0.384487 -0.247912
1.42999995 1.25999999 -1.14999998 178 202 65 0.000000 0.000000 0.000000 0.000000 -8.844074 0.000000 125.000000 0.794976 -0.433770 -0.424095
1.17999995 1.65999997 -0.25999999 178 202 65 0.000000 0.000000 0.000000 0.000000 -8.844074 0.000000 149.000000 -0.025670 0.874124 -0.485024
1.17999995 1.66999996 -0.28000000 178 202 65 0.000000 0.000000 0.000000 0.000000 -8.844074 0.000000 149.000000 0.075811 0.819620 -0.567869
1.19000006 1.66999996 -0.31999999 178 202 65 0.000000 0.000000 0.000000 0.000000 -8.844074 0.000000 149.000000 -0.050399 0.998724 -0.003086
1.20000005 1.62000000 -0.36000001 178 202 65 0.000000 0.000000 0.000000 0.000000 -8.844074 0.000000 149.000000 0.687229 0.716915 -0.117259
1.20000005 1.63999999 -0.38000000 178 202 65 0.000000 0.000000 0.000000 0.000000 -8.844074 0.000000 149.000000 -0.158000 -0.793010 0.588363
1.16999996 1.65999997 -0.34999999 178 202 65 0.000000 0.000000 0.000000 0.000000 -8.844074 0.000000 149.000000 -0.257596 0.943599 -0.208005
1.16999996 1.64999998 -0.33000001 178 202 65 0.000000 0.000000 0.000000 0.000000 -8.844074 0.000000 149.000000 0.116298 0.980579 -0.157921
1.15999997 1.63999999 -0.34999999 178 202 65 0.000000 0.000000 0.000000 0.000000 -8.844074 0.000000 149.000000 -0.415662 0.904514 -0.095285
1.13999999 1.65999997 -0.27000001 178 202 65 0.000000 0.000000 0.000000 0.000000 -8.844074 0.000000 149.000000 -0.223036 0.902349 -0.368811
1.14999998 1.64999998 -0.28000000 178 202 65 0.000000 0.000000 0.000000 0.000000 -8.844074 0.000000 149.000000 -0.373903 0.797553 -0.473397
1.12000000 1.65999997 -0.31999999 178 202 65 0.000000 0.000000 0.000000 0.000000 -8.844074 0.000000 149.000000 -0.607985 0.791096 0.067236
1.11000001 1.67999995 -0.25000000 178 202 65 0.000000 0.000000 0.000000 0.000000 -8.844074 0.000000 149.000000 0.738239 -0.674526 0.004155
1.10000002 1.65999997 -0.25999999 178 202 65 0.000000 0.000000 0.000000 0.000000 -8.844074 0.000000 149.000000 0.830846 -0.453903 0.321973
1.09000003 1.63000000 -0.25999999 178 202 65 0.000000 0.000000 0.000000 0.000000 -8.844074 0.000000 149.000000 0.765737 -0.627874 0.139361
1.07000005 1.63000000 -0.28999999 178 202 65 0.000000 0.000000 0.000000 0.000000 -8.844074 0.000000 149.000000 0.789866 -0.609243 0.070242
1.07000005 1.63000000 -0.30000001 178 202 65 0.000000 0.000000 0.000000 0.000000 -8.844074 0.000000 149.000000 0.913275 -0.398792 0.083025
1.12000000 1.64999998 -0.36000001 178 202 65 0.000000 0.000000 0.000000 0.000000 -8.844074 0.000000 149.000000 -0.245687 0.963452 -0.106764
1.12000000 1.64999998 -0.38000000 178 202 65 0.000000 0.000000 0.000000 0.000000 -8.844074 0.000000 149.000000 0.729131 -0.651398 0.209878
1.13999999 1.64999998 -0.38999999 178 202 65 0.000000 0.000000 0.000000 0.000000 -8.844074 0.000000 149.000000 -0.288200 0.956013 -0.054593
1.12000000 1.64999998 -0.38000000 178 202 65 0.000000 0.000000 0.000000 0.000000 -8.844074 0.000000 149.000000 0.729131 -0.651398 0.209878
1.13000000 1.62000000 -0.34999999 178 202 65 0.000000 0.000000 0.000000 0.000000 -8.844074 0.000000 149.000000 -0.257087 0.835916 -0.484924
1.13000000 1.63000000 -0.40000001 178 202 65 0.000000 0.000000 0.000000 0.000000 -8.844074 0.000000 149.000000 -0.054919 0.951504 -0.302693
1.09000003 1.64999998 -0.34999999 178 202 65 0.000000 0.000000 0.000000 0.000000 -8.844074 0.000000 149.000000 0.684419 -0.587835 0.431301
1.09000003 1.64999998 -0.37000000 178 202 65 0.000000 0.000000 0.000000 0.000000 -8.844074 0.000000 149.000000 0.802485 -0.514414 0.302317
1.07000005 1.62000000 -0.33000001 178 202 65 0.000000 0.000000 0.000000 0.000000 -8.844074 0.000000 149.000000 0.726190 -0.654660 -0.209926
1.08000004 1.63000000 -0.34000000 178 202 65 0.000000 0.000000 0.000000 0.000000 -8.844074 0.000000 149.000000 0.829200 -0.412231 0.377483
1.08000004 1.61000001 -0.40000001 178 202 65 0.000000 0.000000 0.000000 0.000000 -8.844074 0.000000 149.000000 0.904847 -0.425734 0.001302
1.09000003 1.63999999 -0.38000000 178 202 65 0.000000 0.000000 0.000000 0.000000 -8.844074 0.000000 149.000000 -0.406657 0.782530 -0.471462
1.11000001 1.63000000 -0.41000000 178 202 65 0.000000 0.000000 0.000000 0.000000 -8.844074 0.000000 149.000000 -0.149329 0.958087 -0.244477
1.15999997 1.61000001 -0.44000000 178 202 65 0.000000 0.000000 0.000000 0.000000 -8.844074 0.000000 149.000000 -0.152617 0.986767 -0.054756
1.16999996 1.61000001 -0.41999999 178 202 65 0.000000 0.000000 0.000000 0.000000 -8.844074 0.000000 149.000000 0.326056 0.901448 -0.284745
1.15999997 1.61000001 -0.44999999 178 202 65 0.000000 0.000000 0.000000 0.000000 -8.844074 0.000000 149.000000 0.227109 0.921290 -0.315667
1.15999997 1.61000001 -0.50999999 178 202 65 0.000000 0.000000 0.000000 0.000000 -8.844074 0.000000 149.000000 -0.046542 0.996873 -0.063860
1.13000000 1.63999999 -0.46000001 178 202 65 0.000000 0.000000 0.000000 0.000000 -8.844074 0.000000 149.000000 -0.276708 0.842492 -0.462211
1.14999998 1.61000001 -0.49000001 178 202 65 0.000000 0.000000 0.000000 0.000000 -8.844074 0.000000 149.000000 0.293952 0.893792 -0.338716
1.09000003 1.64999998 -0.41999999 178 202 65 0.000000 0.000000 0.000000 0.000000 -8.844074 0.000000 149.000000 -0.458384 0.881289 -0.114951
1.08000004 1.64999998 -0.41999999 178 202 65 0.000000 0.000000 0.000000 0.000000 -8.844074 0.000000 149.000000 -0.338247 0.870871 -0.356613
1.11000001 1.65999997 -0.44000000 178 202 65 0.000000 0.000000 0.000000 0.000000 -8.844074 0.000000 149.000000 -0.235407 0.820079 -0.521588
1.11000001 1.63000000 -0.46000001 178 202 65 0.000000 0.000000 0.000000 0.000000 -8.844074 0.000000 149.000000 -0.330699 0.750122 -0.572674
1.24000001 1.50999999 -0.28000000 178 202 65 0.000000 0.000000 0.000000 0.000000 -8.844074 0.000000 149.000000 0.838906 -0.503343 -0.207081
1.24000001 1.50999999 -0.25000000 178 202 65 0.000000 0.000000 0.000000 0.000000 -8.844074 0.000000 149.000000 -0.340379 0.918596 -0.200809
1.21000004 1.53999996 -0.28000000 178 202 65 0.000000 0.000000 0.000000 0.000000 -8.844074 0.000000 149.000000 0.791724 -0.573424 -0.210614
1.22000003 1.54999995 -0.28000000 178 202 65 0.000000 0.000000 0.000000 0.000000 -8.844074 0.000000 149.000000 0.801967 -0.592509 -0.076036
1.19000006 1.54999995 -0.25000000 178 202 65 0.000000 0.000000 0.000000 0.000000 -8.844074 0.000000 149.000000 0.078239 0.972399 -0.219814
1.15999997 1.52999997 -0.28000000 178 202 65 0.000000 0.000000 0.000000 0.000000 -8.844074 0.000000 149.000000 0.604102 0.757874 -0.246348
1.17999995 1.52999997 -0.31999999 178 202 65 0.000000 0.000000 0.000000 0.000000 -8.844074 0.000000 149.000000 -0.458286 0.888514 0.022714
1.20000005 1.57000005 -0.41000000 178 202 65 0.000000 0.000000 0.000000 0.000000 -8.844074 0.000000 149.000000 0.455323 0.850856 -0.262156
1.20000005 1.57000005 -0.38999999 178 202 65 0.000000 0.000000 0.000000 0.000000 -8.844074 0.000000 149.000000 0.755307 0.645928 -0.110857
1.21000004 1.55999994 -0.40000001 178 202 65 0.000000 0.000000 0.000000 0.000000 -8.844074 0.000000 149.000000 0.869205 0.216927 -0.444327
1.22000003 1.53999996 -0.40000001 178 202 65 0.000000 0.000000 0.000000 0.000000 -8.844074 0.000000 149.000000 0.944212 0.181737 -0.274655
1.19000006 1.52999997 -0.36000001 178 202 65 0.000000 0.000000 0.000000 0.000000 -8.844074 0.000000 149.000000 -0.612020 0.790812 0.006877
1.17999995 1.53999996 -0.40000001 178 202 65 0.000000 0.000000 0.000000 0.000000 -8.844074 0.000000 149.000000 0.909063 0.094895 -0.405709
1.22000003 1.50999999 -0.25000000 178 202 65 0.000000 0.000000 0.000000 0.000000 -8.844074 0.000000 149.000000 0.684719 -0.687867 -0.240832
1.21000004 1.50999999 -0.31999999 178 202 65 0.000000 0.000000 0.000000 0.000000 -8.844074 0.000000 149.000000 -0.412684 0.904569 -0.106992
1.19000006 1.51999998 -0.25000000 178 202 65 0.000000 0.000000 0.000000 0.000000 -8.844074 0.000000 149.000000 -0.342116 0.842012 -0.417100
1.16999996 1.48000002 -0.28000000 178 202 65 0.000000 0.000000 0.000000 0.000000 -8.844074 0.000000 149.000000 -0.186975 0.976974 -0.102774
1.17999995 1.51999998 -0.28000000 178 202 65 0.000000 0.000000 0.000000 0.000000 -8.844074 0.000000 149.000000 -0.209778 0.930625 -0.299884
1.17999995 1.51999998 -0.30000001 178 202 65 0.000000 0.000000 0.000000 0.000000 -8.844074 0.000000 149.000000 -0.193890 0.969452 0.150233
1.17999995 1.49000001 -0.38000000 178 202 65 0.000000 0.000000 0.000000 0.000000 -8.844074 0.000000 149.000000 -0.342195 0.937430 -0.064243
1.17999995 1.50999999 -0.40000001 178 202 65 0.000000 0.000000 0.000000 0.000000 -8.844074 0.000000 149.000000 -0.290415 0.927912 -0.233749
1.16999996 1.50999999 -0.40000001 178 202 65 0.000000 0.000000 0.000000 0.000000 -8.844074 0.000000 149.000000 -0.234931 0.971923 0.013118
1.12000000 1.52999997 -0.27000001 178 202 65 0.000000 0.000000 0.000000 0.000000 -8.844074 0.000000 149.000000 0.875336 0.479845 -0.059462
1.08000004 1.59000003 -0.25999999 178 202 65 0.000000 0.000000 0.000000 0.000000 -8.844074 0.000000 149.000000 0.884977 -0.419665 0.201734
1.07000005 1.57000005 -0.27000001 178 202 65 0.000000 0.000000 0.000000 0.000000 -8.844074 0.000000 149.000000 0.918280 -0.266690 -0.292639
1.08000004 1.53999996 -0.27000001 178 202 65 0.000000 0.000000 0.000000 0.000000 -8.844074 0.000000 149.000000 0.976851 0.212462 0.024926
1.07000005 1.54999995 -0.28999999 178 202 65 0.000000 0.000000 0.000000 0.000000 -8.844074 0.000000 149.000000 0.878181 0.338229 -0.338229
1.07000005 1.53999996 -0.30000001 178 202 65 0.000000 0.000000 0.000000 0.000000 -8.844074 0.000000 149.000000 0.900079 0.419850 -0.116547
1.07000005 1.53999996 -0.28999999 178 202 65 0.000000 0.000000 0.000000 0.000000 -8.844074 0.000000 149.000000 0.955461 0.038922 -0.292539
1.10000002 1.54999995 -0.41000000 178 202 65 0.000000 0.000000 0.000000 0.000000 -8.844074 0.000000 149.000000 0.854025 -0.520018 -0.014935
1.07000005 1.52999997 -0.33000001 178 202 65 0.000000 0.000000 0.000000 0.000000 -8.844074 0.000000 149.000000 0.893031 0.430188 -0.132038
1.07000005 1.60000002 -0.34999999 178 202 65 0.000000 0.000000 0.000000 0.000000 -8.844074 0.000000 149.000000 0.995175 -0.096377 0.018409
1.07000005 1.60000002 -0.34000000 178 202 65 0.000000 0.000000 0.000000 0.000000 -8.844074 0.000000 149.000000 0.954512 -0.205401 0.216141
1.07000005 1.60000002 -0.37000000 178 202 65 0.000000 0.000000 0.000000 0.000000 -8.844074 0.000000 149.000000 0.896536 -0.433718 0.090069
1.13999999 1.50999999 -0.25999999 178 202 65 0.000000 0.000000 0.000000 0.000000 -8.844074 0.000000 149.000000 0.608269 0.604899 -0.513912
1.13999999 1.50999999 -0.25999999 178 202 65 0.000000 0.000000 0.000000 0.000000 -8.844074 0.000000 149.000000 0.608269 0.604899 -0.513912
1.14999998 1.48000002 -0.25999999 178 202 65 0.000000 0.000000 0.000000 0.000000 -8.844074 0.000000 149.000000 0.283324 0.926855 -0.246307
1.13000000 1.51999998 -0.27000001 178 202 65 0.000000 0.000000 0.000000 0.000000 -8.844074 0.000000 149.000000 0.539194 0.699450 -0.469083
1.12000000 1.50999999 -0.25000000 178 202 65 0.000000 0.000000 0.000000 0.000000 -8.844074 0.000000 149.000000 0.841299 0.514869 -0.164699
1.13999999 1.49000001 -0.25999999 178 202 65 0.000000 0.000000 0.000000 0.000000 -8.844074 0.000000 149.000000 0.323600 0.925582 -0.196421
1.13999999 1.49000001 -0.25000000 178 202 65 0.000000 0.000000 0.000000 0.000000 -8.844074 0.000000 149.000000 0.328812 0.859852 -0.390561
1.07000005 1.50000000 -0.27000001 178 202 65 0.000000 0.000000 0.000000 0.000000 -8.844074 0.000000 149.000000 0.839253 0.524717 0.142570
1.11000001 1.50000000 -0.27000001 178 202 65 0.000000 0.000000 0.000000 0.000000 -8.844074 0.000000 149.000000 0.761545 0.628313 0.158971
1.10000002 1.49000001 -0.28999999 178 202 65 0.000000 0.000000 0.000000 0.000000 -8.844074 0.000000 149.000000 0.808045 0.584938 -0.070078
1.08000004 1.50000000 -0.28999999 178 202 65 0.000000 0.000000 0.000000 0.000000 -8.844074 0.000000 149.000000 0.706917 0.704026 -0.067945
1.08000004 1.50999999 -0.30000001 178 202 65 0.000000 0.000000 0.000000 0.000000 -8.844074 0.000000 149.000000 0.958941 0.173750 -0.224151
1.08000004 1.50999999 -0.31999999 178 202 65 0.000000 0.000000 0.000000 0.000000 -8.844074 0.000000 149.000000 0.860694 0.504061 0.071608
1.11000001 1.48000002 -0.31000000 178 202 65 0.000000 0.000000 0.000000 0.000000 -8.844074 0.000000 149.000000 0.647583 0.761780 0.018104
1.14999998 1.49000001 -0.33000001 178 202 65 0.000000 0.000000 0.000000 0.000000 -8.844074 0.000000 149.000000 0.110606 0.897450 -0.427024
1.14999998 1.48000002 -0.34000000 178 202 65 0.000000 0.000000 0.000000 0.000000 -8.844074 0.000000 149.000000 0.144878 0.856095 -0.496096
1.13000000 1.49000001 -0.34999999 178 202 65 0.000000 0.000000 0.000000 0.000000 -8.844074 0.000000 149.000000 0.801374 0.444851 -0.399884
1.07000005 1.50000000 -0.37000000 178 202 65 0.000000 0.000000 0.000000 0.000000 -8.844074 0.000000 149.000000 0.787601 0.514908 -0.338460
1.10000002 1.48000002 -0.33000001 178 202 65 0.000000 0.000000 0.000000 0.000000 -8.844074 0.000000 149.000000 0.779888 0.403726 -0.478310
1.09000003 1.49000001 -0.34999999 178 202 65 0.000000 0.000000 0.000000 0.000000 -8.844074 0.000000 149.000000 0.778622 0.622027 0.082647
1.09000003 1.46000004 -0.36000001 178 202 65 0.000000 0.000000 0.000000 0.000000 -8.844074 0.000000 149.000000 0.528659 0.831178 -0.172226
1.08000004 1.47000003 -0.40000001 178 202 65 0.000000 0.000000 0.000000 0.000000 -8.844074 0.000000 149.000000 0.927432 0.340661 -0.154340
1.11000001 1.47000003 -0.38999999 178 202 65 0.000000 0.000000 0.000000 0.000000 -8.844074 0.000000 149.000000 0.715318 0.417957 -0.560029
1.17999995 1.58000004 -0.44000000 178 202 65 0.000000 0.000000 0.000000 0.000000 -8.844074 0.000000 149.000000 0.492337 0.843789 -0.213598
1.17999995 1.55999994 -0.44999999 178 202 65 0.000000 0.000000 0.000000 0.000000 -8.844074 0.000000 149.000000 0.346191 0.935113 -0.075605
1.15999997 1.53999996 -0.43000001 178 202 65 0.000000 0.000000 0.000000 0.000000 -8.844074 0.000000 149.000000 -0.163873 0.886074 -0.433611
1.17999995 1.58000004 -0.51999998 178 202 65 0.000000 0.000000 0.000000 0.000000 -8.844074 0.000000 149.000000 0.123052 0.992177 -0.021063
1.15999997 1.55999994 -0.55000001 178 202 65 0.000000 0.000000 0.000000 0.000000 -8.844074 0.000000 149.000000 0.361347 0.925867 -0.110449
1.16999996 1.55999994 -0.56999999 178 202 65 0.000000 0.000000 0.000000 0.000000 -8.844074 0.000000 149.000000 0.609843 0.596329 -0.521999
1.17999995 1.50999999 -0.43000001 178 202 65 0.000000 0.000000 0.000000 0.000000 -8.844074 0.000000 149.000000 0.744272 -0.600220 -0.292907
1.17999995 1.49000001 -0.44000000 178 202 65 0.000000 0.000000 0.000000 0.000000 -8.844074 0.000000 149.000000 -0.519226 0.852314 0.062979
1.17999995 1.49000001 -0.54000002 178 202 65 0.000000 0.000000 0.000000 0.000000 -8.844074 0.000000 149.000000 0.901636 -0.320221 -0.290708
1.17999995 1.49000001 -0.54000002 178 202 65 0.000000 0.000000 0.000000 0.000000 -8.844074 0.000000 149.000000 0.901636 -0.320221 -0.290708
1.17999995 1.50000000 -0.52999997 178 202 65 0.000000 0.000000 0.000000 0.000000 -8.844074 0.000000 149.000000 0.968888 0.244964 0.035343
1.15999997 1.48000002 -0.52999997 178 202 65 0.000000 0.000000 0.000000 0.000000 -8.844074 0.000000 149.000000 -0.401574 0.889934 -0.216232
1.16999996 1.48000002 -0.55000001 178 202 65 0.000000 0.000000 0.000000 0.000000 -8.844074 0.000000 149.000000 0.906753 -0.332525 -0.259281
1.19000006 1.50999999 -0.55000001 178 202 65 0.000000 0.000000 0.000000 0.000000 -8.844074 0.000000 149.000000 0.847982 0.278557 -0.450923
1.17999995 1.47000003 -0.56999999 178 202 65 0.000000 0.000000 0.000000 0.000000 -8.844074 0.000000 149.000000 0.822253 -0.521016 -0.229001
1.12000000 1.59000003 -0.49000001 178 202 65 0.000000 0.000000 0.000000 0.000000 -8.844074 0.000000 149.000000 -0.317295 0.901707 -0.293682
1.13999999 1.59000003 -0.49000001 178 202 65 0.000000 0.000000 0.000000 0.000000 -8.844074 0.000000 149.000000 0.251171 0.913215 -0.320859
1.14999998 1.57000005 -0.57999998 178 202 65 0.000000 0.000000 0.000000 0.000000 -8.844074 0.000000 149.000000 0.305196 0.885520 -0.350299
1.13000000 1.58000004 -0.56000000 178 202 65 0.000000 0.000000 0.000000 0.000000 -8.844074 0.000000 149.000000 0.060551 0.949488 -0.307907
1.12000000 1.58000004 -0.55000001 178 202 65 0.000000 0.000000 0.000000 0.000000 -8.844074 0.000000 149.000000 0.105789 0.938708 -0.328079
1.14999998 1.57000005 -0.57999998 178 202 65 0.000000 0.000000 0.000000 0.000000 -8.844074 0.000000 149.000000 0.305196 0.885520 -0.350299
1.14999998 1.55999994 -0.55000001 178 202 65 0.000000 0.000000 0.000000 0.000000 -8.844074 0.000000 149.000000 -0.064140 0.997847 0.013669
1.08000004 1.58000004 -0.51999998 178 202 65 0.000000 0.000000 0.000000 0.000000 -8.844074 0.000000 149.000000 -0.437983 0.826949 -0.352600
1.13999999 1.49000001 -0.41999999 178 202 65 0.000000 0.000000 0.000000 0.000000 -8.844074 0.000000 149.000000 0.130945 0.924882 -0.356996
1.14999998 1.49000001 -0.41999999 178 202 65 0.000000 0.000000 0.000000 0.000000 -8.844074 0.000000 149.000000 0.099533 0.991898 0.078940
1.12000000 1.50000000 -0.47999999 178 202 65 0.000000 0.000000 0.000000 0.000000 -8.844074 0.000000 149.000000 0.786925 0.292920 -0.543089
1.12000000 1.46000004 -0.44999999 178 202 65 0.000000 0.000000 0.000000 0.000000 -8.844074 0.000000 149.000000 0.199566 0.808930 -0.552997
1.14999998 1.46000004 -0.44999999 178 202 65 0.000000 0.000000 0.000000 0.000000 -8.844074 0.000000 149.000000 -0.266923 0.955928 -0.122285
1.14999998 1.47000003 -0.49000001 178 202 65 0.000000 0.000000 0.000000 0.000000 -8.844074 0.000000 149.000000 -0.120235 0.982524 0.142095
1.07000005 1.50000000 -0.41999999 178 202 65 0.000000 0.000000 0.000000 0.000000 -8.844074 0.000000 149.000000 0.796463 0.594047 -0.112942
1.09000003 1.48000002 -0.41999999 178 202 65 0.000000 0.000000 0.000000 0.000000 -8.844074 0.000000 149.000000 0.669500 0.633132 -0.388475
1.09000003 1.48000002 -0.44000000 178 202 65 0.000000 0.000000 0.000000 0.000000 -8.844074 0.000000 149.000000 0.709868 0.704333 -0.001384
1.09000003 1.50000000 -0.47000000 178 202 65 0.000000 0.000000 0.000000 0.000000 -8.844074 0.000000 149.000000 0.985610 -0.047822 0.162130
1.07000005 1.47000003 -0.44000000 178 202 65 0.000000 0.000000 0.000000 0.000000 -8.844074 0.000000 149.000000 0.718591 0.692670 0.061923
1.10000002 1.45000005 -0.44000000 178 202 65 0.000000 0.000000 0.000000 0.000000 -8.844074 0.000000 149.000000 0.221020 0.950522 -0.218308
1.10000002 1.45000005 -0.43000001 178 202 65 0.000000 0.000000 0.000000 0.000000 -8.844074 0.000000 149.000000 0.270205 0.841495 -0.467841
1.09000003 1.46000004 -0.47999999 178 202 65 0.000000 0.000000 0.000000 0.000000 -8.844074 0.000000 149.000000 0.784819 0.618556 -0.038043
1.14999998 1.48000002 -0.51999998 178 202 65 0.000000 0.000000 0.000000 0.000000 -8.844074 0.000000 149.000000 -0.217047 0.926351 -0.307838
1.14999998 1.48000002 -0.52999997 178 202 65 0.000000 0.000000 0.000000 0.000000 -8.844074 0.000000 149.000000 -0.390697 0.747064 -0.537821
1.13999999 1.44000006 -0.52999997 178 202 65 0.000000 0.000000 0.000000 0.000000 -8.844074 0.000000 149.000000 -0.075598 0.995919 0.049303
1.14999998 1.44000006 -0.51999998 178 202 65 0.000000 0.000000 0.000000 0.000000 -8.844074 0.000000 149.000000 -0.136036 0.883520 -0.448204
1.13000000 1.44000006 -0.50999999 178 202 65 0.000000 0.000000 0.000000 0.000000 -8.844074 0.000000 149.000000 0.095495 0.982754 -0.158353
1.13000000 1.44000006 -0.50999999 178 202 65 0.000000 0.000000 0.000000 0.000000 -8.844074 0.000000 149.000000 0.095495 0.982754 -0.158353
1.13999999 1.44000006 -0.51999998 178 202 65 0.000000 0.000000 0.000000 0.000000 -8.844074 0.000000 149.000000 -0.091111 0.995794 -0.009647
1.13999999 1.45000005 -0.57999998 178 202 65 0.000000 0.000000 0.000000 0.000000 -8.844074 0.000000 149.000000 -0.242742 0.969759 -0.025361
1.07000005 1.44000006 -0.50999999 178 202 65 0.000000 0.000000 0.000000 0.000000 -8.844074 0.000000 149.000000 0.773444 0.428244 -0.467323
1.11000001 1.42999995 -0.43000001 178 202 65 0.000000 0.000000 0.000000 0.000000 -8.844074 0.000000 149.000000 0.544798 0.645999 -0.534678
1.11000001 1.41999996 -0.47000000 178 202 65 0.000000 0.000000 0.000000 0.000000 -8.844074 0.000000 149.000000 0.466621 0.817773 -0.336916
1.12000000 1.42999995 -0.54000002 178 202 65 0.000000 0.000000 0.000000 0.000000 -8.844074 0.000000 149.000000 0.338506 0.934602 0.109239
1.12000000 1.42999995 -0.55000001 178 202 65 0.000000 0.000000 0.000000 0.000000 -8.844074 0.000000 149.000000 0.551081 0.719880 -0.421999
1.09000003 1.41999996 -0.51999998 178 202 65 0.000000 0.000000 0.000000 0.000000 -8.844074 0.000000 149.000000 0.560749 0.768434 -0.308332
1.15999997 1.54999995 -0.66000003 178 202 65 0.000000 0.000000 0.000000 0.000000 -8.844074 0.000000 149.000000 0.161971 0.916895 -0.364786
1.15999997 1.54999995 -0.62000000 178 202 65 0.000000 0.000000 0.000000 0.000000 -8.844074 0.000000 149.000000 0.382624 0.919115 0.093954
1.17999995 1.49000001 -0.58999997 178 202 65 0.000000 0.000000 0.000000 0.000000 -8.844074 0.000000 149.000000 0.866832 0.095054 -0.489455
1.19000006 1.50999999 -0.60000002 178 202 65 0.000000 0.000000 0.000000 0.000000 -8.844074 0.000000 149.000000 0.754906 0.529902 -0.386421
1.17999995 1.51999998 -0.58999997 178 202 65 0.000000 0.000000 0.000000 0.000000 -8.844074 0.000000 149.000000 0.795980 0.591427 -0.128958
1.16999996 1.48000002 -0.63999999 178 202 65 0.000000 0.000000 0.000000 0.000000 -8.844074 0.000000 149.000000 0.882610 0.185890 -0.431791
1.15999997 1.49000001 -0.64999998 178 202 65 0.000000 0.000000 0.000000 0.000000 -8.844074 0.000000 149.000000 0.884589 0.434305 -0.169946
1.16999996 1.48000002 -0.66000003 178 202 65 0.000000 0.000000 0.000000 0.000000 -8.844074 0.000000 149.000000 0.872705 -0.031217 -0.487249
1.15999997 1.45000005 -0.61000001 178 202 65 0.000000 0.000000 0.000000 0.000000 -8.844074 0.000000 149.000000 0.752910 -0.569116 -0.330506
1.15999997 1.47000003 -0.58999997 178 202 65 0.000000 0.000000 0.000000 0.000000 -8.844074 0.000000 149.000000 0.669517 -0.707148 -0.227353
1.17999995 1.45000005 -0.58999997 178 202 65 0.000000 0.000000 0.000000 0.000000 -8.844074 0.000000 149.000000 0.935098 -0.319938 -0.152417
1.16999996 1.48000002 -0.69999999 178 202 65 0.000000 0.000000 0.000000 0.000000 -8.844074 0.000000 149.000000 0.949264 0.313920 -0.018760
1.17999995 1.50999999 -0.69999999 178 202 65 0.000000 0.000000 0.000000 0.000000 -8.844074 0.000000 149.000000 0.806343 0.591318 0.012405
1.16999996 1.48000002 -0.69999999 178 202 65 0.000000 0.000000 0.000000 0.000000 -8.844074 0.000000 149.000000 0.949264 0.313920 -0.018760
1.15999997 1.50999999 -0.73000002 178 202 65 0.000000 0.000000 0.000000 0.000000 -8.844074 0.000000 149.000000 0.652098 0.661953 -0.369577
1.16999996 1.46000004 -0.69000000 178 202 65 0.000000 0.000000 0.000000 0.000000 -8.844074 0.000000 149.000000 0.959890 0.264131 -0.094056
1.16999996 1.47000003 -0.69000000 178 202 65 0.000000 0.000000 0.000000 0.000000 -8.844074 0.000000 149.000000 0.992713 0.089628 0.080552
1.15999997 1.45000005 -0.73000002 178 202 65 0.000000 0.000000 0.000000 0.000000 -8.844074 0.000000 149.000000 0.915262 0.153247 -0.372572
1.15999997 1.44000006 -0.72000003 178 202 65 0.000000 0.000000 0.000000 0.000000 -8.844074 0.000000 149.000000 0.954780 -0.114258 0.274483
1.13000000 1.57000005 -0.61000001 178 202 65 0.000000 0.000000 0.000000 0.000000 -8.844074 0.000000 149.000000 -0.064318 0.796108 -0.601726
1.13000000 1.57000005 -0.61000001 178 202 65 0.000000 0.000000 0.000000 0.000000 -8.844074 0.000000 149.000000 -0.064318 0.796108 -0.601726
1.13999999 1.57000005 -0.63999999 178 202 65 0.000000 0.000000 0.000000 0.000000 -8.844074 0.000000 149.000000 0.215708 0.821525 -0.527795
1.13000000 1.55999994 -0.63999999 178 202 65 0.000000 0.000000 0.000000 0.000000 -8.844074 0.000000 149.000000 0.109361 0.812189 -0.573053
1.13999999 1.55999994 -0.63999999 178 202 65 0.000000 0.000000 0.000000 0.000000 -8.844074 0.000000 149.000000 0.049948 0.997891 -0.041446
1.08000004 1.58000004 -0.62000000 178 202 65 0.000000 0.000000 0.000000 0.000000 -8.844074 0.000000 149.000000 -0.723212 0.685225 0.086201
1.11000001 1.59000003 -0.60000002 178 202 65 0.000000 0.000000 0.000000 0.000000 -8.844074 0.000000 149.000000 -0.229869 0.958009 0.171405
1.07000005 1.55999994 -0.62000000 178 202 65 0.000000 0.000000 0.000000 0.000000 -8.844074 0.000000 149.000000 -0.655625 0.742642 0.136526
1.13000000 1.54999995 -0.67000002 178 202 65 0.000000 0.000000 0.000000 0.000000 -8.844074 0.000000 149.000000 0.032850 0.969690 -0.242118
1.13000000 1.52999997 -0.69999999 178 202 65 0.000000 0.000000 0.000000 0.000000 -8.844074 0.000000 149.000000 0.003370 0.987372 -0.158384
1.14999998 1.51999998 -0.63000000 178 202 65 0.000000 0.000000 0.000000 0.000000 -8.844074 0.000000 149.000000 0.684909 0.618894 -0.384539
1.14999998 1.50000000 -0.64999998 178 202 65 0.000000 0.000000 0.000000 0.000000 -8.844074 0.000000 149.000000 0.752990 0.656562 0.043960
1.13000000 1.45000005 -0.62000000 178 202 65 0.000000 0.000000 0.000000 0.000000 -8.844074 0.000000 149.000000 -0.026903 0.936463 -0.349733
