//X Y Z R G B PointSourceId ScanDirectionFlag NumberOfReturns ReturnNumber GpsTime Intensity Classification Nx Ny Nz
18.87000084 3.60999990 -0.58999997 126 173 106 0.000000 0.000000 0.000000 0.000000 -8.844074 0.000000 35.000000 -0.340492 -0.650031 0.679356
19.03000069 4.82999992 -0.73000002 126 173 106 0.000000 0.000000 0.000000 0.000000 -8.844074 0.000000 41.000000 0.902314 0.430740 0.017124
19.03000069 4.82999992 -0.73000002 126 173 106 0.000000 0.000000 0.000000 0.000000 -8.844074 0.000000 41.000000 0.902314 0.430740 0.017124
19.02000046 4.84000015 -0.74000001 126 173 106 0.000000 0.000000 0.000000 0.000000 -8.844074 0.000000 41.000000 0.778374 0.459875 0.427375
19.09000015 4.67999983 -0.74000001 126 173 106 0.000000 0.000000 0.000000 0.000000 -8.844074 0.000000 41.000000 0.807425 0.518947 -0.280639
19.10000038 4.65999985 -0.75000000 126 173 106 0.000000 0.000000 0.000000 0.000000 -8.844074 0.000000 41.000000 0.875007 0.403501 0.267489
19.04000092 4.80999994 -0.72000003 126 173 106 0.000000 0.000000 0.000000 0.000000 -8.844074 0.000000 41.000000 0.853760 0.505878 0.123208
19.02000046 4.80000019 -0.70999998 126 173 106 0.000000 0.000000 0.000000 0.000000 -8.844074 0.000000 41.000000 0.896264 0.243630 0.370613
19.01000023 4.80999994 -0.73000002 126 173 106 0.000000 0.000000 0.000000 0.000000 -8.844074 0.000000 41.000000 0.948340 0.246269 0.200009
19.04000092 4.67000008 -0.74000001 126 173 106 0.000000 0.000000 0.000000 0.000000 -8.844074 0.000000 41.000000 0.781248 0.619511 -0.076536
19.02000046 4.69999981 -0.73000002 126 173 106 0.000000 0.000000 0.000000 0.000000 -8.844074 0.000000 41.000000 0.944935 0.243455 -0.218697
19.44000053 4.05999994 -0.91000003 126 173 106 0.000000 0.000000 0.000000 0.000000 -8.844074 0.000000 35.000000 0.631633 0.765391 0.123354
19.45999908 4.01000023 -0.91000003 126 173 106 0.000000 0.000000 0.000000 0.000000 -8.844074 0.000000 35.000000 0.989376 0.101624 0.103960
19.45000076 4.05000019 -0.91000003 126 173 106 0.000000 0.000000 0.000000 0.000000 -8.844074 0.000000 35.000000 0.656641 0.753081 0.041129
19.19000053 4.23000002 -0.91000003 126 173 106 0.000000 0.000000 0.000000 0.000000 -8.844074 0.000000 35.000000 0.726703 0.652010 0.216299
19.17000008 4.15000010 -0.88999999 126 173 106 0.000000 0.000000 0.000000 0.000000 -8.844074 0.000000 35.000000 0.904399 0.408031 -0.124793
19.20999908 4.17999983 -0.91000003 126 173 106 0.000000 0.000000 0.000000 0.000000 -8.844074 0.000000 35.000000 0.840192 0.417749 0.345778
19.18000031 4.11999989 -0.73000002 126 173 106 0.000000 0.000000 0.000000 0.000000 -8.844074 0.000000 35.000000 0.671306 0.162879 0.723062
19.17000008 4.13000011 -0.73000002 126 173 106 0.000000 0.000000 0.000000 0.000000 -8.844074 0.000000 35.000000 0.810385 0.429968 0.398000
19.29000092 3.99000001 -0.92000002 126 173 106 0.000000 0.000000 0.000000 0.000000 -8.844074 0.000000 35.000000 0.728077 0.667530 0.155908
19.17000008 4.13999987 -0.76999998 126 173 106 0.000000 0.000000 0.000000 0.000000 -8.844074 0.000000 35.000000 0.885538 0.416984 0.204808
19.21999931 4.05999994 -0.86000001 126 173 106 0.000000 0.000000 0.000000 0.000000 -8.844074 0.000000 35.000000 0.884402 0.198659 0.422335
19.19000053 4.01999998 -0.82999998 126 173 106 0.000000 0.000000 0.000000 0.000000 -8.844074 0.000000 35.000000 0.816980 0.060884 0.573443
19.18000031 3.99000001 -0.80000001 126 173 106 0.000000 0.000000 0.000000 0.000000 -8.844074 0.000000 35.000000 0.719993 -0.133221 0.681074
19.18000031 4.01000023 -0.82999998 126 173 106 0.000000 0.000000 0.000000 0.000000 -8.844074 0.000000 35.000000 0.785839 0.520158 0.334502
19.00000000 4.15000010 -0.74000001 126 173 106 0.000000 0.000000 0.000000 0.000000 -8.844074 0.000000 35.000000 0.599590 0.225820 0.767787
19.00000000 4.15000010 -0.74000001 126 173 106 0.000000 0.000000 0.000000 0.000000 -8.844074 0.000000 35.000000 0.599590 0.225820 0.767787
19.12999916 4.15999985 -0.83999997 126 173 106 0.000000 0.000000 0.000000 0.000000 -8.844074 0.000000 35.000000 0.841502 0.239775 0.484131
19.11000061 4.19000006 -0.91000003 126 173 106 0.000000 0.000000 0.000000 0.000000 -8.844074 0.000000 35.000000 0.845010 0.467746 0.259177
19.11000061 4.15000010 -0.87000000 126 173 106 0.000000 0.000000 0.000000 0.000000 -8.844074 0.000000 35.000000 0.840466 0.523641 0.139344
19.10000038 4.17999983 -0.89999998 126 173 106 0.000000 0.000000 0.000000 0.000000 -8.844074 0.000000 35.000000 0.858312 0.335592 0.388173
19.10000038 4.17000008 -0.92000002 126 173 106 0.000000 0.000000 0.000000 0.000000 -8.844074 0.000000 35.000000 0.867931 0.496537 0.012111
19.00000000 4.30999994 -0.77999997 126 173 106 0.000000 0.000000 0.000000 0.000000 -8.844074 0.000000 35.000000 0.659729 0.262302 0.704241
19.00000000 4.17999983 -0.75999999 126 173 106 0.000000 0.000000 0.000000 0.000000 -8.844074 0.000000 35.000000 0.472718 0.205595 0.856895
19.06999969 4.15999985 -0.75999999 126 173 106 0.000000 0.000000 0.000000 0.000000 -8.844074 0.000000 35.000000 0.632592 0.432299 0.642607
19.03000069 4.19000006 -0.75999999 126 173 106 0.000000 0.000000 0.000000 0.000000 -8.844074 0.000000 35.000000 0.818632 0.503654 0.275996
19.04999924 4.17000008 -0.76999998 126 173 106 0.000000 0.000000 0.000000 0.000000 -8.844074 0.000000 35.000000 0.844984 0.460201 0.272427
19.13999939 4.11000013 -0.74000001 126 173 106 0.000000 0.000000 0.000000 0.000000 -8.844074 0.000000 35.000000 0.595859 0.073226 0.799744
19.10000038 4.11999989 -0.72000003 126 173 106 0.000000 0.000000 0.000000 0.000000 -8.844074 0.000000 35.000000 0.503777 0.045547 0.862632
19.07999992 4.11000013 -0.75000000 126 173 106 0.000000 0.000000 0.000000 0.000000 -8.844074 0.000000 35.000000 0.726789 0.314244 0.610761
19.11000061 4.03000021 -0.75000000 126 173 106 0.000000 0.000000 0.000000 0.000000 -8.844074 0.000000 35.000000 0.665216 0.049856 0.744985
19.09000015 4.05000019 -0.75000000 126 173 106 0.000000 0.000000 0.000000 0.000000 -8.844074 0.000000 35.000000 0.575005 -0.227832 0.785788
19.00000000 4.13000011 -0.74000001 126 173 106 0.000000 0.000000 0.000000 0.000000 -8.844074 0.000000 35.000000 0.730562 0.395653 0.556541
19.01000023 4.13999987 -0.75000000 126 173 106 0.000000 0.000000 0.000000 0.000000 -8.844074 0.000000 35.000000 0.618504 0.188774 0.762770
19.12999916 4.11000013 -0.80000001 126 173 106 0.000000 0.000000 0.000000 0.000000 -8.844074 0.000000 35.000000 0.741247 0.621131 0.254458
19.13999939 4.09999990 -0.81999999 126 173 106 0.000000 0.000000 0.000000 0.000000 -8.844074 0.000000 35.000000 0.832714 0.360475 0.420292
19.13999939 4.09000015 -0.81000000 126 173 106 0.000000 0.000000 0.000000 0.000000 -8.844074 0.000000 35.000000 0.847982 0.278557 0.450923
19.09000015 4.13000011 -0.81999999 126 173 106 0.000000 0.000000 0.000000 0.000000 -8.844074 0.000000 35.000000 0.673418 0.182544 0.716370
19.12000084 4.13999987 -0.87000000 126 173 106 0.000000 0.000000 0.000000 0.000000 -8.844074 0.000000 35.000000 0.836312 0.462541 0.294344
19.14999962 4.13000011 -0.88999999 126 173 106 0.000000 0.000000 0.000000 0.000000 -8.844074 0.000000 35.000000 0.796799 0.602869 0.040753
19.13999939 4.13000011 -0.85000002 126 173 106 0.000000 0.000000 0.000000 0.000000 -8.844074 0.000000 35.000000 0.790955 0.344940 0.505377
19.14999962 4.13000011 -0.88999999 126 173 106 0.000000 0.000000 0.000000 0.000000 -8.844074 0.000000 35.000000 0.796799 0.602869 0.040753
19.15999985 4.03999996 -0.79000002 126 173 106 0.000000 0.000000 0.000000 0.000000 -8.844074 0.000000 35.000000 0.889557 0.340522 0.304520
19.14999962 4.03999996 -0.79000002 126 173 106 0.000000 0.000000 0.000000 0.000000 -8.844074 0.000000 35.000000 0.749115 0.495568 0.439590
19.15999985 4.03999996 -0.81000000 126 173 106 0.000000 0.000000 0.000000 0.000000 -8.844074 0.000000 35.000000 0.679691 0.319568 0.660225
19.15999985 4.00000000 -0.81999999 126 173 106 0.000000 0.000000 0.000000 0.000000 -8.844074 0.000000 35.000000 0.850932 0.480437 0.212356
19.09000015 4.00000000 -0.75999999 126 173 106 0.000000 0.000000 0.000000 0.000000 -8.844074 0.000000 35.000000 0.652132 0.351400 0.671745
19.04999924 4.11999989 -0.75999999 126 173 106 0.000000 0.000000 0.000000 0.000000 -8.844074 0.000000 35.000000 0.657937 0.560340 0.503128
19.05999947 4.01999998 -0.75999999 126 173 106 0.000000 0.000000 0.000000 0.000000 -8.844074 0.000000 35.000000 0.663237 0.055867 0.746321
19.05999947 4.05000019 -0.77999997 126 173 106 0.000000 0.000000 0.000000 0.000000 -8.844074 0.000000 35.000000 0.678413 0.504203 0.534355
19.37000084 4.15000010 -0.94999999 126 173 106 0.000000 0.000000 0.000000 0.000000 -8.844074 0.000000 35.000000 0.841978 0.437330 -0.315936
19.39999962 4.09999990 -0.94999999 126 173 106 0.000000 0.000000 0.000000 0.000000 -8.844074 0.000000 35.000000 0.751502 0.659482 -0.018125
19.27000046 4.15000010 -0.94000000 126 173 106 0.000000 0.000000 0.000000 0.000000 -8.844074 0.000000 35.000000 0.907735 0.312355 0.280093
19.29999924 4.13999987 -0.94999999 126 173 106 0.000000 0.000000 0.000000 0.000000 -8.844074 0.000000 35.000000 0.671240 0.693456 -0.261831
19.27000046 4.13999987 -0.94000000 126 173 106 0.000000 0.000000 0.000000 0.000000 -8.844074 0.000000 35.000000 0.608891 0.792812 -0.026474
19.27000046 4.01000023 -0.94000000 126 173 106 0.000000 0.000000 0.000000 0.000000 -8.844074 0.000000 35.000000 0.831063 0.487495 0.267735
19.35000038 3.94000006 -0.91000003 126 173 106 0.000000 0.000000 0.000000 0.000000 -8.844074 0.000000 35.000000 0.929418 0.278684 0.241903
19.36000061 3.93000007 -0.88999999 126 173 106 0.000000 0.000000 0.000000 0.000000 -8.844074 0.000000 35.000000 0.852472 0.518224 -0.068816
19.40999985 3.65000010 -0.87000000 126 173 106 0.000000 0.000000 0.000000 0.000000 -8.844074 0.000000 35.000000 0.420448 0.181855 0.888905
19.50000000 3.55999994 -0.88999999 126 173 106 0.000000 0.000000 0.000000 0.000000 -8.844074 0.000000 35.000000 0.784777 -0.148552 0.601712
19.42000008 3.49000001 -0.91000003 126 173 106 0.000000 0.000000 0.000000 0.000000 -8.844074 0.000000 35.000000 0.571487 0.084931 0.816204
19.38999939 3.63000011 -0.85000002 126 173 106 0.000000 0.000000 0.000000 0.000000 -8.844074 0.000000 35.000000 0.358029 0.161464 0.919644
19.37999916 3.55999994 -0.87000000 126 173 106 0.000000 0.000000 0.000000 0.000000 -8.844074 0.000000 35.000000 0.441125 0.444381 0.779701
19.35000038 3.59999990 -0.87000000 126 173 106 0.000000 0.000000 0.000000 0.000000 -8.844074 0.000000 35.000000 0.837389 -0.174643 0.517957
19.40999985 3.53999996 -0.91000003 126 173 106 0.000000 0.000000 0.000000 0.000000 -8.844074 0.000000 35.000000 0.751462 -0.104411 0.651463
19.40999985 3.51999998 -0.91000003 126 173 106 0.000000 0.000000 0.000000 0.000000 -8.844074 0.000000 35.000000 0.421834 0.467437 0.776891
19.39999962 3.52999997 -0.89999998 126 173 106 0.000000 0.000000 0.000000 0.000000 -8.844074 0.000000 35.000000 0.728131 -0.254293 0.636522
19.40999985 3.48000002 -0.88999999 126 173 106 0.000000 0.000000 0.000000 0.000000 -8.844074 0.000000 35.000000 0.280998 0.025995 0.959356
19.36000061 3.50999999 -0.85000002 126 173 106 0.000000 0.000000 0.000000 0.000000 -8.844074 0.000000 35.000000 0.299142 -0.261569 0.917658
19.35000038 3.49000001 -0.89999998 126 173 106 0.000000 0.000000 0.000000 0.000000 -8.844074 0.000000 35.000000 0.504857 -0.381484 0.774331
19.43000031 3.44000006 -0.89999998 126 173 106 0.000000 0.000000 0.000000 0.000000 -8.844074 0.000000 35.000000 0.520283 -0.054400 0.852260
19.48999977 3.31999993 -0.91000003 126 173 106 0.000000 0.000000 0.000000 0.000000 -8.844074 0.000000 35.000000 0.529585 -0.099028 0.842457
19.42000008 3.31999993 -0.86000001 126 173 106 0.000000 0.000000 0.000000 0.000000 -8.844074 0.000000 35.000000 0.204446 0.183342 0.961555
19.44000053 3.31999993 -0.87000000 126 173 106 0.000000 0.000000 0.000000 0.000000 -8.844074 0.000000 35.000000 0.388419 -0.186268 0.902461
19.39999962 3.46000004 -0.88000000 126 173 106 0.000000 0.000000 0.000000 0.000000 -8.844074 0.000000 35.000000 0.528410 0.123732 0.839925
19.40999985 3.44000006 -0.88999999 126 173 106 0.000000 0.000000 0.000000 0.000000 -8.844074 0.000000 35.000000 0.568947 -0.134478 0.811304
19.38999939 3.45000005 -0.88000000 126 173 106 0.000000 0.000000 0.000000 0.000000 -8.844074 0.000000 35.000000 0.213105 0.003494 0.977023
19.37999916 3.39000010 -0.87000000 126 173 106 0.000000 0.000000 0.000000 0.000000 -8.844074 0.000000 35.000000 0.469027 0.031088 0.882636
19.36000061 3.40000010 -0.87000000 126 173 106 0.000000 0.000000 0.000000 0.000000 -8.844074 0.000000 35.000000 0.577022 0.094001 0.811301
19.37000084 3.42000008 -0.87000000 126 173 106 0.000000 0.000000 0.000000 0.000000 -8.844074 0.000000 35.000000 0.624944 -0.236508 0.743982
19.35000038 3.39000010 -0.85000002 126 173 106 0.000000 0.000000 0.000000 0.000000 -8.844074 0.000000 35.000000 0.013780 -0.324454 0.945801
19.36000061 3.42000008 -0.91000003 126 173 106 0.000000 0.000000 0.000000 0.000000 -8.844074 0.000000 35.000000 0.357768 -0.345484 0.867550
19.39999962 3.33999991 -0.86000001 126 173 106 0.000000 0.000000 0.000000 0.000000 -8.844074 0.000000 35.000000 0.087786 -0.201537 0.975539
19.38999939 3.36999989 -0.91000003 126 173 106 0.000000 0.000000 0.000000 0.000000 -8.844074 0.000000 35.000000 0.400915 -0.445998 0.800220
19.40999985 3.29999995 -0.92000002 126 173 106 0.000000 0.000000 0.000000 0.000000 -8.844074 0.000000 35.000000 0.023267 -0.265739 0.963764
19.38999939 3.32999992 -0.91000003 126 173 106 0.000000 0.000000 0.000000 0.000000 -8.844074 0.000000 35.000000 0.103782 0.167272 0.980433
19.37000084 3.32999992 -0.89999998 126 173 106 0.000000 0.000000 0.000000 0.000000 -8.844074 0.000000 35.000000 0.226745 0.003525 0.973948
19.31999969 3.97000003 -0.88000000 126 173 106 0.000000 0.000000 0.000000 0.000000 -8.844074 0.000000 35.000000 0.817878 0.516800 0.252968
19.25000000 3.96000004 -0.83999997 126 173 106 0.000000 0.000000 0.000000 0.000000 -8.844074 0.000000 35.000000 0.823359 0.004083 0.567506
19.25000000 3.92000008 -0.83999997 126 173 106 0.000000 0.000000 0.000000 0.000000 -8.844074 0.000000 35.000000 0.856218 0.135192 0.498612
19.27000046 3.88000011 -0.83999997 126 173 106 0.000000 0.000000 0.000000 0.000000 -8.844074 0.000000 35.000000 0.849357 0.170464 0.499535
19.23999977 3.94000006 -0.82999998 126 173 106 0.000000 0.000000 0.000000 0.000000 -8.844074 0.000000 35.000000 0.841289 0.415161 0.346229
19.17000008 3.95000005 -0.79000002 126 173 106 0.000000 0.000000 0.000000 0.000000 -8.844074 0.000000 35.000000 0.676929 0.155981 0.719331
19.17000008 3.94000006 -0.76999998 126 173 106 0.000000 0.000000 0.000000 0.000000 -8.844074 0.000000 35.000000 0.453063 -0.184472 0.872183
19.17000008 3.95000005 -0.79000002 126 173 106 0.000000 0.000000 0.000000 0.000000 -8.844074 0.000000 35.000000 0.676929 0.155981 0.719331
19.18000031 3.93000007 -0.77999997 126 173 106 0.000000 0.000000 0.000000 0.000000 -8.844074 0.000000 35.000000 0.811577 0.128144 0.570019
19.30999947 3.73000002 -0.85000002 126 173 106 0.000000 0.000000 0.000000 0.000000 -8.844074 0.000000 35.000000 0.697562 -0.176307 0.694495
19.27000046 3.75999999 -0.83999997 126 173 106 0.000000 0.000000 0.000000 0.000000 -8.844074 0.000000 35.000000 0.497466 -0.138590 0.856341
19.31999969 3.69000006 -0.81000000 126 173 106 0.000000 0.000000 0.000000 0.000000 -8.844074 0.000000 35.000000 0.489491 -0.233309 0.840217
19.28000069 3.66000009 -0.82999998 126 173 106 0.000000 0.000000 0.000000 0.000000 -8.844074 0.000000 35.000000 0.383396 -0.082640 0.919879
19.29999924 3.68000007 -0.87000000 126 173 106 0.000000 0.000000 0.000000 0.000000 -8.844074 0.000000 35.000000 0.561622 -0.084746 0.823042
19.32999992 3.65000010 -0.83999997 126 173 106 0.000000 0.000000 0.000000 0.000000 -8.844074 0.000000 35.000000 0.297652 -0.068292 0.952229
19.23999977 3.79999995 -0.81000000 126 173 106 0.000000 0.000000 0.000000 0.000000 -8.844074 0.000000 35.000000 0.864589 0.086036 0.495059
19.20999908 3.76999998 -0.81000000 126 173 106 0.000000 0.000000 0.000000 0.000000 -8.844074 0.000000 35.000000 0.204803 -0.093092 0.974366
19.20999908 3.76999998 -0.81000000 126 173 106 0.000000 0.000000 0.000000 0.000000 -8.844074 0.000000 35.000000 0.204803 -0.093092 0.974366
19.22999954 3.76999998 -0.82999998 126 173 106 0.000000 0.000000 0.000000 0.000000 -8.844074 0.000000 35.000000 0.803949 -0.037882 0.593491
19.23999977 3.78999996 -0.81999999 126 173 106 0.000000 0.000000 0.000000 0.000000 -8.844074 0.000000 35.000000 0.826242 0.136971 0.546410
19.23999977 3.79999995 -0.81999999 126 173 106 0.000000 0.000000 0.000000 0.000000 -8.844074 0.000000 35.000000 0.880688 0.059264 0.469976
19.22999954 3.73000002 -0.82999998 126 173 106 0.000000 0.000000 0.000000 0.000000 -8.844074 0.000000 35.000000 0.803481 -0.167329 0.571331
19.21999931 3.72000003 -0.81000000 126 173 106 0.000000 0.000000 0.000000 0.000000 -8.844074 0.000000 35.000000 0.614287 -0.132377 0.777899
19.21999931 3.73000002 -0.81000000 126 173 106 0.000000 0.000000 0.000000 0.000000 -8.844074 0.000000 35.000000 0.449475 -0.237601 0.861115
19.20000076 3.75999999 -0.81999999 126 173 106 0.000000 0.000000 0.000000 0.000000 -8.844074 0.000000 35.000000 0.266067 -0.224276 0.937501
19.18000031 3.75000000 -0.81000000 126 173 106 0.000000 0.000000 0.000000 0.000000 -8.844074 0.000000 35.000000 0.118697 -0.095193 0.988357
19.21999931 3.66000009 -0.79000002 126 173 106 0.000000 0.000000 0.000000 0.000000 -8.844074 0.000000 35.000000 0.159793 -0.377564 0.912092
19.21999931 3.66000009 -0.81000000 126 173 106 0.000000 0.000000 0.000000 0.000000 -8.844074 0.000000 35.000000 0.318754 -0.176776 0.931207
19.19000053 3.71000004 -0.81999999 126 173 106 0.000000 0.000000 0.000000 0.000000 -8.844074 0.000000 35.000000 0.117359 -0.136717 0.983634
19.23999977 3.71000004 -0.83999997 126 173 106 0.000000 0.000000 0.000000 0.000000 -8.844074 0.000000 35.000000 0.383807 -0.117775 0.915872
19.14999962 3.96000004 -0.79000002 126 173 106 0.000000 0.000000 0.000000 0.000000 -8.844074 0.000000 35.000000 0.688570 0.388043 0.612613
19.14999962 3.96000004 -0.79000002 126 173 106 0.000000 0.000000 0.000000 0.000000 -8.844074 0.000000 35.000000 0.688570 0.388043 0.612613
19.14999962 3.97000003 -0.80000001 126 173 106 0.000000 0.000000 0.000000 0.000000 -8.844074 0.000000 35.000000 0.852522 0.241624 0.463492
19.10000038 3.95000005 -0.76999998 126 173 106 0.000000 0.000000 0.000000 0.000000 -8.844074 0.000000 35.000000 0.321971 -0.094074 0.942064
19.09000015 3.89000010 -0.76999998 126 173 106 0.000000 0.000000 0.000000 0.000000 -8.844074 0.000000 35.000000 0.179477 -0.310258 0.933557
19.07999992 3.91000009 -0.75999999 126 173 106 0.000000 0.000000 0.000000 0.000000 -8.844074 0.000000 35.000000 0.212775 -0.271184 0.938715
19.11000061 3.90000010 -0.76999998 126 173 106 0.000000 0.000000 0.000000 0.000000 -8.844074 0.000000 35.000000 0.428195 -0.283928 0.857924
19.11000061 3.92000008 -0.76999998 126 173 106 0.000000 0.000000 0.000000 0.000000 -8.844074 0.000000 35.000000 0.490652 -0.261578 0.831167
19.12000084 3.85999990 -0.79000002 126 173 106 0.000000 0.000000 0.000000 0.000000 -8.844074 0.000000 35.000000 0.182464 -0.154393 0.971015
19.12999916 3.86999989 -0.80000001 126 173 106 0.000000 0.000000 0.000000 0.000000 -8.844074 0.000000 35.000000 0.389007 -0.192334 0.900934
19.01000023 3.65000010 -0.69999999 126 173 106 0.000000 0.000000 0.000000 0.000000 -8.844074 0.000000 35.000000 -0.025093 -0.225836 0.973842
19.01000023 3.64000010 -0.70999998 126 173 106 0.000000 0.000000 0.000000 0.000000 -8.844074 0.000000 35.000000 0.068606 -0.181746 0.980949
19.14999962 3.66000009 -0.77999997 126 173 106 0.000000 0.000000 0.000000 0.000000 -8.844074 0.000000 35.000000 0.139964 -0.236761 0.961433
19.07999992 3.65000010 -0.85000002 126 173 106 0.000000 0.000000 0.000000 0.000000 -8.844074 0.000000 35.000000 -0.126672 -0.663164 0.737677
19.04999924 3.68000007 -0.86000001 126 173 106 0.000000 0.000000 0.000000 0.000000 -8.844074 0.000000 35.000000 0.247539 -0.380944 0.890846
19.05999947 3.68000007 -0.92000002 126 173 106 0.000000 0.000000 0.000000 0.000000 -8.844074 0.000000 35.000000 -0.165687 -0.207435 0.964115
19.06999969 3.64000010 -0.86000001 126 173 106 0.000000 0.000000 0.000000 0.000000 -8.844074 0.000000 35.000000 0.050070 -0.319680 0.946202
19.03000069 3.70000005 -0.86000001 126 173 106 0.000000 0.000000 0.000000 0.000000 -8.844074 0.000000 35.000000 0.162279 -0.152215 0.974934
19.03000069 3.71000004 -0.85000002 126 173 106 0.000000 0.000000 0.000000 0.000000 -8.844074 0.000000 35.000000 0.202822 -0.439694 0.874947
19.01000023 3.64000010 -0.86000001 126 173 106 0.000000 0.000000 0.000000 0.000000 -8.844074 0.000000 35.000000 0.665818 0.230295 -0.709684
19.28000069 3.51999998 -0.73000002 126 173 106 0.000000 0.000000 0.000000 0.000000 -8.844074 0.000000 35.000000 0.066727 -0.260613 0.963135
19.29999924 3.48000002 -0.73000002 126 173 106 0.000000 0.000000 0.000000 0.000000 -8.844074 0.000000 35.000000 0.042968 0.161422 0.985950
19.20000076 3.55999994 -0.72000003 126 173 106 0.000000 0.000000 0.000000 0.000000 -8.844074 0.000000 35.000000 0.009048 -0.394215 0.918974
19.17000008 3.63000011 -0.69999999 126 173 106 0.000000 0.000000 0.000000 0.000000 -8.844074 0.000000 35.000000 -0.190973 -0.132796 0.972571
19.18000031 3.61999989 -0.70999998 126 173 106 0.000000 0.000000 0.000000 0.000000 -8.844074 0.000000 35.000000 -0.069611 -0.108410 0.991666
19.23999977 3.51999998 -0.72000003 126 173 106 0.000000 0.000000 0.000000 0.000000 -8.844074 0.000000 35.000000 0.336460 -0.153691 0.929071
19.22999954 3.50000000 -0.70999998 126 173 106 0.000000 0.000000 0.000000 0.000000 -8.844074 0.000000 35.000000 0.200334 -0.331048 0.922103
19.17000008 3.50999999 -0.72000003 126 173 106 0.000000 0.000000 0.000000 0.000000 -8.844074 0.000000 35.000000 0.257958 -0.159052 0.952974
19.19000053 3.54999995 -0.72000003 126 173 106 0.000000 0.000000 0.000000 0.000000 -8.844074 0.000000 35.000000 0.066935 -0.430295 0.900203
19.25000000 3.55999994 -0.91000003 126 173 106 0.000000 0.000000 0.000000 0.000000 -8.844074 0.000000 35.000000 0.730004 -0.166118 0.662947
19.28000069 3.50999999 -0.82999998 126 173 106 0.000000 0.000000 0.000000 0.000000 -8.844074 0.000000 35.000000 0.514957 -0.113954 0.849608
19.32999992 3.53999996 -0.86000001 126 173 106 0.000000 0.000000 0.000000 0.000000 -8.844074 0.000000 35.000000 0.290090 0.132345 0.947804
19.29999924 3.53999996 -0.86000001 126 173 106 0.000000 0.000000 0.000000 0.000000 -8.844074 0.000000 35.000000 0.079961 0.047101 0.995685
19.25000000 3.49000001 -0.85000002 126 173 106 0.000000 0.000000 0.000000 0.000000 -8.844074 0.000000 35.000000 0.407654 -0.509158 0.758008
19.26000023 3.48000002 -0.91000003 126 173 106 0.000000 0.000000 0.000000 0.000000 -8.844074 0.000000 35.000000 0.176776 0.252345 0.951353
19.23999977 3.53999996 -0.82999998 126 173 106 0.000000 0.000000 0.000000 0.000000 -8.844074 0.000000 35.000000 0.034673 -0.342878 0.938740
19.22999954 3.50000000 -0.81999999 126 173 106 0.000000 0.000000 0.000000 0.000000 -8.844074 0.000000 35.000000 0.235484 0.055481 0.970293
19.20000076 3.48000002 -0.81999999 126 173 106 0.000000 0.000000 0.000000 0.000000 -8.844074 0.000000 35.000000 -0.095223 -0.059375 0.993684
19.25000000 3.44000006 -0.69999999 126 173 106 0.000000 0.000000 0.000000 0.000000 -8.844074 0.000000 35.000000 0.270818 -0.584397 0.764943
19.30999947 3.30999994 -0.72000003 126 173 106 0.000000 0.000000 0.000000 0.000000 -8.844074 0.000000 35.000000 0.328980 -0.365704 0.870651
19.25000000 3.34999990 -0.70999998 126 173 106 0.000000 0.000000 0.000000 0.000000 -8.844074 0.000000 35.000000 -0.324209 -0.168366 0.930882
19.30999947 3.31999993 -0.72000003 126 173 106 0.000000 0.000000 0.000000 0.000000 -8.844074 0.000000 35.000000 -0.060701 -0.316419 0.946675
19.21999931 3.40000010 -0.72000003 126 173 106 0.000000 0.000000 0.000000 0.000000 -8.844074 0.000000 35.000000 -0.027847 -0.423012 0.905696
19.20999908 3.36999989 -0.72000003 126 173 106 0.000000 0.000000 0.000000 0.000000 -8.844074 0.000000 35.000000 -0.381697 -0.384838 0.840361
19.20000076 3.36999989 -0.74000001 126 173 106 0.000000 0.000000 0.000000 0.000000 -8.844074 0.000000 35.000000 -0.262905 -0.136076 0.955177
19.26000023 3.46000004 -0.75999999 126 173 106 0.000000 0.000000 0.000000 0.000000 -8.844074 0.000000 35.000000 0.491638 -0.335714 0.803485
19.29000092 3.39000010 -0.81000000 126 173 106 0.000000 0.000000 0.000000 0.000000 -8.844074 0.000000 35.000000 0.320731 0.170779 0.931647
19.28000069 3.40000010 -0.81000000 126 173 106 0.000000 0.000000 0.000000 0.000000 -8.844074 0.000000 35.000000 0.061508 0.088347 0.994189
19.31999969 3.44000006 -0.85000002 126 173 106 0.000000 0.000000 0.000000 0.000000 -8.844074 0.000000 35.000000 0.441420 -0.454451 0.773707
19.32999992 3.39000010 -0.83999997 126 173 106 0.000000 0.000000 0.000000 0.000000 -8.844074 0.000000 35.000000 0.126972 -0.392078 0.911127
19.31999969 3.42000008 -0.87000000 126 173 106 0.000000 0.000000 0.000000 0.000000 -8.844074 0.000000 35.000000 -0.056431 -0.134744 0.989272
19.31999969 3.39000010 -0.83999997 126 173 106 0.000000 0.000000 0.000000 0.000000 -8.844074 0.000000 35.000000 -0.139348 -0.233115 0.962413
19.32999992 3.41000009 -0.89999998 126 173 106 0.000000 0.000000 0.000000 0.000000 -8.844074 0.000000 35.000000 0.580051 -0.128408 0.804396
19.25000000 3.36999989 -0.81000000 126 173 106 0.000000 0.000000 0.000000 0.000000 -8.844074 0.000000 35.000000 -0.152941 0.077063 0.985226
19.22999954 3.44000006 -0.76999998 126 173 106 0.000000 0.000000 0.000000 0.000000 -8.844074 0.000000 35.000000 0.061112 -0.425067 0.903097
19.20000076 3.40000010 -0.77999997 126 173 106 0.000000 0.000000 0.000000 0.000000 -8.844074 0.000000 35.000000 -0.164857 -0.518334 0.839137
19.19000053 3.41000009 -0.77999997 126 173 106 0.000000 0.000000 0.000000 0.000000 -8.844074 0.000000 35.000000 0.141058 -0.025955 0.989661
19.20000076 3.39000010 -0.80000001 126 173 106 0.000000 0.000000 0.000000 0.000000 -8.844074 0.000000 35.000000 0.251863 -0.257491 0.932879
19.19000053 3.39000010 -0.82999998 126 173 106 0.000000 0.000000 0.000000 0.000000 -8.844074 0.000000 35.000000 0.118304 -0.344034 0.931475
19.19000053 3.38000011 -0.75999999 126 173 106 0.000000 0.000000 0.000000 0.000000 -8.844074 0.000000 35.000000 -0.282597 -0.226359 0.932148
19.19000053 3.36999989 -0.76999998 126 173 106 0.000000 0.000000 0.000000 0.000000 -8.844074 0.000000 35.000000 -0.437034 -0.309501 0.844518
19.17000008 3.34999990 -0.82999998 126 173 106 0.000000 0.000000 0.000000 0.000000 -8.844074 0.000000 35.000000 0.070744 -0.671347 0.737759
19.20000076 3.31999993 -0.76999998 126 173 106 0.000000 0.000000 0.000000 0.000000 -8.844074 0.000000 35.000000 -0.285509 -0.259684 0.922523
19.20000076 3.36999989 -0.85000002 126 173 106 0.000000 0.000000 0.000000 0.000000 -8.844074 0.000000 35.000000 -0.329803 -0.039782 0.943211
19.11000061 3.60999990 -0.69999999 126 173 106 0.000000 0.000000 0.000000 0.000000 -8.844074 0.000000 35.000000 0.034160 -0.495997 0.867652
19.12000084 3.55999994 -0.73000002 126 173 106 0.000000 0.000000 0.000000 0.000000 -8.844074 0.000000 35.000000 0.359526 -0.128107 0.924299
19.11000061 3.58999991 -0.72000003 126 173 106 0.000000 0.000000 0.000000 0.000000 -8.844074 0.000000 35.000000 0.264771 -0.546776 0.794313
19.13999939 3.50999999 -0.72000003 126 173 106 0.000000 0.000000 0.000000 0.000000 -8.844074 0.000000 35.000000 -0.390963 -0.262140 0.882287
19.04000092 3.61999989 -0.70999998 126 173 106 0.000000 0.000000 0.000000 0.000000 -8.844074 0.000000 35.000000 0.064085 -0.582466 0.810325
19.06999969 3.63000011 -0.69999999 126 173 106 0.000000 0.000000 0.000000 0.000000 -8.844074 0.000000 35.000000 0.292952 -0.533648 0.793346
19.06999969 3.57999992 -0.69999999 126 173 106 0.000000 0.000000 0.000000 0.000000 -8.844074 0.000000 35.000000 0.128662 -0.116638 0.984805
19.04999924 3.55999994 -0.72000003 126 173 106 0.000000 0.000000 0.000000 0.000000 -8.844074 0.000000 35.000000 -0.299303 -0.477944 0.825825
19.15999985 3.63000011 -0.79000002 126 173 106 0.000000 0.000000 0.000000 0.000000 -8.844074 0.000000 35.000000 0.517083 -0.065862 0.853397
19.13999939 3.60999990 -0.76999998 126 173 106 0.000000 0.000000 0.000000 0.000000 -8.844074 0.000000 35.000000 0.280363 -0.427438 0.859473
19.02000046 3.63000011 -0.75999999 126 173 106 0.000000 0.000000 0.000000 0.000000 -8.844074 0.000000 35.000000 0.227708 -0.316500 0.920857
19.06999969 3.63000011 -0.81999999 126 173 106 0.000000 0.000000 0.000000 0.000000 -8.844074 0.000000 35.000000 0.215898 -0.297741 0.929913
19.15999985 3.40000010 -0.81000000 126 173 106 0.000000 0.000000 0.000000 0.000000 -8.844074 0.000000 35.000000 -0.130146 -0.662696 0.737493
19.15999985 3.45000005 -0.81999999 126 173 106 0.000000 0.000000 0.000000 0.000000 -8.844074 0.000000 35.000000 -0.450353 -0.430843 0.782021
19.15999985 3.30999994 -0.81999999 126 173 106 0.000000 0.000000 0.000000 0.000000 -8.844074 0.000000 35.000000 -0.104851 -0.683749 0.722145
19.14999962 3.35999990 -0.82999998 126 173 106 0.000000 0.000000 0.000000 0.000000 -8.844074 0.000000 35.000000 -0.405094 -0.216541 0.888261
19.12999916 3.38000011 -0.82999998 126 173 106 0.000000 0.000000 0.000000 0.000000 -8.844074 0.000000 35.000000 0.001292 -0.406977 0.913437
19.45999908 3.89000010 -0.94000000 126 173 106 0.000000 0.000000 0.000000 0.000000 -8.844074 0.000000 35.000000 0.702669 0.680953 0.206302
19.62000084 3.49000001 -1.04999995 126 173 106 0.000000 0.000000 0.000000 0.000000 -8.844074 0.000000 35.000000 0.859796 0.292729 0.418403
19.61000061 3.48000002 -1.03999996 126 173 106 0.000000 0.000000 0.000000 0.000000 -8.844074 0.000000 35.000000 0.700961 0.254751 0.666150
19.60000038 3.40000010 -1.04999995 126 173 106 0.000000 0.000000 0.000000 0.000000 -8.844074 0.000000 35.000000 0.805400 0.157480 0.571429
19.61000061 3.38000011 -1.02999997 126 173 106 0.000000 0.000000 0.000000 0.000000 -8.844074 0.000000 35.000000 0.787783 0.258418 0.559122
19.54000092 3.43000007 -1.02999997 126 173 106 0.000000 0.000000 0.000000 0.000000 -8.844074 0.000000 35.000000 0.752847 0.260419 0.604487
19.51000023 3.40000010 -1.03999996 126 173 106 0.000000 0.000000 0.000000 0.000000 -8.844074 0.000000 35.000000 0.665813 0.646085 0.373184
19.54999924 3.33999991 -1.00000000 126 173 106 0.000000 0.000000 0.000000 0.000000 -8.844074 0.000000 35.000000 0.793542 0.088494 0.602047
19.51000023 3.33999991 -0.97000003 126 173 106 0.000000 0.000000 0.000000 0.000000 -8.844074 0.000000 35.000000 0.735006 0.185670 0.652145
19.52000046 3.31999993 -1.01999998 126 173 106 0.000000 0.000000 0.000000 0.000000 -8.844074 0.000000 35.000000 0.815806 0.243039 0.524778
19.54999924 3.35999990 -1.02999997 126 173 106 0.000000 0.000000 0.000000 0.000000 -8.844074 0.000000 35.000000 0.555648 0.048987 0.829973
19.40999985 3.47000003 -0.93000001 126 173 106 0.000000 0.000000 0.000000 0.000000 -8.844074 0.000000 35.000000 0.679882 0.213144 0.701663
19.45999908 3.40000010 -0.93000001 126 173 106 0.000000 0.000000 0.000000 0.000000 -8.844074 0.000000 35.000000 0.656222 -0.279413 0.700928
19.44000053 3.46000004 -0.94999999 126 173 106 0.000000 0.000000 0.000000 0.000000 -8.844074 0.000000 35.000000 0.479515 0.436964 0.761005
19.45000076 3.42000008 -0.93000001 126 173 106 0.000000 0.000000 0.000000 0.000000 -8.844074 0.000000 35.000000 0.647121 0.392245 0.653741
19.42000008 3.42000008 -0.95999998 126 173 106 0.000000 0.000000 0.000000 0.000000 -8.844074 0.000000 35.000000 0.559007 0.121779 0.820171
19.45000076 3.39000010 -0.99000001 126 173 106 0.000000 0.000000 0.000000 0.000000 -8.844074 0.000000 35.000000 -0.652446 0.213330 -0.727189
19.50000000 3.33999991 -0.95999998 126 173 106 0.000000 0.000000 0.000000 0.000000 -8.844074 0.000000 35.000000 0.575459 -0.190802 0.795262
19.47999954 3.35999990 -0.94000000 126 173 106 0.000000 0.000000 0.000000 0.000000 -8.844074 0.000000 35.000000 0.459041 0.311772 0.831913
19.45000076 3.36999989 -0.93000001 126 173 106 0.000000 0.000000 0.000000 0.000000 -8.844074 0.000000 35.000000 0.522534 0.201440 0.828481
19.45000076 3.38000011 -0.99000001 126 173 106 0.000000 0.000000 0.000000 0.000000 -8.844074 0.000000 35.000000 0.566618 -0.049210 0.822510
19.45000076 3.34999990 -1.02999997 126 173 106 0.000000 0.000000 0.000000 0.000000 -8.844074 0.000000 35.000000 0.721437 0.092192 0.686316
19.29999924 3.56999993 -0.97000003 126 173 106 0.000000 0.000000 0.000000 0.000000 -8.844074 0.000000 35.000000 0.554102 0.159809 0.816965
19.51000023 3.27999997 -0.88999999 126 173 106 0.000000 0.000000 0.000000 0.000000 -8.844074 0.000000 35.000000 0.334759 -0.275771 0.901048
19.46999931 3.28999996 -0.87000000 126 173 106 0.000000 0.000000 0.000000 0.000000 -8.844074 0.000000 35.000000 0.570500 -0.331310 0.751508
19.47999954 3.23000002 -0.89999998 126 173 106 0.000000 0.000000 0.000000 0.000000 -8.844074 0.000000 35.000000 0.091881 0.020538 0.995558
19.45000076 3.22000003 -0.87000000 126 173 106 0.000000 0.000000 0.000000 0.000000 -8.844074 0.000000 35.000000 0.164897 0.103824 0.980831
19.43000031 3.24000001 -0.89999998 126 173 106 0.000000 0.000000 0.000000 0.000000 -8.844074 0.000000 35.000000 0.083846 -0.102223 0.991222
19.43000031 3.25000000 -0.88000000 126 173 106 0.000000 0.000000 0.000000 0.000000 -8.844074 0.000000 35.000000 0.617726 -0.285718 0.732652
19.38999939 3.27999997 -0.92000002 126 173 106 0.000000 0.000000 0.000000 0.000000 -8.844074 0.000000 35.000000 0.113381 -0.154832 0.981413
19.40999985 3.22000003 -0.87000000 126 173 106 0.000000 0.000000 0.000000 0.000000 -8.844074 0.000000 35.000000 0.418674 -0.480579 0.770556
19.29999924 3.27999997 -0.73000002 126 173 106 0.000000 0.000000 0.000000 0.000000 -8.844074 0.000000 35.000000 0.174764 -0.233463 0.956532
19.29999924 3.24000001 -0.70999998 126 173 106 0.000000 0.000000 0.000000 0.000000 -8.844074 0.000000 35.000000 -0.115727 -0.065312 0.991131
19.29999924 3.25000000 -0.73000002 126 173 106 0.000000 0.000000 0.000000 0.000000 -8.844074 0.000000 35.000000 0.064695 -0.211174 0.975305
19.27000046 3.28999996 -0.70999998 126 173 106 0.000000 0.000000 0.000000 0.000000 -8.844074 0.000000 35.000000 -0.221134 -0.461824 0.858963
19.28000069 3.28999996 -0.69999999 126 173 106 0.000000 0.000000 0.000000 0.000000 -8.844074 0.000000 35.000000 -0.051232 -0.189439 0.980555
19.29000092 3.28999996 -0.70999998 126 173 106 0.000000 0.000000 0.000000 0.000000 -8.844074 0.000000 35.000000 0.079049 -0.294167 0.952479
19.27000046 3.27999997 -0.74000001 126 173 106 0.000000 0.000000 0.000000 0.000000 -8.844074 0.000000 35.000000 0.072500 0.113929 0.990840
19.25000000 3.26999998 -0.73000002 126 173 106 0.000000 0.000000 0.000000 0.000000 -8.844074 0.000000 35.000000 -0.314715 -0.011195 0.949120
19.25000000 3.19000006 -0.74000001 126 173 106 0.000000 0.000000 0.000000 0.000000 -8.844074 0.000000 35.000000 -0.336335 -0.373194 0.864642
19.27000046 3.19000006 -0.72000003 126 173 106 0.000000 0.000000 0.000000 0.000000 -8.844074 0.000000 35.000000 -0.435961 -0.163667 0.884958
19.30999947 3.21000004 -0.75000000 126 173 106 0.000000 0.000000 0.000000 0.000000 -8.844074 0.000000 35.000000 0.075022 -0.207847 0.975280
19.26000023 3.20000005 -0.73000002 126 173 106 0.000000 0.000000 0.000000 0.000000 -8.844074 0.000000 35.000000 -0.361743 -0.402458 0.840934
19.25000000 3.20000005 -0.72000003 126 173 106 0.000000 0.000000 0.000000 0.000000 -8.844074 0.000000 35.000000 -0.293781 -0.557391 0.776536
19.20999908 3.24000001 -0.70999998 126 173 106 0.000000 0.000000 0.000000 0.000000 -8.844074 0.000000 35.000000 -0.104890 -0.701727 0.704682
19.23999977 3.25000000 -0.74000001 126 173 106 0.000000 0.000000 0.000000 0.000000 -8.844074 0.000000 35.000000 -0.455409 -0.168399 0.874210
19.20000076 3.28999996 -0.73000002 126 173 106 0.000000 0.000000 0.000000 0.000000 -8.844074 0.000000 35.000000 -0.364966 -0.304391 0.879856
19.19000053 3.27999997 -0.74000001 126 173 106 0.000000 0.000000 0.000000 0.000000 -8.844074 0.000000 35.000000 0.058453 -0.331232 0.941737
19.23999977 3.21000004 -0.72000003 126 173 106 0.000000 0.000000 0.000000 0.000000 -8.844074 0.000000 35.000000 0.495572 0.376118 -0.782907
19.21999931 3.19000006 -0.67000002 126 173 106 0.000000 0.000000 0.000000 0.000000 -8.844074 0.000000 35.000000 0.082114 -0.460671 0.883765
19.17000008 3.20000005 -0.69000000 126 173 106 0.000000 0.000000 0.000000 0.000000 -8.844074 0.000000 35.000000 -0.178540 -0.086233 0.980147
19.20000076 3.20000005 -0.74000001 126 173 106 0.000000 0.000000 0.000000 0.000000 -8.844074 0.000000 35.000000 -0.029380 -0.335948 0.941422
19.18000031 3.18000007 -0.67000002 126 173 106 0.000000 0.000000 0.000000 0.000000 -8.844074 0.000000 35.000000 0.058664 -0.633860 0.771220
19.21999931 3.28999996 -0.79000002 126 173 106 0.000000 0.000000 0.000000 0.000000 -8.844074 0.000000 35.000000 -0.222961 -0.206746 0.952651
19.11000061 3.28999996 -0.66000003 126 173 106 0.000000 0.000000 0.000000 0.000000 -8.844074 0.000000 35.000000 -0.017799 -0.551766 0.833809
19.15999985 3.25999999 -0.66000003 126 173 106 0.000000 0.000000 0.000000 0.000000 -8.844074 0.000000 35.000000 -0.242928 -0.311925 0.918525
19.11000061 3.27999997 -0.67000002 126 173 106 0.000000 0.000000 0.000000 0.000000 -8.844074 0.000000 35.000000 0.074846 -0.406892 0.910405
19.53000069 3.28999996 -0.97000003 126 173 106 0.000000 0.000000 0.000000 0.000000 -8.844074 0.000000 35.000000 0.847639 -0.083770 0.523918
19.51000023 3.27999997 -0.95999998 126 173 106 0.000000 0.000000 0.000000 0.000000 -8.844074 0.000000 35.000000 0.633664 -0.304739 0.711058
18.96999931 4.84000015 -0.70999998 126 173 106 0.000000 0.000000 0.000000 0.000000 -8.844074 0.000000 41.000000 0.894786 0.323076 -0.308188
18.95999908 4.84000015 -0.69000000 126 173 106 0.000000 0.000000 0.000000 0.000000 -8.844074 0.000000 41.000000 0.975176 0.116122 0.188542
18.95000076 4.84000015 -0.73000002 126 173 106 0.000000 0.000000 0.000000 0.000000 -8.844074 0.000000 41.000000 0.883472 0.296497 -0.362720
18.89999962 4.82999992 -0.70999998 126 173 106 0.000000 0.000000 0.000000 0.000000 -8.844074 0.000000 41.000000 0.991659 0.128773 0.005503
18.96999931 4.80000019 -0.69000000 126 173 106 0.000000 0.000000 0.000000 0.000000 -8.844074 0.000000 41.000000 0.767178 0.573398 0.287493
18.96999931 4.80000019 -0.69000000 126 173 106 0.000000 0.000000 0.000000 0.000000 -8.844074 0.000000 41.000000 0.767178 0.573398 0.287493
18.96999931 4.76000023 -0.69000000 126 173 106 0.000000 0.000000 0.000000 0.000000 -8.844074 0.000000 41.000000 0.882616 0.208457 0.421349
18.96999931 4.76000023 -0.69000000 126 173 106 0.000000 0.000000 0.000000 0.000000 -8.844074 0.000000 41.000000 0.882616 0.208457 0.421349
18.92000008 4.65000010 -0.63999999 126 173 106 0.000000 0.000000 0.000000 0.000000 -8.844074 0.000000 41.000000 0.901674 0.140135 0.409080
18.97999954 4.71999979 -0.69999999 126 173 106 0.000000 0.000000 0.000000 0.000000 -8.844074 0.000000 41.000000 0.813615 0.426788 0.394819
18.95000076 4.69999981 -0.67000002 126 173 106 0.000000 0.000000 0.000000 0.000000 -8.844074 0.000000 41.000000 0.840197 0.111351 0.530727
18.95000076 4.67000008 -0.67000002 126 173 106 0.000000 0.000000 0.000000 0.000000 -8.844074 0.000000 41.000000 0.974620 0.212622 0.070055
18.86000061 4.78999996 -0.69000000 126 173 106 0.000000 0.000000 0.000000 0.000000 -8.844074 0.000000 41.000000 0.967531 0.246528 -0.055748
18.86000061 4.67000008 -0.66000003 126 173 106 0.000000 0.000000 0.000000 0.000000 -8.844074 0.000000 41.000000 0.875454 0.209574 0.435498
18.85000038 4.65999985 -0.66000003 126 173 106 0.000000 0.000000 0.000000 0.000000 -8.844074 0.000000 41.000000 0.893962 0.284104 0.346578
18.82999992 4.73000002 -0.67000002 126 173 106 0.000000 0.000000 0.000000 0.000000 -8.844074 0.000000 41.000000 0.759230 0.427989 0.490302
18.78000069 4.73999977 -0.63999999 126 173 106 0.000000 0.000000 0.000000 0.000000 -8.844074 0.000000 41.000000 0.792152 0.504097 0.344066
18.75000000 4.73000002 -0.63000000 126 173 106 0.000000 0.000000 0.000000 0.000000 -8.844074 0.000000 41.000000 0.949663 0.313252 0.003714
18.78000069 4.65000010 -0.61000001 126 173 106 0.000000 0.000000 0.000000 0.000000 -8.844074 0.000000 41.000000 0.679987 -0.095462 0.726984
18.76000023 4.69000006 -0.62000000 126 173 106 0.000000 0.000000 0.000000 0.000000 -8.844074 0.000000 41.000000 0.947489 -0.055281 0.314973
18.78000069 4.69000006 -0.64999998 126 173 106 0.000000 0.000000 0.000000 0.000000 -8.844074 0.000000 41.000000 0.814367 0.115503 0.568741
18.70000076 4.67000008 -0.58999997 126 173 106 0.000000 0.000000 0.000000 0.000000 -8.844074 0.000000 41.000000 0.573540 0.058062 0.817117
18.87999916 4.51000023 -0.50000000 126 173 106 0.000000 0.000000 0.000000 0.000000 -8.844074 0.000000 35.000000 0.802272 -0.023637 0.596490
18.92000008 4.44000006 -0.44999999 126 173 106 0.000000 0.000000 0.000000 0.000000 -8.844074 0.000000 35.000000 0.647773 -0.279902 0.708552
18.82999992 4.44999981 -0.44000000 126 173 106 0.000000 0.000000 0.000000 0.000000 -8.844074 0.000000 35.000000 0.611911 -0.250113 0.750339
18.82999992 4.42999983 -0.56999999 126 173 106 0.000000 0.000000 0.000000 0.000000 -8.844074 0.000000 35.000000 0.635056 -0.199324 0.746307
18.78000069 4.46999979 -0.40000001 126 173 106 0.000000 0.000000 0.000000 0.000000 -8.844074 0.000000 35.000000 0.689862 -0.136770 0.710904
18.79999924 4.44999981 -0.44999999 126 173 106 0.000000 0.000000 0.000000 0.000000 -8.844074 0.000000 35.000000 0.747364 -0.070833 0.660629
18.81999969 4.44999981 -0.47999999 126 173 106 0.000000 0.000000 0.000000 0.000000 -8.844074 0.000000 35.000000 0.646187 -0.315806 0.694773
18.77000046 4.40999985 -0.43000001 126 173 106 0.000000 0.000000 0.000000 0.000000 -8.844074 0.000000 35.000000 0.532258 -0.379254 0.756880
18.78000069 4.42000008 -0.54000002 126 173 106 0.000000 0.000000 0.000000 0.000000 -8.844074 0.000000 35.000000 0.720498 -0.082966 0.688476
18.79000092 4.38000011 -0.54000002 126 173 106 0.000000 0.000000 0.000000 0.000000 -8.844074 0.000000 35.000000 0.472541 -0.330305 0.817070
18.80999947 4.34999990 -0.54000002 126 173 106 0.000000 0.000000 0.000000 0.000000 -8.844074 0.000000 35.000000 0.048924 -0.194504 0.979681
18.78000069 4.36999989 -0.54000002 126 173 106 0.000000 0.000000 0.000000 0.000000 -8.844074 0.000000 35.000000 0.426363 -0.416710 0.802850
18.77000046 4.32999992 -0.55000001 126 173 106 0.000000 0.000000 0.000000 0.000000 -8.844074 0.000000 35.000000 0.563017 -0.234203 0.792566
18.71999931 4.40000010 -0.55000001 126 173 106 0.000000 0.000000 0.000000 0.000000 -8.844074 0.000000 35.000000 -0.119094 -0.265672 0.956679
18.94000053 4.59999990 -0.66000003 126 173 106 0.000000 0.000000 0.000000 0.000000 -8.844074 0.000000 41.000000 0.914262 -0.035724 0.403545
18.95999908 4.61999989 -0.69000000 126 173 106 0.000000 0.000000 0.000000 0.000000 -8.844074 0.000000 41.000000 0.981327 0.133539 0.138439
18.97999954 4.63000011 -0.67000002 126 173 106 0.000000 0.000000 0.000000 0.000000 -8.844074 0.000000 41.000000 0.925269 0.278008 0.258049
18.98999977 4.59000015 -0.69999999 126 173 106 0.000000 0.000000 0.000000 0.000000 -8.844074 0.000000 41.000000 0.799516 0.429519 0.419867
18.88999939 4.61000013 -0.63000000 126 173 106 0.000000 0.000000 0.000000 0.000000 -8.844074 0.000000 41.000000 0.875387 0.444336 0.190430
18.87000084 4.63000011 -0.63000000 126 173 106 0.000000 0.000000 0.000000 0.000000 -8.844074 0.000000 41.000000 0.562800 0.623643 0.542518
18.88999939 4.59999990 -0.60000002 126 173 106 0.000000 0.000000 0.000000 0.000000 -8.844074 0.000000 41.000000 0.552155 0.606188 0.572417
18.87000084 4.59999990 -0.63999999 126 173 106 0.000000 0.000000 0.000000 0.000000 -8.844074 0.000000 41.000000 0.773609 0.460908 0.434849
18.82999992 4.57999992 -0.58999997 126 173 106 0.000000 0.000000 0.000000 0.000000 -8.844074 0.000000 41.000000 0.668638 0.391277 0.632317
18.86000061 4.53999996 -0.58999997 126 173 106 0.000000 0.000000 0.000000 0.000000 -8.844074 0.000000 41.000000 0.862835 0.214583 0.457678
18.95999908 4.44000006 -0.70999998 126 173 106 0.000000 0.000000 0.000000 0.000000 -8.844074 0.000000 35.000000 0.867700 0.489580 0.086065
18.96999931 4.42999983 -0.70999998 126 173 106 0.000000 0.000000 0.000000 0.000000 -8.844074 0.000000 35.000000 0.919991 0.381857 0.088330
18.95000076 4.46999979 -0.68000001 126 173 106 0.000000 0.000000 0.000000 0.000000 -8.844074 0.000000 35.000000 0.718082 0.456057 0.525709
18.90999985 4.42999983 -0.69000000 126 173 106 0.000000 0.000000 0.000000 0.000000 -8.844074 0.000000 35.000000 0.899910 -0.036103 0.434578
18.88999939 4.32999992 -0.68000001 126 173 106 0.000000 0.000000 0.000000 0.000000 -8.844074 0.000000 35.000000 0.309535 0.327479 0.892718
18.79000092 4.63999987 -0.62000000 126 173 106 0.000000 0.000000 0.000000 0.000000 -8.844074 0.000000 41.000000 0.586210 0.445921 0.676396
18.80999947 4.63000011 -0.63999999 126 173 106 0.000000 0.000000 0.000000 0.000000 -8.844074 0.000000 41.000000 0.848441 0.331593 0.412545
18.79000092 4.57999992 -0.61000001 126 173 106 0.000000 0.000000 0.000000 0.000000 -8.844074 0.000000 41.000000 0.684361 0.530422 0.500303
18.80999947 4.59999990 -0.66000003 126 173 106 0.000000 0.000000 0.000000 0.000000 -8.844074 0.000000 41.000000 0.875549 -0.065215 0.478707
18.76000023 4.61000013 -0.60000002 126 173 106 0.000000 0.000000 0.000000 0.000000 -8.844074 0.000000 41.000000 0.521376 0.507964 0.685668
18.78000069 4.59000015 -0.61000001 126 173 106 0.000000 0.000000 0.000000 0.000000 -8.844074 0.000000 41.000000 0.729841 0.471666 0.494836
18.79999924 4.53999996 -0.58999997 126 173 106 0.000000 0.000000 0.000000 0.000000 -8.844074 0.000000 41.000000 0.800158 0.004117 0.599775
18.70999908 4.46999979 -0.69999999 126 173 106 0.000000 0.000000 0.000000 0.000000 -8.844074 0.000000 35.000000 0.532878 -0.209181 0.819930
18.69000053 4.44000006 -0.67000002 126 173 106 0.000000 0.000000 0.000000 0.000000 -8.844074 0.000000 35.000000 0.465802 -0.265953 0.843977
18.69000053 4.40999985 -0.69000000 126 173 106 0.000000 0.000000 0.000000 0.000000 -8.844074 0.000000 35.000000 -0.039791 -0.503557 0.863045
18.65999985 4.40000010 -0.67000002 126 173 106 0.000000 0.000000 0.000000 0.000000 -8.844074 0.000000 35.000000 0.047900 -0.477631 0.877254
18.65999985 4.40999985 -0.67000002 126 173 106 0.000000 0.000000 0.000000 0.000000 -8.844074 0.000000 35.000000 -0.116871 -0.432282 0.894133
18.68000031 4.40999985 -0.67000002 126 173 106 0.000000 0.000000 0.000000 0.000000 -8.844074 0.000000 35.000000 -0.144169 -0.047287 0.988423
18.67000008 4.40999985 -0.67000002 126 173 106 0.000000 0.000000 0.000000 0.000000 -8.844074 0.000000 35.000000 0.171222 -0.321563 0.931279
18.72999954 4.32000017 -0.75000000 126 173 106 0.000000 0.000000 0.000000 0.000000 -8.844074 0.000000 35.000000 0.015961 0.075548 0.997014
18.70999908 4.32999992 -0.75000000 126 173 106 0.000000 0.000000 0.000000 0.000000 -8.844074 0.000000 35.000000 0.076024 -0.287344 0.954806
18.76000023 4.36000013 -0.79000002 126 173 106 0.000000 0.000000 0.000000 0.000000 -8.844074 0.000000 35.000000 0.566679 0.553146 0.610660
18.71999931 4.42000008 -0.80000001 126 173 106 0.000000 0.000000 0.000000 0.000000 -8.844074 0.000000 35.000000 0.760752 0.640091 0.107418
18.72999954 4.40000010 -0.81000000 126 173 106 0.000000 0.000000 0.000000 0.000000 -8.844074 0.000000 35.000000 0.636550 0.769815 -0.046784
18.95999908 4.30000019 -0.75000000 126 173 106 0.000000 0.000000 0.000000 0.000000 -8.844074 0.000000 35.000000 0.655439 0.413175 0.632208
18.94000053 4.28000021 -0.74000001 126 173 106 0.000000 0.000000 0.000000 0.000000 -8.844074 0.000000 35.000000 0.487897 0.264859 0.831749
18.94000053 4.28000021 -0.74000001 126 173 106 0.000000 0.000000 0.000000 0.000000 -8.844074 0.000000 35.000000 0.487897 0.264859 0.831749
18.93000031 4.28999996 -0.74000001 126 173 106 0.000000 0.000000 0.000000 0.000000 -8.844074 0.000000 35.000000 0.533891 0.343561 0.772610
18.94000053 4.26000023 -0.73000002 126 173 106 0.000000 0.000000 0.000000 0.000000 -8.844074 0.000000 35.000000 0.363609 0.140707 0.920864
