//X Y Z R G B PointSourceId ScanDirectionFlag NumberOfReturns ReturnNumber GpsTime Intensity Classification Nx Ny Nz
16.30999947 -3.46000004 -0.50999999 137 51 161 0.000000 0.000000 0.000000 0.000000 -8.844074 0.000000 239.000000 0.424517 0.674233 -0.604313
16.38999939 -3.36999989 -0.63000000 137 51 161 0.000000 0.000000 0.000000 0.000000 -8.844074 0.000000 239.000000 0.495063 0.796267 -0.347666
16.44000053 -3.30999994 -0.69999999 137 51 161 0.000000 0.000000 0.000000 0.000000 -8.844074 0.000000 239.000000 0.577404 0.751108 -0.320065
16.40999985 -3.35999990 -0.68000001 137 51 161 0.000000 0.000000 0.000000 0.000000 -8.844074 0.000000 239.000000 0.320082 0.760797 -0.564566
16.35000038 -3.45000005 -0.58999997 137 51 161 0.000000 0.000000 0.000000 0.000000 -8.844074 0.000000 239.000000 -0.596057 -0.310078 0.740653
16.31999969 -3.40000010 -0.62000000 137 51 161 0.000000 0.000000 0.000000 0.000000 -8.844074 0.000000 239.000000 0.347397 0.904405 -0.247722
16.30999947 -3.42000008 -0.63999999 137 51 161 0.000000 0.000000 0.000000 0.000000 -8.844074 0.000000 239.000000 0.696948 0.326542 -0.638463
16.29999924 -3.44000006 -0.60000002 137 51 161 0.000000 0.000000 0.000000 0.000000 -8.844074 0.000000 239.000000 0.261232 0.729866 -0.631706
16.29999924 -3.42000008 -0.67000002 137 51 161 0.000000 0.000000 0.000000 0.000000 -8.844074 0.000000 239.000000 0.331455 0.916883 -0.222405
16.37999916 -3.40000010 -0.82999998 137 51 161 0.000000 0.000000 0.000000 0.000000 -8.844074 0.000000 239.000000 0.863730 0.488822 -0.122566
16.40999985 -3.42000008 -0.79000002 137 51 161 0.000000 0.000000 0.000000 0.000000 -8.844074 0.000000 239.000000 0.837491 0.313474 -0.447597
16.37000084 -3.38000011 -0.77999997 137 51 161 0.000000 0.000000 0.000000 0.000000 -8.844074 0.000000 239.000000 0.650743 0.676838 -0.344127
16.37999916 -3.46000004 -0.95999998 137 51 161 0.000000 0.000000 0.000000 0.000000 -8.844074 0.000000 239.000000 0.705177 0.596689 -0.382998
16.38999939 -3.45000005 -1.07000005 137 51 161 0.000000 0.000000 0.000000 0.000000 -8.844074 0.000000 239.000000 0.796868 0.404068 -0.449144
16.39999962 -3.44000006 -1.05999994 137 51 161 0.000000 0.000000 0.000000 0.000000 -8.844074 0.000000 239.000000 0.938621 0.316496 -0.137193
16.36000061 -3.45000005 -1.07000005 137 51 161 0.000000 0.000000 0.000000 0.000000 -8.844074 0.000000 239.000000 0.714836 0.535713 -0.449468
16.62999916 -3.53999996 -0.25999999 137 51 161 0.000000 0.000000 0.000000 0.000000 -8.844074 0.000000 239.000000 0.910492 -0.266592 -0.316123
16.64999962 -3.56999993 -0.25000000 137 51 161 0.000000 0.000000 0.000000 0.000000 -8.844074 0.000000 239.000000 0.762499 -0.396761 -0.511054
16.65999985 -3.55999994 -0.25000000 137 51 161 0.000000 0.000000 0.000000 0.000000 -8.844074 0.000000 239.000000 0.819299 -0.340714 -0.461153
16.62999916 -3.53999996 -0.25999999 137 51 161 0.000000 0.000000 0.000000 0.000000 -8.844074 0.000000 239.000000 0.910492 -0.266592 -0.316123
16.68000031 -3.51999998 -0.25000000 137 51 161 0.000000 0.000000 0.000000 0.000000 -8.844074 0.000000 239.000000 0.915760 -0.376091 -0.141209
16.62999916 -3.53999996 -0.25999999 137 51 161 0.000000 0.000000 0.000000 0.000000 -8.844074 0.000000 239.000000 0.910492 -0.266592 -0.316123
16.62999916 -3.53999996 -0.27000001 137 51 161 0.000000 0.000000 0.000000 0.000000 -8.844074 0.000000 239.000000 0.917980 -0.281899 -0.279008
16.67000008 -3.51999998 -0.25000000 137 51 161 0.000000 0.000000 0.000000 0.000000 -8.844074 0.000000 239.000000 0.596999 -0.430704 -0.676821
16.61000061 -3.47000003 -0.28000000 137 51 161 0.000000 0.000000 0.000000 0.000000 -8.844074 0.000000 239.000000 0.816975 -0.399729 -0.415654
16.62000084 -3.47000003 -0.28000000 137 51 161 0.000000 0.000000 0.000000 0.000000 -8.844074 0.000000 239.000000 0.705835 -0.340691 -0.621069
16.60000038 -3.52999997 -0.25999999 137 51 161 0.000000 0.000000 0.000000 0.000000 -8.844074 0.000000 239.000000 0.903860 -0.427731 -0.009156
16.60000038 -3.52999997 -0.27000001 137 51 161 0.000000 0.000000 0.000000 0.000000 -8.844074 0.000000 239.000000 0.926726 -0.375561 -0.011536
16.55999947 -3.49000001 -0.27000001 137 51 161 0.000000 0.000000 0.000000 0.000000 -8.844074 0.000000 239.000000 0.872030 -0.482906 -0.079784
16.55999947 -3.50000000 -0.31000000 137 51 161 0.000000 0.000000 0.000000 0.000000 -8.844074 0.000000 239.000000 0.861956 -0.166497 -0.478864
16.56999969 -3.49000001 -0.31999999 137 51 161 0.000000 0.000000 0.000000 0.000000 -8.844074 0.000000 239.000000 0.902932 -0.369050 -0.220263
16.55999947 -3.49000001 -0.31999999 137 51 161 0.000000 0.000000 0.000000 0.000000 -8.844074 0.000000 239.000000 0.817363 -0.344403 -0.461850
16.57999992 -3.53999996 -0.31999999 137 51 161 0.000000 0.000000 0.000000 0.000000 -8.844074 0.000000 239.000000 -0.601516 0.611625 0.513900
16.54999924 -3.50000000 -0.33000001 137 51 161 0.000000 0.000000 0.000000 0.000000 -8.844074 0.000000 239.000000 0.916617 -0.255498 -0.307464
16.54999924 -3.55999994 -0.31999999 137 51 161 0.000000 0.000000 0.000000 0.000000 -8.844074 0.000000 239.000000 0.861743 -0.495895 -0.107182
16.47999954 -3.53999996 -0.30000001 137 51 161 0.000000 0.000000 0.000000 0.000000 -8.844074 0.000000 239.000000 -0.479382 0.863474 -0.156862
16.50000000 -3.52999997 -0.30000001 137 51 161 0.000000 0.000000 0.000000 0.000000 -8.844074 0.000000 239.000000 -0.406615 0.898001 -0.168106
16.54000092 -3.52999997 -0.36000001 137 51 161 0.000000 0.000000 0.000000 0.000000 -8.844074 0.000000 239.000000 0.765618 -0.422804 -0.484837
16.52000046 -3.50999999 -0.34999999 137 51 161 0.000000 0.000000 0.000000 0.000000 -8.844074 0.000000 239.000000 0.816561 -0.431361 -0.383609
16.52000046 -3.51999998 -0.38999999 137 51 161 0.000000 0.000000 0.000000 0.000000 -8.844074 0.000000 239.000000 0.876504 -0.372172 -0.305333
16.52000046 -3.51999998 -0.38999999 137 51 161 0.000000 0.000000 0.000000 0.000000 -8.844074 0.000000 239.000000 0.876504 -0.372172 -0.305333
16.48999977 -3.48000002 -0.36000001 137 51 161 0.000000 0.000000 0.000000 0.000000 -8.844074 0.000000 239.000000 -0.572652 0.407622 0.711276
16.47999954 -3.47000003 -0.40000001 137 51 161 0.000000 0.000000 0.000000 0.000000 -8.844074 0.000000 239.000000 0.928212 0.151233 -0.339928
16.47999954 -3.50000000 -0.38000000 137 51 161 0.000000 0.000000 0.000000 0.000000 -8.844074 0.000000 239.000000 -0.713722 0.379011 0.589026
16.50000000 -3.54999995 -0.34999999 137 51 161 0.000000 0.000000 0.000000 0.000000 -8.844074 0.000000 239.000000 0.565386 -0.616017 -0.548509
16.48999977 -3.56999993 -0.30000001 137 51 161 0.000000 0.000000 0.000000 0.000000 -8.844074 0.000000 239.000000 -0.456388 0.883104 -0.108798
16.48999977 -3.55999994 -0.31000000 137 51 161 0.000000 0.000000 0.000000 0.000000 -8.844074 0.000000 239.000000 -0.408250 0.792295 0.453432
16.48999977 -3.50999999 -0.41999999 137 51 161 0.000000 0.000000 0.000000 0.000000 -8.844074 0.000000 239.000000 0.894756 -0.153182 -0.419461
16.29000092 -3.49000001 -0.41000000 137 51 161 0.000000 0.000000 0.000000 0.000000 -8.844074 0.000000 239.000000 0.434747 0.661282 -0.611311
16.39999962 -3.47000003 -0.44000000 137 51 161 0.000000 0.000000 0.000000 0.000000 -8.844074 0.000000 239.000000 0.804448 -0.271286 -0.528458
16.40999985 -3.50000000 -0.50000000 137 51 161 0.000000 0.000000 0.000000 0.000000 -8.844074 0.000000 239.000000 0.934881 -0.340323 -0.100886
16.40999985 -3.50000000 -0.50000000 137 51 161 0.000000 0.000000 0.000000 0.000000 -8.844074 0.000000 239.000000 0.934881 -0.340323 -0.100886
16.42000008 -3.48000002 -0.51999998 137 51 161 0.000000 0.000000 0.000000 0.000000 -8.844074 0.000000 239.000000 0.725374 -0.307198 -0.616005
16.29999924 -3.49000001 -0.49000001 137 51 161 0.000000 0.000000 0.000000 0.000000 -8.844074 0.000000 239.000000 0.318149 0.907532 -0.274166
16.29000092 -3.49000001 -0.50999999 137 51 161 0.000000 0.000000 0.000000 0.000000 -8.844074 0.000000 239.000000 0.072847 0.818462 -0.569924
16.34000015 -3.48000002 -0.58999997 137 51 161 0.000000 0.000000 0.000000 0.000000 -8.844074 0.000000 239.000000 0.884664 -0.258963 -0.387695
16.30999947 -3.49000001 -0.62000000 137 51 161 0.000000 0.000000 0.000000 0.000000 -8.844074 0.000000 239.000000 0.866618 -0.284811 -0.409702
16.25000000 -3.46000004 -0.46000001 137 51 161 0.000000 0.000000 0.000000 0.000000 -8.844074 0.000000 239.000000 0.753671 -0.082773 -0.652019
16.27000046 -3.45000005 -0.44999999 137 51 161 0.000000 0.000000 0.000000 0.000000 -8.844074 0.000000 239.000000 0.897533 -0.267633 -0.350437
16.28000069 -3.43000007 -0.46000001 137 51 161 0.000000 0.000000 0.000000 0.000000 -8.844074 0.000000 239.000000 -0.572521 0.769176 0.283881
16.28000069 -3.42000008 -0.50000000 137 51 161 0.000000 0.000000 0.000000 0.000000 -8.844074 0.000000 239.000000 0.012741 0.981032 0.193427
16.26000023 -3.42000008 -0.50000000 137 51 161 0.000000 0.000000 0.000000 0.000000 -8.844074 0.000000 239.000000 -0.449422 0.892055 -0.047522
16.27000046 -3.41000009 -0.50000000 137 51 161 0.000000 0.000000 0.000000 0.000000 -8.844074 0.000000 239.000000 -0.144482 0.988258 0.049702
16.28000069 -3.41000009 -0.51999998 137 51 161 0.000000 0.000000 0.000000 0.000000 -8.844074 0.000000 239.000000 -0.145820 0.960311 0.237779
16.27000046 -3.42000008 -0.51999998 137 51 161 0.000000 0.000000 0.000000 0.000000 -8.844074 0.000000 239.000000 -0.193750 0.966149 -0.170344
16.25000000 -3.41000009 -0.57999998 137 51 161 0.000000 0.000000 0.000000 0.000000 -8.844074 0.000000 239.000000 -0.533956 0.832735 -0.146431
16.27000046 -3.41000009 -0.57999998 137 51 161 0.000000 0.000000 0.000000 0.000000 -8.844074 0.000000 239.000000 -0.030436 0.967876 -0.249578
16.26000023 -3.41000009 -0.56999999 137 51 161 0.000000 0.000000 0.000000 0.000000 -8.844074 0.000000 239.000000 0.022882 0.994809 0.099154
16.22999954 -3.46000004 -0.52999997 137 51 161 0.000000 0.000000 0.000000 0.000000 -8.844074 0.000000 239.000000 0.748968 -0.498764 -0.436212
16.21999931 -3.46000004 -0.56000000 137 51 161 0.000000 0.000000 0.000000 0.000000 -8.844074 0.000000 239.000000 0.761249 -0.469846 -0.446927
16.21999931 -3.45000005 -0.56000000 137 51 161 0.000000 0.000000 0.000000 0.000000 -8.844074 0.000000 239.000000 -0.659850 0.599712 0.452707
16.21999931 -3.46000004 -0.55000001 137 51 161 0.000000 0.000000 0.000000 0.000000 -8.844074 0.000000 239.000000 0.644348 -0.395885 -0.654287
16.21999931 -3.45000005 -0.56000000 137 51 161 0.000000 0.000000 0.000000 0.000000 -8.844074 0.000000 239.000000 -0.659850 0.599712 0.452707
15.97000027 -3.43000007 -0.43000001 137 51 161 0.000000 0.000000 0.000000 0.000000 -8.844074 0.000000 243.000000 0.814634 -0.287241 -0.503849
16.28000069 -3.42000008 -0.61000001 137 51 161 0.000000 0.000000 0.000000 0.000000 -8.844074 0.000000 239.000000 0.155908 0.728077 -0.667530
16.21999931 -3.45000005 -0.62000000 137 51 161 0.000000 0.000000 0.000000 0.000000 -8.844074 0.000000 239.000000 -0.048649 0.981289 -0.186291
16.21999931 -3.45000005 -0.63000000 137 51 161 0.000000 0.000000 0.000000 0.000000 -8.844074 0.000000 239.000000 -0.023387 0.999540 0.019320
16.25000000 -3.40000010 -0.68000001 137 51 161 0.000000 0.000000 0.000000 0.000000 -8.844074 0.000000 239.000000 0.012770 0.980945 -0.193867
16.25000000 -3.45000005 -0.72000003 137 51 161 0.000000 0.000000 0.000000 0.000000 -8.844074 0.000000 239.000000 0.467414 0.671803 -0.574634
16.23999977 -3.40000010 -0.69999999 137 51 161 0.000000 0.000000 0.000000 0.000000 -8.844074 0.000000 239.000000 0.206010 0.976415 0.064607
16.23999977 -3.46000004 -0.74000001 137 51 161 0.000000 0.000000 0.000000 0.000000 -8.844074 0.000000 239.000000 0.527727 0.578308 -0.622145
16.22999954 -3.45000005 -0.74000001 137 51 161 0.000000 0.000000 0.000000 0.000000 -8.844074 0.000000 239.000000 0.721653 0.479443 -0.499351
16.23999977 -3.45000005 -0.73000002 137 51 161 0.000000 0.000000 0.000000 0.000000 -8.844074 0.000000 239.000000 0.449000 0.686019 -0.572517
16.21999931 -3.44000006 -0.72000003 137 51 161 0.000000 0.000000 0.000000 0.000000 -8.844074 0.000000 239.000000 0.044197 0.997131 -0.061445
16.22999954 -3.45000005 -0.73000002 137 51 161 0.000000 0.000000 0.000000 0.000000 -8.844074 0.000000 239.000000 0.380320 0.703015 -0.600938
16.18000031 -3.46000004 -0.60000002 137 51 161 0.000000 0.000000 0.000000 0.000000 -8.844074 0.000000 239.000000 0.686992 -0.724282 -0.058803
16.19000053 -3.40000010 -0.75000000 137 51 161 0.000000 0.000000 0.000000 0.000000 -8.844074 0.000000 239.000000 0.000978 0.999999 -0.000978
16.19000053 -3.45000005 -0.75000000 137 51 161 0.000000 0.000000 0.000000 0.000000 -8.844074 0.000000 239.000000 0.235969 0.967852 -0.087069
16.18000031 -3.45000005 -0.75000000 137 51 161 0.000000 0.000000 0.000000 0.000000 -8.844074 0.000000 239.000000 0.348805 0.875821 -0.333574
16.20999908 -3.36999989 -0.82999998 137 51 161 0.000000 0.000000 0.000000 0.000000 -8.844074 0.000000 239.000000 0.052114 0.994594 -0.089813
16.15999985 -3.38000011 -0.76999998 137 51 161 0.000000 0.000000 0.000000 0.000000 -8.844074 0.000000 239.000000 -0.061015 0.967524 -0.245305
16.18000031 -3.44000006 -0.75999999 137 51 161 0.000000 0.000000 0.000000 0.000000 -8.844074 0.000000 239.000000 0.139370 0.880759 -0.452592
16.13999939 -3.40000010 -0.77999997 137 51 161 0.000000 0.000000 0.000000 0.000000 -8.844074 0.000000 239.000000 -0.418568 0.874643 -0.244540
16.14999962 -3.39000010 -0.76999998 137 51 161 0.000000 0.000000 0.000000 0.000000 -8.844074 0.000000 239.000000 -0.032878 0.997995 -0.054089
16.13999939 -3.39000010 -0.82999998 137 51 161 0.000000 0.000000 0.000000 0.000000 -8.844074 0.000000 239.000000 -0.116692 0.990147 0.077409
16.12000084 -3.41000009 -0.80000001 137 51 161 0.000000 0.000000 0.000000 0.000000 -8.844074 0.000000 239.000000 0.036446 0.981696 0.186934
16.12000084 -3.39000010 -0.87000000 137 51 161 0.000000 0.000000 0.000000 0.000000 -8.844074 0.000000 239.000000 0.300310 0.929129 -0.215716
16.12999916 -3.39000010 -0.85000002 137 51 161 0.000000 0.000000 0.000000 0.000000 -8.844074 0.000000 239.000000 0.149096 0.936980 -0.315974
16.12999916 -3.40000010 -0.86000001 137 51 161 0.000000 0.000000 0.000000 0.000000 -8.844074 0.000000 239.000000 0.342950 0.938261 -0.045295
16.04000092 -3.46000004 -0.74000001 137 51 161 0.000000 0.000000 0.000000 0.000000 -8.844074 0.000000 239.000000 0.752776 -0.658157 -0.012523
16.07999992 -3.35999990 -0.89999998 137 51 161 0.000000 0.000000 0.000000 0.000000 -8.844074 0.000000 239.000000 0.211545 0.972604 -0.096384
16.07999992 -3.35999990 -0.89999998 137 51 161 0.000000 0.000000 0.000000 0.000000 -8.844074 0.000000 239.000000 0.211545 0.972604 -0.096384
16.07999992 -3.39000010 -0.75999999 137 51 161 0.000000 0.000000 0.000000 0.000000 -8.844074 0.000000 239.000000 -0.238700 0.903544 -0.355853
16.07999992 -3.40000010 -0.81000000 137 51 161 0.000000 0.000000 0.000000 0.000000 -8.844074 0.000000 239.000000 -0.465445 0.839657 0.279886
16.06999969 -3.42000008 -0.83999997 137 51 161 0.000000 0.000000 0.000000 0.000000 -8.844074 0.000000 239.000000 -0.634035 0.762334 -0.129791
16.05999947 -3.44000006 -0.92000002 137 51 161 0.000000 0.000000 0.000000 0.000000 -8.844074 0.000000 239.000000 0.062429 0.997802 0.022220
16.03000069 -3.38000011 -0.87000000 137 51 161 0.000000 0.000000 0.000000 0.000000 -8.844074 0.000000 239.000000 -0.262692 0.964818 0.010895
16.03000069 -3.38000011 -0.88000000 137 51 161 0.000000 0.000000 0.000000 0.000000 -8.844074 0.000000 239.000000 -0.390060 0.902463 -0.182796
16.04000092 -3.38000011 -0.98000002 137 51 161 0.000000 0.000000 0.000000 0.000000 -8.844074 0.000000 239.000000 -0.350046 0.935625 0.045545
16.05999947 -3.35999990 -1.00000000 137 51 161 0.000000 0.000000 0.000000 0.000000 -8.844074 0.000000 239.000000 0.032115 0.800090 -0.599020
16.06999969 -3.33999991 -0.98000002 137 51 161 0.000000 0.000000 0.000000 0.000000 -8.844074 0.000000 239.000000 -0.130816 0.981734 -0.138152
16.09000015 -3.33999991 -0.98000002 137 51 161 0.000000 0.000000 0.000000 0.000000 -8.844074 0.000000 239.000000 0.323939 0.894190 -0.309011
16.04999924 -3.39000010 -0.93000001 137 51 161 0.000000 0.000000 0.000000 0.000000 -8.844074 0.000000 239.000000 -0.382443 0.920295 0.082435
16.04999924 -3.39000010 -0.94000000 137 51 161 0.000000 0.000000 0.000000 0.000000 -8.844074 0.000000 239.000000 -0.013505 0.958847 -0.283603
16.04000092 -3.41000009 -0.95999998 137 51 161 0.000000 0.000000 0.000000 0.000000 -8.844074 0.000000 239.000000 -0.293759 0.955647 0.021071
16.04000092 -3.43000007 -1.08000004 137 51 161 0.000000 0.000000 0.000000 0.000000 -8.844074 0.000000 239.000000 0.263583 0.963140 0.053716
16.01000023 -3.45000005 -1.00000000 137 51 161 0.000000 0.000000 0.000000 0.000000 -8.844074 0.000000 239.000000 -0.218279 0.975766 -0.015339
16.00000000 -3.42000008 -1.01999998 137 51 161 0.000000 0.000000 0.000000 0.000000 -8.844074 0.000000 239.000000 -0.393482 0.918997 0.024838
15.98999977 -3.44000006 -1.02999997 137 51 161 0.000000 0.000000 0.000000 0.000000 -8.844074 0.000000 239.000000 -0.448533 0.852672 -0.267895
15.97000027 -3.44000006 -1.01999998 137 51 161 0.000000 0.000000 0.000000 0.000000 -8.844074 0.000000 239.000000 -0.231867 0.890545 -0.391367
15.96000004 -3.43000007 -1.11000001 137 51 161 0.000000 0.000000 0.000000 0.000000 -8.844074 0.000000 239.000000 -0.194565 0.930833 -0.309345
15.96000004 -3.36999989 -1.11000001 137 51 161 0.000000 0.000000 0.000000 0.000000 -8.844074 0.000000 239.000000 0.213822 0.965438 -0.149027
15.93000031 -3.33999991 -1.14999998 137 51 161 0.000000 0.000000 0.000000 0.000000 -8.844074 0.000000 239.000000 -0.328865 0.942399 0.061093
15.93999958 -3.35999990 -1.13999999 137 51 161 0.000000 0.000000 0.000000 0.000000 -8.844074 0.000000 239.000000 0.124131 0.989570 -0.073087
15.89000034 -3.32999992 -1.21000004 137 51 161 0.000000 0.000000 0.000000 0.000000 -8.844074 0.000000 239.000000 -0.267006 0.957314 -0.110710
15.90999985 -3.41000009 -1.16999996 137 51 161 0.000000 0.000000 0.000000 0.000000 -8.844074 0.000000 239.000000 -0.159161 0.953629 0.255460
15.89999962 -3.45000005 -1.16999996 137 51 161 0.000000 0.000000 0.000000 0.000000 -8.844074 0.000000 239.000000 -0.150731 0.953741 -0.260111
15.89999962 -3.41000009 -1.25000000 137 51 161 0.000000 0.000000 0.000000 0.000000 -8.844074 0.000000 239.000000 0.146033 0.977295 0.153521
15.89999962 -3.42000008 -1.22000003 137 51 161 0.000000 0.000000 0.000000 0.000000 -8.844074 0.000000 239.000000 -0.180943 0.973044 0.142983
15.86999989 -3.33999991 -1.28999996 137 51 161 0.000000 0.000000 0.000000 0.000000 -8.844074 0.000000 239.000000 0.160928 0.986950 0.005627
15.89999962 -3.42000008 -1.27999997 137 51 161 0.000000 0.000000 0.000000 0.000000 -8.844074 0.000000 239.000000 0.169332 0.925031 -0.340064
15.89000034 -3.42000008 -1.27999997 137 51 161 0.000000 0.000000 0.000000 0.000000 -8.844074 0.000000 239.000000 0.037532 0.935723 -0.350734
15.89000034 -3.41000009 -1.27999997 137 51 161 0.000000 0.000000 0.000000 0.000000 -8.844074 0.000000 239.000000 -0.004038 0.851975 -0.523567
15.82999992 -3.34999990 -1.33000004 137 51 161 0.000000 0.000000 0.000000 0.000000 -8.844074 0.000000 239.000000 -0.190028 0.936270 -0.295445
15.84000015 -3.35999990 -1.36000001 137 51 161 0.000000 0.000000 0.000000 0.000000 -8.844074 0.000000 239.000000 -0.109408 0.984669 -0.135858
15.82999992 -3.36999989 -1.37000000 137 51 161 0.000000 0.000000 0.000000 0.000000 -8.844074 0.000000 239.000000 -0.092603 0.976651 -0.193849
15.78999996 -3.29999995 -1.36000001 137 51 161 0.000000 0.000000 0.000000 0.000000 -8.844074 0.000000 239.000000 -0.326794 0.907111 -0.265246
15.78999996 -3.29999995 -1.36000001 137 51 161 0.000000 0.000000 0.000000 0.000000 -8.844074 0.000000 239.000000 -0.326794 0.907111 -0.265246
15.80000019 -3.38000011 -1.37000000 137 51 161 0.000000 0.000000 0.000000 0.000000 -8.844074 0.000000 239.000000 -0.073259 0.996099 -0.049204
15.80000019 -3.38000011 -1.41999996 137 51 161 0.000000 0.000000 0.000000 0.000000 -8.844074 0.000000 239.000000 0.249704 0.964591 0.084925
16.27000046 -3.48000002 -0.41999999 137 51 161 0.000000 0.000000 0.000000 0.000000 -8.844074 0.000000 239.000000 0.760701 0.110782 -0.639579
16.23999977 -3.48000002 -0.52999997 137 51 161 0.000000 0.000000 0.000000 0.000000 -8.844074 0.000000 239.000000 0.979515 0.029468 -0.199203
16.21999931 -3.53999996 -0.56999999 137 51 161 0.000000 0.000000 0.000000 0.000000 -8.844074 0.000000 239.000000 0.352054 0.873278 -0.336814
16.20999908 -3.52999997 -0.57999998 137 51 161 0.000000 0.000000 0.000000 0.000000 -8.844074 0.000000 239.000000 0.526462 0.690251 -0.496379
16.22999954 -3.52999997 -0.56000000 137 51 161 0.000000 0.000000 0.000000 0.000000 -8.844074 0.000000 239.000000 0.265912 0.695829 -0.667168
16.20000076 -3.52999997 -0.57999998 137 51 161 0.000000 0.000000 0.000000 0.000000 -8.844074 0.000000 239.000000 0.554068 0.655113 -0.513649
15.98999977 -3.49000001 -0.38999999 137 51 161 0.000000 0.000000 0.000000 0.000000 -8.844074 0.000000 243.000000 0.860648 0.282806 -0.423445
15.98999977 -3.58999991 -0.41000000 137 51 161 0.000000 0.000000 0.000000 0.000000 -8.844074 0.000000 243.000000 0.885040 0.117911 -0.450334
16.01000023 -3.53999996 -0.41000000 137 51 161 0.000000 0.000000 0.000000 0.000000 -8.844074 0.000000 243.000000 0.885648 0.025535 -0.463655
16.00000000 -3.48000002 -0.49000001 137 51 161 0.000000 0.000000 0.000000 0.000000 -8.844074 0.000000 243.000000 0.984526 0.119009 -0.128626
16.01000023 -3.49000001 -0.49000001 137 51 161 0.000000 0.000000 0.000000 0.000000 -8.844074 0.000000 243.000000 0.957315 0.003659 -0.289024
16.01000023 -3.50000000 -0.49000001 137 51 161 0.000000 0.000000 0.000000 0.000000 -8.844074 0.000000 243.000000 0.814228 -0.380823 -0.438185
16.00000000 -3.54999995 -0.46000001 137 51 161 0.000000 0.000000 0.000000 0.000000 -8.844074 0.000000 243.000000 0.899143 -0.211306 -0.383265
15.98999977 -3.53999996 -0.44000000 137 51 161 0.000000 0.000000 0.000000 0.000000 -8.844074 0.000000 243.000000 0.969564 0.104920 -0.221217
15.98999977 -3.53999996 -0.44000000 137 51 161 0.000000 0.000000 0.000000 0.000000 -8.844074 0.000000 243.000000 0.969564 0.104920 -0.221217
15.96000004 -3.50000000 -0.54000002 137 51 161 0.000000 0.000000 0.000000 0.000000 -8.844074 0.000000 243.000000 0.793418 -0.368545 -0.484420
15.96000004 -3.50000000 -0.54000002 137 51 161 0.000000 0.000000 0.000000 0.000000 -8.844074 0.000000 243.000000 0.793418 -0.368545 -0.484420
15.97000027 -3.50000000 -0.56000000 137 51 161 0.000000 0.000000 0.000000 0.000000 -8.844074 0.000000 243.000000 0.948731 -0.278563 -0.149375
15.97000027 -3.58999991 -0.47000000 137 51 161 0.000000 0.000000 0.000000 0.000000 -8.844074 0.000000 243.000000 0.770327 0.395749 -0.499979
16.02000046 -3.59999990 -0.43000001 137 51 161 0.000000 0.000000 0.000000 0.000000 -8.844074 0.000000 243.000000 0.756533 0.605541 -0.246935
16.26000023 -3.50999999 -0.64999998 137 51 161 0.000000 0.000000 0.000000 0.000000 -8.844074 0.000000 239.000000 0.922902 -0.342390 -0.176126
16.26000023 -3.50999999 -0.64999998 137 51 161 0.000000 0.000000 0.000000 0.000000 -8.844074 0.000000 239.000000 0.922902 -0.342390 -0.176126
16.20999908 -3.53999996 -0.62000000 137 51 161 0.000000 0.000000 0.000000 0.000000 -8.844074 0.000000 239.000000 -0.036387 0.954847 -0.294861
16.22999954 -3.53999996 -0.60000002 137 51 161 0.000000 0.000000 0.000000 0.000000 -8.844074 0.000000 239.000000 -0.040572 0.986475 -0.158810
16.20999908 -3.52999997 -0.70999998 137 51 161 0.000000 0.000000 0.000000 0.000000 -8.844074 0.000000 239.000000 0.644037 -0.402316 -0.650660
16.20999908 -3.47000003 -0.68000001 137 51 161 0.000000 0.000000 0.000000 0.000000 -8.844074 0.000000 239.000000 0.275834 0.961168 -0.008506
16.22999954 -3.49000001 -0.68000001 137 51 161 0.000000 0.000000 0.000000 0.000000 -8.844074 0.000000 239.000000 0.875870 0.339685 -0.342732
16.17000008 -3.48000002 -0.62000000 137 51 161 0.000000 0.000000 0.000000 0.000000 -8.844074 0.000000 239.000000 0.629050 -0.461304 -0.625695
16.17000008 -3.48000002 -0.62000000 137 51 161 0.000000 0.000000 0.000000 0.000000 -8.844074 0.000000 239.000000 0.629050 -0.461304 -0.625695
16.17000008 -3.48000002 -0.62000000 137 51 161 0.000000 0.000000 0.000000 0.000000 -8.844074 0.000000 239.000000 0.629050 -0.461304 -0.625695
16.17000008 -3.47000003 -0.63000000 137 51 161 0.000000 0.000000 0.000000 0.000000 -8.844074 0.000000 239.000000 0.703692 -0.700717 -0.117530
16.18000031 -3.48000002 -0.63000000 137 51 161 0.000000 0.000000 0.000000 0.000000 -8.844074 0.000000 239.000000 0.705013 -0.461675 -0.538343
16.19000053 -3.51999998 -0.60000002 137 51 161 0.000000 0.000000 0.000000 0.000000 -8.844074 0.000000 239.000000 0.782100 0.356380 -0.511187
16.20000076 -3.52999997 -0.60000002 137 51 161 0.000000 0.000000 0.000000 0.000000 -8.844074 0.000000 239.000000 0.631728 0.756551 -0.168968
16.14999962 -3.49000001 -0.63999999 137 51 161 0.000000 0.000000 0.000000 0.000000 -8.844074 0.000000 239.000000 -0.681368 0.700078 0.213610
16.15999985 -3.48000002 -0.63999999 137 51 161 0.000000 0.000000 0.000000 0.000000 -8.844074 0.000000 239.000000 0.834101 -0.543102 -0.096519
16.14999962 -3.49000001 -0.64999998 137 51 161 0.000000 0.000000 0.000000 0.000000 -8.844074 0.000000 239.000000 0.777145 -0.536791 -0.328484
16.15999985 -3.48000002 -0.63000000 137 51 161 0.000000 0.000000 0.000000 0.000000 -8.844074 0.000000 239.000000 0.798013 -0.576932 -0.174140
16.14999962 -3.49000001 -0.63999999 137 51 161 0.000000 0.000000 0.000000 0.000000 -8.844074 0.000000 239.000000 -0.681368 0.700078 0.213610
16.15999985 -3.52999997 -0.63000000 137 51 161 0.000000 0.000000 0.000000 0.000000 -8.844074 0.000000 239.000000 0.744959 0.288731 -0.601391
16.13999939 -3.54999995 -0.66000003 137 51 161 0.000000 0.000000 0.000000 0.000000 -8.844074 0.000000 239.000000 0.874111 0.286321 -0.392365
16.14999962 -3.53999996 -0.63999999 137 51 161 0.000000 0.000000 0.000000 0.000000 -8.844074 0.000000 239.000000 0.738397 -0.023819 -0.673945
16.15999985 -3.54999995 -0.63000000 137 51 161 0.000000 0.000000 0.000000 0.000000 -8.844074 0.000000 239.000000 0.823440 0.325912 -0.464464
16.13999939 -3.53999996 -0.66000003 137 51 161 0.000000 0.000000 0.000000 0.000000 -8.844074 0.000000 239.000000 0.586610 0.459594 -0.666830
16.20000076 -3.52999997 -0.70999998 137 51 161 0.000000 0.000000 0.000000 0.000000 -8.844074 0.000000 239.000000 0.617251 -0.456665 -0.640670
16.19000053 -3.52999997 -0.72000003 137 51 161 0.000000 0.000000 0.000000 0.000000 -8.844074 0.000000 239.000000 0.768201 -0.266583 -0.582066
16.18000031 -3.52999997 -0.75000000 137 51 161 0.000000 0.000000 0.000000 0.000000 -8.844074 0.000000 239.000000 0.794323 -0.187527 -0.577828
16.18000031 -3.53999996 -0.74000001 137 51 161 0.000000 0.000000 0.000000 0.000000 -8.844074 0.000000 239.000000 0.699671 -0.340865 -0.627910
16.13999939 -3.49000001 -0.67000002 137 51 161 0.000000 0.000000 0.000000 0.000000 -8.844074 0.000000 239.000000 0.705048 -0.343568 -0.620377
16.12000084 -3.50999999 -0.67000002 137 51 161 0.000000 0.000000 0.000000 0.000000 -8.844074 0.000000 239.000000 0.938608 0.008843 -0.344872
16.19000053 -3.55999994 -0.64999998 137 51 161 0.000000 0.000000 0.000000 0.000000 -8.844074 0.000000 239.000000 0.455141 0.726571 -0.514724
16.13999939 -3.56999993 -0.69999999 137 51 161 0.000000 0.000000 0.000000 0.000000 -8.844074 0.000000 239.000000 0.689425 0.653904 -0.311614
16.15999985 -3.56999993 -0.68000001 137 51 161 0.000000 0.000000 0.000000 0.000000 -8.844074 0.000000 239.000000 0.350476 0.712362 -0.608035
16.17000008 -3.56999993 -0.67000002 137 51 161 0.000000 0.000000 0.000000 0.000000 -8.844074 0.000000 239.000000 0.132720 0.886229 -0.443828
16.13999939 -3.56999993 -0.69000000 137 51 161 0.000000 0.000000 0.000000 0.000000 -8.844074 0.000000 239.000000 0.259850 0.844129 -0.468961
16.12000084 -3.58999991 -0.75999999 137 51 161 0.000000 0.000000 0.000000 0.000000 -8.844074 0.000000 239.000000 0.098514 0.858072 -0.503992
16.12000084 -3.59999990 -0.75999999 137 51 161 0.000000 0.000000 0.000000 0.000000 -8.844074 0.000000 239.000000 0.025140 0.903721 -0.427382
16.11000061 -3.48000002 -0.69000000 137 51 161 0.000000 0.000000 0.000000 0.000000 -8.844074 0.000000 239.000000 -0.780531 0.551618 0.294090
16.10000038 -3.50000000 -0.74000001 137 51 161 0.000000 0.000000 0.000000 0.000000 -8.844074 0.000000 239.000000 0.802119 -0.390611 -0.451694
16.09000015 -3.54999995 -0.72000003 137 51 161 0.000000 0.000000 0.000000 0.000000 -8.844074 0.000000 239.000000 0.910451 0.178660 -0.373042
16.10000038 -3.57999992 -0.74000001 137 51 161 0.000000 0.000000 0.000000 0.000000 -8.844074 0.000000 239.000000 0.594075 0.715181 -0.368228
16.09000015 -3.56999993 -0.73000002 137 51 161 0.000000 0.000000 0.000000 0.000000 -8.844074 0.000000 239.000000 0.588698 0.467940 -0.659141
16.10000038 -3.57999992 -0.70999998 137 51 161 0.000000 0.000000 0.000000 0.000000 -8.844074 0.000000 239.000000 0.673853 0.617561 -0.405636
16.09000015 -3.49000001 -0.80000001 137 51 161 0.000000 0.000000 0.000000 0.000000 -8.844074 0.000000 239.000000 -0.238314 0.949169 0.205631
16.04000092 -3.53999996 -0.86000001 137 51 161 0.000000 0.000000 0.000000 0.000000 -8.844074 0.000000 239.000000 0.671562 -0.483993 -0.561030
16.06999969 -3.58999991 -0.79000002 137 51 161 0.000000 0.000000 0.000000 0.000000 -8.844074 0.000000 239.000000 0.364226 0.723552 -0.586355
16.04999924 -3.59999990 -0.81000000 137 51 161 0.000000 0.000000 0.000000 0.000000 -8.844074 0.000000 239.000000 0.338870 0.744217 -0.575593
16.05999947 -3.59999990 -0.81000000 137 51 161 0.000000 0.000000 0.000000 0.000000 -8.844074 0.000000 239.000000 0.259840 0.864615 -0.430028
16.04999924 -3.59999990 -0.81000000 137 51 161 0.000000 0.000000 0.000000 0.000000 -8.844074 0.000000 239.000000 0.338870 0.744217 -0.575593
16.04999924 -3.60999990 -0.81999999 137 51 161 0.000000 0.000000 0.000000 0.000000 -8.844074 0.000000 239.000000 0.219284 0.760496 -0.611196
16.04000092 -3.63000011 -0.86000001 137 51 161 0.000000 0.000000 0.000000 0.000000 -8.844074 0.000000 239.000000 0.003975 0.881059 -0.472990
16.04999924 -3.61999989 -0.85000002 137 51 161 0.000000 0.000000 0.000000 0.000000 -8.844074 0.000000 239.000000 0.168174 0.873043 -0.457726
16.03000069 -3.58999991 -0.81999999 137 51 161 0.000000 0.000000 0.000000 0.000000 -8.844074 0.000000 239.000000 0.684252 0.608040 -0.402599
16.03000069 -3.57999992 -0.81999999 137 51 161 0.000000 0.000000 0.000000 0.000000 -8.844074 0.000000 239.000000 0.827123 0.377978 -0.415934
16.01000023 -3.58999991 -0.82999998 137 51 161 0.000000 0.000000 0.000000 0.000000 -8.844074 0.000000 239.000000 -0.548669 -0.114973 0.828097
16.02000046 -3.60999990 -0.77999997 137 51 161 0.000000 0.000000 0.000000 0.000000 -8.844074 0.000000 239.000000 0.652425 0.464580 -0.598755
16.00000000 -3.59999990 -0.87000000 137 51 161 0.000000 0.000000 0.000000 0.000000 -8.844074 0.000000 239.000000 0.660809 0.563285 -0.496027
16.02000046 -3.60999990 -0.87000000 137 51 161 0.000000 0.000000 0.000000 0.000000 -8.844074 0.000000 239.000000 0.351400 0.671745 -0.652132
16.03000069 -3.60999990 -0.86000001 137 51 161 0.000000 0.000000 0.000000 0.000000 -8.844074 0.000000 239.000000 0.520158 0.785839 -0.334502
16.02000046 -3.60999990 -0.83999997 137 51 161 0.000000 0.000000 0.000000 0.000000 -8.844074 0.000000 239.000000 0.407678 0.810559 -0.420468
16.00000000 -3.61999989 -0.88999999 137 51 161 0.000000 0.000000 0.000000 0.000000 -8.844074 0.000000 239.000000 0.529076 0.663444 -0.529076
15.98999977 -3.58999991 -0.88999999 137 51 161 0.000000 0.000000 0.000000 0.000000 -8.844074 0.000000 239.000000 0.701435 0.333629 -0.629826
15.97999954 -3.58999991 -0.89999998 137 51 161 0.000000 0.000000 0.000000 0.000000 -8.844074 0.000000 239.000000 0.662906 0.254720 -0.704041
15.98999977 -3.60999990 -0.88999999 137 51 161 0.000000 0.000000 0.000000 0.000000 -8.844074 0.000000 239.000000 -0.511105 -0.287792 0.809906
15.96000004 -3.61999989 -0.92000002 137 51 161 0.000000 0.000000 0.000000 0.000000 -8.844074 0.000000 239.000000 -0.439092 -0.531881 0.724087
16.02000046 -3.64000010 -0.88000000 137 51 161 0.000000 0.000000 0.000000 0.000000 -8.844074 0.000000 239.000000 0.129175 0.936858 -0.324977
15.93999958 -3.52999997 -0.47999999 137 51 161 0.000000 0.000000 0.000000 0.000000 -8.844074 0.000000 243.000000 0.914753 -0.177829 -0.362772
15.92000008 -3.52999997 -0.55000001 137 51 161 0.000000 0.000000 0.000000 0.000000 -8.844074 0.000000 243.000000 0.943252 -0.238920 -0.230634
15.94999981 -3.50000000 -0.55000001 137 51 161 0.000000 0.000000 0.000000 0.000000 -8.844074 0.000000 243.000000 0.928180 -0.239485 -0.284831
15.92000008 -3.61999989 -0.47999999 137 51 161 0.000000 0.000000 0.000000 0.000000 -8.844074 0.000000 243.000000 -0.493067 -0.456788 0.740425
15.93000031 -3.55999994 -0.56000000 137 51 161 0.000000 0.000000 0.000000 0.000000 -8.844074 0.000000 243.000000 0.920461 -0.131891 -0.367907
15.85000038 -3.90000010 -0.83999997 137 51 161 0.000000 0.000000 0.000000 0.000000 -8.844074 0.000000 239.000000 0.394424 0.688180 -0.608965
16.00000000 -3.52999997 -0.99000001 137 51 161 0.000000 0.000000 0.000000 0.000000 -8.844074 0.000000 239.000000 -0.390823 0.916459 -0.085790
16.01000023 -3.58999991 -0.99000001 137 51 161 0.000000 0.000000 0.000000 0.000000 -8.844074 0.000000 239.000000 0.818102 -0.026301 -0.574471
15.97999954 -3.63000011 -0.94000000 137 51 161 0.000000 0.000000 0.000000 0.000000 -8.844074 0.000000 239.000000 0.475968 0.854340 -0.208705
15.97999954 -3.61999989 -0.93000001 137 51 161 0.000000 0.000000 0.000000 0.000000 -8.844074 0.000000 239.000000 0.854180 0.251229 -0.455258
15.98999977 -3.59999990 -1.00000000 137 51 161 0.000000 0.000000 0.000000 0.000000 -8.844074 0.000000 239.000000 0.746075 0.146201 -0.649613
15.98999977 -3.59999990 -1.00999999 137 51 161 0.000000 0.000000 0.000000 0.000000 -8.844074 0.000000 239.000000 0.783136 0.325106 -0.530098
15.97999954 -3.60999990 -1.02999997 137 51 161 0.000000 0.000000 0.000000 0.000000 -8.844074 0.000000 239.000000 0.842018 0.260148 -0.472577
15.88000011 -3.52999997 -1.07000005 137 51 161 0.000000 0.000000 0.000000 0.000000 -8.844074 0.000000 239.000000 -0.617373 0.714597 0.328941
15.88000011 -3.52999997 -1.08000004 137 51 161 0.000000 0.000000 0.000000 0.000000 -8.844074 0.000000 239.000000 -0.611565 0.785883 -0.091517
15.94999981 -3.58999991 -0.95999998 137 51 161 0.000000 0.000000 0.000000 0.000000 -8.844074 0.000000 239.000000 -0.767175 0.374667 0.520641
15.93999958 -3.56999993 -0.94999999 137 51 161 0.000000 0.000000 0.000000 0.000000 -8.844074 0.000000 239.000000 -0.694290 0.608534 0.384250
15.94999981 -3.56999993 -0.98000002 137 51 161 0.000000 0.000000 0.000000 0.000000 -8.844074 0.000000 239.000000 0.745528 -0.367054 -0.556291
15.94999981 -3.58999991 -0.97000003 137 51 161 0.000000 0.000000 0.000000 0.000000 -8.844074 0.000000 239.000000 0.815290 -0.360762 -0.452939
15.88000011 -3.63000011 -0.97000003 137 51 161 0.000000 0.000000 0.000000 0.000000 -8.844074 0.000000 239.000000 0.652019 0.082773 -0.753671
15.94999981 -3.60999990 -1.05999994 137 51 161 0.000000 0.000000 0.000000 0.000000 -8.844074 0.000000 239.000000 0.897461 -0.104681 -0.428492
15.89999962 -3.57999992 -1.01999998 137 51 161 0.000000 0.000000 0.000000 0.000000 -8.844074 0.000000 239.000000 -0.652662 0.248106 0.715874
15.93000031 -3.61999989 -1.13000000 137 51 161 0.000000 0.000000 0.000000 0.000000 -8.844074 0.000000 239.000000 0.929164 -0.070452 -0.362892
15.88000011 -3.56999993 -1.13000000 137 51 161 0.000000 0.000000 0.000000 0.000000 -8.844074 0.000000 239.000000 -0.278684 0.929418 0.241903
15.88000011 -3.56999993 -1.13000000 137 51 161 0.000000 0.000000 0.000000 0.000000 -8.844074 0.000000 239.000000 -0.278684 0.929418 0.241903
15.89000034 -3.55999994 -1.13999999 137 51 161 0.000000 0.000000 0.000000 0.000000 -8.844074 0.000000 239.000000 -0.490473 0.870896 -0.031249
15.86999989 -3.55999994 -1.13999999 137 51 161 0.000000 0.000000 0.000000 0.000000 -8.844074 0.000000 239.000000 -0.482057 0.806610 0.342054
15.89000034 -3.60999990 -1.21000004 137 51 161 0.000000 0.000000 0.000000 0.000000 -8.844074 0.000000 239.000000 -0.203728 0.977654 -0.051836
15.85999966 -3.53999996 -1.16999996 137 51 161 0.000000 0.000000 0.000000 0.000000 -8.844074 0.000000 239.000000 0.509816 -0.767167 -0.389284
15.82999992 -3.54999995 -1.24000001 137 51 161 0.000000 0.000000 0.000000 0.000000 -8.844074 0.000000 239.000000 -0.398238 0.884477 -0.243119
15.84000015 -3.61999989 -1.14999998 137 51 161 0.000000 0.000000 0.000000 0.000000 -8.844074 0.000000 239.000000 0.860536 0.065765 -0.505127
15.80000019 -3.55999994 -1.13000000 137 51 161 0.000000 0.000000 0.000000 0.000000 -8.844074 0.000000 239.000000 -0.707475 0.582141 0.400738
15.84000015 -3.56999993 -1.17999995 137 51 161 0.000000 0.000000 0.000000 0.000000 -8.844074 0.000000 239.000000 0.791128 -0.579956 -0.194339
15.85999966 -3.55999994 -1.25000000 137 51 161 0.000000 0.000000 0.000000 0.000000 -8.844074 0.000000 239.000000 -0.350753 0.891062 -0.288065
15.85999966 -3.55999994 -1.24000001 137 51 161 0.000000 0.000000 0.000000 0.000000 -8.844074 0.000000 239.000000 -0.416029 0.896392 -0.152973
15.85000038 -3.60999990 -1.22000003 137 51 161 0.000000 0.000000 0.000000 0.000000 -8.844074 0.000000 239.000000 -0.533990 0.840354 0.093055
15.92000008 -3.67000008 -0.95999998 137 51 161 0.000000 0.000000 0.000000 0.000000 -8.844074 0.000000 239.000000 -0.496219 -0.379842 0.780696
15.89999962 -3.65000010 -1.05999994 137 51 161 0.000000 0.000000 0.000000 0.000000 -8.844074 0.000000 239.000000 0.762605 0.592085 -0.260517
15.86999989 -3.64000010 -1.12000000 137 51 161 0.000000 0.000000 0.000000 0.000000 -8.844074 0.000000 239.000000 0.898685 0.385983 -0.208285
15.88000011 -3.66000009 -1.20000005 137 51 161 0.000000 0.000000 0.000000 0.000000 -8.844074 0.000000 239.000000 0.265829 0.958281 -0.105035
15.72000027 -3.54999995 -1.25000000 137 51 161 0.000000 0.000000 0.000000 0.000000 -8.844074 0.000000 239.000000 -0.392817 0.822212 0.411901
15.76000023 -3.60999990 -1.12000000 137 51 161 0.000000 0.000000 0.000000 0.000000 -8.844074 0.000000 239.000000 0.683418 -0.220508 -0.695929
15.77000046 -3.55999994 -1.20000005 137 51 161 0.000000 0.000000 0.000000 0.000000 -8.844074 0.000000 239.000000 -0.549952 0.593948 0.587179
15.76000023 -3.58999991 -1.20000005 137 51 161 0.000000 0.000000 0.000000 0.000000 -8.844074 0.000000 239.000000 0.631697 -0.703149 -0.326404
15.73999977 -3.58999991 -1.23000002 137 51 161 0.000000 0.000000 0.000000 0.000000 -8.844074 0.000000 239.000000 -0.657567 0.750060 0.070815
15.73999977 -3.58999991 -1.24000001 137 51 161 0.000000 0.000000 0.000000 0.000000 -8.844074 0.000000 239.000000 0.512859 -0.539763 -0.667557
15.68000031 -3.63000011 -1.16999996 137 51 161 0.000000 0.000000 0.000000 0.000000 -8.844074 0.000000 239.000000 0.931702 -0.334422 -0.141751
15.72999954 -3.73000002 -1.08000004 137 51 161 0.000000 0.000000 0.000000 0.000000 -8.844074 0.000000 239.000000 0.855122 0.031569 -0.517465
15.73999977 -3.67000008 -1.13999999 137 51 161 0.000000 0.000000 0.000000 0.000000 -8.844074 0.000000 239.000000 0.968120 -0.126610 -0.216133
15.75000000 -3.65000010 -1.11000001 137 51 161 0.000000 0.000000 0.000000 0.000000 -8.844074 0.000000 239.000000 0.592707 0.249974 -0.765645
15.72999954 -3.67000008 -1.24000001 137 51 161 0.000000 0.000000 0.000000 0.000000 -8.844074 0.000000 239.000000 0.860343 -0.160303 -0.483851
15.67000008 -3.67000008 -1.16999996 137 51 161 0.000000 0.000000 0.000000 0.000000 -8.844074 0.000000 239.000000 0.869472 0.056675 -0.490720
15.68999958 -3.67000008 -1.22000003 137 51 161 0.000000 0.000000 0.000000 0.000000 -8.844074 0.000000 239.000000 0.968739 0.042973 -0.244333
15.64999962 -3.66000009 -1.25000000 137 51 161 0.000000 0.000000 0.000000 0.000000 -8.844074 0.000000 239.000000 0.974431 0.162615 -0.155052
15.64999962 -3.75000000 -1.23000002 137 51 161 0.000000 0.000000 0.000000 0.000000 -8.844074 0.000000 239.000000 0.942677 0.283213 -0.176495
15.65999985 -3.78999996 -1.20000005 137 51 161 0.000000 0.000000 0.000000 0.000000 -8.844074 0.000000 239.000000 0.908442 0.243515 -0.339754
15.88000011 -3.53999996 -1.25999999 137 51 161 0.000000 0.000000 0.000000 0.000000 -8.844074 0.000000 239.000000 -0.243745 0.966141 0.084616
15.89999962 -3.59999990 -1.29999995 137 51 161 0.000000 0.000000 0.000000 0.000000 -8.844074 0.000000 239.000000 0.522023 0.603114 -0.603114
15.82999992 -3.53999996 -1.34000003 137 51 161 0.000000 0.000000 0.000000 0.000000 -8.844074 0.000000 239.000000 -0.281910 0.953249 0.108830
15.81999969 -3.50000000 -1.27999997 137 51 161 0.000000 0.000000 0.000000 0.000000 -8.844074 0.000000 239.000000 0.093675 0.972970 -0.211081
15.81999969 -3.50999999 -1.27999997 137 51 161 0.000000 0.000000 0.000000 0.000000 -8.844074 0.000000 239.000000 -0.078433 0.981012 -0.177379
15.85000038 -3.55999994 -1.25999999 137 51 161 0.000000 0.000000 0.000000 0.000000 -8.844074 0.000000 239.000000 -0.238829 0.901102 -0.361906
15.81999969 -3.56999993 -1.29999995 137 51 161 0.000000 0.000000 0.000000 0.000000 -8.844074 0.000000 239.000000 -0.009096 0.999586 0.027289
15.77000046 -3.53999996 -1.26999998 137 51 161 0.000000 0.000000 0.000000 0.000000 -8.844074 0.000000 239.000000 -0.605975 0.776073 0.174654
15.77999973 -3.52999997 -1.27999997 137 51 161 0.000000 0.000000 0.000000 0.000000 -8.844074 0.000000 239.000000 -0.385370 0.914036 0.126602
15.69999981 -3.59999990 -1.25999999 137 51 161 0.000000 0.000000 0.000000 0.000000 -8.844074 0.000000 239.000000 -0.645738 0.595421 0.478014
15.69999981 -3.61999989 -1.33000004 137 51 161 0.000000 0.000000 0.000000 0.000000 -8.844074 0.000000 239.000000 0.606225 -0.439221 -0.663006
15.68999958 -3.59999990 -1.26999998 137 51 161 0.000000 0.000000 0.000000 0.000000 -8.844074 0.000000 239.000000 0.883632 -0.371818 -0.284509
15.68000031 -3.59999990 -1.27999997 137 51 161 0.000000 0.000000 0.000000 0.000000 -8.844074 0.000000 239.000000 -0.670708 0.699115 0.247768
15.65999985 -3.58999991 -1.33000004 137 51 161 0.000000 0.000000 0.000000 0.000000 -8.844074 0.000000 239.000000 0.840374 -0.348982 -0.414709
15.68000031 -3.58999991 -1.36000001 137 51 161 0.000000 0.000000 0.000000 0.000000 -8.844074 0.000000 239.000000 0.724602 -0.680148 -0.111135
15.68999958 -3.63000011 -1.35000002 137 51 161 0.000000 0.000000 0.000000 0.000000 -8.844074 0.000000 239.000000 0.714566 -0.681189 -0.159298
15.68999958 -3.63000011 -1.37000000 137 51 161 0.000000 0.000000 0.000000 0.000000 -8.844074 0.000000 239.000000 -0.799069 0.448572 0.400339
15.68000031 -3.63000011 -1.38000000 137 51 161 0.000000 0.000000 0.000000 0.000000 -8.844074 0.000000 239.000000 0.798373 -0.315857 -0.512673
15.65999985 -3.59999990 -1.39999998 137 51 161 0.000000 0.000000 0.000000 0.000000 -8.844074 0.000000 239.000000 0.874041 -0.358464 -0.327956
15.68999958 -3.61999989 -1.38999999 137 51 161 0.000000 0.000000 0.000000 0.000000 -8.844074 0.000000 239.000000 0.879082 -0.376749 -0.292019
15.64999962 -3.59999990 -1.41999996 137 51 161 0.000000 0.000000 0.000000 0.000000 -8.844074 0.000000 239.000000 0.844659 -0.491081 -0.213053
15.64999962 -3.61999989 -1.39999998 137 51 161 0.000000 0.000000 0.000000 0.000000 -8.844074 0.000000 239.000000 -0.569393 0.663451 0.485411
15.65999985 -3.51999998 -1.45000005 137 51 161 0.000000 0.000000 0.000000 0.000000 -8.844074 0.000000 239.000000 -0.296110 0.873144 0.387220
15.65999985 -3.63000011 -1.48000002 137 51 161 0.000000 0.000000 0.000000 0.000000 -8.844074 0.000000 239.000000 0.885654 -0.449204 -0.117615
15.72000027 -3.73000002 -1.27999997 137 51 161 0.000000 0.000000 0.000000 0.000000 -8.844074 0.000000 239.000000 0.844761 0.285705 -0.452495
15.71000004 -3.79999995 -1.30999994 137 51 161 0.000000 0.000000 0.000000 0.000000 -8.844074 0.000000 239.000000 0.692254 0.630066 -0.351855
15.69999981 -3.75000000 -1.41999996 137 51 161 0.000000 0.000000 0.000000 0.000000 -8.844074 0.000000 239.000000 0.788657 0.479000 -0.385458
15.69999981 -3.75000000 -1.41999996 137 51 161 0.000000 0.000000 0.000000 0.000000 -8.844074 0.000000 239.000000 0.788657 0.479000 -0.385458
15.71000004 -3.77999997 -1.38999999 137 51 161 0.000000 0.000000 0.000000 0.000000 -8.844074 0.000000 239.000000 0.386886 0.819944 -0.421913
15.68999958 -3.65000010 -1.29999995 137 51 161 0.000000 0.000000 0.000000 0.000000 -8.844074 0.000000 239.000000 0.966370 0.030543 -0.255337
15.67000008 -3.66000009 -1.26999998 137 51 161 0.000000 0.000000 0.000000 0.000000 -8.844074 0.000000 239.000000 0.630140 -0.158668 -0.760097
15.68000031 -3.66000009 -1.30999994 137 51 161 0.000000 0.000000 0.000000 0.000000 -8.844074 0.000000 239.000000 0.782031 0.029379 -0.622547
15.68000031 -3.69000006 -1.30999994 137 51 161 0.000000 0.000000 0.000000 0.000000 -8.844074 0.000000 239.000000 0.832946 0.294256 -0.468630
15.68000031 -3.68000007 -1.30999994 137 51 161 0.000000 0.000000 0.000000 0.000000 -8.844074 0.000000 239.000000 0.933365 0.092399 -0.346832
15.64999962 -3.67000008 -1.28999996 137 51 161 0.000000 0.000000 0.000000 0.000000 -8.844074 0.000000 239.000000 0.969720 -0.186238 -0.157981
15.65999985 -3.70000005 -1.38000000 137 51 161 0.000000 0.000000 0.000000 0.000000 -8.844074 0.000000 239.000000 0.987397 -0.014737 -0.157575
15.61999989 -3.67000008 -1.37000000 137 51 161 0.000000 0.000000 0.000000 0.000000 -8.844074 0.000000 239.000000 0.789168 -0.432665 -0.435906
15.64999962 -3.75999999 -1.28999996 137 51 161 0.000000 0.000000 0.000000 0.000000 -8.844074 0.000000 239.000000 0.914149 0.165822 -0.369911
15.64000034 -3.75999999 -1.33000004 137 51 161 0.000000 0.000000 0.000000 0.000000 -8.844074 0.000000 239.000000 0.749746 0.226015 -0.621931
15.68999958 -3.75000000 -1.38000000 137 51 161 0.000000 0.000000 0.000000 0.000000 -8.844074 0.000000 239.000000 0.583512 0.727347 -0.361222
15.61999989 -3.73000002 -1.40999997 137 51 161 0.000000 0.000000 0.000000 0.000000 -8.844074 0.000000 239.000000 0.739351 0.352613 -0.573606
15.63000011 -3.75999999 -1.40999997 137 51 161 0.000000 0.000000 0.000000 0.000000 -8.844074 0.000000 239.000000 0.841333 0.460176 -0.283543
15.64999962 -3.75000000 -1.39999998 137 51 161 0.000000 0.000000 0.000000 0.000000 -8.844074 0.000000 239.000000 0.610437 0.647231 -0.456573
15.63000011 -3.78999996 -1.35000002 137 51 161 0.000000 0.000000 0.000000 0.000000 -8.844074 0.000000 239.000000 0.825786 0.539076 -0.165755
15.69999981 -3.65000010 -1.47000003 137 51 161 0.000000 0.000000 0.000000 0.000000 -8.844074 0.000000 239.000000 0.666027 -0.659481 -0.348559
15.72000027 -3.64000010 -1.46000004 137 51 161 0.000000 0.000000 0.000000 0.000000 -8.844074 0.000000 239.000000 -0.158050 0.935932 0.314726
15.69999981 -3.65000010 -1.47000003 137 51 161 0.000000 0.000000 0.000000 0.000000 -8.844074 0.000000 239.000000 0.666027 -0.659481 -0.348559
15.71000004 -3.76999998 -1.44000006 137 51 161 0.000000 0.000000 0.000000 0.000000 -8.844074 0.000000 239.000000 0.498208 0.665955 -0.555242
15.71000004 -3.75999999 -1.44000006 137 51 161 0.000000 0.000000 0.000000 0.000000 -8.844074 0.000000 239.000000 0.597908 0.510327 -0.618119
15.68000031 -3.66000009 -1.49000001 137 51 161 0.000000 0.000000 0.000000 0.000000 -8.844074 0.000000 239.000000 -0.368427 0.890490 0.266998
15.61999989 -3.67000008 -1.42999995 137 51 161 0.000000 0.000000 0.000000 0.000000 -8.844074 0.000000 239.000000 0.782554 -0.116425 -0.611600
15.63000011 -3.67000008 -1.49000001 137 51 161 0.000000 0.000000 0.000000 0.000000 -8.844074 0.000000 239.000000 0.934373 -0.173032 -0.311458
15.64999962 -3.68000007 -1.45000005 137 51 161 0.000000 0.000000 0.000000 0.000000 -8.844074 0.000000 239.000000 0.932879 -0.320201 -0.164952
15.64999962 -3.64000010 -1.54999995 137 51 161 0.000000 0.000000 0.000000 0.000000 -8.844074 0.000000 239.000000 -0.244002 0.964509 -0.100922
15.63000011 -3.68000007 -1.58000004 137 51 161 0.000000 0.000000 0.000000 0.000000 -8.844074 0.000000 239.000000 0.838605 -0.542791 0.046047
15.67000008 -3.77999997 -1.44000006 137 51 161 0.000000 0.000000 0.000000 0.000000 -8.844074 0.000000 239.000000 0.818987 0.454641 -0.350089
