//X Y Z R G B PointSourceId ScanDirectionFlag NumberOfReturns ReturnNumber GpsTime Intensity Classification Nx Ny Nz
-13.84000015 9.86999989 0.51999998 117 231 81 0.000000 0.000000 0.000000 0.000000 -0.000107 0.000000 122.000000 0.221914 0.768164 -0.600565
-13.88000011 9.89000034 0.51999998 117 231 81 0.000000 0.000000 0.000000 0.000000 -0.000107 0.000000 122.000000 0.504305 0.521059 -0.688603
-13.89000034 9.85000038 0.51999998 117 231 81 0.000000 0.000000 0.000000 0.000000 -0.000107 0.000000 122.000000 -0.294256 -0.468630 0.832946
-13.93999958 9.82999992 0.50000000 117 231 81 0.000000 0.000000 0.000000 0.000000 -0.000107 0.000000 122.000000 0.113420 0.776261 -0.620125
-14.50000000 9.92000008 0.70999998 117 231 81 0.000000 0.000000 0.000000 0.000000 -0.000107 0.000000 122.000000 0.676593 0.670134 -0.305193
-14.47999954 9.86999989 0.76999998 117 231 81 0.000000 0.000000 0.000000 0.000000 -0.000107 0.000000 122.000000 0.244994 0.936579 0.250594
-13.85999966 9.90999985 0.49000001 117 231 81 0.000000 0.000000 0.000000 0.000000 -0.000107 0.000000 122.000000 0.242049 0.889493 -0.387575
-13.85000038 9.90999985 0.43000001 117 231 81 0.000000 0.000000 0.000000 0.000000 -0.000107 0.000000 122.000000 0.109250 0.911339 -0.396896
-13.82999992 9.97999954 0.37000000 117 231 81 0.000000 0.000000 0.000000 0.000000 -0.000107 0.000000 122.000000 0.009738 -0.730326 0.683029
-13.86999989 9.97999954 0.34000000 117 231 81 0.000000 0.000000 0.000000 0.000000 -0.000107 0.000000 122.000000 -0.567911 -0.400007 0.719355
-13.88000011 9.90999985 0.34999999 117 231 81 0.000000 0.000000 0.000000 0.000000 -0.000107 0.000000 122.000000 -0.201238 -0.457631 0.866070
-13.86999989 9.89999962 0.46000001 117 231 81 0.000000 0.000000 0.000000 0.000000 -0.000107 0.000000 122.000000 0.258648 0.917551 -0.301997
-13.88000011 9.84000015 0.49000001 117 231 81 0.000000 0.000000 0.000000 0.000000 -0.000107 0.000000 122.000000 -0.274641 -0.525741 0.805090
-13.88000011 9.82999992 0.47999999 117 231 81 0.000000 0.000000 0.000000 0.000000 -0.000107 0.000000 122.000000 -0.009505 0.840478 -0.541762
-13.88000011 9.82999992 0.47999999 117 231 81 0.000000 0.000000 0.000000 0.000000 -0.000107 0.000000 122.000000 -0.009505 0.840478 -0.541762
-13.88000011 9.84000015 0.49000001 117 231 81 0.000000 0.000000 0.000000 0.000000 -0.000107 0.000000 122.000000 -0.274641 -0.525741 0.805090
-13.89999962 9.82999992 0.44000000 117 231 81 0.000000 0.000000 0.000000 0.000000 -0.000107 0.000000 122.000000 -0.026545 -0.613337 0.789375
-13.89999962 9.82999992 0.44000000 117 231 81 0.000000 0.000000 0.000000 0.000000 -0.000107 0.000000 122.000000 -0.026545 -0.613337 0.789375
-13.88000011 9.84000015 0.43000001 117 231 81 0.000000 0.000000 0.000000 0.000000 -0.000107 0.000000 122.000000 0.234192 0.715152 -0.658568
-13.85999966 9.86999989 0.34000000 117 231 81 0.000000 0.000000 0.000000 0.000000 -0.000107 0.000000 122.000000 0.084809 -0.564915 0.820779
-13.85999966 9.89000034 0.36000001 117 231 81 0.000000 0.000000 0.000000 0.000000 -0.000107 0.000000 122.000000 -0.254364 -0.725175 0.639860
-13.84000015 9.86999989 0.34000000 117 231 81 0.000000 0.000000 0.000000 0.000000 -0.000107 0.000000 122.000000 0.285223 0.795787 -0.534202
-13.85999966 9.88000011 0.34999999 117 231 81 0.000000 0.000000 0.000000 0.000000 -0.000107 0.000000 122.000000 -0.257836 -0.726052 0.637471
-13.85000038 9.85999966 0.38000000 117 231 81 0.000000 0.000000 0.000000 0.000000 -0.000107 0.000000 122.000000 0.504440 0.451515 -0.735986
-13.85000038 9.85999966 0.33000001 117 231 81 0.000000 0.000000 0.000000 0.000000 -0.000107 0.000000 122.000000 0.001380 -0.760132 0.649768
-13.89000034 9.89000034 0.34000000 117 231 81 0.000000 0.000000 0.000000 0.000000 -0.000107 0.000000 122.000000 -0.094895 -0.405709 0.909063
-13.88000011 9.89000034 0.34999999 117 231 81 0.000000 0.000000 0.000000 0.000000 -0.000107 0.000000 122.000000 -0.114092 -0.432422 0.894424
-13.89999962 9.82999992 0.34999999 117 231 81 0.000000 0.000000 0.000000 0.000000 -0.000107 0.000000 122.000000 0.507383 0.514081 -0.691581
-13.93999958 9.92000008 0.41999999 117 231 81 0.000000 0.000000 0.000000 0.000000 -0.000107 0.000000 122.000000 0.178311 0.831619 -0.525943
-13.94999981 9.96000004 0.38000000 117 231 81 0.000000 0.000000 0.000000 0.000000 -0.000107 0.000000 122.000000 0.241411 0.874179 -0.421345
-13.92000008 9.93999958 0.34999999 117 231 81 0.000000 0.000000 0.000000 0.000000 -0.000107 0.000000 122.000000 -0.429211 -0.548528 0.717561
-13.97999954 9.96000004 0.34999999 117 231 81 0.000000 0.000000 0.000000 0.000000 -0.000107 0.000000 122.000000 0.070680 -0.765945 0.639009
-13.96000004 9.96000004 0.34999999 117 231 81 0.000000 0.000000 0.000000 0.000000 -0.000107 0.000000 122.000000 -0.067457 0.773599 -0.630074
-13.96000004 9.96000004 0.34999999 117 231 81 0.000000 0.000000 0.000000 0.000000 -0.000107 0.000000 122.000000 -0.067457 0.773599 -0.630074
-13.96000004 9.94999981 0.34999999 117 231 81 0.000000 0.000000 0.000000 0.000000 -0.000107 0.000000 122.000000 -0.331140 -0.408873 0.850393
-13.92000008 9.86999989 0.47000000 117 231 81 0.000000 0.000000 0.000000 0.000000 -0.000107 0.000000 122.000000 0.199721 0.877293 -0.436427
-13.90999985 9.86999989 0.41999999 117 231 81 0.000000 0.000000 0.000000 0.000000 -0.000107 0.000000 122.000000 -0.079888 -0.727704 0.681224
-13.93999958 9.89999962 0.40000001 117 231 81 0.000000 0.000000 0.000000 0.000000 -0.000107 0.000000 122.000000 0.161810 0.841707 -0.515119
-13.93000031 9.89000034 0.34000000 117 231 81 0.000000 0.000000 0.000000 0.000000 -0.000107 0.000000 122.000000 0.540970 0.402850 -0.738284
-13.92000008 9.89999962 0.34999999 117 231 81 0.000000 0.000000 0.000000 0.000000 -0.000107 0.000000 122.000000 0.457275 0.597975 -0.658275
-13.89999962 9.89999962 0.31999999 117 231 81 0.000000 0.000000 0.000000 0.000000 -0.000107 0.000000 122.000000 0.226330 0.808321 -0.543500
-13.84000015 9.85999966 0.30000001 117 231 81 0.000000 0.000000 0.000000 0.000000 -0.000107 0.000000 122.000000 0.057807 -0.554098 0.830442
-14.06999969 9.92000008 0.23000000 117 231 81 0.000000 0.000000 0.000000 0.000000 -0.000107 0.000000 122.000000 -0.433339 -0.291463 0.852799
-14.10999966 9.97000027 0.28000000 117 231 81 0.000000 0.000000 0.000000 0.000000 -0.000107 0.000000 122.000000 -0.196825 -0.366354 0.909420
-14.09000015 9.96000004 0.23999999 117 231 81 0.000000 0.000000 0.000000 0.000000 -0.000107 0.000000 122.000000 -0.270597 -0.228536 0.935173
-14.10000038 9.90999985 0.28000000 117 231 81 0.000000 0.000000 0.000000 0.000000 -0.000107 0.000000 122.000000 0.381772 0.391199 -0.837385
-14.14999962 9.90999985 0.23999999 117 231 81 0.000000 0.000000 0.000000 0.000000 -0.000107 0.000000 122.000000 -0.407296 -0.515254 0.754071
-14.10000038 9.93999958 0.23000000 117 231 81 0.000000 0.000000 0.000000 0.000000 -0.000107 0.000000 122.000000 -0.224890 -0.575408 0.786340
-14.09000015 9.92000008 0.23000000 117 231 81 0.000000 0.000000 0.000000 0.000000 -0.000107 0.000000 122.000000 -0.056185 -0.459070 0.886622
-14.14999962 9.92000008 0.20999999 117 231 81 0.000000 0.000000 0.000000 0.000000 -0.000107 0.000000 122.000000 -0.118233 -0.212312 0.970023
-14.13000011 9.93999958 0.22000000 117 231 81 0.000000 0.000000 0.000000 0.000000 -0.000107 0.000000 122.000000 -0.109220 -0.557751 0.822791
-14.14999962 9.93000031 0.23000000 117 231 81 0.000000 0.000000 0.000000 0.000000 -0.000107 0.000000 122.000000 -0.097454 -0.396678 0.912770
-14.13000011 9.93000031 0.20999999 117 231 81 0.000000 0.000000 0.000000 0.000000 -0.000107 0.000000 122.000000 -0.072254 -0.415800 0.906581
-14.10999966 9.88000011 0.25999999 117 231 81 0.000000 0.000000 0.000000 0.000000 -0.000107 0.000000 122.000000 -0.187238 -0.330834 0.924927
-14.11999989 9.88000011 0.25000000 117 231 81 0.000000 0.000000 0.000000 0.000000 -0.000107 0.000000 122.000000 -0.087909 -0.206773 0.974432
-14.10999966 9.89999962 0.27000001 117 231 81 0.000000 0.000000 0.000000 0.000000 -0.000107 0.000000 122.000000 -0.161688 -0.602929 0.781239
-14.10999966 9.89999962 0.27000001 117 231 81 0.000000 0.000000 0.000000 0.000000 -0.000107 0.000000 122.000000 -0.161688 -0.602929 0.781239
-14.13000011 9.89999962 0.28000000 117 231 81 0.000000 0.000000 0.000000 0.000000 -0.000107 0.000000 122.000000 0.031956 -0.573822 0.818356
-14.14999962 9.86999989 0.28999999 117 231 81 0.000000 0.000000 0.000000 0.000000 -0.000107 0.000000 122.000000 0.424301 0.680546 -0.597349
-14.14999962 9.89000034 0.23999999 117 231 81 0.000000 0.000000 0.000000 0.000000 -0.000107 0.000000 122.000000 -0.036736 -0.195528 0.980010
-14.15999985 9.89000034 0.23999999 117 231 81 0.000000 0.000000 0.000000 0.000000 -0.000107 0.000000 122.000000 0.094510 -0.228084 0.969044
-14.14999962 9.88000011 0.23999999 117 231 81 0.000000 0.000000 0.000000 0.000000 -0.000107 0.000000 122.000000 -0.058773 -0.258851 0.964127
-14.15999985 9.89000034 0.23999999 117 231 81 0.000000 0.000000 0.000000 0.000000 -0.000107 0.000000 122.000000 0.094510 -0.228084 0.969044
-14.14999962 9.89999962 0.23999999 117 231 81 0.000000 0.000000 0.000000 0.000000 -0.000107 0.000000 122.000000 0.038090 -0.251889 0.967006
-14.14999962 9.89000034 0.23999999 117 231 81 0.000000 0.000000 0.000000 0.000000 -0.000107 0.000000 122.000000 -0.036736 -0.195528 0.980010
-14.14000034 9.82999992 0.27000001 117 231 81 0.000000 0.000000 0.000000 0.000000 -0.000107 0.000000 122.000000 -0.203715 -0.008149 0.978996
-14.13000011 9.85999966 0.27000001 117 231 81 0.000000 0.000000 0.000000 0.000000 -0.000107 0.000000 122.000000 -0.101684 -0.356573 0.928717
-14.10999966 9.84000015 0.20000000 117 231 81 0.000000 0.000000 0.000000 0.000000 -0.000107 0.000000 122.000000 -0.222621 -0.624272 0.748815
-14.14999962 9.88000011 0.23000000 117 231 81 0.000000 0.000000 0.000000 0.000000 -0.000107 0.000000 122.000000 0.045669 -0.167455 0.984821
-14.14000034 9.88000011 0.23000000 117 231 81 0.000000 0.000000 0.000000 0.000000 -0.000107 0.000000 122.000000 -0.082970 -0.485162 0.870479
-14.17000008 9.96000004 0.25999999 117 231 81 0.000000 0.000000 0.000000 0.000000 -0.000107 0.000000 122.000000 -0.172938 -0.684102 0.708588
-14.17000008 9.93999958 0.25000000 117 231 81 0.000000 0.000000 0.000000 0.000000 -0.000107 0.000000 122.000000 -0.114426 -0.136107 0.984064
-14.17000008 9.93999958 0.25000000 117 231 81 0.000000 0.000000 0.000000 0.000000 -0.000107 0.000000 122.000000 -0.114426 -0.136107 0.984064
-14.18999958 9.93999958 0.23999999 117 231 81 0.000000 0.000000 0.000000 0.000000 -0.000107 0.000000 122.000000 -0.233874 -0.689064 0.685925
-14.19999981 9.84000015 0.28000000 117 231 81 0.000000 0.000000 0.000000 0.000000 -0.000107 0.000000 122.000000 0.372733 0.619033 -0.691280
-14.19999981 9.84000015 0.28000000 117 231 81 0.000000 0.000000 0.000000 0.000000 -0.000107 0.000000 122.000000 0.372733 0.619033 -0.691280
-14.19999981 9.85000038 0.30000001 117 231 81 0.000000 0.000000 0.000000 0.000000 -0.000107 0.000000 122.000000 0.010424 -0.193432 0.981058
-14.18999958 9.85000038 0.25000000 117 231 81 0.000000 0.000000 0.000000 0.000000 -0.000107 0.000000 122.000000 0.150986 -0.336602 0.929464
-14.18000031 9.85999966 0.23999999 117 231 81 0.000000 0.000000 0.000000 0.000000 -0.000107 0.000000 122.000000 -0.166349 -0.301078 0.938978
-14.18999958 9.84000015 0.23999999 117 231 81 0.000000 0.000000 0.000000 0.000000 -0.000107 0.000000 122.000000 -0.287502 0.054461 0.956230
-14.19999981 9.82999992 0.25999999 117 231 81 0.000000 0.000000 0.000000 0.000000 -0.000107 0.000000 122.000000 0.198986 -0.234180 0.951611
-14.18999958 9.85000038 0.25000000 117 231 81 0.000000 0.000000 0.000000 0.000000 -0.000107 0.000000 122.000000 0.150986 -0.336602 0.929464
-14.22999954 9.86999989 0.28999999 117 231 81 0.000000 0.000000 0.000000 0.000000 -0.000107 0.000000 122.000000 -0.035828 -0.415336 0.908962
-14.21000004 9.89000034 0.31999999 117 231 81 0.000000 0.000000 0.000000 0.000000 -0.000107 0.000000 122.000000 -0.173922 -0.321408 0.930832
-14.22999954 9.89000034 0.27000001 117 231 81 0.000000 0.000000 0.000000 0.000000 -0.000107 0.000000 122.000000 -0.224645 -0.505833 0.832867
-14.22999954 9.89000034 0.27000001 117 231 81 0.000000 0.000000 0.000000 0.000000 -0.000107 0.000000 122.000000 -0.224645 -0.505833 0.832867
-14.22999954 9.82999992 0.31999999 117 231 81 0.000000 0.000000 0.000000 0.000000 -0.000107 0.000000 122.000000 -0.177647 -0.264436 0.947901
-14.22000027 9.82999992 0.25999999 117 231 81 0.000000 0.000000 0.000000 0.000000 -0.000107 0.000000 122.000000 -0.298612 -0.084759 0.950603
-14.21000004 9.84000015 0.23999999 117 231 81 0.000000 0.000000 0.000000 0.000000 -0.000107 0.000000 122.000000 0.014295 -0.117659 0.992951
-14.21000004 9.82999992 0.25999999 117 231 81 0.000000 0.000000 0.000000 0.000000 -0.000107 0.000000 122.000000 0.049010 -0.128794 0.990460
-14.23999977 9.88000011 0.22000000 117 231 81 0.000000 0.000000 0.000000 0.000000 -0.000107 0.000000 122.000000 -0.066654 -0.328043 0.942308
-14.26000023 9.93999958 0.19000000 117 231 81 0.000000 0.000000 0.000000 0.000000 -0.000107 0.000000 122.000000 -0.079606 -0.153271 0.984973
-13.85000038 9.67000008 1.05999994 117 231 81 0.000000 0.000000 0.000000 0.000000 -0.000107 0.000000 122.000000 -0.028913 0.843988 0.535582
-13.85000038 9.67000008 0.94000000 117 231 81 0.000000 0.000000 0.000000 0.000000 -0.000107 0.000000 122.000000 0.182121 0.951076 0.249573
-13.85000038 9.65999985 0.94000000 117 231 81 0.000000 0.000000 0.000000 0.000000 -0.000107 0.000000 122.000000 0.052869 0.687298 0.724449
-13.86999989 9.65999985 0.95999998 117 231 81 0.000000 0.000000 0.000000 0.000000 -0.000107 0.000000 122.000000 0.084446 0.928902 0.360569
-13.89000034 9.67000008 0.94000000 117 231 81 0.000000 0.000000 0.000000 0.000000 -0.000107 0.000000 122.000000 0.017707 0.851291 0.524395
-13.88000011 9.65999985 0.94999999 117 231 81 0.000000 0.000000 0.000000 0.000000 -0.000107 0.000000 122.000000 0.095155 0.864915 0.492817
-13.85000038 9.67000008 0.85000002 117 231 81 0.000000 0.000000 0.000000 0.000000 -0.000107 0.000000 122.000000 0.112567 0.993043 0.034550
-13.86999989 9.69999981 0.85000002 117 231 81 0.000000 0.000000 0.000000 0.000000 -0.000107 0.000000 122.000000 0.143530 0.988632 0.044781
-13.89000034 9.69999981 0.85000002 117 231 81 0.000000 0.000000 0.000000 0.000000 -0.000107 0.000000 122.000000 0.102570 0.886597 0.451026
-13.89999962 9.68999958 0.88999999 117 231 81 0.000000 0.000000 0.000000 0.000000 -0.000107 0.000000 122.000000 -0.003929 0.899854 0.436174
-13.89999962 9.67000008 0.92000002 117 231 81 0.000000 0.000000 0.000000 0.000000 -0.000107 0.000000 122.000000 0.012437 0.617713 0.786305
-13.88000011 9.67000008 0.86000001 117 231 81 0.000000 0.000000 0.000000 0.000000 -0.000107 0.000000 122.000000 0.186046 0.918868 0.347949
-13.85000038 9.57999992 1.13999999 117 231 81 0.000000 0.000000 0.000000 0.000000 -0.000107 0.000000 122.000000 -0.009025 -0.017048 0.999814
-13.85000038 9.57999992 1.13999999 117 231 81 0.000000 0.000000 0.000000 0.000000 -0.000107 0.000000 122.000000 -0.009025 -0.017048 0.999814
-13.82999992 9.63000011 1.01999998 117 231 81 0.000000 0.000000 0.000000 0.000000 -0.000107 0.000000 122.000000 0.266570 0.777627 0.569418
-13.82999992 9.56999969 1.05999994 117 231 81 0.000000 0.000000 0.000000 0.000000 -0.000107 0.000000 122.000000 -0.211134 0.462698 0.861007
-13.85999966 9.52000046 1.11000001 117 231 81 0.000000 0.000000 0.000000 0.000000 -0.000107 0.000000 122.000000 -0.092836 -0.121040 0.988297
-13.89999962 9.55000019 1.14999998 117 231 81 0.000000 0.000000 0.000000 0.000000 -0.000107 0.000000 122.000000 -0.173755 -0.091130 0.980563
-13.88000011 9.51000023 1.12000000 117 231 81 0.000000 0.000000 0.000000 0.000000 -0.000107 0.000000 122.000000 -0.235709 0.151433 0.959953
-13.89999962 9.56999969 0.98000002 117 231 81 0.000000 0.000000 0.000000 0.000000 -0.000107 0.000000 122.000000 -0.189034 0.533833 0.824190
-13.89999962 9.56999969 0.94000000 117 231 81 0.000000 0.000000 0.000000 0.000000 -0.000107 0.000000 122.000000 -0.177538 0.399821 0.899235
-13.89999962 9.63000011 0.92000002 117 231 81 0.000000 0.000000 0.000000 0.000000 -0.000107 0.000000 122.000000 0.291626 0.828093 0.478766
-13.89999962 9.56999969 0.83999997 117 231 81 0.000000 0.000000 0.000000 0.000000 -0.000107 0.000000 122.000000 0.113792 0.897696 0.425668
-13.82999992 9.52999973 0.99000001 117 231 81 0.000000 0.000000 0.000000 0.000000 -0.000107 0.000000 122.000000 -0.195806 0.652173 0.732346
-13.85999966 9.52000046 0.94000000 117 231 81 0.000000 0.000000 0.000000 0.000000 -0.000107 0.000000 122.000000 0.274465 0.750417 0.601285
-13.88000011 9.48999977 0.94999999 117 231 81 0.000000 0.000000 0.000000 0.000000 -0.000107 0.000000 122.000000 -0.151019 0.385309 0.910346
-13.84000015 9.48999977 0.92000002 117 231 81 0.000000 0.000000 0.000000 0.000000 -0.000107 0.000000 122.000000 0.044062 0.703572 0.709257
-13.93000031 9.47999954 0.93000001 117 231 81 0.000000 0.000000 0.000000 0.000000 -0.000107 0.000000 122.000000 -0.221859 0.322054 0.920358
-13.89999962 9.76000023 0.76999998 117 231 81 0.000000 0.000000 0.000000 0.000000 -0.000107 0.000000 122.000000 -0.015312 0.999382 -0.031645
-13.82999992 9.64999962 0.82999998 117 231 81 0.000000 0.000000 0.000000 0.000000 -0.000107 0.000000 122.000000 0.065406 0.952869 0.296249
-13.82999992 9.65999985 0.82999998 117 231 81 0.000000 0.000000 0.000000 0.000000 -0.000107 0.000000 122.000000 0.373461 0.821614 0.430672
-13.85999966 9.67000008 0.82999998 117 231 81 0.000000 0.000000 0.000000 0.000000 -0.000107 0.000000 122.000000 0.168616 0.985666 0.005658
-13.89000034 9.72000027 0.82999998 117 231 81 0.000000 0.000000 0.000000 0.000000 -0.000107 0.000000 122.000000 0.096328 0.989976 0.103292
-13.89000034 9.69999981 0.77999997 117 231 81 0.000000 0.000000 0.000000 0.000000 -0.000107 0.000000 122.000000 0.288696 0.930869 0.223915
-13.89999962 9.72000027 0.76999998 117 231 81 0.000000 0.000000 0.000000 0.000000 -0.000107 0.000000 122.000000 0.185529 0.941386 -0.281729
-13.89999962 9.72000027 0.76999998 117 231 81 0.000000 0.000000 0.000000 0.000000 -0.000107 0.000000 122.000000 0.185529 0.941386 -0.281729
-13.89000034 9.65999985 0.77999997 117 231 81 0.000000 0.000000 0.000000 0.000000 -0.000107 0.000000 122.000000 0.075723 0.933914 -0.349387
-13.88000011 9.68999958 0.79000002 117 231 81 0.000000 0.000000 0.000000 0.000000 -0.000107 0.000000 122.000000 0.389526 0.860653 0.327941
-13.89000034 9.72999954 0.67000002 117 231 81 0.000000 0.000000 0.000000 0.000000 -0.000107 0.000000 122.000000 0.521808 0.623130 -0.582602
-13.90999985 9.73999977 0.68000001 117 231 81 0.000000 0.000000 0.000000 0.000000 -0.000107 0.000000 122.000000 0.117938 0.977023 -0.177528
-13.97000027 9.73999977 0.70999998 117 231 81 0.000000 0.000000 0.000000 0.000000 -0.000107 0.000000 122.000000 0.338753 0.785072 -0.518565
-13.85999966 9.75000000 0.56000000 117 231 81 0.000000 0.000000 0.000000 0.000000 -0.000107 0.000000 122.000000 0.255047 0.850665 -0.459695
-13.88000011 9.77999973 0.55000001 117 231 81 0.000000 0.000000 0.000000 0.000000 -0.000107 0.000000 122.000000 0.644249 0.509680 -0.570236
-13.89000034 9.80000019 0.54000002 117 231 81 0.000000 0.000000 0.000000 0.000000 -0.000107 0.000000 122.000000 -0.652558 -0.406811 0.639275
-13.88000011 9.77999973 0.55000001 117 231 81 0.000000 0.000000 0.000000 0.000000 -0.000107 0.000000 122.000000 0.644249 0.509680 -0.570236
-13.88000011 9.75000000 0.55000001 117 231 81 0.000000 0.000000 0.000000 0.000000 -0.000107 0.000000 122.000000 0.318945 0.858225 -0.402149
-13.86999989 9.76000023 0.56999999 117 231 81 0.000000 0.000000 0.000000 0.000000 -0.000107 0.000000 122.000000 0.258158 0.908659 -0.328167
-13.86999989 9.75000000 0.56000000 117 231 81 0.000000 0.000000 0.000000 0.000000 -0.000107 0.000000 122.000000 0.254674 0.792146 -0.554658
-13.89999962 9.72999954 0.62000000 117 231 81 0.000000 0.000000 0.000000 0.000000 -0.000107 0.000000 122.000000 0.205047 0.766228 -0.608974
-13.89000034 9.68000031 0.60000002 117 231 81 0.000000 0.000000 0.000000 0.000000 -0.000107 0.000000 122.000000 0.392142 0.666807 -0.633714
-13.89000034 9.68000031 0.60000002 117 231 81 0.000000 0.000000 0.000000 0.000000 -0.000107 0.000000 122.000000 0.392142 0.666807 -0.633714
-13.88000011 9.67000008 0.60000002 117 231 81 0.000000 0.000000 0.000000 0.000000 -0.000107 0.000000 122.000000 -0.229418 -0.528123 0.817590
-13.89999962 9.71000004 0.50000000 117 231 81 0.000000 0.000000 0.000000 0.000000 -0.000107 0.000000 122.000000 -0.210959 -0.411591 0.886617
-13.88000011 9.71000004 0.50999999 117 231 81 0.000000 0.000000 0.000000 0.000000 -0.000107 0.000000 122.000000 0.148717 0.846655 -0.510938
-13.94999981 9.78999996 0.60000002 117 231 81 0.000000 0.000000 0.000000 0.000000 -0.000107 0.000000 122.000000 -0.032184 0.790598 -0.611489
-13.98999977 9.75000000 0.61000001 117 231 81 0.000000 0.000000 0.000000 0.000000 -0.000107 0.000000 122.000000 0.112677 0.874314 -0.472101
-13.94999981 9.77999973 0.56999999 117 231 81 0.000000 0.000000 0.000000 0.000000 -0.000107 0.000000 122.000000 0.146809 0.825989 -0.544233
-13.92000008 9.77999973 0.55000001 117 231 81 0.000000 0.000000 0.000000 0.000000 -0.000107 0.000000 122.000000 0.471135 0.625386 -0.622032
-13.93000031 9.81000042 0.56000000 117 231 81 0.000000 0.000000 0.000000 0.000000 -0.000107 0.000000 122.000000 0.286508 0.815686 -0.502563
-13.93000031 9.77999973 0.55000001 117 231 81 0.000000 0.000000 0.000000 0.000000 -0.000107 0.000000 122.000000 0.486136 0.644256 -0.590428
-13.93000031 9.77999973 0.55000001 117 231 81 0.000000 0.000000 0.000000 0.000000 -0.000107 0.000000 122.000000 0.486136 0.644256 -0.590428
-13.93999958 9.76000023 0.56000000 117 231 81 0.000000 0.000000 0.000000 0.000000 -0.000107 0.000000 122.000000 0.310938 0.786114 -0.534175
-13.93000031 9.75000000 0.55000001 117 231 81 0.000000 0.000000 0.000000 0.000000 -0.000107 0.000000 122.000000 -0.161491 -0.508178 0.845976
-13.94999981 9.75000000 0.55000001 117 231 81 0.000000 0.000000 0.000000 0.000000 -0.000107 0.000000 122.000000 -0.329042 -0.620803 0.711573
-13.97000027 9.78999996 0.52999997 117 231 81 0.000000 0.000000 0.000000 0.000000 -0.000107 0.000000 122.000000 0.496044 0.596934 -0.630564
-13.97000027 9.75000000 0.55000001 117 231 81 0.000000 0.000000 0.000000 0.000000 -0.000107 0.000000 122.000000 0.287802 0.835404 -0.468262
-13.96000004 9.76000023 0.55000001 117 231 81 0.000000 0.000000 0.000000 0.000000 -0.000107 0.000000 122.000000 -0.006641 -0.468854 0.883251
-13.93000031 9.69999981 0.61000001 117 231 81 0.000000 0.000000 0.000000 0.000000 -0.000107 0.000000 122.000000 -0.167330 -0.390436 0.905296
-13.93000031 9.68999958 0.57999998 117 231 81 0.000000 0.000000 0.000000 0.000000 -0.000107 0.000000 122.000000 0.023379 -0.554231 0.832034
-13.90999985 9.72999954 0.50999999 117 231 81 0.000000 0.000000 0.000000 0.000000 -0.000107 0.000000 122.000000 0.113698 0.760449 -0.639367
-13.85999966 9.63000011 0.76999998 117 231 81 0.000000 0.000000 0.000000 0.000000 -0.000107 0.000000 122.000000 0.272400 0.792006 -0.546374
-13.85000038 9.53999996 0.79000002 117 231 81 0.000000 0.000000 0.000000 0.000000 -0.000107 0.000000 122.000000 0.511241 0.849155 0.132544
-13.85999966 9.51000023 0.81000000 117 231 81 0.000000 0.000000 0.000000 0.000000 -0.000107 0.000000 122.000000 0.611251 0.718260 0.332378
-13.84000015 9.50000000 0.79000002 117 231 81 0.000000 0.000000 0.000000 0.000000 -0.000107 0.000000 122.000000 0.417602 0.905032 0.080782
-13.89000034 9.53999996 0.81000000 117 231 81 0.000000 0.000000 0.000000 0.000000 -0.000107 0.000000 122.000000 0.338985 0.920506 0.194313
-13.89000034 9.52999973 0.81000000 117 231 81 0.000000 0.000000 0.000000 0.000000 -0.000107 0.000000 122.000000 0.578736 0.678806 0.451981
-13.86999989 9.50000000 0.81000000 117 231 81 0.000000 0.000000 0.000000 0.000000 -0.000107 0.000000 122.000000 0.188792 0.969644 0.155400
-13.86999989 9.50000000 0.81999999 117 231 81 0.000000 0.000000 0.000000 0.000000 -0.000107 0.000000 122.000000 0.097759 0.868496 0.485961
-13.86999989 9.50000000 0.79000002 117 231 81 0.000000 0.000000 0.000000 0.000000 -0.000107 0.000000 122.000000 0.046186 0.992432 -0.113775
-13.88000011 9.50000000 0.79000002 117 231 81 0.000000 0.000000 0.000000 0.000000 -0.000107 0.000000 122.000000 0.141444 0.964156 -0.224494
-13.89000034 9.52000046 0.67000002 117 231 81 0.000000 0.000000 0.000000 0.000000 -0.000107 0.000000 122.000000 -0.134546 -0.362027 0.922406
-13.86999989 9.52000046 0.67000002 117 231 81 0.000000 0.000000 0.000000 0.000000 -0.000107 0.000000 122.000000 -0.223188 -0.099615 0.969672
-13.86999989 9.52000046 0.67000002 117 231 81 0.000000 0.000000 0.000000 0.000000 -0.000107 0.000000 122.000000 -0.223188 -0.099615 0.969672
-13.93000031 9.50000000 0.73000002 117 231 81 0.000000 0.000000 0.000000 0.000000 -0.000107 0.000000 122.000000 -0.018242 -0.263897 0.964378
-13.85000038 9.57999992 0.63999999 117 231 81 0.000000 0.000000 0.000000 0.000000 -0.000107 0.000000 122.000000 -0.110935 0.687795 -0.717378
-13.88000011 9.59000015 0.57999998 117 231 81 0.000000 0.000000 0.000000 0.000000 -0.000107 0.000000 122.000000 0.134164 -0.474624 0.869903
-13.84000015 9.61999989 0.50000000 117 231 81 0.000000 0.000000 0.000000 0.000000 -0.000107 0.000000 122.000000 0.022048 -0.380005 0.924722
-13.85999966 9.59000015 0.52999997 117 231 81 0.000000 0.000000 0.000000 0.000000 -0.000107 0.000000 122.000000 -0.108524 -0.273271 0.955796
-13.85000038 9.59000015 0.51999998 117 231 81 0.000000 0.000000 0.000000 0.000000 -0.000107 0.000000 122.000000 -0.310502 -0.047278 0.949396
-13.85000038 9.57999992 0.51999998 117 231 81 0.000000 0.000000 0.000000 0.000000 -0.000107 0.000000 122.000000 0.048692 -0.524484 0.850027
-13.88000011 9.63000011 0.51999998 117 231 81 0.000000 0.000000 0.000000 0.000000 -0.000107 0.000000 122.000000 -0.423244 -0.078074 0.902646
-13.86999989 9.57999992 0.51999998 117 231 81 0.000000 0.000000 0.000000 0.000000 -0.000107 0.000000 122.000000 -0.254432 -0.382392 0.888280
-13.86999989 9.47999954 0.63000000 117 231 81 0.000000 0.000000 0.000000 0.000000 -0.000107 0.000000 122.000000 -0.465140 -0.082412 0.881392
-13.89000034 9.47999954 0.63999999 117 231 81 0.000000 0.000000 0.000000 0.000000 -0.000107 0.000000 122.000000 0.282926 -0.036145 0.958460
-13.89999962 9.51000023 0.62000000 117 231 81 0.000000 0.000000 0.000000 0.000000 -0.000107 0.000000 122.000000 -0.113887 -0.231613 0.966119
-13.92000008 9.50000000 0.63000000 117 231 81 0.000000 0.000000 0.000000 0.000000 -0.000107 0.000000 122.000000 -0.211332 0.115157 0.970607
-13.93999958 9.48999977 0.62000000 117 231 81 0.000000 0.000000 0.000000 0.000000 -0.000107 0.000000 122.000000 -0.142184 0.169866 0.975156
-13.93999958 9.50000000 0.62000000 117 231 81 0.000000 0.000000 0.000000 0.000000 -0.000107 0.000000 122.000000 -0.192369 -0.034225 0.980726
-13.93000031 9.50000000 0.62000000 117 231 81 0.000000 0.000000 0.000000 0.000000 -0.000107 0.000000 122.000000 -0.448726 0.126783 0.884631
-14.10000038 9.72000027 0.68000001 117 231 81 0.000000 0.000000 0.000000 0.000000 -0.000107 0.000000 122.000000 -0.188689 -0.615156 0.765493
-14.15999985 9.65999985 0.68000001 117 231 81 0.000000 0.000000 0.000000 0.000000 -0.000107 0.000000 122.000000 -0.114011 -0.509442 0.852919
-14.10999966 9.76000023 0.57999998 117 231 81 0.000000 0.000000 0.000000 0.000000 -0.000107 0.000000 122.000000 0.023843 -0.699858 0.713884
-14.15999985 9.73999977 0.56000000 117 231 81 0.000000 0.000000 0.000000 0.000000 -0.000107 0.000000 122.000000 -0.052555 -0.609349 0.791159
-14.15999985 9.73999977 0.56999999 117 231 81 0.000000 0.000000 0.000000 0.000000 -0.000107 0.000000 122.000000 0.199513 0.737734 -0.644937
-14.15999985 9.73999977 0.56999999 117 231 81 0.000000 0.000000 0.000000 0.000000 -0.000107 0.000000 122.000000 0.199513 0.737734 -0.644937
-14.15999985 9.73999977 0.56000000 117 231 81 0.000000 0.000000 0.000000 0.000000 -0.000107 0.000000 122.000000 -0.052555 -0.609349 0.791159
-14.09000015 9.69999981 0.63000000 117 231 81 0.000000 0.000000 0.000000 0.000000 -0.000107 0.000000 122.000000 -0.095096 -0.750524 0.653965
-14.10000038 9.71000004 0.60000002 117 231 81 0.000000 0.000000 0.000000 0.000000 -0.000107 0.000000 122.000000 0.230889 0.695809 -0.680103
-14.10999966 9.71000004 0.58999997 117 231 81 0.000000 0.000000 0.000000 0.000000 -0.000107 0.000000 122.000000 -0.279285 -0.620811 0.732525
-14.09000015 9.68999958 0.58999997 117 231 81 0.000000 0.000000 0.000000 0.000000 -0.000107 0.000000 122.000000 -0.026752 0.713859 -0.699779
-14.14000034 9.72999954 0.63000000 117 231 81 0.000000 0.000000 0.000000 0.000000 -0.000107 0.000000 122.000000 -0.012374 0.815340 -0.578850
-14.10000038 9.65999985 0.56000000 117 231 81 0.000000 0.000000 0.000000 0.000000 -0.000107 0.000000 122.000000 0.112226 -0.392100 0.913052
-14.10000038 9.67000008 0.56999999 117 231 81 0.000000 0.000000 0.000000 0.000000 -0.000107 0.000000 122.000000 0.097028 -0.574928 0.812430
-14.09000015 9.65999985 0.56999999 117 231 81 0.000000 0.000000 0.000000 0.000000 -0.000107 0.000000 122.000000 -0.057605 -0.303387 0.951125
-14.07999992 9.65999985 0.56999999 117 231 81 0.000000 0.000000 0.000000 0.000000 -0.000107 0.000000 122.000000 0.111459 -0.441603 0.890260
-14.14999962 9.64999962 0.56999999 117 231 81 0.000000 0.000000 0.000000 0.000000 -0.000107 0.000000 122.000000 -0.212943 0.027361 0.976682
-14.14999962 9.67000008 0.56999999 117 231 81 0.000000 0.000000 0.000000 0.000000 -0.000107 0.000000 122.000000 -0.036976 -0.497126 0.866890
-14.14999962 9.67000008 0.56999999 117 231 81 0.000000 0.000000 0.000000 0.000000 -0.000107 0.000000 122.000000 -0.036976 -0.497126 0.866890
-14.15999985 9.65999985 0.56999999 117 231 81 0.000000 0.000000 0.000000 0.000000 -0.000107 0.000000 122.000000 -0.207048 -0.106661 0.972499
-14.15999985 9.67000008 0.56999999 117 231 81 0.000000 0.000000 0.000000 0.000000 -0.000107 0.000000 122.000000 -0.055882 -0.247121 0.967372
-14.15999985 9.65999985 0.56999999 117 231 81 0.000000 0.000000 0.000000 0.000000 -0.000107 0.000000 122.000000 -0.207048 -0.106661 0.972499
-14.14000034 9.64000034 0.70999998 117 231 81 0.000000 0.000000 0.000000 0.000000 -0.000107 0.000000 122.000000 0.061918 -0.689733 0.721412
-14.13000011 9.47999954 0.68000001 117 231 81 0.000000 0.000000 0.000000 0.000000 -0.000107 0.000000 122.000000 0.424772 0.614670 0.664643
-14.06999969 9.56000042 0.63999999 117 231 81 0.000000 0.000000 0.000000 0.000000 -0.000107 0.000000 122.000000 -0.064443 -0.348519 0.935084
-14.02999973 9.47999954 0.50000000 117 231 81 0.000000 0.000000 0.000000 0.000000 -0.000107 0.000000 122.000000 0.180013 0.355773 0.917072
-14.03999996 9.53999996 0.50999999 117 231 81 0.000000 0.000000 0.000000 0.000000 -0.000107 0.000000 122.000000 -0.067664 -0.284698 0.956226
-14.14999962 9.64000034 0.56999999 117 231 81 0.000000 0.000000 0.000000 0.000000 -0.000107 0.000000 122.000000 -0.143857 -0.321966 0.935758
-14.10999966 9.51000023 0.58999997 117 231 81 0.000000 0.000000 0.000000 0.000000 -0.000107 0.000000 122.000000 0.132728 0.039705 0.990357
-14.13000011 9.56000042 0.57999998 117 231 81 0.000000 0.000000 0.000000 0.000000 -0.000107 0.000000 122.000000 -0.323514 -0.212351 0.922088
-14.10000038 9.52000046 0.55000001 117 231 81 0.000000 0.000000 0.000000 0.000000 -0.000107 0.000000 122.000000 0.078042 -0.275066 0.958253
-14.10000038 9.56000042 0.50999999 117 231 81 0.000000 0.000000 0.000000 0.000000 -0.000107 0.000000 122.000000 -0.298172 0.095888 0.949684
-14.09000015 9.52999973 0.50000000 117 231 81 0.000000 0.000000 0.000000 0.000000 -0.000107 0.000000 122.000000 -0.308867 -0.259565 0.915001
-13.85000038 9.42000008 1.10000002 117 231 81 0.000000 0.000000 0.000000 0.000000 -0.000107 0.000000 122.000000 -0.126972 -0.392078 0.911127
-13.85000038 9.39999962 1.10000002 117 231 81 0.000000 0.000000 0.000000 0.000000 -0.000107 0.000000 122.000000 -0.029630 -0.207413 0.977805
-13.89999962 9.46000004 1.13999999 117 231 81 0.000000 0.000000 0.000000 0.000000 -0.000107 0.000000 122.000000 -0.182732 -0.228081 0.956341
-13.88000011 9.46000004 1.15999997 117 231 81 0.000000 0.000000 0.000000 0.000000 -0.000107 0.000000 122.000000 -0.216021 0.017707 0.976228
-13.88000011 9.43000031 1.14999998 117 231 81 0.000000 0.000000 0.000000 0.000000 -0.000107 0.000000 122.000000 0.019307 -0.371987 0.928037
-13.89000034 9.39999962 1.13000000 117 231 81 0.000000 0.000000 0.000000 0.000000 -0.000107 0.000000 122.000000 0.147593 -0.375307 0.915074
-13.85999966 9.46000004 1.09000003 117 231 81 0.000000 0.000000 0.000000 0.000000 -0.000107 0.000000 122.000000 -0.253562 0.406599 0.877715
-13.85999966 9.43999958 1.01999998 117 231 81 0.000000 0.000000 0.000000 0.000000 -0.000107 0.000000 122.000000 -0.291912 0.095559 0.951660
-13.88000011 9.47000027 1.07000005 117 231 81 0.000000 0.000000 0.000000 0.000000 -0.000107 0.000000 122.000000 -0.140535 -0.282408 0.948945
-13.89999962 9.43999958 1.08000004 117 231 81 0.000000 0.000000 0.000000 0.000000 -0.000107 0.000000 122.000000 0.094228 -0.325154 0.940955
-13.89000034 9.47000027 1.00999999 117 231 81 0.000000 0.000000 0.000000 0.000000 -0.000107 0.000000 122.000000 -0.215223 0.423024 0.880187
-13.88000011 9.43000031 1.01999998 117 231 81 0.000000 0.000000 0.000000 0.000000 -0.000107 0.000000 122.000000 -0.215445 0.054774 0.974979
-13.86999989 9.42000008 1.01999998 117 231 81 0.000000 0.000000 0.000000 0.000000 -0.000107 0.000000 122.000000 -0.212342 -0.242481 0.946633
-13.85000038 9.39000034 1.02999997 117 231 81 0.000000 0.000000 0.000000 0.000000 -0.000107 0.000000 122.000000 -0.438765 0.075649 0.895412
-13.88000011 9.39000034 1.05999994 117 231 81 0.000000 0.000000 0.000000 0.000000 -0.000107 0.000000 122.000000 -0.114244 -0.441462 0.889977
-13.89000034 9.34000015 1.04999995 117 231 81 0.000000 0.000000 0.000000 0.000000 -0.000107 0.000000 122.000000 -0.073101 -0.285991 0.955440
-13.92000008 9.40999985 1.01999998 117 231 81 0.000000 0.000000 0.000000 0.000000 -0.000107 0.000000 122.000000 -0.250422 0.247624 0.935934
-13.90999985 9.39000034 1.15999997 117 231 81 0.000000 0.000000 0.000000 0.000000 -0.000107 0.000000 122.000000 -0.146829 -0.417678 0.896653
-13.97000027 9.35000038 1.11000001 117 231 81 0.000000 0.000000 0.000000 0.000000 -0.000107 0.000000 122.000000 -0.351512 -0.042804 0.935204
-13.94999981 9.35999966 1.09000003 117 231 81 0.000000 0.000000 0.000000 0.000000 -0.000107 0.000000 122.000000 -0.075865 -0.571137 0.817341
-13.93999958 9.36999989 1.09000003 117 231 81 0.000000 0.000000 0.000000 0.000000 -0.000107 0.000000 122.000000 -0.062149 -0.476474 0.876989
-13.97999954 9.34000015 1.09000003 117 231 81 0.000000 0.000000 0.000000 0.000000 -0.000107 0.000000 122.000000 0.161882 -0.358956 0.919209
-13.98999977 9.32999992 1.01999998 117 231 81 0.000000 0.000000 0.000000 0.000000 -0.000107 0.000000 122.000000 0.228890 0.764524 -0.602588
-13.85999966 9.44999981 1.00000000 117 231 81 0.000000 0.000000 0.000000 0.000000 -0.000107 0.000000 122.000000 -0.162832 -0.299665 0.940046
-13.84000015 9.43000031 0.93000001 117 231 81 0.000000 0.000000 0.000000 0.000000 -0.000107 0.000000 122.000000 0.023016 -0.106311 0.994066
-13.89999962 9.46000004 0.94000000 117 231 81 0.000000 0.000000 0.000000 0.000000 -0.000107 0.000000 122.000000 -0.193921 -0.059019 0.979240
-13.85000038 9.43999958 0.88000000 117 231 81 0.000000 0.000000 0.000000 0.000000 -0.000107 0.000000 122.000000 0.294377 -0.092892 0.951164
-13.85000038 9.46000004 0.89999998 117 231 81 0.000000 0.000000 0.000000 0.000000 -0.000107 0.000000 122.000000 -0.232881 0.401978 0.885539
-13.85999966 9.43999958 0.88000000 117 231 81 0.000000 0.000000 0.000000 0.000000 -0.000107 0.000000 122.000000 -0.254810 0.158756 0.953870
-13.85999966 9.39999962 0.91000003 117 231 81 0.000000 0.000000 0.000000 0.000000 -0.000107 0.000000 122.000000 -0.128846 0.095748 0.987031
-13.89000034 9.44999981 0.92000002 117 231 81 0.000000 0.000000 0.000000 0.000000 -0.000107 0.000000 122.000000 -0.382285 -0.068409 0.921509
-13.88000011 9.40999985 0.88999999 117 231 81 0.000000 0.000000 0.000000 0.000000 -0.000107 0.000000 122.000000 0.114104 -0.194353 0.974273
-13.89000034 9.40999985 0.88999999 117 231 81 0.000000 0.000000 0.000000 0.000000 -0.000107 0.000000 122.000000 -0.310286 0.003709 0.950636
-13.89000034 9.39999962 0.91000003 117 231 81 0.000000 0.000000 0.000000 0.000000 -0.000107 0.000000 122.000000 0.177168 -0.440725 0.879985
-13.89000034 9.42000008 0.88999999 117 231 81 0.000000 0.000000 0.000000 0.000000 -0.000107 0.000000 122.000000 -0.113334 -0.415559 0.902478
-13.86999989 9.43000031 0.86000001 117 231 81 0.000000 0.000000 0.000000 0.000000 -0.000107 0.000000 122.000000 -0.213285 0.015319 0.976870
-13.89000034 9.43000031 0.87000000 117 231 81 0.000000 0.000000 0.000000 0.000000 -0.000107 0.000000 122.000000 0.027780 -0.421998 0.906171
-13.85000038 9.39000034 0.93000001 117 231 81 0.000000 0.000000 0.000000 0.000000 -0.000107 0.000000 122.000000 -0.211596 0.082906 0.973835
-13.85000038 9.35999966 0.94000000 117 231 81 0.000000 0.000000 0.000000 0.000000 -0.000107 0.000000 122.000000 0.197953 -0.374233 0.905961
-13.85999966 9.36999989 0.94000000 117 231 81 0.000000 0.000000 0.000000 0.000000 -0.000107 0.000000 122.000000 -0.149525 -0.653984 0.741584
-13.86999989 9.39000034 0.91000003 117 231 81 0.000000 0.000000 0.000000 0.000000 -0.000107 0.000000 122.000000 -0.222098 -0.127097 0.966705
-13.89000034 9.39000034 0.88999999 117 231 81 0.000000 0.000000 0.000000 0.000000 -0.000107 0.000000 122.000000 -0.076304 -0.365456 0.927696
-13.89000034 9.39000034 0.91000003 117 231 81 0.000000 0.000000 0.000000 0.000000 -0.000107 0.000000 122.000000 0.113849 -0.268265 0.956594
-13.86999989 9.38000011 0.89999998 117 231 81 0.000000 0.000000 0.000000 0.000000 -0.000107 0.000000 122.000000 -0.034867 -0.573207 0.818668
-13.89000034 9.36999989 0.89999998 117 231 81 0.000000 0.000000 0.000000 0.000000 -0.000107 0.000000 122.000000 -0.130436 -0.540796 0.830979
-13.86999989 9.39000034 0.91000003 117 231 81 0.000000 0.000000 0.000000 0.000000 -0.000107 0.000000 122.000000 -0.222098 -0.127097 0.966705
-13.88000011 9.36999989 0.87000000 117 231 81 0.000000 0.000000 0.000000 0.000000 -0.000107 0.000000 122.000000 0.280363 0.859473 -0.427438
-13.93999958 9.44999981 0.88000000 117 231 81 0.000000 0.000000 0.000000 0.000000 -0.000107 0.000000 122.000000 0.044955 -0.148698 0.987860
-13.90999985 9.43999958 0.87000000 117 231 81 0.000000 0.000000 0.000000 0.000000 -0.000107 0.000000 122.000000 -0.246170 -0.003568 0.969220
-13.90999985 9.43000031 0.89999998 117 231 81 0.000000 0.000000 0.000000 0.000000 -0.000107 0.000000 122.000000 -0.334000 -0.153834 0.929935
-13.90999985 9.43000031 0.89999998 117 231 81 0.000000 0.000000 0.000000 0.000000 -0.000107 0.000000 122.000000 -0.334000 -0.153834 0.929935
-13.92000008 9.43000031 0.92000002 117 231 81 0.000000 0.000000 0.000000 0.000000 -0.000107 0.000000 122.000000 0.204865 -0.186361 0.960885
-13.93999958 9.42000008 0.89999998 117 231 81 0.000000 0.000000 0.000000 0.000000 -0.000107 0.000000 122.000000 0.014873 -0.512449 0.858589
-13.93999958 9.43000031 0.87000000 117 231 81 0.000000 0.000000 0.000000 0.000000 -0.000107 0.000000 122.000000 -0.006946 -0.712624 0.701511
-13.96000004 9.42000008 0.87000000 117 231 81 0.000000 0.000000 0.000000 0.000000 -0.000107 0.000000 122.000000 -0.172392 -0.211871 0.961973
-13.97999954 9.31999969 0.94999999 117 231 81 0.000000 0.000000 0.000000 0.000000 -0.000107 0.000000 122.000000 -0.026687 0.728971 -0.684025
-13.90999985 9.36999989 0.88999999 117 231 81 0.000000 0.000000 0.000000 0.000000 -0.000107 0.000000 122.000000 0.234192 0.715152 -0.658568
-13.90999985 9.39000034 0.91000003 117 231 81 0.000000 0.000000 0.000000 0.000000 -0.000107 0.000000 122.000000 -0.127876 -0.408923 0.903565
-13.93000031 9.39000034 0.88999999 117 231 81 0.000000 0.000000 0.000000 0.000000 -0.000107 0.000000 122.000000 -0.218558 -0.321409 0.921373
-13.90999985 9.39000034 0.91000003 117 231 81 0.000000 0.000000 0.000000 0.000000 -0.000107 0.000000 122.000000 -0.127876 -0.408923 0.903565
-13.90999985 9.36999989 0.88999999 117 231 81 0.000000 0.000000 0.000000 0.000000 -0.000107 0.000000 122.000000 0.234192 0.715152 -0.658568
-13.94999981 9.35000038 0.83999997 117 231 81 0.000000 0.000000 0.000000 0.000000 -0.000107 0.000000 122.000000 0.492573 0.869805 -0.028496
-13.98999977 9.35000038 0.89999998 117 231 81 0.000000 0.000000 0.000000 0.000000 -0.000107 0.000000 122.000000 -0.058823 -0.707316 0.704446
-13.97999954 9.35000038 0.85000002 117 231 81 0.000000 0.000000 0.000000 0.000000 -0.000107 0.000000 122.000000 0.304927 0.865747 -0.396865
-13.97999954 9.35000038 0.85000002 117 231 81 0.000000 0.000000 0.000000 0.000000 -0.000107 0.000000 122.000000 0.304927 0.865747 -0.396865
-13.98999977 9.31999969 0.88000000 117 231 81 0.000000 0.000000 0.000000 0.000000 -0.000107 0.000000 122.000000 0.475755 0.861102 -0.179334
-13.98999977 9.31999969 0.88000000 117 231 81 0.000000 0.000000 0.000000 0.000000 -0.000107 0.000000 122.000000 0.475755 0.861102 -0.179334
-13.97999954 9.32999992 0.92000002 117 231 81 0.000000 0.000000 0.000000 0.000000 -0.000107 0.000000 122.000000 -0.166004 -0.417176 0.893536
-13.93999958 9.26000023 0.88000000 117 231 81 0.000000 0.000000 0.000000 0.000000 -0.000107 0.000000 122.000000 0.169421 0.731105 -0.660895
-13.93999958 9.26000023 0.88000000 117 231 81 0.000000 0.000000 0.000000 0.000000 -0.000107 0.000000 122.000000 0.169421 0.731105 -0.660895
-13.96000004 9.30000019 0.88999999 117 231 81 0.000000 0.000000 0.000000 0.000000 -0.000107 0.000000 122.000000 -0.193000 -0.721047 0.665464
-13.97000027 9.30000019 0.91000003 117 231 81 0.000000 0.000000 0.000000 0.000000 -0.000107 0.000000 122.000000 0.353255 0.885392 -0.302146
-13.96000004 9.28999996 0.91000003 117 231 81 0.000000 0.000000 0.000000 0.000000 -0.000107 0.000000 122.000000 0.187550 0.923651 -0.334206
-13.96000004 9.22999954 0.88999999 117 231 81 0.000000 0.000000 0.000000 0.000000 -0.000107 0.000000 122.000000 0.103809 0.934282 -0.341087
-14.00000000 9.31999969 0.91000003 117 231 81 0.000000 0.000000 0.000000 0.000000 -0.000107 0.000000 122.000000 0.405702 0.896588 -0.177585
-14.00000000 9.31000042 0.89999998 117 231 81 0.000000 0.000000 0.000000 0.000000 -0.000107 0.000000 122.000000 0.177948 0.786318 -0.591640
-14.01000023 9.30000019 0.88000000 117 231 81 0.000000 0.000000 0.000000 0.000000 -0.000107 0.000000 122.000000 0.248065 0.928471 -0.276415
-13.85999966 9.46000004 0.81999999 117 231 81 0.000000 0.000000 0.000000 0.000000 -0.000107 0.000000 122.000000 0.044002 0.668552 0.742362
-13.85999966 9.44999981 0.82999998 117 231 81 0.000000 0.000000 0.000000 0.000000 -0.000107 0.000000 122.000000 -0.077692 0.327885 0.941518
-13.84000015 9.46000004 0.81000000 117 231 81 0.000000 0.000000 0.000000 0.000000 -0.000107 0.000000 122.000000 0.375536 0.903317 0.207342
-13.86999989 9.44999981 0.82999998 117 231 81 0.000000 0.000000 0.000000 0.000000 -0.000107 0.000000 122.000000 -0.101365 0.167314 0.980679
-13.85999966 9.43999958 0.72000003 117 231 81 0.000000 0.000000 0.000000 0.000000 -0.000107 0.000000 122.000000 0.127049 -0.127049 0.983726
-13.82999992 9.46000004 0.69999999 117 231 81 0.000000 0.000000 0.000000 0.000000 -0.000107 0.000000 122.000000 -0.126060 -0.023427 0.991746
-13.82999992 9.46000004 0.69000000 117 231 81 0.000000 0.000000 0.000000 0.000000 -0.000107 0.000000 122.000000 0.015584 -0.243352 0.969813
-13.89999962 9.39999962 0.70999998 117 231 81 0.000000 0.000000 0.000000 0.000000 -0.000107 0.000000 122.000000 -0.117524 0.529583 0.840078
-13.88000011 9.40999985 0.67000002 117 231 81 0.000000 0.000000 0.000000 0.000000 -0.000107 0.000000 122.000000 0.012437 0.617713 0.786305
-13.84000015 9.35000038 0.80000001 117 231 81 0.000000 0.000000 0.000000 0.000000 -0.000107 0.000000 122.000000 0.520689 0.853161 0.031599
-13.84000015 9.39000034 0.80000001 117 231 81 0.000000 0.000000 0.000000 0.000000 -0.000107 0.000000 122.000000 0.682292 0.723554 0.104628
-13.82999992 9.38000011 0.76999998 117 231 81 0.000000 0.000000 0.000000 0.000000 -0.000107 0.000000 122.000000 0.597908 0.618119 0.510327
-13.82999992 9.39000034 0.75999999 117 231 81 0.000000 0.000000 0.000000 0.000000 -0.000107 0.000000 122.000000 0.343476 0.765967 0.543433
-13.86999989 9.38000011 0.80000001 117 231 81 0.000000 0.000000 0.000000 0.000000 -0.000107 0.000000 122.000000 0.388209 0.901972 -0.189053
-13.88000011 9.38000011 0.75999999 117 231 81 0.000000 0.000000 0.000000 0.000000 -0.000107 0.000000 122.000000 0.265881 0.903409 0.336391
-13.86999989 9.35999966 0.77999997 117 231 81 0.000000 0.000000 0.000000 0.000000 -0.000107 0.000000 122.000000 0.336413 0.941707 0.003752
-13.89999962 9.34000015 0.79000002 117 231 81 0.000000 0.000000 0.000000 0.000000 -0.000107 0.000000 122.000000 -0.025813 0.991005 0.131311
-13.89000034 9.34000015 0.77999997 117 231 81 0.000000 0.000000 0.000000 0.000000 -0.000107 0.000000 122.000000 0.116742 0.854666 0.505882
-13.89999962 9.35000038 0.72000003 117 231 81 0.000000 0.000000 0.000000 0.000000 -0.000107 0.000000 122.000000 0.077018 0.687353 0.722229
-13.88000011 9.39000034 0.73000002 117 231 81 0.000000 0.000000 0.000000 0.000000 -0.000107 0.000000 122.000000 -0.009638 0.794477 0.607217
-13.88000011 9.39000034 0.73000002 117 231 81 0.000000 0.000000 0.000000 0.000000 -0.000107 0.000000 122.000000 -0.009638 0.794477 0.607217
-13.88000011 9.36999989 0.69999999 117 231 81 0.000000 0.000000 0.000000 0.000000 -0.000107 0.000000 122.000000 -0.054547 0.530090 0.846185
-13.89999962 9.31000042 0.70999998 117 231 81 0.000000 0.000000 0.000000 0.000000 -0.000107 0.000000 122.000000 0.450535 0.713208 0.536984
-13.86999989 9.31000042 0.75000000 117 231 81 0.000000 0.000000 0.000000 0.000000 -0.000107 0.000000 122.000000 0.043581 0.962513 0.267711
-13.90999985 9.39999962 0.81000000 117 231 81 0.000000 0.000000 0.000000 0.000000 -0.000107 0.000000 122.000000 0.254912 0.927080 -0.274849
-13.93000031 9.47000027 0.69000000 117 231 81 0.000000 0.000000 0.000000 0.000000 -0.000107 0.000000 122.000000 0.117869 -0.244805 0.962381
-13.90999985 9.35999966 0.81999999 117 231 81 0.000000 0.000000 0.000000 0.000000 -0.000107 0.000000 122.000000 0.380151 0.909800 0.166583
-13.93000031 9.35000038 0.81999999 117 231 81 0.000000 0.000000 0.000000 0.000000 -0.000107 0.000000 122.000000 0.709550 0.703908 0.032445
-13.94999981 9.36999989 0.82999998 117 231 81 0.000000 0.000000 0.000000 0.000000 -0.000107 0.000000 122.000000 0.139177 0.773707 -0.618068
-13.93000031 9.35000038 0.81000000 117 231 81 0.000000 0.000000 0.000000 0.000000 -0.000107 0.000000 122.000000 0.684209 0.728984 -0.020988
-13.92000008 9.36999989 0.77999997 117 231 81 0.000000 0.000000 0.000000 0.000000 -0.000107 0.000000 122.000000 0.121296 0.877609 0.463777
-13.92000008 9.34000015 0.81000000 117 231 81 0.000000 0.000000 0.000000 0.000000 -0.000107 0.000000 122.000000 0.647085 0.755666 -0.101245
-13.93999958 9.31999969 0.81000000 117 231 81 0.000000 0.000000 0.000000 0.000000 -0.000107 0.000000 122.000000 0.473342 0.880226 0.033907
-13.92000008 9.34000015 0.81000000 117 231 81 0.000000 0.000000 0.000000 0.000000 -0.000107 0.000000 122.000000 0.647085 0.755666 -0.101245
-13.93000031 9.31000042 0.80000001 117 231 81 0.000000 0.000000 0.000000 0.000000 -0.000107 0.000000 122.000000 0.726270 0.687238 0.015334
-13.92000008 9.34000015 0.80000001 117 231 81 0.000000 0.000000 0.000000 0.000000 -0.000107 0.000000 122.000000 0.528837 0.846977 -0.054419
-13.90999985 9.32999992 0.82999998 117 231 81 0.000000 0.000000 0.000000 0.000000 -0.000107 0.000000 122.000000 0.527256 0.830691 0.178756
-13.93000031 9.31000042 0.75999999 117 231 81 0.000000 0.000000 0.000000 0.000000 -0.000107 0.000000 122.000000 0.435412 0.899132 -0.044485
-13.93000031 9.31000042 0.76999998 117 231 81 0.000000 0.000000 0.000000 0.000000 -0.000107 0.000000 122.000000 0.160759 0.850989 0.499974
-13.98999977 9.36999989 0.81999999 117 231 81 0.000000 0.000000 0.000000 0.000000 -0.000107 0.000000 122.000000 0.403060 0.839054 -0.365420
