//X Y Z R G B PointSourceId ScanDirectionFlag NumberOfReturns ReturnNumber GpsTime Intensity Classification Nx Ny Nz
4.61999989 1.95000005 0.03000000 42 56 206 97.000000 1.000000 4.000000 1.000000 176.000000 114.000000 13.000000 0.759039 -0.598078 -0.257221
4.65000010 1.95000005 -0.02000000 42 56 206 97.000000 1.000000 4.000000 1.000000 176.000000 114.000000 13.000000 -0.420798 0.906640 -0.030531
4.63999987 2.07999992 -0.05000000 42 56 206 97.000000 1.000000 4.000000 1.000000 176.000000 114.000000 13.000000 0.784474 -0.605846 0.132482
4.55000019 2.20000005 0.13000000 42 56 206 97.000000 1.000000 4.000000 1.000000 176.000000 114.000000 13.000000 0.429447 0.552146 0.714640
4.50000000 2.23000002 0.12000000 42 56 206 97.000000 1.000000 4.000000 1.000000 176.000000 114.000000 13.000000 -0.244837 0.914156 0.323069
4.51000023 2.24000001 0.07000000 42 56 206 97.000000 1.000000 4.000000 1.000000 176.000000 114.000000 13.000000 -0.173650 0.807848 0.563229
4.48999977 2.24000001 0.08000000 42 56 206 97.000000 1.000000 4.000000 1.000000 176.000000 114.000000 13.000000 0.015309 0.750156 0.661084
4.51999998 2.24000001 0.07000000 42 56 206 97.000000 1.000000 4.000000 1.000000 176.000000 114.000000 13.000000 0.070797 0.686299 0.723865
4.48999977 2.18000007 0.11000000 42 56 206 97.000000 1.000000 4.000000 1.000000 176.000000 114.000000 13.000000 0.190505 0.841524 0.505514
4.51999998 2.20000005 0.12000000 42 56 206 97.000000 1.000000 4.000000 1.000000 176.000000 114.000000 13.000000 0.394557 0.528804 0.751459
4.51999998 2.20000005 0.12000000 42 56 206 97.000000 1.000000 4.000000 1.000000 176.000000 114.000000 13.000000 0.394557 0.528804 0.751459
4.48999977 2.19000006 0.11000000 42 56 206 97.000000 1.000000 4.000000 1.000000 176.000000 114.000000 13.000000 0.061677 0.750166 0.658367
4.48000002 2.19000006 0.10000000 42 56 206 97.000000 1.000000 4.000000 1.000000 176.000000 114.000000 13.000000 0.091478 0.596787 0.797168
4.53999996 2.22000003 0.00000000 42 56 206 97.000000 1.000000 4.000000 1.000000 176.000000 114.000000 13.000000 0.581442 0.503916 0.638744
4.51000023 2.25000000 0.02000000 42 56 206 97.000000 1.000000 4.000000 1.000000 176.000000 114.000000 13.000000 -0.274312 0.853585 0.442883
4.51000023 2.23000002 -0.01000000 42 56 206 97.000000 1.000000 4.000000 1.000000 176.000000 114.000000 13.000000 -0.270230 0.877116 0.397042
4.44999981 2.22000003 0.13000000 42 56 206 97.000000 1.000000 4.000000 1.000000 176.000000 114.000000 13.000000 -0.163760 0.857157 0.488329
4.53000021 2.25000000 -0.13000000 42 56 206 97.000000 1.000000 4.000000 1.000000 176.000000 114.000000 13.000000 0.863690 0.253491 0.435640
4.55000019 2.21000004 -0.14000000 42 56 206 97.000000 1.000000 4.000000 1.000000 176.000000 114.000000 13.000000 0.257749 0.834985 0.486174
4.42000008 2.22000003 -0.14000000 42 56 206 97.000000 1.000000 4.000000 1.000000 176.000000 114.000000 13.000000 0.775604 0.246000 0.581311
4.42999983 2.25000000 -0.12000000 42 56 206 97.000000 1.000000 4.000000 1.000000 176.000000 114.000000 13.000000 0.962361 -0.164113 0.216630
4.42000008 2.23000002 -0.14000000 42 56 206 97.000000 1.000000 4.000000 1.000000 176.000000 114.000000 13.000000 0.926728 0.035192 0.374080
4.40000010 2.23000002 -0.13000000 42 56 206 97.000000 1.000000 4.000000 1.000000 176.000000 114.000000 13.000000 0.979152 -0.191967 0.066404
4.73000002 1.87000000 0.15000001 42 56 206 97.000000 1.000000 4.000000 1.000000 176.000000 114.000000 13.000000 -0.718619 0.632193 0.289688
4.69999981 1.78999996 0.16000000 42 56 206 97.000000 1.000000 4.000000 1.000000 176.000000 114.000000 13.000000 -0.453951 0.890390 -0.033676
4.69999981 1.78999996 0.16000000 42 56 206 97.000000 1.000000 4.000000 1.000000 176.000000 114.000000 13.000000 -0.453951 0.890390 -0.033676
4.71000004 1.82000005 0.15000001 42 56 206 97.000000 1.000000 4.000000 1.000000 176.000000 114.000000 13.000000 0.681335 -0.560804 -0.470406
4.73000002 1.86000001 0.13000000 42 56 206 97.000000 1.000000 4.000000 1.000000 176.000000 114.000000 13.000000 -0.569681 0.816108 0.097121
4.69000006 1.85000002 0.09000000 42 56 206 97.000000 1.000000 4.000000 1.000000 176.000000 114.000000 13.000000 0.760281 -0.522591 -0.385838
4.73000002 1.79999995 0.13000000 42 56 206 97.000000 1.000000 4.000000 1.000000 176.000000 114.000000 13.000000 -0.539721 0.808808 0.233518
4.38000011 2.23000002 -0.10000000 42 56 206 97.000000 1.000000 4.000000 1.000000 176.000000 114.000000 13.000000 0.870313 0.181131 0.457982
4.25000000 2.03999996 -0.09000000 42 56 206 97.000000 1.000000 4.000000 1.000000 176.000000 114.000000 13.000000 0.542688 0.398408 0.739433
4.23000002 2.02999997 -0.08000000 42 56 206 97.000000 1.000000 4.000000 1.000000 176.000000 114.000000 13.000000 0.910805 0.361156 0.200003
4.25000000 2.00999999 -0.11000000 42 56 206 97.000000 1.000000 4.000000 1.000000 176.000000 114.000000 13.000000 0.713977 -0.001381 0.700167
4.23999977 1.94000006 -0.13000000 42 56 206 97.000000 1.000000 4.000000 1.000000 176.000000 114.000000 13.000000 0.376999 0.540202 0.752366
4.19999981 1.96000004 -0.12000000 42 56 206 97.000000 1.000000 4.000000 1.000000 176.000000 114.000000 13.000000 0.532900 0.420710 0.734181
4.19000006 1.98000002 -0.13000000 42 56 206 97.000000 1.000000 4.000000 1.000000 176.000000 114.000000 13.000000 0.703840 0.329976 0.629067
4.21999979 1.99000001 -0.19000000 42 56 206 97.000000 1.000000 4.000000 1.000000 176.000000 114.000000 13.000000 0.558334 0.268944 0.784813
4.21999979 1.99000001 -0.16000000 42 56 206 97.000000 1.000000 4.000000 1.000000 176.000000 114.000000 13.000000 0.432549 0.323241 0.841675
4.15999985 1.92999995 -0.12000000 42 56 206 97.000000 1.000000 4.000000 1.000000 176.000000 114.000000 13.000000 0.628881 -0.001376 0.777500
4.11999989 1.95000005 -0.12000000 42 56 206 97.000000 1.000000 4.000000 1.000000 176.000000 114.000000 13.000000 0.542996 0.600510 0.586977
4.11000013 1.95000005 -0.11000000 42 56 206 97.000000 1.000000 4.000000 1.000000 176.000000 114.000000 13.000000 0.554758 0.075584 0.828572
4.11000013 1.91999996 -0.15000001 42 56 206 97.000000 1.000000 4.000000 1.000000 176.000000 114.000000 13.000000 0.497603 0.544515 0.675199
4.11999989 1.94000006 -0.15000001 42 56 206 97.000000 1.000000 4.000000 1.000000 176.000000 114.000000 13.000000 0.673853 0.405636 0.617561
4.07000017 1.99000001 -0.11000000 42 56 206 97.000000 1.000000 4.000000 1.000000 176.000000 114.000000 13.000000 0.647400 0.126503 0.751579
4.11999989 1.90999997 -0.16000000 42 56 206 97.000000 1.000000 4.000000 1.000000 176.000000 114.000000 13.000000 0.704333 0.001384 0.709868
4.05999994 1.90999997 -0.12000000 42 56 206 97.000000 1.000000 4.000000 1.000000 176.000000 114.000000 13.000000 0.787328 0.557887 0.262443
4.92000008 2.25999999 -0.38000000 42 56 206 97.000000 1.000000 4.000000 1.000000 176.000000 114.000000 13.000000 0.876892 -0.477679 0.053687
4.92000008 2.25999999 -0.40000001 42 56 206 97.000000 1.000000 4.000000 1.000000 176.000000 114.000000 13.000000 -0.521176 0.853205 -0.020412
4.78000021 2.44000006 -0.22000000 42 56 206 97.000000 1.000000 4.000000 1.000000 176.000000 114.000000 13.000000 0.718245 0.556434 0.417738
4.80000019 2.40000010 -0.25000000 42 56 206 97.000000 1.000000 4.000000 1.000000 176.000000 114.000000 13.000000 0.967620 0.239709 0.079066
4.80999994 2.42000008 -0.27000001 42 56 206 97.000000 1.000000 4.000000 1.000000 176.000000 114.000000 13.000000 0.819006 0.392805 0.418250
4.78000021 2.36999989 -0.28000000 42 56 206 97.000000 1.000000 4.000000 1.000000 176.000000 114.000000 13.000000 0.969273 -0.223678 0.102361
4.78000021 2.36999989 -0.28000000 42 56 206 97.000000 1.000000 4.000000 1.000000 176.000000 114.000000 13.000000 0.969273 -0.223678 0.102361
4.76999998 2.34999990 -0.27000001 42 56 206 97.000000 1.000000 4.000000 1.000000 176.000000 114.000000 13.000000 0.969874 -0.178560 0.165714
4.76000023 2.35999990 -0.34999999 42 56 206 97.000000 1.000000 4.000000 1.000000 176.000000 114.000000 13.000000 0.753197 -0.490645 0.438134
4.76000023 2.34999990 -0.34000000 42 56 206 97.000000 1.000000 4.000000 1.000000 176.000000 114.000000 13.000000 0.976583 -0.203607 -0.069495
4.78999996 2.29999995 -0.28000000 42 56 206 97.000000 1.000000 4.000000 1.000000 176.000000 114.000000 13.000000 0.865207 -0.483880 0.131442
4.75000000 2.33999991 -0.27000001 42 56 206 97.000000 1.000000 4.000000 1.000000 176.000000 114.000000 13.000000 0.754851 -0.632855 0.172320
4.76000023 2.28999996 -0.27000001 42 56 206 97.000000 1.000000 4.000000 1.000000 176.000000 114.000000 13.000000 -0.690043 0.708163 -0.149484
4.76999998 2.29999995 -0.28000000 42 56 206 97.000000 1.000000 4.000000 1.000000 176.000000 114.000000 13.000000 0.756903 -0.487636 0.435096
4.73999977 2.31999993 -0.30000001 42 56 206 97.000000 1.000000 4.000000 1.000000 176.000000 114.000000 13.000000 0.830820 -0.555272 -0.037575
4.76999998 2.28999996 -0.30000001 42 56 206 97.000000 1.000000 4.000000 1.000000 176.000000 114.000000 13.000000 0.834710 -0.550553 0.012295
4.76999998 2.27999997 -0.30000001 42 56 206 97.000000 1.000000 4.000000 1.000000 176.000000 114.000000 13.000000 0.811057 -0.583342 -0.043575
4.76000023 2.26999998 -0.28999999 42 56 206 97.000000 1.000000 4.000000 1.000000 176.000000 114.000000 13.000000 -0.639123 0.746410 -0.185453
4.73999977 2.28999996 -0.34999999 42 56 206 97.000000 1.000000 4.000000 1.000000 176.000000 114.000000 13.000000 -0.351453 0.922738 0.158224
4.88999987 2.25999999 -0.44000000 42 56 206 97.000000 1.000000 4.000000 1.000000 176.000000 114.000000 13.000000 0.811841 -0.444998 -0.378009
4.84000015 2.33999991 -0.41000000 42 56 206 97.000000 1.000000 4.000000 1.000000 176.000000 114.000000 13.000000 0.689922 -0.719094 0.083141
4.78000021 2.31999993 -0.38999999 42 56 206 97.000000 1.000000 4.000000 1.000000 176.000000 114.000000 13.000000 0.901048 -0.334759 -0.275771
4.76999998 2.30999994 -0.41999999 42 56 206 97.000000 1.000000 4.000000 1.000000 176.000000 114.000000 13.000000 -0.265239 0.921886 0.282444
4.76999998 2.27999997 -0.40000001 42 56 206 97.000000 1.000000 4.000000 1.000000 176.000000 114.000000 13.000000 -0.356531 0.934136 0.016613
4.73000002 2.26999998 -0.20999999 42 56 206 97.000000 1.000000 4.000000 1.000000 176.000000 114.000000 13.000000 0.996951 -0.042034 -0.065745
4.73000002 2.33999991 -0.31999999 42 56 206 97.000000 1.000000 4.000000 1.000000 176.000000 114.000000 13.000000 0.943556 -0.230035 -0.238299
4.71999979 2.32999992 -0.36000001 42 56 206 97.000000 1.000000 4.000000 1.000000 176.000000 114.000000 13.000000 0.728652 -0.650970 -0.212847
4.71999979 2.32999992 -0.33000001 42 56 206 97.000000 1.000000 4.000000 1.000000 176.000000 114.000000 13.000000 0.872600 -0.346901 -0.343844
4.71999979 2.32999992 -0.34999999 42 56 206 97.000000 1.000000 4.000000 1.000000 176.000000 114.000000 13.000000 0.837276 -0.536493 -0.105563
4.67000008 2.26999998 -0.31999999 42 56 206 97.000000 1.000000 4.000000 1.000000 176.000000 114.000000 13.000000 -0.267584 0.857799 0.438838
4.69000006 2.29999995 -0.36000001 42 56 206 97.000000 1.000000 4.000000 1.000000 176.000000 114.000000 13.000000 -0.300260 0.819034 0.488905
4.63000011 2.25999999 -0.25000000 42 56 206 97.000000 1.000000 4.000000 1.000000 176.000000 114.000000 13.000000 -0.458367 0.884690 0.084986
4.57000017 2.27999997 -0.33000001 42 56 206 97.000000 1.000000 4.000000 1.000000 176.000000 114.000000 13.000000 0.764835 0.470038 0.440558
4.57000017 2.32999992 -0.34999999 42 56 206 97.000000 1.000000 4.000000 1.000000 176.000000 114.000000 13.000000 0.562691 0.682909 0.465848
4.69999981 2.32999992 -0.41999999 42 56 206 97.000000 1.000000 4.000000 1.000000 176.000000 114.000000 13.000000 -0.012526 0.708442 0.705658
4.69000006 2.30999994 -0.40000001 42 56 206 97.000000 1.000000 4.000000 1.000000 176.000000 114.000000 13.000000 0.268769 -0.704526 -0.656815
4.67000008 2.30999994 -0.41000000 42 56 206 97.000000 1.000000 4.000000 1.000000 176.000000 114.000000 13.000000 -0.299174 0.822336 0.484003
4.67999983 2.29999995 -0.40000001 42 56 206 97.000000 1.000000 4.000000 1.000000 176.000000 114.000000 13.000000 -0.220153 0.729158 0.647967
4.67999983 2.28999996 -0.40000001 42 56 206 97.000000 1.000000 4.000000 1.000000 176.000000 114.000000 13.000000 -0.373904 0.637449 0.673687
4.69000006 2.29999995 -0.43000001 42 56 206 97.000000 1.000000 4.000000 1.000000 176.000000 114.000000 13.000000 -0.143996 0.812017 0.565591
4.65000010 2.34999990 -0.50999999 42 56 206 97.000000 1.000000 4.000000 1.000000 176.000000 114.000000 13.000000 0.602749 0.545344 0.582489
4.63999987 2.35999990 -0.49000001 42 56 206 97.000000 1.000000 4.000000 1.000000 176.000000 114.000000 13.000000 0.527319 0.564383 0.635142
4.63000011 2.34999990 -0.47000000 42 56 206 97.000000 1.000000 4.000000 1.000000 176.000000 114.000000 13.000000 0.555255 0.788052 0.265830
4.63999987 2.30999994 -0.40000001 42 56 206 97.000000 1.000000 4.000000 1.000000 176.000000 114.000000 13.000000 0.213162 -0.735954 -0.642599
4.63999987 2.30999994 -0.38000000 42 56 206 97.000000 1.000000 4.000000 1.000000 176.000000 114.000000 13.000000 0.020018 0.887476 0.460420
4.63000011 2.31999993 -0.41000000 42 56 206 97.000000 1.000000 4.000000 1.000000 176.000000 114.000000 13.000000 0.332886 0.804341 0.492161
4.63000011 2.33999991 -0.41999999 42 56 206 97.000000 1.000000 4.000000 1.000000 176.000000 114.000000 13.000000 0.344601 0.694101 0.632040
4.63999987 2.31999993 -0.41000000 42 56 206 97.000000 1.000000 4.000000 1.000000 176.000000 114.000000 13.000000 0.034295 0.860120 0.508938
4.61999989 2.33999991 -0.41999999 42 56 206 97.000000 1.000000 4.000000 1.000000 176.000000 114.000000 13.000000 0.522262 0.736439 0.430001
4.61000013 2.33999991 -0.41999999 42 56 206 97.000000 1.000000 4.000000 1.000000 176.000000 114.000000 13.000000 0.538319 0.335847 0.772929
4.61000013 2.25999999 -0.44999999 42 56 206 97.000000 1.000000 4.000000 1.000000 176.000000 114.000000 13.000000 0.346682 0.836115 0.425116
4.63999987 2.31999993 -0.47000000 42 56 206 97.000000 1.000000 4.000000 1.000000 176.000000 114.000000 13.000000 -0.087252 0.833904 0.544970
4.63000011 2.32999992 -0.51999998 42 56 206 97.000000 1.000000 4.000000 1.000000 176.000000 114.000000 13.000000 0.352667 0.784241 0.510482
4.63999987 2.32999992 -0.51999998 42 56 206 97.000000 1.000000 4.000000 1.000000 176.000000 114.000000 13.000000 0.097342 0.878904 0.466962
4.53000021 2.34999990 -0.31000000 42 56 206 97.000000 1.000000 4.000000 1.000000 176.000000 114.000000 13.000000 0.762387 0.305274 0.570591
4.53000021 2.35999990 -0.30000001 42 56 206 97.000000 1.000000 4.000000 1.000000 176.000000 114.000000 13.000000 0.976326 -0.149144 0.156663
4.48000002 2.33999991 -0.23000000 42 56 206 97.000000 1.000000 4.000000 1.000000 176.000000 114.000000 13.000000 0.858353 -0.494027 0.138444
4.53000021 2.32999992 -0.30000001 42 56 206 97.000000 1.000000 4.000000 1.000000 176.000000 114.000000 13.000000 0.920710 0.137482 0.365229
4.53999996 2.31999993 -0.34999999 42 56 206 97.000000 1.000000 4.000000 1.000000 176.000000 114.000000 13.000000 0.921486 0.352044 0.164100
4.55999994 2.28999996 -0.34999999 42 56 206 97.000000 1.000000 4.000000 1.000000 176.000000 114.000000 13.000000 0.567845 0.743567 0.353072
4.53999996 2.31999993 -0.31000000 42 56 206 97.000000 1.000000 4.000000 1.000000 176.000000 114.000000 13.000000 0.743238 0.463082 0.482858
4.53999996 2.30999994 -0.34999999 42 56 206 97.000000 1.000000 4.000000 1.000000 176.000000 114.000000 13.000000 0.760808 0.604585 0.235897
4.44000006 2.35999990 -0.20000000 42 56 206 97.000000 1.000000 4.000000 1.000000 176.000000 114.000000 13.000000 0.811564 -0.424190 0.401780
4.71999979 2.25999999 -0.54000002 42 56 206 97.000000 1.000000 4.000000 1.000000 176.000000 114.000000 13.000000 -0.162306 0.650739 0.741752
4.61000013 2.30999994 -0.54000002 42 56 206 97.000000 1.000000 4.000000 1.000000 176.000000 114.000000 13.000000 0.088642 0.626303 0.774524
4.65000010 2.30999994 -0.58999997 42 56 206 97.000000 1.000000 4.000000 1.000000 176.000000 114.000000 13.000000 -0.111190 0.704203 0.701238
4.63000011 2.27999997 -0.58999997 42 56 206 97.000000 1.000000 4.000000 1.000000 176.000000 114.000000 13.000000 0.208671 0.771309 0.601281
4.61000013 2.26999998 -0.62000000 42 56 206 97.000000 1.000000 4.000000 1.000000 176.000000 114.000000 13.000000 0.563613 0.355709 0.745528
4.59000015 2.28999996 -0.57999998 42 56 206 97.000000 1.000000 4.000000 1.000000 176.000000 114.000000 13.000000 0.589200 0.701428 0.401052
4.59999990 2.29999995 -0.58999997 42 56 206 97.000000 1.000000 4.000000 1.000000 176.000000 114.000000 13.000000 0.199973 0.445866 0.872476
4.59999990 2.27999997 -0.62000000 42 56 206 97.000000 1.000000 4.000000 1.000000 176.000000 114.000000 13.000000 0.601764 0.347360 0.719181
4.61999989 2.31999993 -0.64999998 42 56 206 97.000000 1.000000 4.000000 1.000000 176.000000 114.000000 13.000000 0.536791 0.777145 0.328484
4.63000011 2.29999995 -0.67000002 42 56 206 97.000000 1.000000 4.000000 1.000000 176.000000 114.000000 13.000000 0.078480 0.549362 0.831891
4.61999989 2.28999996 -0.69999999 42 56 206 97.000000 1.000000 4.000000 1.000000 176.000000 114.000000 13.000000 -0.050024 -0.690325 -0.721768
4.61999989 2.27999997 -0.69999999 42 56 206 97.000000 1.000000 4.000000 1.000000 176.000000 114.000000 13.000000 0.570552 0.584096 0.577324
4.67000008 2.28999996 -0.83999997 42 56 206 97.000000 1.000000 4.000000 1.000000 176.000000 114.000000 13.000000 0.469431 0.778054 0.417453
4.65999985 2.25999999 -0.87000000 42 56 206 97.000000 1.000000 4.000000 1.000000 176.000000 114.000000 13.000000 0.425972 0.571830 0.701113
4.63000011 2.26999998 -0.77999997 42 56 206 97.000000 1.000000 4.000000 1.000000 176.000000 114.000000 13.000000 0.055362 0.903339 0.425339
4.63999987 2.28999996 -0.75999999 42 56 206 97.000000 1.000000 4.000000 1.000000 176.000000 114.000000 13.000000 -0.017997 0.593906 0.804334
4.61000013 2.26999998 -0.77999997 42 56 206 97.000000 1.000000 4.000000 1.000000 176.000000 114.000000 13.000000 0.115695 0.815721 0.566758
4.57000017 2.25999999 -0.73000002 42 56 206 97.000000 1.000000 4.000000 1.000000 176.000000 114.000000 13.000000 0.513436 0.783835 0.349265
4.57000017 2.25999999 -0.73000002 42 56 206 97.000000 1.000000 4.000000 1.000000 176.000000 114.000000 13.000000 0.513436 0.783835 0.349265
4.57000017 2.25999999 -0.75999999 42 56 206 97.000000 1.000000 4.000000 1.000000 176.000000 114.000000 13.000000 0.364752 0.580659 0.727868
4.57999992 2.25999999 -0.75999999 42 56 206 97.000000 1.000000 4.000000 1.000000 176.000000 114.000000 13.000000 0.300799 0.696503 0.651463
4.63999987 2.25999999 -0.83999997 42 56 206 97.000000 1.000000 4.000000 1.000000 176.000000 114.000000 13.000000 0.608269 0.604899 0.513912
4.61999989 2.26999998 -0.83999997 42 56 206 97.000000 1.000000 4.000000 1.000000 176.000000 114.000000 13.000000 0.466539 0.831657 0.301144
4.65000010 2.27999997 -0.85000002 42 56 206 97.000000 1.000000 4.000000 1.000000 176.000000 114.000000 13.000000 0.233090 0.627308 0.743071
4.63999987 2.27999997 -0.85000002 42 56 206 97.000000 1.000000 4.000000 1.000000 176.000000 114.000000 13.000000 0.626479 0.701330 0.340088
4.65000010 2.25999999 -0.87000000 42 56 206 97.000000 1.000000 4.000000 1.000000 176.000000 114.000000 13.000000 0.377633 0.664569 0.644780
4.96999979 2.24000001 -0.41999999 42 56 206 97.000000 1.000000 4.000000 1.000000 176.000000 114.000000 13.000000 0.732534 -0.631276 -0.254725
4.94999981 2.22000003 -0.41999999 42 56 206 97.000000 1.000000 4.000000 1.000000 176.000000 114.000000 13.000000 0.743279 -0.479588 -0.466403
4.94999981 2.19000006 -0.41999999 42 56 206 97.000000 1.000000 4.000000 1.000000 176.000000 114.000000 13.000000 -0.542419 0.814392 0.206272
4.94999981 2.19000006 -0.41999999 42 56 206 97.000000 1.000000 4.000000 1.000000 176.000000 114.000000 13.000000 -0.542419 0.814392 0.206272
4.92999983 2.06999993 -0.46000001 42 56 206 97.000000 1.000000 4.000000 1.000000 176.000000 114.000000 13.000000 -0.423259 0.866239 0.265485
4.94000006 2.05999994 -0.47999999 42 56 206 97.000000 1.000000 4.000000 1.000000 176.000000 114.000000 13.000000 0.839925 -0.528410 -0.123732
4.80000019 2.25000000 -0.20000000 42 56 206 97.000000 1.000000 4.000000 1.000000 176.000000 114.000000 13.000000 0.735860 -0.646007 0.202942
4.73999977 2.24000001 -0.23000000 42 56 206 97.000000 1.000000 4.000000 1.000000 176.000000 114.000000 13.000000 0.822857 -0.511005 0.248555
4.75000000 2.21000004 -0.20000000 42 56 206 97.000000 1.000000 4.000000 1.000000 176.000000 114.000000 13.000000 0.897739 -0.438805 0.038915
4.88999987 2.25000000 -0.41000000 42 56 206 97.000000 1.000000 4.000000 1.000000 176.000000 114.000000 13.000000 -0.651912 0.758005 -0.020939
4.86999989 2.24000001 -0.41000000 42 56 206 97.000000 1.000000 4.000000 1.000000 176.000000 114.000000 13.000000 -0.459197 0.887054 0.047691
4.90000010 2.20000005 -0.43000001 42 56 206 97.000000 1.000000 4.000000 1.000000 176.000000 114.000000 13.000000 -0.617713 0.786305 0.012437
4.82999992 2.18000007 -0.47000000 42 56 206 97.000000 1.000000 4.000000 1.000000 176.000000 114.000000 13.000000 -0.241219 0.923484 0.298312
4.78000021 2.19000006 -0.38999999 42 56 206 97.000000 1.000000 4.000000 1.000000 176.000000 114.000000 13.000000 -0.348190 0.694746 0.629358
4.78000021 2.19000006 -0.43000001 42 56 206 97.000000 1.000000 4.000000 1.000000 176.000000 114.000000 13.000000 -0.101027 0.863713 0.493754
4.80000019 2.21000004 -0.44999999 42 56 206 97.000000 1.000000 4.000000 1.000000 176.000000 114.000000 13.000000 -0.388424 0.629744 0.672718
4.80000019 2.11999989 -0.41999999 42 56 206 97.000000 1.000000 4.000000 1.000000 176.000000 114.000000 13.000000 -0.138848 0.886050 0.442309
4.73999977 2.17000008 -0.80000001 42 56 206 97.000000 1.000000 4.000000 1.000000 176.000000 114.000000 13.000000 0.361401 0.828539 0.427684
4.78000021 2.15000010 -1.09000003 42 56 206 97.000000 1.000000 4.000000 1.000000 176.000000 114.000000 13.000000 0.272450 0.673954 0.686700
4.78000021 2.11999989 -1.12000000 42 56 206 97.000000 1.000000 4.000000 1.000000 176.000000 114.000000 13.000000 0.266690 0.918280 0.292639
4.75000000 2.17000008 -1.14999998 42 56 206 97.000000 1.000000 4.000000 1.000000 176.000000 114.000000 13.000000 0.282788 0.863649 0.417303
4.57999992 2.23000002 -0.22000000 42 56 206 97.000000 1.000000 4.000000 1.000000 176.000000 114.000000 13.000000 0.097510 0.589428 0.801914
4.59000015 2.19000006 -0.23000000 42 56 206 97.000000 1.000000 4.000000 1.000000 176.000000 114.000000 13.000000 0.242935 0.606554 0.757017
4.59999990 2.20000005 -0.25000000 42 56 206 97.000000 1.000000 4.000000 1.000000 176.000000 114.000000 13.000000 0.043955 0.769914 0.636632
4.65000010 2.24000001 -0.31999999 42 56 206 97.000000 1.000000 4.000000 1.000000 176.000000 114.000000 13.000000 -0.472033 0.780233 0.410393
4.59999990 2.25000000 -0.36000001 42 56 206 97.000000 1.000000 4.000000 1.000000 176.000000 114.000000 13.000000 0.193120 0.706045 0.681326
4.57000017 2.25000000 -0.33000001 42 56 206 97.000000 1.000000 4.000000 1.000000 176.000000 114.000000 13.000000 0.407152 0.847062 0.341633
4.59999990 2.22000003 -0.37000000 42 56 206 97.000000 1.000000 4.000000 1.000000 176.000000 114.000000 13.000000 -0.125812 0.894822 0.428327
4.61000013 2.25000000 -0.51999998 42 56 206 97.000000 1.000000 4.000000 1.000000 176.000000 114.000000 13.000000 0.361183 0.845888 0.392454
4.53999996 2.18000007 -0.52999997 42 56 206 97.000000 1.000000 4.000000 1.000000 176.000000 114.000000 13.000000 0.364650 0.349264 0.863160
4.42999983 2.15000010 -0.50000000 42 56 206 97.000000 1.000000 4.000000 1.000000 176.000000 114.000000 13.000000 0.810182 0.321853 0.489914
4.40999985 2.09999990 -0.47000000 42 56 206 97.000000 1.000000 4.000000 1.000000 176.000000 114.000000 13.000000 0.810258 0.297357 0.505035
4.44000006 2.15000010 -0.51999998 42 56 206 97.000000 1.000000 4.000000 1.000000 176.000000 114.000000 13.000000 0.408770 0.316218 0.856103
4.63000011 2.22000003 -0.57999998 42 56 206 97.000000 1.000000 4.000000 1.000000 176.000000 114.000000 13.000000 0.283830 0.559732 0.778550
4.61999989 2.18000007 -0.56000000 42 56 206 97.000000 1.000000 4.000000 1.000000 176.000000 114.000000 13.000000 0.396414 0.517133 0.758570
4.61999989 2.18000007 -0.56000000 42 56 206 97.000000 1.000000 4.000000 1.000000 176.000000 114.000000 13.000000 0.396414 0.517133 0.758570
4.59999990 2.16000009 -0.54000002 42 56 206 97.000000 1.000000 4.000000 1.000000 176.000000 114.000000 13.000000 0.451308 0.848706 0.275714
4.67000008 2.24000001 -0.87000000 42 56 206 97.000000 1.000000 4.000000 1.000000 176.000000 114.000000 13.000000 0.500262 0.741313 0.447429
4.67000008 2.22000003 -0.88000000 42 56 206 97.000000 1.000000 4.000000 1.000000 176.000000 114.000000 13.000000 0.541628 0.642867 0.541628
4.69000006 2.20000005 -0.87000000 42 56 206 97.000000 1.000000 4.000000 1.000000 176.000000 114.000000 13.000000 0.198857 0.901388 0.384650
4.69000006 2.15000010 -0.85000002 42 56 206 97.000000 1.000000 4.000000 1.000000 176.000000 114.000000 13.000000 0.061624 0.758117 0.649200
4.48999977 2.16000009 -0.57999998 42 56 206 97.000000 1.000000 4.000000 1.000000 176.000000 114.000000 13.000000 0.339530 0.450074 0.825926
4.51000023 2.17000008 -0.54000002 42 56 206 97.000000 1.000000 4.000000 1.000000 176.000000 114.000000 13.000000 0.395247 0.315275 0.862776
4.46000004 2.20000005 -0.57999998 42 56 206 97.000000 1.000000 4.000000 1.000000 176.000000 114.000000 13.000000 0.589756 0.339557 0.732727
4.36000013 2.10999990 -0.41999999 42 56 206 97.000000 1.000000 4.000000 1.000000 176.000000 114.000000 13.000000 0.290850 0.670080 0.682935
4.36000013 2.09999990 -0.41999999 42 56 206 97.000000 1.000000 4.000000 1.000000 176.000000 114.000000 13.000000 0.641473 0.300640 0.705781
4.32999992 2.08999991 -0.40000001 42 56 206 97.000000 1.000000 4.000000 1.000000 176.000000 114.000000 13.000000 0.513920 0.305189 0.801715
4.32999992 2.08999991 -0.40000001 42 56 206 97.000000 1.000000 4.000000 1.000000 176.000000 114.000000 13.000000 0.513920 0.305189 0.801715
4.34000015 2.08999991 -0.41000000 42 56 206 97.000000 1.000000 4.000000 1.000000 176.000000 114.000000 13.000000 0.527256 0.178756 0.830691
4.34000015 2.08999991 -0.41000000 42 56 206 97.000000 1.000000 4.000000 1.000000 176.000000 114.000000 13.000000 0.527256 0.178756 0.830691
4.36999989 2.13000011 -0.47000000 42 56 206 97.000000 1.000000 4.000000 1.000000 176.000000 114.000000 13.000000 0.306257 0.528412 0.791825
4.28000021 2.06999993 -0.31999999 42 56 206 97.000000 1.000000 4.000000 1.000000 176.000000 114.000000 13.000000 0.612551 0.578802 0.538303
4.30000019 2.06999993 -0.36000001 42 56 206 97.000000 1.000000 4.000000 1.000000 176.000000 114.000000 13.000000 0.679719 0.525313 0.511887
4.28999996 2.06999993 -0.34999999 42 56 206 97.000000 1.000000 4.000000 1.000000 176.000000 114.000000 13.000000 0.394684 0.741875 0.542076
4.30000019 2.06999993 -0.36000001 42 56 206 97.000000 1.000000 4.000000 1.000000 176.000000 114.000000 13.000000 0.679719 0.525313 0.511887
4.26000023 2.03999996 -0.31999999 42 56 206 97.000000 1.000000 4.000000 1.000000 176.000000 114.000000 13.000000 0.858805 0.351259 0.372922
4.26000023 2.02999997 -0.30000001 42 56 206 97.000000 1.000000 4.000000 1.000000 176.000000 114.000000 13.000000 0.795890 0.237371 0.556968
4.32000017 2.07999992 -0.38000000 42 56 206 97.000000 1.000000 4.000000 1.000000 176.000000 114.000000 13.000000 0.729297 0.172769 0.662025
4.36000013 2.06999993 -0.41000000 42 56 206 97.000000 1.000000 4.000000 1.000000 176.000000 114.000000 13.000000 0.240784 0.700320 0.671993
4.34000015 2.06999993 -0.40000001 42 56 206 97.000000 1.000000 4.000000 1.000000 176.000000 114.000000 13.000000 0.571720 0.639179 0.514379
4.32999992 2.07999992 -0.40000001 42 56 206 97.000000 1.000000 4.000000 1.000000 176.000000 114.000000 13.000000 0.477986 0.757222 0.445135
4.34999990 2.05999994 -0.38999999 42 56 206 97.000000 1.000000 4.000000 1.000000 176.000000 114.000000 13.000000 0.403981 0.815945 0.413561
4.32999992 2.07999992 -0.40000001 42 56 206 97.000000 1.000000 4.000000 1.000000 176.000000 114.000000 13.000000 0.477986 0.757222 0.445135
4.28999996 2.07999992 -0.37000000 42 56 206 97.000000 1.000000 4.000000 1.000000 176.000000 114.000000 13.000000 0.634839 0.574218 0.516965
4.21999979 2.00999999 -0.23000000 42 56 206 97.000000 1.000000 4.000000 1.000000 176.000000 114.000000 13.000000 0.547977 0.682039 0.484298
4.21000004 2.00999999 -0.20000000 42 56 206 97.000000 1.000000 4.000000 1.000000 176.000000 114.000000 13.000000 0.659445 0.639612 0.395006
4.21999979 2.00999999 -0.22000000 42 56 206 97.000000 1.000000 4.000000 1.000000 176.000000 114.000000 13.000000 0.737480 0.523000 0.427310
4.69999981 2.23000002 -0.92000002 42 56 206 97.000000 1.000000 4.000000 1.000000 176.000000 114.000000 13.000000 0.212038 0.759932 0.614446
4.65999985 2.24000001 -0.98000002 42 56 206 97.000000 1.000000 4.000000 1.000000 176.000000 114.000000 13.000000 0.229621 0.815230 0.531672
4.65999985 2.23000002 -0.97000003 42 56 206 97.000000 1.000000 4.000000 1.000000 176.000000 114.000000 13.000000 0.035226 0.759481 0.649575
4.67000008 2.22000003 -1.04999995 42 56 206 97.000000 1.000000 4.000000 1.000000 176.000000 114.000000 13.000000 0.055543 0.628063 0.776178
4.67000008 2.18000007 -1.02999997 42 56 206 97.000000 1.000000 4.000000 1.000000 176.000000 114.000000 13.000000 0.232428 0.901936 0.363990
4.63999987 2.25000000 -0.88999999 42 56 206 97.000000 1.000000 4.000000 1.000000 176.000000 114.000000 13.000000 0.477724 0.655403 0.585002
4.63999987 2.25000000 -0.88999999 42 56 206 97.000000 1.000000 4.000000 1.000000 176.000000 114.000000 13.000000 0.477724 0.655403 0.585002
4.65000010 2.24000001 -0.98000002 42 56 206 97.000000 1.000000 4.000000 1.000000 176.000000 114.000000 13.000000 0.102718 0.826088 0.554101
4.65000010 2.22000003 -1.01999998 42 56 206 97.000000 1.000000 4.000000 1.000000 176.000000 114.000000 13.000000 0.257836 0.637471 0.726052
4.65000010 2.24000001 -0.98000002 42 56 206 97.000000 1.000000 4.000000 1.000000 176.000000 114.000000 13.000000 0.102718 0.826088 0.554101
4.69000006 2.23000002 -1.08000004 42 56 206 97.000000 1.000000 4.000000 1.000000 176.000000 114.000000 13.000000 0.212253 0.823052 0.526815
4.67000008 2.24000001 -1.07000005 42 56 206 97.000000 1.000000 4.000000 1.000000 176.000000 114.000000 13.000000 0.286007 0.627937 0.723806
4.67000008 2.23000002 -1.12000000 42 56 206 97.000000 1.000000 4.000000 1.000000 176.000000 114.000000 13.000000 0.390755 0.827388 0.403411
4.65999985 2.19000006 -1.13000000 42 56 206 97.000000 1.000000 4.000000 1.000000 176.000000 114.000000 13.000000 0.189634 0.719991 0.667572
4.67000008 2.22000003 -1.16999996 42 56 206 97.000000 1.000000 4.000000 1.000000 176.000000 114.000000 13.000000 0.325912 0.464464 0.823440
4.67000008 2.20000005 -1.15999997 42 56 206 97.000000 1.000000 4.000000 1.000000 176.000000 114.000000 13.000000 0.447089 0.414808 0.792493
4.65999985 2.21000004 -1.19000006 42 56 206 97.000000 1.000000 4.000000 1.000000 176.000000 114.000000 13.000000 -0.058796 0.684045 0.727066
4.71000004 2.14000010 -1.11000001 42 56 206 97.000000 1.000000 4.000000 1.000000 176.000000 114.000000 13.000000 -0.164122 0.906238 0.389611
4.71999979 2.13000011 -1.13000000 42 56 206 97.000000 1.000000 4.000000 1.000000 176.000000 114.000000 13.000000 0.185796 0.726292 0.661801
4.71999979 2.13000011 -1.13000000 42 56 206 97.000000 1.000000 4.000000 1.000000 176.000000 114.000000 13.000000 0.185796 0.726292 0.661801
4.69000006 2.16000009 -1.10000002 42 56 206 97.000000 1.000000 4.000000 1.000000 176.000000 114.000000 13.000000 0.366361 0.857934 0.360178
4.69000006 2.15000010 -1.16999996 42 56 206 97.000000 1.000000 4.000000 1.000000 176.000000 114.000000 13.000000 0.354244 0.896727 0.265313
4.63999987 2.23000002 -1.09000003 42 56 206 97.000000 1.000000 4.000000 1.000000 176.000000 114.000000 13.000000 0.279473 0.627617 0.726630
4.63999987 2.20000005 -1.07000005 42 56 206 97.000000 1.000000 4.000000 1.000000 176.000000 114.000000 13.000000 -0.034713 0.562351 0.826170
4.63999987 2.14000010 -1.12000000 42 56 206 97.000000 1.000000 4.000000 1.000000 176.000000 114.000000 13.000000 0.644475 0.587263 0.489667
4.63999987 2.11999989 -1.09000003 42 56 206 97.000000 1.000000 4.000000 1.000000 176.000000 114.000000 13.000000 0.211884 0.933132 0.290464
4.63999987 2.11999989 -1.09000003 42 56 206 97.000000 1.000000 4.000000 1.000000 176.000000 114.000000 13.000000 0.211884 0.933132 0.290464
4.61000013 2.29999995 -0.15000001 42 56 206 97.000000 1.000000 4.000000 1.000000 176.000000 114.000000 13.000000 0.467940 0.588698 0.659141
4.44000006 2.26999998 0.11000000 42 56 206 97.000000 1.000000 4.000000 1.000000 176.000000 114.000000 13.000000 -0.027955 0.898558 0.437964
4.53999996 2.32999992 -0.08000000 42 56 206 97.000000 1.000000 4.000000 1.000000 176.000000 114.000000 13.000000 0.175610 -0.652047 -0.737561
4.44000006 2.42000008 -0.05000000 42 56 206 97.000000 1.000000 4.000000 1.000000 176.000000 114.000000 13.000000 -0.481211 0.830050 0.281874
4.42000008 2.36999989 -0.12000000 42 56 206 97.000000 1.000000 4.000000 1.000000 176.000000 114.000000 13.000000 0.963474 -0.232116 -0.133564
4.44999981 2.35999990 -0.11000000 42 56 206 97.000000 1.000000 4.000000 1.000000 176.000000 114.000000 13.000000 -0.523754 0.716628 0.460571
4.42000008 2.38000011 -0.13000000 42 56 206 97.000000 1.000000 4.000000 1.000000 176.000000 114.000000 13.000000 0.948731 -0.278563 0.149375
4.30999994 2.49000001 -0.16000000 42 56 206 97.000000 1.000000 4.000000 1.000000 176.000000 114.000000 13.000000 0.922009 -0.387064 -0.009001
4.38000011 2.36999989 -0.07000000 42 56 206 97.000000 1.000000 4.000000 1.000000 176.000000 114.000000 13.000000 -0.525583 0.800211 0.288834
4.88999987 2.09999990 0.20999999 42 56 206 97.000000 1.000000 4.000000 1.000000 176.000000 114.000000 13.000000 0.943391 -0.307307 0.124801
4.80000019 2.10999990 0.20000000 42 56 206 97.000000 1.000000 4.000000 1.000000 176.000000 114.000000 13.000000 0.875627 -0.324363 0.357865
4.82999992 2.14000010 0.03000000 42 56 206 97.000000 1.000000 4.000000 1.000000 176.000000 114.000000 13.000000 0.938496 -0.319170 0.131743
4.78999996 2.09999990 0.11000000 42 56 206 97.000000 1.000000 4.000000 1.000000 176.000000 114.000000 13.000000 0.760593 -0.561198 0.326428
4.76999998 2.10999990 0.05000000 42 56 206 97.000000 1.000000 4.000000 1.000000 176.000000 114.000000 13.000000 0.792843 -0.593517 0.138338
4.78000021 2.03999996 0.13000000 42 56 206 97.000000 1.000000 4.000000 1.000000 176.000000 114.000000 13.000000 0.931623 -0.224097 0.286111
4.61000013 2.07999992 0.15000001 42 56 206 97.000000 1.000000 4.000000 1.000000 176.000000 114.000000 13.000000 0.837736 -0.339792 0.427480
4.55999994 2.11999989 0.16000000 42 56 206 97.000000 1.000000 4.000000 1.000000 176.000000 114.000000 13.000000 0.579766 0.331064 0.744491
4.48000002 2.17000008 0.16000000 42 56 206 97.000000 1.000000 4.000000 1.000000 176.000000 114.000000 13.000000 0.257470 0.482563 0.837163
4.63000011 2.08999991 0.11000000 42 56 206 97.000000 1.000000 4.000000 1.000000 176.000000 114.000000 13.000000 0.999559 -0.005043 0.029250
4.61000013 2.08999991 0.11000000 42 56 206 97.000000 1.000000 4.000000 1.000000 176.000000 114.000000 13.000000 0.934441 -0.353185 0.045614
4.57000017 2.15000010 0.11000000 42 56 206 97.000000 1.000000 4.000000 1.000000 176.000000 114.000000 13.000000 0.841581 0.081168 0.533998
4.67999983 2.11999989 -0.06000000 42 56 206 97.000000 1.000000 4.000000 1.000000 176.000000 114.000000 13.000000 0.755923 -0.647725 0.095039
4.59000015 2.18000007 -0.18000001 42 56 206 97.000000 1.000000 4.000000 1.000000 176.000000 114.000000 13.000000 -0.332259 0.721245 0.607791
4.71999979 2.04999995 0.02000000 42 56 206 97.000000 1.000000 4.000000 1.000000 176.000000 114.000000 13.000000 0.805461 -0.490902 -0.332034
4.71000004 2.01999998 0.05000000 42 56 206 97.000000 1.000000 4.000000 1.000000 176.000000 114.000000 13.000000 0.747761 -0.662302 0.047002
4.67000008 2.04999995 0.06000000 42 56 206 97.000000 1.000000 4.000000 1.000000 176.000000 114.000000 13.000000 0.792126 -0.610281 -0.009643
4.67999983 2.05999994 0.01000000 42 56 206 97.000000 1.000000 4.000000 1.000000 176.000000 114.000000 13.000000 0.879640 -0.446363 -0.164296
4.69999981 1.94000006 0.07000000 42 56 206 97.000000 1.000000 4.000000 1.000000 176.000000 114.000000 13.000000 0.907875 -0.306536 -0.286003
4.73000002 1.97000003 0.03000000 42 56 206 97.000000 1.000000 4.000000 1.000000 176.000000 114.000000 13.000000 0.804334 -0.593906 -0.017997
4.73000002 1.98000002 0.04000000 42 56 206 97.000000 1.000000 4.000000 1.000000 176.000000 114.000000 13.000000 -0.691706 0.685432 -0.227432
4.69999981 1.97000003 0.04000000 42 56 206 97.000000 1.000000 4.000000 1.000000 176.000000 114.000000 13.000000 0.813690 -0.574623 0.087850
4.65000010 2.07999992 0.12000000 42 56 206 97.000000 1.000000 4.000000 1.000000 176.000000 114.000000 13.000000 0.996817 0.070198 0.037799
4.61999989 2.05999994 0.05000000 42 56 206 97.000000 1.000000 4.000000 1.000000 176.000000 114.000000 13.000000 0.850665 -0.377900 0.365459
4.63000011 2.07999992 0.04000000 42 56 206 97.000000 1.000000 4.000000 1.000000 176.000000 114.000000 13.000000 0.862460 -0.266192 0.430470
4.63000011 2.05999994 0.03000000 42 56 206 97.000000 1.000000 4.000000 1.000000 176.000000 114.000000 13.000000 0.900840 -0.417394 -0.119456
4.63999987 2.00999999 0.01000000 42 56 206 97.000000 1.000000 4.000000 1.000000 176.000000 114.000000 13.000000 -0.618029 0.715356 0.326047
4.65000010 1.98000002 0.03000000 42 56 206 97.000000 1.000000 4.000000 1.000000 176.000000 114.000000 13.000000 0.798692 -0.491380 -0.347327
4.63000011 1.98000002 0.00000000 42 56 206 97.000000 1.000000 4.000000 1.000000 176.000000 114.000000 13.000000 0.682402 -0.704065 -0.196519
4.67000008 2.00999999 -0.04000000 42 56 206 97.000000 1.000000 4.000000 1.000000 176.000000 114.000000 13.000000 0.786484 -0.592515 -0.174269
4.48000002 2.21000004 0.10000000 42 56 206 97.000000 1.000000 4.000000 1.000000 176.000000 114.000000 13.000000 -0.260165 0.597590 0.758419
4.51000023 2.24000001 0.07000000 42 56 206 97.000000 1.000000 4.000000 1.000000 176.000000 114.000000 13.000000 -0.173650 0.807848 0.563229
4.51000023 2.19000006 0.04000000 42 56 206 97.000000 1.000000 4.000000 1.000000 176.000000 114.000000 13.000000 0.044149 0.699261 0.713502
4.51000023 2.25000000 0.06000000 42 56 206 97.000000 1.000000 4.000000 1.000000 176.000000 114.000000 13.000000 -0.052863 0.727224 0.684362
4.48000002 2.25000000 0.05000000 42 56 206 97.000000 1.000000 4.000000 1.000000 176.000000 114.000000 13.000000 0.081168 0.841581 0.533998
4.55999994 2.14000010 0.13000000 42 56 206 97.000000 1.000000 4.000000 1.000000 176.000000 114.000000 13.000000 0.494836 0.471666 0.729841
4.44000006 2.24000001 0.14000000 42 56 206 97.000000 1.000000 4.000000 1.000000 176.000000 114.000000 13.000000 0.241344 -0.692485 -0.679866
4.46000004 2.23000002 0.12000000 42 56 206 97.000000 1.000000 4.000000 1.000000 176.000000 114.000000 13.000000 -0.321643 0.596414 0.735416
4.46999979 2.21000004 0.14000000 42 56 206 97.000000 1.000000 4.000000 1.000000 176.000000 114.000000 13.000000 -0.100571 0.599055 0.794367
4.55000019 2.25000000 -0.19000000 42 56 206 97.000000 1.000000 4.000000 1.000000 176.000000 114.000000 13.000000 0.475803 0.781096 0.404351
4.42999983 2.22000003 -0.14000000 42 56 206 97.000000 1.000000 4.000000 1.000000 176.000000 114.000000 13.000000 0.926001 0.222637 0.304885
4.69999981 1.78999996 0.16000000 42 56 206 97.000000 1.000000 4.000000 1.000000 176.000000 114.000000 13.000000 -0.453951 0.890390 -0.033676
4.23999977 1.95000005 -0.13000000 42 56 206 97.000000 1.000000 4.000000 1.000000 176.000000 114.000000 13.000000 0.474978 0.458542 0.751089
4.28999996 1.96000004 -0.13000000 42 56 206 97.000000 1.000000 4.000000 1.000000 176.000000 114.000000 13.000000 0.531358 0.192258 0.825043
4.23000002 2.03999996 -0.07000000 42 56 206 97.000000 1.000000 4.000000 1.000000 176.000000 114.000000 13.000000 0.692111 0.268889 0.669836
4.23999977 2.03999996 -0.08000000 42 56 206 97.000000 1.000000 4.000000 1.000000 176.000000 114.000000 13.000000 0.580095 0.082048 0.810406
4.19999981 2.00999999 -0.16000000 42 56 206 97.000000 1.000000 4.000000 1.000000 176.000000 114.000000 13.000000 0.690895 0.258887 0.675012
4.21000004 2.00999999 -0.17000000 42 56 206 97.000000 1.000000 4.000000 1.000000 176.000000 114.000000 13.000000 0.605729 0.478207 0.635932
4.15999985 1.94000006 -0.13000000 42 56 206 97.000000 1.000000 4.000000 1.000000 176.000000 114.000000 13.000000 0.686915 0.026690 0.726248
4.11999989 1.94000006 -0.15000001 42 56 206 97.000000 1.000000 4.000000 1.000000 176.000000 114.000000 13.000000 0.673853 0.405636 0.617561
4.07000017 1.91999996 -0.13000000 42 56 206 97.000000 1.000000 4.000000 1.000000 176.000000 114.000000 13.000000 0.674813 0.554251 0.487272
4.11000013 1.89999998 -0.14000000 42 56 206 97.000000 1.000000 4.000000 1.000000 176.000000 114.000000 13.000000 0.590194 0.026385 0.806830
4.96000004 2.26999998 -0.37000000 42 56 206 97.000000 1.000000 4.000000 1.000000 176.000000 114.000000 13.000000 0.808863 -0.566653 -0.156988
4.92000008 2.25999999 -0.40000001 42 56 206 97.000000 1.000000 4.000000 1.000000 176.000000 114.000000 13.000000 -0.521176 0.853205 -0.020412
4.73999977 2.35999990 -0.25999999 42 56 206 97.000000 1.000000 4.000000 1.000000 176.000000 114.000000 13.000000 0.924142 -0.220712 0.311845
4.73999977 2.34999990 -0.31000000 42 56 206 97.000000 1.000000 4.000000 1.000000 176.000000 114.000000 13.000000 -0.722819 0.568047 -0.393517
4.76999998 2.35999990 -0.34999999 42 56 206 97.000000 1.000000 4.000000 1.000000 176.000000 114.000000 13.000000 0.817774 -0.537569 0.205586
4.75000000 2.31999993 -0.31999999 42 56 206 97.000000 1.000000 4.000000 1.000000 176.000000 114.000000 13.000000 0.834389 -0.488912 -0.254481
4.75000000 2.29999995 -0.34000000 42 56 206 97.000000 1.000000 4.000000 1.000000 176.000000 114.000000 13.000000 -0.693430 0.687197 0.216599
4.76000023 2.27999997 -0.31999999 42 56 206 97.000000 1.000000 4.000000 1.000000 176.000000 114.000000 13.000000 -0.453190 0.869233 0.197620
4.76999998 2.30999994 -0.41000000 42 56 206 97.000000 1.000000 4.000000 1.000000 176.000000 114.000000 13.000000 0.729769 -0.551857 -0.403597
4.76999998 2.30999994 -0.41000000 42 56 206 97.000000 1.000000 4.000000 1.000000 176.000000 114.000000 13.000000 0.729769 -0.551857 -0.403597
4.69000006 2.29999995 -0.36000001 42 56 206 97.000000 1.000000 4.000000 1.000000 176.000000 114.000000 13.000000 -0.300260 0.819034 0.488905
4.59000015 2.27999997 -0.33000001 42 56 206 97.000000 1.000000 4.000000 1.000000 176.000000 114.000000 13.000000 0.362111 0.761569 0.537483
4.65000010 2.27999997 -0.36000001 42 56 206 97.000000 1.000000 4.000000 1.000000 176.000000 114.000000 13.000000 -0.114233 0.669081 0.734358
4.63999987 2.32999992 -0.44999999 42 56 206 97.000000 1.000000 4.000000 1.000000 176.000000 114.000000 13.000000 0.561711 0.665670 0.491288
4.61000013 2.33999991 -0.44000000 42 56 206 97.000000 1.000000 4.000000 1.000000 176.000000 114.000000 13.000000 0.749286 0.571270 0.334994
4.57999992 2.31999993 -0.38000000 42 56 206 97.000000 1.000000 4.000000 1.000000 176.000000 114.000000 13.000000 0.527399 0.740988 0.415676
4.59000015 2.30999994 -0.40000001 42 56 206 97.000000 1.000000 4.000000 1.000000 176.000000 114.000000 13.000000 0.781390 0.259415 0.567569
4.59999990 2.33999991 -0.43000001 42 56 206 97.000000 1.000000 4.000000 1.000000 176.000000 114.000000 13.000000 0.771648 0.575974 0.269840
4.63999987 2.32999992 -0.51999998 42 56 206 97.000000 1.000000 4.000000 1.000000 176.000000 114.000000 13.000000 0.097342 0.878904 0.466962
4.63000011 2.28999996 -0.51999998 42 56 206 97.000000 1.000000 4.000000 1.000000 176.000000 114.000000 13.000000 0.124708 0.471595 0.872953
4.48000002 2.34999990 -0.20999999 42 56 206 97.000000 1.000000 4.000000 1.000000 176.000000 114.000000 13.000000 0.900817 -0.396359 -0.177281
4.53000021 2.34999990 -0.31999999 42 56 206 97.000000 1.000000 4.000000 1.000000 176.000000 114.000000 13.000000 0.735099 -0.265144 0.623961
4.48000002 2.33999991 -0.25000000 42 56 206 97.000000 1.000000 4.000000 1.000000 176.000000 114.000000 13.000000 0.947732 -0.044765 0.315911
4.53999996 2.33999991 -0.31999999 42 56 206 97.000000 1.000000 4.000000 1.000000 176.000000 114.000000 13.000000 0.835566 -0.261018 0.483424
4.55999994 2.28999996 -0.31000000 42 56 206 97.000000 1.000000 4.000000 1.000000 176.000000 114.000000 13.000000 0.605739 0.507876 0.612488
4.53999996 2.31999993 -0.34999999 42 56 206 97.000000 1.000000 4.000000 1.000000 176.000000 114.000000 13.000000 0.921486 0.352044 0.164100
4.59999990 2.38000011 -0.58999997 42 56 206 97.000000 1.000000 4.000000 1.000000 176.000000 114.000000 13.000000 0.850038 0.436590 0.294659
4.69000006 2.25999999 -0.83999997 42 56 206 97.000000 1.000000 4.000000 1.000000 176.000000 114.000000 13.000000 0.579217 0.698712 0.419891
4.61999989 2.26999998 -0.77999997 42 56 206 97.000000 1.000000 4.000000 1.000000 176.000000 114.000000 13.000000 0.092040 0.910780 0.402502
4.63999987 2.27999997 -0.79000002 42 56 206 97.000000 1.000000 4.000000 1.000000 176.000000 114.000000 13.000000 0.418547 0.507180 0.753384
4.61000013 2.25999999 -0.76999998 42 56 206 97.000000 1.000000 4.000000 1.000000 176.000000 114.000000 13.000000 0.091906 0.760045 0.643339
4.63999987 2.28999996 -0.75999999 42 56 206 97.000000 1.000000 4.000000 1.000000 176.000000 114.000000 13.000000 -0.017997 0.593906 0.804334
4.63000011 2.25999999 -0.81000000 42 56 206 97.000000 1.000000 4.000000 1.000000 176.000000 114.000000 13.000000 0.098514 0.858072 0.503992
4.63999987 2.28999996 -0.81999999 42 56 206 97.000000 1.000000 4.000000 1.000000 176.000000 114.000000 13.000000 0.572600 0.599625 0.559087
4.63000011 2.25999999 -0.86000001 42 56 206 97.000000 1.000000 4.000000 1.000000 176.000000 114.000000 13.000000 0.364080 0.800334 0.476351
4.94000006 2.25000000 -0.37000000 42 56 206 97.000000 1.000000 4.000000 1.000000 176.000000 114.000000 13.000000 0.762432 -0.634617 -0.126329
4.94000006 2.18000007 -0.41000000 42 56 206 97.000000 1.000000 4.000000 1.000000 176.000000 114.000000 13.000000 -0.404232 0.901308 0.155693
4.94999981 2.11999989 -0.46000001 42 56 206 97.000000 1.000000 4.000000 1.000000 176.000000 114.000000 13.000000 -0.350034 0.911817 0.214630
4.75000000 2.23000002 -0.25000000 42 56 206 97.000000 1.000000 4.000000 1.000000 176.000000 114.000000 13.000000 0.789172 -0.576880 0.210754
4.73999977 2.23000002 -0.23000000 42 56 206 97.000000 1.000000 4.000000 1.000000 176.000000 114.000000 13.000000 0.870319 -0.435909 0.229189
4.88000011 2.24000001 -0.37000000 42 56 206 97.000000 1.000000 4.000000 1.000000 176.000000 114.000000 13.000000 0.701717 -0.689433 0.179652
4.90000010 2.21000004 -0.43000001 42 56 206 97.000000 1.000000 4.000000 1.000000 176.000000 114.000000 13.000000 -0.707758 0.568527 0.419351
4.82999992 2.22000003 -0.43000001 42 56 206 97.000000 1.000000 4.000000 1.000000 176.000000 114.000000 13.000000 -0.412521 0.684222 0.601387
4.80999994 2.11999989 -0.44999999 42 56 206 97.000000 1.000000 4.000000 1.000000 176.000000 114.000000 13.000000 -0.336146 0.853531 0.398108
4.63000011 2.21000004 -0.25999999 42 56 206 97.000000 1.000000 4.000000 1.000000 176.000000 114.000000 13.000000 -0.240213 0.897482 0.369898
4.63000011 2.21000004 -0.25999999 42 56 206 97.000000 1.000000 4.000000 1.000000 176.000000 114.000000 13.000000 -0.240213 0.897482 0.369898
4.59000015 2.23000002 -0.22000000 42 56 206 97.000000 1.000000 4.000000 1.000000 176.000000 114.000000 13.000000 0.281601 0.523873 0.803901
4.57999992 2.22000003 -0.25000000 42 56 206 97.000000 1.000000 4.000000 1.000000 176.000000 114.000000 13.000000 0.294563 0.804930 0.515092
4.59999990 2.21000004 -0.23999999 42 56 206 97.000000 1.000000 4.000000 1.000000 176.000000 114.000000 13.000000 -0.093294 0.543973 0.833900
