//X Y Z R G B PointSourceId ScanDirectionFlag NumberOfReturns ReturnNumber GpsTime Intensity Classification Nx Ny Nz
-12.15999985 11.18999958 -0.27000001 43 57 205 97.000000 1.000000 4.000000 1.000000 0.000000 114.000000 11.000000 -0.229189 0.435909 0.870319
-12.17000008 11.14000034 -0.22000000 43 57 205 97.000000 1.000000 4.000000 1.000000 0.000000 114.000000 11.000000 -0.378615 0.394325 0.837352
-12.17000008 11.10999966 -0.22000000 43 57 205 97.000000 1.000000 4.000000 1.000000 0.000000 114.000000 11.000000 0.592921 -0.488782 -0.639951
-12.17000008 11.14999962 -0.28000000 43 57 205 97.000000 1.000000 4.000000 1.000000 0.000000 114.000000 11.000000 -0.152769 0.700318 0.697293
-12.11999989 11.15999985 -0.31000000 43 57 205 97.000000 1.000000 4.000000 1.000000 0.000000 114.000000 11.000000 0.562485 -0.599646 -0.569241
-12.18000031 11.14000034 -0.28999999 43 57 205 97.000000 1.000000 4.000000 1.000000 0.000000 114.000000 11.000000 -0.190680 0.172520 0.966374
-12.14999962 11.10999966 -0.31999999 43 57 205 97.000000 1.000000 4.000000 1.000000 0.000000 114.000000 11.000000 0.624222 -0.329135 -0.708532
-12.13000011 11.09000015 -0.23000000 43 57 205 97.000000 1.000000 4.000000 1.000000 0.000000 114.000000 11.000000 0.588804 -0.303226 -0.749242
-12.14999962 11.06999969 -0.20000000 43 57 205 97.000000 1.000000 4.000000 1.000000 0.000000 114.000000 11.000000 -0.267809 0.597421 0.755888
-12.17000008 11.06999969 -0.20000000 43 57 205 97.000000 1.000000 4.000000 1.000000 0.000000 114.000000 11.000000 -0.079252 0.595111 0.799726
-12.14999962 11.06000042 -0.20000000 43 57 205 97.000000 1.000000 4.000000 1.000000 0.000000 114.000000 11.000000 -0.268068 0.750273 0.604343
-12.14000034 11.10000038 -0.28999999 43 57 205 97.000000 1.000000 4.000000 1.000000 0.000000 114.000000 11.000000 0.729586 -0.346106 -0.589843
-12.21000004 11.17000008 -0.23999999 43 57 205 97.000000 1.000000 4.000000 1.000000 0.000000 114.000000 11.000000 -0.327027 0.571894 0.752323
-12.19999981 11.17000008 -0.28000000 43 57 205 97.000000 1.000000 4.000000 1.000000 0.000000 114.000000 11.000000 -0.272546 0.722009 0.635942
-12.22999954 11.17000008 -0.28000000 43 57 205 97.000000 1.000000 4.000000 1.000000 0.000000 114.000000 11.000000 -0.226359 0.282597 0.932148
-12.18999958 11.15999985 -0.27000001 43 57 205 97.000000 1.000000 4.000000 1.000000 0.000000 114.000000 11.000000 -0.643337 0.333884 0.688941
-12.22999954 11.17000008 -0.28000000 43 57 205 97.000000 1.000000 4.000000 1.000000 0.000000 114.000000 11.000000 -0.226359 0.282597 0.932148
-12.21000004 11.10999966 -0.23999999 43 57 205 97.000000 1.000000 4.000000 1.000000 0.000000 114.000000 11.000000 -0.121015 0.451315 0.884121
-12.19999981 11.10999966 -0.27000001 43 57 205 97.000000 1.000000 4.000000 1.000000 0.000000 114.000000 11.000000 -0.186868 0.560604 0.806724
-12.19999981 11.11999989 -0.23999999 43 57 205 97.000000 1.000000 4.000000 1.000000 0.000000 114.000000 11.000000 -0.006800 0.556256 0.830983
-12.22999954 11.10999966 -0.27000001 43 57 205 97.000000 1.000000 4.000000 1.000000 0.000000 114.000000 11.000000 0.687438 -0.520178 -0.506797
-12.21000004 11.11999989 -0.25000000 43 57 205 97.000000 1.000000 4.000000 1.000000 0.000000 114.000000 11.000000 -0.388313 0.768502 0.508544
-12.25000000 11.13000011 -0.25000000 43 57 205 97.000000 1.000000 4.000000 1.000000 0.000000 114.000000 11.000000 0.685571 -0.376488 -0.623097
-12.25000000 11.10999966 -0.28000000 43 57 205 97.000000 1.000000 4.000000 1.000000 0.000000 114.000000 11.000000 0.422230 -0.716963 -0.554694
-12.26000023 11.14999962 -0.25999999 43 57 205 97.000000 1.000000 4.000000 1.000000 0.000000 114.000000 11.000000 -0.205401 0.216141 0.954512
-12.26000023 11.13000011 -0.27000001 43 57 205 97.000000 1.000000 4.000000 1.000000 0.000000 114.000000 11.000000 -0.064617 0.452318 0.889513
-12.25000000 11.14000034 -0.28000000 43 57 205 97.000000 1.000000 4.000000 1.000000 0.000000 114.000000 11.000000 -0.408492 0.480100 0.776298
-12.19999981 11.18999958 -0.31000000 43 57 205 97.000000 1.000000 4.000000 1.000000 0.000000 114.000000 11.000000 -0.237235 0.708564 0.664573
-12.22000027 11.15999985 -0.30000001 43 57 205 97.000000 1.000000 4.000000 1.000000 0.000000 114.000000 11.000000 -0.256981 0.752023 0.606978
-12.19999981 11.15999985 -0.28999999 43 57 205 97.000000 1.000000 4.000000 1.000000 0.000000 114.000000 11.000000 0.509984 -0.476761 -0.715972
-12.19999981 11.14000034 -0.31999999 43 57 205 97.000000 1.000000 4.000000 1.000000 0.000000 114.000000 11.000000 -0.136785 0.698956 0.701962
-12.23999977 11.18999958 -0.30000001 43 57 205 97.000000 1.000000 4.000000 1.000000 0.000000 114.000000 11.000000 -0.612551 0.578802 0.538303
-12.23999977 11.18999958 -0.30000001 43 57 205 97.000000 1.000000 4.000000 1.000000 0.000000 114.000000 11.000000 -0.612551 0.578802 0.538303
-12.27000046 11.18999958 -0.30000001 43 57 205 97.000000 1.000000 4.000000 1.000000 0.000000 114.000000 11.000000 -0.517443 0.098902 0.849983
-12.27000046 11.18000031 -0.30000001 43 57 205 97.000000 1.000000 4.000000 1.000000 0.000000 114.000000 11.000000 -0.360030 0.360030 0.860672
-12.23999977 11.10999966 -0.31999999 43 57 205 97.000000 1.000000 4.000000 1.000000 0.000000 114.000000 11.000000 -0.444528 0.334574 0.830937
-12.26000023 11.10999966 -0.28999999 43 57 205 97.000000 1.000000 4.000000 1.000000 0.000000 114.000000 11.000000 -0.475334 0.650015 0.592907
-12.27000046 11.14999962 -0.28999999 43 57 205 97.000000 1.000000 4.000000 1.000000 0.000000 114.000000 11.000000 0.688412 -0.366387 -0.625979
-12.25000000 11.10999966 -0.33000001 43 57 205 97.000000 1.000000 4.000000 1.000000 0.000000 114.000000 11.000000 -0.292462 0.286642 0.912306
-12.22000027 11.07999992 -0.20999999 43 57 205 97.000000 1.000000 4.000000 1.000000 0.000000 114.000000 11.000000 -0.568265 0.425784 0.704118
-12.21000004 11.06999969 -0.20000000 43 57 205 97.000000 1.000000 4.000000 1.000000 0.000000 114.000000 11.000000 -0.623251 0.579337 0.525288
-12.22999954 11.07999992 -0.22000000 43 57 205 97.000000 1.000000 4.000000 1.000000 0.000000 114.000000 11.000000 -0.407982 0.512845 0.755341
-12.21000004 11.10000038 -0.20000000 43 57 205 97.000000 1.000000 4.000000 1.000000 0.000000 114.000000 11.000000 0.513492 -0.577468 -0.634710
-12.22000027 11.06999969 -0.22000000 43 57 205 97.000000 1.000000 4.000000 1.000000 0.000000 114.000000 11.000000 -0.159738 0.231025 0.959745
-12.22000027 11.06999969 -0.20999999 43 57 205 97.000000 1.000000 4.000000 1.000000 0.000000 114.000000 11.000000 -0.439107 0.403721 0.802617
-12.22999954 11.05000019 -0.20999999 43 57 205 97.000000 1.000000 4.000000 1.000000 0.000000 114.000000 11.000000 -0.442709 0.599745 0.666569
-12.26000023 11.09000015 -0.28000000 43 57 205 97.000000 1.000000 4.000000 1.000000 0.000000 114.000000 11.000000 -0.582579 0.052192 0.811097
-12.25000000 11.06999969 -0.23999999 43 57 205 97.000000 1.000000 4.000000 1.000000 0.000000 114.000000 11.000000 -0.322385 0.688511 0.649631
-12.25000000 11.07999992 -0.25000000 43 57 205 97.000000 1.000000 4.000000 1.000000 0.000000 114.000000 11.000000 -0.629338 0.354718 0.691454
-12.25000000 11.05000019 -0.20000000 43 57 205 97.000000 1.000000 4.000000 1.000000 0.000000 114.000000 11.000000 -0.302183 0.567592 0.765849
-12.25000000 11.06000042 -0.23000000 43 57 205 97.000000 1.000000 4.000000 1.000000 0.000000 114.000000 11.000000 -0.716043 0.506712 0.480131
-12.23999977 11.06000042 -0.20000000 43 57 205 97.000000 1.000000 4.000000 1.000000 0.000000 114.000000 11.000000 -0.326404 0.703149 0.631697
-12.27000046 11.06000042 -0.22000000 43 57 205 97.000000 1.000000 4.000000 1.000000 0.000000 114.000000 11.000000 -0.251453 0.297433 0.921035
-12.25000000 11.10000038 -0.31999999 43 57 205 97.000000 1.000000 4.000000 1.000000 0.000000 114.000000 11.000000 -0.092112 0.491739 0.865857
-12.27000046 11.09000015 -0.28999999 43 57 205 97.000000 1.000000 4.000000 1.000000 0.000000 114.000000 11.000000 -0.550678 0.159682 0.819302
-12.26000023 11.10000038 -0.28999999 43 57 205 97.000000 1.000000 4.000000 1.000000 0.000000 114.000000 11.000000 -0.624743 0.510235 0.591064
-12.27000046 11.02999973 -0.31000000 43 57 205 97.000000 1.000000 4.000000 1.000000 0.000000 114.000000 11.000000 -0.375131 0.302231 0.876318
-12.27000046 11.02999973 -0.30000001 43 57 205 97.000000 1.000000 4.000000 1.000000 0.000000 114.000000 11.000000 -0.299069 0.172275 0.938552
-12.22999954 11.10000038 -0.37000000 43 57 205 97.000000 1.000000 4.000000 1.000000 0.000000 114.000000 11.000000 -0.175289 0.214828 0.960793
-12.18999958 11.14000034 -0.37000000 43 57 205 97.000000 1.000000 4.000000 1.000000 0.000000 114.000000 11.000000 -0.404186 0.143238 0.903392
-12.22999954 11.14000034 -0.38000000 43 57 205 97.000000 1.000000 4.000000 1.000000 0.000000 114.000000 11.000000 0.624942 -0.434960 -0.648273
-12.26000023 11.11999989 -0.37000000 43 57 205 97.000000 1.000000 4.000000 1.000000 0.000000 114.000000 11.000000 -0.310408 0.784774 0.536448
-12.27999973 11.10999966 -0.25999999 43 57 205 97.000000 1.000000 4.000000 1.000000 0.000000 114.000000 11.000000 -0.497409 0.290286 0.817508
-12.28999996 11.18999958 -0.27000001 43 57 205 97.000000 1.000000 4.000000 1.000000 0.000000 114.000000 11.000000 -0.012431 0.614658 0.788696
-12.28999996 11.14999962 -0.31000000 43 57 205 97.000000 1.000000 4.000000 1.000000 0.000000 114.000000 11.000000 -0.368286 0.190592 0.909967
-12.27999973 11.10999966 -0.31999999 43 57 205 97.000000 1.000000 4.000000 1.000000 0.000000 114.000000 11.000000 -0.256580 0.290982 0.921681
-12.27999973 11.14000034 -0.33000001 43 57 205 97.000000 1.000000 4.000000 1.000000 0.000000 114.000000 11.000000 -0.064619 0.650495 0.756757
-12.28999996 11.10999966 -0.33000001 43 57 205 97.000000 1.000000 4.000000 1.000000 0.000000 114.000000 11.000000 -0.307896 0.428580 0.849423
-12.31000042 11.11999989 -0.36000001 43 57 205 97.000000 1.000000 4.000000 1.000000 0.000000 114.000000 11.000000 -0.520782 0.412355 0.747495
-12.35000038 11.13000011 -0.34999999 43 57 205 97.000000 1.000000 4.000000 1.000000 0.000000 114.000000 11.000000 -0.239701 0.239701 0.940791
-12.31000042 11.10000038 -0.27000001 43 57 205 97.000000 1.000000 4.000000 1.000000 0.000000 114.000000 11.000000 -0.315219 0.555233 0.769645
-12.28999996 11.07999992 -0.25000000 43 57 205 97.000000 1.000000 4.000000 1.000000 0.000000 114.000000 11.000000 -0.267082 0.108136 0.957587
-12.27999973 11.09000015 -0.25000000 43 57 205 97.000000 1.000000 4.000000 1.000000 0.000000 114.000000 11.000000 0.579168 -0.455657 -0.675974
-12.30000019 11.06999969 -0.25000000 43 57 205 97.000000 1.000000 4.000000 1.000000 0.000000 114.000000 11.000000 -0.237849 0.694645 0.678893
-12.31000042 11.09000015 -0.27000001 43 57 205 97.000000 1.000000 4.000000 1.000000 0.000000 114.000000 11.000000 -0.199740 0.153349 0.967775
-12.31000042 11.09000015 -0.27000001 43 57 205 97.000000 1.000000 4.000000 1.000000 0.000000 114.000000 11.000000 -0.199740 0.153349 0.967775
-12.28999996 11.09000015 -0.25999999 43 57 205 97.000000 1.000000 4.000000 1.000000 0.000000 114.000000 11.000000 -0.230392 0.545829 0.805600
-12.28999996 11.06000042 -0.22000000 43 57 205 97.000000 1.000000 4.000000 1.000000 0.000000 114.000000 11.000000 -0.217443 0.214742 0.952158
-12.30000019 11.02999973 -0.22000000 43 57 205 97.000000 1.000000 4.000000 1.000000 0.000000 114.000000 11.000000 -0.339172 0.276966 0.899028
-12.28999996 11.02999973 -0.23999999 43 57 205 97.000000 1.000000 4.000000 1.000000 0.000000 114.000000 11.000000 0.759551 -0.253184 -0.599149
-12.32999992 11.07999992 -0.27000001 43 57 205 97.000000 1.000000 4.000000 1.000000 0.000000 114.000000 11.000000 -0.117811 0.530876 0.839221
-12.31000042 11.06999969 -0.31000000 43 57 205 97.000000 1.000000 4.000000 1.000000 0.000000 114.000000 11.000000 -0.212253 0.526815 0.823052
-12.28999996 11.10000038 -0.31999999 43 57 205 97.000000 1.000000 4.000000 1.000000 0.000000 114.000000 11.000000 -0.484510 0.678985 0.551570
-12.28999996 11.07999992 -0.30000001 43 57 205 97.000000 1.000000 4.000000 1.000000 0.000000 114.000000 11.000000 -0.440878 0.520137 0.731494
-12.30000019 11.10000038 -0.33000001 43 57 205 97.000000 1.000000 4.000000 1.000000 0.000000 114.000000 11.000000 -0.466790 0.044910 0.883227
-12.31000042 11.10000038 -0.34000000 43 57 205 97.000000 1.000000 4.000000 1.000000 0.000000 114.000000 11.000000 -0.607743 0.094732 0.788463
-12.30000019 11.10000038 -0.33000001 43 57 205 97.000000 1.000000 4.000000 1.000000 0.000000 114.000000 11.000000 -0.466790 0.044910 0.883227
-12.31000042 11.06000042 -0.30000001 43 57 205 97.000000 1.000000 4.000000 1.000000 0.000000 114.000000 11.000000 -0.519655 0.533109 0.667648
-12.28999996 11.05000019 -0.28999999 43 57 205 97.000000 1.000000 4.000000 1.000000 0.000000 114.000000 11.000000 -0.383656 0.144749 0.912061
-12.32999992 11.06000042 -0.28999999 43 57 205 97.000000 1.000000 4.000000 1.000000 0.000000 114.000000 11.000000 -0.327941 0.389526 0.860653
-12.32999992 11.03999996 -0.30000001 43 57 205 97.000000 1.000000 4.000000 1.000000 0.000000 114.000000 11.000000 -0.477670 -0.036744 0.877770
-12.32999992 11.03999996 -0.30000001 43 57 205 97.000000 1.000000 4.000000 1.000000 0.000000 114.000000 11.000000 -0.477670 -0.036744 0.877770
-12.31999969 11.05000019 -0.34000000 43 57 205 97.000000 1.000000 4.000000 1.000000 0.000000 114.000000 11.000000 0.424075 -0.463071 -0.778284
-12.35000038 11.06000042 -0.34999999 43 57 205 97.000000 1.000000 4.000000 1.000000 0.000000 114.000000 11.000000 -0.579095 0.154126 0.800558
-12.42000008 11.11999989 -0.33000001 43 57 205 97.000000 1.000000 4.000000 1.000000 0.000000 114.000000 11.000000 -0.370589 0.443753 0.815933
-12.36999989 11.15999985 -0.36000001 43 57 205 97.000000 1.000000 4.000000 1.000000 0.000000 114.000000 11.000000 -0.489569 0.160249 0.857113
-12.39999962 11.18999958 -0.34000000 43 57 205 97.000000 1.000000 4.000000 1.000000 0.000000 114.000000 11.000000 -0.396782 0.094733 0.913011
-12.36999989 11.13000011 -0.34999999 43 57 205 97.000000 1.000000 4.000000 1.000000 0.000000 114.000000 11.000000 -0.075275 0.538290 0.839391
-12.43999958 11.11999989 -0.34000000 43 57 205 97.000000 1.000000 4.000000 1.000000 0.000000 114.000000 11.000000 -0.317678 0.588591 0.743398
-12.38000011 11.14000034 -0.36000001 43 57 205 97.000000 1.000000 4.000000 1.000000 0.000000 114.000000 11.000000 0.783068 -0.286334 -0.552103
-12.43000031 11.03999996 -0.28000000 43 57 205 97.000000 1.000000 4.000000 1.000000 0.000000 114.000000 11.000000 -0.452614 0.478948 0.752163
-12.42000008 11.05000019 -0.28000000 43 57 205 97.000000 1.000000 4.000000 1.000000 0.000000 114.000000 11.000000 -0.208731 0.174599 0.962261
-12.39000034 11.09000015 -0.31000000 43 57 205 97.000000 1.000000 4.000000 1.000000 0.000000 114.000000 11.000000 -0.481185 0.202367 0.852941
-12.42000008 11.06999969 -0.33000001 43 57 205 97.000000 1.000000 4.000000 1.000000 0.000000 114.000000 11.000000 -0.585820 0.164150 0.793643
-12.43000031 11.06000042 -0.34000000 43 57 205 97.000000 1.000000 4.000000 1.000000 0.000000 114.000000 11.000000 0.560284 -0.590753 -0.580597
-12.31000042 11.15999985 -0.37000000 43 57 205 97.000000 1.000000 4.000000 1.000000 0.000000 114.000000 11.000000 -0.628889 0.561448 0.537843
-12.31000042 11.17000008 -0.38999999 43 57 205 97.000000 1.000000 4.000000 1.000000 0.000000 114.000000 11.000000 -0.358977 0.748816 0.557145
-12.31000042 11.13000011 -0.37000000 43 57 205 97.000000 1.000000 4.000000 1.000000 0.000000 114.000000 11.000000 -0.576131 0.495506 0.650037
-12.30000019 11.11999989 -0.37000000 43 57 205 97.000000 1.000000 4.000000 1.000000 0.000000 114.000000 11.000000 -0.275870 0.494072 0.824493
-12.35000038 11.15999985 -0.38000000 43 57 205 97.000000 1.000000 4.000000 1.000000 0.000000 114.000000 11.000000 0.657729 -0.405903 -0.634535
-12.35000038 11.18999958 -0.38999999 43 57 205 97.000000 1.000000 4.000000 1.000000 0.000000 114.000000 11.000000 -0.400653 0.180800 0.898214
-12.35000038 11.18999958 -0.38999999 43 57 205 97.000000 1.000000 4.000000 1.000000 0.000000 114.000000 11.000000 -0.400653 0.180800 0.898214
-12.31999969 11.15999985 -0.44000000 43 57 205 97.000000 1.000000 4.000000 1.000000 0.000000 114.000000 11.000000 -0.233874 0.685925 0.689064
-12.32999992 11.11999989 -0.38000000 43 57 205 97.000000 1.000000 4.000000 1.000000 0.000000 114.000000 11.000000 -0.400007 0.567911 0.719355
-12.31999969 11.11999989 -0.37000000 43 57 205 97.000000 1.000000 4.000000 1.000000 0.000000 114.000000 11.000000 -0.537079 0.460591 0.706683
-12.35999966 11.13000011 -0.38999999 43 57 205 97.000000 1.000000 4.000000 1.000000 0.000000 114.000000 11.000000 0.487185 -0.503813 -0.713319
-12.35000038 11.18999958 -0.49000001 43 57 205 97.000000 1.000000 4.000000 1.000000 0.000000 114.000000 11.000000 -0.169722 0.430834 0.886328
-12.34000015 11.09000015 -0.37000000 43 57 205 97.000000 1.000000 4.000000 1.000000 0.000000 114.000000 11.000000 -0.612514 0.212441 0.761378
-12.34000015 11.10000038 -0.38000000 43 57 205 97.000000 1.000000 4.000000 1.000000 0.000000 114.000000 11.000000 -0.085048 0.578041 0.811564
-12.35999966 11.06000042 -0.38999999 43 57 205 97.000000 1.000000 4.000000 1.000000 0.000000 114.000000 11.000000 -0.745595 0.449332 0.492126
-12.39000034 11.18000031 -0.38999999 43 57 205 97.000000 1.000000 4.000000 1.000000 0.000000 114.000000 11.000000 -0.528659 0.172226 0.831178
-12.39000034 11.18000031 -0.40000001 43 57 205 97.000000 1.000000 4.000000 1.000000 0.000000 114.000000 11.000000 0.680647 -0.409051 -0.607780
-12.39999962 11.15999985 -0.41000000 43 57 205 97.000000 1.000000 4.000000 1.000000 0.000000 114.000000 11.000000 -0.266602 0.244032 0.932401
-12.39999962 11.14999962 -0.38999999 43 57 205 97.000000 1.000000 4.000000 1.000000 0.000000 114.000000 11.000000 0.756020 -0.142787 -0.638784
-12.39999962 11.14999962 -0.44999999 43 57 205 97.000000 1.000000 4.000000 1.000000 0.000000 114.000000 11.000000 -0.564701 0.137840 0.813703
-12.39999962 11.10999966 -0.44999999 43 57 205 97.000000 1.000000 4.000000 1.000000 0.000000 114.000000 11.000000 -0.447457 0.036280 0.893569
-12.42000008 11.14000034 -0.41000000 43 57 205 97.000000 1.000000 4.000000 1.000000 0.000000 114.000000 11.000000 -0.468396 0.366084 0.804107
-12.40999985 11.14000034 -0.41000000 43 57 205 97.000000 1.000000 4.000000 1.000000 0.000000 114.000000 11.000000 -0.192678 0.103176 0.975823
-12.40999985 11.14000034 -0.41000000 43 57 205 97.000000 1.000000 4.000000 1.000000 0.000000 114.000000 11.000000 -0.192678 0.103176 0.975823
-12.40999985 11.18999958 -0.47999999 43 57 205 97.000000 1.000000 4.000000 1.000000 0.000000 114.000000 11.000000 -0.016881 0.396056 0.918071
-12.38000011 11.15999985 -0.50000000 43 57 205 97.000000 1.000000 4.000000 1.000000 0.000000 114.000000 11.000000 0.598935 -0.619181 -0.507830
-12.40999985 11.18999958 -0.46000001 43 57 205 97.000000 1.000000 4.000000 1.000000 0.000000 114.000000 11.000000 -0.434633 0.180000 0.882437
-12.36999989 11.09000015 -0.41999999 43 57 205 97.000000 1.000000 4.000000 1.000000 0.000000 114.000000 11.000000 0.686544 -0.153071 -0.710793
-12.42000008 11.07999992 -0.37000000 43 57 205 97.000000 1.000000 4.000000 1.000000 0.000000 114.000000 11.000000 -0.544047 0.358909 0.758418
-12.42000008 11.03999996 -0.38000000 43 57 205 97.000000 1.000000 4.000000 1.000000 0.000000 114.000000 11.000000 -0.171820 0.266523 0.948390
-12.27999973 11.01000023 -0.20000000 43 57 205 97.000000 1.000000 4.000000 1.000000 0.000000 114.000000 11.000000 -0.475012 0.582435 0.659646
-12.32999992 11.01000023 -0.23000000 43 57 205 97.000000 1.000000 4.000000 1.000000 0.000000 114.000000 11.000000 -0.160447 0.381950 0.910149
-12.35999966 11.02000046 -0.20000000 43 57 205 97.000000 1.000000 4.000000 1.000000 0.000000 114.000000 11.000000 0.764486 -0.185376 -0.617411
-12.35999966 11.01000023 -0.20000000 43 57 205 97.000000 1.000000 4.000000 1.000000 0.000000 114.000000 11.000000 0.683963 -0.486634 -0.543491
-12.34000015 10.97000027 -0.22000000 43 57 205 97.000000 1.000000 4.000000 1.000000 0.000000 114.000000 11.000000 -0.596157 0.225699 0.770491
-12.35999966 10.97999954 -0.20000000 43 57 205 97.000000 1.000000 4.000000 1.000000 0.000000 114.000000 11.000000 -0.456351 0.479416 0.749602
-12.31000042 11.01000023 -0.30000001 43 57 205 97.000000 1.000000 4.000000 1.000000 0.000000 114.000000 11.000000 -0.360672 0.003797 0.932685
-12.32999992 11.02000046 -0.30000001 43 57 205 97.000000 1.000000 4.000000 1.000000 0.000000 114.000000 11.000000 -0.283216 0.126317 0.950701
-12.34000015 11.02000046 -0.30000001 43 57 205 97.000000 1.000000 4.000000 1.000000 0.000000 114.000000 11.000000 -0.250395 0.403330 0.880129
-12.39999962 11.01000023 -0.22000000 43 57 205 97.000000 1.000000 4.000000 1.000000 0.000000 114.000000 11.000000 -0.541348 -0.066432 0.838170
-12.36999989 11.00000000 -0.23000000 43 57 205 97.000000 1.000000 4.000000 1.000000 0.000000 114.000000 11.000000 0.764352 -0.015315 -0.644617
-12.39999962 11.02000046 -0.28000000 43 57 205 97.000000 1.000000 4.000000 1.000000 0.000000 114.000000 11.000000 -0.523876 0.171640 0.834322
-12.36999989 10.97999954 -0.20000000 43 57 205 97.000000 1.000000 4.000000 1.000000 0.000000 114.000000 11.000000 -0.494119 0.071388 0.866458
-12.38000011 10.97999954 -0.20999999 43 57 205 97.000000 1.000000 4.000000 1.000000 0.000000 114.000000 11.000000 -0.526883 0.533616 0.661550
-12.38000011 10.93999958 -0.22000000 43 57 205 97.000000 1.000000 4.000000 1.000000 0.000000 114.000000 11.000000 0.728616 -0.268271 -0.630198
-12.39999962 10.97000027 -0.23999999 43 57 205 97.000000 1.000000 4.000000 1.000000 0.000000 114.000000 11.000000 -0.589044 0.266886 0.762757
-12.40999985 11.01000023 -0.25999999 43 57 205 97.000000 1.000000 4.000000 1.000000 0.000000 114.000000 11.000000 -0.488578 -0.074197 0.869360
-12.43999958 10.94999981 -0.20999999 43 57 205 97.000000 1.000000 4.000000 1.000000 0.000000 114.000000 11.000000 -0.380364 0.434474 0.816429
-12.43999958 10.97999954 -0.25999999 43 57 205 97.000000 1.000000 4.000000 1.000000 0.000000 114.000000 11.000000 -0.477701 -0.112652 0.871270
-12.43000031 10.97000027 -0.23999999 43 57 205 97.000000 1.000000 4.000000 1.000000 0.000000 114.000000 11.000000 -0.214508 0.190526 0.957959
-12.42000008 10.96000004 -0.23999999 43 57 205 97.000000 1.000000 4.000000 1.000000 0.000000 114.000000 11.000000 -0.486985 -0.186156 0.853341
-12.43999958 10.97999954 -0.25999999 43 57 205 97.000000 1.000000 4.000000 1.000000 0.000000 114.000000 11.000000 -0.477701 -0.112652 0.871270
-12.40999985 10.96000004 -0.27000001 43 57 205 97.000000 1.000000 4.000000 1.000000 0.000000 114.000000 11.000000 -0.632776 0.286752 0.719283
-12.40999985 10.96000004 -0.25999999 43 57 205 97.000000 1.000000 4.000000 1.000000 0.000000 114.000000 11.000000 0.636438 -0.410445 -0.653056
-12.40999985 10.94999981 -0.25999999 43 57 205 97.000000 1.000000 4.000000 1.000000 0.000000 114.000000 11.000000 0.743536 -0.398850 -0.536724
-12.36999989 10.98999977 -0.28999999 43 57 205 97.000000 1.000000 4.000000 1.000000 0.000000 114.000000 11.000000 -0.156261 0.289423 0.944361
-12.40999985 11.01000023 -0.30000001 43 57 205 97.000000 1.000000 4.000000 1.000000 0.000000 114.000000 11.000000 -0.377128 0.129420 0.917074
-12.43999958 10.97999954 -0.31000000 43 57 205 97.000000 1.000000 4.000000 1.000000 0.000000 114.000000 11.000000 0.830816 -0.020599 -0.556166
-12.40999985 10.94999981 -0.30000001 43 57 205 97.000000 1.000000 4.000000 1.000000 0.000000 114.000000 11.000000 0.535975 -0.472526 -0.699606
-12.43000031 10.97000027 -0.28999999 43 57 205 97.000000 1.000000 4.000000 1.000000 0.000000 114.000000 11.000000 0.573589 -0.553285 -0.604045
-12.43999958 10.94999981 -0.31999999 43 57 205 97.000000 1.000000 4.000000 1.000000 0.000000 114.000000 11.000000 -0.503086 0.506429 0.700310
-12.38000011 10.92000008 -0.22000000 43 57 205 97.000000 1.000000 4.000000 1.000000 0.000000 114.000000 11.000000 -0.378788 -0.111570 0.918734
-12.39000034 10.92000008 -0.22000000 43 57 205 97.000000 1.000000 4.000000 1.000000 0.000000 114.000000 11.000000 -0.351535 -0.003780 0.936167
-12.36999989 10.90999985 -0.25999999 43 57 205 97.000000 1.000000 4.000000 1.000000 0.000000 114.000000 11.000000 0.666256 0.029580 -0.745136
-12.40999985 10.93000031 -0.22000000 43 57 205 97.000000 1.000000 4.000000 1.000000 0.000000 114.000000 11.000000 -0.218492 0.027461 0.975452
-12.40999985 10.89999962 -0.25000000 43 57 205 97.000000 1.000000 4.000000 1.000000 0.000000 114.000000 11.000000 -0.627839 -0.152067 0.763344
-12.27000046 10.51000023 -0.22000000 43 57 205 97.000000 1.000000 4.000000 1.000000 0.000000 114.000000 11.000000 0.743713 -0.049962 -0.666629
-12.23999977 10.51000023 -0.23000000 43 57 205 97.000000 1.000000 4.000000 1.000000 0.000000 114.000000 11.000000 -0.615498 -0.085446 0.783493
-12.26000023 10.60999966 -0.44000000 43 57 205 97.000000 1.000000 4.000000 1.000000 0.000000 114.000000 106.000000 0.813063 0.040583 -0.580759
-12.25000000 10.60999966 -0.43000001 43 57 205 97.000000 1.000000 4.000000 1.000000 0.000000 114.000000 106.000000 0.533502 0.159010 -0.830717
-12.25000000 10.57999992 -0.43000001 43 57 205 97.000000 1.000000 4.000000 1.000000 0.000000 114.000000 106.000000 0.756917 0.041029 -0.652222
-12.26000023 10.56000042 -0.44999999 43 57 205 97.000000 1.000000 4.000000 1.000000 0.000000 114.000000 106.000000 0.768138 0.339784 -0.542689
-12.25000000 10.57999992 -0.41999999 43 57 205 97.000000 1.000000 4.000000 1.000000 0.000000 114.000000 106.000000 0.805773 -0.128628 -0.578087
-12.26000023 10.57999992 -0.43000001 43 57 205 97.000000 1.000000 4.000000 1.000000 0.000000 114.000000 106.000000 -0.623668 0.216184 0.751201
-12.26000023 10.56000042 -0.44000000 43 57 205 97.000000 1.000000 4.000000 1.000000 0.000000 114.000000 106.000000 -0.462418 -0.184672 0.867218
-12.26000023 10.52000046 -0.41000000 43 57 205 97.000000 1.000000 4.000000 1.000000 0.000000 114.000000 106.000000 0.896727 0.265313 -0.354244
-12.27000046 10.51000023 -0.44000000 43 57 205 97.000000 1.000000 4.000000 1.000000 0.000000 114.000000 106.000000 -0.558113 0.015084 0.829628
-12.27000046 10.51000023 -0.44000000 43 57 205 97.000000 1.000000 4.000000 1.000000 0.000000 114.000000 106.000000 -0.558113 0.015084 0.829628
-12.26000023 10.52000046 -0.43000001 43 57 205 97.000000 1.000000 4.000000 1.000000 0.000000 114.000000 106.000000 -0.578933 -0.026378 0.814948
-12.22999954 10.57999992 -0.49000001 43 57 205 97.000000 1.000000 4.000000 1.000000 0.000000 114.000000 106.000000 0.775298 0.228394 -0.588854
-12.26000023 10.59000015 -0.49000001 43 57 205 97.000000 1.000000 4.000000 1.000000 0.000000 114.000000 106.000000 -0.557192 0.037517 0.829536
-12.32999992 10.81999969 -0.20999999 43 57 205 97.000000 1.000000 4.000000 1.000000 0.000000 114.000000 11.000000 -0.600100 0.256736 0.757606
-12.35999966 10.68999958 -0.20999999 43 57 205 97.000000 1.000000 4.000000 1.000000 0.000000 114.000000 11.000000 -0.511520 0.059933 0.857179
-12.35999966 10.69999981 -0.23000000 43 57 205 97.000000 1.000000 4.000000 1.000000 0.000000 114.000000 11.000000 -0.352609 -0.016548 0.935624
-12.34000015 10.68000031 -0.20000000 43 57 205 97.000000 1.000000 4.000000 1.000000 0.000000 114.000000 11.000000 -0.523968 -0.253432 0.813160
-12.35000038 10.68000031 -0.20999999 43 57 205 97.000000 1.000000 4.000000 1.000000 0.000000 114.000000 11.000000 -0.426015 0.125964 0.895904
-12.34000015 10.68000031 -0.20000000 43 57 205 97.000000 1.000000 4.000000 1.000000 0.000000 114.000000 11.000000 -0.523968 -0.253432 0.813160
-12.32999992 10.76000023 -0.20999999 43 57 205 97.000000 1.000000 4.000000 1.000000 0.000000 114.000000 11.000000 -0.308510 0.242503 0.919790
-12.39999962 10.78999996 -0.22000000 43 57 205 97.000000 1.000000 4.000000 1.000000 0.000000 114.000000 11.000000 0.742478 0.035356 -0.668937
-12.43999958 10.81000042 -0.23000000 43 57 205 97.000000 1.000000 4.000000 1.000000 0.000000 114.000000 11.000000 -0.286245 -0.023544 0.957867
-12.40999985 10.78999996 -0.23000000 43 57 205 97.000000 1.000000 4.000000 1.000000 0.000000 114.000000 11.000000 -0.346601 -0.151725 0.925661
-12.42000008 10.77000046 -0.23999999 43 57 205 97.000000 1.000000 4.000000 1.000000 0.000000 114.000000 11.000000 -0.382546 -0.234845 0.893592
-12.36999989 10.68999958 -0.20999999 43 57 205 97.000000 1.000000 4.000000 1.000000 0.000000 114.000000 11.000000 -0.271561 0.023347 0.962138
-12.43999958 10.72999954 -0.22000000 43 57 205 97.000000 1.000000 4.000000 1.000000 0.000000 114.000000 11.000000 -0.385255 -0.268329 0.882937
-12.43999958 10.68000031 -0.20999999 43 57 205 97.000000 1.000000 4.000000 1.000000 0.000000 114.000000 11.000000 0.824631 -0.004089 -0.565656
-12.43999958 10.68999958 -0.20999999 43 57 205 97.000000 1.000000 4.000000 1.000000 0.000000 114.000000 11.000000 0.778840 0.221420 -0.586840
-12.43999958 10.71000004 -0.20000000 43 57 205 97.000000 1.000000 4.000000 1.000000 0.000000 114.000000 11.000000 -0.640150 0.076587 0.764423
-12.43999958 10.68000031 -0.20999999 43 57 205 97.000000 1.000000 4.000000 1.000000 0.000000 114.000000 11.000000 0.824631 -0.004089 -0.565656
-12.42000008 10.68999958 -0.20000000 43 57 205 97.000000 1.000000 4.000000 1.000000 0.000000 114.000000 11.000000 0.815497 -0.225759 -0.532914
-12.42000008 10.69999981 -0.23000000 43 57 205 97.000000 1.000000 4.000000 1.000000 0.000000 114.000000 11.000000 -0.301667 0.124689 0.945225
-12.43000031 10.68999958 -0.20000000 43 57 205 97.000000 1.000000 4.000000 1.000000 0.000000 114.000000 11.000000 0.788893 -0.214591 -0.575846
-12.43999958 10.68000031 -0.23999999 43 57 205 97.000000 1.000000 4.000000 1.000000 0.000000 114.000000 11.000000 0.866412 0.045456 -0.497257
-12.43999958 10.68000031 -0.23999999 43 57 205 97.000000 1.000000 4.000000 1.000000 0.000000 114.000000 11.000000 0.866412 0.045456 -0.497257
-12.43999958 10.68999958 -0.23999999 43 57 205 97.000000 1.000000 4.000000 1.000000 0.000000 114.000000 11.000000 -0.535433 -0.051726 0.842992
-12.35999966 10.60000038 -0.25000000 43 57 205 97.000000 1.000000 4.000000 1.000000 0.000000 114.000000 11.000000 -0.578658 -0.294908 0.760385
-12.35000038 10.60000038 -0.25000000 43 57 205 97.000000 1.000000 4.000000 1.000000 0.000000 114.000000 11.000000 -0.430428 -0.246174 0.868407
-12.35999966 10.60999966 -0.23999999 43 57 205 97.000000 1.000000 4.000000 1.000000 0.000000 114.000000 11.000000 0.804946 0.163998 -0.570233
-12.35999966 10.60000038 -0.23999999 43 57 205 97.000000 1.000000 4.000000 1.000000 0.000000 114.000000 11.000000 0.593076 0.328050 -0.735285
-12.27999973 10.56000042 -0.22000000 43 57 205 97.000000 1.000000 4.000000 1.000000 0.000000 114.000000 11.000000 -0.449362 -0.050231 0.891936
-12.30000019 10.52999973 -0.25999999 43 57 205 97.000000 1.000000 4.000000 1.000000 0.000000 114.000000 11.000000 0.797545 -0.164334 -0.580444
-12.35000038 10.56999969 -0.23000000 43 57 205 97.000000 1.000000 4.000000 1.000000 0.000000 114.000000 11.000000 -0.587958 -0.299586 0.751368
-12.34000015 10.59000015 -0.23999999 43 57 205 97.000000 1.000000 4.000000 1.000000 0.000000 114.000000 11.000000 0.624670 0.399325 -0.671064
-12.35000038 10.57999992 -0.25999999 43 57 205 97.000000 1.000000 4.000000 1.000000 0.000000 114.000000 11.000000 0.742401 -0.038181 -0.668868
-12.34000015 10.56999969 -0.25000000 43 57 205 97.000000 1.000000 4.000000 1.000000 0.000000 114.000000 11.000000 -0.498873 -0.465725 0.730907
-12.31999969 10.51000023 -0.25999999 43 57 205 97.000000 1.000000 4.000000 1.000000 0.000000 114.000000 11.000000 0.914231 0.150728 -0.376116
-12.31999969 10.52999973 -0.25000000 43 57 205 97.000000 1.000000 4.000000 1.000000 0.000000 114.000000 11.000000 -0.355365 -0.134126 0.925055
-12.35999966 10.53999996 -0.27000001 43 57 205 97.000000 1.000000 4.000000 1.000000 0.000000 114.000000 11.000000 -0.571408 -0.235102 0.786270
-12.31999969 10.53999996 -0.28000000 43 57 205 97.000000 1.000000 4.000000 1.000000 0.000000 114.000000 11.000000 -0.552372 0.069579 0.830689
-12.32999992 10.52999973 -0.25000000 43 57 205 97.000000 1.000000 4.000000 1.000000 0.000000 114.000000 11.000000 -0.461758 -0.290736 0.838005
-12.35000038 10.53999996 -0.27000001 43 57 205 97.000000 1.000000 4.000000 1.000000 0.000000 114.000000 11.000000 -0.564040 -0.259238 0.783999
-12.35999966 10.56999969 -0.28999999 43 57 205 97.000000 1.000000 4.000000 1.000000 0.000000 114.000000 11.000000 -0.634310 -0.322833 0.702446
-12.28999996 10.51000023 -0.33000001 43 57 205 97.000000 1.000000 4.000000 1.000000 0.000000 114.000000 11.000000 0.768825 0.448889 -0.455419
-12.39000034 10.64000034 -0.23000000 43 57 205 97.000000 1.000000 4.000000 1.000000 0.000000 114.000000 11.000000 -0.314992 -0.088303 0.944977
-12.36999989 10.60000038 -0.25000000 43 57 205 97.000000 1.000000 4.000000 1.000000 0.000000 114.000000 11.000000 -0.398782 0.112548 0.910113
-12.36999989 10.60000038 -0.25999999 43 57 205 97.000000 1.000000 4.000000 1.000000 0.000000 114.000000 11.000000 -0.616049 -0.292823 0.731258
-12.36999989 10.60000038 -0.25999999 43 57 205 97.000000 1.000000 4.000000 1.000000 0.000000 114.000000 11.000000 -0.616049 -0.292823 0.731258
-12.43000031 10.64000034 -0.20000000 43 57 205 97.000000 1.000000 4.000000 1.000000 0.000000 114.000000 11.000000 0.784735 -0.004123 -0.619817
-12.43000031 10.65999985 -0.23999999 43 57 205 97.000000 1.000000 4.000000 1.000000 0.000000 114.000000 11.000000 0.788731 0.303114 -0.534814
-12.36999989 10.56999969 -0.28000000 43 57 205 97.000000 1.000000 4.000000 1.000000 0.000000 114.000000 11.000000 0.810811 0.122137 -0.572424
-12.38000011 10.56999969 -0.31000000 43 57 205 97.000000 1.000000 4.000000 1.000000 0.000000 114.000000 11.000000 0.798920 0.295838 -0.523648
-12.30000019 10.55000019 -0.44000000 43 57 205 97.000000 1.000000 4.000000 1.000000 0.000000 114.000000 106.000000 0.858345 0.279995 -0.429938
-12.27999973 10.52000046 -0.41999999 43 57 205 97.000000 1.000000 4.000000 1.000000 0.000000 114.000000 106.000000 0.763348 -0.061583 -0.643045
-12.35000038 10.56999969 -0.44000000 43 57 205 97.000000 1.000000 4.000000 1.000000 0.000000 114.000000 106.000000 0.750210 0.233364 -0.618649
-12.34000015 10.55000019 -0.44000000 43 57 205 97.000000 1.000000 4.000000 1.000000 0.000000 114.000000 106.000000 0.844583 0.276381 -0.458576
-12.31000042 10.59000015 -0.46000001 43 57 205 97.000000 1.000000 4.000000 1.000000 0.000000 114.000000 106.000000 -0.593947 -0.267672 0.758669
-12.30000019 10.55000019 -0.46000001 43 57 205 97.000000 1.000000 4.000000 1.000000 0.000000 114.000000 106.000000 0.886430 0.277478 -0.370471
-12.31000042 10.51000023 -0.47000000 43 57 205 97.000000 1.000000 4.000000 1.000000 0.000000 114.000000 106.000000 0.850995 0.089803 -0.517439
-12.28999996 10.53999996 -0.46000001 43 57 205 97.000000 1.000000 4.000000 1.000000 0.000000 114.000000 106.000000 0.696081 0.492431 -0.522478
-12.30000019 10.53999996 -0.46000001 43 57 205 97.000000 1.000000 4.000000 1.000000 0.000000 114.000000 106.000000 0.748723 0.394841 -0.532461
-12.47000027 11.34000015 -0.41000000 43 57 205 97.000000 1.000000 4.000000 1.000000 0.000000 114.000000 11.000000 -0.301605 0.672564 0.675790
-12.44999981 11.31000042 -0.44000000 43 57 205 97.000000 1.000000 4.000000 1.000000 0.000000 114.000000 11.000000 -0.528001 0.332208 0.781571
-12.44999981 11.27000046 -0.41999999 43 57 205 97.000000 1.000000 4.000000 1.000000 0.000000 114.000000 11.000000 -0.424472 0.721768 0.546694
-12.47000027 11.05000019 -0.25999999 43 57 205 97.000000 1.000000 4.000000 1.000000 0.000000 114.000000 11.000000 -0.216392 0.275027 0.936768
-12.48999977 11.07999992 -0.31000000 43 57 205 97.000000 1.000000 4.000000 1.000000 0.000000 114.000000 11.000000 0.649520 -0.006925 -0.760313
-12.47000027 11.03999996 -0.33000001 43 57 205 97.000000 1.000000 4.000000 1.000000 0.000000 114.000000 11.000000 0.596929 -0.596929 -0.536052
-12.46000004 11.05000019 -0.36000001 43 57 205 97.000000 1.000000 4.000000 1.000000 0.000000 114.000000 11.000000 -0.341711 0.311605 0.886643
-12.51000023 11.03999996 -0.31999999 43 57 205 97.000000 1.000000 4.000000 1.000000 0.000000 114.000000 11.000000 -0.326379 0.372348 0.868812
-12.51000023 11.03999996 -0.31999999 43 57 205 97.000000 1.000000 4.000000 1.000000 0.000000 114.000000 11.000000 -0.326379 0.372348 0.868812
-12.46000004 11.14000034 -0.40000001 43 57 205 97.000000 1.000000 4.000000 1.000000 0.000000 114.000000 11.000000 -0.459349 0.030982 0.887715
-12.47000027 11.14999962 -0.47000000 43 57 205 97.000000 1.000000 4.000000 1.000000 0.000000 114.000000 11.000000 -0.498995 0.572920 0.650205
-12.48999977 11.07999992 -0.38000000 43 57 205 97.000000 1.000000 4.000000 1.000000 0.000000 114.000000 99.000000 -0.171640 0.523876 0.834322
-12.46000004 11.09000015 -0.40000001 43 57 205 97.000000 1.000000 4.000000 1.000000 0.000000 114.000000 11.000000 -0.208762 0.470089 0.857575
-12.50000000 11.06999969 -0.38999999 43 57 205 97.000000 1.000000 4.000000 1.000000 0.000000 114.000000 99.000000 -0.599962 -0.128881 0.789579
-12.50000000 11.06999969 -0.40000001 43 57 205 97.000000 1.000000 4.000000 1.000000 0.000000 114.000000 99.000000 0.648414 -0.503573 -0.570941
-12.50000000 11.05000019 -0.38999999 43 57 205 97.000000 1.000000 4.000000 1.000000 0.000000 114.000000 99.000000 -0.655436 0.351418 0.668512
-12.57999992 11.11999989 -0.38999999 43 57 205 97.000000 1.000000 4.000000 1.000000 0.000000 114.000000 99.000000 -0.552830 0.417511 0.721155
-12.59000015 11.11999989 -0.38000000 43 57 205 97.000000 1.000000 4.000000 1.000000 0.000000 114.000000 99.000000 -0.269054 -0.015827 0.962995
-12.60000038 11.11999989 -0.41000000 43 57 205 97.000000 1.000000 4.000000 1.000000 0.000000 114.000000 99.000000 -0.195203 0.466401 0.862767
-12.57999992 11.10999966 -0.43000001 43 57 205 97.000000 1.000000 4.000000 1.000000 0.000000 114.000000 99.000000 0.474850 -0.531499 -0.701446
-12.60000038 11.14000034 -0.43000001 43 57 205 97.000000 1.000000 4.000000 1.000000 0.000000 114.000000 99.000000 -0.277866 0.482773 0.830494
-12.56999969 11.07999992 -0.37000000 43 57 205 97.000000 1.000000 4.000000 1.000000 0.000000 114.000000 99.000000 0.723564 -0.023885 -0.689844
-12.56999969 11.07999992 -0.43000001 43 57 205 97.000000 1.000000 4.000000 1.000000 0.000000 114.000000 99.000000 -0.179864 0.132068 0.974786
-12.56000042 11.03999996 -0.41000000 43 57 205 97.000000 1.000000 4.000000 1.000000 0.000000 114.000000 99.000000 -0.401253 -0.077530 0.912680
-12.55000019 11.06000042 -0.41999999 43 57 205 97.000000 1.000000 4.000000 1.000000 0.000000 114.000000 99.000000 -0.622889 -0.043786 0.781084
-12.60999966 11.07999992 -0.44000000 43 57 205 97.000000 1.000000 4.000000 1.000000 0.000000 114.000000 99.000000 -0.345861 -0.021696 0.938035
-12.60000038 11.07999992 -0.44999999 43 57 205 97.000000 1.000000 4.000000 1.000000 0.000000 114.000000 99.000000 -0.606788 -0.046676 0.793492
-12.60000038 11.10000038 -0.44999999 43 57 205 97.000000 1.000000 4.000000 1.000000 0.000000 114.000000 99.000000 -0.519539 0.191251 0.832768
-12.57999992 11.06999969 -0.43000001 43 57 205 97.000000 1.000000 4.000000 1.000000 0.000000 114.000000 99.000000 -0.381120 -0.054446 0.922921
-12.60000038 11.06000042 -0.38999999 43 57 205 97.000000 1.000000 4.000000 1.000000 0.000000 114.000000 99.000000 -0.283766 0.086814 0.954956
-12.57999992 11.06000042 -0.38000000 43 57 205 97.000000 1.000000 4.000000 1.000000 0.000000 114.000000 99.000000 -0.261585 0.412791 0.872455
-12.60999966 11.03999996 -0.43000001 43 57 205 97.000000 1.000000 4.000000 1.000000 0.000000 114.000000 99.000000 -0.307646 0.036715 0.950792
-12.60000038 11.06000042 -0.44000000 43 57 205 97.000000 1.000000 4.000000 1.000000 0.000000 114.000000 99.000000 -0.368289 0.349798 0.861397
-12.44999981 11.00000000 -0.25000000 43 57 205 97.000000 1.000000 4.000000 1.000000 0.000000 114.000000 11.000000 0.731652 -0.406108 -0.547506
-12.47000027 10.93999958 -0.23000000 43 57 205 97.000000 1.000000 4.000000 1.000000 0.000000 114.000000 11.000000 -0.478730 0.302934 0.824044
-12.48999977 10.93999958 -0.27000001 43 57 205 97.000000 1.000000 4.000000 1.000000 0.000000 114.000000 11.000000 -0.548122 0.381231 0.744464
-12.47999954 10.93999958 -0.25999999 43 57 205 97.000000 1.000000 4.000000 1.000000 0.000000 114.000000 11.000000 -0.698116 0.035401 0.715109
-12.46000004 10.97999954 -0.25999999 43 57 205 97.000000 1.000000 4.000000 1.000000 0.000000 114.000000 11.000000 -0.386517 0.331080 0.860808
-12.48999977 10.93999958 -0.28000000 43 57 205 97.000000 1.000000 4.000000 1.000000 0.000000 114.000000 11.000000 -0.537252 0.293191 0.790822
-12.44999981 10.96000004 -0.23999999 43 57 205 97.000000 1.000000 4.000000 1.000000 0.000000 114.000000 11.000000 -0.309512 0.191869 0.931337
-12.47000027 10.97999954 -0.25999999 43 57 205 97.000000 1.000000 4.000000 1.000000 0.000000 114.000000 11.000000 -0.648923 0.195756 0.735241
-12.47000027 10.94999981 -0.25999999 43 57 205 97.000000 1.000000 4.000000 1.000000 0.000000 114.000000 11.000000 0.408196 -0.566848 -0.715583
-12.44999981 10.96000004 -0.23999999 43 57 205 97.000000 1.000000 4.000000 1.000000 0.000000 114.000000 11.000000 -0.309512 0.191869 0.931337
-12.47000027 10.97999954 -0.25999999 43 57 205 97.000000 1.000000 4.000000 1.000000 0.000000 114.000000 11.000000 -0.648923 0.195756 0.735241
-12.52000046 10.97000027 -0.25999999 43 57 205 97.000000 1.000000 4.000000 1.000000 0.000000 114.000000 11.000000 -0.204272 0.338548 0.918509
-12.52999973 10.97000027 -0.27000001 43 57 205 97.000000 1.000000 4.000000 1.000000 0.000000 114.000000 11.000000 -0.473367 0.567036 0.674087
-12.50000000 10.94999981 -0.28000000 43 57 205 97.000000 1.000000 4.000000 1.000000 0.000000 114.000000 11.000000 -0.407600 0.181317 0.894979
-12.46000004 10.98999977 -0.28999999 43 57 205 97.000000 1.000000 4.000000 1.000000 0.000000 114.000000 11.000000 0.628697 -0.457691 -0.628697
-12.46000004 10.98999977 -0.28999999 43 57 205 97.000000 1.000000 4.000000 1.000000 0.000000 114.000000 11.000000 0.628697 -0.457691 -0.628697
-12.47000027 10.97000027 -0.28999999 43 57 205 97.000000 1.000000 4.000000 1.000000 0.000000 114.000000 11.000000 -0.513834 0.161406 0.842569
-12.47000027 10.97999954 -0.28999999 43 57 205 97.000000 1.000000 4.000000 1.000000 0.000000 114.000000 11.000000 -0.625759 0.554918 0.548171
-12.52999973 11.02000046 -0.30000001 43 57 205 97.000000 1.000000 4.000000 1.000000 0.000000 114.000000 11.000000 0.633073 -0.410417 -0.656335
-12.47999954 10.93000031 -0.25999999 43 57 205 97.000000 1.000000 4.000000 1.000000 0.000000 114.000000 11.000000 0.727321 -0.275331 -0.628647
-12.48999977 10.89999962 -0.23999999 43 57 205 97.000000 1.000000 4.000000 1.000000 0.000000 114.000000 11.000000 -0.552061 0.037546 0.832958
-12.44999981 10.88000011 -0.27000001 43 57 205 97.000000 1.000000 4.000000 1.000000 0.000000 114.000000 11.000000 -0.509852 0.437251 0.740852
-12.44999981 10.85999966 -0.25000000 43 57 205 97.000000 1.000000 4.000000 1.000000 0.000000 114.000000 11.000000 -0.413715 0.468877 0.780381
-12.52000046 10.89999962 -0.25000000 43 57 205 97.000000 1.000000 4.000000 1.000000 0.000000 114.000000 11.000000 -0.409397 0.162322 0.897800
-12.52999973 10.89999962 -0.25999999 43 57 205 97.000000 1.000000 4.000000 1.000000 0.000000 114.000000 11.000000 -0.224075 0.240571 0.944413
-12.50000000 10.93000031 -0.25000000 43 57 205 97.000000 1.000000 4.000000 1.000000 0.000000 114.000000 11.000000 -0.529743 0.307028 0.790637
-12.52000046 10.85999966 -0.23999999 43 57 205 97.000000 1.000000 4.000000 1.000000 0.000000 114.000000 11.000000 -0.376229 0.423853 0.823894
-12.47000027 10.89000034 -0.28999999 43 57 205 97.000000 1.000000 4.000000 1.000000 0.000000 114.000000 11.000000 -0.393373 0.097315 0.914214
-12.56000042 10.94999981 -0.25999999 43 57 205 97.000000 1.000000 4.000000 1.000000 0.000000 114.000000 11.000000 -0.365934 0.335312 0.868135
-12.53999996 11.00000000 -0.31000000 43 57 205 97.000000 1.000000 4.000000 1.000000 0.000000 114.000000 11.000000 -0.428803 0.347126 0.834045
-12.53999996 10.97000027 -0.33000001 43 57 205 97.000000 1.000000 4.000000 1.000000 0.000000 114.000000 11.000000 -0.414227 -0.197599 0.888465
-12.53999996 10.97000027 -0.33000001 43 57 205 97.000000 1.000000 4.000000 1.000000 0.000000 114.000000 11.000000 -0.414227 -0.197599 0.888465
-12.56000042 10.93000031 -0.25999999 43 57 205 97.000000 1.000000 4.000000 1.000000 0.000000 114.000000 11.000000 -0.328106 0.364732 0.871388
-12.56999969 10.88000011 -0.23000000 43 57 205 97.000000 1.000000 4.000000 1.000000 0.000000 114.000000 11.000000 -0.242299 0.140140 0.960027
-12.53999996 10.85999966 -0.27000001 43 57 205 97.000000 1.000000 4.000000 1.000000 0.000000 114.000000 11.000000 -0.415426 0.116095 0.902188
-12.56000042 10.85999966 -0.25000000 43 57 205 97.000000 1.000000 4.000000 1.000000 0.000000 114.000000 11.000000 -0.267834 0.273563 0.923812
-12.60999966 10.90999985 -0.28000000 43 57 205 97.000000 1.000000 4.000000 1.000000 0.000000 114.000000 11.000000 -0.413723 0.107262 0.904062
-12.57999992 10.90999985 -0.25999999 43 57 205 97.000000 1.000000 4.000000 1.000000 0.000000 114.000000 11.000000 -0.284185 0.161809 0.945017
-12.59000015 10.93000031 -0.27000001 43 57 205 97.000000 1.000000 4.000000 1.000000 0.000000 114.000000 11.000000 -0.386937 0.313526 0.867168
-12.60999966 10.93000031 -0.28000000 43 57 205 97.000000 1.000000 4.000000 1.000000 0.000000 114.000000 11.000000 -0.619110 -0.107352 0.777932
-12.60000038 10.90999985 -0.28000000 43 57 205 97.000000 1.000000 4.000000 1.000000 0.000000 114.000000 11.000000 -0.380381 0.035293 0.924156
-12.60000038 10.92000008 -0.28000000 43 57 205 97.000000 1.000000 4.000000 1.000000 0.000000 114.000000 11.000000 -0.428980 -0.095792 0.898220
-12.57999992 10.89000034 -0.28000000 43 57 205 97.000000 1.000000 4.000000 1.000000 0.000000 114.000000 11.000000 -0.533386 0.199070 0.822114
-12.57999992 10.88000011 -0.23999999 43 57 205 97.000000 1.000000 4.000000 1.000000 0.000000 114.000000 11.000000 -0.404652 0.446568 0.798019
-12.57999992 10.85999966 -0.28999999 43 57 205 97.000000 1.000000 4.000000 1.000000 0.000000 114.000000 11.000000 -0.318874 0.091296 0.943390
-12.59000015 10.89000034 -0.28999999 43 57 205 97.000000 1.000000 4.000000 1.000000 0.000000 114.000000 11.000000 -0.391220 -0.123909 0.911918
-12.64999962 11.11999989 -0.41999999 43 57 205 97.000000 1.000000 4.000000 1.000000 0.000000 114.000000 99.000000 -0.458840 0.439245 0.772353
-12.65999985 11.13000011 -0.43000001 43 57 205 97.000000 1.000000 4.000000 1.000000 0.000000 114.000000 99.000000 -0.631142 0.506597 0.587383
-12.64000034 11.11999989 -0.41000000 43 57 205 97.000000 1.000000 4.000000 1.000000 0.000000 114.000000 99.000000 -0.394328 0.423064 0.815796
-12.65999985 11.10999966 -0.43000001 43 57 205 97.000000 1.000000 4.000000 1.000000 0.000000 114.000000 99.000000 0.769047 -0.311776 -0.557999
-12.67000008 11.10999966 -0.43000001 43 57 205 97.000000 1.000000 4.000000 1.000000 0.000000 114.000000 99.000000 0.719024 -0.365245 -0.591270
-12.64000034 11.07999992 -0.41999999 43 57 205 97.000000 1.000000 4.000000 1.000000 0.000000 114.000000 99.000000 0.736388 -0.229828 -0.636327
-12.64999962 11.06999969 -0.43000001 43 57 205 97.000000 1.000000 4.000000 1.000000 0.000000 114.000000 99.000000 -0.581344 0.221686 0.782876
-12.64999962 11.06999969 -0.43000001 43 57 205 97.000000 1.000000 4.000000 1.000000 0.000000 114.000000 99.000000 -0.581344 0.221686 0.782876
-12.63000011 11.06999969 -0.44999999 43 57 205 97.000000 1.000000 4.000000 1.000000 0.000000 114.000000 99.000000 -0.365229 -0.137482 0.920710
-12.65999985 11.06999969 -0.41000000 43 57 205 97.000000 1.000000 4.000000 1.000000 0.000000 114.000000 99.000000 -0.663834 -0.159502 0.730673
-12.61999989 11.05000019 -0.40000001 43 57 205 97.000000 1.000000 4.000000 1.000000 0.000000 114.000000 99.000000 -0.608524 -0.168444 0.775451
-12.64000034 11.05000019 -0.41000000 43 57 205 97.000000 1.000000 4.000000 1.000000 0.000000 114.000000 99.000000 -0.559071 -0.220240 0.799333
-12.65999985 11.02999973 -0.41000000 43 57 205 97.000000 1.000000 4.000000 1.000000 0.000000 114.000000 99.000000 -0.197938 0.103326 0.974753
