//X Y Z R G B PointSourceId ScanDirectionFlag NumberOfReturns ReturnNumber GpsTime Intensity Classification Nx Ny Nz
4.63000011 -3.81999993 0.25999999 80 49 191 0.000000 0.000000 0.000000 0.000000 0.000000 0.000000 56.000000 0.615155 0.661833 -0.428441
4.57000017 -3.79999995 0.23999999 80 49 191 0.000000 0.000000 0.000000 0.000000 0.000000 0.000000 56.000000 0.501102 0.762263 -0.409696
4.65000010 -3.77999997 0.22000000 80 49 191 0.000000 0.000000 0.000000 0.000000 0.000000 0.000000 56.000000 0.498172 0.840382 -0.213502
4.61999989 -3.80999994 0.20999999 80 49 191 0.000000 0.000000 0.000000 0.000000 0.000000 0.000000 56.000000 0.210291 0.839650 -0.500764
4.63000011 -3.80999994 0.20000000 80 49 191 0.000000 0.000000 0.000000 0.000000 0.000000 0.000000 56.000000 0.283820 0.935348 -0.211117
4.59999990 -3.78999996 0.20999999 80 49 191 0.000000 0.000000 0.000000 0.000000 0.000000 0.000000 56.000000 0.273455 0.810990 -0.517221
4.65000010 -3.85999990 0.20999999 80 49 191 0.000000 0.000000 0.000000 0.000000 0.000000 0.000000 56.000000 0.451702 0.836196 -0.311034
4.53999996 -3.79999995 0.47999999 80 49 191 0.000000 0.000000 0.000000 0.000000 0.000000 0.000000 56.000000 0.443458 0.870492 -0.213517
4.55999994 -3.79999995 0.43000001 80 49 191 0.000000 0.000000 0.000000 0.000000 0.000000 0.000000 56.000000 0.704485 0.605955 -0.369485
4.55000019 -3.85999990 0.38000000 80 49 191 0.000000 0.000000 0.000000 0.000000 0.000000 0.000000 56.000000 0.542724 0.839505 0.026106
4.55000019 -3.84999990 0.40000001 80 49 191 0.000000 0.000000 0.000000 0.000000 0.000000 0.000000 56.000000 0.296000 0.825355 -0.480805
4.63000011 -3.68000007 0.12000000 80 49 191 0.000000 0.000000 0.000000 0.000000 0.000000 0.000000 56.000000 0.386692 0.702627 -0.597315
4.65000010 -3.70000005 0.06000000 80 49 191 0.000000 0.000000 0.000000 0.000000 0.000000 0.000000 56.000000 0.500768 0.615422 -0.608677
4.57000017 -3.68000007 -0.19000000 80 49 191 0.000000 0.000000 0.000000 0.000000 0.000000 0.000000 56.000000 0.900250 0.434922 0.019829
4.67999983 -3.76999998 0.11000000 80 49 191 0.000000 0.000000 0.000000 0.000000 0.000000 0.000000 56.000000 0.308805 0.934725 -0.175867
4.67999983 -3.76999998 0.12000000 80 49 191 0.000000 0.000000 0.000000 0.000000 0.000000 0.000000 56.000000 0.286284 0.949399 -0.129161
4.67000008 -3.77999997 0.06000000 80 49 191 0.000000 0.000000 0.000000 0.000000 0.000000 0.000000 56.000000 0.469840 0.853569 -0.225100
4.67000008 -3.77999997 0.05000000 80 49 191 0.000000 0.000000 0.000000 0.000000 0.000000 0.000000 56.000000 0.526366 0.850074 0.017682
4.67000008 -3.77999997 0.00000000 80 49 191 0.000000 0.000000 0.000000 0.000000 0.000000 0.000000 56.000000 -0.363069 -0.648925 0.668639
4.69999981 -3.90000010 0.01000000 80 49 191 0.000000 0.000000 0.000000 0.000000 0.000000 0.000000 56.000000 0.682932 0.576068 -0.449166
4.67000008 -3.92000008 0.01000000 80 49 191 0.000000 0.000000 0.000000 0.000000 0.000000 0.000000 56.000000 0.587634 0.808861 0.020740
4.61999989 -3.76999998 0.02000000 80 49 191 0.000000 0.000000 0.000000 0.000000 0.000000 0.000000 56.000000 0.374377 0.817257 -0.438101
4.65000010 -3.92000008 0.00000000 80 49 191 0.000000 0.000000 0.000000 0.000000 0.000000 0.000000 56.000000 0.683659 0.683659 -0.255381
4.63999987 -3.91000009 0.03000000 80 49 191 0.000000 0.000000 0.000000 0.000000 0.000000 0.000000 56.000000 0.541590 0.839534 0.043160
4.65999985 -3.77999997 -0.05000000 80 49 191 0.000000 0.000000 0.000000 0.000000 0.000000 0.000000 56.000000 0.478800 0.695678 -0.535522
4.71999979 -3.88000011 -0.08000000 80 49 191 0.000000 0.000000 0.000000 0.000000 0.000000 0.000000 56.000000 0.106345 0.951851 -0.287525
4.71000004 -3.91000009 -0.08000000 80 49 191 0.000000 0.000000 0.000000 0.000000 0.000000 0.000000 56.000000 0.450765 0.885987 -0.108805
4.67000008 -3.91000009 -0.06000000 80 49 191 0.000000 0.000000 0.000000 0.000000 0.000000 0.000000 56.000000 0.128090 0.942474 -0.308765
4.67999983 -3.91000009 -0.06000000 80 49 191 0.000000 0.000000 0.000000 0.000000 0.000000 0.000000 56.000000 0.323228 0.933924 -0.152674
4.67000008 -3.91000009 -0.06000000 80 49 191 0.000000 0.000000 0.000000 0.000000 0.000000 0.000000 56.000000 0.128090 0.942474 -0.308765
4.69000006 -3.92000008 -0.09000000 80 49 191 0.000000 0.000000 0.000000 0.000000 0.000000 0.000000 56.000000 0.250337 0.803878 -0.539547
4.67000008 -3.90000010 -0.10000000 80 49 191 0.000000 0.000000 0.000000 0.000000 0.000000 0.000000 56.000000 0.212493 0.895403 -0.391281
4.67000008 -3.90000010 -0.09000000 80 49 191 0.000000 0.000000 0.000000 0.000000 0.000000 0.000000 56.000000 0.241268 0.704880 -0.667034
4.71000004 -3.86999989 -0.18000001 80 49 191 0.000000 0.000000 0.000000 0.000000 0.000000 0.000000 56.000000 -0.448825 -0.568957 0.689089
4.69999981 -3.92000008 -0.16000000 80 49 191 0.000000 0.000000 0.000000 0.000000 0.000000 0.000000 56.000000 0.585262 0.809822 0.040702
4.65999985 -3.88000011 -0.15000001 80 49 191 0.000000 0.000000 0.000000 0.000000 0.000000 0.000000 56.000000 0.500145 0.865374 0.031344
4.69000006 -3.88000011 -0.11000000 80 49 191 0.000000 0.000000 0.000000 0.000000 0.000000 0.000000 56.000000 0.385351 0.922507 -0.022057
4.65999985 -3.85999990 -0.17000000 80 49 191 0.000000 0.000000 0.000000 0.000000 0.000000 0.000000 56.000000 0.267398 0.917827 -0.293415
4.67999983 -3.90000010 -0.13000000 80 49 191 0.000000 0.000000 0.000000 0.000000 0.000000 0.000000 56.000000 0.608331 0.661664 -0.438332
4.67999983 -3.89000010 -0.15000001 80 49 191 0.000000 0.000000 0.000000 0.000000 0.000000 0.000000 56.000000 0.409875 0.682018 -0.605685
4.69000006 -3.91000009 -0.15000001 80 49 191 0.000000 0.000000 0.000000 0.000000 0.000000 0.000000 56.000000 0.348503 0.756982 -0.552742
4.67999983 -3.89000010 -0.12000000 80 49 191 0.000000 0.000000 0.000000 0.000000 0.000000 0.000000 56.000000 0.460432 0.835022 -0.301232
4.57999992 -3.79999995 -0.10000000 80 49 191 0.000000 0.000000 0.000000 0.000000 0.000000 0.000000 56.000000 0.878109 0.329101 -0.347300
4.63999987 -3.86999989 -0.09000000 80 49 191 0.000000 0.000000 0.000000 0.000000 0.000000 0.000000 56.000000 0.676706 0.449467 -0.583137
4.63999987 -3.86999989 -0.09000000 80 49 191 0.000000 0.000000 0.000000 0.000000 0.000000 0.000000 56.000000 0.676706 0.449467 -0.583137
4.63999987 -3.88000011 -0.10000000 80 49 191 0.000000 0.000000 0.000000 0.000000 0.000000 0.000000 56.000000 0.455170 0.568546 -0.685256
4.61999989 -3.88000011 -0.11000000 80 49 191 0.000000 0.000000 0.000000 0.000000 0.000000 0.000000 56.000000 0.483408 0.680786 -0.550316
4.55999994 -3.74000001 -0.10000000 80 49 191 0.000000 0.000000 0.000000 0.000000 0.000000 0.000000 56.000000 0.852207 0.304691 -0.425330
4.55999994 -3.74000001 -0.10000000 80 49 191 0.000000 0.000000 0.000000 0.000000 0.000000 0.000000 56.000000 0.852207 0.304691 -0.425330
4.55999994 -3.73000002 -0.14000000 80 49 191 0.000000 0.000000 0.000000 0.000000 0.000000 0.000000 56.000000 0.834771 0.416599 -0.360005
4.48000002 -3.73000002 -0.14000000 80 49 191 0.000000 0.000000 0.000000 0.000000 0.000000 0.000000 56.000000 -0.654467 -0.421323 0.627822
4.51999998 -3.74000001 -0.17000000 80 49 191 0.000000 0.000000 0.000000 0.000000 0.000000 0.000000 56.000000 0.803410 0.392885 -0.447408
4.48999977 -3.75000000 -0.19000000 80 49 191 0.000000 0.000000 0.000000 0.000000 0.000000 0.000000 56.000000 0.635308 0.500495 -0.588123
4.46999979 -3.68000007 -0.19000000 80 49 191 0.000000 0.000000 0.000000 0.000000 0.000000 0.000000 56.000000 0.976221 0.054571 -0.209797
4.44000006 -3.75000000 -0.14000000 80 49 191 0.000000 0.000000 0.000000 0.000000 0.000000 0.000000 56.000000 0.861520 0.325189 -0.389918
4.46000004 -3.72000003 -0.17000000 80 49 191 0.000000 0.000000 0.000000 0.000000 0.000000 0.000000 56.000000 0.724142 0.465638 -0.508722
4.55000019 -3.76999998 -0.11000000 80 49 191 0.000000 0.000000 0.000000 0.000000 0.000000 0.000000 56.000000 0.813279 0.364464 -0.453590
4.55000019 -3.76999998 -0.11000000 80 49 191 0.000000 0.000000 0.000000 0.000000 0.000000 0.000000 56.000000 0.813279 0.364464 -0.453590
4.53999996 -3.77999997 -0.14000000 80 49 191 0.000000 0.000000 0.000000 0.000000 0.000000 0.000000 56.000000 0.827495 0.561270 0.015095
4.48999977 -3.79999995 -0.13000000 80 49 191 0.000000 0.000000 0.000000 0.000000 0.000000 0.000000 56.000000 0.739605 0.436515 -0.512288
4.42000008 -3.75999999 -0.10000000 80 49 191 0.000000 0.000000 0.000000 0.000000 0.000000 0.000000 56.000000 0.781739 0.591296 -0.198123
4.26000023 -3.41000009 0.41000000 80 49 191 0.000000 0.000000 0.000000 0.000000 0.000000 0.000000 50.000000 0.974804 0.169805 0.144648
4.36000013 -3.41000009 0.25000000 80 49 191 0.000000 0.000000 0.000000 0.000000 0.000000 0.000000 50.000000 0.986409 0.157220 -0.047748
4.32000017 -3.35999990 0.28000000 80 49 191 0.000000 0.000000 0.000000 0.000000 0.000000 0.000000 50.000000 0.906139 -0.127843 -0.403197
4.38999987 -3.34999990 0.17000000 80 49 191 0.000000 0.000000 0.000000 0.000000 0.000000 0.000000 50.000000 0.916964 0.038262 -0.397131
4.38000011 -3.41000009 0.15000001 80 49 191 0.000000 0.000000 0.000000 0.000000 0.000000 0.000000 50.000000 0.894419 0.436744 0.096279
4.38000011 -3.41000009 0.16000000 80 49 191 0.000000 0.000000 0.000000 0.000000 0.000000 0.000000 50.000000 0.840438 0.473421 -0.263697
4.30000019 -3.38000011 0.23999999 80 49 191 0.000000 0.000000 0.000000 0.000000 0.000000 0.000000 50.000000 0.966178 0.198423 0.164704
4.28999996 -3.41000009 0.23999999 80 49 191 0.000000 0.000000 0.000000 0.000000 0.000000 0.000000 50.000000 0.965370 0.114101 -0.234612
4.23000002 -3.39000010 0.25000000 80 49 191 0.000000 0.000000 0.000000 0.000000 0.000000 0.000000 50.000000 0.938623 0.163538 -0.303713
4.23999977 -3.40000010 0.16000000 80 49 191 0.000000 0.000000 0.000000 0.000000 0.000000 0.000000 50.000000 0.967129 -0.252453 -0.030490
4.26000023 -3.41000009 0.18000001 80 49 191 0.000000 0.000000 0.000000 0.000000 0.000000 0.000000 50.000000 0.939201 0.323816 0.114209
4.26000023 -3.41000009 0.18000001 80 49 191 0.000000 0.000000 0.000000 0.000000 0.000000 0.000000 50.000000 0.939201 0.323816 0.114209
4.38000011 -3.44000006 0.41999999 80 49 191 0.000000 0.000000 0.000000 0.000000 0.000000 0.000000 50.000000 0.923558 0.223419 -0.311648
4.38000011 -3.43000007 0.33000001 80 49 191 0.000000 0.000000 0.000000 0.000000 0.000000 0.000000 50.000000 0.845616 0.095865 -0.525112
4.26999998 -3.42000008 0.47999999 80 49 191 0.000000 0.000000 0.000000 0.000000 0.000000 0.000000 50.000000 0.842331 0.075031 -0.533712
4.28999996 -3.42000008 0.37000000 80 49 191 0.000000 0.000000 0.000000 0.000000 0.000000 0.000000 50.000000 0.958801 0.195484 -0.206122
4.36999989 -3.43000007 0.30000001 80 49 191 0.000000 0.000000 0.000000 0.000000 0.000000 0.000000 50.000000 0.965294 0.230691 -0.122434
4.28999996 -3.42000008 0.28000000 80 49 191 0.000000 0.000000 0.000000 0.000000 0.000000 0.000000 50.000000 0.732518 0.467951 -0.494408
4.28999996 -3.44000006 0.22000000 80 49 191 0.000000 0.000000 0.000000 0.000000 0.000000 0.000000 50.000000 0.876321 0.391998 -0.279999
4.28999996 -3.45000005 0.15000001 80 49 191 0.000000 0.000000 0.000000 0.000000 0.000000 0.000000 50.000000 0.933978 0.329559 -0.138114
4.21999979 -3.40000010 0.27000001 80 49 191 0.000000 0.000000 0.000000 0.000000 0.000000 0.000000 50.000000 0.990357 -0.132728 -0.039705
4.21999979 -3.39000010 0.23999999 80 49 191 0.000000 0.000000 0.000000 0.000000 0.000000 0.000000 50.000000 0.948124 -0.011213 -0.317703
4.21999979 -3.40000010 0.27000001 80 49 191 0.000000 0.000000 0.000000 0.000000 0.000000 0.000000 50.000000 0.990357 -0.132728 -0.039705
4.36999989 -3.41000009 0.13000000 80 49 191 0.000000 0.000000 0.000000 0.000000 0.000000 0.000000 50.000000 0.906640 0.127518 -0.402173
4.32000017 -3.39000010 0.06000000 80 49 191 0.000000 0.000000 0.000000 0.000000 0.000000 0.000000 50.000000 0.871081 -0.124850 -0.475005
4.32999992 -3.39000010 0.06000000 80 49 191 0.000000 0.000000 0.000000 0.000000 0.000000 0.000000 50.000000 0.927294 0.348596 0.136407
4.26999998 -3.40000010 0.12000000 80 49 191 0.000000 0.000000 0.000000 0.000000 0.000000 0.000000 50.000000 0.961662 0.193915 0.193915
4.28999996 -3.41000009 0.10000000 80 49 191 0.000000 0.000000 0.000000 0.000000 0.000000 0.000000 50.000000 0.834976 0.084211 -0.543805
4.26999998 -3.41000009 0.09000000 80 49 191 0.000000 0.000000 0.000000 0.000000 0.000000 0.000000 50.000000 0.941687 -0.127983 -0.311201
4.26999998 -3.40000010 0.08000000 80 49 191 0.000000 0.000000 0.000000 0.000000 0.000000 0.000000 50.000000 0.953037 -0.041767 -0.299960
4.26999998 -3.41000009 0.07000000 80 49 191 0.000000 0.000000 0.000000 0.000000 0.000000 0.000000 50.000000 0.900850 0.434129 0.001304
4.23999977 -3.39000010 0.11000000 80 49 191 0.000000 0.000000 0.000000 0.000000 0.000000 0.000000 50.000000 0.988759 0.099697 0.111426
4.25000000 -3.39000010 0.09000000 80 49 191 0.000000 0.000000 0.000000 0.000000 0.000000 0.000000 50.000000 0.982383 0.186848 0.003439
4.25000000 -3.39000010 0.09000000 80 49 191 0.000000 0.000000 0.000000 0.000000 0.000000 0.000000 50.000000 0.982383 0.186848 0.003439
4.28999996 -3.40000010 0.00000000 80 49 191 0.000000 0.000000 0.000000 0.000000 0.000000 0.000000 50.000000 0.834186 0.287382 -0.470686
4.23999977 -3.39000010 0.04000000 80 49 191 0.000000 0.000000 0.000000 0.000000 0.000000 0.000000 50.000000 0.984525 0.055416 0.166249
4.23999977 -3.39000010 0.04000000 80 49 191 0.000000 0.000000 0.000000 0.000000 0.000000 0.000000 50.000000 0.984525 0.055416 0.166249
4.23999977 -3.39000010 0.04000000 80 49 191 0.000000 0.000000 0.000000 0.000000 0.000000 0.000000 50.000000 0.984525 0.055416 0.166249
4.23999977 -3.41000009 -0.14000000 80 49 191 0.000000 0.000000 0.000000 0.000000 0.000000 0.000000 50.000000 0.966221 0.253618 0.045775
4.23999977 -3.41000009 -0.13000000 80 49 191 0.000000 0.000000 0.000000 0.000000 0.000000 0.000000 50.000000 0.935934 -0.247624 -0.250422
4.23999977 -3.41000009 -0.12000000 80 49 191 0.000000 0.000000 0.000000 0.000000 0.000000 0.000000 50.000000 0.895185 0.413717 -0.165775
4.38000011 -3.45000005 0.09000000 80 49 191 0.000000 0.000000 0.000000 0.000000 0.000000 0.000000 50.000000 0.866068 0.014816 -0.499706
4.36000013 -3.44000006 0.00000000 80 49 191 0.000000 0.000000 0.000000 0.000000 0.000000 0.000000 50.000000 0.852667 0.166987 -0.495049
4.34999990 -3.43000007 0.05000000 80 49 191 0.000000 0.000000 0.000000 0.000000 0.000000 0.000000 50.000000 0.856681 0.116624 -0.502490
4.30000019 -3.44000006 0.05000000 80 49 191 0.000000 0.000000 0.000000 0.000000 0.000000 0.000000 50.000000 0.938967 -0.134526 -0.316613
4.28000021 -3.45000005 -0.03000000 80 49 191 0.000000 0.000000 0.000000 0.000000 0.000000 0.000000 50.000000 0.952900 0.222388 0.206215
4.21000004 -3.40000010 -0.02000000 80 49 191 0.000000 0.000000 0.000000 0.000000 0.000000 0.000000 50.000000 0.857970 0.237568 -0.455466
4.17000008 -3.34999990 0.00000000 80 49 191 0.000000 0.000000 0.000000 0.000000 0.000000 0.000000 50.000000 0.938340 -0.345034 0.021644
4.17000008 -3.34999990 0.00000000 80 49 191 0.000000 0.000000 0.000000 0.000000 0.000000 0.000000 50.000000 0.938340 -0.345034 0.021644
4.15999985 -3.38000011 -0.02000000 80 49 191 0.000000 0.000000 0.000000 0.000000 0.000000 0.000000 50.000000 0.929244 -0.330181 -0.165787
4.21999979 -3.39000010 -0.09000000 80 49 191 0.000000 0.000000 0.000000 0.000000 0.000000 0.000000 50.000000 0.944171 -0.170305 -0.282025
4.21999979 -3.40000010 -0.09000000 80 49 191 0.000000 0.000000 0.000000 0.000000 0.000000 0.000000 50.000000 0.987767 -0.016972 -0.155010
4.21999979 -3.39000010 -0.09000000 80 49 191 0.000000 0.000000 0.000000 0.000000 0.000000 0.000000 50.000000 0.944171 -0.170305 -0.282025
4.21999979 -3.38000011 -0.11000000 80 49 191 0.000000 0.000000 0.000000 0.000000 0.000000 0.000000 50.000000 0.956138 0.283633 -0.073154
4.17000008 -3.36999989 -0.16000000 80 49 191 0.000000 0.000000 0.000000 0.000000 0.000000 0.000000 50.000000 0.972260 0.195969 0.127696
4.19999981 -3.43000007 0.11000000 80 49 191 0.000000 0.000000 0.000000 0.000000 0.000000 0.000000 50.000000 0.804439 0.061223 -0.590871
4.71999979 -4.00000000 0.25000000 80 49 191 0.000000 0.000000 0.000000 0.000000 0.000000 0.000000 56.000000 0.238450 0.944151 -0.227423
4.71000004 -3.96000004 0.18000001 80 49 191 0.000000 0.000000 0.000000 0.000000 0.000000 0.000000 56.000000 0.525000 0.633039 -0.568891
4.71999979 -3.96000004 0.18000001 80 49 191 0.000000 0.000000 0.000000 0.000000 0.000000 0.000000 56.000000 0.632142 0.645485 -0.428656
4.71000004 -3.95000005 0.19000000 80 49 191 0.000000 0.000000 0.000000 0.000000 0.000000 0.000000 56.000000 0.620384 0.610296 -0.492608
4.71000004 -3.99000001 0.20000000 80 49 191 0.000000 0.000000 0.000000 0.000000 0.000000 0.000000 56.000000 0.372545 0.901412 -0.220605
4.73000002 -3.99000001 0.20999999 80 49 191 0.000000 0.000000 0.000000 0.000000 0.000000 0.000000 56.000000 0.463540 0.884940 0.044859
4.73000002 -4.01000023 0.18000001 80 49 191 0.000000 0.000000 0.000000 0.000000 0.000000 0.000000 56.000000 0.337334 0.937920 -0.080696
4.73000002 -3.99000001 0.18000001 80 49 191 0.000000 0.000000 0.000000 0.000000 0.000000 0.000000 56.000000 0.163127 0.979989 -0.114066
4.73000002 -3.99000001 0.18000001 80 49 191 0.000000 0.000000 0.000000 0.000000 0.000000 0.000000 56.000000 0.163127 0.979989 -0.114066
4.71999979 -3.98000002 0.19000000 80 49 191 0.000000 0.000000 0.000000 0.000000 0.000000 0.000000 56.000000 0.549100 0.835348 0.026148
4.71999979 -3.97000003 0.15000001 80 49 191 0.000000 0.000000 0.000000 0.000000 0.000000 0.000000 56.000000 0.485917 0.702993 -0.519313
4.69000006 -3.97000003 0.20999999 80 49 191 0.000000 0.000000 0.000000 0.000000 0.000000 0.000000 56.000000 0.598792 0.745695 -0.292210
4.69000006 -4.00000000 0.23000000 80 49 191 0.000000 0.000000 0.000000 0.000000 0.000000 0.000000 56.000000 0.516401 0.803817 -0.295312
4.67999983 -4.01000023 0.17000000 80 49 191 0.000000 0.000000 0.000000 0.000000 0.000000 0.000000 56.000000 0.577670 0.756891 -0.305637
4.65999985 -4.01000023 0.16000000 80 49 191 0.000000 0.000000 0.000000 0.000000 0.000000 0.000000 56.000000 0.304623 0.806541 -0.506653
4.67999983 -3.99000001 0.15000001 80 49 191 0.000000 0.000000 0.000000 0.000000 0.000000 0.000000 56.000000 0.412142 0.590902 -0.693523
4.69999981 -4.03999996 0.23999999 80 49 191 0.000000 0.000000 0.000000 0.000000 0.000000 0.000000 56.000000 0.259121 0.777362 -0.573206
4.71000004 -3.98000002 0.14000000 80 49 191 0.000000 0.000000 0.000000 0.000000 0.000000 0.000000 56.000000 0.227423 0.944151 -0.238450
4.71000004 -3.98000002 0.14000000 80 49 191 0.000000 0.000000 0.000000 0.000000 0.000000 0.000000 56.000000 0.227423 0.944151 -0.238450
4.71999979 -3.98000002 0.12000000 80 49 191 0.000000 0.000000 0.000000 0.000000 0.000000 0.000000 56.000000 0.094734 0.984515 -0.147497
4.69000006 -3.97000003 0.10000000 80 49 191 0.000000 0.000000 0.000000 0.000000 0.000000 0.000000 56.000000 0.505259 0.836029 -0.213938
4.69000006 -3.97000003 0.10000000 80 49 191 0.000000 0.000000 0.000000 0.000000 0.000000 0.000000 56.000000 0.505259 0.836029 -0.213938
4.69999981 -3.93000007 0.02000000 80 49 191 0.000000 0.000000 0.000000 0.000000 0.000000 0.000000 56.000000 0.291764 0.941040 -0.171223
4.73000002 -3.94000006 0.03000000 80 49 191 0.000000 0.000000 0.000000 0.000000 0.000000 0.000000 56.000000 0.126908 0.838757 -0.529511
4.69999981 -3.93000007 0.01000000 80 49 191 0.000000 0.000000 0.000000 0.000000 0.000000 0.000000 56.000000 0.355339 0.843735 -0.402300
4.69999981 -3.93000007 0.01000000 80 49 191 0.000000 0.000000 0.000000 0.000000 0.000000 0.000000 56.000000 0.355339 0.843735 -0.402300
4.73000002 -3.96000004 0.00000000 80 49 191 0.000000 0.000000 0.000000 0.000000 0.000000 0.000000 56.000000 0.626116 0.672373 -0.394833
4.71000004 -3.98000002 0.05000000 80 49 191 0.000000 0.000000 0.000000 0.000000 0.000000 0.000000 56.000000 0.494360 0.845972 -0.199848
4.71999979 -3.99000001 0.03000000 80 49 191 0.000000 0.000000 0.000000 0.000000 0.000000 0.000000 56.000000 0.406657 0.782530 -0.471462
4.69000006 -4.01999998 0.13000000 80 49 191 0.000000 0.000000 0.000000 0.000000 0.000000 0.000000 56.000000 0.281847 0.795155 -0.536927
4.71000004 -3.95000005 -0.08000000 80 49 191 0.000000 0.000000 0.000000 0.000000 0.000000 0.000000 56.000000 0.664332 0.742831 -0.082860
4.67000008 -3.94000006 -0.04000000 80 49 191 0.000000 0.000000 0.000000 0.000000 0.000000 0.000000 56.000000 0.450890 0.892578 0.001315
5.17999983 -3.67000008 -0.23999999 80 49 191 0.000000 0.000000 0.000000 0.000000 0.000000 0.000000 133.000000 0.467729 -0.704090 0.534310
5.15999985 -3.67000008 -0.22000000 80 49 191 0.000000 0.000000 0.000000 0.000000 0.000000 0.000000 133.000000 0.765598 -0.532519 0.360948
5.03999996 -3.52999997 -0.20999999 80 49 191 0.000000 0.000000 0.000000 0.000000 0.000000 0.000000 133.000000 -0.130964 0.941051 -0.311883
5.03999996 -3.57999992 -0.20000000 80 49 191 0.000000 0.000000 0.000000 0.000000 0.000000 0.000000 133.000000 0.054524 0.921586 -0.384327
5.01999998 -3.53999996 -0.25000000 80 49 191 0.000000 0.000000 0.000000 0.000000 0.000000 0.000000 133.000000 -0.370408 0.927983 -0.040575
5.00000000 -3.55999994 -0.23000000 80 49 191 0.000000 0.000000 0.000000 0.000000 0.000000 0.000000 133.000000 0.086298 0.908186 -0.409574
5.00000000 -3.54999995 -0.22000000 80 49 191 0.000000 0.000000 0.000000 0.000000 0.000000 0.000000 133.000000 -0.257638 0.963943 -0.066609
5.00000000 -3.54999995 -0.22000000 80 49 191 0.000000 0.000000 0.000000 0.000000 0.000000 0.000000 133.000000 -0.257638 0.963943 -0.066609
5.01999998 -3.55999994 -0.23000000 80 49 191 0.000000 0.000000 0.000000 0.000000 0.000000 0.000000 133.000000 -0.097759 0.868496 -0.485961
5.01000023 -3.55999994 -0.20000000 80 49 191 0.000000 0.000000 0.000000 0.000000 0.000000 0.000000 133.000000 -0.322947 0.946043 -0.026596
5.01999998 -3.55999994 -0.23000000 80 49 191 0.000000 0.000000 0.000000 0.000000 0.000000 0.000000 133.000000 -0.097759 0.868496 -0.485961
5.01000023 -3.55999994 -0.23999999 80 49 191 0.000000 0.000000 0.000000 0.000000 0.000000 0.000000 133.000000 -0.280527 0.956866 0.075576
5.01999998 -3.55999994 -0.27000001 80 49 191 0.000000 0.000000 0.000000 0.000000 0.000000 0.000000 133.000000 -0.197583 0.940935 -0.274958
5.01999998 -3.55999994 -0.25999999 80 49 191 0.000000 0.000000 0.000000 0.000000 0.000000 0.000000 133.000000 -0.203181 0.969904 -0.134176
5.01000023 -3.55999994 -0.25000000 80 49 191 0.000000 0.000000 0.000000 0.000000 0.000000 0.000000 133.000000 -0.298275 0.951638 0.073600
5.01000023 -3.55999994 -0.25000000 80 49 191 0.000000 0.000000 0.000000 0.000000 0.000000 0.000000 133.000000 -0.298275 0.951638 0.073600
5.05000019 -3.56999993 -0.30000001 80 49 191 0.000000 0.000000 0.000000 0.000000 0.000000 0.000000 133.000000 -0.085941 0.912611 -0.399694
5.03000021 -3.57999992 -0.31000000 80 49 191 0.000000 0.000000 0.000000 0.000000 0.000000 0.000000 133.000000 -0.402089 0.789644 -0.463452
5.01000023 -3.56999993 -0.28999999 80 49 191 0.000000 0.000000 0.000000 0.000000 0.000000 0.000000 133.000000 0.152034 0.839877 -0.521049
5.01999998 -3.57999992 -0.33000001 80 49 191 0.000000 0.000000 0.000000 0.000000 0.000000 0.000000 133.000000 -0.475007 0.729889 -0.491558
5.00000000 -3.57999992 -0.36000001 80 49 191 0.000000 0.000000 0.000000 0.000000 0.000000 0.000000 133.000000 0.063304 0.969425 -0.237081
4.96999979 -3.52999997 -0.28000000 80 49 191 0.000000 0.000000 0.000000 0.000000 0.000000 0.000000 133.000000 -0.001329 0.873026 -0.487672
4.98999977 -3.55999994 -0.20000000 80 49 191 0.000000 0.000000 0.000000 0.000000 0.000000 0.000000 133.000000 0.040247 0.987769 -0.150638
4.98999977 -3.54999995 -0.27000001 80 49 191 0.000000 0.000000 0.000000 0.000000 0.000000 0.000000 133.000000 -0.166761 0.962487 -0.214032
4.98999977 -3.55999994 -0.28000000 80 49 191 0.000000 0.000000 0.000000 0.000000 0.000000 0.000000 133.000000 0.026624 -0.758097 0.651599
4.98999977 -3.55999994 -0.23999999 80 49 191 0.000000 0.000000 0.000000 0.000000 0.000000 0.000000 133.000000 0.031456 0.999480 0.007103
4.94000006 -3.50999999 -0.23000000 80 49 191 0.000000 0.000000 0.000000 0.000000 0.000000 0.000000 133.000000 0.342319 0.825037 -0.449590
4.94000006 -3.51999998 -0.28000000 80 49 191 0.000000 0.000000 0.000000 0.000000 0.000000 0.000000 133.000000 0.083332 0.981865 -0.170287
4.94000006 -3.50999999 -0.25999999 80 49 191 0.000000 0.000000 0.000000 0.000000 0.000000 0.000000 133.000000 0.161631 0.902561 -0.399072
4.92999983 -3.55999994 -0.20999999 80 49 191 0.000000 0.000000 0.000000 0.000000 0.000000 0.000000 133.000000 0.318688 0.873724 -0.367483
4.94999981 -3.56999993 -0.22000000 80 49 191 0.000000 0.000000 0.000000 0.000000 0.000000 0.000000 133.000000 0.256407 0.944730 -0.204303
4.94000006 -3.57999992 -0.27000001 80 49 191 0.000000 0.000000 0.000000 0.000000 0.000000 0.000000 133.000000 0.167325 0.977922 -0.125184
4.98999977 -3.54999995 -0.31000000 80 49 191 0.000000 0.000000 0.000000 0.000000 0.000000 0.000000 133.000000 -0.367798 0.929243 -0.035090
4.96999979 -3.54999995 -0.31999999 80 49 191 0.000000 0.000000 0.000000 0.000000 0.000000 0.000000 133.000000 -0.111782 0.984407 -0.135822
4.98999977 -3.56999993 -0.33000001 80 49 191 0.000000 0.000000 0.000000 0.000000 0.000000 0.000000 133.000000 -0.157018 0.814997 -0.557787
4.96000004 -3.56999993 -0.36000001 80 49 191 0.000000 0.000000 0.000000 0.000000 0.000000 0.000000 133.000000 0.055033 0.822670 -0.565850
4.96000004 -3.56999993 -0.36000001 80 49 191 0.000000 0.000000 0.000000 0.000000 0.000000 0.000000 133.000000 0.055033 0.822670 -0.565850
4.98999977 -3.56999993 -0.33000001 80 49 191 0.000000 0.000000 0.000000 0.000000 0.000000 0.000000 133.000000 -0.157018 0.814997 -0.557787
4.98000002 -3.56999993 -0.36000001 80 49 191 0.000000 0.000000 0.000000 0.000000 0.000000 0.000000 133.000000 0.308142 0.863104 -0.400125
4.96999979 -3.55999994 -0.34999999 80 49 191 0.000000 0.000000 0.000000 0.000000 0.000000 0.000000 133.000000 0.268379 0.798859 -0.538328
4.96999979 -3.54999995 -0.33000001 80 49 191 0.000000 0.000000 0.000000 0.000000 0.000000 0.000000 133.000000 -0.219292 0.890412 -0.398846
4.94000006 -3.56999993 -0.31999999 80 49 191 0.000000 0.000000 0.000000 0.000000 0.000000 0.000000 133.000000 -0.201482 0.864134 -0.461170
4.94999981 -3.54999995 -0.34999999 80 49 191 0.000000 0.000000 0.000000 0.000000 0.000000 0.000000 133.000000 0.323968 0.920524 -0.218357
5.00000000 -3.57999992 -0.40000001 80 49 191 0.000000 0.000000 0.000000 0.000000 0.000000 0.000000 133.000000 0.054127 0.995273 -0.080638
4.96999979 -3.57999992 -0.37000000 80 49 191 0.000000 0.000000 0.000000 0.000000 0.000000 0.000000 133.000000 0.260317 0.812127 -0.522193
4.96000004 -3.57999992 -0.43000001 80 49 191 0.000000 0.000000 0.000000 0.000000 0.000000 0.000000 133.000000 0.188051 0.831938 -0.522030
4.96000004 -3.57999992 -0.41999999 80 49 191 0.000000 0.000000 0.000000 0.000000 0.000000 0.000000 133.000000 -0.049658 0.908599 -0.414708
4.92000008 -3.55999994 -0.44000000 80 49 191 0.000000 0.000000 0.000000 0.000000 0.000000 0.000000 133.000000 0.102059 0.893362 -0.437594
4.90000010 -3.54999995 -0.22000000 80 49 191 0.000000 0.000000 0.000000 0.000000 0.000000 0.000000 133.000000 0.513271 0.570488 -0.641168
4.84999990 -3.51999998 -0.25999999 80 49 191 0.000000 0.000000 0.000000 0.000000 0.000000 0.000000 133.000000 0.901605 0.270039 -0.337917
4.84999990 -3.52999997 -0.27000001 80 49 191 0.000000 0.000000 0.000000 0.000000 0.000000 0.000000 133.000000 0.858164 0.332442 -0.391199
4.84999990 -3.51999998 -0.25999999 80 49 191 0.000000 0.000000 0.000000 0.000000 0.000000 0.000000 133.000000 0.901605 0.270039 -0.337917
4.86000013 -3.55999994 -0.23000000 80 49 191 0.000000 0.000000 0.000000 0.000000 0.000000 0.000000 133.000000 0.312007 0.894222 -0.320965
4.78000021 -3.54999995 -0.25999999 80 49 191 0.000000 0.000000 0.000000 0.000000 0.000000 0.000000 133.000000 0.847464 0.216020 -0.484913
4.80000019 -3.54999995 -0.36000001 80 49 191 0.000000 0.000000 0.000000 0.000000 0.000000 0.000000 133.000000 0.688317 0.354786 -0.632729
4.86000013 -3.52999997 -0.38000000 80 49 191 0.000000 0.000000 0.000000 0.000000 0.000000 0.000000 133.000000 0.812088 0.318187 -0.489152
4.82999992 -3.53999996 -0.47999999 80 49 191 0.000000 0.000000 0.000000 0.000000 0.000000 0.000000 133.000000 0.939409 0.322121 -0.117258
4.84000015 -3.54999995 -0.47000000 80 49 191 0.000000 0.000000 0.000000 0.000000 0.000000 0.000000 133.000000 0.932010 0.362378 0.006358
4.80000019 -3.56999993 -0.38999999 80 49 191 0.000000 0.000000 0.000000 0.000000 0.000000 0.000000 133.000000 0.618633 0.412975 -0.668389
4.80000019 -3.56999993 -0.38999999 80 49 191 0.000000 0.000000 0.000000 0.000000 0.000000 0.000000 133.000000 0.618633 0.412975 -0.668389
4.82000017 -3.56999993 -0.41000000 80 49 191 0.000000 0.000000 0.000000 0.000000 0.000000 0.000000 133.000000 0.674830 0.381139 -0.631931
4.76000023 -3.53999996 -0.43000001 80 49 191 0.000000 0.000000 0.000000 0.000000 0.000000 0.000000 133.000000 0.834579 0.548438 0.051898
4.80000019 -3.57999992 -0.47999999 80 49 191 0.000000 0.000000 0.000000 0.000000 0.000000 0.000000 133.000000 0.640126 0.439564 -0.630097
4.80000019 -3.56999993 -0.52999997 80 49 191 0.000000 0.000000 0.000000 0.000000 0.000000 0.000000 133.000000 0.729501 0.236892 -0.641647
4.76999998 -3.57999992 -0.47999999 80 49 191 0.000000 0.000000 0.000000 0.000000 0.000000 0.000000 133.000000 0.855225 0.287122 -0.431451
4.96000004 -3.57999992 -0.63999999 80 49 191 0.000000 0.000000 0.000000 0.000000 0.000000 0.000000 133.000000 -0.585412 0.629275 -0.511181
4.92000008 -3.55999994 -0.69000000 80 49 191 0.000000 0.000000 0.000000 0.000000 0.000000 0.000000 133.000000 -0.046875 0.906687 -0.419192
4.94000006 -3.57999992 -0.72000003 80 49 191 0.000000 0.000000 0.000000 0.000000 0.000000 0.000000 133.000000 -0.248100 0.922128 -0.296859
4.84999990 -3.54999995 -0.69000000 80 49 191 0.000000 0.000000 0.000000 0.000000 0.000000 0.000000 133.000000 0.959777 0.274402 -0.059433
4.80000019 -3.53999996 -0.57999998 80 49 191 0.000000 0.000000 0.000000 0.000000 0.000000 0.000000 133.000000 0.886352 -0.050532 -0.460247
4.78000021 -3.53999996 -0.61000001 80 49 191 0.000000 0.000000 0.000000 0.000000 0.000000 0.000000 133.000000 0.960907 0.264154 -0.082947
4.80999994 -3.56999993 -0.56000000 80 49 191 0.000000 0.000000 0.000000 0.000000 0.000000 0.000000 133.000000 0.712523 0.440137 -0.546434
4.78999996 -3.57999992 -0.57999998 80 49 191 0.000000 0.000000 0.000000 0.000000 0.000000 0.000000 133.000000 0.825367 0.288645 -0.485235
4.78000021 -3.57999992 -0.57999998 80 49 191 0.000000 0.000000 0.000000 0.000000 0.000000 0.000000 133.000000 0.902053 0.427288 0.061041
4.80000019 -3.54999995 -0.57999998 80 49 191 0.000000 0.000000 0.000000 0.000000 0.000000 0.000000 133.000000 0.978476 -0.114752 -0.171511
4.78000021 -3.55999994 -0.62000000 80 49 191 0.000000 0.000000 0.000000 0.000000 0.000000 0.000000 133.000000 0.917638 0.396639 -0.024872
4.76999998 -3.53999996 -0.58999997 80 49 191 0.000000 0.000000 0.000000 0.000000 0.000000 0.000000 133.000000 0.922827 0.368856 -0.111068
4.76999998 -3.52999997 -0.62000000 80 49 191 0.000000 0.000000 0.000000 0.000000 0.000000 0.000000 133.000000 0.839905 0.433247 -0.326890
4.80000019 -3.53999996 -0.69000000 80 49 191 0.000000 0.000000 0.000000 0.000000 0.000000 0.000000 133.000000 0.973206 -0.148069 -0.175911
4.76999998 -3.54999995 -0.63000000 80 49 191 0.000000 0.000000 0.000000 0.000000 0.000000 0.000000 133.000000 0.869199 0.475818 -0.134502
4.82999992 -3.57999992 -0.83999997 80 49 191 0.000000 0.000000 0.000000 0.000000 0.000000 0.000000 133.000000 0.996406 0.035702 0.076813
4.82999992 -3.57999992 -0.83999997 80 49 191 0.000000 0.000000 0.000000 0.000000 0.000000 0.000000 133.000000 0.996406 0.035702 0.076813
4.80000019 -3.57999992 -0.75000000 80 49 191 0.000000 0.000000 0.000000 0.000000 0.000000 0.000000 133.000000 0.958543 0.154689 -0.239305
4.76000023 -3.57999992 -0.77999997 80 49 191 0.000000 0.000000 0.000000 0.000000 0.000000 0.000000 133.000000 0.927038 0.364626 -0.087456
4.76000023 -3.57999992 -0.77999997 80 49 191 0.000000 0.000000 0.000000 0.000000 0.000000 0.000000 133.000000 0.927038 0.364626 -0.087456
4.76000023 -3.57999992 -0.79000002 80 49 191 0.000000 0.000000 0.000000 0.000000 0.000000 0.000000 133.000000 0.982827 0.164807 -0.083005
4.76000023 -3.57999992 -0.77999997 80 49 191 0.000000 0.000000 0.000000 0.000000 0.000000 0.000000 133.000000 0.927038 0.364626 -0.087456
5.05000019 -3.60999990 -0.25000000 80 49 191 0.000000 0.000000 0.000000 0.000000 0.000000 0.000000 133.000000 -0.003250 0.993503 -0.113760
5.05000019 -3.60999990 -0.23999999 80 49 191 0.000000 0.000000 0.000000 0.000000 0.000000 0.000000 133.000000 -0.264788 0.961599 -0.072215
5.03000021 -3.60999990 -0.23000000 80 49 191 0.000000 0.000000 0.000000 0.000000 0.000000 0.000000 133.000000 -0.283552 0.859852 -0.424562
5.01000023 -3.63000011 -0.25000000 80 49 191 0.000000 0.000000 0.000000 0.000000 0.000000 0.000000 133.000000 0.124225 0.911447 -0.392215
5.01000023 -3.63000011 -0.23999999 80 49 191 0.000000 0.000000 0.000000 0.000000 0.000000 0.000000 133.000000 -0.392592 0.915135 -0.091650
5.05000019 -3.60999990 -0.34000000 80 49 191 0.000000 0.000000 0.000000 0.000000 0.000000 0.000000 133.000000 -0.137007 0.902554 -0.408197
5.03999996 -3.60999990 -0.33000001 80 49 191 0.000000 0.000000 0.000000 0.000000 0.000000 0.000000 133.000000 -0.215333 0.930293 -0.296962
5.03000021 -3.60999990 -0.28999999 80 49 191 0.000000 0.000000 0.000000 0.000000 0.000000 0.000000 133.000000 -0.003984 0.880464 -0.474096
5.00000000 -3.60999990 -0.34000000 80 49 191 0.000000 0.000000 0.000000 0.000000 0.000000 0.000000 133.000000 0.202123 0.976315 -0.077174
5.03000021 -3.68000007 -0.31999999 80 49 191 0.000000 0.000000 0.000000 0.000000 0.000000 0.000000 133.000000 0.114918 0.915190 -0.386291
4.92999983 -3.60999990 -0.23999999 80 49 191 0.000000 0.000000 0.000000 0.000000 0.000000 0.000000 133.000000 0.206752 0.682438 -0.701093
4.92999983 -3.60999990 -0.25000000 80 49 191 0.000000 0.000000 0.000000 0.000000 0.000000 0.000000 133.000000 0.226266 0.741215 -0.631984
4.94999981 -3.64000010 -0.27000001 80 49 191 0.000000 0.000000 0.000000 0.000000 0.000000 0.000000 133.000000 0.325046 0.944057 -0.055685
4.92999983 -3.64000010 -0.28000000 80 49 191 0.000000 0.000000 0.000000 0.000000 0.000000 0.000000 133.000000 -0.175245 0.834286 -0.522739
4.98000002 -3.59999990 -0.34999999 80 49 191 0.000000 0.000000 0.000000 0.000000 0.000000 0.000000 133.000000 -0.240023 0.884060 -0.401032
4.96999979 -3.63000011 -0.36000001 80 49 191 0.000000 0.000000 0.000000 0.000000 0.000000 0.000000 133.000000 -0.187477 0.958659 -0.214069
4.94000006 -3.60999990 -0.31000000 80 49 191 0.000000 0.000000 0.000000 0.000000 0.000000 0.000000 133.000000 -0.186924 0.926188 -0.327469
4.92000008 -3.60999990 -0.36000001 80 49 191 0.000000 0.000000 0.000000 0.000000 0.000000 0.000000 133.000000 0.368861 0.700016 -0.611489
4.92000008 -3.61999989 -0.34999999 80 49 191 0.000000 0.000000 0.000000 0.000000 0.000000 0.000000 133.000000 0.194960 0.979584 0.049039
4.94000006 -3.64000010 -0.30000001 80 49 191 0.000000 0.000000 0.000000 0.000000 0.000000 0.000000 133.000000 -0.261877 0.923009 -0.281911
4.98000002 -3.67000008 -0.27000001 80 49 191 0.000000 0.000000 0.000000 0.000000 0.000000 0.000000 133.000000 0.012033 0.875729 -0.482654
4.96999979 -3.67000008 -0.30000001 80 49 191 0.000000 0.000000 0.000000 0.000000 0.000000 0.000000 133.000000 0.320438 0.908638 -0.267763
5.01000023 -3.58999991 -0.37000000 80 49 191 0.000000 0.000000 0.000000 0.000000 0.000000 0.000000 133.000000 -0.104952 0.894194 -0.435203
5.01000023 -3.60999990 -0.38999999 80 49 191 0.000000 0.000000 0.000000 0.000000 0.000000 0.000000 133.000000 -0.195073 0.930458 -0.310153
5.00000000 -3.58999991 -0.38000000 80 49 191 0.000000 0.000000 0.000000 0.000000 0.000000 0.000000 133.000000 0.227962 0.907492 -0.352833
5.01999998 -3.58999991 -0.37000000 80 49 191 0.000000 0.000000 0.000000 0.000000 0.000000 0.000000 133.000000 -0.057478 0.918315 -0.391654
5.00000000 -3.61999989 -0.41999999 80 49 191 0.000000 0.000000 0.000000 0.000000 0.000000 0.000000 133.000000 0.070022 0.994762 -0.074468
5.00000000 -3.61999989 -0.41000000 80 49 191 0.000000 0.000000 0.000000 0.000000 0.000000 0.000000 133.000000 0.082760 0.918499 -0.386665
5.01000023 -3.61999989 -0.41000000 80 49 191 0.000000 0.000000 0.000000 0.000000 0.000000 0.000000 133.000000 0.456238 -0.725003 0.515963
5.03000021 -3.60999990 -0.43000001 80 49 191 0.000000 0.000000 0.000000 0.000000 0.000000 0.000000 133.000000 -0.354974 0.929952 -0.095830
5.00000000 -3.61999989 -0.41000000 80 49 191 0.000000 0.000000 0.000000 0.000000 0.000000 0.000000 133.000000 0.082760 0.918499 -0.386665
5.01999998 -3.65000010 -0.37000000 80 49 191 0.000000 0.000000 0.000000 0.000000 0.000000 0.000000 133.000000 0.001366 0.810210 -0.586138
5.00000000 -3.66000009 -0.43000001 80 49 191 0.000000 0.000000 0.000000 0.000000 0.000000 0.000000 133.000000 0.231901 0.926179 -0.297345
5.01000023 -3.66000009 -0.41000000 80 49 191 0.000000 0.000000 0.000000 0.000000 0.000000 0.000000 133.000000 -0.139162 0.986025 -0.091585
5.01000023 -3.60999990 -0.52999997 80 49 191 0.000000 0.000000 0.000000 0.000000 0.000000 0.000000 133.000000 -0.217180 0.975511 -0.034797
5.00000000 -3.61999989 -0.51999998 80 49 191 0.000000 0.000000 0.000000 0.000000 0.000000 0.000000 133.000000 -0.206979 0.937657 -0.279213
4.98999977 -3.58999991 -0.40000001 80 49 191 0.000000 0.000000 0.000000 0.000000 0.000000 0.000000 133.000000 -0.065800 0.982213 -0.175865
4.98000002 -3.59999990 -0.40000001 80 49 191 0.000000 0.000000 0.000000 0.000000 0.000000 0.000000 133.000000 0.169244 -0.708997 0.684602
4.98999977 -3.58999991 -0.40000001 80 49 191 0.000000 0.000000 0.000000 0.000000 0.000000 0.000000 133.000000 -0.065800 0.982213 -0.175865
4.98000002 -3.58999991 -0.37000000 80 49 191 0.000000 0.000000 0.000000 0.000000 0.000000 0.000000 133.000000 0.335775 0.922319 -0.191264
4.98999977 -3.59999990 -0.43000001 80 49 191 0.000000 0.000000 0.000000 0.000000 0.000000 0.000000 133.000000 -0.174475 0.839567 -0.514477
4.98000002 -3.59999990 -0.43000001 80 49 191 0.000000 0.000000 0.000000 0.000000 0.000000 0.000000 133.000000 0.148779 0.841116 -0.519989
4.96999979 -3.61999989 -0.41000000 80 49 191 0.000000 0.000000 0.000000 0.000000 0.000000 0.000000 133.000000 -0.349352 0.932944 -0.087003
4.98000002 -3.58999991 -0.41999999 80 49 191 0.000000 0.000000 0.000000 0.000000 0.000000 0.000000 133.000000 0.238241 0.825389 -0.511834
4.96999979 -3.63000011 -0.38000000 80 49 191 0.000000 0.000000 0.000000 0.000000 0.000000 0.000000 133.000000 0.063737 0.943049 -0.326490
4.98999977 -3.65000010 -0.44999999 80 49 191 0.000000 0.000000 0.000000 0.000000 0.000000 0.000000 133.000000 0.081303 0.899846 -0.428564
4.90999985 -3.61999989 -0.38000000 80 49 191 0.000000 0.000000 0.000000 0.000000 0.000000 0.000000 133.000000 -0.049382 0.976803 -0.208369
4.92999983 -3.60999990 -0.44999999 80 49 191 0.000000 0.000000 0.000000 0.000000 0.000000 0.000000 133.000000 -0.086061 0.911152 -0.402983
4.90999985 -3.59999990 -0.44000000 80 49 191 0.000000 0.000000 0.000000 0.000000 0.000000 0.000000 133.000000 0.278848 0.867021 -0.412939
4.92000008 -3.59999990 -0.43000001 80 49 191 0.000000 0.000000 0.000000 0.000000 0.000000 0.000000 133.000000 0.165933 0.707879 -0.686567
4.92999983 -3.60999990 -0.44999999 80 49 191 0.000000 0.000000 0.000000 0.000000 0.000000 0.000000 133.000000 -0.086061 0.911152 -0.402983
4.92000008 -3.66000009 -0.38000000 80 49 191 0.000000 0.000000 0.000000 0.000000 0.000000 0.000000 133.000000 -0.050868 0.996798 -0.061691
4.92000008 -3.64000010 -0.44999999 80 49 191 0.000000 0.000000 0.000000 0.000000 0.000000 0.000000 133.000000 -0.132023 0.895769 -0.424461
4.96000004 -3.60999990 -0.49000001 80 49 191 0.000000 0.000000 0.000000 0.000000 0.000000 0.000000 133.000000 -0.042034 0.996951 -0.065745
4.98999977 -3.61999989 -0.47000000 80 49 191 0.000000 0.000000 0.000000 0.000000 0.000000 0.000000 133.000000 -0.231101 0.795668 -0.559915
4.98000002 -3.60999990 -0.49000001 80 49 191 0.000000 0.000000 0.000000 0.000000 0.000000 0.000000 133.000000 -0.091175 0.879492 -0.467099
4.98999977 -3.60999990 -0.46000001 80 49 191 0.000000 0.000000 0.000000 0.000000 0.000000 0.000000 133.000000 0.107352 0.947610 -0.300850
4.96999979 -3.60999990 -0.49000001 80 49 191 0.000000 0.000000 0.000000 0.000000 0.000000 0.000000 133.000000 0.003079 0.998730 -0.050296
4.98999977 -3.61999989 -0.51999998 80 49 191 0.000000 0.000000 0.000000 0.000000 0.000000 0.000000 133.000000 -0.262647 0.822132 -0.505090
4.98999977 -3.60999990 -0.51999998 80 49 191 0.000000 0.000000 0.000000 0.000000 0.000000 0.000000 133.000000 -0.172054 0.892078 -0.417845
4.96999979 -3.60999990 -0.52999997 80 49 191 0.000000 0.000000 0.000000 0.000000 0.000000 0.000000 133.000000 0.017196 0.984753 -0.173106
4.98999977 -3.61999989 -0.50999999 80 49 191 0.000000 0.000000 0.000000 0.000000 0.000000 0.000000 133.000000 -0.013990 0.934819 -0.354850
4.96999979 -3.60999990 -0.50000000 80 49 191 0.000000 0.000000 0.000000 0.000000 0.000000 0.000000 133.000000 0.050030 0.948007 -0.314292
4.96999979 -3.59999990 -0.50999999 80 49 191 0.000000 0.000000 0.000000 0.000000 0.000000 0.000000 133.000000 -0.203878 0.958095 -0.201213
4.96000004 -3.63000011 -0.46000001 80 49 191 0.000000 0.000000 0.000000 0.000000 0.000000 0.000000 133.000000 -0.186752 0.913804 -0.360675
4.98000002 -3.63000011 -0.47999999 80 49 191 0.000000 0.000000 0.000000 0.000000 0.000000 0.000000 133.000000 -0.340513 0.927030 -0.157053
4.98999977 -3.63000011 -0.47999999 80 49 191 0.000000 0.000000 0.000000 0.000000 0.000000 0.000000 133.000000 -0.225206 0.908090 -0.353065
4.94999981 -3.60999990 -0.47999999 80 49 191 0.000000 0.000000 0.000000 0.000000 0.000000 0.000000 133.000000 -0.314308 0.850025 -0.422690
4.92000008 -3.60999990 -0.46000001 80 49 191 0.000000 0.000000 0.000000 0.000000 0.000000 0.000000 133.000000 -0.021955 0.998446 -0.051229
4.94000006 -3.60999990 -0.47999999 80 49 191 0.000000 0.000000 0.000000 0.000000 0.000000 0.000000 133.000000 0.200632 0.907896 -0.368066
4.92000008 -3.60999990 -0.46000001 80 49 191 0.000000 0.000000 0.000000 0.000000 0.000000 0.000000 133.000000 -0.021955 0.998446 -0.051229
4.90999985 -3.61999989 -0.52999997 80 49 191 0.000000 0.000000 0.000000 0.000000 0.000000 0.000000 133.000000 -0.007358 0.997490 -0.070423
4.94000006 -3.60999990 -0.51999998 80 49 191 0.000000 0.000000 0.000000 0.000000 0.000000 0.000000 133.000000 -0.203137 -0.724162 0.659034
4.94999981 -3.66000009 -0.49000001 80 49 191 0.000000 0.000000 0.000000 0.000000 0.000000 0.000000 133.000000 0.233940 0.928673 -0.287818
4.94000006 -3.66000009 -0.49000001 80 49 191 0.000000 0.000000 0.000000 0.000000 0.000000 0.000000 133.000000 0.221544 0.975029 -0.015401
4.96000004 -3.69000006 -0.38000000 80 49 191 0.000000 0.000000 0.000000 0.000000 0.000000 0.000000 133.000000 0.067870 0.737907 -0.671481
4.96000004 -3.70000005 -0.44000000 80 49 191 0.000000 0.000000 0.000000 0.000000 0.000000 0.000000 133.000000 -0.355166 0.785866 -0.506233
4.94000006 -3.68000007 -0.37000000 80 49 191 0.000000 0.000000 0.000000 0.000000 0.000000 0.000000 133.000000 0.203243 0.715229 -0.668685
4.92000008 -3.71000004 -0.44000000 80 49 191 0.000000 0.000000 0.000000 0.000000 0.000000 0.000000 133.000000 -0.076543 0.995059 -0.063231
4.92000008 -3.72000003 -0.44000000 80 49 191 0.000000 0.000000 0.000000 0.000000 0.000000 0.000000 133.000000 -0.156943 0.929157 -0.334719
4.98000002 -3.75000000 -0.49000001 80 49 191 0.000000 0.000000 0.000000 0.000000 0.000000 0.000000 133.000000 0.199740 0.967775 -0.153349
4.98000002 -3.73000002 -0.50999999 80 49 191 0.000000 0.000000 0.000000 0.000000 0.000000 0.000000 133.000000 -0.060394 0.913961 -0.401284
4.98000002 -3.73000002 -0.51999998 80 49 191 0.000000 0.000000 0.000000 0.000000 0.000000 0.000000 133.000000 -0.187929 0.890112 -0.415191
4.96999979 -3.73000002 -0.52999997 80 49 191 0.000000 0.000000 0.000000 0.000000 0.000000 0.000000 133.000000 0.068292 0.989656 -0.126167
4.98000002 -3.74000001 -0.52999997 80 49 191 0.000000 0.000000 0.000000 0.000000 0.000000 0.000000 133.000000 -0.224015 0.964687 -0.138552
4.96999979 -3.74000001 -0.51999998 80 49 191 0.000000 0.000000 0.000000 0.000000 0.000000 0.000000 133.000000 -0.125453 0.971946 -0.198951
4.94999981 -3.67000008 -0.50000000 80 49 191 0.000000 0.000000 0.000000 0.000000 0.000000 0.000000 133.000000 0.319423 0.930372 -0.179937
4.92000008 -3.67000008 -0.52999997 80 49 191 0.000000 0.000000 0.000000 0.000000 0.000000 0.000000 133.000000 0.320541 0.946297 -0.042143
4.92999983 -3.67000008 -0.51999998 80 49 191 0.000000 0.000000 0.000000 0.000000 0.000000 0.000000 133.000000 -0.229869 0.958009 -0.171405
4.94999981 -3.74000001 -0.47000000 80 49 191 0.000000 0.000000 0.000000 0.000000 0.000000 0.000000 133.000000 -0.179159 0.963799 -0.197468
4.90999985 -3.75000000 -0.50999999 80 49 191 0.000000 0.000000 0.000000 0.000000 0.000000 0.000000 133.000000 0.006210 0.947667 -0.319201
4.92000008 -3.78999996 -0.44999999 80 49 191 0.000000 0.000000 0.000000 0.000000 0.000000 0.000000 133.000000 -0.330125 0.840176 -0.430258
4.96999979 -3.78999996 -0.50000000 80 49 191 0.000000 0.000000 0.000000 0.000000 0.000000 0.000000 133.000000 -0.073657 0.769792 -0.634031
4.92999983 -3.78999996 -0.51999998 80 49 191 0.000000 0.000000 0.000000 0.000000 0.000000 0.000000 133.000000 0.101072 0.951648 -0.290088
4.94000006 -3.75999999 -0.51999998 80 49 191 0.000000 0.000000 0.000000 0.000000 0.000000 0.000000 133.000000 -0.145920 0.939614 -0.309568
4.94000006 -3.75999999 -0.52999997 80 49 191 0.000000 0.000000 0.000000 0.000000 0.000000 0.000000 133.000000 -0.181146 0.911434 -0.369423
4.92999983 -3.75999999 -0.51999998 80 49 191 0.000000 0.000000 0.000000 0.000000 0.000000 0.000000 133.000000 -0.179251 0.964294 -0.194952
4.88999987 -3.59999990 -0.22000000 80 49 191 0.000000 0.000000 0.000000 0.000000 0.000000 0.000000 133.000000 0.141264 0.894675 -0.423793
4.86000013 -3.60999990 -0.28000000 80 49 191 0.000000 0.000000 0.000000 0.000000 0.000000 0.000000 133.000000 0.260025 0.963474 -0.064064
4.88000011 -3.61999989 -0.31000000 80 49 191 0.000000 0.000000 0.000000 0.000000 0.000000 0.000000 133.000000 0.413745 0.613140 -0.672959
4.82000017 -3.61999989 -0.27000001 80 49 191 0.000000 0.000000 0.000000 0.000000 0.000000 0.000000 133.000000 0.254943 0.873444 -0.414848
4.88000011 -3.60999990 -0.37000000 80 49 191 0.000000 0.000000 0.000000 0.000000 0.000000 0.000000 133.000000 0.246492 0.863477 -0.440056
4.88000011 -3.60999990 -0.38000000 80 49 191 0.000000 0.000000 0.000000 0.000000 0.000000 0.000000 133.000000 0.173900 0.802966 -0.570091
4.88999987 -3.61999989 -0.37000000 80 49 191 0.000000 0.000000 0.000000 0.000000 0.000000 0.000000 133.000000 0.265556 0.964003 -0.013338
4.88999987 -3.61999989 -0.41999999 80 49 191 0.000000 0.000000 0.000000 0.000000 0.000000 0.000000 133.000000 -0.050470 0.940805 -0.335170
4.88999987 -3.63000011 -0.43000001 80 49 191 0.000000 0.000000 0.000000 0.000000 0.000000 0.000000 133.000000 0.279031 0.821503 -0.497267
4.90000010 -3.61999989 -0.47999999 80 49 191 0.000000 0.000000 0.000000 0.000000 0.000000 0.000000 133.000000 0.381189 0.635314 -0.671618
4.86999989 -3.58999991 -0.50999999 80 49 191 0.000000 0.000000 0.000000 0.000000 0.000000 0.000000 133.000000 -0.437322 -0.560371 0.703373
4.86999989 -3.58999991 -0.50999999 80 49 191 0.000000 0.000000 0.000000 0.000000 0.000000 0.000000 133.000000 -0.437322 -0.560371 0.703373
4.88999987 -3.60999990 -0.50999999 80 49 191 0.000000 0.000000 0.000000 0.000000 0.000000 0.000000 133.000000 -0.052437 -0.792218 0.607981
4.84999990 -3.75000000 -0.40000001 80 49 191 0.000000 0.000000 0.000000 0.000000 0.000000 0.000000 133.000000 0.371197 0.923234 -0.099258
4.86000013 -3.75000000 -0.38000000 80 49 191 0.000000 0.000000 0.000000 0.000000 0.000000 0.000000 133.000000 0.182873 0.857869 -0.480228
