//X Y Z R G B PointSourceId ScanDirectionFlag NumberOfReturns ReturnNumber GpsTime Intensity Classification Nx Ny Nz
-1.69000006 1.87000000 -1.13999999 139 80 146 0.000000 0.000000 0.000000 0.000000 0.000000 0.000000 31.000000 0.916144 -0.324618 0.235168
-1.67999995 1.87000000 -1.11000001 139 80 146 0.000000 0.000000 0.000000 0.000000 0.000000 0.000000 31.000000 -0.681415 0.729986 0.052856
-1.67999995 1.83000004 -1.13999999 139 80 146 0.000000 0.000000 0.000000 0.000000 0.000000 0.000000 31.000000 0.986465 0.163080 -0.017106
-1.65999997 1.88999999 -1.20000005 139 80 146 0.000000 0.000000 0.000000 0.000000 0.000000 0.000000 31.000000 0.825125 -0.381680 -0.416522
-1.65999997 1.85000002 -1.14999998 139 80 146 0.000000 0.000000 0.000000 0.000000 0.000000 0.000000 31.000000 0.955660 -0.289863 0.051897
-1.65999997 1.84000003 -1.16999996 139 80 146 0.000000 0.000000 0.000000 0.000000 0.000000 0.000000 31.000000 0.971486 0.135881 -0.194297
-1.65999997 1.85000002 -1.16999996 139 80 146 0.000000 0.000000 0.000000 0.000000 0.000000 0.000000 31.000000 0.994150 0.107564 -0.009779
-1.65999997 1.86000001 -1.16999996 139 80 146 0.000000 0.000000 0.000000 0.000000 0.000000 0.000000 31.000000 0.974463 -0.116635 -0.191883
-1.65999997 1.86000001 -1.15999997 139 80 146 0.000000 0.000000 0.000000 0.000000 0.000000 0.000000 31.000000 0.896566 -0.380050 0.227443
-1.65999997 1.85000002 -1.16999996 139 80 146 0.000000 0.000000 0.000000 0.000000 0.000000 0.000000 31.000000 0.994150 0.107564 -0.009779
-1.67999995 1.88000000 -1.16999996 139 80 146 0.000000 0.000000 0.000000 0.000000 0.000000 0.000000 31.000000 0.920483 -0.116952 -0.372871
-1.67999995 1.88000000 -1.15999997 139 80 146 0.000000 0.000000 0.000000 0.000000 0.000000 0.000000 31.000000 0.762908 -0.596169 -0.250108
-1.69000006 1.88000000 -1.15999997 139 80 146 0.000000 0.000000 0.000000 0.000000 0.000000 0.000000 31.000000 0.958397 -0.277999 0.064739
-1.69000006 1.88999999 -1.17999995 139 80 146 0.000000 0.000000 0.000000 0.000000 0.000000 0.000000 31.000000 0.941421 -0.085824 -0.326130
-1.69000006 1.88999999 -1.17999995 139 80 146 0.000000 0.000000 0.000000 0.000000 0.000000 0.000000 31.000000 0.941421 -0.085824 -0.326130
-1.66999996 1.88999999 -1.14999998 139 80 146 0.000000 0.000000 0.000000 0.000000 0.000000 0.000000 31.000000 0.917618 -0.396984 -0.019524
-1.66999996 1.88000000 -1.20000005 139 80 146 0.000000 0.000000 0.000000 0.000000 0.000000 0.000000 31.000000 0.833411 -0.525184 0.172069
-1.67999995 1.84000003 -1.14999998 139 80 146 0.000000 0.000000 0.000000 0.000000 0.000000 0.000000 31.000000 0.937461 -0.204158 0.281933
-1.66999996 1.86000001 -1.19000006 139 80 146 0.000000 0.000000 0.000000 0.000000 0.000000 0.000000 31.000000 0.994598 -0.098028 -0.034145
-1.66999996 1.85000002 -1.22000003 139 80 146 0.000000 0.000000 0.000000 0.000000 0.000000 0.000000 31.000000 0.984289 0.175725 -0.017228
-1.66999996 1.87000000 -1.21000004 139 80 146 0.000000 0.000000 0.000000 0.000000 0.000000 0.000000 31.000000 0.870492 -0.213517 -0.443458
-1.70000005 1.87000000 -1.21000004 139 80 146 0.000000 0.000000 0.000000 0.000000 0.000000 0.000000 31.000000 0.971148 -0.226973 -0.073177
-1.67999995 1.82000005 -1.13000000 139 80 146 0.000000 0.000000 0.000000 0.000000 0.000000 0.000000 31.000000 0.930896 -0.346538 0.115513
-1.65999997 1.77999997 -1.16999996 139 80 146 0.000000 0.000000 0.000000 0.000000 0.000000 0.000000 31.000000 0.887834 0.229740 0.398710
-1.65999997 1.76999998 -1.15999997 139 80 146 0.000000 0.000000 0.000000 0.000000 0.000000 0.000000 31.000000 0.985297 0.170815 -0.003394
-1.67999995 1.82000005 -1.15999997 139 80 146 0.000000 0.000000 0.000000 0.000000 0.000000 0.000000 31.000000 0.958124 0.021017 -0.285583
-1.67999995 1.82000005 -1.15999997 139 80 146 0.000000 0.000000 0.000000 0.000000 0.000000 0.000000 31.000000 0.958124 0.021017 -0.285583
-1.66999996 1.79999995 -1.16999996 139 80 146 0.000000 0.000000 0.000000 0.000000 0.000000 0.000000 31.000000 0.962642 -0.230565 -0.141986
-1.66999996 1.76999998 -1.22000003 139 80 146 0.000000 0.000000 0.000000 0.000000 0.000000 0.000000 31.000000 0.943124 0.328997 0.047737
-1.75000000 1.90999997 -1.15999997 139 80 146 0.000000 0.000000 0.000000 0.000000 0.000000 0.000000 31.000000 0.934666 -0.267648 0.234017
-1.71000004 1.89999998 -1.22000003 139 80 146 0.000000 0.000000 0.000000 0.000000 0.000000 0.000000 31.000000 0.842909 -0.417545 -0.339353
-1.75000000 1.88999999 -1.19000006 139 80 146 0.000000 0.000000 0.000000 0.000000 0.000000 0.000000 31.000000 0.910942 -0.153942 -0.382737
-1.63000000 1.61000001 -1.04999995 139 80 146 0.000000 0.000000 0.000000 0.000000 0.000000 0.000000 31.000000 0.712264 0.436656 0.549556
-1.63000000 1.70000005 -1.19000006 139 80 146 0.000000 0.000000 0.000000 0.000000 0.000000 0.000000 31.000000 0.736300 0.494727 0.461635
-1.63000000 1.70000005 -1.19000006 139 80 146 0.000000 0.000000 0.000000 0.000000 0.000000 0.000000 31.000000 0.736300 0.494727 0.461635
-1.64999998 1.62000000 -1.08000004 139 80 146 0.000000 0.000000 0.000000 0.000000 0.000000 0.000000 31.000000 0.556291 0.745528 0.367054
-1.65999997 1.63999999 -1.08000004 139 80 146 0.000000 0.000000 0.000000 0.000000 0.000000 0.000000 31.000000 0.644023 0.482597 0.593578
-1.63000000 1.63000000 -1.10000002 139 80 146 0.000000 0.000000 0.000000 0.000000 0.000000 0.000000 31.000000 0.265285 0.953158 0.145307
-1.66999996 1.63000000 -1.08000004 139 80 146 0.000000 0.000000 0.000000 0.000000 0.000000 0.000000 31.000000 0.477650 0.854979 0.202140
-1.63999999 1.62000000 -1.15999997 139 80 146 0.000000 0.000000 0.000000 0.000000 0.000000 0.000000 31.000000 0.204303 0.944730 0.256407
-1.75000000 1.59000003 -1.13000000 139 80 146 0.000000 0.000000 0.000000 0.000000 0.000000 0.000000 31.000000 0.803760 0.274187 0.528006
-1.76999998 1.59000003 -1.13999999 139 80 146 0.000000 0.000000 0.000000 0.000000 0.000000 0.000000 31.000000 0.754504 0.323359 0.571106
-1.74000001 1.58000004 -1.17999995 139 80 146 0.000000 0.000000 0.000000 0.000000 0.000000 0.000000 31.000000 0.354972 0.810227 0.466398
-1.73000002 1.58000004 -1.16999996 139 80 146 0.000000 0.000000 0.000000 0.000000 0.000000 0.000000 31.000000 0.316917 0.744836 0.587182
-1.45000005 1.87000000 -1.25000000 139 80 146 0.000000 0.000000 0.000000 0.000000 0.000000 0.000000 31.000000 0.844481 0.482343 0.232803
-1.46000004 1.87000000 -1.26999998 139 80 146 0.000000 0.000000 0.000000 0.000000 0.000000 0.000000 31.000000 0.973063 -0.226604 -0.042412
-1.45000005 1.79999995 -1.30999994 139 80 146 0.000000 0.000000 0.000000 0.000000 0.000000 0.000000 31.000000 0.822961 -0.552076 0.133970
-1.46000004 1.78999996 -1.29999995 139 80 146 0.000000 0.000000 0.000000 0.000000 0.000000 0.000000 31.000000 -0.581056 0.804653 0.122095
-1.49000001 1.75000000 -1.23000002 139 80 146 0.000000 0.000000 0.000000 0.000000 0.000000 0.000000 31.000000 -0.130966 0.819640 0.557708
-1.46000004 1.77999997 -1.27999997 139 80 146 0.000000 0.000000 0.000000 0.000000 0.000000 0.000000 31.000000 -0.559087 0.572600 0.599625
-1.50000000 1.80999994 -1.23000002 139 80 146 0.000000 0.000000 0.000000 0.000000 0.000000 0.000000 31.000000 0.857829 -0.511371 0.051276
-1.50000000 1.75000000 -1.26999998 139 80 146 0.000000 0.000000 0.000000 0.000000 0.000000 0.000000 31.000000 -0.450530 0.813501 0.367747
-1.50000000 1.75999999 -1.26999998 139 80 146 0.000000 0.000000 0.000000 0.000000 0.000000 0.000000 31.000000 -0.585753 0.679206 0.442235
-1.57000005 1.87000000 -1.36000001 139 80 146 0.000000 0.000000 0.000000 0.000000 0.000000 0.000000 31.000000 0.905308 0.241318 0.349546
-1.60000002 1.90999997 -1.34000003 139 80 146 0.000000 0.000000 0.000000 0.000000 0.000000 0.000000 31.000000 0.997080 0.057130 -0.050662
-1.61000001 1.89999998 -1.32000005 139 80 146 0.000000 0.000000 0.000000 0.000000 0.000000 0.000000 31.000000 0.857558 -0.484320 -0.173289
-1.61000001 1.90999997 -1.38999999 139 80 146 0.000000 0.000000 0.000000 0.000000 0.000000 0.000000 31.000000 0.921535 0.185440 0.341152
-1.58000004 1.89999998 -1.38000000 139 80 146 0.000000 0.000000 0.000000 0.000000 0.000000 0.000000 31.000000 0.948578 -0.261911 0.177773
-1.58000004 1.90999997 -1.38000000 139 80 146 0.000000 0.000000 0.000000 0.000000 0.000000 0.000000 31.000000 0.968805 0.068577 -0.238149
-1.59000003 1.75000000 -1.24000001 139 80 146 0.000000 0.000000 0.000000 0.000000 0.000000 0.000000 31.000000 0.189938 0.803819 0.563737
-1.60000002 1.75000000 -1.30999994 139 80 146 0.000000 0.000000 0.000000 0.000000 0.000000 0.000000 31.000000 0.730546 0.611732 0.303458
-1.58000004 1.79999995 -1.38000000 139 80 146 0.000000 0.000000 0.000000 0.000000 0.000000 0.000000 31.000000 0.630275 0.757849 0.168580
-1.60000002 1.90999997 -1.42999995 139 80 146 0.000000 0.000000 0.000000 0.000000 0.000000 0.000000 31.000000 0.913410 0.336216 0.229435
-1.47000003 1.73000002 -1.25000000 139 80 146 0.000000 0.000000 0.000000 0.000000 0.000000 0.000000 31.000000 -0.326542 0.696948 0.638463
-1.48000002 1.72000003 -1.24000001 139 80 146 0.000000 0.000000 0.000000 0.000000 0.000000 0.000000 31.000000 -0.272734 0.911545 0.307737
-1.46000004 1.73000002 -1.25000000 139 80 146 0.000000 0.000000 0.000000 0.000000 0.000000 0.000000 31.000000 -0.318435 0.772885 0.548860
-1.45000005 1.73000002 -1.25000000 139 80 146 0.000000 0.000000 0.000000 0.000000 0.000000 0.000000 31.000000 -0.483881 0.833265 0.267449
-1.50999999 1.71000004 -1.23000002 139 80 146 0.000000 0.000000 0.000000 0.000000 0.000000 0.000000 31.000000 -0.448641 0.692141 0.565387
-1.51999998 1.71000004 -1.25000000 139 80 146 0.000000 0.000000 0.000000 0.000000 0.000000 0.000000 31.000000 -0.110751 0.895824 0.430388
-1.51999998 1.74000001 -1.29999995 139 80 146 0.000000 0.000000 0.000000 0.000000 0.000000 0.000000 31.000000 -0.133317 0.657596 0.741481
-1.52999997 1.70000005 -1.27999997 139 80 146 0.000000 0.000000 0.000000 0.000000 0.000000 0.000000 31.000000 -0.167821 0.951882 0.256431
-1.61000001 1.72000003 -1.30999994 139 80 146 0.000000 0.000000 0.000000 0.000000 0.000000 0.000000 31.000000 0.262111 0.646541 0.716437
-1.62000000 1.72000003 -1.30999994 139 80 146 0.000000 0.000000 0.000000 0.000000 0.000000 0.000000 31.000000 0.257812 0.744967 0.615270
-1.61000001 1.71000004 -1.29999995 139 80 146 0.000000 0.000000 0.000000 0.000000 0.000000 0.000000 31.000000 0.688570 0.612613 0.388043
-1.62000000 1.63999999 -1.23000002 139 80 146 0.000000 0.000000 0.000000 0.000000 0.000000 0.000000 31.000000 0.040214 0.935305 0.351550
-1.65999997 1.90999997 -1.25000000 139 80 146 0.000000 0.000000 0.000000 0.000000 0.000000 0.000000 31.000000 -0.696704 0.716488 -0.035330
-1.65999997 1.84000003 -1.28999996 139 80 146 0.000000 0.000000 0.000000 0.000000 0.000000 0.000000 31.000000 0.996140 -0.013910 0.086667
-1.67999995 1.89999998 -1.24000001 139 80 146 0.000000 0.000000 0.000000 0.000000 0.000000 0.000000 31.000000 0.985097 0.048025 -0.165159
-1.70000005 1.88999999 -1.29999995 139 80 146 0.000000 0.000000 0.000000 0.000000 0.000000 0.000000 31.000000 0.950504 0.187938 0.247429
-1.67999995 1.89999998 -1.26999998 139 80 146 0.000000 0.000000 0.000000 0.000000 0.000000 0.000000 31.000000 0.878404 -0.426568 -0.215514
-1.67999995 1.83000004 -1.25999999 139 80 146 0.000000 0.000000 0.000000 0.000000 0.000000 0.000000 31.000000 0.979528 0.091488 -0.179316
-1.66999996 1.87000000 -1.23000002 139 80 146 0.000000 0.000000 0.000000 0.000000 0.000000 0.000000 31.000000 0.985543 -0.116158 0.123342
-1.66999996 1.86000001 -1.24000001 139 80 146 0.000000 0.000000 0.000000 0.000000 0.000000 0.000000 31.000000 0.947610 -0.107352 0.300850
-1.70000005 1.87000000 -1.30999994 139 80 146 0.000000 0.000000 0.000000 0.000000 0.000000 0.000000 31.000000 0.999098 0.030025 -0.030025
-1.70000005 1.84000003 -1.29999995 139 80 146 0.000000 0.000000 0.000000 0.000000 0.000000 0.000000 31.000000 0.988433 0.078373 0.129841
-1.69000006 1.86000001 -1.30999994 139 80 146 0.000000 0.000000 0.000000 0.000000 0.000000 0.000000 31.000000 0.914395 0.401800 -0.049391
-1.70000005 1.83000004 -1.29999995 139 80 146 0.000000 0.000000 0.000000 0.000000 0.000000 0.000000 31.000000 0.971655 0.216898 -0.094031
-1.70000005 1.88999999 -1.32000005 139 80 146 0.000000 0.000000 0.000000 0.000000 0.000000 0.000000 31.000000 0.956509 0.263729 -0.124648
-1.70000005 1.88999999 -1.32000005 139 80 146 0.000000 0.000000 0.000000 0.000000 0.000000 0.000000 31.000000 0.956509 0.263729 -0.124648
-1.66999996 1.88000000 -1.38000000 139 80 146 0.000000 0.000000 0.000000 0.000000 0.000000 0.000000 31.000000 0.864915 0.095155 0.492817
-1.70000005 1.83000004 -1.34000003 139 80 146 0.000000 0.000000 0.000000 0.000000 0.000000 0.000000 31.000000 0.865175 -0.004012 0.501454
-1.70000005 1.85000002 -1.33000004 139 80 146 0.000000 0.000000 0.000000 0.000000 0.000000 0.000000 31.000000 0.997401 0.065071 -0.030935
-1.66999996 1.85000002 -1.37000000 139 80 146 0.000000 0.000000 0.000000 0.000000 0.000000 0.000000 31.000000 0.903977 0.380394 -0.195259
-1.67999995 1.85000002 -1.37000000 139 80 146 0.000000 0.000000 0.000000 0.000000 0.000000 0.000000 31.000000 0.921848 -0.143213 0.360119
-1.66999996 1.83000004 -1.38000000 139 80 146 0.000000 0.000000 0.000000 0.000000 0.000000 0.000000 31.000000 0.939463 0.341969 -0.021611
-1.66999996 1.85000002 -1.37000000 139 80 146 0.000000 0.000000 0.000000 0.000000 0.000000 0.000000 31.000000 0.903977 0.380394 -0.195259
-1.64999998 1.80999994 -1.30999994 139 80 146 0.000000 0.000000 0.000000 0.000000 0.000000 0.000000 31.000000 0.939753 0.231815 0.251249
-1.64999998 1.82000005 -1.30999994 139 80 146 0.000000 0.000000 0.000000 0.000000 0.000000 0.000000 31.000000 0.840894 0.541061 -0.012266
-1.65999997 1.77999997 -1.27999997 139 80 146 0.000000 0.000000 0.000000 0.000000 0.000000 0.000000 31.000000 0.944564 0.060898 0.322629
-1.65999997 1.75999999 -1.29999995 139 80 146 0.000000 0.000000 0.000000 0.000000 0.000000 0.000000 31.000000 0.513425 0.697388 0.500045
-1.65999997 1.75000000 -1.30999994 139 80 146 0.000000 0.000000 0.000000 0.000000 0.000000 0.000000 31.000000 0.953609 0.238066 0.184266
-1.70000005 1.79999995 -1.24000001 139 80 146 0.000000 0.000000 0.000000 0.000000 0.000000 0.000000 31.000000 0.918053 0.382865 0.102921
-1.70000005 1.79999995 -1.25000000 139 80 146 0.000000 0.000000 0.000000 0.000000 0.000000 0.000000 31.000000 0.980924 -0.164503 0.103576
-1.70000005 1.80999994 -1.26999998 139 80 146 0.000000 0.000000 0.000000 0.000000 0.000000 0.000000 31.000000 0.914036 0.385370 0.126602
-1.66999996 1.79999995 -1.27999997 139 80 146 0.000000 0.000000 0.000000 0.000000 0.000000 0.000000 31.000000 0.992931 0.059734 -0.102562
-1.69000006 1.78999996 -1.27999997 139 80 146 0.000000 0.000000 0.000000 0.000000 0.000000 0.000000 31.000000 0.914683 0.400425 -0.054908
-1.66999996 1.79999995 -1.30999994 139 80 146 0.000000 0.000000 0.000000 0.000000 0.000000 0.000000 31.000000 0.952105 0.293055 -0.087265
-1.70000005 1.79999995 -1.26999998 139 80 146 0.000000 0.000000 0.000000 0.000000 0.000000 0.000000 31.000000 0.865559 0.418328 0.275336
-1.67999995 1.77999997 -1.25999999 139 80 146 0.000000 0.000000 0.000000 0.000000 0.000000 0.000000 31.000000 0.987050 0.023963 0.158613
-1.67999995 1.77999997 -1.25999999 139 80 146 0.000000 0.000000 0.000000 0.000000 0.000000 0.000000 31.000000 0.987050 0.023963 0.158613
-1.67999995 1.75000000 -1.26999998 139 80 146 0.000000 0.000000 0.000000 0.000000 0.000000 0.000000 31.000000 0.763852 0.459620 0.453077
-1.70000005 1.75999999 -1.28999996 139 80 146 0.000000 0.000000 0.000000 0.000000 0.000000 0.000000 31.000000 0.636641 0.626615 0.449492
-1.70000005 1.76999998 -1.27999997 139 80 146 0.000000 0.000000 0.000000 0.000000 0.000000 0.000000 31.000000 0.855560 0.473640 0.209003
-1.69000006 1.75000000 -1.26999998 139 80 146 0.000000 0.000000 0.000000 0.000000 0.000000 0.000000 31.000000 0.712799 0.523384 0.466891
-1.70000005 1.77999997 -1.29999995 139 80 146 0.000000 0.000000 0.000000 0.000000 0.000000 0.000000 31.000000 0.802107 0.357026 0.478703
-1.69000006 1.75000000 -1.26999998 139 80 146 0.000000 0.000000 0.000000 0.000000 0.000000 0.000000 31.000000 0.712799 0.523384 0.466891
-1.64999998 1.79999995 -1.34000003 139 80 146 0.000000 0.000000 0.000000 0.000000 0.000000 0.000000 31.000000 0.945248 0.323610 0.042210
-1.63000000 1.78999996 -1.34000003 139 80 146 0.000000 0.000000 0.000000 0.000000 0.000000 0.000000 31.000000 0.733055 0.679996 0.015359
-1.64999998 1.79999995 -1.34000003 139 80 146 0.000000 0.000000 0.000000 0.000000 0.000000 0.000000 31.000000 0.945248 0.323610 0.042210
-1.63999999 1.79999995 -1.37000000 139 80 146 0.000000 0.000000 0.000000 0.000000 0.000000 0.000000 31.000000 0.872206 0.480488 0.091589
-1.64999998 1.79999995 -1.38000000 139 80 146 0.000000 0.000000 0.000000 0.000000 0.000000 0.000000 31.000000 0.896697 0.442406 0.014527
-1.65999997 1.76999998 -1.34000003 139 80 146 0.000000 0.000000 0.000000 0.000000 0.000000 0.000000 31.000000 0.701428 0.589200 0.401052
-1.64999998 1.75999999 -1.34000003 139 80 146 0.000000 0.000000 0.000000 0.000000 0.000000 0.000000 31.000000 0.867078 0.477837 0.140882
-1.65999997 1.76999998 -1.33000004 139 80 146 0.000000 0.000000 0.000000 0.000000 0.000000 0.000000 31.000000 0.800420 0.439667 0.407457
-1.65999997 1.75999999 -1.32000005 139 80 146 0.000000 0.000000 0.000000 0.000000 0.000000 0.000000 31.000000 0.832120 0.489392 0.260906
-1.67999995 1.82000005 -1.33000004 139 80 146 0.000000 0.000000 0.000000 0.000000 0.000000 0.000000 31.000000 0.999928 0.010923 0.004965
-1.67999995 1.82000005 -1.33000004 139 80 146 0.000000 0.000000 0.000000 0.000000 0.000000 0.000000 31.000000 0.999928 0.010923 0.004965
-1.67999995 1.78999996 -1.32000005 139 80 146 0.000000 0.000000 0.000000 0.000000 0.000000 0.000000 31.000000 0.995924 0.069024 0.058068
-1.67999995 1.77999997 -1.32000005 139 80 146 0.000000 0.000000 0.000000 0.000000 0.000000 0.000000 31.000000 0.802042 0.543519 0.247621
-1.74000001 1.88000000 -1.25999999 139 80 146 0.000000 0.000000 0.000000 0.000000 0.000000 0.000000 31.000000 0.871910 -0.458669 -0.171451
-1.72000003 1.85000002 -1.29999995 139 80 146 0.000000 0.000000 0.000000 0.000000 0.000000 0.000000 31.000000 0.991428 0.130653 -0.001098
-1.74000001 1.87000000 -1.35000002 139 80 146 0.000000 0.000000 0.000000 0.000000 0.000000 0.000000 31.000000 0.888423 0.433412 0.151190
-1.74000001 1.87000000 -1.37000000 139 80 146 0.000000 0.000000 0.000000 0.000000 0.000000 0.000000 31.000000 0.924306 0.356142 -0.137191
-1.74000001 1.87000000 -1.36000001 139 80 146 0.000000 0.000000 0.000000 0.000000 0.000000 0.000000 31.000000 0.874505 0.458351 0.158604
-1.74000001 1.86000001 -1.36000001 139 80 146 0.000000 0.000000 0.000000 0.000000 0.000000 0.000000 31.000000 0.935306 0.353451 -0.016588
-1.78999996 1.88000000 -1.37000000 139 80 146 0.000000 0.000000 0.000000 0.000000 0.000000 0.000000 31.000000 0.992356 -0.123362 0.003275
-1.78999996 1.88000000 -1.37000000 139 80 146 0.000000 0.000000 0.000000 0.000000 0.000000 0.000000 31.000000 0.992356 -0.123362 0.003275
-1.71000004 1.78999996 -1.25000000 139 80 146 0.000000 0.000000 0.000000 0.000000 0.000000 0.000000 31.000000 0.860513 -0.012158 0.509283
-1.71000004 1.82000005 -1.28999996 139 80 146 0.000000 0.000000 0.000000 0.000000 0.000000 0.000000 31.000000 0.996109 -0.079471 -0.038103
-1.71000004 1.80999994 -1.26999998 139 80 146 0.000000 0.000000 0.000000 0.000000 0.000000 0.000000 31.000000 0.855705 0.260830 0.446919
-1.71000004 1.77999997 -1.29999995 139 80 146 0.000000 0.000000 0.000000 0.000000 0.000000 0.000000 31.000000 0.729461 0.413306 0.545037
-1.76999998 1.82000005 -1.25999999 139 80 146 0.000000 0.000000 0.000000 0.000000 0.000000 0.000000 31.000000 0.990946 0.086520 0.102671
-1.63999999 1.88000000 -1.39999998 139 80 146 0.000000 0.000000 0.000000 0.000000 0.000000 0.000000 31.000000 0.975959 0.097968 0.194696
-1.63000000 1.87000000 -1.40999997 139 80 146 0.000000 0.000000 0.000000 0.000000 0.000000 0.000000 31.000000 0.889409 0.432491 -0.147995
-1.63000000 1.87000000 -1.39999998 139 80 146 0.000000 0.000000 0.000000 0.000000 0.000000 0.000000 31.000000 0.900744 0.415837 0.125456
-1.75999999 1.88999999 -1.39999998 139 80 146 0.000000 0.000000 0.000000 0.000000 0.000000 0.000000 31.000000 0.986688 -0.158101 0.038083
-1.75999999 1.88999999 -1.39999998 139 80 146 0.000000 0.000000 0.000000 0.000000 0.000000 0.000000 31.000000 0.986688 -0.158101 0.038083
-1.65999997 1.73000002 -1.24000001 139 80 146 0.000000 0.000000 0.000000 0.000000 0.000000 0.000000 31.000000 0.678139 0.493953 0.544186
-1.65999997 1.74000001 -1.28999996 139 80 146 0.000000 0.000000 0.000000 0.000000 0.000000 0.000000 31.000000 0.801374 0.444851 0.399884
-1.63999999 1.74000001 -1.30999994 139 80 146 0.000000 0.000000 0.000000 0.000000 0.000000 0.000000 31.000000 0.380477 0.647304 0.660481
-1.63999999 1.74000001 -1.30999994 139 80 146 0.000000 0.000000 0.000000 0.000000 0.000000 0.000000 31.000000 0.380477 0.647304 0.660481
-1.63000000 1.72000003 -1.30999994 139 80 146 0.000000 0.000000 0.000000 0.000000 0.000000 0.000000 31.000000 0.553222 0.607360 0.570140
-1.65999997 1.67999995 -1.23000002 139 80 146 0.000000 0.000000 0.000000 0.000000 0.000000 0.000000 31.000000 0.485696 0.576449 0.657119
-1.64999998 1.67999995 -1.24000001 139 80 146 0.000000 0.000000 0.000000 0.000000 0.000000 0.000000 31.000000 0.513649 0.554068 0.655113
-1.63000000 1.65999997 -1.25000000 139 80 146 0.000000 0.000000 0.000000 0.000000 0.000000 0.000000 31.000000 0.525225 0.525225 0.669536
-1.66999996 1.74000001 -1.28999996 139 80 146 0.000000 0.000000 0.000000 0.000000 0.000000 0.000000 31.000000 0.887801 0.369792 0.273976
-1.66999996 1.74000001 -1.28999996 139 80 146 0.000000 0.000000 0.000000 0.000000 0.000000 0.000000 31.000000 0.887801 0.369792 0.273976
-1.79999995 2.01999998 -0.91000003 139 80 146 0.000000 0.000000 0.000000 0.000000 0.000000 0.000000 31.000000 -0.339215 0.913715 0.223737
-1.79999995 2.01999998 -0.91000003 139 80 146 0.000000 0.000000 0.000000 0.000000 0.000000 0.000000 31.000000 -0.339215 0.913715 0.223737
-1.86000001 2.00999999 -0.89999998 139 80 146 0.000000 0.000000 0.000000 0.000000 0.000000 0.000000 31.000000 0.923927 -0.373617 -0.082277
-1.79999995 1.98000002 -0.94999999 139 80 146 0.000000 0.000000 0.000000 0.000000 0.000000 0.000000 31.000000 -0.594756 0.801998 0.055359
-1.85000002 1.97000003 -0.88999999 139 80 146 0.000000 0.000000 0.000000 0.000000 0.000000 0.000000 31.000000 -0.501575 0.704872 0.501575
-1.85000002 1.96000004 -0.94999999 139 80 146 0.000000 0.000000 0.000000 0.000000 0.000000 0.000000 31.000000 0.924117 -0.370461 -0.093633
-1.79999995 1.96000004 -1.00000000 139 80 146 0.000000 0.000000 0.000000 0.000000 0.000000 0.000000 31.000000 0.573310 -0.724441 -0.382754
-1.82000005 1.98000002 -0.97000003 139 80 146 0.000000 0.000000 0.000000 0.000000 0.000000 0.000000 31.000000 -0.641320 0.759264 -0.110572
-1.80999994 1.96000004 -1.02999997 139 80 146 0.000000 0.000000 0.000000 0.000000 0.000000 0.000000 31.000000 0.817204 -0.544297 0.189519
-1.80999994 1.96000004 -1.02999997 139 80 146 0.000000 0.000000 0.000000 0.000000 0.000000 0.000000 31.000000 0.817204 -0.544297 0.189519
-1.80999994 1.94000006 -0.98000002 139 80 146 0.000000 0.000000 0.000000 0.000000 0.000000 0.000000 31.000000 0.967410 -0.250719 -0.035468
-1.84000003 2.00000000 -0.97000003 139 80 146 0.000000 0.000000 0.000000 0.000000 0.000000 0.000000 31.000000 0.893364 -0.436164 -0.107989
-1.86000001 1.98000002 -1.01999998 139 80 146 0.000000 0.000000 0.000000 0.000000 0.000000 0.000000 31.000000 0.922468 -0.384905 -0.030010
-1.90999997 1.99000001 -0.91000003 139 80 146 0.000000 0.000000 0.000000 0.000000 0.000000 0.000000 31.000000 0.589132 -0.789044 -0.174165
-1.88000000 1.97000003 -0.91000003 139 80 146 0.000000 0.000000 0.000000 0.000000 0.000000 0.000000 31.000000 0.826220 -0.563145 0.015072
-1.89999998 1.98000002 -0.95999998 139 80 146 0.000000 0.000000 0.000000 0.000000 0.000000 0.000000 31.000000 -0.597018 0.802026 -0.018007
-1.82000005 1.96000004 -1.10000002 139 80 146 0.000000 0.000000 0.000000 0.000000 0.000000 0.000000 31.000000 0.773113 -0.604712 0.191365
-1.79999995 1.95000005 -1.07000005 139 80 146 0.000000 0.000000 0.000000 0.000000 0.000000 0.000000 31.000000 0.890401 -0.421311 0.172289
-1.79999995 1.92999995 -1.13999999 139 80 146 0.000000 0.000000 0.000000 0.000000 0.000000 0.000000 31.000000 0.933839 -0.223279 -0.279449
-1.82000005 1.92999995 -1.17999995 139 80 146 0.000000 0.000000 0.000000 0.000000 0.000000 0.000000 31.000000 0.843123 -0.536784 -0.031738
-1.82000005 1.94000006 -1.21000004 139 80 146 0.000000 0.000000 0.000000 0.000000 0.000000 0.000000 31.000000 0.998252 -0.019944 -0.055633
-1.90999997 2.08999991 -1.38000000 139 80 146 0.000000 0.000000 0.000000 0.000000 0.000000 0.000000 31.000000 0.916871 -0.198204 -0.346500
-1.82000005 2.07999992 -1.34000003 139 80 146 0.000000 0.000000 0.000000 0.000000 0.000000 0.000000 31.000000 -0.577386 0.759718 0.299089
-1.86000001 2.04999995 -1.38000000 139 80 146 0.000000 0.000000 0.000000 0.000000 0.000000 0.000000 31.000000 0.727459 -0.684918 0.041123
-1.79999995 1.97000003 -1.30999994 139 80 146 0.000000 0.000000 0.000000 0.000000 0.000000 0.000000 31.000000 0.896318 -0.420372 -0.141074
-1.80999994 1.91999996 -1.23000002 139 80 146 0.000000 0.000000 0.000000 0.000000 0.000000 0.000000 31.000000 0.967251 -0.161856 0.195522
-1.80999994 1.91999996 -1.25000000 139 80 146 0.000000 0.000000 0.000000 0.000000 0.000000 0.000000 31.000000 0.797446 -0.575680 0.180754
-1.82000005 1.92999995 -1.23000002 139 80 146 0.000000 0.000000 0.000000 0.000000 0.000000 0.000000 31.000000 0.997674 0.052284 0.043748
-1.79999995 1.98000002 -1.35000002 139 80 146 0.000000 0.000000 0.000000 0.000000 0.000000 0.000000 31.000000 0.897208 -0.438424 -0.052937
-1.79999995 1.98000002 -1.34000003 139 80 146 0.000000 0.000000 0.000000 0.000000 0.000000 0.000000 31.000000 0.760410 -0.644538 -0.079662
-1.83000004 1.99000001 -1.37000000 139 80 146 0.000000 0.000000 0.000000 0.000000 0.000000 0.000000 31.000000 0.992555 0.120343 -0.018769
-1.85000002 1.88999999 -1.13999999 139 80 146 0.000000 0.000000 0.000000 0.000000 0.000000 0.000000 31.000000 0.990959 -0.124012 -0.051198
-1.79999995 1.90999997 -1.16999996 139 80 146 0.000000 0.000000 0.000000 0.000000 0.000000 0.000000 31.000000 0.936019 -0.333617 -0.112106
-1.85000002 1.90999997 -1.15999997 139 80 146 0.000000 0.000000 0.000000 0.000000 0.000000 0.000000 31.000000 0.974046 -0.192296 -0.119399
-1.89999998 1.90999997 -1.13000000 139 80 146 0.000000 0.000000 0.000000 0.000000 0.000000 0.000000 31.000000 0.843983 -0.326049 -0.425892
-1.80999994 1.60000002 -1.13999999 139 80 146 0.000000 0.000000 0.000000 0.000000 0.000000 0.000000 31.000000 0.811564 0.401780 0.424190
-1.80999994 1.59000003 -1.15999997 139 80 146 0.000000 0.000000 0.000000 0.000000 0.000000 0.000000 31.000000 0.797947 0.186948 0.573002
-1.80999994 1.60000002 -1.14999998 139 80 146 0.000000 0.000000 0.000000 0.000000 0.000000 0.000000 31.000000 0.757242 0.267169 0.595992
-1.61000001 1.57000005 -1.11000001 139 80 146 0.000000 0.000000 0.000000 0.000000 0.000000 0.000000 31.000000 0.520533 0.574440 0.631715
-1.60000002 1.47000003 -1.20000005 139 80 146 0.000000 0.000000 0.000000 0.000000 0.000000 0.000000 220.000000 0.423902 0.663282 0.616736
-1.63999999 1.49000001 -1.20000005 139 80 146 0.000000 0.000000 0.000000 0.000000 0.000000 0.000000 220.000000 0.188063 0.772129 0.607000
-1.63000000 1.45000005 -1.19000006 139 80 146 0.000000 0.000000 0.000000 0.000000 0.000000 0.000000 220.000000 -0.162472 0.914080 0.371566
-1.64999998 1.44000006 -1.22000003 139 80 146 0.000000 0.000000 0.000000 0.000000 0.000000 0.000000 220.000000 0.048320 0.865610 0.498382
-1.65999997 1.44000006 -1.21000004 139 80 146 0.000000 0.000000 0.000000 0.000000 0.000000 0.000000 220.000000 0.043863 0.782458 0.621156
-1.64999998 1.44000006 -1.22000003 139 80 146 0.000000 0.000000 0.000000 0.000000 0.000000 0.000000 220.000000 0.048320 0.865610 0.498382
-1.77999997 1.57000005 -1.14999998 139 80 146 0.000000 0.000000 0.000000 0.000000 0.000000 0.000000 31.000000 0.716027 0.329600 0.615361
-1.78999996 1.55999994 -1.14999998 139 80 146 0.000000 0.000000 0.000000 0.000000 0.000000 0.000000 31.000000 0.435570 0.847889 0.302264
-1.75999999 1.33000004 -1.22000003 139 80 146 0.000000 0.000000 0.000000 0.000000 0.000000 0.000000 220.000000 0.342219 0.922441 0.178855
-1.77999997 1.26999998 -1.22000003 139 80 146 0.000000 0.000000 0.000000 0.000000 0.000000 0.000000 220.000000 0.534970 0.599099 0.595724
-1.70000005 1.49000001 -1.38000000 139 80 146 0.000000 0.000000 0.000000 0.000000 0.000000 0.000000 220.000000 0.091213 0.800643 0.592158
-1.69000006 1.40999997 -1.25000000 139 80 146 0.000000 0.000000 0.000000 0.000000 0.000000 0.000000 220.000000 0.261222 0.802438 0.536523
-1.67999995 1.44000006 -1.34000003 139 80 146 0.000000 0.000000 0.000000 0.000000 0.000000 0.000000 220.000000 0.073999 0.706618 0.703716
-1.74000001 1.50999999 -1.37000000 139 80 146 0.000000 0.000000 0.000000 0.000000 0.000000 0.000000 220.000000 0.588451 0.524379 0.615429
-1.72000003 1.50000000 -1.38000000 139 80 146 0.000000 0.000000 0.000000 0.000000 0.000000 0.000000 220.000000 0.469334 0.559526 0.683123
-1.75000000 1.50999999 -1.36000001 139 80 146 0.000000 0.000000 0.000000 0.000000 0.000000 0.000000 220.000000 0.491528 0.511522 0.704801
-1.73000002 1.40999997 -1.25999999 139 80 146 0.000000 0.000000 0.000000 0.000000 0.000000 0.000000 220.000000 0.496178 0.617279 0.610552
-1.74000001 1.42999995 -1.28999996 139 80 146 0.000000 0.000000 0.000000 0.000000 0.000000 0.000000 220.000000 0.047746 0.885355 0.462458
-1.75000000 1.42999995 -1.27999997 139 80 146 0.000000 0.000000 0.000000 0.000000 0.000000 0.000000 220.000000 0.421999 0.719880 0.551081
-1.76999998 1.40999997 -1.29999995 139 80 146 0.000000 0.000000 0.000000 0.000000 0.000000 0.000000 220.000000 0.589188 0.599318 0.541918
-1.78999996 1.44000006 -1.30999994 139 80 146 0.000000 0.000000 0.000000 0.000000 0.000000 0.000000 220.000000 0.276559 0.666618 0.692196
-1.72000003 1.48000002 -1.36000001 139 80 146 0.000000 0.000000 0.000000 0.000000 0.000000 0.000000 220.000000 0.772667 0.580681 0.256507
-1.75000000 1.45000005 -1.36000001 139 80 146 0.000000 0.000000 0.000000 0.000000 0.000000 0.000000 220.000000 0.257349 0.756259 0.601534
-1.72000003 1.48000002 -1.37000000 139 80 146 0.000000 0.000000 0.000000 0.000000 0.000000 0.000000 220.000000 0.696104 0.549204 0.462400
-1.77999997 1.47000003 -1.34000003 139 80 146 0.000000 0.000000 0.000000 0.000000 0.000000 0.000000 220.000000 0.332353 0.734420 0.591751
-1.74000001 1.38999999 -1.27999997 139 80 146 0.000000 0.000000 0.000000 0.000000 0.000000 0.000000 220.000000 0.297416 0.718621 0.628592
-1.75000000 1.33000004 -1.24000001 139 80 146 0.000000 0.000000 0.000000 0.000000 0.000000 0.000000 220.000000 0.215512 0.931068 0.294392
-1.75000000 1.33000004 -1.24000001 139 80 146 0.000000 0.000000 0.000000 0.000000 0.000000 0.000000 220.000000 0.215512 0.931068 0.294392
-1.75999999 1.35000002 -1.24000001 139 80 146 0.000000 0.000000 0.000000 0.000000 0.000000 0.000000 220.000000 0.222664 0.761417 0.608822
-1.78999996 1.28999996 -1.23000002 139 80 146 0.000000 0.000000 0.000000 0.000000 0.000000 0.000000 220.000000 0.505282 0.663077 0.552285
-1.78999996 1.28999996 -1.23000002 139 80 146 0.000000 0.000000 0.000000 0.000000 0.000000 0.000000 220.000000 0.505282 0.663077 0.552285
-1.77999997 1.28999996 -1.25000000 139 80 146 0.000000 0.000000 0.000000 0.000000 0.000000 0.000000 220.000000 0.492386 0.593215 0.636908
-1.80999994 1.55999994 -1.14999998 139 80 146 0.000000 0.000000 0.000000 0.000000 0.000000 0.000000 31.000000 0.723071 0.425239 0.544372
-1.85000002 1.27999997 -1.22000003 139 80 146 0.000000 0.000000 0.000000 0.000000 0.000000 0.000000 220.000000 0.175287 0.828495 0.531855
-2.09999990 1.39999998 -1.22000003 139 80 146 0.000000 0.000000 0.000000 0.000000 0.000000 0.000000 50.000000 0.897648 0.389710 0.205802
-1.80999994 1.49000001 -1.38999999 139 80 146 0.000000 0.000000 0.000000 0.000000 0.000000 0.000000 220.000000 0.794286 0.562039 0.230699
-1.80999994 1.45000005 -1.24000001 139 80 146 0.000000 0.000000 0.000000 0.000000 0.000000 0.000000 220.000000 0.500768 0.608677 0.615422
-1.79999995 1.42999995 -1.27999997 139 80 146 0.000000 0.000000 0.000000 0.000000 0.000000 0.000000 220.000000 0.459475 0.718240 0.522507
-1.80999994 1.34000003 -1.24000001 139 80 146 0.000000 0.000000 0.000000 0.000000 0.000000 0.000000 220.000000 0.564691 0.645602 0.514122
-1.79999995 1.33000004 -1.26999998 139 80 146 0.000000 0.000000 0.000000 0.000000 0.000000 0.000000 220.000000 0.739605 0.512288 0.436515
-1.82000005 1.27999997 -1.25000000 139 80 146 0.000000 0.000000 0.000000 0.000000 0.000000 0.000000 220.000000 0.476889 0.852985 0.212118
-1.82000005 1.27999997 -1.29999995 139 80 146 0.000000 0.000000 0.000000 0.000000 0.000000 0.000000 220.000000 0.675609 0.712545 0.189294
-1.82000005 1.23000002 -1.23000002 139 80 146 0.000000 0.000000 0.000000 0.000000 0.000000 0.000000 220.000000 0.456952 0.667853 0.587510
-1.83000004 1.23000002 -1.32000005 139 80 146 0.000000 0.000000 0.000000 0.000000 0.000000 0.000000 220.000000 0.398655 0.656706 0.640165
-1.87000000 1.24000001 -1.32000005 139 80 146 0.000000 0.000000 0.000000 0.000000 0.000000 0.000000 220.000000 0.768409 0.624613 0.139302
-1.89999998 1.25999999 -1.25000000 139 80 146 0.000000 0.000000 0.000000 0.000000 0.000000 0.000000 220.000000 0.547411 0.823342 0.149833
-1.94000006 1.23000002 -1.34000003 139 80 146 0.000000 0.000000 0.000000 0.000000 0.000000 0.000000 220.000000 0.187404 0.893440 0.408222
-2.11999989 1.50999999 -1.30999994 139 80 146 0.000000 0.000000 0.000000 0.000000 0.000000 0.000000 50.000000 0.893690 0.446167 0.047465
-2.13000011 1.50000000 -1.25000000 139 80 146 0.000000 0.000000 0.000000 0.000000 0.000000 0.000000 50.000000 0.744843 0.667169 -0.009709
-2.11999989 1.48000002 -1.24000001 139 80 146 0.000000 0.000000 0.000000 0.000000 0.000000 0.000000 50.000000 0.629392 0.722279 0.286669
-2.09999990 1.42999995 -1.27999997 139 80 146 0.000000 0.000000 0.000000 0.000000 0.000000 0.000000 50.000000 0.849098 0.431509 0.304685
-1.82000005 1.14999998 -1.17999995 139 80 146 0.000000 0.000000 0.000000 0.000000 0.000000 0.000000 220.000000 0.219039 0.853499 0.472823
-1.87000000 1.20000005 -1.17999995 139 80 146 0.000000 0.000000 0.000000 0.000000 0.000000 0.000000 220.000000 0.296437 0.729074 0.616909
-1.84000003 1.22000003 -1.21000004 139 80 146 0.000000 0.000000 0.000000 0.000000 0.000000 0.000000 220.000000 0.303384 0.901271 0.309303
-1.90999997 1.20000005 -1.22000003 139 80 146 0.000000 0.000000 0.000000 0.000000 0.000000 0.000000 220.000000 0.679680 0.528640 0.508502
-1.90999997 1.14999998 -1.17999995 139 80 146 0.000000 0.000000 0.000000 0.000000 0.000000 0.000000 220.000000 0.445483 0.602320 0.662386
-1.90999997 1.14999998 -1.17999995 139 80 146 0.000000 0.000000 0.000000 0.000000 0.000000 0.000000 220.000000 0.445483 0.602320 0.662386
-1.88000000 1.14999998 -1.22000003 139 80 146 0.000000 0.000000 0.000000 0.000000 0.000000 0.000000 220.000000 0.739156 0.481196 0.471274
-1.89999998 1.12000000 -1.13000000 139 80 146 0.000000 0.000000 0.000000 0.000000 0.000000 0.000000 220.000000 0.757418 0.535894 0.373008
-1.88999999 1.13999999 -1.14999998 139 80 146 0.000000 0.000000 0.000000 0.000000 0.000000 0.000000 220.000000 0.470929 0.672037 0.571483
-1.90999997 1.12000000 -1.15999997 139 80 146 0.000000 0.000000 0.000000 0.000000 0.000000 0.000000 220.000000 0.617035 0.492619 0.613672
-1.88000000 1.13999999 -1.15999997 139 80 146 0.000000 0.000000 0.000000 0.000000 0.000000 0.000000 220.000000 0.409502 0.741709 0.531202
-1.89999998 1.13999999 -1.14999998 139 80 146 0.000000 0.000000 0.000000 0.000000 0.000000 0.000000 220.000000 0.126232 0.779667 0.613338
-1.88999999 1.13999999 -1.14999998 139 80 146 0.000000 0.000000 0.000000 0.000000 0.000000 0.000000 220.000000 0.470929 0.672037 0.571483
-1.82000005 1.14999998 -1.28999996 139 80 146 0.000000 0.000000 0.000000 0.000000 0.000000 0.000000 220.000000 0.209367 0.811487 0.545576
-1.82000005 1.15999997 -1.29999995 139 80 146 0.000000 0.000000 0.000000 0.000000 0.000000 0.000000 220.000000 0.196092 0.643860 0.739590
-1.87000000 1.20000005 -1.36000001 139 80 146 0.000000 0.000000 0.000000 0.000000 0.000000 0.000000 220.000000 0.067978 0.875387 0.478619
-1.91999996 1.21000004 -1.25000000 139 80 146 0.000000 0.000000 0.000000 0.000000 0.000000 0.000000 220.000000 0.165044 0.942524 0.290532
-1.89999998 1.21000004 -1.25999999 139 80 146 0.000000 0.000000 0.000000 0.000000 0.000000 0.000000 220.000000 0.113897 0.854951 0.506050
-1.90999997 1.21000004 -1.25000000 139 80 146 0.000000 0.000000 0.000000 0.000000 0.000000 0.000000 220.000000 0.586857 0.603769 0.539502
-1.89999998 1.22000003 -1.27999997 139 80 146 0.000000 0.000000 0.000000 0.000000 0.000000 0.000000 220.000000 0.393844 0.876717 0.276143
-1.89999998 1.21000004 -1.30999994 139 80 146 0.000000 0.000000 0.000000 0.000000 0.000000 0.000000 220.000000 0.518770 0.829119 0.208421
-1.88999999 1.21000004 -1.30999994 139 80 146 0.000000 0.000000 0.000000 0.000000 0.000000 0.000000 220.000000 0.411851 0.867774 0.278113
-1.89999998 1.22000003 -1.32000005 139 80 146 0.000000 0.000000 0.000000 0.000000 0.000000 0.000000 220.000000 0.800161 0.556567 0.223552
-1.88000000 1.21000004 -1.35000002 139 80 146 0.000000 0.000000 0.000000 0.000000 0.000000 0.000000 220.000000 0.117680 0.950696 0.286928
-1.89999998 1.22000003 -1.32000005 139 80 146 0.000000 0.000000 0.000000 0.000000 0.000000 0.000000 220.000000 0.800161 0.556567 0.223552
-2.15000010 1.45000005 -1.19000006 139 80 146 0.000000 0.000000 0.000000 0.000000 0.000000 0.000000 50.000000 0.748417 0.481948 0.455630
-2.14000010 1.53999996 -1.27999997 139 80 146 0.000000 0.000000 0.000000 0.000000 0.000000 0.000000 50.000000 0.913313 0.174708 0.367882
-2.14000010 1.50999999 -1.28999996 139 80 146 0.000000 0.000000 0.000000 0.000000 0.000000 0.000000 50.000000 0.733795 0.475393 0.485332
-2.14000010 1.50999999 -1.28999996 139 80 146 0.000000 0.000000 0.000000 0.000000 0.000000 0.000000 50.000000 0.733795 0.475393 0.485332
-2.15000010 1.51999998 -1.26999998 139 80 146 0.000000 0.000000 0.000000 0.000000 0.000000 0.000000 50.000000 0.975939 -0.001166 0.218041
-2.18000007 1.49000001 -1.25999999 139 80 146 0.000000 0.000000 0.000000 0.000000 0.000000 0.000000 50.000000 0.744307 0.457146 0.486852
-2.17000008 1.48000002 -1.25999999 139 80 146 0.000000 0.000000 0.000000 0.000000 0.000000 0.000000 50.000000 0.658384 0.543883 0.520309
-2.14000010 1.44000006 -1.25999999 139 80 146 0.000000 0.000000 0.000000 0.000000 0.000000 0.000000 50.000000 0.884772 0.462276 -0.058985
-2.14000010 1.44000006 -1.26999998 139 80 146 0.000000 0.000000 0.000000 0.000000 0.000000 0.000000 50.000000 0.632657 0.744577 0.212958
-2.18000007 1.48000002 -1.25000000 139 80 146 0.000000 0.000000 0.000000 0.000000 0.000000 0.000000 50.000000 0.733135 0.562562 0.382149
-1.97000003 2.29999995 -0.97000003 139 80 146 0.000000 0.000000 0.000000 0.000000 0.000000 0.000000 31.000000 -0.650376 0.736478 0.186041
-1.05999994 2.01999998 -0.87000000 139 80 146 0.000000 0.000000 0.000000 0.000000 0.000000 0.000000 14.000000 0.884664 0.387695 0.258963
-1.00999999 2.00000000 -0.88000000 139 80 146 0.000000 0.000000 0.000000 0.000000 0.000000 0.000000 14.000000 0.712657 0.526602 0.463476
-1.00999999 2.00000000 -0.87000000 139 80 146 0.000000 0.000000 0.000000 0.000000 0.000000 0.000000 14.000000 0.767656 0.412350 0.490583
-1.01999998 1.99000001 -0.87000000 139 80 146 0.000000 0.000000 0.000000 0.000000 0.000000 0.000000 14.000000 0.743480 0.240491 0.624020
-1.25000000 1.98000002 -0.85000002 139 80 146 0.000000 0.000000 0.000000 0.000000 0.000000 0.000000 31.000000 0.537159 0.842520 0.040252
-1.25999999 1.99000001 -0.85000002 139 80 146 0.000000 0.000000 0.000000 0.000000 0.000000 0.000000 31.000000 0.734749 0.396140 0.550651
-1.27999997 1.95000005 -0.87000000 139 80 146 0.000000 0.000000 0.000000 0.000000 0.000000 0.000000 31.000000 0.767263 0.639622 -0.046802
-1.34000003 1.88000000 -0.87000000 139 80 146 0.000000 0.000000 0.000000 0.000000 0.000000 0.000000 31.000000 0.629275 0.511181 0.585412
-1.37000000 1.90999997 -0.88000000 139 80 146 0.000000 0.000000 0.000000 0.000000 0.000000 0.000000 31.000000 0.477605 0.581506 0.658593
-1.40999997 1.90999997 -0.88000000 139 80 146 0.000000 0.000000 0.000000 0.000000 0.000000 0.000000 31.000000 0.437399 0.580427 0.686867
-1.41999996 1.86000001 -0.82999998 139 80 146 0.000000 0.000000 0.000000 0.000000 0.000000 0.000000 31.000000 0.569727 0.489058 0.660480
-0.89999998 2.11999989 -1.16999996 139 80 146 0.000000 0.000000 0.000000 0.000000 0.000000 0.000000 15.000000 0.952686 0.060102 0.297954
-0.91000003 2.09999990 -1.20000005 139 80 146 0.000000 0.000000 0.000000 0.000000 0.000000 0.000000 15.000000 0.972434 0.191444 0.133123
-0.89999998 2.08999991 -1.21000004 139 80 146 0.000000 0.000000 0.000000 0.000000 0.000000 0.000000 15.000000 0.921813 0.046289 0.384860
-0.93000001 2.10999990 -1.19000006 139 80 146 0.000000 0.000000 0.000000 0.000000 0.000000 0.000000 15.000000 0.849628 0.388179 0.357000
-0.82999998 1.95000005 -1.20000005 139 80 146 0.000000 0.000000 0.000000 0.000000 0.000000 0.000000 15.000000 0.926060 -0.263977 0.269685
-0.81999999 1.91999996 -1.22000003 139 80 146 0.000000 0.000000 0.000000 0.000000 0.000000 0.000000 15.000000 0.950699 -0.309384 0.021294
-0.89999998 2.01999998 -1.17999995 139 80 146 0.000000 0.000000 0.000000 0.000000 0.000000 0.000000 15.000000 0.886812 0.320698 0.332743
-0.89999998 2.06999993 -1.21000004 139 80 146 0.000000 0.000000 0.000000 0.000000 0.000000 0.000000 15.000000 0.975218 0.167360 -0.144710
-0.87000000 1.91999996 -1.22000003 139 80 146 0.000000 0.000000 0.000000 0.000000 0.000000 0.000000 15.000000 0.932700 0.352590 -0.075840
-1.01999998 2.01999998 -0.92000002 139 80 146 0.000000 0.000000 0.000000 0.000000 0.000000 0.000000 14.000000 0.759507 0.434707 0.483919
-1.02999997 2.05999994 -0.94999999 139 80 146 0.000000 0.000000 0.000000 0.000000 0.000000 0.000000 14.000000 0.985868 0.159839 0.050168
-1.04999995 2.00999999 -0.98000002 139 80 146 0.000000 0.000000 0.000000 0.000000 0.000000 0.000000 14.000000 0.956342 0.274542 -0.100188
-1.08000004 2.01999998 -1.00999999 139 80 146 0.000000 0.000000 0.000000 0.000000 0.000000 0.000000 14.000000 0.932343 0.361521 -0.006342
-1.08000004 2.00999999 -0.98000002 139 80 146 0.000000 0.000000 0.000000 0.000000 0.000000 0.000000 14.000000 0.708015 0.555468 0.436084
-1.10000002 1.96000004 -0.92000002 139 80 146 0.000000 0.000000 0.000000 0.000000 0.000000 0.000000 14.000000 0.782410 0.276610 0.557961
-1.10000002 1.98000002 -0.93000001 139 80 146 0.000000 0.000000 0.000000 0.000000 0.000000 0.000000 14.000000 0.827533 0.155998 0.539308
-1.07000005 2.00000000 -0.94999999 139 80 146 0.000000 0.000000 0.000000 0.000000 0.000000 0.000000 14.000000 0.716497 0.390367 0.578139
-1.10000002 1.98000002 -0.93000001 139 80 146 0.000000 0.000000 0.000000 0.000000 0.000000 0.000000 14.000000 0.827533 0.155998 0.539308
-1.07000005 1.92999995 -0.94999999 139 80 146 0.000000 0.000000 0.000000 0.000000 0.000000 0.000000 14.000000 0.918525 0.311925 0.242928
-1.02999997 1.98000002 -0.97000003 139 80 146 0.000000 0.000000 0.000000 0.000000 0.000000 0.000000 14.000000 0.937233 0.029489 0.347456
-1.02999997 2.00000000 -0.97000003 139 80 146 0.000000 0.000000 0.000000 0.000000 0.000000 0.000000 14.000000 0.946229 -0.018849 0.322949
-0.92000002 2.08999991 -1.25999999 139 80 146 0.000000 0.000000 0.000000 0.000000 0.000000 0.000000 15.000000 0.836462 0.524460 0.158972
-0.82999998 2.00999999 -1.29999995 139 80 146 0.000000 0.000000 0.000000 0.000000 0.000000 0.000000 15.000000 0.994762 -0.074468 -0.070022
-0.82999998 1.98000002 -1.28999996 139 80 146 0.000000 0.000000 0.000000 0.000000 0.000000 0.000000 15.000000 0.917835 0.362340 0.162137
-0.82999998 1.95000005 -1.25000000 139 80 146 0.000000 0.000000 0.000000 0.000000 0.000000 0.000000 15.000000 0.968815 -0.165972 0.183985
-0.82999998 1.98000002 -1.25999999 139 80 146 0.000000 0.000000 0.000000 0.000000 0.000000 0.000000 15.000000 0.972717 0.166570 0.161484
-0.82999998 1.97000003 -1.29999995 139 80 146 0.000000 0.000000 0.000000 0.000000 0.000000 0.000000 15.000000 0.880664 0.334986 0.334986
-0.82999998 1.97000003 -1.27999997 139 80 146 0.000000 0.000000 0.000000 0.000000 0.000000 0.000000 15.000000 0.970810 0.125634 0.204314
-0.82999998 1.97000003 -1.26999998 139 80 146 0.000000 0.000000 0.000000 0.000000 0.000000 0.000000 15.000000 0.988599 -0.080535 0.127222
-0.87000000 2.06999993 -1.26999998 139 80 146 0.000000 0.000000 0.000000 0.000000 0.000000 0.000000 15.000000 0.855125 0.270764 0.442095
-0.91000003 2.01999998 -1.25999999 139 80 146 0.000000 0.000000 0.000000 0.000000 0.000000 0.000000 15.000000 0.992205 -0.034677 -0.119691
-0.92000002 2.01999998 -1.23000002 139 80 146 0.000000 0.000000 0.000000 0.000000 0.000000 0.000000 15.000000 0.960353 0.156765 0.230537
-0.92000002 2.02999997 -1.25000000 139 80 146 0.000000 0.000000 0.000000 0.000000 0.000000 0.000000 15.000000 0.865014 0.501084 0.025801
-0.91000003 2.01999998 -1.29999995 139 80 146 0.000000 0.000000 0.000000 0.000000 0.000000 0.000000 15.000000 0.956125 0.276329 0.097299
-0.89999998 2.00999999 -1.29999995 139 80 146 0.000000 0.000000 0.000000 0.000000 0.000000 0.000000 15.000000 0.864226 0.498431 -0.068412
-0.92000002 2.02999997 -1.27999997 139 80 146 0.000000 0.000000 0.000000 0.000000 0.000000 0.000000 15.000000 0.844574 0.533926 -0.040218
-0.91000003 2.01999998 -1.26999998 139 80 146 0.000000 0.000000 0.000000 0.000000 0.000000 0.000000 15.000000 0.992576 0.117233 -0.032379
-0.92000002 2.01999998 -1.29999995 139 80 146 0.000000 0.000000 0.000000 0.000000 0.000000 0.000000 15.000000 0.934570 0.355111 -0.021794
-0.91000003 2.00999999 -1.28999996 139 80 146 0.000000 0.000000 0.000000 0.000000 0.000000 0.000000 15.000000 0.976764 0.189411 0.100276
-0.92000002 2.03999996 -1.35000002 139 80 146 0.000000 0.000000 0.000000 0.000000 0.000000 0.000000 15.000000 0.971569 0.214927 -0.099294
-0.92000002 2.01999998 -1.36000001 139 80 146 0.000000 0.000000 0.000000 0.000000 0.000000 0.000000 15.000000 0.977557 0.190593 -0.089763
-0.92000002 2.04999995 -1.35000002 139 80 146 0.000000 0.000000 0.000000 0.000000 0.000000 0.000000 15.000000 0.898003 0.436095 -0.058418
-0.88000000 2.05999994 -1.37000000 139 80 146 0.000000 0.000000 0.000000 0.000000 0.000000 0.000000 15.000000 0.985018 0.161614 0.060163
-0.88999999 2.04999995 -1.32000005 139 80 146 0.000000 0.000000 0.000000 0.000000 0.000000 0.000000 15.000000 0.813893 0.229244 0.533877
-0.93000001 2.05999994 -1.35000002 139 80 146 0.000000 0.000000 0.000000 0.000000 0.000000 0.000000 15.000000 0.845836 0.524160 0.099088
-0.91000003 2.03999996 -1.36000001 139 80 146 0.000000 0.000000 0.000000 0.000000 0.000000 0.000000 15.000000 0.980259 0.071138 0.184477
-0.86000001 1.91999996 -1.25000000 139 80 146 0.000000 0.000000 0.000000 0.000000 0.000000 0.000000 15.000000 0.960304 -0.261667 -0.096675
-0.91000003 1.99000001 -1.25000000 139 80 146 0.000000 0.000000 0.000000 0.000000 0.000000 0.000000 15.000000 0.970813 0.091444 0.221721
-0.91000003 1.99000001 -1.24000001 139 80 146 0.000000 0.000000 0.000000 0.000000 0.000000 0.000000 15.000000 0.966149 -0.193750 0.170344
-0.91000003 1.99000001 -1.30999994 139 80 146 0.000000 0.000000 0.000000 0.000000 0.000000 0.000000 15.000000 0.980726 -0.192369 -0.034225
-0.93000001 1.91999996 -1.38999999 139 80 146 0.000000 0.000000 0.000000 0.000000 0.000000 0.000000 15.000000 0.953219 -0.230552 -0.195498
-0.93000001 1.91999996 -1.36000001 139 80 146 0.000000 0.000000 0.000000 0.000000 0.000000 0.000000 15.000000 0.918966 0.237292 0.314951
-0.92000002 2.00000000 -1.37000000 139 80 146 0.000000 0.000000 0.000000 0.000000 0.000000 0.000000 15.000000 0.982901 0.122711 -0.137290
