//X Y Z R G B PointSourceId ScanDirectionFlag NumberOfReturns ReturnNumber GpsTime Intensity Classification Nx Ny Nz
-0.80000001 -0.14000000 0.08000000 16 222 136 0.000000 0.000000 0.000000 0.000000 0.000000 0.000000 220.000000 0.103260 -0.014130 0.994554
-0.82999998 -0.11000000 0.07000000 16 222 136 0.000000 0.000000 0.000000 0.000000 0.000000 0.000000 220.000000 -0.020185 -0.222038 0.974829
-0.82999998 -0.11000000 0.07000000 16 222 136 0.000000 0.000000 0.000000 0.000000 0.000000 0.000000 220.000000 -0.020185 -0.222038 0.974829
-0.76999998 -0.10000000 0.05000000 16 222 136 0.000000 0.000000 0.000000 0.000000 0.000000 0.000000 220.000000 0.199222 -0.394081 0.897224
-0.79000002 -0.10000000 0.05000000 16 222 136 0.000000 0.000000 0.000000 0.000000 0.000000 0.000000 220.000000 0.101283 0.043407 0.993910
-0.76999998 -0.14000000 0.06000000 16 222 136 0.000000 0.000000 0.000000 0.000000 0.000000 0.000000 220.000000 0.557639 -0.150191 0.816383
-0.83999997 -0.09000000 -0.02000000 16 222 136 0.000000 0.000000 0.000000 0.000000 0.000000 0.000000 220.000000 0.099115 -0.256154 0.961541
-0.87000000 -0.01000000 0.13000000 16 222 136 0.000000 0.000000 0.000000 0.000000 0.000000 0.000000 220.000000 0.073476 -0.295193 0.952608
-0.86000001 -0.01000000 0.13000000 16 222 136 0.000000 0.000000 0.000000 0.000000 0.000000 0.000000 220.000000 0.131505 -0.274966 0.952418
-0.88000000 -0.01000000 0.10000000 16 222 136 0.000000 0.000000 0.000000 0.000000 0.000000 0.000000 220.000000 -0.053758 -0.187555 0.980782
-0.87000000 -0.02000000 0.13000000 16 222 136 0.000000 0.000000 0.000000 0.000000 0.000000 0.000000 220.000000 0.380550 -0.467257 0.798030
-0.85000002 -0.02000000 0.12000000 16 222 136 0.000000 0.000000 0.000000 0.000000 0.000000 0.000000 220.000000 0.093055 -0.533990 0.840354
-0.85000002 -0.04000000 0.11000000 16 222 136 0.000000 0.000000 0.000000 0.000000 0.000000 0.000000 220.000000 0.319922 -0.356311 0.877891
-0.85000002 -0.02000000 0.12000000 16 222 136 0.000000 0.000000 0.000000 0.000000 0.000000 0.000000 220.000000 0.093055 -0.533990 0.840354
-0.88000000 0.02000000 0.02000000 16 222 136 0.000000 0.000000 0.000000 0.000000 0.000000 0.000000 220.000000 0.265245 -0.035777 0.963517
-0.85000002 0.02000000 -0.02000000 16 222 136 0.000000 0.000000 0.000000 0.000000 0.000000 0.000000 220.000000 0.466065 0.088175 0.880346
-0.88000000 -0.03000000 0.04000000 16 222 136 0.000000 0.000000 0.000000 0.000000 0.000000 0.000000 220.000000 -0.078270 -0.054018 0.995468
-0.88000000 -0.02000000 0.00000000 16 222 136 0.000000 0.000000 0.000000 0.000000 0.000000 0.000000 220.000000 0.397215 -0.145598 0.906102
-0.88000000 -0.06000000 0.01000000 16 222 136 0.000000 0.000000 0.000000 0.000000 0.000000 0.000000 220.000000 0.198418 -0.071820 0.977483
-0.89999998 0.01000000 0.02000000 16 222 136 0.000000 0.000000 0.000000 0.000000 0.000000 0.000000 220.000000 0.221052 -0.510707 0.830852
-0.92000002 -0.06000000 0.06000000 16 222 136 0.000000 0.000000 0.000000 0.000000 0.000000 0.000000 220.000000 0.469603 -0.367027 0.802972
-0.87000000 -0.10000000 0.13000000 16 222 136 0.000000 0.000000 0.000000 0.000000 0.000000 0.000000 220.000000 0.080889 -0.420899 0.903494
-0.88999999 -0.09000000 0.11000000 16 222 136 0.000000 0.000000 0.000000 0.000000 0.000000 0.000000 220.000000 0.486487 -0.289389 0.824369
-0.87000000 -0.09000000 0.08000000 16 222 136 0.000000 0.000000 0.000000 0.000000 0.000000 0.000000 220.000000 0.392854 -0.392854 0.831463
-0.87000000 -0.09000000 0.08000000 16 222 136 0.000000 0.000000 0.000000 0.000000 0.000000 0.000000 220.000000 0.392854 -0.392854 0.831463
-0.87000000 -0.13000000 0.09000000 16 222 136 0.000000 0.000000 0.000000 0.000000 0.000000 0.000000 220.000000 0.340968 -0.471012 0.813566
-0.92000002 -0.14000000 0.07000000 16 222 136 0.000000 0.000000 0.000000 0.000000 0.000000 0.000000 220.000000 0.221827 -0.515556 0.827644
-0.88999999 -0.07000000 0.04000000 16 222 136 0.000000 0.000000 0.000000 0.000000 0.000000 0.000000 220.000000 0.028123 -0.453987 0.890564
-0.88999999 -0.07000000 0.04000000 16 222 136 0.000000 0.000000 0.000000 0.000000 0.000000 0.000000 220.000000 0.028123 -0.453987 0.890564
-0.88000000 -0.09000000 0.00000000 16 222 136 0.000000 0.000000 0.000000 0.000000 0.000000 0.000000 220.000000 0.059433 -0.274402 0.959777
-0.93000001 -0.10000000 0.04000000 16 222 136 0.000000 0.000000 0.000000 0.000000 0.000000 0.000000 220.000000 0.053350 -0.176648 0.982827
-0.92000002 -0.08000000 0.06000000 16 222 136 0.000000 0.000000 0.000000 0.000000 0.000000 0.000000 220.000000 0.436657 -0.345227 0.830752
-0.93000001 -0.09000000 0.01000000 16 222 136 0.000000 0.000000 0.000000 0.000000 0.000000 0.000000 220.000000 -0.016311 -0.319947 0.947295
-0.89999998 -0.13000000 0.02000000 16 222 136 0.000000 0.000000 0.000000 0.000000 0.000000 0.000000 220.000000 0.130378 -0.393938 0.909843
-0.89999998 -0.13000000 0.02000000 16 222 136 0.000000 0.000000 0.000000 0.000000 0.000000 0.000000 220.000000 0.130378 -0.393938 0.909843
-0.91000003 -0.13000000 -0.02000000 16 222 136 0.000000 0.000000 0.000000 0.000000 0.000000 0.000000 220.000000 0.054528 -0.043837 0.997549
-0.91000003 -0.13000000 -0.02000000 16 222 136 0.000000 0.000000 0.000000 0.000000 0.000000 0.000000 220.000000 0.054528 -0.043837 0.997549
-0.76999998 -0.02000000 -0.05000000 16 222 136 0.000000 0.000000 0.000000 0.000000 0.000000 0.000000 220.000000 0.534857 0.216088 0.816844
-0.79000002 -0.05000000 -0.03000000 16 222 136 0.000000 0.000000 0.000000 0.000000 0.000000 0.000000 220.000000 0.320151 -0.471553 0.821670
-0.77999997 -0.02000000 -0.09000000 16 222 136 0.000000 0.000000 0.000000 0.000000 0.000000 0.000000 220.000000 0.448519 -0.210104 0.868727
-0.81999999 0.02000000 -0.03000000 16 222 136 0.000000 0.000000 0.000000 0.000000 0.000000 0.000000 220.000000 0.564883 0.037659 0.824311
-0.81000000 -0.01000000 -0.03000000 16 222 136 0.000000 0.000000 0.000000 0.000000 0.000000 0.000000 220.000000 0.485918 0.233058 0.842359
-0.81000000 0.02000000 -0.03000000 16 222 136 0.000000 0.000000 0.000000 0.000000 0.000000 0.000000 220.000000 0.625522 -0.006904 0.780176
-0.83999997 0.02000000 -0.04000000 16 222 136 0.000000 0.000000 0.000000 0.000000 0.000000 0.000000 220.000000 0.392365 0.286321 0.874111
-0.81000000 -0.01000000 -0.09000000 16 222 136 0.000000 0.000000 0.000000 0.000000 0.000000 0.000000 220.000000 0.398987 -0.174287 0.900241
-0.76999998 0.02000000 -0.14000000 16 222 136 0.000000 0.000000 0.000000 0.000000 0.000000 0.000000 220.000000 0.447125 0.434118 0.782062
-0.79000002 0.01000000 -0.18000001 16 222 136 0.000000 0.000000 0.000000 0.000000 0.000000 0.000000 220.000000 0.220700 0.070279 0.972806
-0.76999998 0.02000000 -0.16000000 16 222 136 0.000000 0.000000 0.000000 0.000000 0.000000 0.000000 220.000000 0.364409 -0.021890 0.930982
-0.82999998 0.01000000 -0.19000000 16 222 136 0.000000 0.000000 0.000000 0.000000 0.000000 0.000000 220.000000 0.512662 0.116974 0.850585
-0.82999998 -0.05000000 -0.15000001 16 222 136 0.000000 0.000000 0.000000 0.000000 0.000000 0.000000 220.000000 0.022611 -0.222542 0.974661
-0.87000000 -0.06000000 -0.10000000 16 222 136 0.000000 0.000000 0.000000 0.000000 0.000000 0.000000 220.000000 0.494255 -0.368679 0.787266
-0.86000001 -0.03000000 -0.12000000 16 222 136 0.000000 0.000000 0.000000 0.000000 0.000000 0.000000 220.000000 0.082902 -0.122602 0.988987
-0.88000000 -0.05000000 -0.12000000 16 222 136 0.000000 0.000000 0.000000 0.000000 0.000000 0.000000 220.000000 0.489219 -0.336238 0.804741
-0.86000001 -0.03000000 -0.12000000 16 222 136 0.000000 0.000000 0.000000 0.000000 0.000000 0.000000 220.000000 0.082902 -0.122602 0.988987
-0.89999998 -0.10000000 -0.04000000 16 222 136 0.000000 0.000000 0.000000 0.000000 0.000000 0.000000 220.000000 0.334208 -0.434627 0.836304
-0.93000001 -0.14000000 -0.09000000 16 222 136 0.000000 0.000000 0.000000 0.000000 0.000000 0.000000 220.000000 0.308724 -0.239799 0.920427
-0.87000000 -0.11000000 -0.13000000 16 222 136 0.000000 0.000000 0.000000 0.000000 0.000000 0.000000 220.000000 -0.023584 -0.595161 0.803260
-0.88999999 -0.11000000 -0.12000000 16 222 136 0.000000 0.000000 0.000000 0.000000 0.000000 0.000000 220.000000 0.086213 -0.501731 0.860717
-0.93000001 -0.13000000 -0.13000000 16 222 136 0.000000 0.000000 0.000000 0.000000 0.000000 0.000000 220.000000 -0.067841 -0.368470 0.927161
-0.92000002 -0.11000000 -0.18000001 16 222 136 0.000000 0.000000 0.000000 0.000000 0.000000 0.000000 220.000000 -0.001355 -0.548745 0.835989
-0.93000001 -0.13000000 -0.19000000 16 222 136 0.000000 0.000000 0.000000 0.000000 0.000000 0.000000 220.000000 -0.195909 -0.322756 0.925985
-0.94000000 0.12000000 0.13000000 16 222 136 0.000000 0.000000 0.000000 0.000000 0.000000 0.000000 220.000000 0.215223 -0.423024 0.880187
-0.95999998 0.05000000 0.11000000 16 222 136 0.000000 0.000000 0.000000 0.000000 0.000000 0.000000 220.000000 0.453455 -0.401816 0.795564
-1.00999999 0.08000000 0.10000000 16 222 136 0.000000 0.000000 0.000000 0.000000 0.000000 0.000000 220.000000 0.362705 -0.016661 0.931755
-1.00999999 0.06000000 0.10000000 16 222 136 0.000000 0.000000 0.000000 0.000000 0.000000 0.000000 220.000000 0.517180 -0.215110 0.828404
-1.00999999 0.05000000 0.06000000 16 222 136 0.000000 0.000000 0.000000 0.000000 0.000000 0.000000 220.000000 0.452628 -0.174313 0.874496
-1.03999996 0.16000000 0.12000000 16 222 136 0.000000 0.000000 0.000000 0.000000 0.000000 0.000000 220.000000 0.341970 0.204609 0.917165
-1.05999994 0.14000000 0.12000000 16 222 136 0.000000 0.000000 0.000000 0.000000 0.000000 0.000000 220.000000 0.198977 -0.145060 0.969209
-1.05999994 0.15000001 0.12000000 16 222 136 0.000000 0.000000 0.000000 0.000000 0.000000 0.000000 220.000000 0.080535 -0.127222 0.988599
-1.05999994 0.14000000 0.12000000 16 222 136 0.000000 0.000000 0.000000 0.000000 0.000000 0.000000 220.000000 0.198977 -0.145060 0.969209
-1.10000002 0.16000000 0.13000000 16 222 136 0.000000 0.000000 0.000000 0.000000 0.000000 0.000000 220.000000 0.322898 -0.551015 0.769493
-1.04999995 0.18000001 0.05000000 16 222 136 0.000000 0.000000 0.000000 0.000000 0.000000 0.000000 220.000000 0.069233 -0.197981 0.977758
-1.07000005 0.15000001 0.03000000 16 222 136 0.000000 0.000000 0.000000 0.000000 0.000000 0.000000 220.000000 0.101395 -0.420858 0.901442
-1.07000005 0.14000000 0.02000000 16 222 136 0.000000 0.000000 0.000000 0.000000 0.000000 0.000000 220.000000 0.065555 -0.123060 0.990232
-1.10000002 0.15000001 -0.01000000 16 222 136 0.000000 0.000000 0.000000 0.000000 0.000000 0.000000 220.000000 0.456392 -0.321513 0.829660
-1.10000002 0.15000001 -0.01000000 16 222 136 0.000000 0.000000 0.000000 0.000000 0.000000 0.000000 220.000000 0.456392 -0.321513 0.829660
-1.03999996 0.09000000 0.11000000 16 222 136 0.000000 0.000000 0.000000 0.000000 0.000000 0.000000 220.000000 0.141655 -0.495063 0.857232
-1.04999995 0.10000000 0.12000000 16 222 136 0.000000 0.000000 0.000000 0.000000 0.000000 0.000000 220.000000 0.043313 -0.376693 0.925325
-1.05999994 0.11000000 0.14000000 16 222 136 0.000000 0.000000 0.000000 0.000000 0.000000 0.000000 220.000000 0.471893 -0.276947 0.837029
-1.04999995 0.05000000 0.11000000 16 222 136 0.000000 0.000000 0.000000 0.000000 0.000000 0.000000 220.000000 0.466256 -0.420768 0.778177
-1.03999996 0.04000000 0.11000000 16 222 136 0.000000 0.000000 0.000000 0.000000 0.000000 0.000000 220.000000 0.104031 -0.167673 0.980338
-1.05999994 0.05000000 0.11000000 16 222 136 0.000000 0.000000 0.000000 0.000000 0.000000 0.000000 220.000000 0.078577 -0.439755 0.894674
-1.03999996 0.04000000 0.11000000 16 222 136 0.000000 0.000000 0.000000 0.000000 0.000000 0.000000 220.000000 0.104031 -0.167673 0.980338
-1.05999994 0.06000000 0.12000000 16 222 136 0.000000 0.000000 0.000000 0.000000 0.000000 0.000000 220.000000 0.386749 -0.457359 0.800780
-1.05999994 0.06000000 0.14000000 16 222 136 0.000000 0.000000 0.000000 0.000000 0.000000 0.000000 220.000000 0.070663 -0.369313 0.926615
-1.04999995 0.03000000 0.09000000 16 222 136 0.000000 0.000000 0.000000 0.000000 0.000000 0.000000 220.000000 0.342948 -0.395710 0.851939
-1.07000005 0.05000000 0.12000000 16 222 136 0.000000 0.000000 0.000000 0.000000 0.000000 0.000000 220.000000 -0.035716 -0.262324 0.964319
-1.04999995 0.07000000 0.06000000 16 222 136 0.000000 0.000000 0.000000 0.000000 0.000000 0.000000 220.000000 0.296667 -0.196385 0.934570
-1.03999996 0.03000000 0.02000000 16 222 136 0.000000 0.000000 0.000000 0.000000 0.000000 0.000000 220.000000 0.088648 0.097858 0.991244
-1.04999995 0.06000000 0.02000000 16 222 136 0.000000 0.000000 0.000000 0.000000 0.000000 0.000000 220.000000 0.031392 0.005063 0.999494
-0.94999999 -0.06000000 0.09000000 16 222 136 0.000000 0.000000 0.000000 0.000000 0.000000 0.000000 220.000000 0.252882 -0.334740 0.907744
-0.99000001 0.00000000 0.09000000 16 222 136 0.000000 0.000000 0.000000 0.000000 0.000000 0.000000 220.000000 0.361183 -0.392454 0.845888
-1.00999999 -0.03000000 0.08000000 16 222 136 0.000000 0.000000 0.000000 0.000000 0.000000 0.000000 220.000000 0.246602 -0.476356 0.843962
-1.01999998 -0.03000000 0.10000000 16 222 136 0.000000 0.000000 0.000000 0.000000 0.000000 0.000000 220.000000 0.283456 -0.161394 0.945307
-0.99000001 -0.02000000 0.08000000 16 222 136 0.000000 0.000000 0.000000 0.000000 0.000000 0.000000 220.000000 0.046495 -0.280228 0.958807
-1.01999998 -0.02000000 0.09000000 16 222 136 0.000000 0.000000 0.000000 0.000000 0.000000 0.000000 220.000000 0.172392 -0.028925 0.984604
-0.94000000 -0.05000000 0.00000000 16 222 136 0.000000 0.000000 0.000000 0.000000 0.000000 0.000000 220.000000 0.472606 -0.127848 0.871951
-1.01999998 -0.01000000 0.05000000 16 222 136 0.000000 0.000000 0.000000 0.000000 0.000000 0.000000 220.000000 -0.037281 -0.217671 0.975310
-0.99000001 -0.04000000 0.05000000 16 222 136 0.000000 0.000000 0.000000 0.000000 0.000000 0.000000 220.000000 0.056751 -0.488617 0.870651
-1.01999998 -0.04000000 0.00000000 16 222 136 0.000000 0.000000 0.000000 0.000000 0.000000 0.000000 220.000000 0.048408 -0.057014 0.997199
-0.95999998 -0.10000000 0.04000000 16 222 136 0.000000 0.000000 0.000000 0.000000 0.000000 0.000000 220.000000 0.254481 -0.488912 0.834389
-0.94000000 -0.10000000 0.01000000 16 222 136 0.000000 0.000000 0.000000 0.000000 0.000000 0.000000 220.000000 0.316207 -0.192535 0.928947
-0.97000003 -0.10000000 0.01000000 16 222 136 0.000000 0.000000 0.000000 0.000000 0.000000 0.000000 220.000000 0.303023 -0.093137 0.948421
-0.94000000 -0.11000000 0.04000000 16 222 136 0.000000 0.000000 0.000000 0.000000 0.000000 0.000000 220.000000 -0.123051 -0.242216 0.962388
-1.01999998 -0.07000000 0.04000000 16 222 136 0.000000 0.000000 0.000000 0.000000 0.000000 0.000000 220.000000 -0.053003 -0.447129 0.892898
-0.98000002 -0.09000000 0.02000000 16 222 136 0.000000 0.000000 0.000000 0.000000 0.000000 0.000000 220.000000 0.272427 -0.460201 0.844984
-1.03999996 0.02000000 0.12000000 16 222 136 0.000000 0.000000 0.000000 0.000000 0.000000 0.000000 220.000000 -0.019714 -0.186703 0.982219
-1.05999994 0.01000000 0.11000000 16 222 136 0.000000 0.000000 0.000000 0.000000 0.000000 0.000000 220.000000 0.243865 -0.411428 0.878212
-1.02999997 0.02000000 0.10000000 16 222 136 0.000000 0.000000 0.000000 0.000000 0.000000 0.000000 220.000000 -0.067079 -0.340657 0.937792
-1.03999996 -0.03000000 0.07000000 16 222 136 0.000000 0.000000 0.000000 0.000000 0.000000 0.000000 220.000000 0.408873 -0.331140 0.850393
-1.08000004 0.00000000 0.07000000 16 222 136 0.000000 0.000000 0.000000 0.000000 0.000000 0.000000 220.000000 0.252919 -0.592238 0.765040
-1.08000004 0.01000000 0.07000000 16 222 136 0.000000 0.000000 0.000000 0.000000 0.000000 0.000000 220.000000 0.335376 -0.451891 0.826630
-1.03999996 -0.02000000 0.06000000 16 222 136 0.000000 0.000000 0.000000 0.000000 0.000000 0.000000 220.000000 0.169168 -0.475142 0.863494
-1.07000005 -0.01000000 0.05000000 16 222 136 0.000000 0.000000 0.000000 0.000000 0.000000 0.000000 220.000000 0.048188 -0.248354 0.967470
-1.07000005 0.00000000 0.06000000 16 222 136 0.000000 0.000000 0.000000 0.000000 0.000000 0.000000 220.000000 0.254287 -0.547575 0.797182
-1.09000003 -0.05000000 0.00000000 16 222 136 0.000000 0.000000 0.000000 0.000000 0.000000 0.000000 220.000000 -0.049923 -0.433112 0.899956
-1.02999997 -0.07000000 0.06000000 16 222 136 0.000000 0.000000 0.000000 0.000000 0.000000 0.000000 220.000000 0.320335 -0.234146 0.917911
-1.05999994 -0.12000000 -0.02000000 16 222 136 0.000000 0.000000 0.000000 0.000000 0.000000 0.000000 220.000000 -0.113954 -0.229188 0.966689
-1.07000005 -0.08000000 0.01000000 16 222 136 0.000000 0.000000 0.000000 0.000000 0.000000 0.000000 220.000000 -0.049538 -0.295955 0.953916
-1.10000002 -0.13000000 -0.04000000 16 222 136 0.000000 0.000000 0.000000 0.000000 0.000000 0.000000 220.000000 -0.059698 -0.285786 0.956432
-1.02999997 -0.14000000 -0.19000000 16 222 136 0.000000 0.000000 0.000000 0.000000 0.000000 0.000000 220.000000 -0.177972 -0.332121 0.926295
-0.92000002 -0.20999999 0.33000001 16 222 136 0.000000 0.000000 0.000000 0.000000 0.000000 0.000000 220.000000 0.249075 -0.571775 0.781687
-0.81999999 -0.23000000 0.28000000 16 222 136 0.000000 0.000000 0.000000 0.000000 0.000000 0.000000 220.000000 0.117172 -0.439044 0.890793
-0.81999999 -0.20000000 0.30000001 16 222 136 0.000000 0.000000 0.000000 0.000000 0.000000 0.000000 220.000000 0.246492 -0.440056 0.863477
-0.81999999 -0.22000000 0.25999999 16 222 136 0.000000 0.000000 0.000000 0.000000 0.000000 0.000000 220.000000 0.050473 -0.456981 0.888043
-0.79000002 -0.18000001 0.16000000 16 222 136 0.000000 0.000000 0.000000 0.000000 0.000000 0.000000 220.000000 -0.030207 -0.395324 0.918045
-0.77999997 -0.23000000 0.15000001 16 222 136 0.000000 0.000000 0.000000 0.000000 0.000000 0.000000 220.000000 0.153229 -0.551920 0.819698
-0.76999998 -0.23000000 0.18000001 16 222 136 0.000000 0.000000 0.000000 0.000000 0.000000 0.000000 220.000000 0.188523 -0.523339 0.831009
-0.77999997 -0.22000000 0.15000001 16 222 136 0.000000 0.000000 0.000000 0.000000 0.000000 0.000000 220.000000 0.101589 -0.505085 0.857070
-0.83999997 -0.17000000 0.20999999 16 222 136 0.000000 0.000000 0.000000 0.000000 0.000000 0.000000 220.000000 0.501483 -0.262386 0.824420
-0.83999997 -0.17000000 0.20999999 16 222 136 0.000000 0.000000 0.000000 0.000000 0.000000 0.000000 220.000000 0.501483 -0.262386 0.824420
-0.83999997 -0.17000000 0.20999999 16 222 136 0.000000 0.000000 0.000000 0.000000 0.000000 0.000000 220.000000 0.501483 -0.262386 0.824420
-0.80000001 -0.27000001 0.28999999 16 222 136 0.000000 0.000000 0.000000 0.000000 0.000000 0.000000 220.000000 0.014806 -0.491293 0.870868
-0.79000002 -0.30000001 0.28000000 16 222 136 0.000000 0.000000 0.000000 0.000000 0.000000 0.000000 220.000000 0.333747 -0.355083 0.873229
-0.79000002 -0.30000001 0.25000000 16 222 136 0.000000 0.000000 0.000000 0.000000 0.000000 0.000000 220.000000 0.062920 -0.515942 0.854310
-0.76999998 -0.28999999 0.18000001 16 222 136 0.000000 0.000000 0.000000 0.000000 0.000000 0.000000 220.000000 0.226015 -0.621931 0.749746
-0.88000000 -0.20000000 0.25000000 16 222 136 0.000000 0.000000 0.000000 0.000000 0.000000 0.000000 220.000000 0.426033 -0.242372 0.871637
-0.88000000 -0.20000000 0.25000000 16 222 136 0.000000 0.000000 0.000000 0.000000 0.000000 0.000000 220.000000 0.426033 -0.242372 0.871637
-0.88000000 -0.20000000 0.22000000 16 222 136 0.000000 0.000000 0.000000 0.000000 0.000000 0.000000 220.000000 0.337020 -0.269322 0.902155
-0.93000001 -0.22000000 0.19000000 16 222 136 0.000000 0.000000 0.000000 0.000000 0.000000 0.000000 220.000000 0.156473 -0.126903 0.979496
-0.93000001 -0.22000000 0.19000000 16 222 136 0.000000 0.000000 0.000000 0.000000 0.000000 0.000000 220.000000 0.156473 -0.126903 0.979496
-0.76999998 -0.34000000 0.25999999 16 222 136 0.000000 0.000000 0.000000 0.000000 0.000000 0.000000 220.000000 0.260517 -0.592085 0.762605
-0.77999997 -0.37000000 0.23999999 16 222 136 0.000000 0.000000 0.000000 0.000000 0.000000 0.000000 220.000000 0.161599 -0.599578 0.783831
-0.77999997 -0.40000001 0.23999999 16 222 136 0.000000 0.000000 0.000000 0.000000 0.000000 0.000000 220.000000 0.071435 -0.502845 0.861420
-0.83999997 -0.38000000 0.23999999 16 222 136 0.000000 0.000000 0.000000 0.000000 0.000000 0.000000 220.000000 0.379647 -0.348655 0.856917
-0.81000000 -0.36000001 0.22000000 16 222 136 0.000000 0.000000 0.000000 0.000000 0.000000 0.000000 220.000000 0.330885 -0.576224 0.747316
-0.83999997 -0.38999999 0.17000000 16 222 136 0.000000 0.000000 0.000000 0.000000 0.000000 0.000000 220.000000 0.242697 -0.599696 0.762537
-0.82999998 -0.38999999 0.19000000 16 222 136 0.000000 0.000000 0.000000 0.000000 0.000000 0.000000 220.000000 0.247664 -0.225527 0.942231
-0.82999998 -0.38999999 0.19000000 16 222 136 0.000000 0.000000 0.000000 0.000000 0.000000 0.000000 220.000000 0.247664 -0.225527 0.942231
-0.83999997 -0.38999999 0.17000000 16 222 136 0.000000 0.000000 0.000000 0.000000 0.000000 0.000000 220.000000 0.242697 -0.599696 0.762537
-0.81000000 -0.41999999 0.28999999 16 222 136 0.000000 0.000000 0.000000 0.000000 0.000000 0.000000 220.000000 -0.031793 -0.551546 0.833539
-0.86000001 -0.44000000 0.25000000 16 222 136 0.000000 0.000000 0.000000 0.000000 0.000000 0.000000 220.000000 -0.038195 -0.737027 0.674783
-0.86000001 -0.44000000 0.25000000 16 222 136 0.000000 0.000000 0.000000 0.000000 0.000000 0.000000 220.000000 -0.038195 -0.737027 0.674783
-0.85000002 -0.41000000 0.20000000 16 222 136 0.000000 0.000000 0.000000 0.000000 0.000000 0.000000 220.000000 0.076814 -0.481835 0.872889
-0.87000000 -0.44999999 0.15000001 16 222 136 0.000000 0.000000 0.000000 0.000000 0.000000 0.000000 220.000000 0.061424 -0.438160 0.896796
-0.99000001 -0.23000000 0.17000000 16 222 136 0.000000 0.000000 0.000000 0.000000 0.000000 0.000000 220.000000 0.218342 -0.178643 0.959382
-1.00999999 -0.31000000 0.25999999 16 222 136 0.000000 0.000000 0.000000 0.000000 0.000000 0.000000 220.000000 0.274820 -0.376938 0.884529
-1.00000000 -0.30000001 0.25999999 16 222 136 0.000000 0.000000 0.000000 0.000000 0.000000 0.000000 220.000000 0.070448 -0.221231 0.972674
-0.95999998 -0.23999999 0.18000001 16 222 136 0.000000 0.000000 0.000000 0.000000 0.000000 0.000000 220.000000 0.028991 -0.172786 0.984533
-0.95999998 -0.27000001 0.16000000 16 222 136 0.000000 0.000000 0.000000 0.000000 0.000000 0.000000 220.000000 0.287382 -0.470686 0.834186
-0.97000003 -0.28999999 0.18000001 16 222 136 0.000000 0.000000 0.000000 0.000000 0.000000 0.000000 220.000000 0.121405 -0.342390 0.931681
-0.98000002 -0.34000000 0.34000000 16 222 136 0.000000 0.000000 0.000000 0.000000 0.000000 0.000000 220.000000 0.180151 -0.228192 0.956804
-1.00000000 -0.34000000 0.34000000 16 222 136 0.000000 0.000000 0.000000 0.000000 0.000000 0.000000 220.000000 0.066761 -0.331187 0.941200
-1.00000000 -0.33000001 0.28999999 16 222 136 0.000000 0.000000 0.000000 0.000000 0.000000 0.000000 220.000000 0.034867 -0.573207 0.818668
-1.00999999 -0.33000001 0.28999999 16 222 136 0.000000 0.000000 0.000000 0.000000 0.000000 0.000000 220.000000 -0.052921 -0.742324 0.667948
-0.98000002 -0.36000001 0.25000000 16 222 136 0.000000 0.000000 0.000000 0.000000 0.000000 0.000000 220.000000 0.029208 -0.588334 0.808090
-0.99000001 -0.38000000 0.28999999 16 222 136 0.000000 0.000000 0.000000 0.000000 0.000000 0.000000 220.000000 0.089032 0.737068 -0.669929
-0.94999999 -0.36000001 0.16000000 16 222 136 0.000000 0.000000 0.000000 0.000000 0.000000 0.000000 220.000000 0.243119 -0.398238 0.884477
-0.94000000 -0.40000001 0.23000000 16 222 136 0.000000 0.000000 0.000000 0.000000 0.000000 0.000000 220.000000 0.123646 -0.707614 0.695697
-0.95999998 -0.37000000 0.20999999 16 222 136 0.000000 0.000000 0.000000 0.000000 0.000000 0.000000 220.000000 0.260164 -0.404532 0.876737
-0.94999999 -0.41999999 0.28000000 16 222 136 0.000000 0.000000 0.000000 0.000000 0.000000 0.000000 220.000000 0.226002 -0.394396 0.890716
-0.94999999 -0.41999999 0.28000000 16 222 136 0.000000 0.000000 0.000000 0.000000 0.000000 0.000000 220.000000 0.226002 -0.394396 0.890716
-0.95999998 -0.41000000 0.25000000 16 222 136 0.000000 0.000000 0.000000 0.000000 0.000000 0.000000 220.000000 0.205922 -0.535398 0.819113
-0.94000000 -0.44999999 0.28000000 16 222 136 0.000000 0.000000 0.000000 0.000000 0.000000 0.000000 220.000000 -0.142356 -0.630860 0.762726
-0.79000002 -0.15000001 0.14000000 16 222 136 0.000000 0.000000 0.000000 0.000000 0.000000 0.000000 220.000000 0.378093 -0.438716 0.815214
-0.76999998 -0.19000000 0.13000000 16 222 136 0.000000 0.000000 0.000000 0.000000 0.000000 0.000000 220.000000 0.098109 -0.407638 0.907858
-0.76999998 -0.30000001 0.02000000 16 222 136 0.000000 0.000000 0.000000 0.000000 0.000000 0.000000 220.000000 0.209600 -0.302443 0.929837
-0.77999997 -0.28999999 0.00000000 16 222 136 0.000000 0.000000 0.000000 0.000000 0.000000 0.000000 220.000000 0.119356 -0.358067 0.926036
-0.76999998 -0.31000000 0.00000000 16 222 136 0.000000 0.000000 0.000000 0.000000 0.000000 0.000000 220.000000 -0.109926 -0.486816 0.866560
-0.76999998 -0.31000000 0.00000000 16 222 136 0.000000 0.000000 0.000000 0.000000 0.000000 0.000000 220.000000 -0.109926 -0.486816 0.866560
-0.76999998 -0.31000000 0.00000000 16 222 136 0.000000 0.000000 0.000000 0.000000 0.000000 0.000000 220.000000 -0.109926 -0.486816 0.866560
-0.93000001 -0.20000000 0.07000000 16 222 136 0.000000 0.000000 0.000000 0.000000 0.000000 0.000000 220.000000 0.117235 -0.169066 0.978607
-0.93000001 -0.20000000 0.07000000 16 222 136 0.000000 0.000000 0.000000 0.000000 0.000000 0.000000 220.000000 0.117235 -0.169066 0.978607
-0.88999999 -0.19000000 0.01000000 16 222 136 0.000000 0.000000 0.000000 0.000000 0.000000 0.000000 220.000000 -0.051589 -0.525654 0.849133
-0.89999998 -0.15000001 0.02000000 16 222 136 0.000000 0.000000 0.000000 0.000000 0.000000 0.000000 220.000000 0.392728 -0.470303 0.790304
-0.89999998 -0.15000001 0.02000000 16 222 136 0.000000 0.000000 0.000000 0.000000 0.000000 0.000000 220.000000 0.392728 -0.470303 0.790304
-0.88999999 -0.23999999 0.09000000 16 222 136 0.000000 0.000000 0.000000 0.000000 0.000000 0.000000 220.000000 0.098826 -0.304383 0.947409
-0.86000001 -0.30000001 0.01000000 16 222 136 0.000000 0.000000 0.000000 0.000000 0.000000 0.000000 220.000000 0.119555 -0.491184 0.862812
-0.79000002 -0.25000000 -0.15000001 16 222 136 0.000000 0.000000 0.000000 0.000000 0.000000 0.000000 220.000000 0.106506 -0.470048 0.876192
-0.79000002 -0.25000000 -0.15000001 16 222 136 0.000000 0.000000 0.000000 0.000000 0.000000 0.000000 220.000000 0.106506 -0.470048 0.876192
-0.77999997 -0.27000001 -0.12000000 16 222 136 0.000000 0.000000 0.000000 0.000000 0.000000 0.000000 220.000000 0.046802 -0.639622 0.767263
-0.79000002 -0.25000000 -0.16000000 16 222 136 0.000000 0.000000 0.000000 0.000000 0.000000 0.000000 220.000000 0.227443 -0.380050 0.896566
-0.93000001 -0.19000000 -0.08000000 16 222 136 0.000000 0.000000 0.000000 0.000000 0.000000 0.000000 220.000000 0.159421 -0.543818 0.823922
-0.88000000 -0.23000000 -0.16000000 16 222 136 0.000000 0.000000 0.000000 0.000000 0.000000 0.000000 220.000000 -0.129420 -0.377128 0.917074
-0.91000003 -0.16000000 -0.17000000 16 222 136 0.000000 0.000000 0.000000 0.000000 0.000000 0.000000 220.000000 0.021774 -0.357349 0.933717
-0.86000001 -0.30000001 -0.05000000 16 222 136 0.000000 0.000000 0.000000 0.000000 0.000000 0.000000 220.000000 0.020338 -0.080282 0.996565
-0.86000001 -0.30000001 -0.05000000 16 222 136 0.000000 0.000000 0.000000 0.000000 0.000000 0.000000 220.000000 0.020338 -0.080282 0.996565
-0.86000001 -0.30000001 -0.05000000 16 222 136 0.000000 0.000000 0.000000 0.000000 0.000000 0.000000 220.000000 0.020338 -0.080282 0.996565
-0.86000001 -0.30000001 -0.05000000 16 222 136 0.000000 0.000000 0.000000 0.000000 0.000000 0.000000 220.000000 0.020338 -0.080282 0.996565
-0.86000001 -0.27000001 -0.14000000 16 222 136 0.000000 0.000000 0.000000 0.000000 0.000000 0.000000 220.000000 0.195222 -0.622559 0.757831
-0.80000001 -0.33000001 0.09000000 16 222 136 0.000000 0.000000 0.000000 0.000000 0.000000 0.000000 220.000000 0.334608 -0.380867 0.861962
-0.82999998 -0.36000001 0.08000000 16 222 136 0.000000 0.000000 0.000000 0.000000 0.000000 0.000000 220.000000 0.205598 -0.194986 0.959015
-0.76999998 -0.34999999 0.05000000 16 222 136 0.000000 0.000000 0.000000 0.000000 0.000000 0.000000 220.000000 -0.006886 -0.621147 0.783664
-0.76999998 -0.31999999 0.00000000 16 222 136 0.000000 0.000000 0.000000 0.000000 0.000000 0.000000 220.000000 0.049066 -0.391203 0.918995
-0.88999999 -0.40000001 0.13000000 16 222 136 0.000000 0.000000 0.000000 0.000000 0.000000 0.000000 220.000000 -0.034374 -0.523864 0.851108
-0.92000002 -0.34000000 0.10000000 16 222 136 0.000000 0.000000 0.000000 0.000000 0.000000 0.000000 220.000000 0.029034 -0.074197 0.996821
-0.89999998 -0.36000001 0.09000000 16 222 136 0.000000 0.000000 0.000000 0.000000 0.000000 0.000000 220.000000 0.223235 -0.484436 0.845865
-0.89999998 -0.37000000 0.12000000 16 222 136 0.000000 0.000000 0.000000 0.000000 0.000000 0.000000 220.000000 0.106485 -0.475632 0.873175
-0.89999998 -0.37000000 0.12000000 16 222 136 0.000000 0.000000 0.000000 0.000000 0.000000 0.000000 220.000000 0.106485 -0.475632 0.873175
-0.89999998 -0.37000000 0.12000000 16 222 136 0.000000 0.000000 0.000000 0.000000 0.000000 0.000000 220.000000 0.106485 -0.475632 0.873175
-0.86000001 -0.34999999 0.05000000 16 222 136 0.000000 0.000000 0.000000 0.000000 0.000000 0.000000 220.000000 0.025913 -0.136325 0.990325
-0.88000000 -0.34999999 0.03000000 16 222 136 0.000000 0.000000 0.000000 0.000000 0.000000 0.000000 220.000000 0.091911 -0.399194 0.912248
-0.81999999 -0.33000001 -0.03000000 16 222 136 0.000000 0.000000 0.000000 0.000000 0.000000 0.000000 220.000000 0.038814 -0.426958 0.903438
-0.94999999 -0.18000001 0.07000000 16 222 136 0.000000 0.000000 0.000000 0.000000 0.000000 0.000000 220.000000 0.156565 -0.417985 0.894861
-0.94000000 -0.23000000 0.14000000 16 222 136 0.000000 0.000000 0.000000 0.000000 0.000000 0.000000 220.000000 0.181122 -0.163138 0.969836
-0.94999999 -0.23000000 0.05000000 16 222 136 0.000000 0.000000 0.000000 0.000000 0.000000 0.000000 220.000000 0.223062 -0.644229 0.731582
-0.99000001 -0.17000000 -0.02000000 16 222 136 0.000000 0.000000 0.000000 0.000000 0.000000 0.000000 220.000000 -0.069090 -0.319380 0.945105
-0.94000000 -0.15000001 -0.05000000 16 222 136 0.000000 0.000000 0.000000 0.000000 0.000000 0.000000 220.000000 0.028718 -0.518300 0.854716
-0.94000000 -0.23000000 -0.07000000 16 222 136 0.000000 0.000000 0.000000 0.000000 0.000000 0.000000 220.000000 0.118223 -0.553166 0.824640
-1.01999998 -0.16000000 -0.03000000 16 222 136 0.000000 0.000000 0.000000 0.000000 0.000000 0.000000 220.000000 -0.097560 -0.394361 0.913762
-1.01999998 -0.15000001 -0.03000000 16 222 136 0.000000 0.000000 0.000000 0.000000 0.000000 0.000000 220.000000 0.272904 -0.566314 0.777696
-0.99000001 -0.19000000 -0.06000000 16 222 136 0.000000 0.000000 0.000000 0.000000 0.000000 0.000000 220.000000 0.089317 -0.337271 0.937161
-0.99000001 -0.19000000 -0.06000000 16 222 136 0.000000 0.000000 0.000000 0.000000 0.000000 0.000000 220.000000 0.089317 -0.337271 0.937161
-1.00999999 -0.16000000 -0.16000000 16 222 136 0.000000 0.000000 0.000000 0.000000 0.000000 0.000000 220.000000 0.132927 -0.521483 0.842844
-1.00999999 -0.23999999 -0.15000001 16 222 136 0.000000 0.000000 0.000000 0.000000 0.000000 0.000000 220.000000 -0.072779 -0.575098 0.814841
-1.08000004 -0.15000001 -0.07000000 16 222 136 0.000000 0.000000 0.000000 0.000000 0.000000 0.000000 220.000000 0.169356 -0.547033 0.819801
-1.12000000 0.17000000 0.02000000 16 222 136 0.000000 0.000000 0.000000 0.000000 0.000000 0.000000 220.000000 0.445808 -0.093634 0.890218
-1.12000000 0.15000001 0.03000000 16 222 136 0.000000 0.000000 0.000000 0.000000 0.000000 0.000000 220.000000 0.062380 -0.286438 0.956066
-1.11000001 0.15000001 0.00000000 16 222 136 0.000000 0.000000 0.000000 0.000000 0.000000 0.000000 220.000000 0.390301 -0.046307 0.919522
-1.11000001 0.09000000 0.11000000 16 222 136 0.000000 0.000000 0.000000 0.000000 0.000000 0.000000 220.000000 0.348911 -0.437323 0.828861
-1.13999999 0.07000000 0.13000000 16 222 136 0.000000 0.000000 0.000000 0.000000 0.000000 0.000000 220.000000 0.174270 0.021928 0.984454
-1.12000000 0.07000000 0.11000000 16 222 136 0.000000 0.000000 0.000000 0.000000 0.000000 0.000000 220.000000 0.182790 -0.658966 0.729624
-1.13000000 0.05000000 0.12000000 16 222 136 0.000000 0.000000 0.000000 0.000000 0.000000 0.000000 220.000000 -0.001089 -0.123096 0.992394
-1.13000000 0.08000000 0.01000000 16 222 136 0.000000 0.000000 0.000000 0.000000 0.000000 0.000000 220.000000 0.263491 -0.579049 0.771540
-1.14999998 0.09000000 0.03000000 16 222 136 0.000000 0.000000 0.000000 0.000000 0.000000 0.000000 220.000000 0.083523 -0.063478 0.994482
-1.17999995 0.03000000 0.04000000 16 222 136 0.000000 0.000000 0.000000 0.000000 0.000000 0.000000 220.000000 0.122675 -0.319496 0.939613
-1.14999998 0.05000000 0.06000000 16 222 136 0.000000 0.000000 0.000000 0.000000 0.000000 0.000000 220.000000 0.190794 -0.503276 0.842799
-1.26999998 0.14000000 0.08000000 16 222 136 0.000000 0.000000 0.000000 0.000000 0.000000 0.000000 220.000000 -0.024017 -0.158971 0.986991
-1.23000002 0.07000000 0.09000000 16 222 136 0.000000 0.000000 0.000000 0.000000 0.000000 0.000000 220.000000 0.155253 -0.215267 0.964135
-1.25999999 0.11000000 0.08000000 16 222 136 0.000000 0.000000 0.000000 0.000000 0.000000 0.000000 220.000000 0.216344 -0.249416 0.943921
-1.25000000 0.08000000 0.08000000 16 222 136 0.000000 0.000000 0.000000 0.000000 0.000000 0.000000 220.000000 0.057719 -0.401347 0.914105
-1.21000004 0.04000000 0.05000000 16 222 136 0.000000 0.000000 0.000000 0.000000 0.000000 0.000000 220.000000 0.097176 -0.390072 0.915642
-1.25999999 0.10000000 0.05000000 16 222 136 0.000000 0.000000 0.000000 0.000000 0.000000 0.000000 220.000000 0.173330 -0.391067 0.903894
-1.25999999 0.10000000 0.05000000 16 222 136 0.000000 0.000000 0.000000 0.000000 0.000000 0.000000 220.000000 0.173330 -0.391067 0.903894
-1.26999998 0.04000000 0.06000000 16 222 136 0.000000 0.000000 0.000000 0.000000 0.000000 0.000000 220.000000 0.026427 -0.310827 0.950099
-1.25000000 0.04000000 0.04000000 16 222 136 0.000000 0.000000 0.000000 0.000000 0.000000 0.000000 220.000000 -0.077129 -0.251618 0.964748
-1.13000000 0.00000000 0.03000000 16 222 136 0.000000 0.000000 0.000000 0.000000 0.000000 0.000000 220.000000 -0.043753 -0.050156 0.997783
-1.12000000 0.00000000 0.05000000 16 222 136 0.000000 0.000000 0.000000 0.000000 0.000000 0.000000 220.000000 0.154019 -0.129376 0.979561
-1.12000000 0.01000000 0.05000000 16 222 136 0.000000 0.000000 0.000000 0.000000 0.000000 0.000000 220.000000 -0.013877 -0.334305 0.942363
-1.17999995 -0.01000000 0.05000000 16 222 136 0.000000 0.000000 0.000000 0.000000 0.000000 0.000000 220.000000 0.150341 -0.375150 0.914691
-1.16999996 0.01000000 0.05000000 16 222 136 0.000000 0.000000 0.000000 0.000000 0.000000 0.000000 220.000000 0.252485 -0.581814 0.773139
-1.16999996 0.01000000 0.05000000 16 222 136 0.000000 0.000000 0.000000 0.000000 0.000000 0.000000 220.000000 0.252485 -0.581814 0.773139
-1.19000006 -0.05000000 0.04000000 16 222 136 0.000000 0.000000 0.000000 0.000000 0.000000 0.000000 220.000000 0.001313 -0.452981 0.891519
-1.11000001 -0.10000000 -0.01000000 16 222 136 0.000000 0.000000 0.000000 0.000000 0.000000 0.000000 220.000000 0.173266 -0.385194 0.906424
-1.21000004 0.01000000 0.05000000 16 222 136 0.000000 0.000000 0.000000 0.000000 0.000000 0.000000 220.000000 -0.021497 -0.327513 0.944602
-1.21000004 0.02000000 0.02000000 16 222 136 0.000000 0.000000 0.000000 0.000000 0.000000 0.000000 220.000000 0.040575 -0.370408 0.927983
-1.22000003 0.01000000 0.01000000 16 222 136 0.000000 0.000000 0.000000 0.000000 0.000000 0.000000 220.000000 0.001223 -0.297091 0.954848
-1.20000005 -0.01000000 -0.01000000 16 222 136 0.000000 0.000000 0.000000 0.000000 0.000000 0.000000 220.000000 0.164440 -0.583837 0.795044
-1.20000005 -0.02000000 0.03000000 16 222 136 0.000000 0.000000 0.000000 0.000000 0.000000 0.000000 220.000000 0.214866 -0.582766 0.783720
-1.24000001 0.00000000 0.02000000 16 222 136 0.000000 0.000000 0.000000 0.000000 0.000000 0.000000 220.000000 -0.014346 -0.410810 0.911608
-1.12000000 -0.12000000 -0.04000000 16 222 136 0.000000 0.000000 0.000000 0.000000 0.000000 0.000000 220.000000 -0.006604 -0.453006 0.891483
-1.29999995 0.14000000 0.08000000 16 222 136 0.000000 0.000000 0.000000 0.000000 0.000000 0.000000 220.000000 0.171359 -0.289254 0.941790
-1.29999995 0.11000000 0.07000000 16 222 136 0.000000 0.000000 0.000000 0.000000 0.000000 0.000000 220.000000 0.011352 -0.341822 0.939696
-1.30999994 0.03000000 0.03000000 16 222 136 0.000000 0.000000 0.000000 0.000000 0.000000 0.000000 220.000000 0.016499 -0.346482 0.937912
-0.66000003 0.85000002 -0.23000000 16 222 136 0.000000 0.000000 0.000000 0.000000 0.000000 0.000000 220.000000 0.671194 0.735535 0.092125
-0.69999999 0.81000000 -0.27000001 16 222 136 0.000000 0.000000 0.000000 0.000000 0.000000 0.000000 220.000000 0.658293 0.744093 0.113907
-0.73000002 0.75000000 -0.25999999 16 222 136 0.000000 0.000000 0.000000 0.000000 0.000000 0.000000 220.000000 0.883928 0.465725 -0.042092
-0.73000002 0.20000000 -0.28999999 16 222 136 0.000000 0.000000 0.000000 0.000000 0.000000 0.000000 220.000000 0.711499 0.272184 0.647831
-0.63000000 0.04000000 -0.28000000 16 222 136 0.000000 0.000000 0.000000 0.000000 0.000000 0.000000 220.000000 0.562573 0.327227 0.759232
-0.67000002 0.03000000 -0.25999999 16 222 136 0.000000 0.000000 0.000000 0.000000 0.000000 0.000000 220.000000 0.538984 0.626844 0.562639
-0.64999998 0.03000000 -0.27000001 16 222 136 0.000000 0.000000 0.000000 0.000000 0.000000 0.000000 220.000000 0.589980 0.204876 0.780992
-0.67000002 0.05000000 -0.28000000 16 222 136 0.000000 0.000000 0.000000 0.000000 0.000000 0.000000 220.000000 0.391604 0.314819 0.864601
-0.63000000 0.09000000 -0.33000001 16 222 136 0.000000 0.000000 0.000000 0.000000 0.000000 0.000000 220.000000 0.556637 0.389153 0.733972
-0.62000000 0.03000000 -0.30000001 16 222 136 0.000000 0.000000 0.000000 0.000000 0.000000 0.000000 220.000000 0.626274 0.612842 0.481878
-0.62000000 0.05000000 -0.33000001 16 222 136 0.000000 0.000000 0.000000 0.000000 0.000000 0.000000 220.000000 0.648993 0.747916 0.139391
-0.63000000 0.06000000 -0.34000000 16 222 136 0.000000 0.000000 0.000000 0.000000 0.000000 0.000000 220.000000 0.697122 0.703145 0.140027
-0.66000003 0.07000000 -0.30000001 16 222 136 0.000000 0.000000 0.000000 0.000000 0.000000 0.000000 220.000000 0.770372 0.101249 0.629504
-0.66000003 0.09000000 -0.33000001 16 222 136 0.000000 0.000000 0.000000 0.000000 0.000000 0.000000 220.000000 0.887596 0.456831 0.058990
-0.66000003 0.09000000 -0.33000001 16 222 136 0.000000 0.000000 0.000000 0.000000 0.000000 0.000000 220.000000 0.887596 0.456831 0.058990
-0.63999999 0.03000000 -0.31999999 16 222 136 0.000000 0.000000 0.000000 0.000000 0.000000 0.000000 220.000000 0.619195 0.568580 0.541585
-0.63999999 0.03000000 -0.31999999 16 222 136 0.000000 0.000000 0.000000 0.000000 0.000000 0.000000 220.000000 0.619195 0.568580 0.541585
-0.68000001 0.14000000 -0.22000000 16 222 136 0.000000 0.000000 0.000000 0.000000 0.000000 0.000000 220.000000 0.643765 0.116914 0.756239
-0.69000000 0.12000000 -0.20999999 16 222 136 0.000000 0.000000 0.000000 0.000000 0.000000 0.000000 220.000000 0.800494 0.410716 0.436487
-0.69999999 0.13000000 -0.20999999 16 222 136 0.000000 0.000000 0.000000 0.000000 0.000000 0.000000 220.000000 0.407384 0.184120 0.894505
-0.70999998 0.13000000 -0.28000000 16 222 136 0.000000 0.000000 0.000000 0.000000 0.000000 0.000000 220.000000 0.885000 0.416731 0.207629
-0.70999998 0.13000000 -0.28000000 16 222 136 0.000000 0.000000 0.000000 0.000000 0.000000 0.000000 220.000000 0.885000 0.416731 0.207629
-0.70999998 0.12000000 -0.28000000 16 222 136 0.000000 0.000000 0.000000 0.000000 0.000000 0.000000 220.000000 0.668296 0.234297 0.706035
-0.74000001 0.19000000 -0.23000000 16 222 136 0.000000 0.000000 0.000000 0.000000 0.000000 0.000000 220.000000 0.659545 0.718795 0.219848
-0.74000001 0.16000000 -0.27000001 16 222 136 0.000000 0.000000 0.000000 0.000000 0.000000 0.000000 220.000000 0.824111 0.483207 0.295554
-0.75000000 0.16000000 -0.25999999 16 222 136 0.000000 0.000000 0.000000 0.000000 0.000000 0.000000 220.000000 0.417497 0.617098 0.666998
-0.69999999 0.12000000 -0.33000001 16 222 136 0.000000 0.000000 0.000000 0.000000 0.000000 0.000000 220.000000 0.568722 0.545096 0.615975
-0.69999999 0.12000000 -0.33000001 16 222 136 0.000000 0.000000 0.000000 0.000000 0.000000 0.000000 220.000000 0.568722 0.545096 0.615975
-0.73000002 0.16000000 -0.28999999 16 222 136 0.000000 0.000000 0.000000 0.000000 0.000000 0.000000 220.000000 0.902445 0.195554 0.383865
-0.73000002 0.18000001 -0.31000000 16 222 136 0.000000 0.000000 0.000000 0.000000 0.000000 0.000000 220.000000 0.742634 0.320573 0.587986
-0.74000001 0.16000000 -0.36000001 16 222 136 0.000000 0.000000 0.000000 0.000000 0.000000 0.000000 220.000000 0.641865 0.766006 -0.035267
-0.72000003 0.14000000 -0.34000000 16 222 136 0.000000 0.000000 0.000000 0.000000 0.000000 0.000000 220.000000 0.855529 0.469258 0.218786
-0.72000003 0.14000000 -0.34000000 16 222 136 0.000000 0.000000 0.000000 0.000000 0.000000 0.000000 220.000000 0.855529 0.469258 0.218786
-0.72000003 0.14000000 -0.34000000 16 222 136 0.000000 0.000000 0.000000 0.000000 0.000000 0.000000 220.000000 0.855529 0.469258 0.218786
-0.72000003 0.14000000 -0.33000001 16 222 136 0.000000 0.000000 0.000000 0.000000 0.000000 0.000000 220.000000 0.907532 0.274166 0.318149
-0.69999999 0.07000000 -0.22000000 16 222 136 0.000000 0.000000 0.000000 0.000000 0.000000 0.000000 220.000000 0.545082 0.152980 0.824307
-0.69999999 0.08000000 -0.22000000 16 222 136 0.000000 0.000000 0.000000 0.000000 0.000000 0.000000 220.000000 0.794638 0.043754 0.605505
-0.69999999 0.08000000 -0.22000000 16 222 136 0.000000 0.000000 0.000000 0.000000 0.000000 0.000000 220.000000 0.794638 0.043754 0.605505
-0.70999998 0.09000000 -0.22000000 16 222 136 0.000000 0.000000 0.000000 0.000000 0.000000 0.000000 220.000000 0.651738 0.506907 0.564166
-0.69000000 0.09000000 -0.25999999 16 222 136 0.000000 0.000000 0.000000 0.000000 0.000000 0.000000 220.000000 0.579901 0.310030 0.753390
-0.70999998 0.05000000 -0.20000000 16 222 136 0.000000 0.000000 0.000000 0.000000 0.000000 0.000000 220.000000 0.461922 -0.112283 0.879784
-0.70999998 0.04000000 -0.20000000 16 222 136 0.000000 0.000000 0.000000 0.000000 0.000000 0.000000 220.000000 0.374272 0.409015 0.832242
-0.70999998 0.03000000 -0.20999999 16 222 136 0.000000 0.000000 0.000000 0.000000 0.000000 0.000000 220.000000 0.704686 -0.052887 0.707545
-0.69999999 0.03000000 -0.22000000 16 222 136 0.000000 0.000000 0.000000 0.000000 0.000000 0.000000 220.000000 0.423757 0.583289 0.692967
-0.69000000 0.05000000 -0.25999999 16 222 136 0.000000 0.000000 0.000000 0.000000 0.000000 0.000000 220.000000 0.390384 0.597931 0.700056
-0.69999999 0.04000000 -0.23999999 16 222 136 0.000000 0.000000 0.000000 0.000000 0.000000 0.000000 220.000000 0.439576 0.505430 0.742505
-0.74000001 0.09000000 -0.27000001 16 222 136 0.000000 0.000000 0.000000 0.000000 0.000000 0.000000 220.000000 0.661078 0.502957 0.556786
-0.75000000 0.08000000 -0.25000000 16 222 136 0.000000 0.000000 0.000000 0.000000 0.000000 0.000000 220.000000 0.378852 0.585499 0.716703
-0.72000003 0.10000000 -0.27000001 16 222 136 0.000000 0.000000 0.000000 0.000000 0.000000 0.000000 220.000000 0.717247 0.480938 0.504237
-0.74000001 0.09000000 -0.25999999 16 222 136 0.000000 0.000000 0.000000 0.000000 0.000000 0.000000 220.000000 0.413758 0.254273 0.874157
-0.72000003 0.11000000 -0.27000001 16 222 136 0.000000 0.000000 0.000000 0.000000 0.000000 0.000000 220.000000 0.676251 0.358593 0.643503
-0.72000003 0.04000000 -0.20000000 16 222 136 0.000000 0.000000 0.000000 0.000000 0.000000 0.000000 220.000000 0.315537 0.158458 0.935589
-0.72000003 0.03000000 -0.20000000 16 222 136 0.000000 0.000000 0.000000 0.000000 0.000000 0.000000 220.000000 0.516466 -0.006742 0.856281
-0.75000000 0.04000000 -0.25000000 16 222 136 0.000000 0.000000 0.000000 0.000000 0.000000 0.000000 220.000000 0.410231 0.432754 0.802767
-0.69999999 0.11000000 -0.31999999 16 222 136 0.000000 0.000000 0.000000 0.000000 0.000000 0.000000 220.000000 0.866487 0.291886 0.404972
-0.69999999 0.10000000 -0.30000001 16 222 136 0.000000 0.000000 0.000000 0.000000 0.000000 0.000000 220.000000 0.820794 0.518964 0.238692
-0.68000001 0.07000000 -0.31999999 16 222 136 0.000000 0.000000 0.000000 0.000000 0.000000 0.000000 220.000000 0.894921 0.119793 0.429844
-0.70999998 0.08000000 -0.34999999 16 222 136 0.000000 0.000000 0.000000 0.000000 0.000000 0.000000 220.000000 0.783348 0.355482 0.509900
-0.73000002 0.09000000 -0.28999999 16 222 136 0.000000 0.000000 0.000000 0.000000 0.000000 0.000000 220.000000 0.741509 0.545083 0.391216
-0.66000003 0.15000001 -0.43000001 16 222 136 0.000000 0.000000 0.000000 0.000000 0.000000 0.000000 220.000000 0.842525 0.507311 0.181075
-0.66000003 0.13000000 -0.43000001 16 222 136 0.000000 0.000000 0.000000 0.000000 0.000000 0.000000 220.000000 0.804334 0.593906 -0.017997
-0.62000000 0.08000000 -0.40000001 16 222 136 0.000000 0.000000 0.000000 0.000000 0.000000 0.000000 220.000000 0.431886 0.817556 0.380889
-0.62000000 0.08000000 -0.40000001 16 222 136 0.000000 0.000000 0.000000 0.000000 0.000000 0.000000 220.000000 0.431886 0.817556 0.380889
-0.62000000 0.10000000 -0.41000000 16 222 136 0.000000 0.000000 0.000000 0.000000 0.000000 0.000000 220.000000 0.913052 0.392100 -0.112226
-0.61000001 0.06000000 -0.38999999 16 222 136 0.000000 0.000000 0.000000 0.000000 0.000000 0.000000 220.000000 0.492528 0.783201 0.379489
-0.61000001 0.03000000 -0.40000001 16 222 136 0.000000 0.000000 0.000000 0.000000 0.000000 0.000000 220.000000 0.874822 0.414073 0.251455
-0.61000001 0.03000000 -0.38999999 16 222 136 0.000000 0.000000 0.000000 0.000000 0.000000 0.000000 220.000000 0.917827 0.394864 -0.040939
-0.61000001 0.06000000 -0.38999999 16 222 136 0.000000 0.000000 0.000000 0.000000 0.000000 0.000000 220.000000 0.492528 0.783201 0.379489
-0.62000000 0.04000000 -0.41000000 16 222 136 0.000000 0.000000 0.000000 0.000000 0.000000 0.000000 220.000000 0.862278 0.502880 -0.059900
-0.61000001 0.04000000 -0.44999999 16 222 136 0.000000 0.000000 0.000000 0.000000 0.000000 0.000000 220.000000 0.735342 0.634997 0.236752
-0.63000000 0.05000000 -0.41000000 16 222 136 0.000000 0.000000 0.000000 0.000000 0.000000 0.000000 220.000000 0.713026 0.557517 0.425169
-0.61000001 0.04000000 -0.44999999 16 222 136 0.000000 0.000000 0.000000 0.000000 0.000000 0.000000 220.000000 0.735342 0.634997 0.236752
-0.62000000 0.03000000 -0.41000000 16 222 136 0.000000 0.000000 0.000000 0.000000 0.000000 0.000000 220.000000 0.695361 0.717928 0.032441
-0.63999999 0.05000000 -0.40000001 16 222 136 0.000000 0.000000 0.000000 0.000000 0.000000 0.000000 220.000000 0.705048 0.559061 0.436300
-0.74000001 0.18000001 -0.37000000 16 222 136 0.000000 0.000000 0.000000 0.000000 0.000000 0.000000 220.000000 0.629340 0.655908 0.416792
-0.75000000 0.17000000 -0.37000000 16 222 136 0.000000 0.000000 0.000000 0.000000 0.000000 0.000000 220.000000 0.821942 0.554333 0.130864
-0.74000001 0.16000000 -0.41000000 16 222 136 0.000000 0.000000 0.000000 0.000000 0.000000 0.000000 220.000000 0.585469 0.737918 0.335712
-0.75000000 0.10000000 -0.41000000 16 222 136 0.000000 0.000000 0.000000 0.000000 0.000000 0.000000 220.000000 0.774266 0.536030 0.336427
-0.73000002 0.11000000 -0.37000000 16 222 136 0.000000 0.000000 0.000000 0.000000 0.000000 0.000000 220.000000 0.587421 0.563721 0.580650
-0.69999999 0.08000000 -0.40000001 16 222 136 0.000000 0.000000 0.000000 0.000000 0.000000 0.000000 220.000000 0.658821 0.742104 -0.123436
