//X Y Z R G B PointSourceId ScanDirectionFlag NumberOfReturns ReturnNumber GpsTime Intensity Classification Nx Ny Nz
11.92000008 -12.06000042 0.31000000 54 169 144 97.000000 1.000000 4.000000 1.000000 0.000000 114.000000 213.000000 -0.119386 0.493365 0.861590
11.75000000 -11.85999966 0.25000000 54 169 144 97.000000 1.000000 4.000000 1.000000 0.000000 114.000000 213.000000 -0.206271 0.359172 0.910191
11.75000000 -11.85999966 0.25999999 54 169 144 97.000000 1.000000 4.000000 1.000000 0.000000 114.000000 213.000000 0.095413 0.418987 0.902965
11.75000000 -11.85999966 0.25999999 54 169 144 97.000000 1.000000 4.000000 1.000000 0.000000 114.000000 213.000000 0.095413 0.418987 0.902965
11.73999977 -11.85999966 0.25000000 54 169 144 97.000000 1.000000 4.000000 1.000000 0.000000 114.000000 213.000000 -0.293788 0.682294 0.669451
11.77999973 -11.89000034 0.28000000 54 169 144 97.000000 1.000000 4.000000 1.000000 0.000000 114.000000 213.000000 0.162669 0.264842 0.950472
11.77999973 -11.89000034 0.23999999 54 169 144 97.000000 1.000000 4.000000 1.000000 0.000000 114.000000 213.000000 0.261479 -0.619625 -0.740064
11.72999954 -11.86999989 0.27000001 54 169 144 97.000000 1.000000 4.000000 1.000000 0.000000 114.000000 213.000000 -0.300976 0.398755 0.866261
11.72000027 -11.85000038 0.23999999 54 169 144 97.000000 1.000000 4.000000 1.000000 0.000000 114.000000 213.000000 -0.192926 0.659036 0.726946
11.71000004 -11.88000011 0.28000000 54 169 144 97.000000 1.000000 4.000000 1.000000 0.000000 114.000000 213.000000 0.079736 0.653838 0.752421
11.72000027 -11.89000034 0.28000000 54 169 144 97.000000 1.000000 4.000000 1.000000 0.000000 114.000000 213.000000 0.209757 0.397512 0.893301
11.71000004 -11.92000008 0.23999999 54 169 144 97.000000 1.000000 4.000000 1.000000 0.000000 114.000000 213.000000 -0.162045 0.462777 0.871538
11.71000004 -11.92000008 0.25999999 54 169 144 97.000000 1.000000 4.000000 1.000000 0.000000 114.000000 213.000000 -0.267699 0.806229 0.527571
11.75000000 -11.97000027 0.16000000 54 169 144 97.000000 1.000000 4.000000 1.000000 0.000000 114.000000 213.000000 -0.141237 0.581303 0.801336
11.69999981 -11.94999981 0.20000000 54 169 144 97.000000 1.000000 4.000000 1.000000 0.000000 114.000000 213.000000 -0.365289 0.530887 0.764672
11.69999981 -11.98999977 0.17000000 54 169 144 97.000000 1.000000 4.000000 1.000000 0.000000 114.000000 213.000000 0.183769 0.448396 0.874740
11.72000027 -11.98999977 0.16000000 54 169 144 97.000000 1.000000 4.000000 1.000000 0.000000 114.000000 213.000000 0.397633 -0.449148 -0.800096
11.68000031 -11.89000034 0.23000000 54 169 144 97.000000 1.000000 4.000000 1.000000 0.000000 114.000000 213.000000 0.240332 0.639315 0.730422
11.63000011 -11.89999962 0.16000000 54 169 144 97.000000 1.000000 4.000000 1.000000 0.000000 114.000000 213.000000 0.163514 0.556546 0.814567
11.68999958 -11.94999981 0.20000000 54 169 144 97.000000 1.000000 4.000000 1.000000 0.000000 114.000000 213.000000 -0.052717 0.315016 0.947621
11.65999985 -12.00000000 0.20000000 54 169 144 97.000000 1.000000 4.000000 1.000000 0.000000 114.000000 213.000000 -0.015293 0.632558 0.774362
11.64000034 -11.93999958 0.23000000 54 169 144 97.000000 1.000000 4.000000 1.000000 0.000000 114.000000 213.000000 -0.212237 0.766843 0.605729
11.61999989 -11.92000008 0.20000000 54 169 144 97.000000 1.000000 4.000000 1.000000 0.000000 114.000000 213.000000 -0.182573 0.886576 0.425030
11.64999962 -11.92000008 0.19000000 54 169 144 97.000000 1.000000 4.000000 1.000000 0.000000 114.000000 213.000000 -0.395867 0.641007 0.657570
11.64999962 -11.93999958 0.19000000 54 169 144 97.000000 1.000000 4.000000 1.000000 0.000000 114.000000 213.000000 0.029352 0.616382 0.786900
11.64000034 -11.97000027 0.22000000 54 169 144 97.000000 1.000000 4.000000 1.000000 0.000000 114.000000 213.000000 0.182566 0.676569 0.713389
11.64000034 -11.97000027 0.22000000 54 169 144 97.000000 1.000000 4.000000 1.000000 0.000000 114.000000 213.000000 0.182566 0.676569 0.713389
11.72999954 -12.06000042 0.18000001 54 169 144 97.000000 1.000000 4.000000 1.000000 0.000000 114.000000 213.000000 0.193082 0.848663 0.492434
11.86999989 -12.07999992 -0.12000000 54 169 144 97.000000 1.000000 4.000000 1.000000 0.000000 114.000000 210.000000 0.371138 0.473964 0.798508
11.86999989 -12.07999992 -0.12000000 54 169 144 97.000000 1.000000 4.000000 1.000000 0.000000 114.000000 210.000000 0.371138 0.473964 0.798508
11.86999989 -12.06999969 -0.17000000 54 169 144 97.000000 1.000000 4.000000 1.000000 0.000000 114.000000 210.000000 0.212038 0.759932 0.614446
11.93000031 -12.14000034 -0.16000000 54 169 144 97.000000 1.000000 4.000000 1.000000 0.000000 114.000000 210.000000 0.523848 0.201947 0.827527
11.93999958 -12.14000034 -0.17000000 54 169 144 97.000000 1.000000 4.000000 1.000000 0.000000 114.000000 210.000000 0.076115 0.364550 0.928068
11.92000008 -12.14999962 -0.16000000 54 169 144 97.000000 1.000000 4.000000 1.000000 0.000000 114.000000 210.000000 0.492961 -0.051091 0.868550
11.86999989 -12.09000015 -0.11000000 54 169 144 97.000000 1.000000 4.000000 1.000000 0.000000 114.000000 210.000000 0.116240 0.359659 0.925815
11.86999989 -12.11999989 -0.16000000 54 169 144 97.000000 1.000000 4.000000 1.000000 0.000000 114.000000 210.000000 0.451261 0.313853 0.835380
11.89000034 -12.10999966 -0.19000000 54 169 144 97.000000 1.000000 4.000000 1.000000 0.000000 114.000000 210.000000 -0.020971 0.647303 0.761944
11.90999985 -12.11999989 -0.19000000 54 169 144 97.000000 1.000000 4.000000 1.000000 0.000000 114.000000 210.000000 0.488905 0.300260 0.819034
11.86999989 -12.13000011 -0.19000000 54 169 144 97.000000 1.000000 4.000000 1.000000 0.000000 114.000000 210.000000 -0.174949 0.463102 0.868867
11.89999962 -12.14999962 -0.15000001 54 169 144 97.000000 1.000000 4.000000 1.000000 0.000000 114.000000 210.000000 0.245602 0.022987 0.969098
11.80000019 -12.03999996 -0.09000000 54 169 144 97.000000 1.000000 4.000000 1.000000 0.000000 114.000000 210.000000 0.006941 0.678782 0.734307
11.85999966 -12.06999969 -0.12000000 54 169 144 97.000000 1.000000 4.000000 1.000000 0.000000 114.000000 210.000000 -0.012522 0.688732 0.724908
11.84000015 -12.06000042 -0.14000000 54 169 144 97.000000 1.000000 4.000000 1.000000 0.000000 114.000000 210.000000 0.184710 0.593820 0.783109
11.84000015 -12.06999969 -0.13000000 54 169 144 97.000000 1.000000 4.000000 1.000000 0.000000 114.000000 210.000000 0.239359 0.771267 0.589792
11.85999966 -12.06999969 -0.12000000 54 169 144 97.000000 1.000000 4.000000 1.000000 0.000000 114.000000 210.000000 -0.012522 0.688732 0.724908
11.85999966 -12.06999969 -0.19000000 54 169 144 97.000000 1.000000 4.000000 1.000000 0.000000 114.000000 210.000000 -0.341214 0.680796 0.648144
11.81000042 -12.06999969 -0.12000000 54 169 144 97.000000 1.000000 4.000000 1.000000 0.000000 114.000000 210.000000 -0.391013 0.704483 0.592294
11.81999969 -12.07999992 -0.15000001 54 169 144 97.000000 1.000000 4.000000 1.000000 0.000000 114.000000 210.000000 -0.344153 0.654054 0.673626
11.81999969 -12.06000042 -0.13000000 54 169 144 97.000000 1.000000 4.000000 1.000000 0.000000 114.000000 210.000000 0.212342 0.359681 0.908593
11.81999969 -12.07999992 -0.15000001 54 169 144 97.000000 1.000000 4.000000 1.000000 0.000000 114.000000 210.000000 -0.344153 0.654054 0.673626
11.80000019 -12.06999969 -0.13000000 54 169 144 97.000000 1.000000 4.000000 1.000000 0.000000 114.000000 210.000000 -0.046395 0.816828 0.575013
11.85000038 -12.11999989 -0.15000001 54 169 144 97.000000 1.000000 4.000000 1.000000 0.000000 114.000000 210.000000 0.349555 0.526749 0.774820
11.85000038 -12.10000038 -0.17000000 54 169 144 97.000000 1.000000 4.000000 1.000000 0.000000 114.000000 210.000000 0.233777 0.666814 0.707607
11.85999966 -12.10999966 -0.16000000 54 169 144 97.000000 1.000000 4.000000 1.000000 0.000000 114.000000 210.000000 0.235811 0.364702 0.900770
11.85999966 -12.14000034 -0.19000000 54 169 144 97.000000 1.000000 4.000000 1.000000 0.000000 114.000000 210.000000 0.305464 0.438814 0.845065
11.85000038 -12.15999985 -0.18000001 54 169 144 97.000000 1.000000 4.000000 1.000000 0.000000 114.000000 210.000000 0.347170 0.763775 0.544169
11.78999996 -12.10000038 -0.14000000 54 169 144 97.000000 1.000000 4.000000 1.000000 0.000000 114.000000 210.000000 -0.242205 0.519892 0.819176
11.78999996 -12.11999989 -0.13000000 54 169 144 97.000000 1.000000 4.000000 1.000000 0.000000 114.000000 210.000000 -0.337173 0.766301 0.546897
11.81999969 -12.09000015 -0.12000000 54 169 144 97.000000 1.000000 4.000000 1.000000 0.000000 114.000000 210.000000 -0.340132 0.603774 0.720949
11.81999969 -12.09000015 -0.12000000 54 169 144 97.000000 1.000000 4.000000 1.000000 0.000000 114.000000 210.000000 -0.340132 0.603774 0.720949
11.69999981 -12.06000042 0.11000000 54 169 144 97.000000 1.000000 4.000000 1.000000 0.000000 114.000000 213.000000 0.012446 0.792408 0.609864
11.68000031 -12.06000042 0.11000000 54 169 144 97.000000 1.000000 4.000000 1.000000 0.000000 114.000000 213.000000 0.138665 0.791734 0.594919
11.67000008 -12.05000019 0.14000000 54 169 144 97.000000 1.000000 4.000000 1.000000 0.000000 114.000000 213.000000 0.077605 0.853659 0.515018
11.68000031 -12.06000042 0.11000000 54 169 144 97.000000 1.000000 4.000000 1.000000 0.000000 114.000000 213.000000 0.138665 0.791734 0.594919
11.68000031 -12.05000019 0.10000000 54 169 144 97.000000 1.000000 4.000000 1.000000 0.000000 114.000000 213.000000 0.122541 0.798729 0.589081
11.60999966 -12.05000019 0.12000000 54 169 144 97.000000 1.000000 4.000000 1.000000 0.000000 114.000000 213.000000 -0.152830 0.832404 0.532679
11.64999962 -12.11999989 0.08000000 54 169 144 97.000000 1.000000 4.000000 1.000000 0.000000 114.000000 213.000000 -0.233846 0.676427 0.698400
11.68999958 -12.11999989 0.07000000 54 169 144 97.000000 1.000000 4.000000 1.000000 0.000000 114.000000 213.000000 0.116260 0.862620 0.492311
11.64999962 -12.11999989 0.08000000 54 169 144 97.000000 1.000000 4.000000 1.000000 0.000000 114.000000 213.000000 -0.233846 0.676427 0.698400
11.77999973 -12.05000019 -0.08000000 54 169 144 97.000000 1.000000 4.000000 1.000000 0.000000 114.000000 210.000000 -0.101140 0.637622 0.763681
11.77999973 -12.02999973 -0.09000000 54 169 144 97.000000 1.000000 4.000000 1.000000 0.000000 114.000000 210.000000 -0.085762 0.870273 0.485047
11.69999981 -12.06000042 -0.17000000 54 169 144 97.000000 1.000000 4.000000 1.000000 0.000000 114.000000 210.000000 -0.521428 0.636176 0.568677
11.69999981 -12.15999985 -0.09000000 54 169 144 97.000000 1.000000 4.000000 1.000000 0.000000 114.000000 210.000000 -0.239231 0.434829 0.868154
11.72000027 -12.14000034 -0.09000000 54 169 144 97.000000 1.000000 4.000000 1.000000 0.000000 114.000000 210.000000 -0.095283 0.684575 0.722688
11.73999977 -12.13000011 -0.13000000 54 169 144 97.000000 1.000000 4.000000 1.000000 0.000000 114.000000 210.000000 -0.035333 0.705251 0.708077
11.75000000 -12.11999989 -0.13000000 54 169 144 97.000000 1.000000 4.000000 1.000000 0.000000 114.000000 210.000000 -0.231524 0.858001 0.458509
11.75000000 -12.11999989 -0.15000001 54 169 144 97.000000 1.000000 4.000000 1.000000 0.000000 114.000000 210.000000 0.062436 0.872713 0.484224
11.76000023 -12.10999966 -0.18000001 54 169 144 97.000000 1.000000 4.000000 1.000000 0.000000 114.000000 210.000000 -0.022688 0.892858 0.449766
11.75000000 -12.09000015 -0.17000000 54 169 144 97.000000 1.000000 4.000000 1.000000 0.000000 114.000000 210.000000 -0.559183 0.582834 0.589592
11.73999977 -12.09000015 -0.18000001 54 169 144 97.000000 1.000000 4.000000 1.000000 0.000000 114.000000 210.000000 -0.534707 0.461414 0.707945
11.75000000 -12.09000015 -0.18000001 54 169 144 97.000000 1.000000 4.000000 1.000000 0.000000 114.000000 210.000000 -0.591980 0.419526 0.688156
11.75000000 -12.14000034 -0.12000000 54 169 144 97.000000 1.000000 4.000000 1.000000 0.000000 114.000000 210.000000 -0.029139 0.567524 0.822841
11.73999977 -12.14000034 -0.12000000 54 169 144 97.000000 1.000000 4.000000 1.000000 0.000000 114.000000 210.000000 0.076070 0.808065 0.584161
11.76000023 -12.17000008 -0.16000000 54 169 144 97.000000 1.000000 4.000000 1.000000 0.000000 114.000000 210.000000 0.024906 0.916264 0.399800
11.71000004 -12.13000011 -0.15000001 54 169 144 97.000000 1.000000 4.000000 1.000000 0.000000 114.000000 210.000000 -0.517093 0.823973 0.231695
11.72000027 -12.10999966 -0.14000000 54 169 144 97.000000 1.000000 4.000000 1.000000 0.000000 114.000000 210.000000 0.009733 0.738330 0.674369
11.71000004 -12.10000038 -0.11000000 54 169 144 97.000000 1.000000 4.000000 1.000000 0.000000 114.000000 210.000000 0.107293 0.859777 0.499271
11.72999954 -12.10000038 -0.14000000 54 169 144 97.000000 1.000000 4.000000 1.000000 0.000000 114.000000 210.000000 -0.139558 0.521507 0.841756
11.72000027 -12.14000034 -0.12000000 54 169 144 97.000000 1.000000 4.000000 1.000000 0.000000 114.000000 210.000000 0.385740 -0.720596 -0.576148
11.69999981 -12.14999962 -0.12000000 54 169 144 97.000000 1.000000 4.000000 1.000000 0.000000 114.000000 210.000000 -0.305879 0.436304 0.846213
11.71000004 -12.14999962 -0.11000000 54 169 144 97.000000 1.000000 4.000000 1.000000 0.000000 114.000000 210.000000 -0.366458 0.685260 0.629387
11.71000004 -12.14000034 -0.12000000 54 169 144 97.000000 1.000000 4.000000 1.000000 0.000000 114.000000 210.000000 0.092011 0.766755 0.635311
11.72000027 -12.14000034 -0.11000000 54 169 144 97.000000 1.000000 4.000000 1.000000 0.000000 114.000000 210.000000 -0.390491 0.873667 0.290210
11.71000004 -12.14999962 -0.11000000 54 169 144 97.000000 1.000000 4.000000 1.000000 0.000000 114.000000 210.000000 -0.366458 0.685260 0.629387
11.61999989 -12.03999996 -0.13000000 54 169 144 97.000000 1.000000 4.000000 1.000000 0.000000 114.000000 210.000000 -0.145504 0.766522 0.625518
11.67000008 -12.17000008 -0.09000000 54 169 144 97.000000 1.000000 4.000000 1.000000 0.000000 114.000000 210.000000 -0.391166 0.625536 0.675051
11.61999989 -12.15999985 -0.06000000 54 169 144 97.000000 1.000000 4.000000 1.000000 0.000000 114.000000 210.000000 -0.092192 0.721437 0.686316
11.68999958 -12.13000011 -0.12000000 54 169 144 97.000000 1.000000 4.000000 1.000000 0.000000 114.000000 210.000000 0.508131 -0.733232 -0.451856
11.68999958 -12.10999966 -0.14000000 54 169 144 97.000000 1.000000 4.000000 1.000000 0.000000 114.000000 210.000000 -0.481274 0.507919 0.714418
11.68999958 -12.13000011 -0.13000000 54 169 144 97.000000 1.000000 4.000000 1.000000 0.000000 114.000000 210.000000 -0.194348 0.592226 0.781983
11.65999985 -12.10000038 -0.16000000 54 169 144 97.000000 1.000000 4.000000 1.000000 0.000000 114.000000 210.000000 0.679785 -0.698537 -0.223469
11.65999985 -12.10999966 -0.16000000 54 169 144 97.000000 1.000000 4.000000 1.000000 0.000000 114.000000 210.000000 -0.258793 0.703346 0.662066
11.65999985 -12.14999962 -0.11000000 54 169 144 97.000000 1.000000 4.000000 1.000000 0.000000 114.000000 210.000000 -0.421758 0.547459 0.722778
11.68999958 -12.15999985 -0.11000000 54 169 144 97.000000 1.000000 4.000000 1.000000 0.000000 114.000000 210.000000 0.126951 -0.736314 -0.664624
11.65999985 -12.17000008 -0.11000000 54 169 144 97.000000 1.000000 4.000000 1.000000 0.000000 114.000000 210.000000 -0.440957 0.776150 0.450720
11.68000031 -12.15999985 -0.12000000 54 169 144 97.000000 1.000000 4.000000 1.000000 0.000000 114.000000 210.000000 -0.585336 0.675388 0.448591
11.64999962 -12.10999966 -0.16000000 54 169 144 97.000000 1.000000 4.000000 1.000000 0.000000 114.000000 210.000000 0.556922 -0.699893 -0.447200
11.64000034 -12.14000034 -0.15000001 54 169 144 97.000000 1.000000 4.000000 1.000000 0.000000 114.000000 210.000000 -0.241844 0.901420 0.359102
11.64999962 -12.17000008 -0.15000001 54 169 144 97.000000 1.000000 4.000000 1.000000 0.000000 114.000000 210.000000 -0.174829 0.770767 0.612661
11.64000034 -12.14000034 -0.15000001 54 169 144 97.000000 1.000000 4.000000 1.000000 0.000000 114.000000 210.000000 -0.241844 0.901420 0.359102
11.97999954 -12.35999966 -0.18000001 54 169 144 97.000000 1.000000 4.000000 1.000000 0.000000 114.000000 210.000000 0.832742 -0.544097 0.102469
11.97000027 -12.35999966 -0.18000001 54 169 144 97.000000 1.000000 4.000000 1.000000 0.000000 114.000000 210.000000 0.933394 -0.328544 0.144339
11.97000027 -12.31999969 -0.19000000 54 169 144 97.000000 1.000000 4.000000 1.000000 0.000000 114.000000 210.000000 0.619081 -0.315198 0.719298
11.65999985 -12.23999977 0.04000000 54 169 144 97.000000 1.000000 4.000000 1.000000 0.000000 114.000000 210.000000 -0.409974 0.678864 0.609152
11.68000031 -12.22000027 -0.02000000 54 169 144 97.000000 1.000000 4.000000 1.000000 0.000000 114.000000 210.000000 -0.061739 0.759528 0.647538
11.61999989 -12.23999977 0.00000000 54 169 144 97.000000 1.000000 4.000000 1.000000 0.000000 114.000000 210.000000 -0.105350 0.439661 0.891964
11.63000011 -12.22000027 -0.01000000 54 169 144 97.000000 1.000000 4.000000 1.000000 0.000000 114.000000 210.000000 -0.112005 0.935173 0.336015
11.64000034 -12.23999977 -0.01000000 54 169 144 97.000000 1.000000 4.000000 1.000000 0.000000 114.000000 210.000000 0.101169 0.491597 0.864926
11.61999989 -12.27999973 0.07000000 54 169 144 97.000000 1.000000 4.000000 1.000000 0.000000 114.000000 210.000000 -0.246932 0.313358 0.916969
11.60999966 -12.28999996 0.03000000 54 169 144 97.000000 1.000000 4.000000 1.000000 0.000000 114.000000 210.000000 0.018111 0.633892 0.773209
11.63000011 -12.28999996 -0.01000000 54 169 144 97.000000 1.000000 4.000000 1.000000 0.000000 114.000000 210.000000 -0.026166 0.838691 0.543979
11.60999966 -12.32999992 -0.01000000 54 169 144 97.000000 1.000000 4.000000 1.000000 0.000000 114.000000 210.000000 -0.344751 0.829607 0.439203
11.76000023 -12.21000004 -0.19000000 54 169 144 97.000000 1.000000 4.000000 1.000000 0.000000 114.000000 210.000000 -0.168777 0.867368 0.468173
11.72000027 -12.18000031 -0.15000001 54 169 144 97.000000 1.000000 4.000000 1.000000 0.000000 114.000000 210.000000 0.441033 -0.700660 -0.560861
11.65999985 -12.21000004 -0.04000000 54 169 144 97.000000 1.000000 4.000000 1.000000 0.000000 114.000000 210.000000 -0.198005 0.784345 0.587875
11.67000008 -12.19999981 -0.03000000 54 169 144 97.000000 1.000000 4.000000 1.000000 0.000000 114.000000 210.000000 0.411061 -0.758252 -0.506047
11.67000008 -12.19999981 -0.03000000 54 169 144 97.000000 1.000000 4.000000 1.000000 0.000000 114.000000 210.000000 0.411061 -0.758252 -0.506047
11.67000008 -12.18000031 -0.08000000 54 169 144 97.000000 1.000000 4.000000 1.000000 0.000000 114.000000 210.000000 -0.243397 0.758457 0.604567
11.68000031 -12.18999958 -0.08000000 54 169 144 97.000000 1.000000 4.000000 1.000000 0.000000 114.000000 210.000000 0.095503 0.853825 0.511725
11.64999962 -12.18999958 -0.05000000 54 169 144 97.000000 1.000000 4.000000 1.000000 0.000000 114.000000 210.000000 0.011857 0.899829 0.436081
11.60999966 -12.21000004 -0.04000000 54 169 144 97.000000 1.000000 4.000000 1.000000 0.000000 114.000000 210.000000 -0.227367 0.793465 0.564551
11.64000034 -12.19999981 -0.04000000 54 169 144 97.000000 1.000000 4.000000 1.000000 0.000000 114.000000 210.000000 0.043986 0.764796 0.642769
11.60999966 -12.21000004 -0.03000000 54 169 144 97.000000 1.000000 4.000000 1.000000 0.000000 114.000000 210.000000 -0.310650 0.782201 0.540053
11.64999962 -12.22000027 -0.04000000 54 169 144 97.000000 1.000000 4.000000 1.000000 0.000000 114.000000 210.000000 -0.035589 0.916090 0.399389
11.64999962 -12.22000027 -0.03000000 54 169 144 97.000000 1.000000 4.000000 1.000000 0.000000 114.000000 210.000000 -0.057151 0.923716 0.378790
11.61999989 -12.22999954 -0.10000000 54 169 144 97.000000 1.000000 4.000000 1.000000 0.000000 114.000000 210.000000 -0.192665 0.852802 0.485395
11.68999958 -12.18999958 -0.13000000 54 169 144 97.000000 1.000000 4.000000 1.000000 0.000000 114.000000 210.000000 -0.058580 0.767253 0.638663
11.65999985 -12.19999981 -0.16000000 54 169 144 97.000000 1.000000 4.000000 1.000000 0.000000 114.000000 210.000000 0.799535 -0.585930 -0.132020
11.56999969 -11.80000019 0.17000000 54 169 144 97.000000 1.000000 4.000000 1.000000 0.000000 114.000000 213.000000 -0.582821 0.726485 0.364059
11.56999969 -11.80000019 0.18000001 54 169 144 97.000000 1.000000 4.000000 1.000000 0.000000 114.000000 213.000000 -0.029626 0.709612 0.703969
11.55000019 -11.77000046 0.20000000 54 169 144 97.000000 1.000000 4.000000 1.000000 0.000000 114.000000 213.000000 -0.240955 0.894341 0.376954
11.55000019 -11.77000046 0.19000000 54 169 144 97.000000 1.000000 4.000000 1.000000 0.000000 114.000000 213.000000 -0.536112 0.745967 0.395116
11.55000019 -11.77000046 0.19000000 54 169 144 97.000000 1.000000 4.000000 1.000000 0.000000 114.000000 213.000000 -0.536112 0.745967 0.395116
11.51000023 -11.75000000 0.20000000 54 169 144 97.000000 1.000000 4.000000 1.000000 0.000000 114.000000 213.000000 -0.089090 0.682047 0.725861
11.50000000 -11.77999973 0.14000000 54 169 144 97.000000 1.000000 4.000000 1.000000 0.000000 114.000000 213.000000 -0.251864 0.685894 0.682726
11.48999977 -11.78999996 0.14000000 54 169 144 97.000000 1.000000 4.000000 1.000000 0.000000 114.000000 213.000000 0.373734 -0.627281 -0.683258
11.56999969 -11.90999985 0.18000001 54 169 144 97.000000 1.000000 4.000000 1.000000 0.000000 114.000000 213.000000 0.237959 -0.420544 -0.875510
11.53999996 -11.85000038 0.15000001 54 169 144 97.000000 1.000000 4.000000 1.000000 0.000000 114.000000 213.000000 0.447200 -0.556922 -0.699893
11.60000038 -11.94999981 0.20999999 54 169 144 97.000000 1.000000 4.000000 1.000000 0.000000 114.000000 213.000000 -0.374991 0.514597 0.771085
11.56000042 -12.00000000 0.16000000 54 169 144 97.000000 1.000000 4.000000 1.000000 0.000000 114.000000 213.000000 -0.054779 0.835738 0.546390
11.53999996 -12.00000000 0.15000001 54 169 144 97.000000 1.000000 4.000000 1.000000 0.000000 114.000000 213.000000 -0.058873 0.739501 0.670576
11.57999992 -11.97000027 0.13000000 54 169 144 97.000000 1.000000 4.000000 1.000000 0.000000 114.000000 213.000000 -0.026283 0.571313 0.820311
11.56999969 -11.97000027 0.13000000 54 169 144 97.000000 1.000000 4.000000 1.000000 0.000000 114.000000 213.000000 -0.078099 0.538173 0.839208
11.53999996 -11.93000031 0.13000000 54 169 144 97.000000 1.000000 4.000000 1.000000 0.000000 114.000000 213.000000 -0.662965 0.555548 0.501840
11.53999996 -11.93000031 0.11000000 54 169 144 97.000000 1.000000 4.000000 1.000000 0.000000 114.000000 213.000000 -0.518236 0.419524 0.745272
11.51000023 -11.85000038 0.12000000 54 169 144 97.000000 1.000000 4.000000 1.000000 0.000000 114.000000 213.000000 -0.676736 0.525604 0.515528
11.51000023 -11.85000038 0.13000000 54 169 144 97.000000 1.000000 4.000000 1.000000 0.000000 114.000000 213.000000 0.635374 -0.621963 -0.457671
11.51000023 -11.85999966 0.14000000 54 169 144 97.000000 1.000000 4.000000 1.000000 0.000000 114.000000 213.000000 -0.402764 0.431647 0.807132
11.47000027 -11.89000034 0.11000000 54 169 144 97.000000 1.000000 4.000000 1.000000 0.000000 114.000000 213.000000 0.584908 -0.775198 -0.238643
11.47000027 -11.89000034 0.09000000 54 169 144 97.000000 1.000000 4.000000 1.000000 0.000000 114.000000 213.000000 -0.255837 0.931472 0.258664
11.47000027 -11.89000034 0.09000000 54 169 144 97.000000 1.000000 4.000000 1.000000 0.000000 114.000000 213.000000 -0.255837 0.931472 0.258664
11.47000027 -11.89000034 0.09000000 54 169 144 97.000000 1.000000 4.000000 1.000000 0.000000 114.000000 213.000000 -0.255837 0.931472 0.258664
11.52000046 -11.93999958 0.10000000 54 169 144 97.000000 1.000000 4.000000 1.000000 0.000000 114.000000 213.000000 -0.205073 0.913509 0.351350
11.47999954 -11.92000008 0.09000000 54 169 144 97.000000 1.000000 4.000000 1.000000 0.000000 114.000000 213.000000 -0.590830 0.506666 0.627862
11.52000046 -11.93999958 0.11000000 54 169 144 97.000000 1.000000 4.000000 1.000000 0.000000 114.000000 213.000000 -0.230775 0.711165 0.664068
11.60000038 -12.06999969 0.08000000 54 169 144 97.000000 1.000000 4.000000 1.000000 0.000000 114.000000 213.000000 -0.042974 0.525391 0.849775
11.60000038 -12.06999969 0.07000000 54 169 144 97.000000 1.000000 4.000000 1.000000 0.000000 114.000000 213.000000 0.142760 0.659702 0.737844
11.59000015 -12.05000019 0.14000000 54 169 144 97.000000 1.000000 4.000000 1.000000 0.000000 114.000000 213.000000 -0.558483 0.726522 0.400328
11.59000015 -12.14999962 0.03000000 54 169 144 97.000000 1.000000 4.000000 1.000000 0.000000 114.000000 210.000000 -0.246290 0.588272 0.770245
11.59000015 -12.14999962 0.03000000 54 169 144 97.000000 1.000000 4.000000 1.000000 0.000000 114.000000 210.000000 -0.246290 0.588272 0.770245
11.55000019 -12.15999985 -0.02000000 54 169 144 97.000000 1.000000 4.000000 1.000000 0.000000 114.000000 210.000000 -0.416792 0.655908 0.629340
11.55000019 -12.15999985 -0.01000000 54 169 144 97.000000 1.000000 4.000000 1.000000 0.000000 114.000000 210.000000 0.470533 -0.762362 -0.444301
11.57999992 -12.15999985 -0.10000000 54 169 144 97.000000 1.000000 4.000000 1.000000 0.000000 114.000000 210.000000 -0.292460 0.798336 0.526428
11.57999992 -12.13000011 -0.15000001 54 169 144 97.000000 1.000000 4.000000 1.000000 0.000000 114.000000 210.000000 -0.665318 0.736761 -0.120561
11.59000015 -12.15999985 -0.12000000 54 169 144 97.000000 1.000000 4.000000 1.000000 0.000000 114.000000 210.000000 -0.271860 0.903752 0.330641
11.57999992 -12.17000008 -0.14000000 54 169 144 97.000000 1.000000 4.000000 1.000000 0.000000 114.000000 210.000000 0.782403 -0.554795 -0.282929
11.52999973 -12.09000015 -0.11000000 54 169 144 97.000000 1.000000 4.000000 1.000000 0.000000 114.000000 210.000000 -0.684462 0.727331 -0.050013
11.53999996 -12.10000038 -0.15000001 54 169 144 97.000000 1.000000 4.000000 1.000000 0.000000 114.000000 210.000000 0.887631 -0.451504 -0.090860
11.55000019 -12.13000011 -0.13000000 54 169 144 97.000000 1.000000 4.000000 1.000000 0.000000 114.000000 210.000000 -0.319843 0.887452 0.331856
11.52999973 -12.14000034 -0.13000000 54 169 144 97.000000 1.000000 4.000000 1.000000 0.000000 114.000000 210.000000 -0.635308 0.588123 0.500495
11.43999958 -12.17000008 -0.06000000 54 169 144 97.000000 1.000000 4.000000 1.000000 0.000000 114.000000 210.000000 0.649211 -0.625846 -0.432251
11.39000034 -12.14999962 -0.12000000 54 169 144 97.000000 1.000000 4.000000 1.000000 0.000000 114.000000 210.000000 0.861931 -0.506939 0.009413
11.57999992 -12.21000004 -0.02000000 54 169 144 97.000000 1.000000 4.000000 1.000000 0.000000 114.000000 210.000000 -0.082818 0.765701 0.637842
11.59000015 -12.22000027 0.02000000 54 169 144 97.000000 1.000000 4.000000 1.000000 0.000000 114.000000 210.000000 -0.268892 0.727122 0.631657
11.57999992 -12.23999977 0.00000000 54 169 144 97.000000 1.000000 4.000000 1.000000 0.000000 114.000000 210.000000 0.449502 -0.633313 -0.629971
11.56999969 -12.22000027 -0.02000000 54 169 144 97.000000 1.000000 4.000000 1.000000 0.000000 114.000000 210.000000 -0.242440 0.592805 0.767988
11.57999992 -12.25000000 -0.01000000 54 169 144 97.000000 1.000000 4.000000 1.000000 0.000000 114.000000 210.000000 -0.085446 0.783493 0.615498
11.55000019 -12.25000000 0.00000000 54 169 144 97.000000 1.000000 4.000000 1.000000 0.000000 114.000000 210.000000 -0.241354 0.686203 0.686203
11.52999973 -12.23999977 -0.01000000 54 169 144 97.000000 1.000000 4.000000 1.000000 0.000000 114.000000 210.000000 -0.485171 0.592613 0.642977
11.55000019 -12.26000023 0.01000000 54 169 144 97.000000 1.000000 4.000000 1.000000 0.000000 114.000000 210.000000 0.540791 -0.655351 -0.527314
11.55000019 -12.26000023 0.00000000 54 169 144 97.000000 1.000000 4.000000 1.000000 0.000000 114.000000 210.000000 0.686404 -0.593332 -0.420485
11.55000019 -12.26000023 -0.01000000 54 169 144 97.000000 1.000000 4.000000 1.000000 0.000000 114.000000 210.000000 -0.380802 0.779429 0.497474
11.60000038 -12.27000046 0.05000000 54 169 144 97.000000 1.000000 4.000000 1.000000 0.000000 114.000000 210.000000 -0.071819 0.513995 0.854781
11.59000015 -12.27999973 0.02000000 54 169 144 97.000000 1.000000 4.000000 1.000000 0.000000 114.000000 210.000000 -0.234312 0.906686 0.350740
11.59000015 -12.27999973 0.02000000 54 169 144 97.000000 1.000000 4.000000 1.000000 0.000000 114.000000 210.000000 -0.234312 0.906686 0.350740
11.59000015 -12.31999969 -0.01000000 54 169 144 97.000000 1.000000 4.000000 1.000000 0.000000 114.000000 210.000000 -0.305448 0.825493 0.474619
11.53999996 -12.27000046 0.02000000 54 169 144 97.000000 1.000000 4.000000 1.000000 0.000000 114.000000 210.000000 -0.058537 0.783829 0.618211
11.53999996 -12.27000046 0.00000000 54 169 144 97.000000 1.000000 4.000000 1.000000 0.000000 114.000000 210.000000 -0.617604 0.664215 0.421169
11.53999996 -12.31999969 0.00000000 54 169 144 97.000000 1.000000 4.000000 1.000000 0.000000 114.000000 210.000000 -0.392043 0.509168 0.766192
11.52000046 -12.18000031 0.02000000 54 169 144 97.000000 1.000000 4.000000 1.000000 0.000000 114.000000 210.000000 -0.615908 0.636047 0.464868
11.51000023 -12.18000031 0.00000000 54 169 144 97.000000 1.000000 4.000000 1.000000 0.000000 114.000000 210.000000 -0.422623 0.748223 0.511423
11.48999977 -12.26000023 0.01000000 54 169 144 97.000000 1.000000 4.000000 1.000000 0.000000 114.000000 210.000000 0.626916 -0.555944 -0.545805
11.52000046 -12.25000000 0.00000000 54 169 144 97.000000 1.000000 4.000000 1.000000 0.000000 114.000000 210.000000 0.722656 -0.506690 -0.470142
11.52000046 -12.30000019 0.00000000 54 169 144 97.000000 1.000000 4.000000 1.000000 0.000000 114.000000 210.000000 -0.473080 0.443615 0.761184
11.52000046 -12.31999969 -0.01000000 54 169 144 97.000000 1.000000 4.000000 1.000000 0.000000 114.000000 210.000000 -0.256722 0.905129 0.338873
11.48999977 -12.32999992 0.00000000 54 169 144 97.000000 1.000000 4.000000 1.000000 0.000000 114.000000 210.000000 0.743998 -0.635724 -0.205721
11.48999977 -12.31999969 -0.01000000 54 169 144 97.000000 1.000000 4.000000 1.000000 0.000000 114.000000 210.000000 0.812019 -0.572071 -0.115585
11.56999969 -12.18999958 -0.04000000 54 169 144 97.000000 1.000000 4.000000 1.000000 0.000000 114.000000 210.000000 -0.142375 0.884451 0.444383
11.60000038 -12.19999981 -0.08000000 54 169 144 97.000000 1.000000 4.000000 1.000000 0.000000 114.000000 210.000000 -0.265189 0.943964 0.196487
11.53999996 -12.18999958 -0.09000000 54 169 144 97.000000 1.000000 4.000000 1.000000 0.000000 114.000000 210.000000 -0.415299 0.877075 0.241383
11.55000019 -12.18999958 -0.10000000 54 169 144 97.000000 1.000000 4.000000 1.000000 0.000000 114.000000 210.000000 -0.421696 0.898397 0.122701
11.56999969 -12.18000031 -0.11000000 54 169 144 97.000000 1.000000 4.000000 1.000000 0.000000 114.000000 210.000000 -0.317997 0.937612 0.140574
11.60000038 -12.22000027 -0.12000000 54 169 144 97.000000 1.000000 4.000000 1.000000 0.000000 114.000000 210.000000 -0.479813 0.876712 0.033981
11.55000019 -12.32999992 -0.06000000 54 169 144 97.000000 1.000000 4.000000 1.000000 0.000000 114.000000 210.000000 -0.575774 0.776588 0.255725
11.53999996 -12.34000015 -0.06000000 54 169 144 97.000000 1.000000 4.000000 1.000000 0.000000 114.000000 210.000000 -0.529509 0.777365 0.339594
11.60000038 -12.31000042 -0.06000000 54 169 144 97.000000 1.000000 4.000000 1.000000 0.000000 114.000000 210.000000 -0.430911 0.880940 0.195601
11.52999973 -12.34000015 -0.04000000 54 169 144 97.000000 1.000000 4.000000 1.000000 0.000000 114.000000 210.000000 0.704203 -0.701238 -0.111190
11.60000038 -12.30000019 -0.06000000 54 169 144 97.000000 1.000000 4.000000 1.000000 0.000000 114.000000 210.000000 -0.534822 0.829793 0.159404
11.56999969 -12.27000046 -0.03000000 54 169 144 97.000000 1.000000 4.000000 1.000000 0.000000 114.000000 210.000000 0.453401 -0.590593 -0.667554
11.52000046 -12.21000004 -0.05000000 54 169 144 97.000000 1.000000 4.000000 1.000000 0.000000 114.000000 210.000000 0.564966 -0.782140 -0.262812
11.52000046 -12.18999958 -0.10000000 54 169 144 97.000000 1.000000 4.000000 1.000000 0.000000 114.000000 210.000000 -0.433108 0.739413 0.515448
11.50000000 -12.25000000 -0.10000000 54 169 144 97.000000 1.000000 4.000000 1.000000 0.000000 114.000000 210.000000 0.756146 -0.643244 -0.120330
11.47999954 -12.21000004 -0.03000000 54 169 144 97.000000 1.000000 4.000000 1.000000 0.000000 114.000000 210.000000 -0.694101 0.632040 0.344601
11.46000004 -12.18999958 -0.06000000 54 169 144 97.000000 1.000000 4.000000 1.000000 0.000000 114.000000 210.000000 0.778821 -0.623917 -0.064543
11.47000027 -12.21000004 -0.06000000 54 169 144 97.000000 1.000000 4.000000 1.000000 0.000000 114.000000 210.000000 -0.554305 0.823414 -0.121391
11.47999954 -12.21000004 -0.04000000 54 169 144 97.000000 1.000000 4.000000 1.000000 0.000000 114.000000 210.000000 0.789168 -0.435906 -0.432665
11.47000027 -12.21000004 -0.10000000 54 169 144 97.000000 1.000000 4.000000 1.000000 0.000000 114.000000 210.000000 -0.352816 0.915607 0.192835
11.47000027 -12.22999954 -0.06000000 54 169 144 97.000000 1.000000 4.000000 1.000000 0.000000 114.000000 210.000000 0.821356 -0.567764 -0.054945
11.47000027 -12.22000027 -0.06000000 54 169 144 97.000000 1.000000 4.000000 1.000000 0.000000 114.000000 210.000000 -0.710394 0.679708 0.182585
11.44999981 -12.22999954 -0.09000000 54 169 144 97.000000 1.000000 4.000000 1.000000 0.000000 114.000000 210.000000 -0.732883 0.656382 0.179013
11.43999958 -12.25000000 -0.10000000 54 169 144 97.000000 1.000000 4.000000 1.000000 0.000000 114.000000 210.000000 0.799785 -0.563380 -0.207238
11.46000004 -12.22000027 -0.10000000 54 169 144 97.000000 1.000000 4.000000 1.000000 0.000000 114.000000 210.000000 0.876642 -0.464778 0.124417
11.52000046 -12.18000031 -0.11000000 54 169 144 97.000000 1.000000 4.000000 1.000000 0.000000 114.000000 210.000000 -0.567457 0.638178 0.520309
11.44999981 -12.18000031 -0.15000001 54 169 144 97.000000 1.000000 4.000000 1.000000 0.000000 114.000000 210.000000 -0.637806 0.752945 0.162103
11.47000027 -12.28999996 -0.05000000 54 169 144 97.000000 1.000000 4.000000 1.000000 0.000000 114.000000 210.000000 0.817880 -0.422492 -0.390606
11.47999954 -12.31999969 -0.06000000 54 169 144 97.000000 1.000000 4.000000 1.000000 0.000000 114.000000 210.000000 0.769917 -0.459335 -0.442989
11.52999973 -12.36999989 -0.01000000 54 169 144 97.000000 1.000000 4.000000 1.000000 0.000000 114.000000 210.000000 -0.051559 0.845851 0.530921
11.55000019 -12.35999966 -0.01000000 54 169 144 97.000000 1.000000 4.000000 1.000000 0.000000 114.000000 210.000000 -0.152721 0.828845 0.538230
11.43000031 -12.25000000 -0.09000000 54 169 144 97.000000 1.000000 4.000000 1.000000 0.000000 114.000000 210.000000 0.762325 -0.618142 0.191732
11.38000011 -12.19999981 -0.12000000 54 169 144 97.000000 1.000000 4.000000 1.000000 0.000000 114.000000 210.000000 0.940078 -0.323194 -0.108625
11.39000034 -12.19999981 -0.12000000 54 169 144 97.000000 1.000000 4.000000 1.000000 0.000000 114.000000 210.000000 0.774915 -0.629351 -0.058511
11.38000011 -12.25000000 -0.11000000 54 169 144 97.000000 1.000000 4.000000 1.000000 0.000000 114.000000 210.000000 0.953366 -0.299268 -0.039145
11.43000031 -12.31000042 -0.09000000 54 169 144 97.000000 1.000000 4.000000 1.000000 0.000000 114.000000 210.000000 0.772387 -0.634007 -0.038125
11.34000015 -12.19999981 -0.12000000 54 169 144 97.000000 1.000000 4.000000 1.000000 0.000000 114.000000 210.000000 -0.538598 0.781526 0.314848
13.42000008 -11.47999954 -1.01999998 54 169 144 0.000000 0.000000 0.000000 0.000000 132.978989 0.000000 181.000000 0.826840 -0.513899 0.228570
13.21000004 -11.46000004 -1.03999996 54 169 144 0.000000 0.000000 0.000000 0.000000 132.978989 0.000000 125.000000 0.904002 -0.182525 0.386608
13.31999969 -11.43000031 -1.11000001 54 169 144 0.000000 0.000000 0.000000 0.000000 132.978989 0.000000 125.000000 0.662386 -0.602320 0.445483
13.31000042 -11.44999981 -1.12000000 54 169 144 0.000000 0.000000 0.000000 0.000000 132.978989 0.000000 125.000000 0.661550 -0.526883 0.533616
13.26000023 -11.40999985 -1.08000004 54 169 144 0.000000 0.000000 0.000000 0.000000 132.978989 0.000000 125.000000 0.914513 -0.350635 0.201794
13.26000023 -11.42000008 -1.05999994 54 169 144 0.000000 0.000000 0.000000 0.000000 132.978989 0.000000 125.000000 0.701727 -0.704682 0.104890
13.26000023 -11.42000008 -1.07000005 54 169 144 0.000000 0.000000 0.000000 0.000000 132.978989 0.000000 125.000000 0.940625 -0.336767 -0.042580
13.25000000 -11.46000004 -1.14999998 54 169 144 0.000000 0.000000 0.000000 0.000000 132.978989 0.000000 125.000000 -0.648161 0.740099 -0.179279
13.22999954 -11.47999954 -1.11000001 54 169 144 0.000000 0.000000 0.000000 0.000000 132.978989 0.000000 125.000000 0.653618 -0.733590 0.186089
13.18000031 -11.43000031 -1.08000004 54 169 144 0.000000 0.000000 0.000000 0.000000 132.978989 0.000000 125.000000 0.819617 -0.479814 0.313059
13.17000008 -11.43999958 -1.10000002 54 169 144 0.000000 0.000000 0.000000 0.000000 132.978989 0.000000 125.000000 0.759507 -0.434707 0.483919
13.17000008 -11.43999958 -1.10000002 54 169 144 0.000000 0.000000 0.000000 0.000000 132.978989 0.000000 125.000000 0.759507 -0.434707 0.483919
13.17000008 -11.44999981 -1.13000000 54 169 144 0.000000 0.000000 0.000000 0.000000 132.978989 0.000000 125.000000 -0.708583 0.657856 0.255217
13.18999958 -11.44999981 -1.10000002 54 169 144 0.000000 0.000000 0.000000 0.000000 132.978989 0.000000 125.000000 -0.655707 0.740120 0.149230
13.22999954 -11.46000004 -1.17999995 54 169 144 0.000000 0.000000 0.000000 0.000000 132.978989 0.000000 125.000000 -0.638021 0.748183 -0.182073
13.22999954 -11.46000004 -1.17999995 54 169 144 0.000000 0.000000 0.000000 0.000000 132.978989 0.000000 125.000000 -0.638021 0.748183 -0.182073
13.22000027 -11.46000004 -1.15999997 54 169 144 0.000000 0.000000 0.000000 0.000000 132.978989 0.000000 125.000000 0.941109 -0.256414 0.220377
13.06999969 -11.47999954 -0.89999998 54 169 144 0.000000 0.000000 0.000000 0.000000 132.978989 0.000000 210.000000 0.768822 -0.132864 0.625508
13.06999969 -11.46000004 -0.89999998 54 169 144 0.000000 0.000000 0.000000 0.000000 132.978989 0.000000 210.000000 0.710394 -0.182585 0.679708
13.06000042 -11.47999954 -0.89999998 54 169 144 0.000000 0.000000 0.000000 0.000000 132.978989 0.000000 210.000000 0.686174 -0.202909 0.698565
13.13000011 -11.38000011 -1.11000001 54 169 144 0.000000 0.000000 0.000000 0.000000 132.978989 0.000000 125.000000 0.894456 -0.433888 -0.108121
13.13000011 -11.36999989 -1.11000001 54 169 144 0.000000 0.000000 0.000000 0.000000 132.978989 0.000000 125.000000 0.845823 -0.526321 -0.087007
13.10999966 -11.39999962 -1.11000001 54 169 144 0.000000 0.000000 0.000000 0.000000 132.978989 0.000000 125.000000 -0.722009 0.635942 -0.272546
13.11999989 -11.43999958 -1.09000003 54 169 144 0.000000 0.000000 0.000000 0.000000 132.978989 0.000000 125.000000 -0.704880 0.667034 0.241268
13.11999989 -11.43999958 -1.09000003 54 169 144 0.000000 0.000000 0.000000 0.000000 132.978989 0.000000 125.000000 -0.704880 0.667034 0.241268
13.11999989 -11.43999958 -1.10000002 54 169 144 0.000000 0.000000 0.000000 0.000000 132.978989 0.000000 125.000000 0.536052 -0.817059 0.212283
13.11999989 -11.40999985 -1.13000000 54 169 144 0.000000 0.000000 0.000000 0.000000 132.978989 0.000000 125.000000 -0.705581 0.607356 -0.365068
13.13000011 -11.40999985 -1.14999998 54 169 144 0.000000 0.000000 0.000000 0.000000 132.978989 0.000000 125.000000 -0.653540 0.750469 -0.098398
13.03999996 -11.43000031 -1.07000005 54 169 144 0.000000 0.000000 0.000000 0.000000 132.978989 0.000000 125.000000 0.905657 -0.337976 0.256042
13.03999996 -11.43000031 -1.05999994 54 169 144 0.000000 0.000000 0.000000 0.000000 132.978989 0.000000 125.000000 0.960258 -0.267236 0.080554
13.03999996 -11.43999958 -1.05999994 54 169 144 0.000000 0.000000 0.000000 0.000000 132.978989 0.000000 125.000000 0.970437 -0.234922 0.055348
13.22999954 -11.42000008 -1.25999999 54 169 144 0.000000 0.000000 0.000000 0.000000 132.978989 0.000000 160.000000 0.879615 -0.468476 0.082508
13.22000027 -11.43000031 -1.25999999 54 169 144 0.000000 0.000000 0.000000 0.000000 132.978989 0.000000 160.000000 0.913682 -0.388002 -0.120990
13.22000027 -11.42000008 -1.26999998 54 169 144 0.000000 0.000000 0.000000 0.000000 132.978989 0.000000 160.000000 -0.575593 0.744217 0.338870
13.18000031 -11.47000027 -1.25000000 54 169 144 0.000000 0.000000 0.000000 0.000000 132.978989 0.000000 160.000000 -0.677083 0.702102 0.220482
13.18999958 -11.46000004 -1.25000000 54 169 144 0.000000 0.000000 0.000000 0.000000 132.978989 0.000000 160.000000 -0.486261 0.842954 -0.230174
13.14000034 -11.38000011 -1.23000002 54 169 144 0.000000 0.000000 0.000000 0.000000 132.978989 0.000000 160.000000 0.829221 -0.507342 -0.234512
13.11999989 -11.39999962 -1.24000001 54 169 144 0.000000 0.000000 0.000000 0.000000 132.978989 0.000000 160.000000 0.781408 -0.587212 -0.211150
13.13000011 -11.39999962 -1.23000002 54 169 144 0.000000 0.000000 0.000000 0.000000 132.978989 0.000000 160.000000 0.727252 -0.673271 0.133455
13.13000011 -11.39999962 -1.23000002 54 169 144 0.000000 0.000000 0.000000 0.000000 132.978989 0.000000 160.000000 0.727252 -0.673271 0.133455
13.10000038 -11.35999966 -1.25999999 54 169 144 0.000000 0.000000 0.000000 0.000000 132.978989 0.000000 160.000000 -0.430904 0.898979 0.078471
13.10000038 -11.39000034 -1.30999994 54 169 144 0.000000 0.000000 0.000000 0.000000 132.978989 0.000000 160.000000 0.824044 -0.478730 -0.302934
13.11999989 -11.47999954 -1.24000001 54 169 144 0.000000 0.000000 0.000000 0.000000 132.978989 0.000000 160.000000 -0.648380 0.752240 0.117213
13.07999992 -11.42000008 -1.27999997 54 169 144 0.000000 0.000000 0.000000 0.000000 132.978989 0.000000 160.000000 -0.637217 0.765535 0.088948
13.10000038 -11.43999958 -1.30999994 54 169 144 0.000000 0.000000 0.000000 0.000000 132.978989 0.000000 160.000000 -0.631250 0.735147 -0.247148
13.06000042 -11.47000027 -1.24000001 54 169 144 0.000000 0.000000 0.000000 0.000000 132.978989 0.000000 160.000000 -0.571157 0.805016 -0.160404
13.03999996 -11.46000004 -1.23000002 54 169 144 0.000000 0.000000 0.000000 0.000000 132.978989 0.000000 160.000000 0.776890 -0.501167 -0.381147
13.01000023 -11.40999985 -1.25999999 54 169 144 0.000000 0.000000 0.000000 0.000000 132.978989 0.000000 160.000000 -0.596787 0.797168 0.091478
13.01000023 -11.42000008 -1.25000000 54 169 144 0.000000 0.000000 0.000000 0.000000 132.978989 0.000000 160.000000 -0.502616 0.864500 -0.004021
13.01000023 -11.42000008 -1.25000000 54 169 144 0.000000 0.000000 0.000000 0.000000 132.978989 0.000000 160.000000 -0.502616 0.864500 -0.004021
13.00000000 -11.44999981 -1.28999996 54 169 144 0.000000 0.000000 0.000000 0.000000 132.978989 0.000000 160.000000 0.775042 -0.629454 -0.055666
12.97999954 -11.47000027 -0.85000002 54 169 144 0.000000 0.000000 0.000000 0.000000 132.978989 0.000000 210.000000 0.809483 -0.411955 0.418366
12.77000046 -11.35000038 -1.21000004 54 169 144 0.000000 0.000000 0.000000 0.000000 132.978989 0.000000 160.000000 0.703234 -0.651973 -0.283536
12.77999973 -11.38000011 -1.16999996 54 169 144 0.000000 0.000000 0.000000 0.000000 132.978989 0.000000 160.000000 -0.711009 0.702561 0.029567
12.77000046 -11.38000011 -1.17999995 54 169 144 0.000000 0.000000 0.000000 0.000000 132.978989 0.000000 160.000000 -0.751894 0.414443 0.512730
12.73999977 -11.38000011 -1.17999995 54 169 144 0.000000 0.000000 0.000000 0.000000 132.978989 0.000000 160.000000 -0.210018 0.905251 0.369342
12.72999954 -11.36999989 -1.22000003 54 169 144 0.000000 0.000000 0.000000 0.000000 132.978989 0.000000 160.000000 -0.196519 0.704065 0.682402
12.76000023 -11.36999989 -1.20000005 54 169 144 0.000000 0.000000 0.000000 0.000000 132.978989 0.000000 160.000000 -0.217234 0.924310 0.313783
12.69999981 -11.32999992 -1.22000003 54 169 144 0.000000 0.000000 0.000000 0.000000 132.978989 0.000000 160.000000 -0.216950 0.666457 0.713280
12.71000004 -11.39000034 -1.17999995 54 169 144 0.000000 0.000000 0.000000 0.000000 132.978989 0.000000 160.000000 -0.330684 0.852325 0.405204
12.69999981 -11.39999962 -1.16999996 54 169 144 0.000000 0.000000 0.000000 0.000000 132.978989 0.000000 160.000000 -0.432202 0.774702 0.461560
12.68999958 -11.38000011 -1.20000005 54 169 144 0.000000 0.000000 0.000000 0.000000 132.978989 0.000000 160.000000 -0.009739 0.685896 0.727634
12.72000027 -11.35999966 -1.21000004 54 169 144 0.000000 0.000000 0.000000 0.000000 132.978989 0.000000 160.000000 -0.196002 0.668258 0.717645
12.68999958 -11.39000034 -1.19000006 54 169 144 0.000000 0.000000 0.000000 0.000000 132.978989 0.000000 160.000000 0.282985 -0.657101 -0.698669
12.71000004 -11.36999989 -1.20000005 54 169 144 0.000000 0.000000 0.000000 0.000000 132.978989 0.000000 160.000000 0.004143 0.766514 0.642214
12.72000027 -11.38000011 -1.20000005 54 169 144 0.000000 0.000000 0.000000 0.000000 132.978989 0.000000 160.000000 -0.074173 0.866282 0.494019
12.72000027 -11.38000011 -1.22000003 54 169 144 0.000000 0.000000 0.000000 0.000000 132.978989 0.000000 160.000000 -0.009738 0.683029 0.730326
12.72000027 -11.39000034 -1.19000006 54 169 144 0.000000 0.000000 0.000000 0.000000 132.978989 0.000000 160.000000 -0.414461 0.758479 0.502923
12.93999958 -11.36999989 -1.25999999 54 169 144 0.000000 0.000000 0.000000 0.000000 132.978989 0.000000 160.000000 0.788657 -0.479000 -0.385458
12.93999958 -11.36999989 -1.25999999 54 169 144 0.000000 0.000000 0.000000 0.000000 132.978989 0.000000 160.000000 0.788657 -0.479000 -0.385458
12.92000008 -11.39000034 -1.24000001 54 169 144 0.000000 0.000000 0.000000 0.000000 132.978989 0.000000 160.000000 -0.381136 0.911044 0.157272
12.86999989 -11.36999989 -1.25999999 54 169 144 0.000000 0.000000 0.000000 0.000000 132.978989 0.000000 160.000000 -0.229780 0.866555 0.443039
12.84000015 -11.39000034 -1.23000002 54 169 144 0.000000 0.000000 0.000000 0.000000 132.978989 0.000000 160.000000 -0.334810 0.845590 0.415787
12.80000019 -11.36999989 -1.25000000 54 169 144 0.000000 0.000000 0.000000 0.000000 132.978989 0.000000 160.000000 -0.471732 0.825922 0.308741
12.78999996 -11.39000034 -1.28999996 54 169 144 0.000000 0.000000 0.000000 0.000000 132.978989 0.000000 160.000000 -0.222243 0.823067 0.522655
12.73999977 -11.35999966 -1.23000002 54 169 144 0.000000 0.000000 0.000000 0.000000 132.978989 0.000000 160.000000 -0.208457 0.882616 0.421349
12.73999977 -11.35999966 -1.24000001 54 169 144 0.000000 0.000000 0.000000 0.000000 132.978989 0.000000 160.000000 0.001330 0.871255 0.490829
12.73999977 -11.40999985 -1.25000000 54 169 144 0.000000 0.000000 0.000000 0.000000 132.978989 0.000000 160.000000 -0.458264 0.860936 0.220868
12.71000004 -11.34000015 -1.25000000 54 169 144 0.000000 0.000000 0.000000 0.000000 132.978989 0.000000 160.000000 -0.339784 0.768138 0.542689
12.71000004 -11.34000015 -1.24000001 54 169 144 0.000000 0.000000 0.000000 0.000000 132.978989 0.000000 160.000000 -0.336277 0.874929 0.348450
12.68000031 -11.34000015 -1.23000002 54 169 144 0.000000 0.000000 0.000000 0.000000 132.978989 0.000000 160.000000 -0.164334 0.580444 0.797545
12.68000031 -11.32999992 -1.24000001 54 169 144 0.000000 0.000000 0.000000 0.000000 132.978989 0.000000 160.000000 -0.192403 0.651091 0.734209
12.68000031 -11.32999992 -1.24000001 54 169 144 0.000000 0.000000 0.000000 0.000000 132.978989 0.000000 160.000000 -0.192403 0.651091 0.734209
12.68000031 -11.35000038 -1.23000002 54 169 144 0.000000 0.000000 0.000000 0.000000 132.978989 0.000000 160.000000 -0.509413 0.496052 0.703158
12.64999962 -11.35000038 -1.25000000 54 169 144 0.000000 0.000000 0.000000 0.000000 132.978989 0.000000 160.000000 0.029622 0.356749 0.933730
12.68000031 -11.35000038 -1.23000002 54 169 144 0.000000 0.000000 0.000000 0.000000 132.978989 0.000000 160.000000 -0.509413 0.496052 0.703158
12.64999962 -11.35999966 -1.24000001 54 169 144 0.000000 0.000000 0.000000 0.000000 132.978989 0.000000 160.000000 -0.239591 0.846963 0.474605
12.65999985 -11.35999966 -1.24000001 54 169 144 0.000000 0.000000 0.000000 0.000000 132.978989 0.000000 160.000000 -0.191778 0.826006 0.530033
13.09000015 -11.52999973 -0.87000000 54 169 144 0.000000 0.000000 0.000000 0.000000 132.978989 0.000000 210.000000 0.783099 -0.280017 0.555289
