//X Y Z R G B PointSourceId ScanDirectionFlag NumberOfReturns ReturnNumber GpsTime Intensity Classification Nx Ny Nz
15.76000023 -10.86999989 -1.25999999 75 242 97 0.000000 0.000000 0.000000 0.000000 132.978989 0.000000 138.000000 0.205065 0.061884 0.976790
15.73999977 -10.97000027 -1.23000002 75 242 97 0.000000 0.000000 0.000000 0.000000 132.978989 0.000000 20.000000 -0.306536 0.286003 0.907875
15.89000034 -11.06000042 -1.27999997 75 242 97 0.000000 0.000000 0.000000 0.000000 132.978989 0.000000 20.000000 0.255791 0.359290 0.897486
15.86999989 -11.07999992 -1.26999998 75 242 97 0.000000 0.000000 0.000000 0.000000 132.978989 0.000000 20.000000 0.370012 0.360723 0.856137
15.86999989 -11.07999992 -1.26999998 75 242 97 0.000000 0.000000 0.000000 0.000000 132.978989 0.000000 20.000000 0.370012 0.360723 0.856137
15.85999966 -11.14000034 -1.27999997 75 242 97 0.000000 0.000000 0.000000 0.000000 132.978989 0.000000 20.000000 -0.081553 0.007414 0.996641
15.80000019 -11.09000015 -1.26999998 75 242 97 0.000000 0.000000 0.000000 0.000000 132.978989 0.000000 20.000000 -0.179584 0.177000 0.967688
15.78999996 -11.14000034 -1.26999998 75 242 97 0.000000 0.000000 0.000000 0.000000 132.978989 0.000000 20.000000 0.197560 0.408292 0.891217
15.75000000 -11.06999969 -1.27999997 75 242 97 0.000000 0.000000 0.000000 0.000000 132.978989 0.000000 20.000000 0.123614 0.210271 0.969797
15.77000046 -11.14000034 -1.25999999 75 242 97 0.000000 0.000000 0.000000 0.000000 132.978989 0.000000 20.000000 0.377719 0.316550 0.870129
16.04000092 -11.27000046 -1.20000005 75 242 97 0.000000 0.000000 0.000000 0.000000 132.978989 0.000000 138.000000 0.056555 0.484163 0.873148
16.04999924 -11.27000046 -1.20000005 75 242 97 0.000000 0.000000 0.000000 0.000000 132.978989 0.000000 138.000000 -0.042193 0.466846 0.883332
16.04000092 -11.25000000 -1.21000004 75 242 97 0.000000 0.000000 0.000000 0.000000 132.978989 0.000000 138.000000 0.198793 0.630283 0.750483
16.06999969 -11.30000019 -1.20000005 75 242 97 0.000000 0.000000 0.000000 0.000000 132.978989 0.000000 138.000000 -0.296477 0.332233 0.895390
16.02000046 -11.23999977 -1.21000004 75 242 97 0.000000 0.000000 0.000000 0.000000 132.978989 0.000000 138.000000 -0.216916 0.663232 0.716290
16.03000069 -11.27000046 -1.20000005 75 242 97 0.000000 0.000000 0.000000 0.000000 132.978989 0.000000 138.000000 -0.126602 0.385370 0.914036
16.00000000 -11.26000023 -1.21000004 75 242 97 0.000000 0.000000 0.000000 0.000000 132.978989 0.000000 138.000000 -0.126972 0.392078 0.911127
16.03000069 -11.27000046 -1.20000005 75 242 97 0.000000 0.000000 0.000000 0.000000 132.978989 0.000000 138.000000 -0.126602 0.385370 0.914036
16.03000069 -11.30000019 -1.20000005 75 242 97 0.000000 0.000000 0.000000 0.000000 132.978989 0.000000 138.000000 0.386996 0.208832 0.898122
16.03000069 -11.31000042 -1.19000006 75 242 97 0.000000 0.000000 0.000000 0.000000 132.978989 0.000000 138.000000 0.235151 0.426867 0.873206
15.93999958 -11.27999973 -1.19000006 75 242 97 0.000000 0.000000 0.000000 0.000000 132.978989 0.000000 138.000000 0.087863 0.456052 0.885605
15.90999985 -11.31000042 -1.15999997 75 242 97 0.000000 0.000000 0.000000 0.000000 132.978989 0.000000 138.000000 0.061868 0.463324 0.884027
15.90999985 -11.27000046 -1.17999995 75 242 97 0.000000 0.000000 0.000000 0.000000 132.978989 0.000000 138.000000 0.284670 0.435468 0.854009
15.94999981 -11.27999973 -1.19000006 75 242 97 0.000000 0.000000 0.000000 0.000000 132.978989 0.000000 138.000000 0.280553 0.367570 0.886669
15.93999958 -11.27000046 -1.19000006 75 242 97 0.000000 0.000000 0.000000 0.000000 132.978989 0.000000 138.000000 0.009317 0.475190 0.879834
15.94999981 -11.27999973 -1.19000006 75 242 97 0.000000 0.000000 0.000000 0.000000 132.978989 0.000000 138.000000 0.280553 0.367570 0.886669
15.96000004 -11.27999973 -1.20000005 75 242 97 0.000000 0.000000 0.000000 0.000000 132.978989 0.000000 138.000000 0.214703 0.319922 0.922796
15.98999977 -11.27999973 -1.19000006 75 242 97 0.000000 0.000000 0.000000 0.000000 132.978989 0.000000 138.000000 0.046904 0.641016 0.766093
15.93999958 -11.31000042 -1.17999995 75 242 97 0.000000 0.000000 0.000000 0.000000 132.978989 0.000000 138.000000 -0.120328 0.380347 0.916983
15.94999981 -11.26000023 -1.20000005 75 242 97 0.000000 0.000000 0.000000 0.000000 132.978989 0.000000 138.000000 0.081444 0.555821 0.827302
15.96000004 -11.28999996 -1.19000006 75 242 97 0.000000 0.000000 0.000000 0.000000 132.978989 0.000000 138.000000 0.229414 0.366770 0.901582
15.93999958 -11.30000019 -1.19000006 75 242 97 0.000000 0.000000 0.000000 0.000000 132.978989 0.000000 138.000000 -0.108143 0.190183 0.975774
16.04999924 -11.36999989 -1.08000004 75 242 97 0.000000 0.000000 0.000000 0.000000 132.978989 0.000000 138.000000 0.199115 0.646738 0.736263
16.03000069 -11.38000011 -1.13000000 75 242 97 0.000000 0.000000 0.000000 0.000000 132.978989 0.000000 138.000000 0.171714 0.621512 0.764354
16.02000046 -11.39999962 -1.13000000 75 242 97 0.000000 0.000000 0.000000 0.000000 132.978989 0.000000 138.000000 0.049499 0.208860 0.976692
16.05999947 -11.35000038 -1.13999999 75 242 97 0.000000 0.000000 0.000000 0.000000 132.978989 0.000000 138.000000 -0.110943 0.690808 0.714476
16.02000046 -11.39999962 -1.13000000 75 242 97 0.000000 0.000000 0.000000 0.000000 132.978989 0.000000 138.000000 0.049499 0.208860 0.976692
16.01000023 -11.35999966 -1.13999999 75 242 97 0.000000 0.000000 0.000000 0.000000 132.978989 0.000000 138.000000 0.208771 0.756213 0.620126
16.04000092 -11.32999992 -1.17999995 75 242 97 0.000000 0.000000 0.000000 0.000000 132.978989 0.000000 138.000000 -0.192271 0.430041 0.882098
16.04999924 -11.35000038 -1.15999997 75 242 97 0.000000 0.000000 0.000000 0.000000 132.978989 0.000000 138.000000 -0.018198 0.698541 0.715339
16.04000092 -11.34000015 -1.16999996 75 242 97 0.000000 0.000000 0.000000 0.000000 132.978989 0.000000 138.000000 -0.338239 0.381484 0.860270
16.04000092 -11.34000015 -1.16999996 75 242 97 0.000000 0.000000 0.000000 0.000000 132.978989 0.000000 138.000000 -0.338239 0.381484 0.860270
16.01000023 -11.35000038 -1.16999996 75 242 97 0.000000 0.000000 0.000000 0.000000 132.978989 0.000000 138.000000 0.189851 0.260874 0.946521
16.02000046 -11.35000038 -1.15999997 75 242 97 0.000000 0.000000 0.000000 0.000000 132.978989 0.000000 138.000000 -0.296838 0.458467 0.837673
16.02000046 -11.31999969 -1.19000006 75 242 97 0.000000 0.000000 0.000000 0.000000 132.978989 0.000000 138.000000 -0.114277 0.525096 0.843336
16.03000069 -11.36999989 -1.15999997 75 242 97 0.000000 0.000000 0.000000 0.000000 132.978989 0.000000 138.000000 -0.116240 0.590031 0.798969
16.02000046 -11.35999966 -1.16999996 75 242 97 0.000000 0.000000 0.000000 0.000000 132.978989 0.000000 138.000000 0.358539 0.607388 0.708893
16.06999969 -11.43000031 -1.09000003 75 242 97 0.000000 0.000000 0.000000 0.000000 132.978989 0.000000 138.000000 -0.065632 0.498524 0.864388
16.05999947 -11.42000008 -1.10000002 75 242 97 0.000000 0.000000 0.000000 0.000000 132.978989 0.000000 138.000000 0.035921 0.421738 0.906006
15.92000008 -11.35999966 -1.11000001 75 242 97 0.000000 0.000000 0.000000 0.000000 132.978989 0.000000 138.000000 0.207290 0.836724 0.506876
15.98999977 -11.31999969 -1.17999995 75 242 97 0.000000 0.000000 0.000000 0.000000 132.978989 0.000000 138.000000 0.433116 0.394759 0.810294
15.97999954 -11.32999992 -1.17999995 75 242 97 0.000000 0.000000 0.000000 0.000000 132.978989 0.000000 138.000000 -0.270661 0.580892 0.767664
15.94999981 -11.35999966 -1.16999996 75 242 97 0.000000 0.000000 0.000000 0.000000 132.978989 0.000000 138.000000 -0.057209 0.514884 0.855349
15.94999981 -11.35999966 -1.15999997 75 242 97 0.000000 0.000000 0.000000 0.000000 132.978989 0.000000 138.000000 -0.135835 0.387901 0.911637
15.97000027 -11.39999962 -1.15999997 75 242 97 0.000000 0.000000 0.000000 0.000000 132.978989 0.000000 138.000000 0.091771 0.782241 0.616179
15.97999954 -11.35999966 -1.14999998 75 242 97 0.000000 0.000000 0.000000 0.000000 132.978989 0.000000 138.000000 -0.175130 0.528385 0.830746
15.97000027 -11.39000034 -1.14999998 75 242 97 0.000000 0.000000 0.000000 0.000000 132.978989 0.000000 138.000000 0.139304 0.753437 0.642594
15.92000008 -11.31999969 -1.16999996 75 242 97 0.000000 0.000000 0.000000 0.000000 132.978989 0.000000 138.000000 0.453432 0.408250 0.792295
15.90999985 -11.31999969 -1.16999996 75 242 97 0.000000 0.000000 0.000000 0.000000 132.978989 0.000000 138.000000 0.006742 0.516466 0.856281
15.92000008 -11.39999962 -1.16999996 75 242 97 0.000000 0.000000 0.000000 0.000000 132.978989 0.000000 138.000000 0.064370 0.619379 0.782449
15.92000008 -11.36999989 -1.20000005 75 242 97 0.000000 0.000000 0.000000 0.000000 132.978989 0.000000 138.000000 0.202888 0.241014 0.949078
15.97000027 -11.40999985 -1.13999999 75 242 97 0.000000 0.000000 0.000000 0.000000 132.978989 0.000000 138.000000 0.045011 0.473294 0.879754
15.98999977 -11.40999985 -1.11000001 75 242 97 0.000000 0.000000 0.000000 0.000000 132.978989 0.000000 138.000000 0.335986 0.323932 0.884410
15.96000004 -11.43999958 -1.13000000 75 242 97 0.000000 0.000000 0.000000 0.000000 132.978989 0.000000 138.000000 0.181215 0.300181 0.936511
15.98999977 -11.47999954 -1.13000000 75 242 97 0.000000 0.000000 0.000000 0.000000 132.978989 0.000000 138.000000 0.409582 0.731984 0.544465
15.90999985 -11.43000031 -1.13999999 75 242 97 0.000000 0.000000 0.000000 0.000000 132.978989 0.000000 138.000000 -0.175277 0.632520 0.754451
15.90999985 -11.43000031 -1.13999999 75 242 97 0.000000 0.000000 0.000000 0.000000 132.978989 0.000000 138.000000 -0.175277 0.632520 0.754451
15.97000027 -11.40999985 -1.15999997 75 242 97 0.000000 0.000000 0.000000 0.000000 132.978989 0.000000 138.000000 0.258195 0.733401 0.628855
15.92000008 -11.42000008 -1.14999998 75 242 97 0.000000 0.000000 0.000000 0.000000 132.978989 0.000000 138.000000 -0.038511 0.407685 0.912310
15.92000008 -11.43999958 -1.14999998 75 242 97 0.000000 0.000000 0.000000 0.000000 132.978989 0.000000 138.000000 0.250339 0.293254 0.922677
15.85000038 -11.26000023 -1.21000004 75 242 97 0.000000 0.000000 0.000000 0.000000 132.978989 0.000000 138.000000 -0.043955 0.636632 0.769914
15.82999992 -11.30000019 -1.16999996 75 242 97 0.000000 0.000000 0.000000 0.000000 132.978989 0.000000 138.000000 0.326182 0.403476 0.854875
15.85999966 -11.31000042 -1.16999996 75 242 97 0.000000 0.000000 0.000000 0.000000 132.978989 0.000000 138.000000 -0.052226 0.585773 0.808791
15.88000011 -11.31000042 -1.16999996 75 242 97 0.000000 0.000000 0.000000 0.000000 132.978989 0.000000 138.000000 0.162349 0.653947 0.738915
15.84000015 -11.31000042 -1.17999995 75 242 97 0.000000 0.000000 0.000000 0.000000 132.978989 0.000000 138.000000 0.197529 0.586462 0.785522
15.77999973 -11.14999962 -1.16999996 75 242 97 0.000000 0.000000 0.000000 0.000000 132.978989 0.000000 20.000000 -0.131847 0.124589 0.983409
15.75000000 -11.28999996 -1.17999995 75 242 97 0.000000 0.000000 0.000000 0.000000 132.978989 0.000000 138.000000 0.102801 0.321753 0.941226
15.82999992 -11.39999962 -1.13999999 75 242 97 0.000000 0.000000 0.000000 0.000000 132.978989 0.000000 138.000000 -0.092112 0.491739 0.865857
15.84000015 -11.39999962 -1.13999999 75 242 97 0.000000 0.000000 0.000000 0.000000 132.978989 0.000000 138.000000 -0.080208 0.395601 0.914913
15.89000034 -11.31999969 -1.16999996 75 242 97 0.000000 0.000000 0.000000 0.000000 132.978989 0.000000 138.000000 0.044755 0.457043 0.888318
15.89999962 -11.31999969 -1.16999996 75 242 97 0.000000 0.000000 0.000000 0.000000 132.978989 0.000000 138.000000 -0.193733 0.406402 0.892919
15.89999962 -11.32999992 -1.15999997 75 242 97 0.000000 0.000000 0.000000 0.000000 132.978989 0.000000 138.000000 -0.005860 0.216803 0.976198
15.88000011 -11.39000034 -1.16999996 75 242 97 0.000000 0.000000 0.000000 0.000000 132.978989 0.000000 138.000000 -0.051618 0.382504 0.922511
15.86999989 -11.38000011 -1.20000005 75 242 97 0.000000 0.000000 0.000000 0.000000 132.978989 0.000000 138.000000 0.064042 0.335894 0.939720
15.85000038 -11.35000038 -1.14999998 75 242 97 0.000000 0.000000 0.000000 0.000000 132.978989 0.000000 138.000000 0.169997 0.278795 0.945185
15.82999992 -11.31999969 -1.16999996 75 242 97 0.000000 0.000000 0.000000 0.000000 132.978989 0.000000 138.000000 -0.202822 0.713746 0.670395
15.85999966 -11.39000034 -1.14999998 75 242 97 0.000000 0.000000 0.000000 0.000000 132.978989 0.000000 138.000000 0.488699 0.589462 0.643202
15.82999992 -11.35999966 -1.15999997 75 242 97 0.000000 0.000000 0.000000 0.000000 132.978989 0.000000 138.000000 0.471075 0.322978 0.820837
15.85999966 -11.38000011 -1.15999997 75 242 97 0.000000 0.000000 0.000000 0.000000 132.978989 0.000000 138.000000 0.356225 0.444886 0.821693
15.85000038 -11.39000034 -1.14999998 75 242 97 0.000000 0.000000 0.000000 0.000000 132.978989 0.000000 138.000000 0.301684 0.325463 0.896137
15.82999992 -11.35999966 -1.15999997 75 242 97 0.000000 0.000000 0.000000 0.000000 132.978989 0.000000 138.000000 0.471075 0.322978 0.820837
15.85000038 -11.44999981 -1.11000001 75 242 97 0.000000 0.000000 0.000000 0.000000 132.978989 0.000000 138.000000 0.500459 0.734997 0.457515
15.85999966 -11.43999958 -1.14999998 75 242 97 0.000000 0.000000 0.000000 0.000000 132.978989 0.000000 138.000000 -0.001275 0.376001 0.926619
15.85000038 -11.44999981 -1.14999998 75 242 97 0.000000 0.000000 0.000000 0.000000 132.978989 0.000000 138.000000 0.274458 0.300597 0.913408
15.81999969 -11.47000027 -1.19000006 75 242 97 0.000000 0.000000 0.000000 0.000000 132.978989 0.000000 138.000000 0.254358 0.294595 0.921149
15.81999969 -11.44999981 -1.20000005 75 242 97 0.000000 0.000000 0.000000 0.000000 132.978989 0.000000 138.000000 0.017880 0.826590 0.562521
15.80000019 -11.32999992 -1.13999999 75 242 97 0.000000 0.000000 0.000000 0.000000 132.978989 0.000000 138.000000 -0.159502 0.730673 0.663834
15.80000019 -11.36999989 -1.13000000 75 242 97 0.000000 0.000000 0.000000 0.000000 132.978989 0.000000 138.000000 -0.033393 0.436784 0.898947
15.81000042 -11.36999989 -1.13999999 75 242 97 0.000000 0.000000 0.000000 0.000000 132.978989 0.000000 138.000000 0.114087 0.686003 0.718599
15.75000000 -11.38000011 -1.13999999 75 242 97 0.000000 0.000000 0.000000 0.000000 132.978989 0.000000 138.000000 0.459918 0.597058 0.657265
15.76000023 -11.39000034 -1.13999999 75 242 97 0.000000 0.000000 0.000000 0.000000 132.978989 0.000000 138.000000 0.217594 0.347286 0.912165
15.78999996 -11.31999969 -1.15999997 75 242 97 0.000000 0.000000 0.000000 0.000000 132.978989 0.000000 138.000000 0.275989 0.461010 0.843386
15.80000019 -11.32999992 -1.17999995 75 242 97 0.000000 0.000000 0.000000 0.000000 132.978989 0.000000 138.000000 -0.113845 0.652022 0.749604
15.80000019 -11.31999969 -1.17999995 75 242 97 0.000000 0.000000 0.000000 0.000000 132.978989 0.000000 138.000000 0.216772 0.558071 0.800978
15.81000042 -11.35999966 -1.14999998 75 242 97 0.000000 0.000000 0.000000 0.000000 132.978989 0.000000 138.000000 -0.152851 0.541658 0.826585
15.77000046 -11.34000015 -1.14999998 75 242 97 0.000000 0.000000 0.000000 0.000000 132.978989 0.000000 138.000000 0.055423 0.601122 0.797233
15.76000023 -11.34000015 -1.14999998 75 242 97 0.000000 0.000000 0.000000 0.000000 132.978989 0.000000 138.000000 0.029404 0.628684 0.777104
15.75000000 -11.31999969 -1.14999998 75 242 97 0.000000 0.000000 0.000000 0.000000 132.978989 0.000000 138.000000 0.430160 0.767091 0.475956
15.78999996 -11.46000004 -1.16999996 75 242 97 0.000000 0.000000 0.000000 0.000000 132.978989 0.000000 138.000000 0.051692 0.385701 0.921175
15.80000019 -11.46000004 -1.16999996 75 242 97 0.000000 0.000000 0.000000 0.000000 132.978989 0.000000 138.000000 0.359628 0.362715 0.859712
15.77999973 -11.44999981 -1.16999996 75 242 97 0.000000 0.000000 0.000000 0.000000 132.978989 0.000000 138.000000 -0.081637 0.557138 0.826397
16.06999969 -11.23999977 -1.23000002 75 242 97 0.000000 0.000000 0.000000 0.000000 132.978989 0.000000 138.000000 -0.047230 0.433169 0.900074
15.94999981 -11.15999985 -1.25999999 75 242 97 0.000000 0.000000 0.000000 0.000000 132.978989 0.000000 20.000000 0.186863 0.237947 0.953133
15.96000004 -11.17000008 -1.25999999 75 242 97 0.000000 0.000000 0.000000 0.000000 132.978989 0.000000 20.000000 0.263017 0.048615 0.963566
15.98999977 -11.15999985 -1.26999998 75 242 97 0.000000 0.000000 0.000000 0.000000 132.978989 0.000000 20.000000 -0.171197 -0.003401 0.985231
15.94999981 -11.18999958 -1.25999999 75 242 97 0.000000 0.000000 0.000000 0.000000 132.978989 0.000000 20.000000 -0.175474 0.624077 0.761404
15.96000004 -11.18999958 -1.27999997 75 242 97 0.000000 0.000000 0.000000 0.000000 132.978989 0.000000 20.000000 0.320447 0.140451 0.936796
15.90999985 -11.18000031 -1.25999999 75 242 97 0.000000 0.000000 0.000000 0.000000 132.978989 0.000000 20.000000 0.051158 0.184406 0.981518
15.93000031 -11.14999962 -1.25999999 75 242 97 0.000000 0.000000 0.000000 0.000000 132.978989 0.000000 20.000000 -0.071307 0.184914 0.980164
15.90999985 -11.14999962 -1.26999998 75 242 97 0.000000 0.000000 0.000000 0.000000 132.978989 0.000000 20.000000 -0.001007 0.031203 0.999513
15.93000031 -11.21000004 -1.25000000 75 242 97 0.000000 0.000000 0.000000 0.000000 132.978989 0.000000 20.000000 0.103878 0.346709 0.932203
15.93000031 -11.19999981 -1.25000000 75 242 97 0.000000 0.000000 0.000000 0.000000 132.978989 0.000000 20.000000 0.106057 0.387038 0.915944
15.92000008 -11.19999981 -1.25000000 75 242 97 0.000000 0.000000 0.000000 0.000000 132.978989 0.000000 20.000000 0.321942 0.301171 0.897580
15.92000008 -11.22999954 -1.23000002 75 242 97 0.000000 0.000000 0.000000 0.000000 132.978989 0.000000 20.000000 0.273750 0.583894 0.764284
15.89000034 -11.17000008 -1.25999999 75 242 97 0.000000 0.000000 0.000000 0.000000 132.978989 0.000000 20.000000 0.218071 0.135488 0.966482
15.89000034 -11.18000031 -1.25000000 75 242 97 0.000000 0.000000 0.000000 0.000000 132.978989 0.000000 20.000000 -0.208457 0.421349 0.882616
15.89000034 -11.22000027 -1.23000002 75 242 97 0.000000 0.000000 0.000000 0.000000 132.978989 0.000000 20.000000 0.298039 0.300975 0.905862
15.86999989 -11.22000027 -1.23000002 75 242 97 0.000000 0.000000 0.000000 0.000000 132.978989 0.000000 20.000000 -0.028157 0.451857 0.891646
15.86999989 -11.18999958 -1.25999999 75 242 97 0.000000 0.000000 0.000000 0.000000 132.978989 0.000000 20.000000 -0.133840 0.306886 0.942289
15.86999989 -11.21000004 -1.25999999 75 242 97 0.000000 0.000000 0.000000 0.000000 132.978989 0.000000 20.000000 -0.040583 0.580759 0.813063
15.89000034 -11.21000004 -1.24000001 75 242 97 0.000000 0.000000 0.000000 0.000000 132.978989 0.000000 20.000000 -0.014914 0.521995 0.852818
15.89000034 -11.18999958 -1.26999998 75 242 97 0.000000 0.000000 0.000000 0.000000 132.978989 0.000000 20.000000 -0.114685 0.538583 0.834731
15.85000038 -11.19999981 -1.24000001 75 242 97 0.000000 0.000000 0.000000 0.000000 132.978989 0.000000 20.000000 0.184379 0.410861 0.892859
15.85000038 -11.21000004 -1.25000000 75 242 97 0.000000 0.000000 0.000000 0.000000 132.978989 0.000000 20.000000 -0.054165 0.198605 0.978582
15.85000038 -11.22000027 -1.24000001 75 242 97 0.000000 0.000000 0.000000 0.000000 132.978989 0.000000 20.000000 -0.191398 0.251124 0.948843
15.85999966 -11.18999958 -1.27999997 75 242 97 0.000000 0.000000 0.000000 0.000000 132.978989 0.000000 20.000000 -0.023799 0.662175 0.748971
15.86999989 -11.25000000 -1.25000000 75 242 97 0.000000 0.000000 0.000000 0.000000 132.978989 0.000000 20.000000 -0.039844 0.332892 0.942123
15.81000042 -11.14999962 -1.23000002 75 242 97 0.000000 0.000000 0.000000 0.000000 132.978989 0.000000 20.000000 0.143724 0.066604 0.987374
15.80000019 -11.18000031 -1.26999998 75 242 97 0.000000 0.000000 0.000000 0.000000 132.978989 0.000000 20.000000 0.263586 0.340158 0.902671
15.77999973 -11.22000027 -1.25000000 75 242 97 0.000000 0.000000 0.000000 0.000000 132.978989 0.000000 20.000000 0.431435 0.591349 0.681301
15.77999973 -11.22000027 -1.25999999 75 242 97 0.000000 0.000000 0.000000 0.000000 132.978989 0.000000 20.000000 0.046620 0.288538 0.956333
15.75000000 -11.19999981 -1.25999999 75 242 97 0.000000 0.000000 0.000000 0.000000 132.978989 0.000000 20.000000 -0.029487 0.652933 0.756841
15.77000046 -11.21000004 -1.25000000 75 242 97 0.000000 0.000000 0.000000 0.000000 132.978989 0.000000 20.000000 0.172289 0.421311 0.890401
15.75000000 -11.18999958 -1.26999998 75 242 97 0.000000 0.000000 0.000000 0.000000 132.978989 0.000000 20.000000 -0.066782 0.200346 0.977446
15.73999977 -11.23999977 -1.25000000 75 242 97 0.000000 0.000000 0.000000 0.000000 132.978989 0.000000 20.000000 0.419341 0.393830 0.817955
15.76000023 -11.25000000 -1.25999999 75 242 97 0.000000 0.000000 0.000000 0.000000 132.978989 0.000000 20.000000 0.094301 0.593373 0.799385
15.64999962 -10.76000023 -1.17999995 75 242 97 0.000000 0.000000 0.000000 0.000000 132.978989 0.000000 138.000000 -0.253603 0.020628 0.967088
15.67000008 -10.77999973 -1.16999996 75 242 97 0.000000 0.000000 0.000000 0.000000 132.978989 0.000000 138.000000 -0.449799 0.017249 0.892963
15.60999966 -10.73999977 -1.17999995 75 242 97 0.000000 0.000000 0.000000 0.000000 132.978989 0.000000 138.000000 0.108987 -0.201689 0.973367
15.56999969 -10.77000046 -1.22000003 75 242 97 0.000000 0.000000 0.000000 0.000000 132.978989 0.000000 138.000000 -0.431231 0.355410 0.829291
15.56000042 -10.80000019 -1.15999997 75 242 97 0.000000 0.000000 0.000000 0.000000 132.978989 0.000000 138.000000 -0.270543 0.128013 0.954159
15.53999996 -10.77999973 -1.21000004 75 242 97 0.000000 0.000000 0.000000 0.000000 132.978989 0.000000 138.000000 -0.210655 0.029754 0.977107
15.50000000 -10.75000000 -1.17999995 75 242 97 0.000000 0.000000 0.000000 0.000000 132.978989 0.000000 138.000000 -0.279195 0.185672 0.942112
15.50000000 -10.76000023 -1.19000006 75 242 97 0.000000 0.000000 0.000000 0.000000 132.978989 0.000000 138.000000 -0.223056 0.132802 0.965717
15.46000004 -10.72999954 -1.20000005 75 242 97 0.000000 0.000000 0.000000 0.000000 132.978989 0.000000 138.000000 0.174581 0.408318 0.895990
15.46000004 -10.80000019 -1.14999998 75 242 97 0.000000 0.000000 0.000000 0.000000 132.978989 0.000000 138.000000 -0.180949 -0.063512 0.981440
15.71000004 -10.69999981 -1.33000004 75 242 97 0.000000 0.000000 0.000000 0.000000 132.978989 0.000000 138.000000 0.186044 -0.061215 0.980633
15.68000031 -10.69999981 -1.34000003 75 242 97 0.000000 0.000000 0.000000 0.000000 132.978989 0.000000 138.000000 -0.381328 0.019390 0.924236
15.64999962 -10.68000031 -1.36000001 75 242 97 0.000000 0.000000 0.000000 0.000000 132.978989 0.000000 138.000000 0.086776 0.184553 0.978984
15.71000004 -10.72000027 -1.34000003 75 242 97 0.000000 0.000000 0.000000 0.000000 132.978989 0.000000 138.000000 -0.222890 0.149897 0.963250
15.71000004 -10.72000027 -1.34000003 75 242 97 0.000000 0.000000 0.000000 0.000000 132.978989 0.000000 138.000000 -0.222890 0.149897 0.963250
15.68000031 -10.73999977 -1.33000004 75 242 97 0.000000 0.000000 0.000000 0.000000 132.978989 0.000000 138.000000 -0.122865 0.425086 0.896775
15.65999985 -10.73999977 -1.34000003 75 242 97 0.000000 0.000000 0.000000 0.000000 132.978989 0.000000 138.000000 -0.348253 0.176241 0.920684
15.64999962 -10.72000027 -1.35000002 75 242 97 0.000000 0.000000 0.000000 0.000000 132.978989 0.000000 138.000000 0.087863 -0.001059 0.996132
15.68999958 -10.72999954 -1.34000003 75 242 97 0.000000 0.000000 0.000000 0.000000 132.978989 0.000000 138.000000 0.147713 0.016914 0.988886
15.67000008 -10.72999954 -1.33000004 75 242 97 0.000000 0.000000 0.000000 0.000000 132.978989 0.000000 138.000000 -0.031249 0.170134 0.984925
15.67000008 -10.77000046 -1.33000004 75 242 97 0.000000 0.000000 0.000000 0.000000 132.978989 0.000000 138.000000 -0.135195 0.155040 0.978614
15.61999989 -10.71000004 -1.35000002 75 242 97 0.000000 0.000000 0.000000 0.000000 132.978989 0.000000 138.000000 -0.464670 -0.011983 0.885403
15.60999966 -10.71000004 -1.35000002 75 242 97 0.000000 0.000000 0.000000 0.000000 132.978989 0.000000 138.000000 -0.230024 0.003539 0.973179
15.63000011 -10.71000004 -1.35000002 75 242 97 0.000000 0.000000 0.000000 0.000000 132.978989 0.000000 138.000000 -0.477423 0.079804 0.875042
15.59000015 -10.68999958 -1.38999999 75 242 97 0.000000 0.000000 0.000000 0.000000 132.978989 0.000000 138.000000 0.094157 0.222210 0.970442
15.64000034 -10.72000027 -1.34000003 75 242 97 0.000000 0.000000 0.000000 0.000000 132.978989 0.000000 138.000000 0.038023 -0.153246 0.987456
15.64000034 -10.75000000 -1.34000003 75 242 97 0.000000 0.000000 0.000000 0.000000 132.978989 0.000000 138.000000 0.011531 0.370261 0.928856
15.61999989 -10.72000027 -1.36000001 75 242 97 0.000000 0.000000 0.000000 0.000000 132.978989 0.000000 138.000000 -0.326788 -0.183730 0.927067
15.59000015 -10.72000027 -1.35000002 75 242 97 0.000000 0.000000 0.000000 0.000000 132.978989 0.000000 138.000000 0.134964 0.212087 0.967886
15.56999969 -10.72000027 -1.38999999 75 242 97 0.000000 0.000000 0.000000 0.000000 132.978989 0.000000 138.000000 -0.177292 -0.026652 0.983797
15.56999969 -10.77000046 -1.33000004 75 242 97 0.000000 0.000000 0.000000 0.000000 132.978989 0.000000 138.000000 -0.287432 -0.092343 0.953339
15.56999969 -10.77000046 -1.34000003 75 242 97 0.000000 0.000000 0.000000 0.000000 132.978989 0.000000 138.000000 -0.412964 0.063637 0.908521
15.59000015 -10.76000023 -1.35000002 75 242 97 0.000000 0.000000 0.000000 0.000000 132.978989 0.000000 138.000000 -0.428263 0.063900 0.901392
15.56000042 -10.72000027 -1.23000002 75 242 97 0.000000 0.000000 0.000000 0.000000 132.978989 0.000000 138.000000 0.011914 0.448770 0.893568
15.56000042 -10.77000046 -1.34000003 75 242 97 0.000000 0.000000 0.000000 0.000000 132.978989 0.000000 138.000000 -0.288645 0.485235 0.825367
15.56000042 -10.77999973 -1.35000002 75 242 97 0.000000 0.000000 0.000000 0.000000 132.978989 0.000000 138.000000 -0.499375 0.304036 0.811287
15.53999996 -10.77000046 -1.36000001 75 242 97 0.000000 0.000000 0.000000 0.000000 132.978989 0.000000 138.000000 -0.496208 0.080124 0.864499
15.55000019 -10.77000046 -1.36000001 75 242 97 0.000000 0.000000 0.000000 0.000000 132.978989 0.000000 138.000000 0.048350 -0.109068 0.992858
15.52999973 -10.80000019 -1.38999999 75 242 97 0.000000 0.000000 0.000000 0.000000 132.978989 0.000000 138.000000 -0.005367 -0.099821 0.994991
15.44999981 -10.77999973 -1.24000001 75 242 97 0.000000 0.000000 0.000000 0.000000 132.978989 0.000000 138.000000 -0.012440 0.606787 0.794767
15.38000011 -10.77000046 -1.16999996 75 242 97 0.000000 0.000000 0.000000 0.000000 132.978989 0.000000 138.000000 0.104176 0.104176 0.989088
15.39000034 -10.77000046 -1.16999996 75 242 97 0.000000 0.000000 0.000000 0.000000 132.978989 0.000000 138.000000 0.117080 0.136392 0.983712
15.39000034 -10.77999973 -1.16999996 75 242 97 0.000000 0.000000 0.000000 0.000000 132.978989 0.000000 138.000000 0.097660 0.059494 0.993440
15.65999985 -10.85999966 -1.11000001 75 242 97 0.000000 0.000000 0.000000 0.000000 132.978989 0.000000 138.000000 -0.256666 0.432839 0.864160
15.69999981 -10.81999969 -1.15999997 75 242 97 0.000000 0.000000 0.000000 0.000000 132.978989 0.000000 138.000000 -0.305906 0.076802 0.948959
15.72000027 -10.85000038 -1.16999996 75 242 97 0.000000 0.000000 0.000000 0.000000 132.978989 0.000000 138.000000 -0.335400 0.135529 0.932276
15.72000027 -10.85000038 -1.16999996 75 242 97 0.000000 0.000000 0.000000 0.000000 132.978989 0.000000 138.000000 -0.335400 0.135529 0.932276
15.68999958 -10.81999969 -1.15999997 75 242 97 0.000000 0.000000 0.000000 0.000000 132.978989 0.000000 138.000000 -0.279335 0.137663 0.950274
15.68999958 -10.82999992 -1.15999997 75 242 97 0.000000 0.000000 0.000000 0.000000 132.978989 0.000000 138.000000 -0.329006 0.190626 0.924888
15.68999958 -10.84000015 -1.22000003 75 242 97 0.000000 0.000000 0.000000 0.000000 132.978989 0.000000 138.000000 -0.308431 0.369206 0.876674
15.71000004 -10.89000034 -1.21000004 75 242 97 0.000000 0.000000 0.000000 0.000000 132.978989 0.000000 138.000000 -0.301770 -0.154299 0.940812
15.63000011 -10.81999969 -1.17999995 75 242 97 0.000000 0.000000 0.000000 0.000000 132.978989 0.000000 138.000000 -0.377056 -0.141571 0.915307
15.64000034 -10.81000042 -1.17999995 75 242 97 0.000000 0.000000 0.000000 0.000000 132.978989 0.000000 138.000000 -0.119750 -0.235636 0.964435
15.63000011 -10.84000015 -1.19000006 75 242 97 0.000000 0.000000 0.000000 0.000000 132.978989 0.000000 138.000000 -0.364584 -0.006352 0.931149
15.56999969 -10.81000042 -1.14999998 75 242 97 0.000000 0.000000 0.000000 0.000000 132.978989 0.000000 138.000000 -0.106028 -0.162089 0.981063
15.68999958 -11.05000019 -1.13999999 75 242 97 0.000000 0.000000 0.000000 0.000000 132.978989 0.000000 20.000000 0.001133 0.173397 0.984851
15.72000027 -11.01000023 -1.17999995 75 242 97 0.000000 0.000000 0.000000 0.000000 132.978989 0.000000 20.000000 0.237901 0.379754 0.893974
15.72999954 -10.97999954 -1.21000004 75 242 97 0.000000 0.000000 0.000000 0.000000 132.978989 0.000000 20.000000 0.111123 0.374524 0.920534
15.72000027 -11.03999996 -1.17999995 75 242 97 0.000000 0.000000 0.000000 0.000000 132.978989 0.000000 20.000000 -0.070346 0.456558 0.886908
15.72000027 -11.02000046 -1.17999995 75 242 97 0.000000 0.000000 0.000000 0.000000 132.978989 0.000000 20.000000 0.229167 0.025196 0.973061
15.72999954 -11.02000046 -1.17999995 75 242 97 0.000000 0.000000 0.000000 0.000000 132.978989 0.000000 20.000000 0.204289 0.204289 0.957357
15.65999985 -11.01000023 -1.19000006 75 242 97 0.000000 0.000000 0.000000 0.000000 132.978989 0.000000 20.000000 -0.317871 0.341975 0.884314
15.68999958 -10.98999977 -1.21000004 75 242 97 0.000000 0.000000 0.000000 0.000000 132.978989 0.000000 20.000000 -0.223880 0.563560 0.795159
15.64999962 -11.03999996 -1.16999996 75 242 97 0.000000 0.000000 0.000000 0.000000 132.978989 0.000000 20.000000 0.187938 0.247429 0.950504
15.65999985 -11.05000019 -1.17999995 75 242 97 0.000000 0.000000 0.000000 0.000000 132.978989 0.000000 20.000000 0.090522 0.556065 0.826195
15.64999962 -11.02999973 -1.20000005 75 242 97 0.000000 0.000000 0.000000 0.000000 132.978989 0.000000 20.000000 0.109910 0.587654 0.801613
15.65999985 -11.03999996 -1.19000006 75 242 97 0.000000 0.000000 0.000000 0.000000 132.978989 0.000000 20.000000 -0.064813 0.661088 0.747504
15.67000008 -11.09000015 -1.13999999 75 242 97 0.000000 0.000000 0.000000 0.000000 132.978989 0.000000 20.000000 0.114351 0.696503 0.708384
15.72000027 -11.11999989 -1.20000005 75 242 97 0.000000 0.000000 0.000000 0.000000 132.978989 0.000000 20.000000 0.033715 0.170900 0.984711
15.64999962 -11.06000042 -1.16999996 75 242 97 0.000000 0.000000 0.000000 0.000000 132.978989 0.000000 20.000000 -0.152549 0.409175 0.899614
15.65999985 -11.06999969 -1.16999996 75 242 97 0.000000 0.000000 0.000000 0.000000 132.978989 0.000000 20.000000 0.249755 0.479591 0.841199
15.63000011 -11.05000019 -1.17999995 75 242 97 0.000000 0.000000 0.000000 0.000000 132.978989 0.000000 20.000000 0.398850 0.536724 0.743536
15.63000011 -11.02000046 -1.20000005 75 242 97 0.000000 0.000000 0.000000 0.000000 132.978989 0.000000 20.000000 -0.177386 0.450062 0.875202
15.63000011 -11.03999996 -1.19000006 75 242 97 0.000000 0.000000 0.000000 0.000000 132.978989 0.000000 20.000000 0.041092 0.760911 0.647554
15.59000015 -11.01000023 -1.16999996 75 242 97 0.000000 0.000000 0.000000 0.000000 132.978989 0.000000 20.000000 0.021530 0.330556 0.943541
15.60000038 -11.05000019 -1.17999995 75 242 97 0.000000 0.000000 0.000000 0.000000 132.978989 0.000000 20.000000 -0.045288 0.236234 0.970640
15.60000038 -11.05000019 -1.17999995 75 242 97 0.000000 0.000000 0.000000 0.000000 132.978989 0.000000 20.000000 -0.045288 0.236234 0.970640
15.59000015 -11.05000019 -1.17999995 75 242 97 0.000000 0.000000 0.000000 0.000000 132.978989 0.000000 20.000000 0.232339 0.232339 0.944477
15.59000015 -11.02000046 -1.19000006 75 242 97 0.000000 0.000000 0.000000 0.000000 132.978989 0.000000 20.000000 -0.031485 0.180746 0.983026
15.59000015 -11.03999996 -1.19000006 75 242 97 0.000000 0.000000 0.000000 0.000000 132.978989 0.000000 20.000000 0.166474 0.429937 0.887378
15.64000034 -11.06999969 -1.21000004 75 242 97 0.000000 0.000000 0.000000 0.000000 132.978989 0.000000 20.000000 -0.296084 0.536751 0.790084
15.59000015 -11.07999992 -1.15999997 75 242 97 0.000000 0.000000 0.000000 0.000000 132.978989 0.000000 20.000000 0.305799 0.375783 0.874799
15.52000046 -11.01000023 -1.19000006 75 242 97 0.000000 0.000000 0.000000 0.000000 132.978989 0.000000 20.000000 -0.171480 0.520405 0.836525
15.53999996 -11.01000023 -1.19000006 75 242 97 0.000000 0.000000 0.000000 0.000000 132.978989 0.000000 20.000000 -0.096540 0.310780 0.945566
15.52000046 -11.01000023 -1.19000006 75 242 97 0.000000 0.000000 0.000000 0.000000 132.978989 0.000000 20.000000 -0.171480 0.520405 0.836525
15.52999973 -11.00000000 -1.20000005 75 242 97 0.000000 0.000000 0.000000 0.000000 132.978989 0.000000 20.000000 -0.052951 0.734157 0.676912
15.52000046 -11.01000023 -1.22000003 75 242 97 0.000000 0.000000 0.000000 0.000000 132.978989 0.000000 20.000000 0.289421 0.727551 0.622016
15.52999973 -11.02999973 -1.17999995 75 242 97 0.000000 0.000000 0.000000 0.000000 132.978989 0.000000 20.000000 0.405510 0.424743 0.809416
15.53999996 -11.02999973 -1.20000005 75 242 97 0.000000 0.000000 0.000000 0.000000 132.978989 0.000000 20.000000 0.378623 0.191471 0.905529
15.52999973 -11.02000046 -1.19000006 75 242 97 0.000000 0.000000 0.000000 0.000000 132.978989 0.000000 20.000000 0.248258 0.273794 0.929196
15.48999977 -11.01000023 -1.19000006 75 242 97 0.000000 0.000000 0.000000 0.000000 132.978989 0.000000 20.000000 0.283304 0.638634 0.715462
15.51000023 -11.00000000 -1.21000004 75 242 97 0.000000 0.000000 0.000000 0.000000 132.978989 0.000000 20.000000 0.347305 0.455143 0.819893
15.51000023 -10.98999977 -1.20000005 75 242 97 0.000000 0.000000 0.000000 0.000000 132.978989 0.000000 20.000000 0.067750 0.468717 0.880746
15.48999977 -11.01000023 -1.19000006 75 242 97 0.000000 0.000000 0.000000 0.000000 132.978989 0.000000 20.000000 0.283304 0.638634 0.715462
15.51000023 -11.03999996 -1.15999997 75 242 97 0.000000 0.000000 0.000000 0.000000 132.978989 0.000000 20.000000 -0.035168 0.620355 0.783532
15.51000023 -11.02000046 -1.17999995 75 242 97 0.000000 0.000000 0.000000 0.000000 132.978989 0.000000 20.000000 0.123448 0.638063 0.760024
15.50000000 -11.03999996 -1.17999995 75 242 97 0.000000 0.000000 0.000000 0.000000 132.978989 0.000000 20.000000 -0.146894 0.284354 0.947399
15.48999977 -11.02000046 -1.16999996 75 242 97 0.000000 0.000000 0.000000 0.000000 132.978989 0.000000 20.000000 0.045069 0.471173 0.880889
15.47999954 -11.02000046 -1.17999995 75 242 97 0.000000 0.000000 0.000000 0.000000 132.978989 0.000000 20.000000 0.046372 0.393496 0.918156
15.50000000 -11.02000046 -1.19000006 75 242 97 0.000000 0.000000 0.000000 0.000000 132.978989 0.000000 20.000000 0.218844 0.597553 0.771387
15.55000019 -11.06000042 -1.20000005 75 242 97 0.000000 0.000000 0.000000 0.000000 132.978989 0.000000 20.000000 0.052377 0.805478 0.590306
15.47000027 -11.03999996 -1.16999996 75 242 97 0.000000 0.000000 0.000000 0.000000 132.978989 0.000000 20.000000 0.046563 0.403104 0.913969
15.44999981 -11.02000046 -1.19000006 75 242 97 0.000000 0.000000 0.000000 0.000000 132.978989 0.000000 20.000000 0.118186 0.462776 0.878562
15.43999958 -11.02999973 -1.19000006 75 242 97 0.000000 0.000000 0.000000 0.000000 132.978989 0.000000 20.000000 -0.046596 0.792130 0.608571
15.61999989 -10.81000042 -1.34000003 75 242 97 0.000000 0.000000 0.000000 0.000000 132.978989 0.000000 138.000000 -0.176080 -0.218445 0.959832
15.67000008 -10.82999992 -1.23000002 75 242 97 0.000000 0.000000 0.000000 0.000000 132.978989 0.000000 138.000000 -0.101252 0.203755 0.973772
15.72999954 -11.13000011 -1.29999995 75 242 97 0.000000 0.000000 0.000000 0.000000 132.978989 0.000000 20.000000 -0.252353 0.358607 0.898732
15.50000000 -10.81000042 -1.36000001 75 242 97 0.000000 0.000000 0.000000 0.000000 132.978989 0.000000 138.000000 0.114005 -0.050794 0.992181
15.52999973 -10.81000042 -1.32000005 75 242 97 0.000000 0.000000 0.000000 0.000000 132.978989 0.000000 138.000000 -0.216806 0.548935 0.807258
15.48999977 -11.10000038 -1.23000002 75 242 97 0.000000 0.000000 0.000000 0.000000 132.978989 0.000000 20.000000 0.066942 0.816121 0.573991
15.69999981 -11.14999962 -1.12000000 75 242 97 0.000000 0.000000 0.000000 0.000000 132.978989 0.000000 20.000000 0.240524 0.199757 0.949866
15.72000027 -11.31000042 -1.22000003 75 242 97 0.000000 0.000000 0.000000 0.000000 132.978989 0.000000 138.000000 0.355796 0.650926 0.670601
15.72000027 -11.34000015 -1.13999999 75 242 97 0.000000 0.000000 0.000000 0.000000 132.978989 0.000000 138.000000 0.076384 0.791218 0.606745
15.68000031 -11.31999969 -1.13999999 75 242 97 0.000000 0.000000 0.000000 0.000000 132.978989 0.000000 138.000000 -0.011632 0.394205 0.918949
15.67000008 -11.35000038 -1.13999999 75 242 97 0.000000 0.000000 0.000000 0.000000 132.978989 0.000000 138.000000 -0.093957 0.565188 0.819594
15.64999962 -11.38000011 -1.09000003 75 242 97 0.000000 0.000000 0.000000 0.000000 132.978989 0.000000 138.000000 0.455657 0.579168 0.675974
15.67000008 -11.36999989 -1.11000001 75 242 97 0.000000 0.000000 0.000000 0.000000 132.978989 0.000000 138.000000 0.152553 0.525791 0.836822
15.68000031 -11.35999966 -1.13000000 75 242 97 0.000000 0.000000 0.000000 0.000000 132.978989 0.000000 138.000000 -0.079407 0.781072 0.619371
15.67000008 -11.35999966 -1.13999999 75 242 97 0.000000 0.000000 0.000000 0.000000 132.978989 0.000000 138.000000 0.092191 0.906772 0.411419
15.63000011 -11.34000015 -1.13000000 75 242 97 0.000000 0.000000 0.000000 0.000000 132.978989 0.000000 138.000000 0.009366 0.491065 0.871072
15.63000011 -11.34000015 -1.13999999 75 242 97 0.000000 0.000000 0.000000 0.000000 132.978989 0.000000 138.000000 -0.059990 0.855209 0.514800
15.60999966 -11.38000011 -1.13000000 75 242 97 0.000000 0.000000 0.000000 0.000000 132.978989 0.000000 138.000000 0.561247 0.737966 0.374710
15.64000034 -11.35999966 -1.12000000 75 242 97 0.000000 0.000000 0.000000 0.000000 132.978989 0.000000 138.000000 -0.014966 0.534701 0.844909
15.61999989 -11.35999966 -1.13000000 75 242 97 0.000000 0.000000 0.000000 0.000000 132.978989 0.000000 138.000000 -0.064673 0.659666 0.748771
15.59000015 -11.35000038 -1.11000001 75 242 97 0.000000 0.000000 0.000000 0.000000 132.978989 0.000000 138.000000 0.078819 0.577530 0.812555
15.57999992 -11.39999962 -1.07000005 75 242 97 0.000000 0.000000 0.000000 0.000000 132.978989 0.000000 138.000000 0.227832 0.575005 0.785788
15.57999992 -11.38000011 -1.09000003 75 242 97 0.000000 0.000000 0.000000 0.000000 132.978989 0.000000 138.000000 0.389101 0.411336 0.824259
15.56999969 -11.39000034 -1.09000003 75 242 97 0.000000 0.000000 0.000000 0.000000 132.978989 0.000000 138.000000 0.035021 0.595365 0.802692
15.59000015 -11.36999989 -1.11000001 75 242 97 0.000000 0.000000 0.000000 0.000000 132.978989 0.000000 138.000000 0.342378 0.385756 0.856720
15.61999989 -11.47000027 -1.19000006 75 242 97 0.000000 0.000000 0.000000 0.000000 132.978989 0.000000 138.000000 0.082461 0.620625 0.779760
15.61999989 -11.47999954 -1.17999995 75 242 97 0.000000 0.000000 0.000000 0.000000 132.978989 0.000000 138.000000 0.421191 0.469977 0.775706
15.52000046 -11.39000034 -1.08000004 75 242 97 0.000000 0.000000 0.000000 0.000000 132.978989 0.000000 138.000000 0.219966 0.638058 0.737900
15.52000046 -11.39000034 -1.08000004 75 242 97 0.000000 0.000000 0.000000 0.000000 132.978989 0.000000 138.000000 0.219966 0.638058 0.737900
15.52999973 -11.39000034 -1.09000003 75 242 97 0.000000 0.000000 0.000000 0.000000 132.978989 0.000000 138.000000 0.165841 0.722700 0.670970
15.56000042 -11.35999966 -1.10000002 75 242 97 0.000000 0.000000 0.000000 0.000000 132.978989 0.000000 138.000000 0.130199 0.731810 0.668956
15.52999973 -11.38000011 -1.10000002 75 242 97 0.000000 0.000000 0.000000 0.000000 132.978989 0.000000 138.000000 -0.079545 0.632018 0.770860
15.50000000 -11.32999992 -1.13000000 75 242 97 0.000000 0.000000 0.000000 0.000000 132.978989 0.000000 138.000000 0.266401 0.398849 0.877468
15.50000000 -11.36999989 -1.07000005 75 242 97 0.000000 0.000000 0.000000 0.000000 132.978989 0.000000 138.000000 -0.060212 0.847167 0.527904
15.47999954 -11.38000011 -1.07000005 75 242 97 0.000000 0.000000 0.000000 0.000000 132.978989 0.000000 138.000000 0.073995 0.712385 0.697877
15.48999977 -11.35999966 -1.09000003 75 242 97 0.000000 0.000000 0.000000 0.000000 132.978989 0.000000 138.000000 -0.106957 0.795587 0.596324
15.51000023 -11.36999989 -1.09000003 75 242 97 0.000000 0.000000 0.000000 0.000000 132.978989 0.000000 138.000000 0.091631 0.606513 0.789776
15.52000046 -11.42000008 -1.11000001 75 242 97 0.000000 0.000000 0.000000 0.000000 132.978989 0.000000 138.000000 0.198918 0.539051 0.818447
15.52000046 -11.47999954 -1.12000000 75 242 97 0.000000 0.000000 0.000000 0.000000 132.978989 0.000000 138.000000 0.446185 0.817742 0.363617
15.51000023 -11.46000004 -1.13000000 75 242 97 0.000000 0.000000 0.000000 0.000000 132.978989 0.000000 138.000000 0.239297 0.819785 0.520278
15.55000019 -11.47000027 -1.16999996 75 242 97 0.000000 0.000000 0.000000 0.000000 132.978989 0.000000 138.000000 0.139856 0.940976 0.308227
15.46000004 -11.36999989 -1.08000004 75 242 97 0.000000 0.000000 0.000000 0.000000 132.978989 0.000000 138.000000 0.355482 0.783348 0.509900
15.43999958 -11.39000034 -1.05999994 75 242 97 0.000000 0.000000 0.000000 0.000000 132.978989 0.000000 138.000000 0.236223 0.599161 0.764987
15.47000027 -11.35999966 -1.10000002 75 242 97 0.000000 0.000000 0.000000 0.000000 132.978989 0.000000 138.000000 0.530969 0.688417 0.494119
15.46000004 -11.40999985 -1.16999996 75 242 97 0.000000 0.000000 0.000000 0.000000 132.978989 0.000000 138.000000 0.434707 0.759507 0.483919
15.42000008 -11.43999958 -1.19000006 75 242 97 0.000000 0.000000 0.000000 0.000000 132.978989 0.000000 138.000000 0.390707 0.710526 0.585236
15.71000004 -11.15999985 -1.27999997 75 242 97 0.000000 0.000000 0.000000 0.000000 132.978989 0.000000 20.000000 -0.262262 0.656450 0.707313
15.69999981 -11.17000008 -1.27999997 75 242 97 0.000000 0.000000 0.000000 0.000000 132.978989 0.000000 20.000000 -0.123737 0.663412 0.737952
15.65999985 -11.18000031 -1.25999999 75 242 97 0.000000 0.000000 0.000000 0.000000 132.978989 0.000000 20.000000 0.237013 0.723596 0.648254
15.67000008 -11.21000004 -1.24000001 75 242 97 0.000000 0.000000 0.000000 0.000000 132.978989 0.000000 20.000000 0.117139 0.238139 0.964141
15.68000031 -11.21000004 -1.25999999 75 242 97 0.000000 0.000000 0.000000 0.000000 132.978989 0.000000 20.000000 0.181417 0.191858 0.964510
15.64000034 -11.19999981 -1.25000000 75 242 97 0.000000 0.000000 0.000000 0.000000 132.978989 0.000000 20.000000 0.024427 0.182618 0.982880
15.39000034 -11.47999954 -1.27999997 75 242 97 0.000000 0.000000 0.000000 0.000000 132.978989 0.000000 190.000000 -0.052586 0.777426 0.626773
16.69000053 -11.57999992 -1.36000001 75 242 97 0.000000 0.000000 0.000000 0.000000 132.978989 0.000000 88.000000 0.185208 0.172256 0.967484
16.69000053 -11.57999992 -1.36000001 75 242 97 0.000000 0.000000 0.000000 0.000000 132.978989 0.000000 88.000000 0.185208 0.172256 0.967484
16.69000053 -11.57999992 -1.37000000 75 242 97 0.000000 0.000000 0.000000 0.000000 132.978989 0.000000 88.000000 0.121015 0.147908 0.981569
16.61000061 -11.55000019 -1.30999994 75 242 97 0.000000 0.000000 0.000000 0.000000 132.978989 0.000000 88.000000 0.312705 0.148842 0.938116
16.61000061 -11.56000042 -1.27999997 75 242 97 0.000000 0.000000 0.000000 0.000000 132.978989 0.000000 88.000000 -0.073787 0.649613 0.756676
16.60000038 -11.56999969 -1.30999994 75 242 97 0.000000 0.000000 0.000000 0.000000 132.978989 0.000000 88.000000 0.088864 0.489460 0.867486
16.64999962 -11.52999973 -1.35000002 75 242 97 0.000000 0.000000 0.000000 0.000000 132.978989 0.000000 88.000000 0.205018 -0.001158 0.978758
16.65999985 -11.52000046 -1.35000002 75 242 97 0.000000 0.000000 0.000000 0.000000 132.978989 0.000000 88.000000 0.018195 0.082412 0.996432
16.65999985 -11.53999996 -1.36000001 75 242 97 0.000000 0.000000 0.000000 0.000000 132.978989 0.000000 88.000000 0.057723 -0.059901 0.996534
16.60000038 -11.52000046 -1.33000004 75 242 97 0.000000 0.000000 0.000000 0.000000 132.978989 0.000000 88.000000 -0.032225 0.032225 0.998961
16.62000084 -11.56999969 -1.34000003 75 242 97 0.000000 0.000000 0.000000 0.000000 132.978989 0.000000 88.000000 0.054673 0.212616 0.975605
16.62999916 -11.56999969 -1.34000003 75 242 97 0.000000 0.000000 0.000000 0.000000 132.978989 0.000000 88.000000 0.031355 0.494867 0.868403
16.62000084 -11.57999992 -1.33000004 75 242 97 0.000000 0.000000 0.000000 0.000000 132.978989 0.000000 88.000000 -0.035106 0.622081 0.782165
16.61000061 -11.59000015 -1.33000004 75 242 97 0.000000 0.000000 0.000000 0.000000 132.978989 0.000000 88.000000 -0.312117 0.502240 0.806435
16.52000046 -11.52000046 -1.32000005 75 242 97 0.000000 0.000000 0.000000 0.000000 132.978989 0.000000 88.000000 0.162049 0.085226 0.983096
16.54999924 -11.63000011 -1.30999994 75 242 97 97.000000 1.000000 4.000000 1.000000 0.000000 114.000000 88.000000 0.044595 0.441897 0.895957
16.59000015 -11.59000015 -1.28999996 75 242 97 0.000000 0.000000 0.000000 0.000000 132.978989 0.000000 88.000000 0.015403 -0.037995 0.999159
16.57999992 -11.57999992 -1.28999996 75 242 97 0.000000 0.000000 0.000000 0.000000 132.978989 0.000000 88.000000 -0.025386 0.452939 0.891180
16.53000069 -11.63000011 -1.30999994 75 242 97 97.000000 1.000000 4.000000 1.000000 0.000000 114.000000 88.000000 0.030615 0.255941 0.966208
16.52000046 -11.57999992 -1.30999994 75 242 97 0.000000 0.000000 0.000000 0.000000 132.978989 0.000000 88.000000 0.112545 0.345770 0.931545
16.54000092 -11.61999989 -1.33000004 75 242 97 0.000000 0.000000 0.000000 0.000000 132.978989 0.000000 88.000000 -0.108805 0.450765 0.885987
16.55999947 -11.61999989 -1.33000004 75 242 97 0.000000 0.000000 0.000000 0.000000 132.978989 0.000000 88.000000 -0.010814 0.253532 0.967267
16.46999931 -11.56999969 -1.29999995 75 242 97 0.000000 0.000000 0.000000 0.000000 132.978989 0.000000 88.000000 0.016371 0.105864 0.994246
16.46999931 -11.51000023 -1.28999996 75 242 97 0.000000 0.000000 0.000000 0.000000 132.978989 0.000000 88.000000 -0.330509 0.351832 0.875773
16.46999931 -11.48999977 -1.29999995 75 242 97 0.000000 0.000000 0.000000 0.000000 132.978989 0.000000 88.000000 0.180949 0.063512 0.981440
16.48999977 -11.52999973 -1.32000005 75 242 97 0.000000 0.000000 0.000000 0.000000 132.978989 0.000000 88.000000 -0.036704 0.474429 0.879528
16.47999954 -11.56999969 -1.33000004 75 242 97 0.000000 0.000000 0.000000 0.000000 132.978989 0.000000 88.000000 -0.316774 0.108264 0.942302
16.48999977 -11.53999996 -1.32000005 75 242 97 0.000000 0.000000 0.000000 0.000000 132.978989 0.000000 88.000000 0.031392 0.005063 0.999494
16.50000000 -11.56999969 -1.33000004 75 242 97 0.000000 0.000000 0.000000 0.000000 132.978989 0.000000 88.000000 0.164363 0.393042 0.904711
16.45000076 -11.52000046 -1.33000004 75 242 97 0.000000 0.000000 0.000000 0.000000 132.978989 0.000000 88.000000 -0.029104 0.317612 0.947774
16.45000076 -11.52000046 -1.33000004 75 242 97 0.000000 0.000000 0.000000 0.000000 132.978989 0.000000 88.000000 -0.029104 0.317612 0.947774
16.50000000 -11.60000038 -1.32000005 75 242 97 0.000000 0.000000 0.000000 0.000000 132.978989 0.000000 88.000000 0.188972 0.345264 0.919284
16.38999939 -11.51000023 -1.30999994 75 242 97 0.000000 0.000000 0.000000 0.000000 132.978989 0.000000 88.000000 0.039102 0.195510 0.979922
16.38999939 -11.52999973 -1.34000003 75 242 97 0.000000 0.000000 0.000000 0.000000 132.978989 0.000000 88.000000 0.203499 0.117549 0.971993
16.38999939 -11.52000046 -1.35000002 75 242 97 0.000000 0.000000 0.000000 0.000000 132.978989 0.000000 88.000000 -0.068534 0.391046 0.917816
16.37999916 -11.52999973 -1.34000003 75 242 97 0.000000 0.000000 0.000000 0.000000 132.978989 0.000000 88.000000 -0.140297 0.406718 0.902716
