//X Y Z R G B PointSourceId ScanDirectionFlag NumberOfReturns ReturnNumber GpsTime Intensity Classification Nx Ny Nz
0.37000000 -17.56999969 0.40000001 136 193 91 0.000000 0.000000 0.000000 0.000000 0.000000 0.000000 16.000000 0.837334 -0.544755 -0.045977
0.38000000 -17.55999947 0.40000001 136 193 91 0.000000 0.000000 0.000000 0.000000 0.000000 0.000000 16.000000 0.793458 -0.608548 -0.009659
0.36000001 -17.57999992 0.34000000 136 193 91 0.000000 0.000000 0.000000 0.000000 0.000000 0.000000 16.000000 -0.342888 0.883655 -0.318720
0.38000000 -17.57999992 0.34000000 136 193 91 0.000000 0.000000 0.000000 0.000000 0.000000 0.000000 16.000000 -0.250130 0.967251 0.043126
0.41000000 -17.59000015 0.46000001 136 193 91 0.000000 0.000000 0.000000 0.000000 0.000000 0.000000 16.000000 -0.224956 0.972350 -0.062693
0.41000000 -17.60000038 0.44999999 136 193 91 0.000000 0.000000 0.000000 0.000000 0.000000 0.000000 16.000000 -0.286556 0.935151 -0.208277
0.40000001 -17.59000015 0.41999999 136 193 91 0.000000 0.000000 0.000000 0.000000 0.000000 0.000000 16.000000 -0.428511 0.882055 -0.195849
0.41999999 -17.59000015 0.44000000 136 193 91 0.000000 0.000000 0.000000 0.000000 0.000000 0.000000 16.000000 -0.617798 0.775597 -0.129514
0.40000001 -17.59000015 0.41000000 136 193 91 0.000000 0.000000 0.000000 0.000000 0.000000 0.000000 16.000000 -0.352813 0.925614 -0.136974
0.40000001 -17.61000061 0.43000001 136 193 91 0.000000 0.000000 0.000000 0.000000 0.000000 0.000000 16.000000 -0.511984 0.788039 -0.341858
0.40000001 -17.60000038 0.44000000 136 193 91 0.000000 0.000000 0.000000 0.000000 0.000000 0.000000 16.000000 -0.417121 0.908775 -0.011768
0.38000000 -17.61000061 0.44999999 136 193 91 0.000000 0.000000 0.000000 0.000000 0.000000 0.000000 16.000000 0.610437 -0.647231 0.456573
0.38999999 -17.60000038 0.46000001 136 193 91 0.000000 0.000000 0.000000 0.000000 0.000000 0.000000 16.000000 -0.478498 0.877916 -0.017424
0.37000000 -17.60000038 0.47999999 136 193 91 0.000000 0.000000 0.000000 0.000000 0.000000 0.000000 16.000000 0.814500 -0.518602 0.260079
0.37000000 -17.61000061 0.47000000 136 193 91 0.000000 0.000000 0.000000 0.000000 0.000000 0.000000 16.000000 -0.465761 0.884543 -0.025503
0.37000000 -17.62000084 0.47999999 136 193 91 0.000000 0.000000 0.000000 0.000000 0.000000 0.000000 16.000000 0.835590 -0.535186 -0.123953
0.38999999 -17.59000015 0.41000000 136 193 91 0.000000 0.000000 0.000000 0.000000 0.000000 0.000000 16.000000 -0.187014 0.968605 -0.163799
0.38999999 -17.59000015 0.41000000 136 193 91 0.000000 0.000000 0.000000 0.000000 0.000000 0.000000 16.000000 -0.187014 0.968605 -0.163799
0.38000000 -17.62000084 0.44000000 136 193 91 0.000000 0.000000 0.000000 0.000000 0.000000 0.000000 16.000000 -0.493673 0.856969 -0.147955
0.44000000 -17.61000061 0.37000000 136 193 91 0.000000 0.000000 0.000000 0.000000 0.000000 0.000000 16.000000 -0.483303 0.787186 -0.383087
0.41000000 -17.61000061 0.37000000 136 193 91 0.000000 0.000000 0.000000 0.000000 0.000000 0.000000 16.000000 -0.501332 0.836569 0.220952
0.41999999 -17.59000015 0.38999999 136 193 91 0.000000 0.000000 0.000000 0.000000 0.000000 0.000000 16.000000 -0.486817 0.828989 -0.275293
0.40000001 -17.59000015 0.40000001 136 193 91 0.000000 0.000000 0.000000 0.000000 0.000000 0.000000 16.000000 -0.324168 0.921095 -0.215636
0.41999999 -17.59000015 0.38000000 136 193 91 0.000000 0.000000 0.000000 0.000000 0.000000 0.000000 16.000000 -0.442406 0.896697 0.014527
0.44000000 -17.60000038 0.40000001 136 193 91 0.000000 0.000000 0.000000 0.000000 0.000000 0.000000 16.000000 -0.211336 0.962168 -0.171956
0.41999999 -17.59000015 0.37000000 136 193 91 0.000000 0.000000 0.000000 0.000000 0.000000 0.000000 16.000000 -0.517649 0.855541 0.009461
0.44000000 -17.61000061 0.34000000 136 193 91 0.000000 0.000000 0.000000 0.000000 0.000000 0.000000 16.000000 -0.268379 0.958126 0.099832
0.41999999 -17.60000038 0.33000001 136 193 91 0.000000 0.000000 0.000000 0.000000 0.000000 0.000000 16.000000 -0.291941 0.825866 -0.482406
0.44000000 -17.61000061 0.36000001 136 193 91 0.000000 0.000000 0.000000 0.000000 0.000000 0.000000 16.000000 -0.362901 0.876124 -0.317348
0.44000000 -17.61000061 0.36000001 136 193 91 0.000000 0.000000 0.000000 0.000000 0.000000 0.000000 16.000000 -0.362901 0.876124 -0.317348
0.41999999 -17.64999962 0.34999999 136 193 91 0.000000 0.000000 0.000000 0.000000 0.000000 0.000000 16.000000 -0.459144 0.859578 0.224303
0.41999999 -17.64999962 0.34999999 136 193 91 0.000000 0.000000 0.000000 0.000000 0.000000 0.000000 16.000000 -0.459144 0.859578 0.224303
0.41999999 -17.64999962 0.34999999 136 193 91 0.000000 0.000000 0.000000 0.000000 0.000000 0.000000 16.000000 -0.459144 0.859578 0.224303
0.36000001 -17.60000038 0.38999999 136 193 91 0.000000 0.000000 0.000000 0.000000 0.000000 0.000000 16.000000 -0.665727 0.694464 -0.272996
0.38000000 -17.59000015 0.37000000 136 193 91 0.000000 0.000000 0.000000 0.000000 0.000000 0.000000 16.000000 -0.416967 0.890594 0.181606
0.36000001 -17.60000038 0.38999999 136 193 91 0.000000 0.000000 0.000000 0.000000 0.000000 0.000000 16.000000 -0.665727 0.694464 -0.272996
0.36000001 -17.60000038 0.40000001 136 193 91 0.000000 0.000000 0.000000 0.000000 0.000000 0.000000 16.000000 0.764191 -0.644917 0.009708
0.34999999 -17.52000046 0.47999999 136 193 91 0.000000 0.000000 0.000000 0.000000 0.000000 0.000000 16.000000 0.706721 -0.655900 0.265219
0.34999999 -17.53000069 0.44999999 136 193 91 0.000000 0.000000 0.000000 0.000000 0.000000 0.000000 16.000000 0.707712 -0.650200 -0.276375
0.34999999 -17.52000046 0.44000000 136 193 91 0.000000 0.000000 0.000000 0.000000 0.000000 0.000000 16.000000 -0.525586 0.850494 -0.020477
0.31999999 -17.55999947 0.47000000 136 193 91 0.000000 0.000000 0.000000 0.000000 0.000000 0.000000 16.000000 0.634102 -0.726277 0.265401
0.34000000 -17.55999947 0.46000001 136 193 91 0.000000 0.000000 0.000000 0.000000 0.000000 0.000000 16.000000 -0.327175 0.891889 -0.312236
0.33000001 -17.55999947 0.46000001 136 193 91 0.000000 0.000000 0.000000 0.000000 0.000000 0.000000 16.000000 -0.687150 0.641449 -0.341127
0.31000000 -17.56999969 0.46000001 136 193 91 0.000000 0.000000 0.000000 0.000000 0.000000 0.000000 16.000000 -0.644218 0.754315 -0.126463
0.34000000 -17.53000069 0.40000001 136 193 91 0.000000 0.000000 0.000000 0.000000 0.000000 0.000000 16.000000 0.757919 -0.652228 -0.012516
0.34000000 -17.57999992 0.36000001 136 193 91 0.000000 0.000000 0.000000 0.000000 0.000000 0.000000 16.000000 -0.604021 0.796527 -0.026504
0.34999999 -17.59000015 0.33000001 136 193 91 0.000000 0.000000 0.000000 0.000000 0.000000 0.000000 16.000000 -0.342543 0.864805 -0.367120
0.34999999 -17.61000061 0.40000001 136 193 91 0.000000 0.000000 0.000000 0.000000 0.000000 0.000000 16.000000 -0.618078 0.738834 0.268522
0.34999999 -17.60000038 0.38999999 136 193 91 0.000000 0.000000 0.000000 0.000000 0.000000 0.000000 16.000000 0.738925 -0.625487 -0.250510
0.34999999 -17.60000038 0.37000000 136 193 91 0.000000 0.000000 0.000000 0.000000 0.000000 0.000000 16.000000 -0.357124 0.925213 0.128234
0.40000001 -17.51000023 0.31999999 136 193 91 0.000000 0.000000 0.000000 0.000000 0.000000 0.000000 16.000000 -0.462364 0.877490 -0.127401
0.41999999 -17.54000092 0.28999999 136 193 91 0.000000 0.000000 0.000000 0.000000 0.000000 0.000000 16.000000 -0.304017 0.891083 -0.336964
0.43000001 -17.54000092 0.28000000 136 193 91 0.000000 0.000000 0.000000 0.000000 0.000000 0.000000 16.000000 -0.323702 0.945917 -0.021412
0.43000001 -17.54000092 0.25999999 136 193 91 0.000000 0.000000 0.000000 0.000000 0.000000 0.000000 16.000000 -0.665757 0.665757 -0.336948
0.38000000 -17.53000069 0.30000001 136 193 91 0.000000 0.000000 0.000000 0.000000 0.000000 0.000000 16.000000 -0.456874 0.884227 -0.096998
0.38000000 -17.54000092 0.30000001 136 193 91 0.000000 0.000000 0.000000 0.000000 0.000000 0.000000 16.000000 0.740469 -0.668016 0.073902
0.38000000 -17.53000069 0.31000000 136 193 91 0.000000 0.000000 0.000000 0.000000 0.000000 0.000000 16.000000 -0.476715 0.856294 0.198756
0.38999999 -17.56999969 0.31000000 136 193 91 0.000000 0.000000 0.000000 0.000000 0.000000 0.000000 16.000000 -0.140220 0.988491 -0.056783
0.38999999 -17.56999969 0.31000000 136 193 91 0.000000 0.000000 0.000000 0.000000 0.000000 0.000000 16.000000 -0.140220 0.988491 -0.056783
0.38000000 -17.55999947 0.25999999 136 193 91 0.000000 0.000000 0.000000 0.000000 0.000000 0.000000 16.000000 0.734097 -0.615746 0.286282
0.38000000 -17.57999992 0.23999999 136 193 91 0.000000 0.000000 0.000000 0.000000 0.000000 0.000000 16.000000 -0.607311 0.791083 -0.073222
0.41000000 -17.54999924 0.20000000 136 193 91 0.000000 0.000000 0.000000 0.000000 0.000000 0.000000 16.000000 -0.351975 0.757475 -0.549859
0.41999999 -17.56999969 0.20999999 136 193 91 0.000000 0.000000 0.000000 0.000000 0.000000 0.000000 16.000000 -0.214009 0.954293 0.208625
0.41000000 -17.56999969 0.16000000 136 193 91 0.000000 0.000000 0.000000 0.000000 0.000000 0.000000 16.000000 -0.338322 0.914190 0.223149
0.41000000 -17.57999992 0.17000000 136 193 91 0.000000 0.000000 0.000000 0.000000 0.000000 0.000000 16.000000 -0.419495 0.905512 0.063807
0.41000000 -17.57999992 0.18000001 136 193 91 0.000000 0.000000 0.000000 0.000000 0.000000 0.000000 16.000000 0.646920 -0.713678 0.268623
0.40000001 -17.57999992 0.18000001 136 193 91 0.000000 0.000000 0.000000 0.000000 0.000000 0.000000 16.000000 -0.205830 0.854872 -0.476264
0.41999999 -17.56999969 0.17000000 136 193 91 0.000000 0.000000 0.000000 0.000000 0.000000 0.000000 16.000000 -0.350841 0.930608 0.104304
0.40000001 -17.56999969 0.15000001 136 193 91 0.000000 0.000000 0.000000 0.000000 0.000000 0.000000 16.000000 -0.044611 0.975413 -0.215821
0.38999999 -17.57999992 0.20999999 136 193 91 0.000000 0.000000 0.000000 0.000000 0.000000 0.000000 16.000000 -0.265840 0.864359 -0.426863
0.38000000 -17.57999992 0.22000000 136 193 91 0.000000 0.000000 0.000000 0.000000 0.000000 0.000000 16.000000 -0.649997 0.756648 0.070621
0.38000000 -17.57999992 0.23000000 136 193 91 0.000000 0.000000 0.000000 0.000000 0.000000 0.000000 16.000000 -0.574827 0.802957 -0.157590
0.38999999 -17.57999992 0.22000000 136 193 91 0.000000 0.000000 0.000000 0.000000 0.000000 0.000000 16.000000 -0.232902 0.930194 -0.283716
0.38000000 -17.57999992 0.20000000 136 193 91 0.000000 0.000000 0.000000 0.000000 0.000000 0.000000 16.000000 -0.502038 0.854192 0.135332
0.36000001 -17.57999992 0.19000000 136 193 91 0.000000 0.000000 0.000000 0.000000 0.000000 0.000000 16.000000 -0.285263 0.943142 0.170612
0.36000001 -17.57999992 0.15000001 136 193 91 0.000000 0.000000 0.000000 0.000000 0.000000 0.000000 16.000000 -0.560562 0.808357 -0.179803
0.36000001 -17.56999969 0.19000000 136 193 91 0.000000 0.000000 0.000000 0.000000 0.000000 0.000000 16.000000 -0.369566 0.905798 0.207247
0.37000000 -17.56999969 0.17000000 136 193 91 0.000000 0.000000 0.000000 0.000000 0.000000 0.000000 16.000000 -0.499757 0.844935 0.190598
0.43000001 -17.62999916 0.30000001 136 193 91 0.000000 0.000000 0.000000 0.000000 0.000000 0.000000 16.000000 -0.235460 0.971719 -0.017928
0.43000001 -17.62999916 0.28999999 136 193 91 0.000000 0.000000 0.000000 0.000000 0.000000 0.000000 16.000000 -0.408741 0.822253 -0.396018
0.43000001 -17.61000061 0.30000001 136 193 91 0.000000 0.000000 0.000000 0.000000 0.000000 0.000000 16.000000 0.757592 -0.652716 0.004140
0.43000001 -17.61000061 0.30000001 136 193 91 0.000000 0.000000 0.000000 0.000000 0.000000 0.000000 16.000000 0.757592 -0.652716 0.004140
0.43000001 -17.62999916 0.28999999 136 193 91 0.000000 0.000000 0.000000 0.000000 0.000000 0.000000 16.000000 -0.408741 0.822253 -0.396018
0.43000001 -17.61000061 0.31000000 136 193 91 0.000000 0.000000 0.000000 0.000000 0.000000 0.000000 16.000000 -0.196866 0.871833 -0.448498
0.43000001 -17.64999962 0.30000001 136 193 91 0.000000 0.000000 0.000000 0.000000 0.000000 0.000000 16.000000 -0.537255 0.782766 -0.314063
0.43000001 -17.65999985 0.25999999 136 193 91 0.000000 0.000000 0.000000 0.000000 0.000000 0.000000 16.000000 -0.212135 0.876724 -0.431687
0.43000001 -17.65999985 0.25999999 136 193 91 0.000000 0.000000 0.000000 0.000000 0.000000 0.000000 16.000000 -0.212135 0.876724 -0.431687
0.44000000 -17.64999962 0.23999999 136 193 91 0.000000 0.000000 0.000000 0.000000 0.000000 0.000000 16.000000 -0.377310 0.882394 -0.281103
0.41000000 -17.63999939 0.27000001 136 193 91 0.000000 0.000000 0.000000 0.000000 0.000000 0.000000 16.000000 -0.627890 0.738047 0.247065
0.43000001 -17.64999962 0.27000001 136 193 91 0.000000 0.000000 0.000000 0.000000 0.000000 0.000000 16.000000 -0.364831 0.905536 -0.216573
0.37000000 -17.62000084 0.23999999 136 193 91 0.000000 0.000000 0.000000 0.000000 0.000000 0.000000 16.000000 -0.434310 0.762091 -0.480199
0.38000000 -17.65999985 0.28999999 136 193 91 0.000000 0.000000 0.000000 0.000000 0.000000 0.000000 16.000000 0.654727 -0.604492 0.453787
0.41999999 -17.60000038 0.20000000 136 193 91 0.000000 0.000000 0.000000 0.000000 0.000000 0.000000 16.000000 -0.177561 0.984029 0.012601
0.41000000 -17.60000038 0.16000000 136 193 91 0.000000 0.000000 0.000000 0.000000 0.000000 0.000000 16.000000 -0.215070 0.921526 -0.323318
0.41999999 -17.59000015 0.16000000 136 193 91 0.000000 0.000000 0.000000 0.000000 0.000000 0.000000 16.000000 -0.414048 0.730769 -0.542716
0.43000001 -17.59000015 0.19000000 136 193 91 0.000000 0.000000 0.000000 0.000000 0.000000 0.000000 16.000000 -0.276506 0.933382 0.228784
0.43000001 -17.59000015 0.17000000 136 193 91 0.000000 0.000000 0.000000 0.000000 0.000000 0.000000 16.000000 -0.217754 0.881387 -0.419214
0.43000001 -17.64999962 0.20999999 136 193 91 0.000000 0.000000 0.000000 0.000000 0.000000 0.000000 16.000000 -0.468262 0.835404 -0.287802
0.44000000 -17.64999962 0.23000000 136 193 91 0.000000 0.000000 0.000000 0.000000 0.000000 0.000000 16.000000 -0.117430 0.963959 -0.238732
0.41999999 -17.64999962 0.23000000 136 193 91 0.000000 0.000000 0.000000 0.000000 0.000000 0.000000 16.000000 0.627738 -0.729448 0.271755
0.41000000 -17.64999962 0.20000000 136 193 91 0.000000 0.000000 0.000000 0.000000 0.000000 0.000000 16.000000 -0.451033 0.861337 0.233813
0.40000001 -17.64999962 0.19000000 136 193 91 0.000000 0.000000 0.000000 0.000000 0.000000 0.000000 16.000000 -0.672631 0.739754 -0.018179
0.41999999 -17.67000008 0.16000000 136 193 91 0.000000 0.000000 0.000000 0.000000 0.000000 0.000000 16.000000 -0.140314 0.984594 -0.104336
0.41999999 -17.67000008 0.19000000 136 193 91 0.000000 0.000000 0.000000 0.000000 0.000000 0.000000 16.000000 -0.492760 0.869496 -0.034125
0.44000000 -17.64999962 0.19000000 136 193 91 0.000000 0.000000 0.000000 0.000000 0.000000 0.000000 16.000000 -0.682178 0.685344 -0.254828
0.37000000 -17.61000061 0.20000000 136 193 91 0.000000 0.000000 0.000000 0.000000 0.000000 0.000000 16.000000 -0.644229 0.731582 -0.223062
0.38000000 -17.61000061 0.20000000 136 193 91 0.000000 0.000000 0.000000 0.000000 0.000000 0.000000 16.000000 -0.634932 0.743600 -0.209574
0.37000000 -17.61000061 0.18000001 136 193 91 0.000000 0.000000 0.000000 0.000000 0.000000 0.000000 16.000000 0.295671 -0.874882 0.383614
0.36000001 -17.65999985 0.20999999 136 193 91 0.000000 0.000000 0.000000 0.000000 0.000000 0.000000 16.000000 0.831626 -0.530031 0.165728
0.38000000 -17.63999939 0.15000001 136 193 91 0.000000 0.000000 0.000000 0.000000 0.000000 0.000000 16.000000 -0.547051 0.812195 -0.202668
0.34000000 -17.54999924 0.28000000 136 193 91 0.000000 0.000000 0.000000 0.000000 0.000000 0.000000 16.000000 -0.602262 0.742843 0.292345
0.34999999 -17.54999924 0.28000000 136 193 91 0.000000 0.000000 0.000000 0.000000 0.000000 0.000000 16.000000 -0.618430 0.769635 0.158766
0.33000001 -17.56999969 0.28999999 136 193 91 0.000000 0.000000 0.000000 0.000000 0.000000 0.000000 16.000000 -0.361677 0.920252 -0.149419
0.34000000 -17.62999916 0.20999999 136 193 91 0.000000 0.000000 0.000000 0.000000 0.000000 0.000000 16.000000 -0.533151 0.792607 0.295843
0.51999998 -17.59000015 0.13000000 136 193 91 0.000000 0.000000 0.000000 0.000000 0.000000 0.000000 16.000000 -0.077531 0.855657 -0.511703
0.49000001 -17.62000084 0.11000000 136 193 91 0.000000 0.000000 0.000000 0.000000 0.000000 0.000000 16.000000 -0.145276 0.986221 -0.079134
0.50000000 -17.67000008 0.09000000 136 193 91 0.000000 0.000000 0.000000 0.000000 0.000000 0.000000 16.000000 -0.179101 0.975664 0.126498
0.46000001 -17.60000038 0.12000000 136 193 91 0.000000 0.000000 0.000000 0.000000 0.000000 0.000000 16.000000 -0.151515 0.851718 -0.501617
0.44999999 -17.62000084 0.11000000 136 193 91 0.000000 0.000000 0.000000 0.000000 0.000000 0.000000 16.000000 -0.001100 0.991102 -0.133100
0.47999999 -17.65999985 0.12000000 136 193 91 0.000000 0.000000 0.000000 0.000000 0.000000 0.000000 16.000000 -0.622889 0.781084 0.043786
0.46000001 -17.64999962 0.12000000 136 193 91 0.000000 0.000000 0.000000 0.000000 0.000000 0.000000 16.000000 -0.373412 0.777537 -0.505965
0.46000001 -17.65999985 0.08000000 136 193 91 0.000000 0.000000 0.000000 0.000000 0.000000 0.000000 16.000000 -0.463614 0.885810 0.020041
0.51999998 -17.61000061 0.04000000 136 193 91 0.000000 0.000000 0.000000 0.000000 0.000000 0.000000 16.000000 -0.357776 0.932820 -0.042933
0.44999999 -17.62000084 0.05000000 136 193 91 0.000000 0.000000 0.000000 0.000000 0.000000 0.000000 16.000000 -0.560642 0.828004 -0.009549
0.47000000 -17.62000084 0.06000000 136 193 91 0.000000 0.000000 0.000000 0.000000 0.000000 0.000000 16.000000 -0.021191 0.991514 -0.128261
0.44999999 -17.64999962 0.00000000 136 193 91 0.000000 0.000000 0.000000 0.000000 0.000000 0.000000 16.000000 -0.348958 0.786362 -0.509768
0.44999999 -17.67000008 -0.02000000 136 193 91 0.000000 0.000000 0.000000 0.000000 0.000000 0.000000 16.000000 -0.257332 0.860310 -0.440053
0.47000000 -17.64999962 -0.04000000 136 193 91 0.000000 0.000000 0.000000 0.000000 0.000000 0.000000 16.000000 0.129052 0.991608 0.007721
0.44999999 -17.65999985 -0.06000000 136 193 91 0.000000 0.000000 0.000000 0.000000 0.000000 0.000000 16.000000 0.073125 0.932007 -0.354987
0.47000000 -17.67000008 -0.08000000 136 193 91 0.000000 0.000000 0.000000 0.000000 0.000000 0.000000 16.000000 -0.276078 0.861790 -0.425557
0.44000000 -17.55999947 0.11000000 136 193 91 0.000000 0.000000 0.000000 0.000000 0.000000 0.000000 16.000000 -0.614777 0.783368 0.091563
0.44000000 -17.60000038 0.12000000 136 193 91 0.000000 0.000000 0.000000 0.000000 0.000000 0.000000 16.000000 -0.181153 0.836899 -0.516512
0.41000000 -17.60000038 0.14000000 136 193 91 0.000000 0.000000 0.000000 0.000000 0.000000 0.000000 16.000000 -0.257292 0.960642 0.104727
0.41000000 -17.60000038 0.13000000 136 193 91 0.000000 0.000000 0.000000 0.000000 0.000000 0.000000 16.000000 -0.402149 0.858225 -0.318945
0.41000000 -17.60000038 0.12000000 136 193 91 0.000000 0.000000 0.000000 0.000000 0.000000 0.000000 16.000000 -0.383753 0.890486 -0.244476
0.40000001 -17.62000084 0.09000000 136 193 91 0.000000 0.000000 0.000000 0.000000 0.000000 0.000000 16.000000 -0.686624 0.695965 -0.210191
0.41000000 -17.62999916 0.07000000 136 193 91 0.000000 0.000000 0.000000 0.000000 0.000000 0.000000 16.000000 -0.413538 0.899552 -0.140688
0.41000000 -17.61000061 0.10000000 136 193 91 0.000000 0.000000 0.000000 0.000000 0.000000 0.000000 16.000000 -0.261578 0.831167 -0.490652
0.43000001 -17.65999985 0.11000000 136 193 91 0.000000 0.000000 0.000000 0.000000 0.000000 0.000000 16.000000 -0.628278 0.730075 -0.268808
0.41999999 -17.64999962 0.14000000 136 193 91 0.000000 0.000000 0.000000 0.000000 0.000000 0.000000 16.000000 -0.604427 0.699950 -0.380443
0.41000000 -17.63999939 0.11000000 136 193 91 0.000000 0.000000 0.000000 0.000000 0.000000 0.000000 16.000000 -0.371735 0.914496 -0.159719
0.41000000 -17.63999939 0.12000000 136 193 91 0.000000 0.000000 0.000000 0.000000 0.000000 0.000000 16.000000 -0.067361 0.959579 -0.273258
0.40000001 -17.65999985 0.08000000 136 193 91 0.000000 0.000000 0.000000 0.000000 0.000000 0.000000 16.000000 -0.657856 0.693242 -0.294347
0.41000000 -17.64999962 0.09000000 136 193 91 0.000000 0.000000 0.000000 0.000000 0.000000 0.000000 16.000000 -0.301702 0.951325 0.062908
0.41000000 -17.64999962 0.09000000 136 193 91 0.000000 0.000000 0.000000 0.000000 0.000000 0.000000 16.000000 -0.301702 0.951325 0.062908
0.41999999 -17.64999962 0.08000000 136 193 91 0.000000 0.000000 0.000000 0.000000 0.000000 0.000000 16.000000 -0.264584 0.957978 -0.110787
0.43000001 -17.65999985 0.10000000 136 193 91 0.000000 0.000000 0.000000 0.000000 0.000000 0.000000 16.000000 -0.428153 0.902989 -0.036013
0.44000000 -17.63999939 0.08000000 136 193 91 0.000000 0.000000 0.000000 0.000000 0.000000 0.000000 16.000000 -0.104734 0.990945 0.084017
0.38000000 -17.59000015 0.12000000 136 193 91 0.000000 0.000000 0.000000 0.000000 0.000000 0.000000 16.000000 -0.363273 0.857943 -0.363273
0.37000000 -17.59000015 0.09000000 136 193 91 0.000000 0.000000 0.000000 0.000000 0.000000 0.000000 16.000000 -0.332582 0.935303 0.120816
0.37000000 -17.63999939 0.14000000 136 193 91 0.000000 0.000000 0.000000 0.000000 0.000000 0.000000 16.000000 0.763912 -0.638298 -0.094941
0.38999999 -17.64999962 0.11000000 136 193 91 0.000000 0.000000 0.000000 0.000000 0.000000 0.000000 16.000000 -0.668868 0.742401 -0.038181
0.37000000 -17.63999939 0.10000000 136 193 91 0.000000 0.000000 0.000000 0.000000 0.000000 0.000000 16.000000 -0.605319 0.795442 0.029357
0.37000000 -17.63999939 0.10000000 136 193 91 0.000000 0.000000 0.000000 0.000000 0.000000 0.000000 16.000000 -0.605319 0.795442 0.029357
0.41999999 -17.62000084 0.06000000 136 193 91 0.000000 0.000000 0.000000 0.000000 0.000000 0.000000 16.000000 -0.367526 0.910950 -0.187338
0.43000001 -17.62000084 0.02000000 136 193 91 0.000000 0.000000 0.000000 0.000000 0.000000 0.000000 16.000000 -0.596206 0.720347 -0.354456
0.40000001 -17.67000008 0.06000000 136 193 91 0.000000 0.000000 0.000000 0.000000 0.000000 0.000000 16.000000 -0.706122 0.703210 0.082988
0.41000000 -17.65999985 0.04000000 136 193 91 0.000000 0.000000 0.000000 0.000000 0.000000 0.000000 16.000000 -0.651912 0.758005 -0.020939
0.43000001 -17.64999962 0.06000000 136 193 91 0.000000 0.000000 0.000000 0.000000 0.000000 0.000000 16.000000 -0.585342 0.802461 -0.115895
0.40000001 -17.67000008 0.05000000 136 193 91 0.000000 0.000000 0.000000 0.000000 0.000000 0.000000 16.000000 0.714917 -0.691332 0.104658
0.41000000 -17.65999985 0.04000000 136 193 91 0.000000 0.000000 0.000000 0.000000 0.000000 0.000000 16.000000 -0.651912 0.758005 -0.020939
0.43000001 -17.65999985 0.05000000 136 193 91 0.000000 0.000000 0.000000 0.000000 0.000000 0.000000 16.000000 -0.599987 0.676439 -0.427137
0.40000001 -17.65999985 0.00000000 136 193 91 0.000000 0.000000 0.000000 0.000000 0.000000 0.000000 16.000000 -0.672640 0.734188 -0.092323
0.43000001 -17.64999962 -0.02000000 136 193 91 0.000000 0.000000 0.000000 0.000000 0.000000 0.000000 16.000000 -0.362378 0.932010 0.006358
0.44000000 -17.64999962 -0.01000000 136 193 91 0.000000 0.000000 0.000000 0.000000 0.000000 0.000000 16.000000 -0.540095 0.799967 -0.261437
0.34000000 -17.61000061 0.14000000 136 193 91 0.000000 0.000000 0.000000 0.000000 0.000000 0.000000 16.000000 -0.403947 0.783559 -0.472082
0.41000000 -17.65999985 -0.05000000 136 193 91 0.000000 0.000000 0.000000 0.000000 0.000000 0.000000 16.000000 -0.190288 0.966972 0.169576
0.43000001 -17.65999985 -0.06000000 136 193 91 0.000000 0.000000 0.000000 0.000000 0.000000 0.000000 16.000000 -0.095914 0.962979 -0.251935
0.44000000 -17.65999985 -0.05000000 136 193 91 0.000000 0.000000 0.000000 0.000000 0.000000 0.000000 16.000000 -0.408318 0.895990 0.174581
0.43000001 -17.65999985 -0.06000000 136 193 91 0.000000 0.000000 0.000000 0.000000 0.000000 0.000000 16.000000 -0.095914 0.962979 -0.251935
0.41999999 -17.65999985 -0.10000000 136 193 91 0.000000 0.000000 0.000000 0.000000 0.000000 0.000000 16.000000 -0.458840 0.772353 -0.439245
0.44000000 -17.65999985 -0.07000000 136 193 91 0.000000 0.000000 0.000000 0.000000 0.000000 0.000000 16.000000 -0.157268 0.958148 -0.239207
0.38999999 -17.65999985 -0.07000000 136 193 91 0.000000 0.000000 0.000000 0.000000 0.000000 0.000000 16.000000 -0.210112 0.888934 -0.407000
0.44000000 -17.65999985 -0.12000000 136 193 91 0.000000 0.000000 0.000000 0.000000 0.000000 0.000000 16.000000 -0.270317 0.763527 -0.586477
0.46000001 -17.68000031 0.23999999 136 193 91 0.000000 0.000000 0.000000 0.000000 0.000000 0.000000 16.000000 -0.412147 0.884861 0.217153
0.40000001 -17.70999908 0.20000000 136 193 91 0.000000 0.000000 0.000000 0.000000 0.000000 0.000000 16.000000 -0.528319 0.848345 -0.034486
0.41999999 -17.68000031 0.22000000 136 193 91 0.000000 0.000000 0.000000 0.000000 0.000000 0.000000 16.000000 0.657429 -0.654134 0.374026
0.41000000 -17.69000053 0.19000000 136 193 91 0.000000 0.000000 0.000000 0.000000 0.000000 0.000000 16.000000 -0.329641 0.937795 0.108983
0.44000000 -17.69000053 0.19000000 136 193 91 0.000000 0.000000 0.000000 0.000000 0.000000 0.000000 16.000000 -0.568258 0.798011 -0.200652
0.38999999 -17.70000076 0.16000000 136 193 91 0.000000 0.000000 0.000000 0.000000 0.000000 0.000000 16.000000 -0.232115 0.924187 -0.303316
0.47000000 -17.69000053 0.14000000 136 193 91 0.000000 0.000000 0.000000 0.000000 0.000000 0.000000 16.000000 -0.528319 0.848345 -0.034486
0.47000000 -17.69000053 0.13000000 136 193 91 0.000000 0.000000 0.000000 0.000000 0.000000 0.000000 16.000000 -0.389488 0.915229 0.103221
0.47000000 -17.70000076 0.11000000 136 193 91 0.000000 0.000000 0.000000 0.000000 0.000000 0.000000 16.000000 -0.071881 0.910044 -0.408231
0.44999999 -17.69000053 0.13000000 136 193 91 0.000000 0.000000 0.000000 0.000000 0.000000 0.000000 16.000000 -0.549642 0.833600 -0.054824
0.44999999 -17.69000053 0.12000000 136 193 91 0.000000 0.000000 0.000000 0.000000 0.000000 0.000000 16.000000 -0.660485 0.738366 -0.136291
0.47000000 -17.68000031 0.09000000 136 193 91 0.000000 0.000000 0.000000 0.000000 0.000000 0.000000 16.000000 -0.196114 0.877353 -0.437939
0.47999999 -17.70000076 0.08000000 136 193 91 0.000000 0.000000 0.000000 0.000000 0.000000 0.000000 16.000000 -0.389739 0.910330 0.139293
0.47000000 -17.68000031 0.10000000 136 193 91 0.000000 0.000000 0.000000 0.000000 0.000000 0.000000 16.000000 -0.233838 0.955395 -0.180389
0.44999999 -17.72999954 0.12000000 136 193 91 0.000000 0.000000 0.000000 0.000000 0.000000 0.000000 16.000000 -0.641245 0.764616 -0.064555
0.44999999 -17.73999977 0.07000000 136 193 91 0.000000 0.000000 0.000000 0.000000 0.000000 0.000000 16.000000 -0.283216 0.950701 -0.126317
0.49000001 -17.70000076 0.06000000 136 193 91 0.000000 0.000000 0.000000 0.000000 0.000000 0.000000 16.000000 0.019095 0.989588 -0.142654
0.50999999 -17.69000053 -0.01000000 136 193 91 0.000000 0.000000 0.000000 0.000000 0.000000 0.000000 16.000000 -0.463655 0.885648 0.025535
0.50999999 -17.71999931 0.00000000 136 193 91 0.000000 0.000000 0.000000 0.000000 0.000000 0.000000 16.000000 -0.184432 0.841191 -0.508313
0.50999999 -17.71999931 0.01000000 136 193 91 0.000000 0.000000 0.000000 0.000000 0.000000 0.000000 16.000000 -0.356680 0.773077 -0.524530
0.46000001 -17.69000053 -0.02000000 136 193 91 0.000000 0.000000 0.000000 0.000000 0.000000 0.000000 16.000000 -0.532838 0.787328 -0.310159
0.46000001 -17.71999931 0.02000000 136 193 91 0.000000 0.000000 0.000000 0.000000 0.000000 0.000000 16.000000 -0.467951 0.732518 -0.494408
0.44999999 -17.71999931 0.06000000 136 193 91 0.000000 0.000000 0.000000 0.000000 0.000000 0.000000 16.000000 0.012508 0.985852 -0.167151
0.44999999 -17.73999977 0.05000000 136 193 91 0.000000 0.000000 0.000000 0.000000 0.000000 0.000000 16.000000 -0.425668 0.897696 0.113792
0.46000001 -17.72999954 0.04000000 136 193 91 0.000000 0.000000 0.000000 0.000000 0.000000 0.000000 16.000000 -0.311788 0.950151 -0.001232
0.44999999 -17.71999931 0.06000000 136 193 91 0.000000 0.000000 0.000000 0.000000 0.000000 0.000000 16.000000 0.012508 0.985852 -0.167151
0.46000001 -17.72999954 0.04000000 136 193 91 0.000000 0.000000 0.000000 0.000000 0.000000 0.000000 16.000000 -0.311788 0.950151 -0.001232
0.47000000 -17.72999954 0.03000000 136 193 91 0.000000 0.000000 0.000000 0.000000 0.000000 0.000000 16.000000 -0.139019 0.943442 -0.300984
0.49000001 -17.76000023 -0.01000000 136 193 91 0.000000 0.000000 0.000000 0.000000 0.000000 0.000000 16.000000 -0.471198 0.871788 -0.134010
0.49000001 -17.76000023 -0.02000000 136 193 91 0.000000 0.000000 0.000000 0.000000 0.000000 0.000000 16.000000 -0.287010 0.949135 -0.129488
0.46000001 -17.76000023 -0.01000000 136 193 91 0.000000 0.000000 0.000000 0.000000 0.000000 0.000000 16.000000 -0.009405 0.997922 -0.063742
0.47000000 -17.76000023 0.00000000 136 193 91 0.000000 0.000000 0.000000 0.000000 0.000000 0.000000 16.000000 -0.568936 0.795897 -0.207025
0.46000001 -17.77000046 0.01000000 136 193 91 0.000000 0.000000 0.000000 0.000000 0.000000 0.000000 16.000000 -0.180851 0.926688 -0.329458
0.56000000 -17.71999931 -0.14000000 136 193 91 0.000000 0.000000 0.000000 0.000000 0.000000 0.000000 16.000000 0.149951 0.826957 -0.541902
0.55000001 -17.76000023 -0.17000000 136 193 91 0.000000 0.000000 0.000000 0.000000 0.000000 0.000000 16.000000 0.088186 0.883256 -0.460525
0.55000001 -17.79999924 -0.15000001 136 193 91 0.000000 0.000000 0.000000 0.000000 0.000000 0.000000 16.000000 -0.029844 0.999274 -0.023670
0.49000001 -17.69000053 -0.03000000 136 193 91 0.000000 0.000000 0.000000 0.000000 0.000000 0.000000 16.000000 0.142798 0.987979 -0.059209
0.50000000 -17.75000000 -0.06000000 136 193 91 0.000000 0.000000 0.000000 0.000000 0.000000 0.000000 16.000000 -0.475193 0.848667 -0.232283
0.50999999 -17.73999977 -0.05000000 136 193 91 0.000000 0.000000 0.000000 0.000000 0.000000 0.000000 16.000000 -0.131122 0.903758 -0.407466
0.50999999 -17.75000000 -0.07000000 136 193 91 0.000000 0.000000 0.000000 0.000000 0.000000 0.000000 16.000000 0.209301 0.976335 -0.054442
0.44999999 -17.68000031 -0.05000000 136 193 91 0.000000 0.000000 0.000000 0.000000 0.000000 0.000000 16.000000 0.045532 0.968481 -0.244889
0.47000000 -17.69000053 -0.03000000 136 193 91 0.000000 0.000000 0.000000 0.000000 0.000000 0.000000 16.000000 0.054828 0.952475 -0.299641
0.44999999 -17.68000031 -0.05000000 136 193 91 0.000000 0.000000 0.000000 0.000000 0.000000 0.000000 16.000000 0.045532 0.968481 -0.244889
0.46000001 -17.68000031 -0.08000000 136 193 91 0.000000 0.000000 0.000000 0.000000 0.000000 0.000000 16.000000 -0.119300 0.965941 -0.229619
0.46000001 -17.68000031 -0.08000000 136 193 91 0.000000 0.000000 0.000000 0.000000 0.000000 0.000000 16.000000 -0.119300 0.965941 -0.229619
0.44999999 -17.68000031 -0.09000000 136 193 91 0.000000 0.000000 0.000000 0.000000 0.000000 0.000000 16.000000 -0.193641 0.980087 0.043955
0.46000001 -17.68000031 -0.09000000 136 193 91 0.000000 0.000000 0.000000 0.000000 0.000000 0.000000 16.000000 -0.178093 0.983583 -0.029100
0.46000001 -17.68000031 -0.08000000 136 193 91 0.000000 0.000000 0.000000 0.000000 0.000000 0.000000 16.000000 -0.119300 0.965941 -0.229619
0.47999999 -17.72999954 -0.03000000 136 193 91 0.000000 0.000000 0.000000 0.000000 0.000000 0.000000 16.000000 -0.175442 0.976753 0.123183
0.47999999 -17.72999954 -0.04000000 136 193 91 0.000000 0.000000 0.000000 0.000000 0.000000 0.000000 16.000000 -0.070423 0.997490 0.007358
0.44999999 -17.75000000 -0.06000000 136 193 91 0.000000 0.000000 0.000000 0.000000 0.000000 0.000000 16.000000 -0.131015 0.970531 0.202247
0.47000000 -17.72999954 -0.03000000 136 193 91 0.000000 0.000000 0.000000 0.000000 0.000000 0.000000 16.000000 -0.544728 0.838360 -0.020582
0.47999999 -17.72999954 -0.04000000 136 193 91 0.000000 0.000000 0.000000 0.000000 0.000000 0.000000 16.000000 -0.070423 0.997490 0.007358
0.46000001 -17.75000000 -0.07000000 136 193 91 0.000000 0.000000 0.000000 0.000000 0.000000 0.000000 16.000000 -0.209818 0.970249 -0.120804
0.49000001 -17.70999908 -0.18000001 136 193 91 0.000000 0.000000 0.000000 0.000000 0.000000 0.000000 16.000000 -0.065095 0.928600 -0.365329
0.49000001 -17.70999908 -0.16000000 136 193 91 0.000000 0.000000 0.000000 0.000000 0.000000 0.000000 16.000000 0.059136 0.994150 0.090377
0.50999999 -17.71999931 -0.13000000 136 193 91 0.000000 0.000000 0.000000 0.000000 0.000000 0.000000 16.000000 -0.255524 0.950442 0.177109
0.46000001 -17.70000076 -0.14000000 136 193 91 0.000000 0.000000 0.000000 0.000000 0.000000 0.000000 16.000000 -0.545437 0.805022 -0.233317
0.47999999 -17.70999908 -0.11000000 136 193 91 0.000000 0.000000 0.000000 0.000000 0.000000 0.000000 16.000000 -0.099847 0.917775 -0.384344
0.47000000 -17.69000053 -0.13000000 136 193 91 0.000000 0.000000 0.000000 0.000000 0.000000 0.000000 16.000000 -0.013672 0.950808 -0.309479
0.44999999 -17.71999931 -0.15000001 136 193 91 0.000000 0.000000 0.000000 0.000000 0.000000 0.000000 16.000000 -0.424026 0.903596 0.060962
0.44999999 -17.72999954 -0.12000000 136 193 91 0.000000 0.000000 0.000000 0.000000 0.000000 0.000000 16.000000 -0.072975 0.956358 -0.282939
0.47999999 -17.72999954 -0.19000000 136 193 91 0.000000 0.000000 0.000000 0.000000 0.000000 0.000000 16.000000 -0.140229 0.960634 -0.239831
0.44999999 -17.71999931 -0.17000000 136 193 91 0.000000 0.000000 0.000000 0.000000 0.000000 0.000000 16.000000 -0.573514 0.800499 -0.174021
0.47000000 -17.71999931 -0.16000000 136 193 91 0.000000 0.000000 0.000000 0.000000 0.000000 0.000000 16.000000 0.037306 0.844210 -0.534712
0.47999999 -17.72999954 -0.19000000 136 193 91 0.000000 0.000000 0.000000 0.000000 0.000000 0.000000 16.000000 -0.140229 0.960634 -0.239831
0.46000001 -17.71999931 -0.16000000 136 193 91 0.000000 0.000000 0.000000 0.000000 0.000000 0.000000 16.000000 -0.381697 0.840361 -0.384838
0.46000001 -17.71999931 -0.16000000 136 193 91 0.000000 0.000000 0.000000 0.000000 0.000000 0.000000 16.000000 -0.381697 0.840361 -0.384838
0.49000001 -17.79000092 -0.06000000 136 193 91 0.000000 0.000000 0.000000 0.000000 0.000000 0.000000 16.000000 -0.517245 0.819871 -0.245498
0.49000001 -17.76000023 -0.09000000 136 193 91 0.000000 0.000000 0.000000 0.000000 0.000000 0.000000 16.000000 -0.127692 0.991025 0.039551
0.51999998 -17.76000023 -0.08000000 136 193 91 0.000000 0.000000 0.000000 0.000000 0.000000 0.000000 16.000000 -0.235219 0.851343 -0.468921
0.47000000 -17.76000023 -0.05000000 136 193 91 0.000000 0.000000 0.000000 0.000000 0.000000 0.000000 16.000000 -0.378973 0.759573 -0.528610
0.44999999 -17.78000069 -0.06000000 136 193 91 0.000000 0.000000 0.000000 0.000000 0.000000 0.000000 16.000000 -0.030510 0.998413 -0.047343
0.47000000 -17.76000023 -0.05000000 136 193 91 0.000000 0.000000 0.000000 0.000000 0.000000 0.000000 16.000000 -0.378973 0.759573 -0.528610
0.47000000 -17.76000023 -0.05000000 136 193 91 0.000000 0.000000 0.000000 0.000000 0.000000 0.000000 16.000000 -0.378973 0.759573 -0.528610
0.47000000 -17.79999924 -0.09000000 136 193 91 0.000000 0.000000 0.000000 0.000000 0.000000 0.000000 16.000000 0.407052 -0.828359 0.384878
0.44999999 -17.76000023 -0.07000000 136 193 91 0.000000 0.000000 0.000000 0.000000 0.000000 0.000000 16.000000 -0.204793 0.832825 -0.514258
0.47000000 -17.79000092 -0.08000000 136 193 91 0.000000 0.000000 0.000000 0.000000 0.000000 0.000000 16.000000 -0.527009 0.800739 -0.284742
0.47000000 -17.79000092 -0.07000000 136 193 91 0.000000 0.000000 0.000000 0.000000 0.000000 0.000000 16.000000 -0.265453 0.922630 -0.279802
0.44999999 -17.78000069 -0.07000000 136 193 91 0.000000 0.000000 0.000000 0.000000 0.000000 0.000000 16.000000 -0.139591 0.979604 -0.144532
0.47999999 -17.76000023 -0.10000000 136 193 91 0.000000 0.000000 0.000000 0.000000 0.000000 0.000000 16.000000 -0.375582 0.857811 -0.350853
0.47000000 -17.79000092 -0.08000000 136 193 91 0.000000 0.000000 0.000000 0.000000 0.000000 0.000000 16.000000 -0.527009 0.800739 -0.284742
0.44999999 -17.80999947 -0.07000000 136 193 91 0.000000 0.000000 0.000000 0.000000 0.000000 0.000000 16.000000 -0.479160 0.863073 0.159720
0.50000000 -17.76000023 -0.15000001 136 193 91 0.000000 0.000000 0.000000 0.000000 0.000000 0.000000 16.000000 -0.367707 0.863111 -0.346167
0.50000000 -17.78000069 -0.12000000 136 193 91 0.000000 0.000000 0.000000 0.000000 0.000000 0.000000 16.000000 -0.098658 0.948432 -0.301236
0.50000000 -17.76000023 -0.15000001 136 193 91 0.000000 0.000000 0.000000 0.000000 0.000000 0.000000 16.000000 -0.367707 0.863111 -0.346167
0.50000000 -17.77000046 -0.11000000 136 193 91 0.000000 0.000000 0.000000 0.000000 0.000000 0.000000 16.000000 -0.357446 0.915688 -0.183707
0.51999998 -17.79000092 -0.19000000 136 193 91 0.000000 0.000000 0.000000 0.000000 0.000000 0.000000 16.000000 -0.375299 0.891520 -0.253660
0.50999999 -17.77000046 -0.18000001 136 193 91 0.000000 0.000000 0.000000 0.000000 0.000000 0.000000 16.000000 0.204764 0.960408 -0.188911
0.51999998 -17.79000092 -0.19000000 136 193 91 0.000000 0.000000 0.000000 0.000000 0.000000 0.000000 16.000000 -0.375299 0.891520 -0.253660
0.50000000 -17.80999947 -0.14000000 136 193 91 0.000000 0.000000 0.000000 0.000000 0.000000 0.000000 16.000000 0.060513 -0.840140 0.538984
0.50000000 -17.81999969 -0.19000000 136 193 91 0.000000 0.000000 0.000000 0.000000 0.000000 0.000000 16.000000 -0.450779 0.892194 -0.028090
0.50999999 -17.82999992 -0.18000001 136 193 91 0.000000 0.000000 0.000000 0.000000 0.000000 0.000000 16.000000 -0.268184 0.956306 -0.116431
0.51999998 -17.81999969 -0.17000000 136 193 91 0.000000 0.000000 0.000000 0.000000 0.000000 0.000000 16.000000 -0.075522 0.825042 -0.560002
0.44999999 -17.79000092 -0.14000000 136 193 91 0.000000 0.000000 0.000000 0.000000 0.000000 0.000000 16.000000 -0.076118 0.889886 -0.449787
0.46000001 -17.79000092 -0.14000000 136 193 91 0.000000 0.000000 0.000000 0.000000 0.000000 0.000000 16.000000 -0.041831 0.991496 0.123230
0.46000001 -17.77000046 -0.13000000 136 193 91 0.000000 0.000000 0.000000 0.000000 0.000000 0.000000 16.000000 -0.275723 0.820937 -0.500039
0.44999999 -17.79999924 -0.15000001 136 193 91 0.000000 0.000000 0.000000 0.000000 0.000000 0.000000 16.000000 -0.242465 0.846340 -0.474256
0.44999999 -17.79999924 -0.15000001 136 193 91 0.000000 0.000000 0.000000 0.000000 0.000000 0.000000 16.000000 -0.242465 0.846340 -0.474256
0.44999999 -17.79999924 -0.15000001 136 193 91 0.000000 0.000000 0.000000 0.000000 0.000000 0.000000 16.000000 -0.242465 0.846340 -0.474256
0.46000001 -17.79999924 -0.12000000 136 193 91 0.000000 0.000000 0.000000 0.000000 0.000000 0.000000 16.000000 -0.363144 0.907136 0.212678
0.44999999 -17.77000046 -0.19000000 136 193 91 0.000000 0.000000 0.000000 0.000000 0.000000 0.000000 16.000000 -0.197560 0.964248 0.176626
0.47999999 -17.79999924 -0.19000000 136 193 91 0.000000 0.000000 0.000000 0.000000 0.000000 0.000000 16.000000 -0.322629 0.944564 0.060898
0.44000000 -17.69000053 0.13000000 136 193 91 0.000000 0.000000 0.000000 0.000000 0.000000 0.000000 16.000000 -0.058202 0.997896 -0.028572
0.41999999 -17.72999954 0.09000000 136 193 91 0.000000 0.000000 0.000000 0.000000 0.000000 0.000000 16.000000 -0.136134 0.944848 -0.297876
0.43000001 -17.71999931 0.07000000 136 193 91 0.000000 0.000000 0.000000 0.000000 0.000000 0.000000 16.000000 -0.081180 0.980213 -0.180534
0.44000000 -17.75000000 0.07000000 136 193 91 0.000000 0.000000 0.000000 0.000000 0.000000 0.000000 16.000000 -0.099108 0.924559 -0.367923
0.43000001 -17.71999931 0.07000000 136 193 91 0.000000 0.000000 0.000000 0.000000 0.000000 0.000000 16.000000 -0.081180 0.980213 -0.180534
0.37000000 -17.68000031 0.11000000 136 193 91 0.000000 0.000000 0.000000 0.000000 0.000000 0.000000 16.000000 -0.174658 0.984330 0.024290
0.38000000 -17.68000031 0.13000000 136 193 91 0.000000 0.000000 0.000000 0.000000 0.000000 0.000000 16.000000 -0.385780 0.922518 -0.011612
0.38000000 -17.69000053 0.07000000 136 193 91 0.000000 0.000000 0.000000 0.000000 0.000000 0.000000 16.000000 -0.542013 0.714396 -0.442561
0.41999999 -17.70999908 0.01000000 136 193 91 0.000000 0.000000 0.000000 0.000000 0.000000 0.000000 16.000000 -0.602377 0.798115 -0.012406
0.43000001 -17.70999908 -0.01000000 136 193 91 0.000000 0.000000 0.000000 0.000000 0.000000 0.000000 16.000000 0.656395 -0.743117 0.130083
0.44000000 -17.69000053 -0.02000000 136 193 91 0.000000 0.000000 0.000000 0.000000 0.000000 0.000000 16.000000 -0.239653 0.969675 0.047931
0.41999999 -17.70999908 0.01000000 136 193 91 0.000000 0.000000 0.000000 0.000000 0.000000 0.000000 16.000000 -0.602377 0.798115 -0.012406
0.41000000 -17.71999931 0.02000000 136 193 91 0.000000 0.000000 0.000000 0.000000 0.000000 0.000000 16.000000 -0.633537 0.773712 0.001374
0.44000000 -17.71999931 0.06000000 136 193 91 0.000000 0.000000 0.000000 0.000000 0.000000 0.000000 16.000000 -0.066526 0.993386 0.093588
0.43000001 -17.71999931 0.05000000 136 193 91 0.000000 0.000000 0.000000 0.000000 0.000000 0.000000 16.000000 -0.519580 0.850866 -0.077866
0.44000000 -17.71999931 0.06000000 136 193 91 0.000000 0.000000 0.000000 0.000000 0.000000 0.000000 16.000000 -0.066526 0.993386 0.093588
0.41999999 -17.75000000 0.03000000 136 193 91 0.000000 0.000000 0.000000 0.000000 0.000000 0.000000 16.000000 -0.151980 0.986100 0.067154
0.41999999 -17.75000000 0.05000000 136 193 91 0.000000 0.000000 0.000000 0.000000 0.000000 0.000000 16.000000 -0.559121 0.685966 -0.465656
0.38999999 -17.73999977 0.02000000 136 193 91 0.000000 0.000000 0.000000 0.000000 0.000000 0.000000 16.000000 -0.262381 0.962062 0.074785
0.38000000 -17.73999977 0.01000000 136 193 91 0.000000 0.000000 0.000000 0.000000 0.000000 0.000000 16.000000 -0.440154 0.834883 -0.330507
0.38999999 -17.73999977 -0.01000000 136 193 91 0.000000 0.000000 0.000000 0.000000 0.000000 0.000000 16.000000 -0.681320 0.731685 0.020985
0.38999999 -17.73999977 0.00000000 136 193 91 0.000000 0.000000 0.000000 0.000000 0.000000 0.000000 16.000000 -0.410967 0.906341 -0.098245
0.44000000 -17.69000053 -0.03000000 136 193 91 0.000000 0.000000 0.000000 0.000000 0.000000 0.000000 16.000000 -0.498973 0.798675 -0.336368
0.43000001 -17.69000053 -0.05000000 136 193 91 0.000000 0.000000 0.000000 0.000000 0.000000 0.000000 16.000000 -0.049702 0.988258 0.144482
0.41000000 -17.69000053 -0.05000000 136 193 91 0.000000 0.000000 0.000000 0.000000 0.000000 0.000000 16.000000 -0.396174 0.858633 -0.325263
0.40000001 -17.68000031 -0.03000000 136 193 91 0.000000 0.000000 0.000000 0.000000 0.000000 0.000000 16.000000 -0.658515 0.720786 -0.216392
0.41000000 -17.70999908 -0.04000000 136 193 91 0.000000 0.000000 0.000000 0.000000 0.000000 0.000000 16.000000 -0.631590 0.758817 0.159033
0.43000001 -17.70000076 -0.08000000 136 193 91 0.000000 0.000000 0.000000 0.000000 0.000000 0.000000 16.000000 -0.534271 0.741404 -0.406046
0.43000001 -17.70000076 -0.08000000 136 193 91 0.000000 0.000000 0.000000 0.000000 0.000000 0.000000 16.000000 -0.534271 0.741404 -0.406046
0.44000000 -17.69000053 -0.09000000 136 193 91 0.000000 0.000000 0.000000 0.000000 0.000000 0.000000 16.000000 -0.373255 0.906477 -0.197436
0.41000000 -17.70000076 -0.08000000 136 193 91 0.000000 0.000000 0.000000 0.000000 0.000000 0.000000 16.000000 0.021481 0.999388 -0.027619
0.43000001 -17.70000076 -0.08000000 136 193 91 0.000000 0.000000 0.000000 0.000000 0.000000 0.000000 16.000000 -0.534271 0.741404 -0.406046
0.41999999 -17.70000076 -0.13000000 136 193 91 0.000000 0.000000 0.000000 0.000000 0.000000 0.000000 16.000000 -0.450488 0.863309 -0.227504
0.41999999 -17.70000076 -0.13000000 136 193 91 0.000000 0.000000 0.000000 0.000000 0.000000 0.000000 16.000000 -0.450488 0.863309 -0.227504
0.44000000 -17.68000031 -0.12000000 136 193 91 0.000000 0.000000 0.000000 0.000000 0.000000 0.000000 16.000000 0.011942 0.890347 -0.455125
0.43000001 -17.70000076 -0.15000001 136 193 91 0.000000 0.000000 0.000000 0.000000 0.000000 0.000000 16.000000 -0.498764 0.748968 -0.436212
0.43000001 -17.69000053 -0.17000000 136 193 91 0.000000 0.000000 0.000000 0.000000 0.000000 0.000000 16.000000 -0.108638 0.991467 0.072044
0.41999999 -17.75000000 -0.14000000 136 193 91 0.000000 0.000000 0.000000 0.000000 0.000000 0.000000 16.000000 -0.118518 0.981136 0.152730
0.44000000 -17.72999954 -0.11000000 136 193 91 0.000000 0.000000 0.000000 0.000000 0.000000 0.000000 16.000000 -0.143996 0.812017 -0.565591
0.44000000 -17.71999931 -0.14000000 136 193 91 0.000000 0.000000 0.000000 0.000000 0.000000 0.000000 16.000000 -0.364947 0.930027 -0.043166
0.44000000 -17.71999931 -0.17000000 136 193 91 0.000000 0.000000 0.000000 0.000000 0.000000 0.000000 16.000000 -0.024008 0.986630 -0.161199
0.41999999 -17.71999931 -0.19000000 136 193 91 0.000000 0.000000 0.000000 0.000000 0.000000 0.000000 16.000000 -0.179321 0.932748 -0.312770
0.38999999 -17.70999908 -0.11000000 136 193 91 0.000000 0.000000 0.000000 0.000000 0.000000 0.000000 16.000000 -0.215195 0.911329 -0.350956
0.38999999 -17.70999908 -0.11000000 136 193 91 0.000000 0.000000 0.000000 0.000000 0.000000 0.000000 16.000000 -0.215195 0.911329 -0.350956
0.38999999 -17.71999931 -0.14000000 136 193 91 0.000000 0.000000 0.000000 0.000000 0.000000 0.000000 16.000000 -0.226851 0.911740 -0.342444
0.41999999 -17.78000069 -0.07000000 136 193 91 0.000000 0.000000 0.000000 0.000000 0.000000 0.000000 16.000000 -0.360673 0.928023 0.093208
0.40000001 -17.76000023 -0.09000000 136 193 91 0.000000 0.000000 0.000000 0.000000 0.000000 0.000000 16.000000 -0.278170 0.956129 0.091861
0.37000000 -17.76000023 -0.08000000 136 193 91 0.000000 0.000000 0.000000 0.000000 0.000000 0.000000 16.000000 -0.117473 0.951665 -0.283784
0.38999999 -17.76000023 -0.07000000 136 193 91 0.000000 0.000000 0.000000 0.000000 0.000000 0.000000 16.000000 -0.311779 0.908988 -0.276649
0.40000001 -17.76000023 -0.12000000 136 193 91 0.000000 0.000000 0.000000 0.000000 0.000000 0.000000 16.000000 -0.165826 0.950467 -0.262895
0.41000000 -17.76000023 -0.12000000 136 193 91 0.000000 0.000000 0.000000 0.000000 0.000000 0.000000 16.000000 -0.241533 0.964856 -0.103514
0.41999999 -17.77000046 -0.15000001 136 193 91 0.000000 0.000000 0.000000 0.000000 0.000000 0.000000 16.000000 -0.035914 0.908499 -0.416340
0.79000002 -17.22999954 -0.31999999 136 193 91 0.000000 0.000000 0.000000 0.000000 0.000000 0.000000 26.000000 0.369247 0.822485 -0.432637
0.79000002 -17.22999954 -0.31999999 136 193 91 0.000000 0.000000 0.000000 0.000000 0.000000 0.000000 26.000000 0.369247 0.822485 -0.432637
0.79000002 -17.20999908 -0.20000000 136 193 91 0.000000 0.000000 0.000000 0.000000 0.000000 0.000000 26.000000 0.021069 0.992445 -0.120868
0.88999999 -17.29999924 -0.44000000 136 193 91 0.000000 0.000000 0.000000 0.000000 0.000000 0.000000 26.000000 0.237305 0.879074 -0.413419
0.88999999 -17.29000092 -0.47000000 136 193 91 0.000000 0.000000 0.000000 0.000000 0.000000 0.000000 26.000000 0.247877 0.964813 -0.087710
0.88999999 -17.30999947 -0.46000001 136 193 91 0.000000 0.000000 0.000000 0.000000 0.000000 0.000000 26.000000 0.077085 0.870364 -0.486338
0.88999999 -17.31999969 -0.47999999 136 193 91 0.000000 0.000000 0.000000 0.000000 0.000000 0.000000 26.000000 0.065177 0.972732 -0.222585
0.88000000 -17.30999947 -0.50999999 136 193 91 0.000000 0.000000 0.000000 0.000000 0.000000 0.000000 26.000000 0.043232 0.984994 -0.167087
0.88999999 -17.30999947 -0.50999999 136 193 91 0.000000 0.000000 0.000000 0.000000 0.000000 0.000000 26.000000 0.255115 0.793519 -0.552489
0.88999999 -17.31999969 -0.52999997 136 193 91 0.000000 0.000000 0.000000 0.000000 0.000000 0.000000 26.000000 0.097402 0.798111 -0.594585
0.88000000 -17.31999969 -0.50999999 136 193 91 0.000000 0.000000 0.000000 0.000000 0.000000 0.000000 26.000000 -0.024868 0.976960 -0.211971
0.79000002 -17.23999977 -0.38999999 136 193 91 0.000000 0.000000 0.000000 0.000000 0.000000 0.000000 26.000000 0.073851 0.967567 -0.241579
0.80000001 -17.23999977 -0.38999999 136 193 91 0.000000 0.000000 0.000000 0.000000 0.000000 0.000000 26.000000 0.358426 0.916608 -0.177088
0.87000000 -17.28000069 -0.44999999 136 193 91 0.000000 0.000000 0.000000 0.000000 0.000000 0.000000 26.000000 0.324815 0.728813 -0.602766
0.83999997 -17.28000069 -0.44999999 136 193 91 0.000000 0.000000 0.000000 0.000000 0.000000 0.000000 26.000000 0.424918 0.872358 -0.241738
