//X Y Z R G B PointSourceId ScanDirectionFlag NumberOfReturns ReturnNumber GpsTime Intensity Classification Nx Ny Nz
16.17000008 -14.39000034 -0.37000000 44 112 177 97.000000 1.000000 4.000000 1.000000 0.000000 114.000000 227.000000 0.529317 0.785180 0.321428
16.17000008 -14.34000015 -0.47999999 44 112 177 97.000000 1.000000 4.000000 1.000000 0.000000 114.000000 227.000000 0.551876 0.833916 -0.004068
16.17000008 -14.34000015 -0.47999999 44 112 177 97.000000 1.000000 4.000000 1.000000 0.000000 114.000000 227.000000 0.551876 0.833916 -0.004068
16.17000008 -14.32999992 -0.46000001 44 112 177 97.000000 1.000000 4.000000 1.000000 0.000000 114.000000 227.000000 0.478106 0.872507 -0.100728
16.17000008 -14.32999992 -0.47999999 44 112 177 97.000000 1.000000 4.000000 1.000000 0.000000 114.000000 227.000000 0.471932 0.643238 0.602931
16.17000008 -14.32999992 -0.50000000 44 112 177 97.000000 1.000000 4.000000 1.000000 0.000000 114.000000 227.000000 0.730422 0.639315 0.240332
16.15999985 -14.31999969 -0.49000001 44 112 177 97.000000 1.000000 4.000000 1.000000 0.000000 114.000000 227.000000 0.472955 0.824922 0.309542
16.13999939 -14.31000042 -0.49000001 44 112 177 97.000000 1.000000 4.000000 1.000000 0.000000 114.000000 227.000000 0.272590 0.956021 0.108253
16.14999962 -14.31999969 -0.47999999 44 112 177 97.000000 1.000000 4.000000 1.000000 0.000000 114.000000 227.000000 0.485073 0.701773 0.521746
16.15999985 -14.31999969 -0.49000001 44 112 177 97.000000 1.000000 4.000000 1.000000 0.000000 114.000000 227.000000 0.472955 0.824922 0.309542
16.14999962 -14.31999969 -0.47999999 44 112 177 97.000000 1.000000 4.000000 1.000000 0.000000 114.000000 227.000000 0.485073 0.701773 0.521746
16.15999985 -14.31999969 -0.49000001 44 112 177 97.000000 1.000000 4.000000 1.000000 0.000000 114.000000 227.000000 0.472955 0.824922 0.309542
16.15999985 -14.32999992 -0.40000001 44 112 177 97.000000 1.000000 4.000000 1.000000 0.000000 114.000000 227.000000 0.115224 0.877694 0.465163
16.15999985 -14.32999992 -0.47000000 44 112 177 97.000000 1.000000 4.000000 1.000000 0.000000 114.000000 227.000000 0.646437 0.585990 0.488605
16.21999931 -14.40999985 -0.25000000 44 112 177 97.000000 1.000000 4.000000 1.000000 0.000000 114.000000 227.000000 0.362455 0.749290 0.554247
16.21999931 -14.40999985 -0.28000000 44 112 177 97.000000 1.000000 4.000000 1.000000 0.000000 114.000000 227.000000 0.274697 0.914203 0.297952
16.17000008 -14.43000031 -0.20999999 44 112 177 97.000000 1.000000 4.000000 1.000000 0.000000 114.000000 227.000000 0.771047 0.467844 0.431982
16.17000008 -14.44999981 -0.25000000 44 112 177 97.000000 1.000000 4.000000 1.000000 0.000000 114.000000 227.000000 0.526082 0.816122 0.239128
16.13999939 -14.31999969 -0.55000001 44 112 177 97.000000 1.000000 4.000000 1.000000 0.000000 114.000000 227.000000 0.218652 0.893686 0.391813
16.27000046 -14.65999985 -0.25000000 44 112 177 97.000000 1.000000 4.000000 1.000000 0.000000 114.000000 212.000000 0.824067 0.565590 0.031962
16.27000046 -14.65999985 -0.23000000 44 112 177 97.000000 1.000000 4.000000 1.000000 0.000000 114.000000 212.000000 0.846060 0.209630 0.490141
16.25000000 -14.64999962 -0.23999999 44 112 177 97.000000 1.000000 4.000000 1.000000 0.000000 114.000000 212.000000 0.651247 0.699488 0.294267
16.25000000 -14.64000034 -0.25000000 44 112 177 97.000000 1.000000 4.000000 1.000000 0.000000 114.000000 212.000000 0.706473 0.618368 0.344263
16.26000023 -14.64999962 -0.25000000 44 112 177 97.000000 1.000000 4.000000 1.000000 0.000000 114.000000 212.000000 0.721506 0.576876 0.382940
16.26000023 -14.64999962 -0.25999999 44 112 177 97.000000 1.000000 4.000000 1.000000 0.000000 114.000000 212.000000 0.641653 0.740607 0.199454
16.26000023 -14.65999985 -0.28999999 44 112 177 97.000000 1.000000 4.000000 1.000000 0.000000 114.000000 212.000000 0.984614 0.174561 -0.007986
16.25000000 -14.64999962 -0.31000000 44 112 177 97.000000 1.000000 4.000000 1.000000 0.000000 114.000000 212.000000 0.714624 0.446018 0.538870
16.28000069 -14.64000034 -0.33000001 44 112 177 97.000000 1.000000 4.000000 1.000000 0.000000 114.000000 212.000000 0.991666 0.108410 0.069611
16.28000069 -14.64999962 -0.33000001 44 112 177 97.000000 1.000000 4.000000 1.000000 0.000000 114.000000 212.000000 0.999217 0.037919 -0.011273
16.26000023 -14.64999962 -0.36000001 44 112 177 97.000000 1.000000 4.000000 1.000000 0.000000 114.000000 212.000000 0.902445 0.383865 -0.195554
16.26000023 -14.68999958 -0.23999999 44 112 177 97.000000 1.000000 4.000000 1.000000 0.000000 114.000000 212.000000 0.922257 0.378327 0.079435
16.26000023 -14.68999958 -0.23999999 44 112 177 97.000000 1.000000 4.000000 1.000000 0.000000 114.000000 212.000000 0.922257 0.378327 0.079435
16.29000092 -14.68999958 -0.27000001 44 112 177 97.000000 1.000000 4.000000 1.000000 0.000000 114.000000 212.000000 0.733470 0.608282 0.303339
16.25000000 -14.67000008 -0.23999999 44 112 177 97.000000 1.000000 4.000000 1.000000 0.000000 114.000000 212.000000 0.807991 0.264121 0.526679
16.25000000 -14.68000031 -0.28000000 44 112 177 97.000000 1.000000 4.000000 1.000000 0.000000 114.000000 212.000000 0.999385 0.027675 0.021525
16.26000023 -14.68999958 -0.23999999 44 112 177 97.000000 1.000000 4.000000 1.000000 0.000000 114.000000 212.000000 0.922257 0.378327 0.079435
16.25000000 -14.67000008 -0.27000001 44 112 177 97.000000 1.000000 4.000000 1.000000 0.000000 114.000000 212.000000 0.728534 0.682732 0.055821
16.28000069 -14.67000008 -0.23999999 44 112 177 97.000000 1.000000 4.000000 1.000000 0.000000 114.000000 212.000000 0.896397 0.442187 0.030726
16.26000023 -14.67000008 -0.31999999 44 112 177 97.000000 1.000000 4.000000 1.000000 0.000000 114.000000 212.000000 0.745838 0.459357 0.482407
16.26000023 -14.67000008 -0.33000001 44 112 177 97.000000 1.000000 4.000000 1.000000 0.000000 114.000000 212.000000 0.868993 0.474392 -0.140722
16.28000069 -14.68999958 -0.33000001 44 112 177 97.000000 1.000000 4.000000 1.000000 0.000000 114.000000 212.000000 0.987926 0.049685 -0.146745
16.28000069 -14.65999985 -0.37000000 44 112 177 97.000000 1.000000 4.000000 1.000000 0.000000 114.000000 212.000000 0.908087 0.412519 0.072157
16.29000092 -14.64999962 -0.40000001 44 112 177 97.000000 1.000000 4.000000 1.000000 0.000000 114.000000 212.000000 0.698592 0.683033 0.213156
16.28000069 -14.65999985 -0.37000000 44 112 177 97.000000 1.000000 4.000000 1.000000 0.000000 114.000000 212.000000 0.908087 0.412519 0.072157
16.28000069 -14.64999962 -0.37000000 44 112 177 97.000000 1.000000 4.000000 1.000000 0.000000 114.000000 212.000000 0.920608 0.331533 -0.206319
16.29000092 -14.64999962 -0.41999999 44 112 177 97.000000 1.000000 4.000000 1.000000 0.000000 114.000000 212.000000 0.880746 0.468717 -0.067750
16.28000069 -14.64999962 -0.44999999 44 112 177 97.000000 1.000000 4.000000 1.000000 0.000000 114.000000 212.000000 0.991715 0.083694 0.097452
16.30999947 -14.68000031 -0.40000001 44 112 177 97.000000 1.000000 4.000000 1.000000 0.000000 114.000000 212.000000 0.987713 0.150981 -0.040338
16.28000069 -14.68000031 -0.37000000 44 112 177 97.000000 1.000000 4.000000 1.000000 0.000000 114.000000 212.000000 0.927080 0.254912 0.274849
16.28000069 -14.68000031 -0.40000001 44 112 177 97.000000 1.000000 4.000000 1.000000 0.000000 114.000000 212.000000 0.888565 0.458313 0.020043
16.27000046 -14.68999958 -0.43000001 44 112 177 97.000000 1.000000 4.000000 1.000000 0.000000 114.000000 212.000000 0.978191 0.207706 -0.001160
16.25000000 -14.68000031 -0.41000000 44 112 177 97.000000 1.000000 4.000000 1.000000 0.000000 114.000000 212.000000 0.850167 0.495806 0.177180
16.28000069 -14.68000031 -0.49000001 44 112 177 97.000000 1.000000 4.000000 1.000000 0.000000 114.000000 212.000000 0.976443 -0.156281 0.148779
16.27000046 -14.69999981 -0.46000001 44 112 177 97.000000 1.000000 4.000000 1.000000 0.000000 114.000000 212.000000 0.924241 0.377918 -0.054367
16.27000046 -14.69999981 -0.47999999 44 112 177 97.000000 1.000000 4.000000 1.000000 0.000000 114.000000 212.000000 0.991870 -0.114490 0.055545
16.27000046 -14.69999981 -0.50000000 44 112 177 97.000000 1.000000 4.000000 1.000000 0.000000 114.000000 212.000000 0.997469 0.033071 0.062942
16.29000092 -14.67000008 -0.50999999 44 112 177 97.000000 1.000000 4.000000 1.000000 0.000000 114.000000 212.000000 0.963555 -0.158196 0.215721
16.28000069 -14.72000027 -0.50999999 44 112 177 97.000000 1.000000 4.000000 1.000000 0.000000 114.000000 212.000000 0.857822 -0.074654 0.508496
16.34000015 -14.89000034 -0.23999999 44 112 177 97.000000 1.000000 4.000000 1.000000 0.000000 114.000000 218.000000 0.913344 -0.183809 0.363343
16.30999947 -14.86999989 -0.23000000 44 112 177 97.000000 1.000000 4.000000 1.000000 0.000000 114.000000 218.000000 0.993202 -0.016462 0.115233
16.31999969 -14.92000008 -0.20999999 44 112 177 97.000000 1.000000 4.000000 1.000000 0.000000 114.000000 218.000000 0.979090 -0.134919 -0.152248
16.26000023 -14.92000008 -0.23000000 44 112 177 97.000000 1.000000 4.000000 1.000000 0.000000 114.000000 218.000000 0.943392 0.108083 0.313575
16.25000000 -14.92000008 -0.20999999 44 112 177 97.000000 1.000000 4.000000 1.000000 0.000000 114.000000 218.000000 0.972902 0.223951 -0.057517
16.22999954 -14.61999989 -0.23999999 44 112 177 97.000000 1.000000 4.000000 1.000000 0.000000 114.000000 212.000000 0.928856 0.370261 -0.011531
16.23999977 -14.64000034 -0.23000000 44 112 177 97.000000 1.000000 4.000000 1.000000 0.000000 114.000000 212.000000 0.665056 0.611718 0.428370
16.23999977 -14.65999985 -0.23999999 44 112 177 97.000000 1.000000 4.000000 1.000000 0.000000 114.000000 212.000000 0.834108 0.545103 0.084412
16.23999977 -14.65999985 -0.23999999 44 112 177 97.000000 1.000000 4.000000 1.000000 0.000000 114.000000 212.000000 0.834108 0.545103 0.084412
16.17000008 -14.63000011 -0.25000000 44 112 177 97.000000 1.000000 4.000000 1.000000 0.000000 114.000000 212.000000 0.784469 0.597043 -0.167777
16.17000008 -14.63000011 -0.25000000 44 112 177 97.000000 1.000000 4.000000 1.000000 0.000000 114.000000 212.000000 0.784469 0.597043 -0.167777
16.17000008 -14.64999962 -0.28999999 44 112 177 97.000000 1.000000 4.000000 1.000000 0.000000 114.000000 212.000000 0.810178 0.475920 0.342217
16.20999908 -14.68999958 -0.20000000 44 112 177 97.000000 1.000000 4.000000 1.000000 0.000000 114.000000 212.000000 0.863816 0.182246 0.469690
16.20999908 -14.68000031 -0.20000000 44 112 177 97.000000 1.000000 4.000000 1.000000 0.000000 114.000000 212.000000 0.636415 0.531753 0.558762
16.21999931 -14.67000008 -0.20999999 44 112 177 97.000000 1.000000 4.000000 1.000000 0.000000 114.000000 212.000000 0.810074 0.250330 0.530202
16.23999977 -14.68000031 -0.25999999 44 112 177 97.000000 1.000000 4.000000 1.000000 0.000000 114.000000 212.000000 0.825060 0.554405 -0.109135
16.22999954 -14.67000008 -0.25000000 44 112 177 97.000000 1.000000 4.000000 1.000000 0.000000 114.000000 212.000000 0.885116 0.454519 -0.099910
16.18000031 -14.69999981 -0.20999999 44 112 177 97.000000 1.000000 4.000000 1.000000 0.000000 114.000000 212.000000 0.991009 0.133681 -0.005524
16.23999977 -14.67000008 -0.34999999 44 112 177 97.000000 1.000000 4.000000 1.000000 0.000000 114.000000 212.000000 0.676751 0.518898 0.522257
16.14999962 -14.65999985 -0.20999999 44 112 177 97.000000 1.000000 4.000000 1.000000 0.000000 114.000000 212.000000 0.543500 0.808321 0.226330
16.12999916 -14.64000034 -0.20999999 44 112 177 97.000000 1.000000 4.000000 1.000000 0.000000 114.000000 212.000000 0.561939 0.672649 0.481422
16.15999985 -14.64999962 -0.28000000 44 112 177 97.000000 1.000000 4.000000 1.000000 0.000000 114.000000 212.000000 0.927156 0.260629 0.269174
16.12000084 -14.60999966 -0.22000000 44 112 177 97.000000 1.000000 4.000000 1.000000 0.000000 114.000000 212.000000 0.563625 0.570395 0.597476
16.09000015 -14.60999966 -0.20999999 44 112 177 97.000000 1.000000 4.000000 1.000000 0.000000 114.000000 212.000000 0.738047 0.627890 0.247065
16.09000015 -14.60999966 -0.20000000 44 112 177 97.000000 1.000000 4.000000 1.000000 0.000000 114.000000 212.000000 0.712239 0.618139 0.332595
16.09000015 -14.60999966 -0.20999999 44 112 177 97.000000 1.000000 4.000000 1.000000 0.000000 114.000000 212.000000 0.738047 0.627890 0.247065
16.10000038 -14.61999989 -0.20999999 44 112 177 97.000000 1.000000 4.000000 1.000000 0.000000 114.000000 212.000000 0.618785 0.783795 -0.052632
16.09000015 -14.61999989 -0.20000000 44 112 177 97.000000 1.000000 4.000000 1.000000 0.000000 114.000000 212.000000 0.708772 0.511983 0.485300
16.09000015 -14.64000034 -0.28000000 44 112 177 97.000000 1.000000 4.000000 1.000000 0.000000 114.000000 212.000000 0.579049 0.771540 0.263491
16.09000015 -14.64000034 -0.28000000 44 112 177 97.000000 1.000000 4.000000 1.000000 0.000000 114.000000 212.000000 0.579049 0.771540 0.263491
16.07999992 -14.64000034 -0.27000001 44 112 177 97.000000 1.000000 4.000000 1.000000 0.000000 114.000000 212.000000 0.838476 0.463409 0.286725
16.12000084 -14.64000034 -0.25000000 44 112 177 97.000000 1.000000 4.000000 1.000000 0.000000 114.000000 212.000000 0.564582 0.631995 0.530876
16.10000038 -14.63000011 -0.25000000 44 112 177 97.000000 1.000000 4.000000 1.000000 0.000000 114.000000 212.000000 0.441532 0.887350 0.132888
16.12000084 -14.64999962 -0.25000000 44 112 177 97.000000 1.000000 4.000000 1.000000 0.000000 114.000000 212.000000 0.911766 0.408631 -0.041262
16.11000061 -14.64000034 -0.31000000 44 112 177 97.000000 1.000000 4.000000 1.000000 0.000000 114.000000 212.000000 0.901388 0.198857 0.384650
16.12999916 -14.68999958 -0.28000000 44 112 177 97.000000 1.000000 4.000000 1.000000 0.000000 114.000000 212.000000 0.760886 0.608398 0.225621
16.15999985 -14.68000031 -0.25999999 44 112 177 97.000000 1.000000 4.000000 1.000000 0.000000 114.000000 212.000000 0.887313 0.435747 -0.151001
16.15999985 -14.68000031 -0.27000001 44 112 177 97.000000 1.000000 4.000000 1.000000 0.000000 114.000000 212.000000 0.871081 0.475005 0.124850
16.11000061 -14.67000008 -0.23000000 44 112 177 97.000000 1.000000 4.000000 1.000000 0.000000 114.000000 212.000000 0.750469 0.653540 -0.098398
16.11000061 -14.68000031 -0.22000000 44 112 177 97.000000 1.000000 4.000000 1.000000 0.000000 114.000000 212.000000 0.900364 0.405092 0.158888
16.07999992 -14.67000008 -0.25999999 44 112 177 97.000000 1.000000 4.000000 1.000000 0.000000 114.000000 212.000000 0.695175 0.448446 0.561808
16.15999985 -14.67000008 -0.28999999 44 112 177 97.000000 1.000000 4.000000 1.000000 0.000000 114.000000 212.000000 0.818632 0.275996 0.503654
16.15999985 -14.67000008 -0.28999999 44 112 177 97.000000 1.000000 4.000000 1.000000 0.000000 114.000000 212.000000 0.818632 0.275996 0.503654
16.22999954 -14.92000008 -0.23999999 44 112 177 97.000000 1.000000 4.000000 1.000000 0.000000 114.000000 218.000000 0.927828 -0.048695 0.369815
16.29999924 -14.68000031 -0.55000001 44 112 177 97.000000 1.000000 4.000000 1.000000 0.000000 114.000000 212.000000 0.976505 0.029808 0.213424
16.30999947 -14.68999958 -0.61000001 44 112 177 97.000000 1.000000 4.000000 1.000000 0.000000 114.000000 212.000000 0.985195 0.118799 0.123599
16.29999924 -14.71000004 -0.60000002 44 112 177 97.000000 1.000000 4.000000 1.000000 0.000000 114.000000 212.000000 0.979638 -0.196404 0.041661
16.29000092 -14.68000031 -0.57999998 44 112 177 97.000000 1.000000 4.000000 1.000000 0.000000 114.000000 212.000000 0.952102 0.253804 -0.170546
16.29000092 -14.68000031 -0.57999998 44 112 177 97.000000 1.000000 4.000000 1.000000 0.000000 114.000000 212.000000 0.952102 0.253804 -0.170546
16.28000069 -14.68000031 -0.56000000 44 112 177 97.000000 1.000000 4.000000 1.000000 0.000000 114.000000 212.000000 0.836146 0.543708 0.072400
16.29000092 -14.68000031 -0.56000000 44 112 177 97.000000 1.000000 4.000000 1.000000 0.000000 114.000000 212.000000 0.986291 -0.069524 -0.149652
16.29000092 -14.68000031 -0.56999999 44 112 177 97.000000 1.000000 4.000000 1.000000 0.000000 114.000000 212.000000 0.998739 -0.036527 -0.034439
16.29000092 -14.67000008 -0.58999997 44 112 177 97.000000 1.000000 4.000000 1.000000 0.000000 114.000000 212.000000 0.979017 0.195803 0.056459
16.29000092 -14.67000008 -0.58999997 44 112 177 97.000000 1.000000 4.000000 1.000000 0.000000 114.000000 212.000000 0.979017 0.195803 0.056459
16.29000092 -14.67000008 -0.58999997 44 112 177 97.000000 1.000000 4.000000 1.000000 0.000000 114.000000 212.000000 0.979017 0.195803 0.056459
16.29000092 -14.72999954 -0.60000002 44 112 177 97.000000 1.000000 4.000000 1.000000 0.000000 114.000000 212.000000 0.976596 -0.182878 0.113210
16.30999947 -14.68999958 -0.63000000 44 112 177 97.000000 1.000000 4.000000 1.000000 0.000000 114.000000 212.000000 0.981710 -0.128368 0.140594
16.30999947 -14.68999958 -0.63999999 44 112 177 97.000000 1.000000 4.000000 1.000000 0.000000 114.000000 212.000000 0.948959 -0.305906 0.076802
16.31999969 -14.69999981 -0.70999998 44 112 177 97.000000 1.000000 4.000000 1.000000 0.000000 114.000000 212.000000 0.913214 0.346590 0.214282
16.31999969 -14.69999981 -0.70999998 44 112 177 97.000000 1.000000 4.000000 1.000000 0.000000 114.000000 212.000000 0.913214 0.346590 0.214282
16.31999969 -14.71000004 -0.70999998 44 112 177 97.000000 1.000000 4.000000 1.000000 0.000000 114.000000 212.000000 0.998818 -0.034370 0.034370
16.31999969 -14.71000004 -0.69999999 44 112 177 97.000000 1.000000 4.000000 1.000000 0.000000 114.000000 212.000000 0.880718 0.281529 0.380892
16.31999969 -14.71000004 -0.69999999 44 112 177 97.000000 1.000000 4.000000 1.000000 0.000000 114.000000 212.000000 0.880718 0.281529 0.380892
16.29000092 -14.69999981 -0.66000003 44 112 177 97.000000 1.000000 4.000000 1.000000 0.000000 114.000000 212.000000 0.982788 0.153523 -0.102752
16.28000069 -14.69999981 -0.68000001 44 112 177 97.000000 1.000000 4.000000 1.000000 0.000000 114.000000 212.000000 0.876035 -0.218637 0.429837
16.28000069 -14.69999981 -0.67000002 44 112 177 97.000000 1.000000 4.000000 1.000000 0.000000 114.000000 212.000000 0.983333 -0.017292 -0.180989
16.29000092 -14.73999977 -0.63000000 44 112 177 97.000000 1.000000 4.000000 1.000000 0.000000 114.000000 212.000000 0.972321 -0.143624 0.184296
16.34000015 -14.64999962 -0.80000001 44 112 177 97.000000 1.000000 4.000000 1.000000 0.000000 114.000000 212.000000 0.997858 0.065416 -0.001038
16.32999992 -14.69999981 -0.72000003 44 112 177 97.000000 1.000000 4.000000 1.000000 0.000000 114.000000 212.000000 0.954168 0.178487 0.240220
16.30999947 -14.68999958 -0.75000000 44 112 177 97.000000 1.000000 4.000000 1.000000 0.000000 114.000000 212.000000 0.842745 0.240129 0.481787
16.30999947 -14.68999958 -0.75000000 44 112 177 97.000000 1.000000 4.000000 1.000000 0.000000 114.000000 212.000000 0.842745 0.240129 0.481787
16.32999992 -14.68000031 -0.75000000 44 112 177 97.000000 1.000000 4.000000 1.000000 0.000000 114.000000 212.000000 0.971528 -0.220745 -0.086053
16.30999947 -14.69999981 -0.73000002 44 112 177 97.000000 1.000000 4.000000 1.000000 0.000000 114.000000 212.000000 0.952748 -0.251289 -0.170661
16.29999924 -14.69999981 -0.74000001 44 112 177 97.000000 1.000000 4.000000 1.000000 0.000000 114.000000 212.000000 0.984327 -0.145426 -0.099755
16.32999992 -14.69999981 -0.79000002 44 112 177 97.000000 1.000000 4.000000 1.000000 0.000000 114.000000 212.000000 0.956910 -0.286191 0.049169
16.30999947 -14.68000031 -0.76999998 44 112 177 97.000000 1.000000 4.000000 1.000000 0.000000 114.000000 212.000000 0.956630 0.127638 -0.261856
16.31999969 -14.68999958 -0.75999999 44 112 177 97.000000 1.000000 4.000000 1.000000 0.000000 114.000000 212.000000 0.905626 0.030497 0.422979
16.30999947 -14.68000031 -0.75999999 44 112 177 97.000000 1.000000 4.000000 1.000000 0.000000 114.000000 212.000000 0.996101 0.085257 -0.022663
16.32999992 -14.69999981 -0.77999997 44 112 177 97.000000 1.000000 4.000000 1.000000 0.000000 114.000000 212.000000 0.979656 -0.134318 0.149105
16.32999992 -14.71000004 -0.72000003 44 112 177 97.000000 1.000000 4.000000 1.000000 0.000000 114.000000 212.000000 0.956001 0.049252 0.289200
16.30999947 -14.75000000 -0.75999999 44 112 177 97.000000 1.000000 4.000000 1.000000 0.000000 114.000000 212.000000 0.945844 -0.308226 0.101860
16.28000069 -14.69999981 -0.72000003 44 112 177 97.000000 1.000000 4.000000 1.000000 0.000000 114.000000 212.000000 0.846322 0.183594 0.500032
16.30999947 -14.68999958 -0.81000000 44 112 177 97.000000 1.000000 4.000000 1.000000 0.000000 114.000000 212.000000 0.970603 0.220305 -0.096934
16.29999924 -14.67000008 -0.82999998 44 112 177 97.000000 1.000000 4.000000 1.000000 0.000000 114.000000 212.000000 0.850506 0.183209 0.493025
16.29999924 -14.69999981 -0.80000001 44 112 177 97.000000 1.000000 4.000000 1.000000 0.000000 114.000000 212.000000 0.922523 -0.285509 0.259684
16.29999924 -14.68000031 -0.81000000 44 112 177 97.000000 1.000000 4.000000 1.000000 0.000000 114.000000 212.000000 0.971123 0.208912 0.115218
16.32999992 -14.68999958 -0.83999997 44 112 177 97.000000 1.000000 4.000000 1.000000 0.000000 114.000000 212.000000 0.915242 0.219831 0.337648
16.31999969 -14.68000031 -0.83999997 44 112 177 97.000000 1.000000 4.000000 1.000000 0.000000 114.000000 212.000000 0.938261 -0.045295 0.342950
16.29999924 -14.75000000 -0.85000002 44 112 177 97.000000 1.000000 4.000000 1.000000 0.000000 114.000000 212.000000 0.941788 -0.205456 0.266127
16.29999924 -14.72000027 -0.87000000 44 112 177 97.000000 1.000000 4.000000 1.000000 0.000000 114.000000 212.000000 0.897438 -0.327824 0.295190
16.29999924 -14.80000019 -0.75999999 44 112 177 97.000000 1.000000 4.000000 1.000000 0.000000 114.000000 212.000000 0.844770 -0.525283 0.102178
16.29000092 -14.81999969 -0.76999998 44 112 177 97.000000 1.000000 4.000000 1.000000 0.000000 114.000000 212.000000 0.919167 -0.275606 -0.281378
16.29000092 -14.81000042 -0.75999999 44 112 177 97.000000 1.000000 4.000000 1.000000 0.000000 114.000000 212.000000 0.874132 -0.469361 0.124876
16.27000046 -14.82999992 -0.72000003 44 112 177 97.000000 1.000000 4.000000 1.000000 0.000000 114.000000 212.000000 0.840361 -0.384838 0.381697
16.29000092 -14.76000023 -0.77999997 44 112 177 97.000000 1.000000 4.000000 1.000000 0.000000 114.000000 212.000000 0.952596 -0.181896 -0.243875
16.27000046 -14.81000042 -0.73000002 44 112 177 97.000000 1.000000 4.000000 1.000000 0.000000 114.000000 212.000000 0.991423 0.129895 0.014433
16.28000069 -14.82999992 -0.73000002 44 112 177 97.000000 1.000000 4.000000 1.000000 0.000000 114.000000 212.000000 0.911033 -0.295904 0.287158
16.29999924 -14.76000023 -0.81999999 44 112 177 97.000000 1.000000 4.000000 1.000000 0.000000 114.000000 212.000000 0.945674 -0.271557 0.178764
16.29999924 -14.82999992 -0.86000001 44 112 177 97.000000 1.000000 4.000000 1.000000 0.000000 114.000000 212.000000 0.951765 -0.228803 0.204433
16.29999924 -14.81999969 -0.86000001 44 112 177 97.000000 1.000000 4.000000 1.000000 0.000000 114.000000 212.000000 0.882559 -0.468986 0.033789
16.29999924 -14.81999969 -0.86000001 44 112 177 97.000000 1.000000 4.000000 1.000000 0.000000 114.000000 212.000000 0.882559 -0.468986 0.033789
16.30999947 -14.81000042 -0.88000000 44 112 177 97.000000 1.000000 4.000000 1.000000 0.000000 114.000000 212.000000 0.987726 -0.057007 0.145425
16.28000069 -14.80000019 -0.81999999 44 112 177 97.000000 1.000000 4.000000 1.000000 0.000000 114.000000 212.000000 0.961346 0.085538 0.261721
16.28000069 -14.80000019 -0.81999999 44 112 177 97.000000 1.000000 4.000000 1.000000 0.000000 114.000000 212.000000 0.961346 0.085538 0.261721
16.29000092 -14.84000015 -0.75000000 44 112 177 97.000000 1.000000 4.000000 1.000000 0.000000 114.000000 212.000000 0.975974 -0.057124 0.210266
16.29000092 -14.84000015 -0.75999999 44 112 177 97.000000 1.000000 4.000000 1.000000 0.000000 114.000000 212.000000 0.990741 -0.122554 -0.058414
16.29000092 -14.88000011 -0.77999997 44 112 177 97.000000 1.000000 4.000000 1.000000 0.000000 114.000000 212.000000 0.921124 -0.179147 -0.345598
16.28000069 -14.89000034 -0.79000002 44 112 177 97.000000 1.000000 4.000000 1.000000 0.000000 114.000000 212.000000 0.889509 -0.266704 -0.371001
16.26000023 -14.90999985 -0.79000002 44 112 177 97.000000 1.000000 4.000000 1.000000 0.000000 114.000000 212.000000 0.966653 -0.252438 0.043099
16.29999924 -14.85000038 -0.88000000 44 112 177 97.000000 1.000000 4.000000 1.000000 0.000000 114.000000 212.000000 0.875977 -0.457600 0.152533
16.29000092 -14.84000015 -0.82999998 44 112 177 97.000000 1.000000 4.000000 1.000000 0.000000 114.000000 212.000000 0.743004 -0.637964 -0.202356
16.29000092 -14.84000015 -0.80000001 44 112 177 97.000000 1.000000 4.000000 1.000000 0.000000 114.000000 212.000000 0.835783 -0.499636 0.227663
16.29000092 -14.84000015 -0.82999998 44 112 177 97.000000 1.000000 4.000000 1.000000 0.000000 114.000000 212.000000 0.743004 -0.637964 -0.202356
16.26000023 -14.85000038 -0.82999998 44 112 177 97.000000 1.000000 4.000000 1.000000 0.000000 114.000000 212.000000 0.686841 -0.705197 0.175917
16.26000023 -14.85000038 -0.82999998 44 112 177 97.000000 1.000000 4.000000 1.000000 0.000000 114.000000 212.000000 0.686841 -0.705197 0.175917
16.27000046 -14.88000011 -0.81999999 44 112 177 97.000000 1.000000 4.000000 1.000000 0.000000 114.000000 212.000000 0.999736 -0.021100 -0.009043
16.29000092 -14.84000015 -0.81000000 44 112 177 97.000000 1.000000 4.000000 1.000000 0.000000 114.000000 212.000000 0.895757 -0.437527 -0.078672
16.29000092 -14.84000015 -0.86000001 44 112 177 97.000000 1.000000 4.000000 1.000000 0.000000 114.000000 212.000000 0.944032 -0.322512 -0.069203
16.28000069 -14.86999989 -0.85000002 44 112 177 97.000000 1.000000 4.000000 1.000000 0.000000 114.000000 212.000000 0.866594 -0.360442 0.345104
16.26000023 -14.86999989 -0.88000000 44 112 177 97.000000 1.000000 4.000000 1.000000 0.000000 114.000000 212.000000 0.868614 -0.457243 0.190888
16.27000046 -14.89000034 -0.83999997 44 112 177 97.000000 1.000000 4.000000 1.000000 0.000000 114.000000 212.000000 0.970857 -0.139058 -0.195192
16.26000023 -14.89000034 -0.86000001 44 112 177 97.000000 1.000000 4.000000 1.000000 0.000000 114.000000 212.000000 0.834631 -0.457097 -0.307332
16.26000023 -14.89000034 -0.87000000 44 112 177 97.000000 1.000000 4.000000 1.000000 0.000000 114.000000 212.000000 0.950885 -0.264957 0.160050
16.25000000 -14.89000034 -0.87000000 44 112 177 97.000000 1.000000 4.000000 1.000000 0.000000 114.000000 212.000000 0.992022 -0.124970 0.016589
16.27000046 -14.89000034 -0.85000002 44 112 177 97.000000 1.000000 4.000000 1.000000 0.000000 114.000000 212.000000 0.912987 -0.278119 -0.298504
16.22999954 -14.88000011 -0.74000001 44 112 177 97.000000 1.000000 4.000000 1.000000 0.000000 114.000000 212.000000 0.934602 -0.338506 -0.109239
16.21999931 -14.86999989 -0.82999998 44 112 177 97.000000 1.000000 4.000000 1.000000 0.000000 114.000000 212.000000 0.956146 -0.291218 0.031247
16.21999931 -14.84000015 -0.87000000 44 112 177 97.000000 1.000000 4.000000 1.000000 0.000000 114.000000 212.000000 0.865287 -0.379620 -0.327364
16.03000069 -14.61999989 -0.23000000 44 112 177 97.000000 1.000000 4.000000 1.000000 0.000000 114.000000 212.000000 0.773599 0.630074 0.067457
16.05999947 -14.64000034 -0.25999999 44 112 177 97.000000 1.000000 4.000000 1.000000 0.000000 114.000000 212.000000 0.690252 0.714003 0.117269
16.04999924 -14.67000008 -0.20999999 44 112 177 97.000000 1.000000 4.000000 1.000000 0.000000 114.000000 212.000000 0.752088 0.401441 0.522693
16.06999969 -14.67000008 -0.30000001 44 112 177 97.000000 1.000000 4.000000 1.000000 0.000000 114.000000 212.000000 0.766359 0.561570 0.311983
16.35000038 -14.69999981 -0.89999998 44 112 177 97.000000 1.000000 4.000000 1.000000 0.000000 114.000000 212.000000 0.944141 0.329000 0.018908
16.35000038 -14.68000031 -0.92000002 44 112 177 97.000000 1.000000 4.000000 1.000000 0.000000 114.000000 212.000000 0.896771 -0.003939 0.442477
16.35000038 -14.68999958 -0.91000003 44 112 177 97.000000 1.000000 4.000000 1.000000 0.000000 114.000000 212.000000 0.913699 0.091781 0.395891
16.35000038 -14.68000031 -0.92000002 44 112 177 97.000000 1.000000 4.000000 1.000000 0.000000 114.000000 212.000000 0.896771 -0.003939 0.442477
16.35000038 -14.68999958 -0.91000003 44 112 177 97.000000 1.000000 4.000000 1.000000 0.000000 114.000000 212.000000 0.913699 0.091781 0.395891
16.35000038 -14.68000031 -0.93000001 44 112 177 97.000000 1.000000 4.000000 1.000000 0.000000 114.000000 212.000000 0.985097 -0.165159 0.048025
16.35000038 -14.69999981 -0.94999999 44 112 177 97.000000 1.000000 4.000000 1.000000 0.000000 114.000000 212.000000 0.957525 -0.251564 -0.140929
16.36000061 -14.67000008 -0.94000000 44 112 177 97.000000 1.000000 4.000000 1.000000 0.000000 114.000000 212.000000 0.920642 -0.386590 0.054468
16.35000038 -14.68999958 -0.95999998 44 112 177 97.000000 1.000000 4.000000 1.000000 0.000000 114.000000 212.000000 0.949663 0.216018 0.226886
16.36000061 -14.67000008 -0.94999999 44 112 177 97.000000 1.000000 4.000000 1.000000 0.000000 114.000000 212.000000 0.925116 -0.374040 0.065224
16.36000061 -14.67000008 -0.95999998 44 112 177 97.000000 1.000000 4.000000 1.000000 0.000000 114.000000 212.000000 0.960546 -0.030985 0.276389
16.36000061 -14.68999958 -0.93000001 44 112 177 97.000000 1.000000 4.000000 1.000000 0.000000 114.000000 212.000000 0.958421 -0.283931 -0.028517
16.36000061 -14.68000031 -0.94000000 44 112 177 97.000000 1.000000 4.000000 1.000000 0.000000 114.000000 212.000000 0.993320 -0.095837 -0.064267
16.36000061 -14.68000031 -0.94000000 44 112 177 97.000000 1.000000 4.000000 1.000000 0.000000 114.000000 212.000000 0.993320 -0.095837 -0.064267
16.35000038 -14.68999958 -0.94999999 44 112 177 97.000000 1.000000 4.000000 1.000000 0.000000 114.000000 212.000000 0.968245 0.207022 -0.140158
16.35000038 -14.68999958 -0.93000001 44 112 177 97.000000 1.000000 4.000000 1.000000 0.000000 114.000000 212.000000 0.986470 0.005650 0.163847
16.37000084 -14.71000004 -0.89999998 44 112 177 97.000000 1.000000 4.000000 1.000000 0.000000 114.000000 212.000000 0.861397 -0.349798 0.368289
16.37000084 -14.73999977 -0.92000002 44 112 177 97.000000 1.000000 4.000000 1.000000 0.000000 114.000000 212.000000 0.993211 -0.110357 0.036786
16.36000061 -14.73999977 -0.91000003 44 112 177 97.000000 1.000000 4.000000 1.000000 0.000000 114.000000 212.000000 0.945677 0.155584 0.285462
16.35000038 -14.71000004 -0.88999999 44 112 177 97.000000 1.000000 4.000000 1.000000 0.000000 114.000000 212.000000 0.933273 0.167795 0.317563
16.37000084 -14.71000004 -0.89999998 44 112 177 97.000000 1.000000 4.000000 1.000000 0.000000 114.000000 212.000000 0.861397 -0.349798 0.368289
16.35000038 -14.72000027 -0.93000001 44 112 177 97.000000 1.000000 4.000000 1.000000 0.000000 114.000000 212.000000 0.985024 -0.148885 -0.086949
16.35000038 -14.71000004 -0.94999999 44 112 177 97.000000 1.000000 4.000000 1.000000 0.000000 114.000000 212.000000 0.893708 -0.366079 -0.259368
16.37999916 -14.67000008 -0.99000001 44 112 177 97.000000 1.000000 4.000000 1.000000 0.000000 114.000000 212.000000 0.935687 -0.293358 0.196036
16.37999916 -14.68000031 -0.97000003 44 112 177 97.000000 1.000000 4.000000 1.000000 0.000000 114.000000 212.000000 0.956215 -0.286482 -0.059843
16.37999916 -14.67000008 -1.00999999 44 112 177 97.000000 1.000000 4.000000 1.000000 0.000000 114.000000 212.000000 0.999505 0.027509 -0.015283
16.42000008 -14.72999954 -1.03999996 44 112 177 97.000000 1.000000 4.000000 1.000000 0.000000 114.000000 212.000000 0.966334 0.215458 0.140628
16.37000084 -14.68999958 -0.98000002 44 112 177 97.000000 1.000000 4.000000 1.000000 0.000000 114.000000 212.000000 0.953249 0.108830 0.281910
16.37000084 -14.69999981 -0.97000003 44 112 177 97.000000 1.000000 4.000000 1.000000 0.000000 114.000000 212.000000 0.936579 0.250594 0.244994
16.37000084 -14.68999958 -0.97000003 44 112 177 97.000000 1.000000 4.000000 1.000000 0.000000 114.000000 212.000000 0.918949 -0.011632 0.394205
16.37000084 -14.69999981 -0.98000002 44 112 177 97.000000 1.000000 4.000000 1.000000 0.000000 114.000000 212.000000 0.922987 0.024734 0.384035
16.37000084 -14.68999958 -0.98000002 44 112 177 97.000000 1.000000 4.000000 1.000000 0.000000 114.000000 212.000000 0.953249 0.108830 0.281910
16.37000084 -14.68999958 -0.98000002 44 112 177 97.000000 1.000000 4.000000 1.000000 0.000000 114.000000 212.000000 0.953249 0.108830 0.281910
16.37000084 -14.69999981 -1.02999997 44 112 177 97.000000 1.000000 4.000000 1.000000 0.000000 114.000000 212.000000 0.884121 -0.451315 -0.121015
16.37000084 -14.71000004 -0.99000001 44 112 177 97.000000 1.000000 4.000000 1.000000 0.000000 114.000000 212.000000 0.976744 -0.210246 -0.042049
16.37000084 -14.71000004 -1.02999997 44 112 177 97.000000 1.000000 4.000000 1.000000 0.000000 114.000000 212.000000 0.913298 -0.244607 0.325661
16.32999992 -14.75000000 -0.92000002 44 112 177 97.000000 1.000000 4.000000 1.000000 0.000000 114.000000 212.000000 0.974833 -0.222785 -0.008251
16.38999939 -14.69999981 -1.07000005 44 112 177 97.000000 1.000000 4.000000 1.000000 0.000000 114.000000 212.000000 0.968809 -0.118396 0.217696
16.39999962 -14.68000031 -1.08000004 44 112 177 97.000000 1.000000 4.000000 1.000000 0.000000 114.000000 212.000000 0.977307 0.148531 0.151027
16.37999916 -14.68000031 -1.12000000 44 112 177 97.000000 1.000000 4.000000 1.000000 0.000000 114.000000 212.000000 0.980486 0.063606 -0.186016
16.37999916 -14.69999981 -1.13999999 44 112 177 97.000000 1.000000 4.000000 1.000000 0.000000 114.000000 212.000000 0.989531 0.136448 0.047011
16.38999939 -14.71000004 -1.09000003 44 112 177 97.000000 1.000000 4.000000 1.000000 0.000000 114.000000 212.000000 0.979662 -0.005797 0.200570
16.38999939 -14.72000027 -1.09000003 44 112 177 97.000000 1.000000 4.000000 1.000000 0.000000 114.000000 212.000000 0.911101 -0.220917 0.347980
16.38999939 -14.72999954 -1.12000000 44 112 177 97.000000 1.000000 4.000000 1.000000 0.000000 114.000000 212.000000 0.993718 -0.107220 -0.032055
16.42000008 -14.75000000 -1.11000001 44 112 177 97.000000 1.000000 4.000000 1.000000 0.000000 114.000000 212.000000 0.854844 -0.504806 -0.120054
16.37999916 -14.71000004 -1.13000000 44 112 177 97.000000 1.000000 4.000000 1.000000 0.000000 114.000000 212.000000 0.948067 -0.309970 -0.071332
16.38999939 -14.72999954 -1.11000001 44 112 177 97.000000 1.000000 4.000000 1.000000 0.000000 114.000000 212.000000 0.998550 0.049143 -0.021958
16.38999939 -14.72999954 -1.11000001 44 112 177 97.000000 1.000000 4.000000 1.000000 0.000000 114.000000 212.000000 0.998550 0.049143 -0.021958
16.37999916 -14.75000000 -1.11000001 44 112 177 97.000000 1.000000 4.000000 1.000000 0.000000 114.000000 212.000000 0.940658 -0.105707 -0.322473
16.38999939 -14.72999954 -1.10000002 44 112 177 97.000000 1.000000 4.000000 1.000000 0.000000 114.000000 212.000000 0.996461 0.072647 -0.042287
16.38999939 -14.72999954 -1.12000000 44 112 177 97.000000 1.000000 4.000000 1.000000 0.000000 114.000000 212.000000 0.993718 -0.107220 -0.032055
16.37000084 -14.68999958 -1.08000004 44 112 177 97.000000 1.000000 4.000000 1.000000 0.000000 114.000000 212.000000 0.986317 -0.151651 0.064657
16.37000084 -14.68000031 -1.08000004 44 112 177 97.000000 1.000000 4.000000 1.000000 0.000000 114.000000 212.000000 0.913134 -0.401779 -0.068992
16.42000008 -14.69999981 -1.17999995 44 112 177 97.000000 1.000000 4.000000 1.000000 0.000000 114.000000 212.000000 0.988779 -0.097123 0.113505
16.40999985 -14.68000031 -1.16999996 44 112 177 97.000000 1.000000 4.000000 1.000000 0.000000 114.000000 212.000000 0.910071 -0.411475 0.049591
16.37999916 -14.69999981 -1.16999996 44 112 177 97.000000 1.000000 4.000000 1.000000 0.000000 114.000000 212.000000 0.933332 -0.358184 -0.024392
16.37999916 -14.69999981 -1.14999998 44 112 177 97.000000 1.000000 4.000000 1.000000 0.000000 114.000000 212.000000 0.981746 -0.135708 0.133263
16.40999985 -14.67000008 -1.19000006 44 112 177 97.000000 1.000000 4.000000 1.000000 0.000000 114.000000 212.000000 0.944922 -0.321039 -0.063688
16.40999985 -14.72999954 -1.15999997 44 112 177 97.000000 1.000000 4.000000 1.000000 0.000000 114.000000 212.000000 0.878531 -0.437058 -0.192777
16.37999916 -14.71000004 -1.16999996 44 112 177 97.000000 1.000000 4.000000 1.000000 0.000000 114.000000 212.000000 0.986383 -0.129693 0.101137
16.37999916 -14.72000027 -1.19000006 44 112 177 97.000000 1.000000 4.000000 1.000000 0.000000 114.000000 212.000000 0.966201 -0.191160 -0.172954
16.37000084 -14.75000000 -1.16999996 44 112 177 97.000000 1.000000 4.000000 1.000000 0.000000 114.000000 212.000000 0.880268 -0.313624 0.356046
16.37000084 -14.71000004 -1.15999997 44 112 177 97.000000 1.000000 4.000000 1.000000 0.000000 114.000000 212.000000 0.887918 -0.456916 0.053193
16.39999962 -14.78999996 -0.94000000 44 112 177 97.000000 1.000000 4.000000 1.000000 0.000000 114.000000 212.000000 0.890987 -0.300989 -0.339923
16.39999962 -14.81000042 -0.95999998 44 112 177 97.000000 1.000000 4.000000 1.000000 0.000000 114.000000 212.000000 0.945338 -0.288064 0.152823
16.36000061 -14.77999973 -0.92000002 44 112 177 97.000000 1.000000 4.000000 1.000000 0.000000 114.000000 212.000000 0.947004 -0.158059 -0.279643
16.36000061 -14.77999973 -0.94000000 44 112 177 97.000000 1.000000 4.000000 1.000000 0.000000 114.000000 212.000000 0.915977 -0.276385 0.290855
16.36000061 -14.77999973 -0.94000000 44 112 177 97.000000 1.000000 4.000000 1.000000 0.000000 114.000000 212.000000 0.915977 -0.276385 0.290855
16.36000061 -14.81000042 -0.94999999 44 112 177 97.000000 1.000000 4.000000 1.000000 0.000000 114.000000 212.000000 0.904299 -0.207568 0.373041
16.36000061 -14.81000042 -0.94999999 44 112 177 97.000000 1.000000 4.000000 1.000000 0.000000 114.000000 212.000000 0.904299 -0.207568 0.373041
16.38999939 -14.86999989 -0.94999999 44 112 177 97.000000 1.000000 4.000000 1.000000 0.000000 114.000000 212.000000 0.914633 -0.196095 0.353544
16.35000038 -14.90999985 -1.03999996 44 112 177 97.000000 1.000000 4.000000 1.000000 0.000000 114.000000 212.000000 0.903367 -0.392082 -0.173780
16.40999985 -14.85999966 -0.98000002 44 112 177 97.000000 1.000000 4.000000 1.000000 0.000000 114.000000 212.000000 0.894006 -0.405573 0.190431
16.36000061 -14.89000034 -1.01999998 44 112 177 97.000000 1.000000 4.000000 1.000000 0.000000 114.000000 212.000000 -0.750271 0.622366 0.223054
16.40999985 -14.85999966 -0.98000002 44 112 177 97.000000 1.000000 4.000000 1.000000 0.000000 114.000000 212.000000 0.894006 -0.405573 0.190431
16.30999947 -14.77999973 -0.91000003 44 112 177 97.000000 1.000000 4.000000 1.000000 0.000000 114.000000 212.000000 0.860482 -0.509265 -0.014859
16.30999947 -14.78999996 -0.92000002 44 112 177 97.000000 1.000000 4.000000 1.000000 0.000000 114.000000 212.000000 0.917237 -0.281671 0.281671
16.31999969 -14.80000019 -0.91000003 44 112 177 97.000000 1.000000 4.000000 1.000000 0.000000 114.000000 212.000000 0.880159 -0.275332 0.386668
16.31999969 -14.82999992 -0.92000002 44 112 177 97.000000 1.000000 4.000000 1.000000 0.000000 114.000000 212.000000 0.947640 -0.312423 0.066114
16.30999947 -14.82999992 -0.94999999 44 112 177 97.000000 1.000000 4.000000 1.000000 0.000000 114.000000 212.000000 0.912803 -0.359676 0.193451
16.29000092 -14.81999969 -0.88999999 44 112 177 97.000000 1.000000 4.000000 1.000000 0.000000 114.000000 212.000000 0.732071 -0.673152 0.104582
16.28000069 -14.82999992 -0.88999999 44 112 177 97.000000 1.000000 4.000000 1.000000 0.000000 114.000000 212.000000 0.801740 -0.539182 0.257869
16.31999969 -14.81000042 -1.04999995 44 112 177 97.000000 1.000000 4.000000 1.000000 0.000000 114.000000 212.000000 0.887824 -0.455612 -0.064694
16.30999947 -14.82999992 -1.04999995 44 112 177 97.000000 1.000000 4.000000 1.000000 0.000000 114.000000 212.000000 0.964330 -0.244604 -0.101171
16.29999924 -14.85000038 -0.88999999 44 112 177 97.000000 1.000000 4.000000 1.000000 0.000000 114.000000 212.000000 0.835989 -0.477487 0.270422
16.30999947 -14.85000038 -0.92000002 44 112 177 97.000000 1.000000 4.000000 1.000000 0.000000 114.000000 212.000000 0.775255 -0.523821 -0.352975
16.30999947 -14.85999966 -0.91000003 44 112 177 97.000000 1.000000 4.000000 1.000000 0.000000 114.000000 212.000000 0.789949 -0.551236 0.268551
16.31999969 -14.84000015 -0.94999999 44 112 177 97.000000 1.000000 4.000000 1.000000 0.000000 114.000000 212.000000 0.903172 -0.307933 0.299093
16.29999924 -14.89000034 -0.94999999 44 112 177 97.000000 1.000000 4.000000 1.000000 0.000000 114.000000 212.000000 0.940459 -0.270088 0.206375
16.29000092 -14.85999966 -0.88999999 44 112 177 97.000000 1.000000 4.000000 1.000000 0.000000 114.000000 212.000000 0.754315 -0.644218 -0.126463
16.29000092 -14.85999966 -0.88999999 44 112 177 97.000000 1.000000 4.000000 1.000000 0.000000 114.000000 212.000000 0.754315 -0.644218 -0.126463
16.29000092 -14.85999966 -0.91000003 44 112 177 97.000000 1.000000 4.000000 1.000000 0.000000 114.000000 212.000000 0.879501 -0.298213 0.370874
16.26000023 -14.85999966 -0.93000001 44 112 177 97.000000 1.000000 4.000000 1.000000 0.000000 114.000000 212.000000 0.797867 -0.515521 0.312485
16.29000092 -14.86999989 -0.93000001 44 112 177 97.000000 1.000000 4.000000 1.000000 0.000000 114.000000 212.000000 0.968135 -0.189502 0.163719
16.29000092 -14.90999985 -0.89999998 44 112 177 97.000000 1.000000 4.000000 1.000000 0.000000 114.000000 212.000000 0.926972 -0.367846 0.073569
16.28000069 -14.90999985 -0.92000002 44 112 177 97.000000 1.000000 4.000000 1.000000 0.000000 114.000000 212.000000 0.923897 -0.360444 -0.128434
16.28000069 -14.90999985 -0.92000002 44 112 177 97.000000 1.000000 4.000000 1.000000 0.000000 114.000000 212.000000 0.923897 -0.360444 -0.128434
16.26000023 -14.90999985 -0.95999998 44 112 177 97.000000 1.000000 4.000000 1.000000 0.000000 114.000000 212.000000 -0.621888 0.694085 0.362631
16.31999969 -14.85000038 -0.98000002 44 112 177 97.000000 1.000000 4.000000 1.000000 0.000000 114.000000 212.000000 0.915872 -0.383807 0.117775
16.30999947 -14.90999985 -1.00999999 44 112 177 97.000000 1.000000 4.000000 1.000000 0.000000 114.000000 212.000000 -0.762794 0.635415 -0.119973
16.30999947 -14.90999985 -1.00000000 44 112 177 97.000000 1.000000 4.000000 1.000000 0.000000 114.000000 212.000000 -0.719790 0.647020 -0.251531
16.31999969 -14.89999962 -1.02999997 44 112 177 97.000000 1.000000 4.000000 1.000000 0.000000 114.000000 212.000000 0.917310 -0.371126 0.144249
16.31999969 -14.89000034 -1.01999998 44 112 177 97.000000 1.000000 4.000000 1.000000 0.000000 114.000000 212.000000 0.957433 -0.276306 -0.083534
16.31999969 -14.90999985 -1.03999996 44 112 177 97.000000 1.000000 4.000000 1.000000 0.000000 114.000000 212.000000 0.923392 -0.358558 0.137055
16.31999969 -14.89000034 -1.02999997 44 112 177 97.000000 1.000000 4.000000 1.000000 0.000000 114.000000 212.000000 0.986728 -0.149007 0.064530
16.28000069 -14.89000034 -1.00999999 44 112 177 97.000000 1.000000 4.000000 1.000000 0.000000 114.000000 212.000000 -0.610340 0.723666 0.322169
16.27000046 -14.90999985 -1.00999999 44 112 177 97.000000 1.000000 4.000000 1.000000 0.000000 114.000000 212.000000 0.852264 -0.504341 -0.138877
16.27000046 -14.89999962 -1.01999998 44 112 177 97.000000 1.000000 4.000000 1.000000 0.000000 114.000000 212.000000 0.930643 -0.365926 -0.001266
16.27000046 -14.90999985 -1.01999998 44 112 177 97.000000 1.000000 4.000000 1.000000 0.000000 114.000000 212.000000 0.791978 -0.590602 0.154789
16.40999985 -14.77000046 -1.09000003 44 112 177 97.000000 1.000000 4.000000 1.000000 0.000000 114.000000 212.000000 0.862077 -0.377833 -0.337737
16.37000084 -14.76000023 -1.15999997 44 112 177 97.000000 1.000000 4.000000 1.000000 0.000000 114.000000 212.000000 0.954144 -0.291508 0.068061
16.30999947 -14.81999969 -1.07000005 44 112 177 97.000000 1.000000 4.000000 1.000000 0.000000 114.000000 212.000000 0.857090 -0.358025 -0.370424
16.29999924 -14.81999969 -1.13999999 44 112 177 97.000000 1.000000 4.000000 1.000000 0.000000 114.000000 212.000000 0.928742 -0.301099 -0.216282
16.29999924 -14.81000042 -1.07000005 44 112 177 97.000000 1.000000 4.000000 1.000000 0.000000 114.000000 212.000000 -0.692865 0.689751 0.210195
16.31999969 -14.80000019 -1.05999994 44 112 177 97.000000 1.000000 4.000000 1.000000 0.000000 114.000000 212.000000 0.776641 -0.611399 -0.151723
16.31999969 -14.85000038 -1.10000002 44 112 177 97.000000 1.000000 4.000000 1.000000 0.000000 114.000000 212.000000 0.816126 -0.576989 -0.031978
16.32999992 -14.89999962 -1.05999994 44 112 177 97.000000 1.000000 4.000000 1.000000 0.000000 114.000000 212.000000 0.856616 -0.419849 0.299892
16.29999924 -14.89000034 -1.11000001 44 112 177 97.000000 1.000000 4.000000 1.000000 0.000000 114.000000 212.000000 0.753709 -0.569720 -0.327630
16.26000023 -14.85999966 -1.13999999 44 112 177 97.000000 1.000000 4.000000 1.000000 0.000000 114.000000 212.000000 0.911542 -0.318386 -0.260233
16.26000023 -14.88000011 -1.10000002 44 112 177 97.000000 1.000000 4.000000 1.000000 0.000000 114.000000 212.000000 0.932289 -0.303308 -0.197081
16.26000023 -14.86999989 -1.10000002 44 112 177 97.000000 1.000000 4.000000 1.000000 0.000000 114.000000 212.000000 0.752641 -0.564885 -0.338284
16.25000000 -14.90999985 -1.08000004 44 112 177 97.000000 1.000000 4.000000 1.000000 0.000000 114.000000 212.000000 0.893224 -0.394544 -0.215606
16.31999969 -14.85999966 -1.14999998 44 112 177 97.000000 1.000000 4.000000 1.000000 0.000000 114.000000 212.000000 0.963025 -0.190503 -0.190503
16.29000092 -14.88000011 -1.14999998 44 112 177 97.000000 1.000000 4.000000 1.000000 0.000000 114.000000 212.000000 0.958167 -0.283577 -0.038726
16.23999977 -14.89999962 -0.88999999 44 112 177 97.000000 1.000000 4.000000 1.000000 0.000000 114.000000 212.000000 0.793152 -0.526119 -0.306770
16.23999977 -14.90999985 -0.95999998 44 112 177 97.000000 1.000000 4.000000 1.000000 0.000000 114.000000 212.000000 0.829333 -0.498835 -0.251734
16.23999977 -14.89999962 -0.97000003 44 112 177 97.000000 1.000000 4.000000 1.000000 0.000000 114.000000 212.000000 0.749197 -0.546800 -0.373783
16.23999977 -14.90999985 -1.02999997 44 112 177 97.000000 1.000000 4.000000 1.000000 0.000000 114.000000 212.000000 0.793821 -0.498744 -0.347998
16.37999916 -14.97999954 -0.28000000 44 112 177 97.000000 1.000000 4.000000 1.000000 0.000000 114.000000 218.000000 0.933365 -0.305541 0.188347
16.35000038 -14.93000031 -0.27000001 44 112 177 97.000000 1.000000 4.000000 1.000000 0.000000 114.000000 218.000000 0.966243 0.254793 0.038157
16.35000038 -14.93999958 -0.27000001 44 112 177 97.000000 1.000000 4.000000 1.000000 0.000000 114.000000 218.000000 0.973628 0.217866 -0.067699
16.34000015 -15.00000000 -0.20000000 44 112 177 97.000000 1.000000 4.000000 1.000000 0.000000 114.000000 218.000000 0.959055 0.001216 -0.283219
16.34000015 -14.98999977 -0.23000000 44 112 177 97.000000 1.000000 4.000000 1.000000 0.000000 114.000000 218.000000 0.852377 -0.258621 0.454499
16.35000038 -15.00000000 -0.27000001 44 112 177 97.000000 1.000000 4.000000 1.000000 0.000000 114.000000 218.000000 0.941408 -0.335208 -0.037245
16.37000084 -14.97000027 -0.25000000 44 112 177 97.000000 1.000000 4.000000 1.000000 0.000000 114.000000 218.000000 0.888225 -0.245489 0.388319
16.35000038 -14.98999977 -0.27000001 44 112 177 97.000000 1.000000 4.000000 1.000000 0.000000 114.000000 218.000000 0.963479 -0.120273 -0.239253
16.35000038 -15.00000000 -0.25999999 44 112 177 97.000000 1.000000 4.000000 1.000000 0.000000 114.000000 218.000000 0.979013 -0.117284 -0.166667
16.37000084 -14.97000027 -0.25000000 44 112 177 97.000000 1.000000 4.000000 1.000000 0.000000 114.000000 218.000000 0.888225 -0.245489 0.388319
16.37999916 -15.02000046 -0.20000000 44 112 177 97.000000 1.000000 4.000000 1.000000 0.000000 114.000000 218.000000 0.980639 0.081215 -0.178188
16.42000008 -15.02999973 -0.20999999 44 112 177 97.000000 1.000000 4.000000 1.000000 0.000000 114.000000 218.000000 0.918999 -0.152933 0.363390
16.40999985 -15.06999969 -0.23999999 44 112 177 97.000000 1.000000 4.000000 1.000000 0.000000 114.000000 218.000000 0.810549 -0.480619 0.334688
16.37000084 -15.02000046 -0.23999999 44 112 177 97.000000 1.000000 4.000000 1.000000 0.000000 114.000000 218.000000 0.925260 -0.139688 0.352678
