//X Y Z R G B PointSourceId ScanDirectionFlag NumberOfReturns ReturnNumber GpsTime Intensity Classification Nx Ny Nz
-20.53000069 -0.89999998 0.03000000 147 83 140 0.000000 0.000000 0.000000 0.000000 0.000000 0.000000 170.000000 0.527952 -0.375252 -0.761875
-20.53000069 -0.88999999 0.02000000 147 83 140 0.000000 0.000000 0.000000 0.000000 0.000000 0.000000 170.000000 -0.608906 0.592039 0.527943
-20.55999947 -0.89999998 0.01000000 147 83 140 0.000000 0.000000 0.000000 0.000000 0.000000 0.000000 170.000000 -0.543881 0.703552 0.457392
-20.55999947 -0.89999998 0.01000000 147 83 140 0.000000 0.000000 0.000000 0.000000 0.000000 0.000000 170.000000 -0.543881 0.703552 0.457392
-20.54999924 -0.88999999 -0.01000000 147 83 140 0.000000 0.000000 0.000000 0.000000 0.000000 0.000000 170.000000 -0.215734 0.815504 0.537040
-20.59000015 -0.85000002 0.04000000 147 83 140 0.000000 0.000000 0.000000 0.000000 0.000000 0.000000 170.000000 -0.250923 0.451661 0.856178
-20.60000038 -0.83999997 0.03000000 147 83 140 0.000000 0.000000 0.000000 0.000000 0.000000 0.000000 170.000000 0.509237 -0.696236 -0.505898
-20.56999969 -0.83999997 0.01000000 147 83 140 0.000000 0.000000 0.000000 0.000000 0.000000 0.000000 170.000000 -0.199686 0.357710 0.912233
-20.59000015 -0.85000002 -0.02000000 147 83 140 0.000000 0.000000 0.000000 0.000000 0.000000 0.000000 170.000000 -0.507076 0.684468 0.523811
-20.57999992 -0.91000003 0.05000000 147 83 140 0.000000 0.000000 0.000000 0.000000 0.000000 0.000000 170.000000 -0.612138 0.642325 0.461200
-20.56999969 -0.89999998 0.03000000 147 83 140 0.000000 0.000000 0.000000 0.000000 0.000000 0.000000 170.000000 -0.441130 0.399423 0.803658
-20.57999992 -0.88000000 0.01000000 147 83 140 0.000000 0.000000 0.000000 0.000000 0.000000 0.000000 170.000000 -0.171909 0.835626 0.521706
-20.55999947 -0.94999999 0.13000000 147 83 140 0.000000 0.000000 0.000000 0.000000 0.000000 0.000000 170.000000 -0.133054 0.740021 0.659292
-20.54999924 -0.94999999 0.14000000 147 83 140 0.000000 0.000000 0.000000 0.000000 0.000000 0.000000 170.000000 -0.422947 0.745507 0.515107
-20.54000092 -0.94999999 0.10000000 147 83 140 0.000000 0.000000 0.000000 0.000000 0.000000 0.000000 170.000000 -0.265005 0.718846 0.642677
-20.56999969 -0.93000001 0.03000000 147 83 140 0.000000 0.000000 0.000000 0.000000 0.000000 0.000000 170.000000 -0.162356 0.632735 0.757157
-20.59000015 -0.99000001 0.05000000 147 83 140 0.000000 0.000000 0.000000 0.000000 0.000000 0.000000 170.000000 -0.477944 0.299303 0.825825
-20.60000038 -0.98000002 0.01000000 147 83 140 0.000000 0.000000 0.000000 0.000000 0.000000 0.000000 170.000000 -0.392971 0.573837 0.718529
-20.64999962 -0.83999997 0.14000000 147 83 140 0.000000 0.000000 0.000000 0.000000 0.000000 0.000000 170.000000 0.298008 -0.668504 -0.681391
-20.63999939 -0.86000001 0.13000000 147 83 140 0.000000 0.000000 0.000000 0.000000 0.000000 0.000000 170.000000 -0.195126 0.830421 0.521849
-20.62000084 -0.88000000 -0.01000000 147 83 140 0.000000 0.000000 0.000000 0.000000 0.000000 0.000000 170.000000 -0.325940 0.614584 0.718366
-20.62000084 -0.88999999 0.01000000 147 83 140 0.000000 0.000000 0.000000 0.000000 0.000000 0.000000 170.000000 0.001357 0.831841 0.555013
-20.64999962 -0.93000001 -0.01000000 147 83 140 0.000000 0.000000 0.000000 0.000000 0.000000 0.000000 170.000000 -0.023623 0.804587 0.593365
-20.62999916 -0.95999998 -0.01000000 147 83 140 0.000000 0.000000 0.000000 0.000000 0.000000 0.000000 170.000000 -0.206609 0.719247 0.663323
-20.62000084 -0.97000003 0.00000000 147 83 140 0.000000 0.000000 0.000000 0.000000 0.000000 0.000000 170.000000 -0.453513 0.664371 0.594085
-20.62000084 -0.98000002 -0.01000000 147 83 140 0.000000 0.000000 0.000000 0.000000 0.000000 0.000000 170.000000 -0.269482 0.671313 0.690448
-20.67000008 -0.97000003 -0.01000000 147 83 140 0.000000 0.000000 0.000000 0.000000 0.000000 0.000000 170.000000 0.178609 0.767866 0.615208
-20.67000008 -0.89999998 -0.05000000 147 83 140 0.000000 0.000000 0.000000 0.000000 0.000000 0.000000 170.000000 0.116974 0.850585 0.512662
-20.62000084 -0.93000001 -0.06000000 147 83 140 0.000000 0.000000 0.000000 0.000000 0.000000 0.000000 170.000000 0.222867 0.615612 0.755878
-20.54999924 -1.13999999 -0.02000000 147 83 140 0.000000 0.000000 0.000000 0.000000 0.000000 0.000000 170.000000 -0.192255 0.254977 0.947642
-20.67000008 -1.01999998 0.07000000 147 83 140 0.000000 0.000000 0.000000 0.000000 0.000000 0.000000 170.000000 0.069570 0.261838 0.962601
-20.69000053 -1.08000004 0.08000000 147 83 140 0.000000 0.000000 0.000000 0.000000 0.000000 0.000000 170.000000 -0.057498 0.397137 0.915956
-20.68000031 -1.11000001 0.06000000 147 83 140 0.000000 0.000000 0.000000 0.000000 0.000000 0.000000 170.000000 -0.423154 0.419936 0.802866
-20.69000053 -1.12000000 0.06000000 147 83 140 0.000000 0.000000 0.000000 0.000000 0.000000 0.000000 170.000000 -0.102630 0.318554 0.942333
-20.56999969 -1.04999995 -0.17000000 147 83 140 0.000000 0.000000 0.000000 0.000000 0.000000 0.000000 170.000000 -0.026647 0.767143 0.640922
-20.54000092 -1.15999997 -0.04000000 147 83 140 0.000000 0.000000 0.000000 0.000000 0.000000 0.000000 170.000000 -0.423637 0.780726 0.459346
-20.56999969 -1.19000006 0.31000000 147 83 140 0.000000 0.000000 0.000000 0.000000 0.000000 0.000000 170.000000 -0.210570 0.370313 0.904726
-20.59000015 -1.17999995 0.28000000 147 83 140 0.000000 0.000000 0.000000 0.000000 0.000000 0.000000 170.000000 -0.207454 0.311887 0.927194
-20.60000038 -1.17999995 0.27000001 147 83 140 0.000000 0.000000 0.000000 0.000000 0.000000 0.000000 170.000000 -0.417706 0.433833 0.798318
-20.59000015 -1.25000000 0.28000000 147 83 140 0.000000 0.000000 0.000000 0.000000 0.000000 0.000000 170.000000 0.120458 0.523920 0.843207
-20.69000053 -1.20000005 0.31000000 147 83 140 0.000000 0.000000 0.000000 0.000000 0.000000 0.000000 170.000000 0.348503 0.675737 0.649558
-20.37999916 -1.17999995 -0.01000000 147 83 140 0.000000 0.000000 0.000000 0.000000 0.000000 0.000000 170.000000 0.576927 -0.603997 -0.549857
-20.37999916 -1.17999995 -0.01000000 147 83 140 0.000000 0.000000 0.000000 0.000000 0.000000 0.000000 170.000000 0.576927 -0.603997 -0.549857
-20.36000061 -1.21000004 0.01000000 147 83 140 0.000000 0.000000 0.000000 0.000000 0.000000 0.000000 170.000000 -0.422738 0.785548 0.451893
-20.36000061 -1.21000004 0.01000000 147 83 140 0.000000 0.000000 0.000000 0.000000 0.000000 0.000000 170.000000 -0.422738 0.785548 0.451893
-20.52000046 -1.20000005 0.10000000 147 83 140 0.000000 0.000000 0.000000 0.000000 0.000000 0.000000 170.000000 -0.109936 0.351522 0.929702
-20.92000008 -0.82999998 0.17000000 147 83 140 0.000000 0.000000 0.000000 0.000000 0.000000 0.000000 170.000000 0.741752 0.565688 0.360280
-20.78000069 -0.91000003 0.38000000 147 83 140 0.000000 0.000000 0.000000 0.000000 0.000000 0.000000 170.000000 0.531157 0.750157 0.393873
-20.76000023 -0.92000002 0.41000000 147 83 140 0.000000 0.000000 0.000000 0.000000 0.000000 0.000000 170.000000 0.750919 0.422289 0.507733
-20.72999954 -0.95999998 0.38999999 147 83 140 0.000000 0.000000 0.000000 0.000000 0.000000 0.000000 170.000000 0.555756 0.429674 0.711699
-20.72999954 -0.98000002 0.37000000 147 83 140 0.000000 0.000000 0.000000 0.000000 0.000000 0.000000 170.000000 0.449321 0.679828 0.579607
-20.75000000 -0.93000001 0.40000001 147 83 140 0.000000 0.000000 0.000000 0.000000 0.000000 0.000000 170.000000 0.307675 0.809423 0.500170
-20.75000000 -0.93000001 0.40000001 147 83 140 0.000000 0.000000 0.000000 0.000000 0.000000 0.000000 170.000000 0.307675 0.809423 0.500170
-20.77000046 -0.94999999 0.38000000 147 83 140 0.000000 0.000000 0.000000 0.000000 0.000000 0.000000 170.000000 0.665132 0.480838 0.571310
-20.78000069 -0.94000000 0.38000000 147 83 140 0.000000 0.000000 0.000000 0.000000 0.000000 0.000000 170.000000 0.672407 0.538261 0.508078
-20.75000000 -0.92000002 0.40000001 147 83 140 0.000000 0.000000 0.000000 0.000000 0.000000 0.000000 170.000000 0.453796 0.744225 0.490100
-20.79000092 -0.92000002 0.38999999 147 83 140 0.000000 0.000000 0.000000 0.000000 0.000000 0.000000 170.000000 0.786192 0.082528 0.612448
-20.79000092 -0.92000002 0.38999999 147 83 140 0.000000 0.000000 0.000000 0.000000 0.000000 0.000000 170.000000 0.786192 0.082528 0.612448
-20.76000023 -0.89999998 0.19000000 147 83 140 0.000000 0.000000 0.000000 0.000000 0.000000 0.000000 170.000000 0.454594 0.557835 0.694380
-20.78000069 -0.99000001 0.25999999 147 83 140 0.000000 0.000000 0.000000 0.000000 0.000000 0.000000 170.000000 0.104204 0.617887 0.779331
-20.77000046 -0.98000002 0.25000000 147 83 140 0.000000 0.000000 0.000000 0.000000 0.000000 0.000000 170.000000 0.243934 0.449990 0.859072
-20.77000046 -0.98000002 0.25000000 147 83 140 0.000000 0.000000 0.000000 0.000000 0.000000 0.000000 170.000000 0.243934 0.449990 0.859072
-20.71999931 -0.99000001 0.20999999 147 83 140 0.000000 0.000000 0.000000 0.000000 0.000000 0.000000 170.000000 -0.052770 0.751616 0.657486
-20.72999954 -0.97000003 0.20000000 147 83 140 0.000000 0.000000 0.000000 0.000000 0.000000 0.000000 170.000000 -0.054905 0.823579 0.564539
-20.72999954 -0.99000001 0.20999999 147 83 140 0.000000 0.000000 0.000000 0.000000 0.000000 0.000000 170.000000 -0.043059 0.840353 0.540326
-20.76000023 -0.95999998 0.20999999 147 83 140 0.000000 0.000000 0.000000 0.000000 0.000000 0.000000 170.000000 0.158787 0.754618 0.636662
-20.77000046 -0.97000003 0.18000001 147 83 140 0.000000 0.000000 0.000000 0.000000 0.000000 0.000000 170.000000 0.171047 0.398152 0.901231
-20.73999977 -1.00000000 0.15000001 147 83 140 0.000000 0.000000 0.000000 0.000000 0.000000 0.000000 170.000000 -0.011942 0.455125 0.890347
-20.77000046 -0.97000003 0.18000001 147 83 140 0.000000 0.000000 0.000000 0.000000 0.000000 0.000000 170.000000 0.171047 0.398152 0.901231
-20.79000092 -0.97000003 0.25000000 147 83 140 0.000000 0.000000 0.000000 0.000000 0.000000 0.000000 170.000000 0.255649 0.466903 0.846549
-20.81999969 -0.92000002 0.22000000 147 83 140 0.000000 0.000000 0.000000 0.000000 0.000000 0.000000 170.000000 0.410708 0.754329 0.512158
-20.79999924 -0.94999999 0.23000000 147 83 140 0.000000 0.000000 0.000000 0.000000 0.000000 0.000000 170.000000 0.367853 0.828852 0.421531
-20.81999969 -0.98000002 0.20000000 147 83 140 0.000000 0.000000 0.000000 0.000000 0.000000 0.000000 170.000000 0.423191 0.783147 0.455620
-20.84000015 -0.94999999 0.22000000 147 83 140 0.000000 0.000000 0.000000 0.000000 0.000000 0.000000 170.000000 0.594022 0.727474 0.343394
-20.82999992 -1.00000000 0.22000000 147 83 140 0.000000 0.000000 0.000000 0.000000 0.000000 0.000000 170.000000 0.317693 0.491555 0.810829
-20.72999954 -1.08000004 0.34000000 147 83 140 0.000000 0.000000 0.000000 0.000000 0.000000 0.000000 170.000000 0.128359 0.568025 0.812940
-20.72999954 -1.13000000 0.34999999 147 83 140 0.000000 0.000000 0.000000 0.000000 0.000000 0.000000 170.000000 0.274810 0.238168 0.931534
-20.70000076 -1.16999996 0.34999999 147 83 140 0.000000 0.000000 0.000000 0.000000 0.000000 0.000000 170.000000 0.214971 0.771730 0.598516
-20.70000076 -1.14999998 0.34000000 147 83 140 0.000000 0.000000 0.000000 0.000000 0.000000 0.000000 170.000000 0.013187 0.243361 0.969846
-20.75000000 -1.10000002 0.33000001 147 83 140 0.000000 0.000000 0.000000 0.000000 0.000000 0.000000 170.000000 0.006011 0.260874 0.965354
-20.72999954 -1.01999998 0.27000001 147 83 140 0.000000 0.000000 0.000000 0.000000 0.000000 0.000000 170.000000 0.009700 0.755196 0.655427
-20.75000000 -1.03999996 0.27000001 147 83 140 0.000000 0.000000 0.000000 0.000000 0.000000 0.000000 170.000000 -0.112396 0.470926 0.874983
-20.76000023 -1.03999996 0.27000001 147 83 140 0.000000 0.000000 0.000000 0.000000 0.000000 0.000000 170.000000 -0.068550 0.505032 0.860374
-20.78000069 -1.09000003 0.31000000 147 83 140 0.000000 0.000000 0.000000 0.000000 0.000000 0.000000 170.000000 0.075554 0.435465 0.897030
-20.76000023 -1.04999995 0.28999999 147 83 140 0.000000 0.000000 0.000000 0.000000 0.000000 0.000000 170.000000 0.272450 0.673954 0.686700
-20.75000000 -1.05999994 0.30000001 147 83 140 0.000000 0.000000 0.000000 0.000000 0.000000 0.000000 170.000000 0.054030 0.865864 0.497353
-20.75000000 -1.04999995 0.27000001 147 83 140 0.000000 0.000000 0.000000 0.000000 0.000000 0.000000 170.000000 0.231524 0.458509 0.858001
-20.73999977 -1.07000005 0.23999999 147 83 140 0.000000 0.000000 0.000000 0.000000 0.000000 0.000000 170.000000 0.240652 0.488968 0.838449
-20.76000023 -1.02999997 0.22000000 147 83 140 0.000000 0.000000 0.000000 0.000000 0.000000 0.000000 170.000000 0.172097 0.869310 0.463338
-20.72999954 -1.11000001 0.28999999 147 83 140 0.000000 0.000000 0.000000 0.000000 0.000000 0.000000 170.000000 0.111597 0.450625 0.885711
-20.78000069 -1.13000000 0.28999999 147 83 140 0.000000 0.000000 0.000000 0.000000 0.000000 0.000000 170.000000 0.089362 0.860991 0.500708
-20.78000069 -1.13000000 0.28999999 147 83 140 0.000000 0.000000 0.000000 0.000000 0.000000 0.000000 170.000000 0.089362 0.860991 0.500708
-20.78000069 -1.13000000 0.28999999 147 83 140 0.000000 0.000000 0.000000 0.000000 0.000000 0.000000 170.000000 0.089362 0.860991 0.500708
-20.78000069 -1.13000000 0.28999999 147 83 140 0.000000 0.000000 0.000000 0.000000 0.000000 0.000000 170.000000 0.089362 0.860991 0.500708
-20.79999924 -1.00999999 0.25000000 147 83 140 0.000000 0.000000 0.000000 0.000000 0.000000 0.000000 170.000000 0.464910 0.622677 0.629390
-20.79000092 -1.00999999 0.23999999 147 83 140 0.000000 0.000000 0.000000 0.000000 0.000000 0.000000 170.000000 0.474195 0.588136 0.655160
-20.79000092 -1.00999999 0.23999999 147 83 140 0.000000 0.000000 0.000000 0.000000 0.000000 0.000000 170.000000 0.474195 0.588136 0.655160
-20.86000061 -1.03999996 0.25000000 147 83 140 0.000000 0.000000 0.000000 0.000000 0.000000 0.000000 170.000000 0.403878 0.518337 0.753796
-20.86000061 -1.04999995 0.25000000 147 83 140 0.000000 0.000000 0.000000 0.000000 0.000000 0.000000 170.000000 0.478207 0.635932 0.605729
-20.86000061 -1.04999995 0.25000000 147 83 140 0.000000 0.000000 0.000000 0.000000 0.000000 0.000000 170.000000 0.478207 0.635932 0.605729
-20.79999924 -1.03999996 0.22000000 147 83 140 0.000000 0.000000 0.000000 0.000000 0.000000 0.000000 170.000000 -0.092181 0.683313 0.724283
-20.79000092 -1.12000000 0.31000000 147 83 140 0.000000 0.000000 0.000000 0.000000 0.000000 0.000000 170.000000 0.599958 0.264361 0.755092
-20.79000092 -1.12000000 0.28000000 147 83 140 0.000000 0.000000 0.000000 0.000000 0.000000 0.000000 170.000000 -0.032603 0.379498 0.924618
-20.79999924 -1.14999998 0.31000000 147 83 140 0.000000 0.000000 0.000000 0.000000 0.000000 0.000000 170.000000 0.480245 0.198980 0.854267
-20.79000092 -1.14999998 0.31000000 147 83 140 0.000000 0.000000 0.000000 0.000000 0.000000 0.000000 170.000000 0.462229 0.332868 0.821915
-20.79000092 -1.13999999 0.30000001 147 83 140 0.000000 0.000000 0.000000 0.000000 0.000000 0.000000 170.000000 0.561711 0.491288 0.665670
-20.90999985 -0.85000002 0.20999999 147 83 140 0.000000 0.000000 0.000000 0.000000 0.000000 0.000000 170.000000 0.804362 0.465346 0.369399
-20.90999985 -0.85000002 0.22000000 147 83 140 0.000000 0.000000 0.000000 0.000000 0.000000 0.000000 170.000000 0.582954 0.579575 0.569436
-20.90999985 -0.83999997 0.22000000 147 83 140 0.000000 0.000000 0.000000 0.000000 0.000000 0.000000 170.000000 0.687161 0.244850 0.684002
-20.89999962 -0.86000001 0.22000000 147 83 140 0.000000 0.000000 0.000000 0.000000 0.000000 0.000000 170.000000 0.902207 0.397315 0.167819
-20.90999985 -0.89999998 0.20000000 147 83 140 0.000000 0.000000 0.000000 0.000000 0.000000 0.000000 170.000000 0.640150 0.076587 0.764423
-20.90999985 -0.88999999 0.20000000 147 83 140 0.000000 0.000000 0.000000 0.000000 0.000000 0.000000 170.000000 0.879697 0.202552 0.430239
-20.90999985 -0.88000000 0.18000001 147 83 140 0.000000 0.000000 0.000000 0.000000 0.000000 0.000000 170.000000 0.632218 0.588384 0.504088
-20.93000031 -0.83999997 0.18000001 147 83 140 0.000000 0.000000 0.000000 0.000000 0.000000 0.000000 170.000000 0.487025 0.389944 0.781505
-20.95000076 -0.85000002 0.18000001 147 83 140 0.000000 0.000000 0.000000 0.000000 0.000000 0.000000 170.000000 0.701014 0.227398 0.675921
-20.95000076 -0.85000002 0.18000001 147 83 140 0.000000 0.000000 0.000000 0.000000 0.000000 0.000000 170.000000 0.701014 0.227398 0.675921
-20.89999962 -0.97000003 0.23999999 147 83 140 0.000000 0.000000 0.000000 0.000000 0.000000 0.000000 170.000000 0.711226 0.067805 0.699685
-20.90999985 -0.95999998 0.22000000 147 83 140 0.000000 0.000000 0.000000 0.000000 0.000000 0.000000 170.000000 0.416847 0.636066 0.649352
-20.96999931 -0.86000001 0.20000000 147 83 140 0.000000 0.000000 0.000000 0.000000 0.000000 0.000000 170.000000 0.961120 0.241258 0.134322
-20.97999954 -1.00000000 0.27000001 147 83 140 0.000000 0.000000 0.000000 0.000000 0.000000 0.000000 170.000000 0.761184 0.443615 0.473080
-20.97999954 -1.00000000 0.27000001 147 83 140 0.000000 0.000000 0.000000 0.000000 0.000000 0.000000 170.000000 0.761184 0.443615 0.473080
-21.01000023 -0.95999998 0.23999999 147 83 140 0.000000 0.000000 0.000000 0.000000 0.000000 0.000000 170.000000 0.911545 0.307737 0.272734
-20.96999931 -0.97000003 0.20000000 147 83 140 0.000000 0.000000 0.000000 0.000000 0.000000 0.000000 170.000000 0.767748 0.101290 0.632695
-20.98999977 -0.97000003 0.23000000 147 83 140 0.000000 0.000000 0.000000 0.000000 0.000000 0.000000 170.000000 0.818297 0.087726 0.568062
-20.97999954 -0.99000001 0.23000000 147 83 140 0.000000 0.000000 0.000000 0.000000 0.000000 0.000000 170.000000 0.628574 0.524093 0.574648
-21.01000023 -0.95999998 0.22000000 147 83 140 0.000000 0.000000 0.000000 0.000000 0.000000 0.000000 170.000000 0.808235 0.206260 0.551555
-21.01000023 -0.95999998 0.22000000 147 83 140 0.000000 0.000000 0.000000 0.000000 0.000000 0.000000 170.000000 0.808235 0.206260 0.551555
-21.00000000 -0.94999999 0.20999999 147 83 140 0.000000 0.000000 0.000000 0.000000 0.000000 0.000000 170.000000 0.859777 0.107293 0.499271
-21.03000069 -1.00000000 0.22000000 147 83 140 0.000000 0.000000 0.000000 0.000000 0.000000 0.000000 170.000000 0.805802 0.562999 0.183620
-21.00000000 -1.00000000 0.20999999 147 83 140 0.000000 0.000000 0.000000 0.000000 0.000000 0.000000 170.000000 0.715529 0.463185 0.522951
-20.87000084 -1.01999998 0.25000000 147 83 140 0.000000 0.000000 0.000000 0.000000 0.000000 0.000000 170.000000 0.169251 0.648032 0.742569
-20.93000031 -1.00999999 0.25000000 147 83 140 0.000000 0.000000 0.000000 0.000000 0.000000 0.000000 170.000000 0.846575 0.080829 0.526096
-20.88999939 -1.02999997 0.23000000 147 83 140 0.000000 0.000000 0.000000 0.000000 0.000000 0.000000 170.000000 0.688937 0.358378 0.630025
-20.90999985 -1.05999994 0.15000001 147 83 140 0.000000 0.000000 0.000000 0.000000 0.000000 0.000000 170.000000 0.552830 0.417511 0.721155
-20.92000008 -1.08000004 0.16000000 147 83 140 0.000000 0.000000 0.000000 0.000000 0.000000 0.000000 170.000000 0.657008 0.326071 0.679719
-20.92000008 -1.04999995 0.15000001 147 83 140 0.000000 0.000000 0.000000 0.000000 0.000000 0.000000 170.000000 0.653708 0.326043 0.682906
-20.90999985 -1.10000002 0.15000001 147 83 140 0.000000 0.000000 0.000000 0.000000 0.000000 0.000000 170.000000 0.306601 0.312526 0.899068
-21.01000023 -1.01999998 0.23999999 147 83 140 0.000000 0.000000 0.000000 0.000000 0.000000 0.000000 170.000000 0.869199 0.134502 0.475818
-21.01000023 -1.01999998 0.23999999 147 83 140 0.000000 0.000000 0.000000 0.000000 0.000000 0.000000 170.000000 0.869199 0.134502 0.475818
-21.00000000 -1.03999996 0.25000000 147 83 140 0.000000 0.000000 0.000000 0.000000 0.000000 0.000000 170.000000 0.794530 0.452866 0.404517
-20.98999977 -1.02999997 0.20999999 147 83 140 0.000000 0.000000 0.000000 0.000000 0.000000 0.000000 170.000000 0.724352 0.546152 0.420751
-21.00000000 -1.02999997 0.23000000 147 83 140 0.000000 0.000000 0.000000 0.000000 0.000000 0.000000 170.000000 0.854009 0.284670 0.435468
-21.02000046 -1.02999997 0.20000000 147 83 140 0.000000 0.000000 0.000000 0.000000 0.000000 0.000000 170.000000 0.632890 0.394937 0.665939
-20.76000023 -0.99000001 0.10000000 147 83 140 0.000000 0.000000 0.000000 0.000000 0.000000 0.000000 170.000000 -0.168370 0.620390 0.766008
-20.86000061 -0.99000001 0.10000000 147 83 140 0.000000 0.000000 0.000000 0.000000 0.000000 0.000000 170.000000 0.362902 0.511288 0.779029
-20.70000076 -1.07000005 0.07000000 147 83 140 0.000000 0.000000 0.000000 0.000000 0.000000 0.000000 170.000000 -0.054679 0.390753 0.918870
-20.70000076 -1.05999994 0.07000000 147 83 140 0.000000 0.000000 0.000000 0.000000 0.000000 0.000000 170.000000 -0.319323 0.470333 0.822690
-20.76000023 -1.08000004 0.08000000 147 83 140 0.000000 0.000000 0.000000 0.000000 0.000000 0.000000 170.000000 0.300799 0.462887 0.833820
-20.70000076 -1.03999996 0.06000000 147 83 140 0.000000 0.000000 0.000000 0.000000 0.000000 0.000000 170.000000 -0.106892 0.251133 0.962032
-20.71999931 -1.05999994 0.03000000 147 83 140 0.000000 0.000000 0.000000 0.000000 0.000000 0.000000 170.000000 -0.352956 0.447922 0.821454
-20.72999954 -1.09000003 0.02000000 147 83 140 0.000000 0.000000 0.000000 0.000000 0.000000 0.000000 170.000000 -0.337665 0.567084 0.751265
-20.70999908 -1.04999995 0.06000000 147 83 140 0.000000 0.000000 0.000000 0.000000 0.000000 0.000000 170.000000 -0.152484 0.250603 0.956006
-20.72999954 -1.09000003 0.04000000 147 83 140 0.000000 0.000000 0.000000 0.000000 0.000000 0.000000 170.000000 -0.311030 0.623672 0.717142
-20.71999931 -1.07000005 0.04000000 147 83 140 0.000000 0.000000 0.000000 0.000000 0.000000 0.000000 170.000000 -0.266210 0.562348 0.782877
-20.71999931 -1.07000005 0.04000000 147 83 140 0.000000 0.000000 0.000000 0.000000 0.000000 0.000000 170.000000 -0.266210 0.562348 0.782877
-20.73999977 -1.03999996 0.02000000 147 83 140 0.000000 0.000000 0.000000 0.000000 0.000000 0.000000 170.000000 -0.079633 0.379269 0.921853
-20.73999977 -1.05999994 0.04000000 147 83 140 0.000000 0.000000 0.000000 0.000000 0.000000 0.000000 170.000000 -0.088009 0.308689 0.947083
-20.73999977 -1.05999994 0.04000000 147 83 140 0.000000 0.000000 0.000000 0.000000 0.000000 0.000000 170.000000 -0.088009 0.308689 0.947083
-20.70999908 -1.14999998 0.07000000 147 83 140 0.000000 0.000000 0.000000 0.000000 0.000000 0.000000 170.000000 -0.022773 0.233720 0.972037
-20.78000069 -1.11000001 0.08000000 147 83 140 0.000000 0.000000 0.000000 0.000000 0.000000 0.000000 170.000000 -0.149057 0.642901 0.751306
-20.75000000 -1.11000001 0.05000000 147 83 140 0.000000 0.000000 0.000000 0.000000 0.000000 0.000000 170.000000 0.104952 0.435203 0.894194
-20.73999977 -1.11000001 0.05000000 147 83 140 0.000000 0.000000 0.000000 0.000000 0.000000 0.000000 170.000000 0.392990 0.441111 0.806833
-20.73999977 -1.11000001 0.05000000 147 83 140 0.000000 0.000000 0.000000 0.000000 0.000000 0.000000 170.000000 0.392990 0.441111 0.806833
-20.81999969 -1.09000003 0.12000000 147 83 140 0.000000 0.000000 0.000000 0.000000 0.000000 0.000000 170.000000 -0.097857 0.623654 0.775551
-20.84000015 -1.01999998 0.13000000 147 83 140 0.000000 0.000000 0.000000 0.000000 0.000000 0.000000 170.000000 0.126834 0.690873 0.711764
-20.84000015 -1.00999999 0.07000000 147 83 140 0.000000 0.000000 0.000000 0.000000 0.000000 0.000000 170.000000 0.596657 0.492452 0.633633
-20.86000061 -1.03999996 0.10000000 147 83 140 0.000000 0.000000 0.000000 0.000000 0.000000 0.000000 170.000000 0.043313 0.376693 0.925325
-20.82999992 -1.00999999 0.08000000 147 83 140 0.000000 0.000000 0.000000 0.000000 0.000000 0.000000 170.000000 0.102700 0.448784 0.887720
-20.86000061 -1.03999996 0.10000000 147 83 140 0.000000 0.000000 0.000000 0.000000 0.000000 0.000000 170.000000 0.043313 0.376693 0.925325
-20.84000015 -1.04999995 0.11000000 147 83 140 0.000000 0.000000 0.000000 0.000000 0.000000 0.000000 170.000000 0.355928 0.278488 0.892054
-20.82999992 -1.07000005 0.13000000 147 83 140 0.000000 0.000000 0.000000 0.000000 0.000000 0.000000 170.000000 0.493478 0.358455 0.792458
-20.84000015 -1.08000004 0.09000000 147 83 140 0.000000 0.000000 0.000000 0.000000 0.000000 0.000000 170.000000 0.532470 0.278015 0.799490
-20.85000038 -1.05999994 0.08000000 147 83 140 0.000000 0.000000 0.000000 0.000000 0.000000 0.000000 170.000000 0.489042 0.475780 0.731076
-20.82999992 -1.04999995 0.08000000 147 83 140 0.000000 0.000000 0.000000 0.000000 0.000000 0.000000 170.000000 0.132261 0.595917 0.792079
-20.85000038 -1.07000005 0.09000000 147 83 140 0.000000 0.000000 0.000000 0.000000 0.000000 0.000000 170.000000 0.502413 0.499075 0.706049
-20.80999947 -1.04999995 0.06000000 147 83 140 0.000000 0.000000 0.000000 0.000000 0.000000 0.000000 170.000000 0.524415 0.350148 0.776135
-20.79999924 -1.10000002 0.07000000 147 83 140 0.000000 0.000000 0.000000 0.000000 0.000000 0.000000 170.000000 0.052097 0.564624 0.823703
-20.79000092 -1.11000001 0.07000000 147 83 140 0.000000 0.000000 0.000000 0.000000 0.000000 0.000000 170.000000 -0.038154 0.659924 0.750363
-20.87999916 -1.05999994 0.13000000 147 83 140 0.000000 0.000000 0.000000 0.000000 0.000000 0.000000 170.000000 0.437821 0.590975 0.677541
-20.87999916 -1.09000003 0.12000000 147 83 140 0.000000 0.000000 0.000000 0.000000 0.000000 0.000000 170.000000 0.699488 0.294267 0.651247
-20.89999962 -1.07000005 0.13000000 147 83 140 0.000000 0.000000 0.000000 0.000000 0.000000 0.000000 170.000000 0.523273 0.533369 0.664608
-20.87000084 -1.09000003 0.14000000 147 83 140 0.000000 0.000000 0.000000 0.000000 0.000000 0.000000 170.000000 0.430249 0.176475 0.885292
-20.90999985 -1.05999994 0.14000000 147 83 140 0.000000 0.000000 0.000000 0.000000 0.000000 0.000000 170.000000 0.695678 0.478800 0.535522
-20.90999985 -1.05999994 0.14000000 147 83 140 0.000000 0.000000 0.000000 0.000000 0.000000 0.000000 170.000000 0.695678 0.478800 0.535522
-20.88999939 -1.07000005 0.10000000 147 83 140 0.000000 0.000000 0.000000 0.000000 0.000000 0.000000 170.000000 0.258115 0.418117 0.870951
-20.93000031 -1.03999996 0.13000000 147 83 140 0.000000 0.000000 0.000000 0.000000 0.000000 0.000000 170.000000 0.723384 0.555309 0.410302
-20.92000008 -1.03999996 0.12000000 147 83 140 0.000000 0.000000 0.000000 0.000000 0.000000 0.000000 170.000000 0.580427 0.437399 0.686867
-20.92000008 -1.04999995 0.14000000 147 83 140 0.000000 0.000000 0.000000 0.000000 0.000000 0.000000 170.000000 0.662368 0.629166 0.406717
-20.92000008 -1.04999995 0.14000000 147 83 140 0.000000 0.000000 0.000000 0.000000 0.000000 0.000000 170.000000 0.662368 0.629166 0.406717
-20.87000084 -1.10000002 0.12000000 147 83 140 0.000000 0.000000 0.000000 0.000000 0.000000 0.000000 170.000000 0.462962 0.235276 0.854583
-21.10000038 -0.88999999 0.25999999 147 83 140 0.000000 0.000000 0.000000 0.000000 0.000000 0.000000 170.000000 0.848786 -0.048621 0.526497
-21.10000038 -0.91000003 0.25000000 147 83 140 0.000000 0.000000 0.000000 0.000000 0.000000 0.000000 170.000000 0.961097 0.101915 0.256722
-21.10000038 -0.91000003 0.25999999 147 83 140 0.000000 0.000000 0.000000 0.000000 0.000000 0.000000 170.000000 0.957057 -0.016013 0.289457
-21.09000015 -0.91000003 0.27000001 147 83 140 0.000000 0.000000 0.000000 0.000000 0.000000 0.000000 170.000000 0.875042 0.477423 0.079804
-21.06999969 -0.93000001 0.25999999 147 83 140 0.000000 0.000000 0.000000 0.000000 0.000000 0.000000 170.000000 0.802443 -0.006858 0.596689
-21.06999969 -0.93000001 0.25999999 147 83 140 0.000000 0.000000 0.000000 0.000000 0.000000 0.000000 170.000000 0.802443 -0.006858 0.596689
-21.10000038 -0.93000001 0.25000000 147 83 140 0.000000 0.000000 0.000000 0.000000 0.000000 0.000000 170.000000 0.997016 -0.005275 0.077018
-21.06999969 -0.95999998 0.19000000 147 83 140 0.000000 0.000000 0.000000 0.000000 0.000000 0.000000 170.000000 0.827046 0.111920 0.550880
-21.07999992 -0.97000003 0.23000000 147 83 140 0.000000 0.000000 0.000000 0.000000 0.000000 0.000000 170.000000 0.869569 0.470470 0.150026
-21.11000061 -0.92000002 0.23000000 147 83 140 0.000000 0.000000 0.000000 0.000000 0.000000 0.000000 170.000000 0.904632 0.061032 0.421800
-21.10000038 -0.94999999 0.20000000 147 83 140 0.000000 0.000000 0.000000 0.000000 0.000000 0.000000 170.000000 0.850752 0.505180 0.144965
-21.09000015 -0.94999999 0.22000000 147 83 140 0.000000 0.000000 0.000000 0.000000 0.000000 0.000000 170.000000 0.694085 0.621888 0.362631
-21.10000038 -0.93000001 0.23000000 147 83 140 0.000000 0.000000 0.000000 0.000000 0.000000 0.000000 170.000000 0.734646 0.371414 0.567756
-21.11000061 -0.92000002 0.23000000 147 83 140 0.000000 0.000000 0.000000 0.000000 0.000000 0.000000 170.000000 0.904632 0.061032 0.421800
-21.09000015 -1.00000000 0.20000000 147 83 140 0.000000 0.000000 0.000000 0.000000 0.000000 0.000000 170.000000 0.624495 0.611029 0.486466
-21.14999962 -0.83999997 0.25000000 147 83 140 0.000000 0.000000 0.000000 0.000000 0.000000 0.000000 170.000000 0.927914 -0.183898 0.324279
-21.14999962 -0.83999997 0.23999999 147 83 140 0.000000 0.000000 0.000000 0.000000 0.000000 0.000000 170.000000 0.996311 0.076973 0.037944
-21.14999962 -0.89999998 0.23999999 147 83 140 0.000000 0.000000 0.000000 0.000000 0.000000 0.000000 170.000000 0.815229 0.565520 0.124855
-21.18000031 -0.88000000 0.20000000 147 83 140 0.000000 0.000000 0.000000 0.000000 0.000000 0.000000 170.000000 0.982375 -0.095458 0.160708
-21.13999939 -0.92000002 0.25999999 147 83 140 0.000000 0.000000 0.000000 0.000000 0.000000 0.000000 170.000000 0.975743 0.024958 0.217492
-21.13999939 -0.92000002 0.25999999 147 83 140 0.000000 0.000000 0.000000 0.000000 0.000000 0.000000 170.000000 0.975743 0.024958 0.217492
-21.13999939 -0.92000002 0.23999999 147 83 140 0.000000 0.000000 0.000000 0.000000 0.000000 0.000000 170.000000 0.870994 0.453982 0.187803
-21.14999962 -0.93000001 0.27000001 147 83 140 0.000000 0.000000 0.000000 0.000000 0.000000 0.000000 170.000000 0.971453 0.212938 -0.104579
-21.13999939 -0.93000001 0.25999999 147 83 140 0.000000 0.000000 0.000000 0.000000 0.000000 0.000000 170.000000 0.771471 0.132806 0.622250
-21.15999985 -0.94000000 0.23000000 147 83 140 0.000000 0.000000 0.000000 0.000000 0.000000 0.000000 170.000000 0.823433 0.336643 0.456760
-21.17000008 -0.92000002 0.22000000 147 83 140 0.000000 0.000000 0.000000 0.000000 0.000000 0.000000 170.000000 0.702062 0.436507 0.562646
-21.11000061 -1.08000004 0.23999999 147 83 140 0.000000 0.000000 0.000000 0.000000 0.000000 0.000000 170.000000 0.563615 0.696622 0.443909
-21.11000061 -1.08000004 0.23999999 147 83 140 0.000000 0.000000 0.000000 0.000000 0.000000 0.000000 170.000000 0.563615 0.696622 0.443909
-21.11000061 -1.08000004 0.23999999 147 83 140 0.000000 0.000000 0.000000 0.000000 0.000000 0.000000 170.000000 0.563615 0.696622 0.443909
-21.06999969 -1.03999996 0.22000000 147 83 140 0.000000 0.000000 0.000000 0.000000 0.000000 0.000000 170.000000 0.711908 0.049933 0.700495
-21.09000015 -1.01999998 0.22000000 147 83 140 0.000000 0.000000 0.000000 0.000000 0.000000 0.000000 170.000000 0.575633 0.404097 0.710881
-21.12000084 -1.00999999 0.22000000 147 83 140 0.000000 0.000000 0.000000 0.000000 0.000000 0.000000 170.000000 0.934187 -0.001261 0.356781
-21.04999924 -1.13000000 0.25000000 147 83 140 0.000000 0.000000 0.000000 0.000000 0.000000 0.000000 170.000000 0.434006 0.683435 0.586989
-21.09000015 -1.15999997 0.22000000 147 83 140 0.000000 0.000000 0.000000 0.000000 0.000000 0.000000 170.000000 0.413344 0.685586 0.599265
-21.09000015 -1.15999997 0.22000000 147 83 140 0.000000 0.000000 0.000000 0.000000 0.000000 0.000000 170.000000 0.413344 0.685586 0.599265
-21.10000038 -1.14999998 0.22000000 147 83 140 0.000000 0.000000 0.000000 0.000000 0.000000 0.000000 170.000000 0.880393 0.405070 0.246630
-21.09000015 -1.15999997 0.23000000 147 83 140 0.000000 0.000000 0.000000 0.000000 0.000000 0.000000 170.000000 0.669709 0.340558 0.659932
-21.12999916 -1.05999994 0.23999999 147 83 140 0.000000 0.000000 0.000000 0.000000 0.000000 0.000000 170.000000 0.714341 0.555230 0.425953
-21.12999916 -1.05999994 0.23999999 147 83 140 0.000000 0.000000 0.000000 0.000000 0.000000 0.000000 170.000000 0.714341 0.555230 0.425953
-21.19000053 -1.01999998 0.28000000 147 83 140 0.000000 0.000000 0.000000 0.000000 0.000000 0.000000 170.000000 0.831989 0.295021 0.469848
-21.13999939 -1.13999999 0.28000000 147 83 140 0.000000 0.000000 0.000000 0.000000 0.000000 0.000000 170.000000 0.869496 -0.034125 0.492760
-21.22999954 -1.01999998 0.23999999 147 83 140 0.000000 0.000000 0.000000 0.000000 0.000000 0.000000 170.000000 0.780960 0.541402 0.311426
-21.37999916 -1.01999998 0.17000000 147 83 140 0.000000 0.000000 0.000000 0.000000 0.000000 0.000000 171.000000 0.828041 0.124573 0.546654
-21.37999916 -1.03999996 0.16000000 147 83 140 0.000000 0.000000 0.000000 0.000000 0.000000 0.000000 171.000000 0.856562 0.122779 0.501226
-21.34000015 -1.03999996 0.18000001 147 83 140 0.000000 0.000000 0.000000 0.000000 0.000000 0.000000 171.000000 0.909387 0.103811 0.402788
-21.37999916 -1.01999998 0.16000000 147 83 140 0.000000 0.000000 0.000000 0.000000 0.000000 0.000000 171.000000 0.722532 0.098594 0.684271
-21.36000061 -1.01999998 0.15000001 147 83 140 0.000000 0.000000 0.000000 0.000000 0.000000 0.000000 171.000000 0.771099 0.049703 0.634772
-20.79000092 -1.17999995 0.34999999 147 83 140 0.000000 0.000000 0.000000 0.000000 0.000000 0.000000 170.000000 0.206243 0.711770 0.671452
-20.77000046 -1.21000004 0.31000000 147 83 140 0.000000 0.000000 0.000000 0.000000 0.000000 0.000000 170.000000 0.164644 0.590603 0.789988
-20.75000000 -1.17999995 0.31000000 147 83 140 0.000000 0.000000 0.000000 0.000000 0.000000 0.000000 170.000000 -0.183884 0.569888 0.800883
-21.39999962 -0.95999998 0.15000001 147 83 140 0.000000 0.000000 0.000000 0.000000 0.000000 0.000000 171.000000 0.693319 0.315145 0.648068
-21.39999962 -0.94999999 0.15000001 147 83 140 0.000000 0.000000 0.000000 0.000000 0.000000 0.000000 171.000000 0.854349 0.297098 0.426405
-21.42000008 -0.97000003 0.16000000 147 83 140 0.000000 0.000000 0.000000 0.000000 0.000000 0.000000 171.000000 0.850989 0.160759 0.499974
-21.40999985 -0.98000002 0.18000001 147 83 140 0.000000 0.000000 0.000000 0.000000 0.000000 0.000000 171.000000 0.723237 0.445196 0.527947
-21.43000031 -0.94000000 0.17000000 147 83 140 0.000000 0.000000 0.000000 0.000000 0.000000 0.000000 171.000000 0.744530 0.233547 0.625405
-21.43000031 -1.00000000 0.16000000 147 83 140 0.000000 0.000000 0.000000 0.000000 0.000000 0.000000 171.000000 0.805352 0.046544 0.590967
-21.45999908 -0.99000001 0.16000000 147 83 140 0.000000 0.000000 0.000000 0.000000 0.000000 0.000000 171.000000 0.712138 0.453179 0.536179
-21.48999977 -1.00000000 0.28999999 147 83 140 0.000000 0.000000 0.000000 0.000000 0.000000 0.000000 171.000000 0.949677 0.306222 -0.065896
-21.46999931 -0.94000000 0.16000000 147 83 140 0.000000 0.000000 0.000000 0.000000 0.000000 0.000000 171.000000 0.967088 -0.020628 0.253603
-21.46999931 -0.93000001 0.15000001 147 83 140 0.000000 0.000000 0.000000 0.000000 0.000000 0.000000 171.000000 0.771065 0.043859 0.635244
-21.46999931 -0.94999999 0.16000000 147 83 140 0.000000 0.000000 0.000000 0.000000 0.000000 0.000000 171.000000 0.970055 0.133845 0.202679
-21.46999931 -0.94000000 0.15000001 147 83 140 0.000000 0.000000 0.000000 0.000000 0.000000 0.000000 171.000000 0.862259 -0.156641 0.481635
-21.50000000 -1.00000000 0.19000000 147 83 140 0.000000 0.000000 0.000000 0.000000 0.000000 0.000000 171.000000 0.978179 0.109783 0.176393
-21.50000000 -0.99000001 0.17000000 147 83 140 0.000000 0.000000 0.000000 0.000000 0.000000 0.000000 171.000000 0.722573 0.434866 0.537382
-21.42000008 -1.03999996 0.25999999 147 83 140 0.000000 0.000000 0.000000 0.000000 0.000000 0.000000 171.000000 0.823324 -0.040537 0.566122
-21.42000008 -1.07000005 0.30000001 147 83 140 0.000000 0.000000 0.000000 0.000000 0.000000 0.000000 171.000000 0.815712 0.272944 0.510015
-21.40999985 -1.05999994 0.25999999 147 83 140 0.000000 0.000000 0.000000 0.000000 0.000000 0.000000 171.000000 0.938023 -0.086240 0.335672
-21.45000076 -1.02999997 0.28000000 147 83 140 0.000000 0.000000 0.000000 0.000000 0.000000 0.000000 171.000000 0.777424 0.322190 0.540190
-21.45999908 -1.02999997 0.27000001 147 83 140 0.000000 0.000000 0.000000 0.000000 0.000000 0.000000 171.000000 0.778202 0.485767 0.398036
-21.40999985 -1.03999996 0.22000000 147 83 140 0.000000 0.000000 0.000000 0.000000 0.000000 0.000000 171.000000 0.744029 0.089167 0.662171
-21.40999985 -1.00999999 0.18000001 147 83 140 0.000000 0.000000 0.000000 0.000000 0.000000 0.000000 171.000000 0.936992 -0.175255 0.302211
-21.39999962 -1.08000004 0.23000000 147 83 140 0.000000 0.000000 0.000000 0.000000 0.000000 0.000000 171.000000 0.835307 0.375967 0.401136
-21.39999962 -1.08000004 0.20000000 147 83 140 0.000000 0.000000 0.000000 0.000000 0.000000 0.000000 171.000000 0.842234 0.535711 0.060461
-21.39999962 -1.05999994 0.17000000 147 83 140 0.000000 0.000000 0.000000 0.000000 0.000000 0.000000 171.000000 0.867923 0.187779 0.459836
-21.39999962 -1.05999994 0.17000000 147 83 140 0.000000 0.000000 0.000000 0.000000 0.000000 0.000000 171.000000 0.867923 0.187779 0.459836
-21.40999985 -1.05999994 0.18000001 147 83 140 0.000000 0.000000 0.000000 0.000000 0.000000 0.000000 171.000000 0.707702 0.504550 0.494559
-21.44000053 -1.00999999 0.20000000 147 83 140 0.000000 0.000000 0.000000 0.000000 0.000000 0.000000 171.000000 0.915040 0.085913 0.394108
-21.45000076 -1.01999998 0.20999999 147 83 140 0.000000 0.000000 0.000000 0.000000 0.000000 0.000000 171.000000 0.737941 0.544006 0.399376
-21.44000053 -1.00999999 0.20000000 147 83 140 0.000000 0.000000 0.000000 0.000000 0.000000 0.000000 171.000000 0.915040 0.085913 0.394108
-21.43000031 -1.07000005 0.20000000 147 83 140 0.000000 0.000000 0.000000 0.000000 0.000000 0.000000 171.000000 0.851360 0.057317 0.521441
-21.43000031 -1.04999995 0.18000001 147 83 140 0.000000 0.000000 0.000000 0.000000 0.000000 0.000000 171.000000 0.728049 0.505820 0.462701
-21.43000031 -1.04999995 0.18000001 147 83 140 0.000000 0.000000 0.000000 0.000000 0.000000 0.000000 171.000000 0.728049 0.505820 0.462701
-21.46999931 -1.01999998 0.30000001 147 83 140 0.000000 0.000000 0.000000 0.000000 0.000000 0.000000 171.000000 0.956941 0.256676 0.135578
-21.46999931 -1.03999996 0.31000000 147 83 140 0.000000 0.000000 0.000000 0.000000 0.000000 0.000000 171.000000 0.796622 0.570326 0.200302
-21.48999977 -1.05999994 0.30000001 147 83 140 0.000000 0.000000 0.000000 0.000000 0.000000 0.000000 171.000000 0.856761 0.486830 0.170168
-21.46999931 -1.07000005 0.28999999 147 83 140 0.000000 0.000000 0.000000 0.000000 0.000000 0.000000 171.000000 0.851642 0.523983 0.012186
-21.48999977 -1.00999999 0.20000000 147 83 140 0.000000 0.000000 0.000000 0.000000 0.000000 0.000000 171.000000 0.743864 0.533678 0.402311
-21.47999954 -1.03999996 0.20000000 147 83 140 0.000000 0.000000 0.000000 0.000000 0.000000 0.000000 171.000000 0.689507 0.420350 0.589819
-21.51000023 -1.03999996 0.23000000 147 83 140 0.000000 0.000000 0.000000 0.000000 0.000000 0.000000 171.000000 0.990034 -0.123322 0.068000
-21.47999954 -1.01999998 0.20000000 147 83 140 0.000000 0.000000 0.000000 0.000000 0.000000 0.000000 171.000000 0.944110 0.082725 0.319080
-21.47999954 -1.03999996 0.20000000 147 83 140 0.000000 0.000000 0.000000 0.000000 0.000000 0.000000 171.000000 0.689507 0.420350 0.589819
-21.47999954 -1.01999998 0.19000000 147 83 140 0.000000 0.000000 0.000000 0.000000 0.000000 0.000000 171.000000 0.701367 0.358041 0.616353
-21.54999924 -1.10000002 0.30000001 147 83 140 0.000000 0.000000 0.000000 0.000000 0.000000 0.000000 171.000000 0.944470 -0.229587 0.235086
-21.54999924 -1.10000002 0.30000001 147 83 140 0.000000 0.000000 0.000000 0.000000 0.000000 0.000000 171.000000 0.944470 -0.229587 0.235086
-21.39999962 -0.94000000 0.14000000 147 83 140 0.000000 0.000000 0.000000 0.000000 0.000000 0.000000 171.000000 0.929913 0.215898 0.297741
-21.38999939 -0.95999998 0.14000000 147 83 140 0.000000 0.000000 0.000000 0.000000 0.000000 0.000000 171.000000 0.774572 0.611504 0.161558
-21.42000008 -0.97000003 0.14000000 147 83 140 0.000000 0.000000 0.000000 0.000000 0.000000 0.000000 171.000000 0.890887 0.285024 0.353669
-21.39999962 -1.00999999 0.13000000 147 83 140 0.000000 0.000000 0.000000 0.000000 0.000000 0.000000 171.000000 0.693823 0.326601 0.641827
-21.39999962 -1.00999999 0.13000000 147 83 140 0.000000 0.000000 0.000000 0.000000 0.000000 0.000000 171.000000 0.693823 0.326601 0.641827
-20.26000023 -0.57999998 -0.28000000 147 83 140 0.000000 0.000000 0.000000 0.000000 -0.000107 0.000000 214.000000 0.788868 -0.506097 -0.348644
-20.29000092 -0.56999999 -0.25999999 147 83 140 0.000000 0.000000 0.000000 0.000000 -0.000107 0.000000 214.000000 0.849263 -0.229407 -0.475526
-20.29000092 -0.56999999 -0.25999999 147 83 140 0.000000 0.000000 0.000000 0.000000 -0.000107 0.000000 214.000000 0.849263 -0.229407 -0.475526
-20.29000092 -0.56999999 -0.25999999 147 83 140 0.000000 0.000000 0.000000 0.000000 -0.000107 0.000000 214.000000 0.849263 -0.229407 -0.475526
-20.31999969 -0.50999999 -0.27000001 147 83 140 0.000000 0.000000 0.000000 0.000000 -0.000107 0.000000 214.000000 0.808313 -0.404957 -0.427365
-20.31999969 -0.50999999 -0.27000001 147 83 140 0.000000 0.000000 0.000000 0.000000 -0.000107 0.000000 214.000000 0.808313 -0.404957 -0.427365
-20.35000038 -0.55000001 -0.27000001 147 83 140 0.000000 0.000000 0.000000 0.000000 -0.000107 0.000000 214.000000 -0.428426 0.431660 0.793801
-20.30999947 -0.63000000 -0.25999999 147 83 140 0.000000 0.000000 0.000000 0.000000 0.000000 0.000000 214.000000 -0.586172 0.073092 0.806883
-20.28000069 -0.87000000 -0.25000000 147 83 140 0.000000 0.000000 0.000000 0.000000 0.000000 0.000000 170.000000 -0.472756 0.246323 0.846065
-20.29999924 -0.88999999 -0.23999999 147 83 140 0.000000 0.000000 0.000000 0.000000 0.000000 0.000000 170.000000 -0.416601 0.461989 0.782950
-20.32999992 -0.83999997 -0.27000001 147 83 140 0.000000 0.000000 0.000000 0.000000 0.000000 0.000000 170.000000 -0.171524 0.599574 0.781723
-20.32999992 -0.88999999 -0.28999999 147 83 140 0.000000 0.000000 0.000000 0.000000 0.000000 0.000000 170.000000 0.361264 -0.603197 -0.711085
-20.30999947 -1.04999995 -0.27000001 147 83 140 0.000000 0.000000 0.000000 0.000000 0.000000 0.000000 170.000000 -0.353491 0.487849 0.798153
-20.34000015 -1.09000003 -0.25000000 147 83 140 0.000000 0.000000 0.000000 0.000000 0.000000 0.000000 170.000000 -0.329440 0.696206 0.637783
-20.37999916 -0.50999999 -0.25000000 147 83 140 0.000000 0.000000 0.000000 0.000000 -0.000107 0.000000 214.000000 -0.481599 0.299627 0.823581
-20.37000084 -0.55000001 -0.23999999 147 83 140 0.000000 0.000000 0.000000 0.000000 -0.000107 0.000000 214.000000 0.395885 -0.654287 -0.644348
-20.39999962 -0.50999999 -0.22000000 147 83 140 0.000000 0.000000 0.000000 0.000000 -0.000107 0.000000 214.000000 -0.616353 0.358041 0.701367
-20.36000061 -0.58999997 -0.20999999 147 83 140 0.000000 0.000000 0.000000 0.000000 -0.000107 0.000000 214.000000 0.857117 -0.138245 -0.496225
-20.37000084 -0.61000001 -0.20999999 147 83 140 0.000000 0.000000 0.000000 0.000000 -0.000107 0.000000 214.000000 0.532310 -0.292218 -0.794516
-20.37000084 -0.60000002 -0.22000000 147 83 140 0.000000 0.000000 0.000000 0.000000 -0.000107 0.000000 214.000000 0.723752 -0.216347 -0.655268
-20.47999954 -0.64999998 -0.20999999 147 83 140 0.000000 0.000000 0.000000 0.000000 0.000000 0.000000 165.000000 -0.583388 0.194463 0.788570
-20.59000015 -0.58999997 -0.34999999 147 83 140 0.000000 0.000000 0.000000 0.000000 -0.000107 0.000000 160.000000 -0.257043 0.294379 0.920473
-20.57999992 -0.58999997 -0.34999999 147 83 140 0.000000 0.000000 0.000000 0.000000 -0.000107 0.000000 160.000000 -0.093824 0.263479 0.960092
-20.57999992 -0.58999997 -0.34999999 147 83 140 0.000000 0.000000 0.000000 0.000000 -0.000107 0.000000 160.000000 -0.093824 0.263479 0.960092
-20.61000061 -0.60000002 -0.34000000 147 83 140 0.000000 0.000000 0.000000 0.000000 -0.000107 0.000000 160.000000 -0.206771 0.552920 0.807171
-20.62999916 -0.60000002 -0.36000001 147 83 140 0.000000 0.000000 0.000000 0.000000 -0.000107 0.000000 160.000000 -0.079153 0.459643 0.884570
-20.61000061 -0.63000000 -0.36000001 147 83 140 0.000000 0.000000 0.000000 0.000000 0.000000 0.000000 160.000000 -0.076559 0.767031 0.637026
-20.62000084 -0.63000000 -0.34999999 147 83 140 0.000000 0.000000 0.000000 0.000000 0.000000 0.000000 160.000000 0.195806 0.732346 0.652173
-20.64999962 -0.62000000 -0.34999999 147 83 140 0.000000 0.000000 0.000000 0.000000 0.000000 0.000000 160.000000 0.103127 0.280662 0.954250
-20.63999939 -0.64999998 -0.33000001 147 83 140 0.000000 0.000000 0.000000 0.000000 0.000000 0.000000 160.000000 -0.039529 0.317510 0.947430
-20.62999916 -0.63000000 -0.34999999 147 83 140 0.000000 0.000000 0.000000 0.000000 0.000000 0.000000 160.000000 0.026681 0.756901 0.652985
-20.69000053 -0.63999999 -0.34999999 147 83 140 0.000000 0.000000 0.000000 0.000000 0.000000 0.000000 160.000000 0.225923 0.305493 0.925004
-20.69000053 -0.66000003 -0.34000000 147 83 140 0.000000 0.000000 0.000000 0.000000 0.000000 0.000000 160.000000 0.197631 0.792056 0.577572
-20.67000008 -0.66000003 -0.33000001 147 83 140 0.000000 0.000000 0.000000 0.000000 0.000000 0.000000 160.000000 0.271994 0.720546 0.637834
-20.60000038 -0.56000000 -0.37000000 147 83 140 0.000000 0.000000 0.000000 0.000000 -0.000107 0.000000 160.000000 -0.038213 0.683583 0.728872
-20.59000015 -0.57999998 -0.38999999 147 83 140 0.000000 0.000000 0.000000 0.000000 -0.000107 0.000000 160.000000 0.097767 0.617243 0.780674
-20.62999916 -0.57999998 -0.37000000 147 83 140 0.000000 0.000000 0.000000 0.000000 -0.000107 0.000000 160.000000 0.189764 0.695800 0.692714
-20.56999969 -0.68000001 -0.28999999 147 83 140 0.000000 0.000000 0.000000 0.000000 0.000000 0.000000 160.000000 -0.035099 0.793230 0.607909
-20.57999992 -0.68000001 -0.28999999 147 83 140 0.000000 0.000000 0.000000 0.000000 0.000000 0.000000 160.000000 -0.058022 0.819378 0.570310
-20.62000084 -0.69000000 -0.20999999 147 83 140 0.000000 0.000000 0.000000 0.000000 0.000000 0.000000 216.000000 -0.051247 0.502778 0.862895
-20.62000084 -0.68000001 -0.20999999 147 83 140 0.000000 0.000000 0.000000 0.000000 0.000000 0.000000 216.000000 0.027851 0.428376 0.903171
-20.61000061 -0.67000002 -0.20000000 147 83 140 0.000000 0.000000 0.000000 0.000000 0.000000 0.000000 216.000000 -0.313468 0.415383 0.853929
-20.62999916 -0.69000000 -0.20000000 147 83 140 0.000000 0.000000 0.000000 0.000000 0.000000 0.000000 216.000000 0.115623 0.475340 0.872171
-20.54999924 -0.69999999 -0.43000001 147 83 140 0.000000 0.000000 0.000000 0.000000 0.000000 0.000000 160.000000 0.015254 0.628167 0.777929
-20.54999924 -0.69999999 -0.44000000 147 83 140 0.000000 0.000000 0.000000 0.000000 0.000000 0.000000 160.000000 -0.194348 0.781983 0.592226
-20.54999924 -0.72000003 -0.43000001 147 83 140 0.000000 0.000000 0.000000 0.000000 0.000000 0.000000 160.000000 -0.128847 0.324151 0.937190
-20.62000084 -0.74000001 -0.37000000 147 83 140 0.000000 0.000000 0.000000 0.000000 0.000000 0.000000 160.000000 0.040609 0.810785 0.583933
-20.64999962 -0.72000003 -0.49000001 147 83 140 0.000000 0.000000 0.000000 0.000000 0.000000 0.000000 160.000000 0.320622 0.527990 0.786402
-20.37000084 -0.86000001 -0.27000001 147 83 140 0.000000 0.000000 0.000000 0.000000 0.000000 0.000000 170.000000 -0.283072 0.666898 0.689288
-20.37000084 -0.83999997 -0.28000000 147 83 140 0.000000 0.000000 0.000000 0.000000 0.000000 0.000000 170.000000 -0.480805 0.296000 0.825355
-20.38999939 -0.87000000 -0.25999999 147 83 140 0.000000 0.000000 0.000000 0.000000 0.000000 0.000000 170.000000 -0.438872 0.498046 0.747891
-20.38999939 -0.88000000 -0.25000000 147 83 140 0.000000 0.000000 0.000000 0.000000 0.000000 0.000000 170.000000 -0.504816 0.347762 0.790077
-20.39999962 -0.88999999 -0.27000001 147 83 140 0.000000 0.000000 0.000000 0.000000 0.000000 0.000000 170.000000 0.481238 -0.675746 -0.558370
