//X Y Z R G B PointSourceId ScanDirectionFlag NumberOfReturns ReturnNumber GpsTime Intensity Classification Nx Ny Nz
-10.39999962 8.07999992 -1.22000003 227 246 19 0.000000 0.000000 0.000000 0.000000 0.000000 0.000000 160.000000 0.731423 0.049902 -0.680095
-10.43000031 8.07999992 -1.15999997 227 246 19 0.000000 0.000000 0.000000 0.000000 0.000000 0.000000 160.000000 0.938369 0.230061 -0.257947
-10.43000031 8.09000015 -1.15999997 227 246 19 0.000000 0.000000 0.000000 0.000000 0.000000 0.000000 160.000000 0.915365 0.156557 -0.370941
-10.43999958 8.10000038 -1.16999996 227 246 19 0.000000 0.000000 0.000000 0.000000 0.000000 0.000000 160.000000 0.941031 0.174469 -0.289865
-10.43999958 8.07999992 -1.16999996 227 246 19 0.000000 0.000000 0.000000 0.000000 0.000000 0.000000 160.000000 0.952019 0.203908 -0.228214
-10.44999981 8.02999973 -1.17999995 227 246 19 0.000000 0.000000 0.000000 0.000000 0.000000 0.000000 160.000000 -0.489431 -0.376362 0.786644
-10.43000031 8.01000023 -1.07000005 227 246 19 0.000000 0.000000 0.000000 0.000000 0.000000 0.000000 160.000000 0.875171 -0.042325 -0.481959
-10.43999958 8.01000023 -1.12000000 227 246 19 0.000000 0.000000 0.000000 0.000000 0.000000 0.000000 160.000000 0.677115 0.247802 -0.692899
-10.44999981 7.94999981 -1.05999994 227 246 19 0.000000 0.000000 0.000000 0.000000 0.000000 0.000000 160.000000 -0.577821 -0.349948 0.737332
-10.55000019 8.06000042 -1.07000005 227 246 19 0.000000 0.000000 0.000000 0.000000 0.000000 0.000000 160.000000 0.520533 0.631715 -0.574440
-10.55000019 8.06000042 -1.08000004 227 246 19 0.000000 0.000000 0.000000 0.000000 0.000000 0.000000 160.000000 0.658275 0.457275 -0.597975
-10.53999996 8.02000046 -1.12000000 227 246 19 0.000000 0.000000 0.000000 0.000000 0.000000 0.000000 160.000000 0.886278 0.388771 -0.251733
-10.55000019 8.01000023 -1.07000005 227 246 19 0.000000 0.000000 0.000000 0.000000 0.000000 0.000000 160.000000 0.832143 0.371069 -0.412124
-10.53999996 8.00000000 -1.10000002 227 246 19 0.000000 0.000000 0.000000 0.000000 0.000000 0.000000 160.000000 0.885703 0.431944 -0.170160
-10.53999996 7.98999977 -1.11000001 227 246 19 0.000000 0.000000 0.000000 0.000000 0.000000 0.000000 160.000000 0.877282 0.323849 -0.354258
-10.47999954 8.01000023 -1.15999997 227 246 19 0.000000 0.000000 0.000000 0.000000 0.000000 0.000000 160.000000 0.833798 0.105489 -0.541897
-10.56000042 8.07999992 -1.09000003 227 246 19 0.000000 0.000000 0.000000 0.000000 0.000000 0.000000 160.000000 0.862574 0.080207 -0.499533
-10.56999969 8.06999969 -1.09000003 227 246 19 0.000000 0.000000 0.000000 0.000000 0.000000 0.000000 160.000000 0.773310 0.085601 -0.628223
-10.56000042 8.06999969 -1.05999994 227 246 19 0.000000 0.000000 0.000000 0.000000 0.000000 0.000000 160.000000 -0.602954 -0.218552 0.767256
-10.57999992 8.06999969 -1.10000002 227 246 19 0.000000 0.000000 0.000000 0.000000 0.000000 0.000000 160.000000 0.709605 0.117524 -0.694729
-10.59000015 8.09000015 -1.11000001 227 246 19 0.000000 0.000000 0.000000 0.000000 0.000000 0.000000 160.000000 0.724864 0.353473 -0.591294
-10.57999992 8.03999996 -1.12000000 227 246 19 0.000000 0.000000 0.000000 0.000000 0.000000 0.000000 160.000000 0.782218 0.269133 -0.561875
-10.56999969 8.05000019 -1.11000001 227 246 19 0.000000 0.000000 0.000000 0.000000 0.000000 0.000000 160.000000 0.424894 0.621512 -0.658170
-10.60999966 8.05000019 -1.12000000 227 246 19 0.000000 0.000000 0.000000 0.000000 0.000000 0.000000 160.000000 0.536274 0.486155 -0.689973
-10.57999992 8.06000042 -1.14999998 227 246 19 0.000000 0.000000 0.000000 0.000000 0.000000 0.000000 160.000000 0.883882 0.201484 -0.422087
-10.19999981 8.17000008 0.38999999 227 246 19 0.000000 0.000000 0.000000 0.000000 0.000000 0.000000 160.000000 0.744217 -0.575593 0.338870
-10.19999981 8.17000008 0.38999999 227 246 19 0.000000 0.000000 0.000000 0.000000 0.000000 0.000000 160.000000 0.744217 -0.575593 0.338870
-10.22000027 8.15999985 0.44999999 227 246 19 0.000000 0.000000 0.000000 0.000000 0.000000 0.000000 160.000000 0.802401 -0.397181 0.445421
-10.22000027 8.15999985 0.43000001 227 246 19 0.000000 0.000000 0.000000 0.000000 0.000000 0.000000 160.000000 0.988893 -0.090112 0.118199
-10.22000027 8.14000034 0.44000000 227 246 19 0.000000 0.000000 0.000000 0.000000 0.000000 0.000000 160.000000 0.920761 -0.303090 0.245632
-10.27999973 8.15999985 0.41999999 227 246 19 0.000000 0.000000 0.000000 0.000000 0.000000 0.000000 160.000000 0.993598 -0.112339 -0.011997
-10.23999977 8.14999962 0.38999999 227 246 19 0.000000 0.000000 0.000000 0.000000 0.000000 0.000000 160.000000 0.942821 -0.314274 -0.110999
-10.36999989 8.18999958 0.38999999 227 246 19 0.000000 0.000000 0.000000 0.000000 0.000000 0.000000 160.000000 0.998004 -0.045702 -0.043576
-10.32999992 8.15999985 0.38999999 227 246 19 0.000000 0.000000 0.000000 0.000000 0.000000 0.000000 160.000000 0.729201 -0.665528 0.159181
-10.34000015 8.10999966 0.34000000 227 246 19 0.000000 0.000000 0.000000 0.000000 0.000000 0.000000 160.000000 0.701978 -0.623799 0.343660
-10.34000015 8.13000011 0.34000000 227 246 19 0.000000 0.000000 0.000000 0.000000 0.000000 0.000000 160.000000 0.985384 -0.106560 0.132901
-10.15999985 8.00000000 0.40000001 227 246 19 0.000000 0.000000 0.000000 0.000000 0.000000 0.000000 160.000000 -0.714000 0.640524 -0.282725
-10.14999962 8.00000000 0.38999999 227 246 19 0.000000 0.000000 0.000000 0.000000 0.000000 0.000000 160.000000 0.866354 -0.233539 0.441464
-10.21000004 7.96999979 0.38000000 227 246 19 0.000000 0.000000 0.000000 0.000000 0.000000 0.000000 160.000000 0.851609 -0.441974 0.281816
-10.21000004 8.06000042 0.23000000 227 246 19 0.000000 0.000000 0.000000 0.000000 0.000000 0.000000 160.000000 0.933678 -0.343561 0.101047
-10.18000031 8.00000000 0.20000000 227 246 19 0.000000 0.000000 0.000000 0.000000 0.000000 0.000000 160.000000 0.812144 -0.338526 0.475208
-10.23999977 8.02999973 0.38999999 227 246 19 0.000000 0.000000 0.000000 0.000000 0.000000 0.000000 160.000000 0.919346 -0.243145 0.309326
-10.23999977 8.02999973 0.36000001 227 246 19 0.000000 0.000000 0.000000 0.000000 0.000000 0.000000 160.000000 -0.672243 0.703583 -0.230349
-10.26000023 8.06000042 0.34999999 227 246 19 0.000000 0.000000 0.000000 0.000000 0.000000 0.000000 160.000000 0.926658 -0.087675 0.365538
-10.27999973 7.98999977 0.46000001 227 246 19 0.000000 0.000000 0.000000 0.000000 0.000000 0.000000 160.000000 0.767177 -0.606641 0.208388
-10.27999973 8.01000023 0.46000001 227 246 19 0.000000 0.000000 0.000000 0.000000 0.000000 0.000000 160.000000 0.972336 -0.200521 0.119808
-10.26000023 7.98999977 0.46000001 227 246 19 0.000000 0.000000 0.000000 0.000000 0.000000 0.000000 160.000000 0.966084 -0.196337 0.167732
-10.26000023 7.98000002 0.44999999 227 246 19 0.000000 0.000000 0.000000 0.000000 0.000000 0.000000 160.000000 -0.817681 0.384135 -0.428764
-10.27999973 8.00000000 0.44000000 227 246 19 0.000000 0.000000 0.000000 0.000000 0.000000 0.000000 160.000000 0.933438 -0.299984 0.196733
-10.26000023 8.01000023 0.43000001 227 246 19 0.000000 0.000000 0.000000 0.000000 0.000000 0.000000 160.000000 -0.594345 0.778638 -0.201187
-10.27999973 8.01000023 0.41000000 227 246 19 0.000000 0.000000 0.000000 0.000000 0.000000 0.000000 160.000000 -0.698017 0.685581 -0.206762
-10.27999973 8.01000023 0.41000000 227 246 19 0.000000 0.000000 0.000000 0.000000 0.000000 0.000000 160.000000 -0.698017 0.685581 -0.206762
-10.27999973 8.01000023 0.41000000 227 246 19 0.000000 0.000000 0.000000 0.000000 0.000000 0.000000 160.000000 -0.698017 0.685581 -0.206762
-10.25000000 7.98000002 0.37000000 227 246 19 0.000000 0.000000 0.000000 0.000000 0.000000 0.000000 160.000000 0.645999 -0.544798 0.534678
-10.25000000 8.00000000 0.38999999 227 246 19 0.000000 0.000000 0.000000 0.000000 0.000000 0.000000 160.000000 0.781566 -0.414344 0.466340
-10.27000046 7.98000002 0.38000000 227 246 19 0.000000 0.000000 0.000000 0.000000 0.000000 0.000000 160.000000 0.925865 -0.240355 0.291555
-10.27000046 7.98000002 0.38999999 227 246 19 0.000000 0.000000 0.000000 0.000000 0.000000 0.000000 160.000000 0.825285 -0.563643 -0.034793
-10.26000023 7.98000002 0.38999999 227 246 19 0.000000 0.000000 0.000000 0.000000 0.000000 0.000000 160.000000 0.833800 -0.504548 0.224074
-10.27999973 7.98000002 0.34999999 227 246 19 0.000000 0.000000 0.000000 0.000000 0.000000 0.000000 160.000000 -0.663138 0.735317 -0.139846
-10.26000023 8.00000000 0.36000001 227 246 19 0.000000 0.000000 0.000000 0.000000 0.000000 0.000000 160.000000 0.781084 -0.622889 0.043786
-10.27999973 7.92999983 0.36000001 227 246 19 0.000000 0.000000 0.000000 0.000000 0.000000 0.000000 160.000000 -0.668451 0.645458 -0.369537
-10.31999969 8.09000015 0.41000000 227 246 19 0.000000 0.000000 0.000000 0.000000 0.000000 0.000000 160.000000 0.979730 -0.167989 0.109131
-10.36999989 8.05000019 0.46000001 227 246 19 0.000000 0.000000 0.000000 0.000000 0.000000 0.000000 160.000000 -0.672614 0.738304 0.049982
-10.36999989 8.02000046 0.44000000 227 246 19 0.000000 0.000000 0.000000 0.000000 0.000000 0.000000 160.000000 0.871551 -0.334272 0.358694
-10.36999989 8.02000046 0.44000000 227 246 19 0.000000 0.000000 0.000000 0.000000 0.000000 0.000000 160.000000 0.871551 -0.334272 0.358694
-10.34000015 8.09000015 0.34000000 227 246 19 0.000000 0.000000 0.000000 0.000000 0.000000 0.000000 160.000000 0.988171 0.003357 0.153318
-10.30000019 8.10000038 0.33000001 227 246 19 0.000000 0.000000 0.000000 0.000000 0.000000 0.000000 160.000000 0.999976 -0.004926 -0.004926
-10.34000015 8.09000015 0.34000000 227 246 19 0.000000 0.000000 0.000000 0.000000 0.000000 0.000000 160.000000 0.988171 0.003357 0.153318
-10.30000019 8.10000038 0.33000001 227 246 19 0.000000 0.000000 0.000000 0.000000 0.000000 0.000000 160.000000 0.999976 -0.004926 -0.004926
-10.36999989 8.06999969 0.37000000 227 246 19 0.000000 0.000000 0.000000 0.000000 0.000000 0.000000 160.000000 0.817540 -0.520815 0.245726
-10.38000011 8.05000019 0.37000000 227 246 19 0.000000 0.000000 0.000000 0.000000 0.000000 0.000000 160.000000 0.846268 -0.498774 0.187228
-10.36999989 8.05000019 0.34999999 227 246 19 0.000000 0.000000 0.000000 0.000000 0.000000 0.000000 160.000000 0.825642 -0.542989 0.153227
-10.30000019 7.96000004 0.47999999 227 246 19 0.000000 0.000000 0.000000 0.000000 0.000000 0.000000 160.000000 0.831603 -0.545242 0.105577
-10.30000019 7.94999981 0.44999999 227 246 19 0.000000 0.000000 0.000000 0.000000 0.000000 0.000000 160.000000 0.886054 -0.461401 0.044915
-10.30000019 7.96000004 0.44000000 227 246 19 0.000000 0.000000 0.000000 0.000000 0.000000 0.000000 160.000000 0.859701 -0.503962 -0.083288
-10.34000015 7.96000004 0.43000001 227 246 19 0.000000 0.000000 0.000000 0.000000 0.000000 0.000000 160.000000 0.784159 -0.376719 0.493131
-10.31000042 7.94000006 0.41000000 227 246 19 0.000000 0.000000 0.000000 0.000000 0.000000 0.000000 160.000000 -0.580716 0.570558 -0.580716
-10.32999992 7.96999979 0.44000000 227 246 19 0.000000 0.000000 0.000000 0.000000 0.000000 0.000000 160.000000 -0.680189 0.731524 0.047057
-10.38000011 7.98000002 0.49000001 227 246 19 0.000000 0.000000 0.000000 0.000000 0.000000 0.000000 160.000000 0.924902 -0.275898 0.261603
-10.38000011 8.01000023 0.44999999 227 246 19 0.000000 0.000000 0.000000 0.000000 0.000000 0.000000 160.000000 0.882434 -0.470007 -0.020086
-10.31000042 7.92999983 0.37000000 227 246 19 0.000000 0.000000 0.000000 0.000000 0.000000 0.000000 160.000000 0.733470 -0.608282 0.303339
-10.30000019 7.96000004 0.38999999 227 246 19 0.000000 0.000000 0.000000 0.000000 0.000000 0.000000 160.000000 0.940301 -0.308898 -0.142882
-10.30000019 7.96999979 0.36000001 227 246 19 0.000000 0.000000 0.000000 0.000000 0.000000 0.000000 160.000000 -0.615801 0.748096 -0.247266
-10.30000019 7.96000004 0.33000001 227 246 19 0.000000 0.000000 0.000000 0.000000 0.000000 0.000000 160.000000 0.785478 -0.577877 0.221545
-10.38000011 8.01000023 0.36000001 227 246 19 0.000000 0.000000 0.000000 0.000000 0.000000 0.000000 160.000000 0.888909 -0.363033 0.279371
-10.36999989 7.92999983 0.34999999 227 246 19 0.000000 0.000000 0.000000 0.000000 0.000000 0.000000 160.000000 0.718571 -0.645603 0.258559
-10.25000000 8.02999973 0.23999999 227 246 19 0.000000 0.000000 0.000000 0.000000 0.000000 0.000000 160.000000 0.766968 -0.479150 0.426820
-10.27999973 8.05000019 0.25000000 227 246 19 0.000000 0.000000 0.000000 0.000000 0.000000 0.000000 160.000000 0.727510 -0.686096 0.001380
-10.25000000 8.02000046 0.19000000 227 246 19 0.000000 0.000000 0.000000 0.000000 0.000000 0.000000 160.000000 0.976382 -0.143769 0.161272
-10.27000046 8.05000019 0.16000000 227 246 19 0.000000 0.000000 0.000000 0.000000 0.000000 0.000000 160.000000 0.772299 -0.615119 0.158692
-10.25000000 8.01000023 0.30000001 227 246 19 0.000000 0.000000 0.000000 0.000000 0.000000 0.000000 160.000000 0.811508 -0.537412 0.229440
-10.22000027 7.96999979 0.30000001 227 246 19 0.000000 0.000000 0.000000 0.000000 0.000000 0.000000 160.000000 0.802605 -0.557066 0.213312
-10.27999973 7.96999979 0.28999999 227 246 19 0.000000 0.000000 0.000000 0.000000 0.000000 0.000000 160.000000 0.893154 -0.415454 -0.172261
-10.27999973 7.96999979 0.28999999 227 246 19 0.000000 0.000000 0.000000 0.000000 0.000000 0.000000 160.000000 0.893154 -0.415454 -0.172261
-10.26000023 7.96999979 0.25000000 227 246 19 0.000000 0.000000 0.000000 0.000000 0.000000 0.000000 160.000000 0.912543 -0.406315 0.046626
-10.27999973 7.96999979 0.27000001 227 246 19 0.000000 0.000000 0.000000 0.000000 0.000000 0.000000 160.000000 0.808331 -0.501450 0.308463
-10.25000000 8.00000000 0.22000000 227 246 19 0.000000 0.000000 0.000000 0.000000 0.000000 0.000000 160.000000 0.901941 -0.158662 0.401657
-10.25000000 7.98000002 0.17000000 227 246 19 0.000000 0.000000 0.000000 0.000000 0.000000 0.000000 160.000000 0.859981 -0.454928 0.231243
-10.25000000 7.96999979 0.17000000 227 246 19 0.000000 0.000000 0.000000 0.000000 0.000000 0.000000 160.000000 0.888934 -0.316298 0.331289
-10.22999954 7.94000006 0.15000001 227 246 19 0.000000 0.000000 0.000000 0.000000 0.000000 0.000000 160.000000 0.747379 -0.644292 0.162210
-10.28999996 7.94000006 0.22000000 227 246 19 0.000000 0.000000 0.000000 0.000000 0.000000 0.000000 160.000000 0.690715 -0.621807 0.369147
-10.27999973 7.94000006 0.20999999 227 246 19 0.000000 0.000000 0.000000 0.000000 0.000000 0.000000 160.000000 0.667554 -0.590593 0.453401
-10.30000019 8.06999969 0.23999999 227 246 19 0.000000 0.000000 0.000000 0.000000 0.000000 0.000000 160.000000 0.915953 -0.135232 0.377813
-10.36999989 8.06000042 0.31999999 227 246 19 0.000000 0.000000 0.000000 0.000000 0.000000 0.000000 160.000000 0.746321 -0.663237 0.055867
-10.35999966 8.06000042 0.25999999 227 246 19 0.000000 0.000000 0.000000 0.000000 0.000000 0.000000 160.000000 0.816204 -0.571487 0.084931
-10.35999966 8.03999996 0.28000000 227 246 19 0.000000 0.000000 0.000000 0.000000 0.000000 0.000000 160.000000 0.675563 -0.561572 0.477756
-10.32999992 8.02999973 0.20000000 227 246 19 0.000000 0.000000 0.000000 0.000000 0.000000 0.000000 160.000000 0.939501 -0.058637 0.337491
-10.36999989 8.02000046 0.22000000 227 246 19 0.000000 0.000000 0.000000 0.000000 0.000000 0.000000 160.000000 0.931780 -0.296539 0.209405
-10.35999966 8.03999996 0.22000000 227 246 19 0.000000 0.000000 0.000000 0.000000 0.000000 0.000000 160.000000 0.752379 -0.519617 0.404875
-10.36999989 8.03999996 0.23000000 227 246 19 0.000000 0.000000 0.000000 0.000000 0.000000 0.000000 160.000000 0.878920 -0.473265 0.059331
-10.38000011 8.02999973 0.19000000 227 246 19 0.000000 0.000000 0.000000 0.000000 0.000000 0.000000 160.000000 0.940557 -0.072149 0.331884
-10.36999989 8.01000023 0.27000001 227 246 19 0.000000 0.000000 0.000000 0.000000 0.000000 0.000000 160.000000 0.986234 -0.113292 0.120447
-10.36999989 8.01000023 0.27000001 227 246 19 0.000000 0.000000 0.000000 0.000000 0.000000 0.000000 160.000000 0.986234 -0.113292 0.120447
-10.38000011 7.92999983 0.25999999 227 246 19 0.000000 0.000000 0.000000 0.000000 0.000000 0.000000 160.000000 0.720345 -0.691817 0.049925
-10.35999966 7.92999983 0.25000000 227 246 19 0.000000 0.000000 0.000000 0.000000 0.000000 0.000000 160.000000 0.950879 -0.309560 0.001233
-10.30000019 8.00000000 0.22000000 227 246 19 0.000000 0.000000 0.000000 0.000000 0.000000 0.000000 160.000000 0.971088 -0.047758 0.233894
-10.31000042 7.92999983 0.23000000 227 246 19 0.000000 0.000000 0.000000 0.000000 0.000000 0.000000 160.000000 -0.622958 0.763086 -0.172113
-10.38000011 8.00000000 0.20000000 227 246 19 0.000000 0.000000 0.000000 0.000000 0.000000 0.000000 160.000000 0.940843 -0.116767 0.318088
-10.35999966 7.98999977 0.17000000 227 246 19 0.000000 0.000000 0.000000 0.000000 0.000000 0.000000 160.000000 0.888302 -0.434823 0.147811
-10.35999966 7.98999977 0.17000000 227 246 19 0.000000 0.000000 0.000000 0.000000 0.000000 0.000000 160.000000 0.888302 -0.434823 0.147811
-10.35999966 7.96999979 0.18000001 227 246 19 0.000000 0.000000 0.000000 0.000000 0.000000 0.000000 160.000000 0.996086 -0.005315 0.088234
-10.35000038 7.92000008 0.44999999 227 246 19 0.000000 0.000000 0.000000 0.000000 0.000000 0.000000 160.000000 0.859228 -0.510038 -0.039868
-10.31999969 7.92000008 0.47000000 227 246 19 0.000000 0.000000 0.000000 0.000000 0.000000 0.000000 160.000000 0.806087 -0.431088 0.405447
-10.35999966 7.90000010 0.23999999 227 246 19 0.000000 0.000000 0.000000 0.000000 0.000000 0.000000 160.000000 -0.677667 0.711474 -0.185936
-10.34000015 7.84999990 0.15000001 227 246 19 0.000000 0.000000 0.000000 0.000000 0.000000 0.000000 160.000000 -0.766828 0.482333 -0.423472
-10.25000000 7.98000002 0.09000000 227 246 19 0.000000 0.000000 0.000000 0.000000 0.000000 0.000000 160.000000 0.904769 -0.275109 0.325128
-10.22999954 8.00000000 0.01000000 227 246 19 0.000000 0.000000 0.000000 0.000000 0.000000 0.000000 160.000000 0.976680 -0.020077 -0.213759
-10.27000046 8.01000023 0.06000000 227 246 19 0.000000 0.000000 0.000000 0.000000 0.000000 0.000000 160.000000 0.784965 -0.539763 0.304114
-10.28999996 7.92999983 0.00000000 227 246 19 0.000000 0.000000 0.000000 0.000000 0.000000 0.000000 160.000000 0.968966 -0.196360 -0.150158
-10.31999969 8.02999973 0.12000000 227 246 19 0.000000 0.000000 0.000000 0.000000 0.000000 0.000000 160.000000 0.816230 -0.499765 0.289832
-10.31000042 8.02000046 0.03000000 227 246 19 0.000000 0.000000 0.000000 0.000000 0.000000 0.000000 160.000000 0.998128 -0.001036 -0.061152
-10.31000042 8.03999996 0.06000000 227 246 19 0.000000 0.000000 0.000000 0.000000 0.000000 0.000000 160.000000 0.920776 -0.114237 0.372990
-10.34000015 8.02000046 -0.01000000 227 246 19 0.000000 0.000000 0.000000 0.000000 0.000000 0.000000 160.000000 0.919500 -0.213072 0.330334
-10.34000015 8.02000046 -0.01000000 227 246 19 0.000000 0.000000 0.000000 0.000000 0.000000 0.000000 160.000000 0.919500 -0.213072 0.330334
-10.35000038 8.00000000 0.14000000 227 246 19 0.000000 0.000000 0.000000 0.000000 0.000000 0.000000 160.000000 0.810410 -0.512580 0.283722
-10.35000038 7.98999977 0.11000000 227 246 19 0.000000 0.000000 0.000000 0.000000 0.000000 0.000000 160.000000 0.859359 -0.189148 0.475105
-10.35000038 7.98999977 0.11000000 227 246 19 0.000000 0.000000 0.000000 0.000000 0.000000 0.000000 160.000000 0.859359 -0.189148 0.475105
-10.35000038 7.92999983 0.09000000 227 246 19 0.000000 0.000000 0.000000 0.000000 0.000000 0.000000 160.000000 0.962858 -0.228011 -0.144624
-10.34000015 7.94000006 0.06000000 227 246 19 0.000000 0.000000 0.000000 0.000000 0.000000 0.000000 160.000000 0.966288 -0.003592 0.257437
-10.32999992 7.92999983 0.00000000 227 246 19 0.000000 0.000000 0.000000 0.000000 0.000000 0.000000 160.000000 0.885040 -0.450334 0.117911
-10.32999992 7.92999983 0.00000000 227 246 19 0.000000 0.000000 0.000000 0.000000 0.000000 0.000000 160.000000 0.885040 -0.450334 0.117911
-10.35000038 7.98999977 0.02000000 227 246 19 0.000000 0.000000 0.000000 0.000000 0.000000 0.000000 160.000000 0.980726 -0.008086 0.195221
-10.35000038 8.01000023 0.02000000 227 246 19 0.000000 0.000000 0.000000 0.000000 0.000000 0.000000 160.000000 0.828359 -0.407052 0.384878
-10.25000000 8.02000046 -0.06000000 227 246 19 0.000000 0.000000 0.000000 0.000000 0.000000 0.000000 160.000000 0.980153 0.093987 0.174548
-10.25000000 8.02999973 -0.08000000 227 246 19 0.000000 0.000000 0.000000 0.000000 0.000000 0.000000 160.000000 0.999291 -0.003044 -0.037537
-10.25000000 8.02000046 -0.08000000 227 246 19 0.000000 0.000000 0.000000 0.000000 0.000000 0.000000 160.000000 0.985586 0.168990 0.007939
-10.26000023 7.94000006 -0.09000000 227 246 19 0.000000 0.000000 0.000000 0.000000 0.000000 0.000000 160.000000 0.945462 -0.305375 0.113349
-10.22999954 8.00000000 -0.11000000 227 246 19 0.000000 0.000000 0.000000 0.000000 0.000000 0.000000 160.000000 0.983582 -0.139129 -0.114933
-10.25000000 7.98000002 -0.14000000 227 246 19 0.000000 0.000000 0.000000 0.000000 0.000000 0.000000 160.000000 0.974640 0.119165 -0.189409
-10.25000000 8.00000000 -0.19000000 227 246 19 0.000000 0.000000 0.000000 0.000000 0.000000 0.000000 160.000000 0.845940 -0.286104 -0.450034
-10.25000000 7.96999979 -0.15000001 227 246 19 0.000000 0.000000 0.000000 0.000000 0.000000 0.000000 160.000000 0.947921 -0.095975 -0.303703
-10.34000015 8.02000046 -0.18000001 227 246 19 0.000000 0.000000 0.000000 0.000000 0.000000 0.000000 160.000000 0.938502 -0.056127 -0.340680
-10.35999966 8.05000019 -0.12000000 227 246 19 0.000000 0.000000 0.000000 0.000000 0.000000 0.000000 160.000000 0.973346 -0.127507 0.190629
-10.36999989 8.03999996 -0.19000000 227 246 19 0.000000 0.000000 0.000000 0.000000 0.000000 0.000000 160.000000 0.928512 -0.213402 -0.303851
-10.31000042 8.01000023 -0.04000000 227 246 19 0.000000 0.000000 0.000000 0.000000 0.000000 0.000000 160.000000 0.854165 -0.421677 0.304287
-10.32999992 7.94999981 -0.03000000 227 246 19 0.000000 0.000000 0.000000 0.000000 0.000000 0.000000 160.000000 0.912647 -0.162720 0.374963
-10.34000015 7.96000004 -0.10000000 227 246 19 0.000000 0.000000 0.000000 0.000000 0.000000 0.000000 160.000000 0.908371 -0.405103 -0.103695
-10.35000038 7.96000004 -0.04000000 227 246 19 0.000000 0.000000 0.000000 0.000000 0.000000 0.000000 160.000000 0.882560 -0.351515 0.312290
-10.35999966 7.92999983 -0.10000000 227 246 19 0.000000 0.000000 0.000000 0.000000 0.000000 0.000000 160.000000 0.881725 -0.281851 -0.378313
-10.35000038 7.94999981 -0.09000000 227 246 19 0.000000 0.000000 0.000000 0.000000 0.000000 0.000000 160.000000 0.943366 -0.303659 -0.133610
-10.30000019 7.94999981 -0.17000000 227 246 19 0.000000 0.000000 0.000000 0.000000 0.000000 0.000000 160.000000 0.970851 -0.020401 0.238813
-10.36999989 8.01000023 -0.12000000 227 246 19 0.000000 0.000000 0.000000 0.000000 0.000000 0.000000 160.000000 0.984598 0.165864 -0.055288
-10.38000011 7.92999983 -0.18000001 227 246 19 0.000000 0.000000 0.000000 0.000000 0.000000 0.000000 160.000000 0.802769 -0.594696 -0.043583
-10.35999966 7.92999983 -0.19000000 227 246 19 0.000000 0.000000 0.000000 0.000000 0.000000 0.000000 160.000000 0.822972 -0.540122 -0.176029
-10.28999996 7.92000008 0.08000000 227 246 19 0.000000 0.000000 0.000000 0.000000 0.000000 0.000000 160.000000 0.921336 -0.382214 0.071078
-10.25000000 7.90999985 0.07000000 227 246 19 0.000000 0.000000 0.000000 0.000000 0.000000 0.000000 160.000000 0.812096 -0.327688 0.482825
-10.27000046 7.90999985 0.04000000 227 246 19 0.000000 0.000000 0.000000 0.000000 0.000000 0.000000 160.000000 0.996404 -0.084188 0.009591
-10.26000023 7.92000008 0.02000000 227 246 19 0.000000 0.000000 0.000000 0.000000 0.000000 0.000000 160.000000 0.873164 -0.358104 -0.330675
-10.35000038 7.90999985 0.01000000 227 246 19 0.000000 0.000000 0.000000 0.000000 0.000000 0.000000 160.000000 0.927161 -0.358066 -0.110279
-10.26000023 7.92000008 -0.05000000 227 246 19 0.000000 0.000000 0.000000 0.000000 0.000000 0.000000 160.000000 0.932086 -0.168081 0.320882
-10.26000023 7.90999985 -0.06000000 227 246 19 0.000000 0.000000 0.000000 0.000000 0.000000 0.000000 160.000000 0.928359 -0.130658 0.347963
-10.26000023 7.90999985 -0.04000000 227 246 19 0.000000 0.000000 0.000000 0.000000 0.000000 0.000000 160.000000 0.856971 -0.465385 -0.221397
-10.26000023 7.92000008 -0.05000000 227 246 19 0.000000 0.000000 0.000000 0.000000 0.000000 0.000000 160.000000 0.932086 -0.168081 0.320882
-10.27000046 7.90000010 -0.13000000 227 246 19 0.000000 0.000000 0.000000 0.000000 0.000000 0.000000 160.000000 0.833699 -0.540817 -0.111643
-10.32999992 7.90999985 -0.06000000 227 246 19 0.000000 0.000000 0.000000 0.000000 0.000000 0.000000 160.000000 0.822094 -0.569351 -0.001359
-10.35000038 7.90999985 -0.08000000 227 246 19 0.000000 0.000000 0.000000 0.000000 0.000000 0.000000 160.000000 0.965966 -0.068908 -0.249322
-10.32999992 7.84999990 -0.13000000 227 246 19 0.000000 0.000000 0.000000 0.000000 0.000000 0.000000 160.000000 0.958485 -0.283950 0.026039
-10.39999962 8.18000031 0.38999999 227 246 19 0.000000 0.000000 0.000000 0.000000 0.000000 0.000000 160.000000 0.994003 -0.103057 0.036569
-10.39999962 8.17000008 0.38999999 227 246 19 0.000000 0.000000 0.000000 0.000000 0.000000 0.000000 160.000000 0.869342 -0.293841 0.397370
-10.39000034 8.03999996 0.44000000 227 246 19 0.000000 0.000000 0.000000 0.000000 0.000000 0.000000 160.000000 0.732494 -0.648869 0.205966
-10.39000034 8.02000046 0.43000001 227 246 19 0.000000 0.000000 0.000000 0.000000 0.000000 0.000000 160.000000 0.941398 -0.242628 0.234310
-10.43999958 8.10000038 0.36000001 227 246 19 0.000000 0.000000 0.000000 0.000000 0.000000 0.000000 160.000000 0.695752 -0.593290 0.404891
-10.39000034 8.10000038 0.37000000 227 246 19 0.000000 0.000000 0.000000 0.000000 0.000000 0.000000 160.000000 0.929239 -0.056677 0.365105
-10.39000034 7.98000002 0.44999999 227 246 19 0.000000 0.000000 0.000000 0.000000 0.000000 0.000000 160.000000 0.947129 -0.225507 0.228240
-10.39999962 7.96000004 0.47000000 227 246 19 0.000000 0.000000 0.000000 0.000000 0.000000 0.000000 160.000000 -0.646551 0.762057 0.035215
-10.39000034 8.01000023 0.37000000 227 246 19 0.000000 0.000000 0.000000 0.000000 0.000000 0.000000 160.000000 0.945457 -0.276155 0.172767
-10.39000034 8.01000023 0.30000001 227 246 19 0.000000 0.000000 0.000000 0.000000 0.000000 0.000000 160.000000 0.897306 -0.264609 0.353305
-10.39999962 8.00000000 0.28999999 227 246 19 0.000000 0.000000 0.000000 0.000000 0.000000 0.000000 160.000000 0.868249 -0.437886 0.233238
-10.40999985 7.94999981 0.18000001 227 246 19 0.000000 0.000000 0.000000 0.000000 0.000000 0.000000 160.000000 0.784556 -0.612798 0.094612
-10.47999954 7.90999985 0.20000000 227 246 19 0.000000 0.000000 0.000000 0.000000 0.000000 0.000000 160.000000 -0.705680 0.708464 -0.009743
-10.56000042 7.96999979 0.20000000 227 246 19 0.000000 0.000000 0.000000 0.000000 0.000000 0.000000 160.000000 0.779429 -0.380802 0.497474
-10.61999989 7.96000004 0.19000000 227 246 19 0.000000 0.000000 0.000000 0.000000 0.000000 0.000000 160.000000 0.836032 -0.437623 0.330962
-10.65999985 7.92999983 0.17000000 227 246 19 0.000000 0.000000 0.000000 0.000000 0.000000 0.000000 160.000000 0.617221 -0.427563 0.660476
-10.69999981 7.96999979 0.20000000 227 246 19 0.000000 0.000000 0.000000 0.000000 0.000000 0.000000 160.000000 0.589841 -0.528998 0.610122
-10.59000015 7.88999987 0.20999999 227 246 19 0.000000 0.000000 0.000000 0.000000 0.000000 0.000000 160.000000 0.907954 -0.291895 0.300695
-10.59000015 7.84000015 0.20999999 227 246 19 0.000000 0.000000 0.000000 0.000000 0.000000 0.000000 160.000000 -0.685317 0.720688 -0.104640
-10.60000038 7.82000017 0.23000000 227 246 19 0.000000 0.000000 0.000000 0.000000 0.000000 0.000000 160.000000 0.828381 -0.225087 0.512953
-10.63000011 7.82999992 0.22000000 227 246 19 0.000000 0.000000 0.000000 0.000000 0.000000 0.000000 160.000000 -0.765465 0.340028 -0.546300
-10.63000011 7.80999994 0.19000000 227 246 19 0.000000 0.000000 0.000000 0.000000 0.000000 0.000000 160.000000 0.800122 -0.281379 0.529747
-10.65999985 7.92000008 0.19000000 227 246 19 0.000000 0.000000 0.000000 0.000000 0.000000 0.000000 160.000000 0.588994 -0.688542 0.423080
-10.65999985 7.78999996 0.23000000 227 246 19 0.000000 0.000000 0.000000 0.000000 0.000000 0.000000 160.000000 0.874765 -0.430677 0.222044
-10.69999981 7.78999996 0.17000000 227 246 19 0.000000 0.000000 0.000000 0.000000 0.000000 0.000000 160.000000 -0.329530 0.803925 -0.495091
-10.10000038 8.14000034 -0.23000000 227 246 19 0.000000 0.000000 0.000000 0.000000 0.000000 0.000000 160.000000 0.895032 -0.287423 -0.341036
-10.34000015 8.11999989 -0.25000000 227 246 19 0.000000 0.000000 0.000000 0.000000 0.000000 0.000000 160.000000 0.938321 -0.089174 -0.334069
-10.30000019 8.17000008 -0.36000001 227 246 19 0.000000 0.000000 0.000000 0.000000 0.000000 0.000000 160.000000 0.971986 -0.151594 -0.179620
-10.30000019 8.11999989 -0.34999999 227 246 19 0.000000 0.000000 0.000000 0.000000 0.000000 0.000000 160.000000 0.977686 0.158173 0.138246
-10.27999973 8.18999958 -0.37000000 227 246 19 0.000000 0.000000 0.000000 0.000000 0.000000 0.000000 160.000000 0.839134 0.168423 -0.517193
-10.32999992 8.21000004 -0.38999999 227 246 19 0.000000 0.000000 0.000000 0.000000 0.000000 0.000000 160.000000 0.866779 0.402051 -0.295041
-10.32999992 8.19999981 -0.40000001 227 246 19 0.000000 0.000000 0.000000 0.000000 0.000000 0.000000 160.000000 0.863104 0.400125 -0.308142
-10.31999969 8.14999962 -0.41999999 227 246 19 0.000000 0.000000 0.000000 0.000000 0.000000 0.000000 160.000000 0.912869 0.366002 -0.180865
-10.30000019 8.14000034 -0.38000000 227 246 19 0.000000 0.000000 0.000000 0.000000 0.000000 0.000000 160.000000 0.838175 0.081114 -0.539335
-10.32999992 8.14999962 -0.46000001 227 246 19 0.000000 0.000000 0.000000 0.000000 0.000000 0.000000 160.000000 0.751386 0.107763 -0.651004
-10.35000038 8.11999989 -0.50000000 227 246 19 0.000000 0.000000 0.000000 0.000000 0.000000 0.000000 160.000000 0.803757 -0.006870 -0.594918
-10.31999969 8.10999966 -0.55000001 227 246 19 0.000000 0.000000 0.000000 0.000000 0.000000 0.000000 160.000000 0.898890 -0.233154 -0.370994
-10.32999992 8.10999966 -0.58999997 227 246 19 0.000000 0.000000 0.000000 0.000000 0.000000 0.000000 160.000000 0.768457 0.546136 -0.333481
-10.35999966 8.13000011 -0.56000000 227 246 19 0.000000 0.000000 0.000000 0.000000 0.000000 0.000000 160.000000 0.768196 0.158469 -0.620292
-10.34000015 8.11999989 -0.63000000 227 246 19 0.000000 0.000000 0.000000 0.000000 0.000000 0.000000 160.000000 0.749700 0.466297 -0.469592
-10.35000038 8.10999966 -0.75999999 227 246 19 0.000000 0.000000 0.000000 0.000000 0.000000 0.000000 160.000000 0.740873 -0.004154 -0.671632
-10.35999966 8.11999989 -0.87000000 227 246 19 0.000000 0.000000 0.000000 0.000000 0.000000 0.000000 160.000000 0.789021 0.200702 -0.580658
-10.18000031 8.06999969 -0.28000000 227 246 19 0.000000 0.000000 0.000000 0.000000 0.000000 0.000000 160.000000 0.908505 0.371726 -0.190887
-10.25000000 8.03999996 -0.23999999 227 246 19 0.000000 0.000000 0.000000 0.000000 0.000000 0.000000 160.000000 0.916862 0.301770 -0.261342
-10.27999973 8.10000038 -0.20999999 227 246 19 0.000000 0.000000 0.000000 0.000000 0.000000 0.000000 160.000000 0.941326 -0.248155 0.228746
-10.27000046 8.06000042 -0.25999999 227 246 19 0.000000 0.000000 0.000000 0.000000 0.000000 0.000000 160.000000 0.855572 -0.023197 -0.517164
-10.27000046 8.06000042 -0.25999999 227 246 19 0.000000 0.000000 0.000000 0.000000 0.000000 0.000000 160.000000 0.855572 -0.023197 -0.517164
-10.28999996 8.06000042 -0.28000000 227 246 19 0.000000 0.000000 0.000000 0.000000 0.000000 0.000000 160.000000 0.931068 0.314078 -0.185655
-10.26000023 8.02000046 -0.25999999 227 246 19 0.000000 0.000000 0.000000 0.000000 0.000000 0.000000 160.000000 0.984814 -0.142397 0.099319
-10.27999973 8.07999992 -0.33000001 227 246 19 0.000000 0.000000 0.000000 0.000000 0.000000 0.000000 160.000000 0.913511 0.391110 -0.111943
-10.26000023 8.05000019 -0.31999999 227 246 19 0.000000 0.000000 0.000000 0.000000 0.000000 0.000000 160.000000 0.979888 -0.046435 0.194073
-10.26000023 8.02000046 -0.34000000 227 246 19 0.000000 0.000000 0.000000 0.000000 0.000000 0.000000 160.000000 0.981963 -0.073317 0.174277
-10.26000023 8.05000019 -0.33000001 227 246 19 0.000000 0.000000 0.000000 0.000000 0.000000 0.000000 160.000000 0.841310 0.108230 -0.529607
-10.27999973 8.03999996 -0.36000001 227 246 19 0.000000 0.000000 0.000000 0.000000 0.000000 0.000000 160.000000 0.975845 0.154477 -0.154477
-10.25000000 8.01000023 -0.20000000 227 246 19 0.000000 0.000000 0.000000 0.000000 0.000000 0.000000 160.000000 0.945144 0.269455 -0.184652
-10.25000000 7.94000006 -0.20000000 227 246 19 0.000000 0.000000 0.000000 0.000000 0.000000 0.000000 160.000000 0.977450 -0.206975 0.041874
-10.27999973 7.98000002 -0.23000000 227 246 19 0.000000 0.000000 0.000000 0.000000 0.000000 0.000000 160.000000 0.971948 0.214456 0.096568
-10.27999973 7.98999977 -0.23999999 227 246 19 0.000000 0.000000 0.000000 0.000000 0.000000 0.000000 160.000000 0.916522 -0.396226 -0.054698
-10.27999973 7.98000002 -0.25999999 227 246 19 0.000000 0.000000 0.000000 0.000000 0.000000 0.000000 160.000000 0.896961 -0.377281 -0.230479
-10.27000046 7.98999977 -0.23999999 227 246 19 0.000000 0.000000 0.000000 0.000000 0.000000 0.000000 160.000000 0.976505 -0.213424 -0.029808
-10.27999973 7.98999977 -0.23999999 227 246 19 0.000000 0.000000 0.000000 0.000000 0.000000 0.000000 160.000000 0.916522 -0.396226 -0.054698
-10.27999973 7.98000002 -0.23999999 227 246 19 0.000000 0.000000 0.000000 0.000000 0.000000 0.000000 160.000000 0.939253 -0.339067 0.053263
-10.28999996 7.94000006 -0.20000000 227 246 19 0.000000 0.000000 0.000000 0.000000 0.000000 0.000000 160.000000 0.836441 -0.525551 0.155445
-10.27999973 7.96999979 -0.27000001 227 246 19 0.000000 0.000000 0.000000 0.000000 0.000000 0.000000 160.000000 0.992774 0.027793 -0.116732
-10.27000046 7.96000004 -0.25999999 227 246 19 0.000000 0.000000 0.000000 0.000000 0.000000 0.000000 160.000000 0.958720 -0.190148 -0.211424
-10.27999973 7.96999979 -0.25999999 227 246 19 0.000000 0.000000 0.000000 0.000000 0.000000 0.000000 160.000000 0.896019 -0.406755 -0.178046
-10.27000046 7.98999977 -0.34999999 227 246 19 0.000000 0.000000 0.000000 0.000000 0.000000 0.000000 160.000000 0.898137 -0.364269 -0.246287
-10.27000046 7.98999977 -0.34999999 227 246 19 0.000000 0.000000 0.000000 0.000000 0.000000 0.000000 160.000000 0.898137 -0.364269 -0.246287
-10.34000015 8.06000042 -0.23000000 227 246 19 0.000000 0.000000 0.000000 0.000000 0.000000 0.000000 160.000000 0.966267 -0.178168 -0.185971
-10.31999969 8.05000019 -0.20999999 227 246 19 0.000000 0.000000 0.000000 0.000000 0.000000 0.000000 160.000000 0.955999 -0.293304 0.006136
-10.36999989 8.03999996 -0.20000000 227 246 19 0.000000 0.000000 0.000000 0.000000 0.000000 0.000000 160.000000 0.888298 -0.261264 -0.377713
-10.30000019 8.06000042 -0.30000001 227 246 19 0.000000 0.000000 0.000000 0.000000 0.000000 0.000000 160.000000 0.962175 0.085385 -0.258704
-10.32999992 7.92999983 -0.20000000 227 246 19 0.000000 0.000000 0.000000 0.000000 0.000000 0.000000 160.000000 0.941765 -0.094309 0.322777
-10.31999969 7.94000006 -0.28000000 227 246 19 0.000000 0.000000 0.000000 0.000000 0.000000 0.000000 160.000000 0.999780 0.000997 0.020933
-10.38000011 8.00000000 -0.20999999 227 246 19 0.000000 0.000000 0.000000 0.000000 0.000000 0.000000 160.000000 0.953118 0.136919 -0.269851
-10.36999989 8.00000000 -0.27000001 227 246 19 0.000000 0.000000 0.000000 0.000000 0.000000 0.000000 160.000000 0.913831 0.052181 -0.402728
-10.31999969 7.94999981 -0.30000001 227 246 19 0.000000 0.000000 0.000000 0.000000 0.000000 0.000000 160.000000 0.864637 -0.486448 -0.125582
-10.28999996 8.07999992 -0.41999999 227 246 19 0.000000 0.000000 0.000000 0.000000 0.000000 0.000000 160.000000 0.851833 0.449707 -0.268596
-10.28999996 8.05000019 -0.38000000 227 246 19 0.000000 0.000000 0.000000 0.000000 0.000000 0.000000 160.000000 0.893196 0.302702 -0.332525
-10.28999996 8.03999996 -0.44000000 227 246 19 0.000000 0.000000 0.000000 0.000000 0.000000 0.000000 160.000000 0.892881 0.162998 -0.419755
-10.28999996 8.03999996 -0.47000000 227 246 19 0.000000 0.000000 0.000000 0.000000 0.000000 0.000000 160.000000 0.854772 -0.196104 -0.480529
-10.28999996 8.01000023 -0.41999999 227 246 19 0.000000 0.000000 0.000000 0.000000 0.000000 0.000000 160.000000 0.945248 0.042210 -0.323610
-10.30000019 8.07999992 -0.41000000 227 246 19 0.000000 0.000000 0.000000 0.000000 0.000000 0.000000 160.000000 0.928078 0.277144 -0.248719
-10.30000019 8.07999992 -0.43000001 227 246 19 0.000000 0.000000 0.000000 0.000000 0.000000 0.000000 160.000000 0.865200 0.443885 -0.233228
-10.30000019 8.06000042 -0.41000000 227 246 19 0.000000 0.000000 0.000000 0.000000 0.000000 0.000000 160.000000 0.924566 0.374896 -0.068042
-10.30000019 8.07999992 -0.41000000 227 246 19 0.000000 0.000000 0.000000 0.000000 0.000000 0.000000 160.000000 0.928078 0.277144 -0.248719
-10.30000019 8.07999992 -0.41999999 227 246 19 0.000000 0.000000 0.000000 0.000000 0.000000 0.000000 160.000000 0.935852 0.303632 -0.178852
-10.31000042 8.06999969 -0.50999999 227 246 19 0.000000 0.000000 0.000000 0.000000 0.000000 0.000000 160.000000 0.889515 0.417825 -0.184891
-10.31999969 8.05000019 -0.50999999 227 246 19 0.000000 0.000000 0.000000 0.000000 0.000000 0.000000 160.000000 0.938856 0.333314 -0.086316
-10.31999969 8.01000023 -0.40000001 227 246 19 0.000000 0.000000 0.000000 0.000000 0.000000 0.000000 160.000000 0.882319 -0.357452 -0.306172
-10.30000019 8.01000023 -0.44999999 227 246 19 0.000000 0.000000 0.000000 0.000000 0.000000 0.000000 160.000000 0.815415 -0.037764 -0.577644
-10.31000042 7.94000006 -0.40000001 227 246 19 0.000000 0.000000 0.000000 0.000000 0.000000 0.000000 160.000000 0.940418 -0.274807 0.200236
-10.34000015 7.96000004 -0.37000000 227 246 19 0.000000 0.000000 0.000000 0.000000 0.000000 0.000000 160.000000 0.864976 -0.321101 -0.385629
-10.31000042 7.94999981 -0.41999999 227 246 19 0.000000 0.000000 0.000000 0.000000 0.000000 0.000000 160.000000 0.955662 0.280621 0.089230
-10.35999966 7.98000002 -0.43000001 227 246 19 0.000000 0.000000 0.000000 0.000000 0.000000 0.000000 160.000000 0.990313 -0.133027 -0.039794
-10.35999966 7.96000004 -0.41999999 227 246 19 0.000000 0.000000 0.000000 0.000000 0.000000 0.000000 160.000000 0.993487 0.071044 -0.089087
-10.35000038 8.01000023 -0.47999999 227 246 19 0.000000 0.000000 0.000000 0.000000 0.000000 0.000000 160.000000 0.872571 -0.248660 -0.420462
-10.38000011 7.90000010 -0.28000000 227 246 19 0.000000 0.000000 0.000000 0.000000 0.000000 0.000000 160.000000 0.949704 -0.275374 0.149105
-10.32999992 8.06999969 -0.55000001 227 246 19 0.000000 0.000000 0.000000 0.000000 0.000000 0.000000 160.000000 0.867308 -0.217201 -0.447884
-10.32999992 8.03999996 -0.56999999 227 246 19 0.000000 0.000000 0.000000 0.000000 0.000000 0.000000 160.000000 0.840300 0.081044 -0.536029
-10.31999969 8.02000046 -0.56000000 227 246 19 0.000000 0.000000 0.000000 0.000000 0.000000 0.000000 160.000000 0.935151 -0.286556 -0.208277
-10.34000015 8.09000015 -0.69999999 227 246 19 0.000000 0.000000 0.000000 0.000000 0.000000 0.000000 160.000000 0.934569 0.254371 -0.248750
-10.34000015 8.07999992 -0.69999999 227 246 19 0.000000 0.000000 0.000000 0.000000 0.000000 0.000000 160.000000 0.783676 0.004132 -0.621156
-10.32999992 8.07999992 -0.69000000 227 246 19 0.000000 0.000000 0.000000 0.000000 0.000000 0.000000 160.000000 0.847394 0.040089 -0.529449
-10.34000015 8.07999992 -0.69999999 227 246 19 0.000000 0.000000 0.000000 0.000000 0.000000 0.000000 160.000000 0.783676 0.004132 -0.621156
-10.34000015 8.09000015 -0.69999999 227 246 19 0.000000 0.000000 0.000000 0.000000 0.000000 0.000000 160.000000 0.934569 0.254371 -0.248750
-10.36999989 8.09000015 -0.69999999 227 246 19 0.000000 0.000000 0.000000 0.000000 0.000000 0.000000 160.000000 0.967289 -0.008411 -0.253538
-10.36999989 8.01000023 -0.58999997 227 246 19 0.000000 0.000000 0.000000 0.000000 0.000000 0.000000 160.000000 0.904338 -0.286741 -0.316151
-10.32999992 8.06000042 -0.79000002 227 246 19 0.000000 0.000000 0.000000 0.000000 0.000000 0.000000 160.000000 0.867610 -0.056734 -0.493998
-10.31999969 8.05000019 -0.77999997 227 246 19 0.000000 0.000000 0.000000 0.000000 0.000000 0.000000 160.000000 0.858564 -0.074474 -0.507269
-10.35000038 8.10000038 -0.75000000 227 246 19 0.000000 0.000000 0.000000 0.000000 0.000000 0.000000 160.000000 0.909534 0.357162 -0.212562
-10.35000038 8.07999992 -0.77999997 227 246 19 0.000000 0.000000 0.000000 0.000000 0.000000 0.000000 160.000000 0.664461 0.470311 -0.580775
-10.32999992 8.02999973 -0.88000000 227 246 19 0.000000 0.000000 0.000000 0.000000 0.000000 0.000000 160.000000 0.645978 0.336820 -0.685029
-10.35999966 8.06999969 -0.81000000 227 246 19 0.000000 0.000000 0.000000 0.000000 0.000000 0.000000 160.000000 0.942318 0.231082 -0.242152
-10.35000038 8.09000015 -0.80000001 227 246 19 0.000000 0.000000 0.000000 0.000000 0.000000 0.000000 160.000000 0.708205 0.382858 -0.593183
-10.35999966 8.09000015 -0.81999999 227 246 19 0.000000 0.000000 0.000000 0.000000 0.000000 0.000000 160.000000 0.952535 0.253920 -0.167936
-10.35999966 8.06000042 -0.81999999 227 246 19 0.000000 0.000000 0.000000 0.000000 0.000000 0.000000 160.000000 0.912319 0.232779 -0.336879
-10.35999966 8.06999969 -0.81000000 227 246 19 0.000000 0.000000 0.000000 0.000000 0.000000 0.000000 160.000000 0.942318 0.231082 -0.242152
-10.35999966 8.06999969 -0.81999999 227 246 19 0.000000 0.000000 0.000000 0.000000 0.000000 0.000000 160.000000 0.957688 0.086359 -0.274546
-10.35999966 8.07999992 -0.85000002 227 246 19 0.000000 0.000000 0.000000 0.000000 0.000000 0.000000 160.000000 0.742271 0.416396 -0.525021
-10.38000011 8.09000015 -0.83999997 227 246 19 0.000000 0.000000 0.000000 0.000000 0.000000 0.000000 160.000000 0.911222 0.077638 -0.404533
-10.35000038 8.02000046 -0.83999997 227 246 19 0.000000 0.000000 0.000000 0.000000 0.000000 0.000000 160.000000 0.956146 -0.031247 -0.291218
-10.35000038 8.07999992 -0.88999999 227 246 19 0.000000 0.000000 0.000000 0.000000 0.000000 0.000000 160.000000 0.672959 0.413745 -0.613140
-10.36999989 8.06000042 -0.95999998 227 246 19 0.000000 0.000000 0.000000 0.000000 0.000000 0.000000 160.000000 0.948505 0.079586 -0.306601
-10.36999989 8.05000019 -0.94000000 227 246 19 0.000000 0.000000 0.000000 0.000000 0.000000 0.000000 160.000000 0.859795 0.122828 -0.495647
-10.38000011 8.05000019 -1.04999995 227 246 19 0.000000 0.000000 0.000000 0.000000 0.000000 0.000000 160.000000 0.896318 0.141074 -0.420372
-10.38000011 8.02999973 -1.02999997 227 246 19 0.000000 0.000000 0.000000 0.000000 0.000000 0.000000 160.000000 0.944869 0.044872 -0.324358
-10.35999966 8.06000042 -1.00999999 227 246 19 0.000000 0.000000 0.000000 0.000000 0.000000 0.000000 160.000000 0.962817 0.015864 -0.269687
-10.42000008 8.11999989 -0.36000001 227 246 19 0.000000 0.000000 0.000000 0.000000 0.000000 0.000000 160.000000 0.992178 0.124435 -0.009911
-10.46000004 8.15999985 -0.31000000 227 246 19 0.000000 0.000000 0.000000 0.000000 0.000000 0.000000 160.000000 0.865741 0.441152 -0.236385
-10.40999985 8.10999966 -0.34999999 227 246 19 0.000000 0.000000 0.000000 0.000000 0.000000 0.000000 160.000000 0.823101 0.238469 -0.515400
-10.44999981 8.22999954 -0.38000000 227 246 19 0.000000 0.000000 0.000000 0.000000 0.000000 0.000000 160.000000 0.799672 0.544026 -0.254087
-10.46000004 8.22000027 -0.40000001 227 246 19 0.000000 0.000000 0.000000 0.000000 0.000000 0.000000 160.000000 0.906514 -0.191679 -0.376153
-10.44999981 8.18999958 -0.40000001 227 246 19 0.000000 0.000000 0.000000 0.000000 0.000000 0.000000 160.000000 0.948307 0.016285 -0.316937
-10.42000008 8.11999989 -0.37000000 227 246 19 0.000000 0.000000 0.000000 0.000000 0.000000 0.000000 160.000000 0.957319 0.242309 -0.157567
-10.46000004 8.17000008 -0.38999999 227 246 19 0.000000 0.000000 0.000000 0.000000 0.000000 0.000000 160.000000 0.883284 0.453732 -0.118056
-10.43000031 8.10999966 -0.49000001 227 246 19 0.000000 0.000000 0.000000 0.000000 0.000000 0.000000 160.000000 0.891303 0.451719 -0.039104
-10.44999981 8.14000034 -0.47000000 227 246 19 0.000000 0.000000 0.000000 0.000000 0.000000 0.000000 160.000000 0.888961 0.452084 -0.073274
-10.44999981 8.13000011 -0.47000000 227 246 19 0.000000 0.000000 0.000000 0.000000 0.000000 0.000000 160.000000 0.987927 0.138800 0.068817
-10.43000031 8.10999966 -0.50000000 227 246 19 0.000000 0.000000 0.000000 0.000000 0.000000 0.000000 160.000000 0.887840 0.242408 -0.391125
-10.48999977 8.19999981 -0.41999999 227 246 19 0.000000 0.000000 0.000000 0.000000 0.000000 0.000000 160.000000 0.907111 0.306278 -0.288693
-10.57999992 8.14999962 -0.38000000 227 246 19 0.000000 0.000000 0.000000 0.000000 0.000000 0.000000 160.000000 0.782218 0.269133 -0.561875
-10.59000015 8.14999962 -0.40000001 227 246 19 0.000000 0.000000 0.000000 0.000000 0.000000 0.000000 160.000000 0.886772 0.335739 -0.317672
-10.50000000 8.10999966 -0.85000002 227 246 19 0.000000 0.000000 0.000000 0.000000 0.000000 0.000000 160.000000 0.645945 0.645945 -0.406829
-10.39999962 8.06000042 -0.31000000 227 246 19 0.000000 0.000000 0.000000 0.000000 0.000000 0.000000 160.000000 0.917835 -0.162137 -0.362340
-10.40999985 8.06999969 -0.36000001 227 246 19 0.000000 0.000000 0.000000 0.000000 0.000000 0.000000 160.000000 0.835238 0.139943 -0.531783
-10.39999962 8.03999996 -0.31000000 227 246 19 0.000000 0.000000 0.000000 0.000000 0.000000 0.000000 160.000000 0.841408 0.142437 -0.521291
-10.42000008 8.05000019 -0.36000001 227 246 19 0.000000 0.000000 0.000000 0.000000 0.000000 0.000000 160.000000 0.856258 0.034360 -0.515404
-10.42000008 8.02000046 -0.36000001 227 246 19 0.000000 0.000000 0.000000 0.000000 0.000000 0.000000 160.000000 0.950368 0.008674 -0.311007
-10.40999985 8.02999973 -0.36000001 227 246 19 0.000000 0.000000 0.000000 0.000000 0.000000 0.000000 160.000000 0.850179 0.173597 -0.497051
-10.39000034 8.01000023 -0.28000000 227 246 19 0.000000 0.000000 0.000000 0.000000 0.000000 0.000000 160.000000 0.916970 0.210288 -0.339036
-10.42000008 8.02000046 -0.38000000 227 246 19 0.000000 0.000000 0.000000 0.000000 0.000000 0.000000 160.000000 0.943427 0.246531 -0.221740
-10.42000008 8.02000046 -0.38000000 227 246 19 0.000000 0.000000 0.000000 0.000000 0.000000 0.000000 160.000000 0.943427 0.246531 -0.221740
-10.42000008 8.05000019 -0.47000000 227 246 19 0.000000 0.000000 0.000000 0.000000 0.000000 0.000000 160.000000 0.849982 0.189715 -0.491466
-10.43000031 8.05000019 -0.47000000 227 246 19 0.000000 0.000000 0.000000 0.000000 0.000000 0.000000 160.000000 0.853568 0.025948 -0.520335
-10.43000031 8.02000046 -0.50999999 227 246 19 0.000000 0.000000 0.000000 0.000000 0.000000 0.000000 160.000000 0.927347 0.363110 -0.090440
-10.43000031 8.02999973 -0.51999998 227 246 19 0.000000 0.000000 0.000000 0.000000 0.000000 0.000000 160.000000 0.781566 0.466340 -0.414344
-10.52000046 8.09000015 -0.37000000 227 246 19 0.000000 0.000000 0.000000 0.000000 0.000000 0.000000 160.000000 0.767444 0.181562 -0.614870
-10.43999958 8.06000042 -0.55000001 227 246 19 0.000000 0.000000 0.000000 0.000000 0.000000 0.000000 160.000000 0.924682 -0.240788 -0.294930
-10.44999981 8.06999969 -0.56000000 227 246 19 0.000000 0.000000 0.000000 0.000000 0.000000 0.000000 160.000000 0.784431 -0.104102 -0.611417
-10.44999981 8.06000042 -0.57999998 227 246 19 0.000000 0.000000 0.000000 0.000000 0.000000 0.000000 160.000000 0.933914 0.075723 -0.349387
-10.46000004 8.09000015 -0.58999997 227 246 19 0.000000 0.000000 0.000000 0.000000 0.000000 0.000000 160.000000 0.819179 0.527164 -0.225928
-10.43999958 8.03999996 -0.55000001 227 246 19 0.000000 0.000000 0.000000 0.000000 0.000000 0.000000 160.000000 0.892607 0.047407 -0.448335
-10.47000027 7.96999979 -0.61000001 227 246 19 0.000000 0.000000 0.000000 0.000000 0.000000 0.000000 160.000000 0.837106 0.020551 -0.546654
-10.42000008 7.96999979 -0.63000000 227 246 19 0.000000 0.000000 0.000000 0.000000 0.000000 0.000000 160.000000 0.991665 0.032569 -0.124660
