//X Y Z R G B PointSourceId ScanDirectionFlag NumberOfReturns ReturnNumber GpsTime Intensity Classification Nx Ny Nz
-8.22000027 1.78999996 0.28999999 205 157 74 0.000000 0.000000 0.000000 0.000000 0.000000 0.000000 125.000000 -0.704397 0.575119 0.416008
-8.21000004 1.78999996 0.31999999 205 157 74 0.000000 0.000000 0.000000 0.000000 0.000000 0.000000 125.000000 0.721768 -0.690325 -0.050024
-8.17000008 1.79999995 0.20000000 205 157 74 0.000000 0.000000 0.000000 0.000000 0.000000 0.000000 125.000000 0.831726 -0.551178 -0.066595
-8.15999985 1.78999996 0.23000000 205 157 74 0.000000 0.000000 0.000000 0.000000 0.000000 0.000000 125.000000 -0.638612 0.760112 0.120018
-8.18000031 1.79999995 0.15000001 205 157 74 0.000000 0.000000 0.000000 0.000000 0.000000 0.000000 125.000000 0.870124 -0.434311 -0.232935
-8.18999958 1.79999995 0.15000001 205 157 74 0.000000 0.000000 0.000000 0.000000 0.000000 0.000000 125.000000 0.761569 -0.362111 -0.537483
-8.18000031 1.78999996 0.16000000 205 157 74 0.000000 0.000000 0.000000 0.000000 0.000000 0.000000 125.000000 0.808881 -0.223405 -0.543876
-8.15999985 1.80999994 0.16000000 205 157 74 0.000000 0.000000 0.000000 0.000000 0.000000 0.000000 125.000000 0.786362 -0.348958 -0.509768
-8.18000031 1.76999998 0.20999999 205 157 74 0.000000 0.000000 0.000000 0.000000 0.000000 0.000000 125.000000 0.907120 -0.408550 0.101099
-8.17000008 1.77999997 0.19000000 205 157 74 0.000000 0.000000 0.000000 0.000000 0.000000 0.000000 125.000000 0.822670 -0.565850 0.055033
-8.18000031 1.75000000 0.16000000 205 157 74 0.000000 0.000000 0.000000 0.000000 0.000000 0.000000 125.000000 0.887439 -0.393922 -0.239326
-8.17000008 1.75000000 0.18000001 205 157 74 0.000000 0.000000 0.000000 0.000000 0.000000 0.000000 125.000000 0.833469 -0.515813 0.198157
-8.19999981 1.80999994 0.20999999 205 157 74 0.000000 0.000000 0.000000 0.000000 0.000000 0.000000 125.000000 -0.693485 0.719117 -0.044144
-8.23999977 1.86000001 0.31000000 205 157 74 0.000000 0.000000 0.000000 0.000000 0.000000 0.000000 125.000000 0.835708 -0.534209 -0.127332
-8.18999958 1.72000003 0.20999999 205 157 74 0.000000 0.000000 0.000000 0.000000 0.000000 0.000000 125.000000 0.834759 -0.525259 -0.165166
-8.18000031 1.74000001 0.18000001 205 157 74 0.000000 0.000000 0.000000 0.000000 0.000000 0.000000 125.000000 0.874962 -0.480885 0.056494
-8.19999981 1.72000003 0.20000000 205 157 74 0.000000 0.000000 0.000000 0.000000 0.000000 0.000000 125.000000 0.781872 -0.622989 -0.023693
-8.19999981 1.71000004 0.20999999 205 157 74 0.000000 0.000000 0.000000 0.000000 0.000000 0.000000 125.000000 0.895019 -0.426943 -0.129076
-8.19999981 1.72000003 0.20999999 205 157 74 0.000000 0.000000 0.000000 0.000000 0.000000 0.000000 125.000000 0.835160 -0.532800 -0.136502
-8.22000027 1.70000005 0.18000001 205 157 74 0.000000 0.000000 0.000000 0.000000 0.000000 0.000000 125.000000 0.804108 -0.240148 -0.543819
-8.18000031 1.62000000 0.18000001 205 157 74 0.000000 0.000000 0.000000 0.000000 0.000000 0.000000 125.000000 0.990471 0.001102 -0.137718
-8.18000031 1.62000000 0.18000001 205 157 74 0.000000 0.000000 0.000000 0.000000 0.000000 0.000000 125.000000 0.990471 0.001102 -0.137718
-8.15999985 1.58000004 0.22000000 205 157 74 0.000000 0.000000 0.000000 0.000000 0.000000 0.000000 125.000000 0.997176 -0.046255 -0.059164
-8.21000004 1.63000000 0.23000000 205 157 74 0.000000 0.000000 0.000000 0.000000 0.000000 0.000000 125.000000 0.820301 -0.006824 -0.571891
-8.22999954 1.61000001 0.20999999 205 157 74 0.000000 0.000000 0.000000 0.000000 0.000000 0.000000 125.000000 0.910948 -0.409189 -0.052323
-8.21000004 1.61000001 0.23000000 205 157 74 0.000000 0.000000 0.000000 0.000000 0.000000 0.000000 125.000000 0.864936 -0.354885 -0.354885
-8.23999977 1.61000001 0.25999999 205 157 74 0.000000 0.000000 0.000000 0.000000 0.000000 0.000000 125.000000 0.992690 -0.120688 -0.001087
-8.26000023 1.63000000 0.22000000 205 157 74 0.000000 0.000000 0.000000 0.000000 0.000000 0.000000 125.000000 0.944992 -0.293367 0.144655
-8.01000023 1.85000002 0.13000000 205 157 74 0.000000 0.000000 0.000000 0.000000 0.000000 0.000000 125.000000 0.757273 -0.625173 0.188934
-8.03999996 1.83000004 0.13000000 205 157 74 0.000000 0.000000 0.000000 0.000000 0.000000 0.000000 125.000000 -0.416592 0.859318 0.296688
-8.02999973 1.83000004 0.14000000 205 157 74 0.000000 0.000000 0.000000 0.000000 0.000000 0.000000 125.000000 -0.472860 0.864700 -0.169405
-8.02999973 1.83000004 0.11000000 205 157 74 0.000000 0.000000 0.000000 0.000000 0.000000 0.000000 125.000000 -0.692714 0.720816 -0.023887
-8.03999996 1.83000004 0.14000000 205 157 74 0.000000 0.000000 0.000000 0.000000 0.000000 0.000000 125.000000 -0.543156 0.838921 0.034552
-8.05000019 1.83000004 0.13000000 205 157 74 0.000000 0.000000 0.000000 0.000000 0.000000 0.000000 125.000000 0.843977 -0.465802 -0.265953
-8.00000000 1.88999999 0.04000000 205 157 74 0.000000 0.000000 0.000000 0.000000 0.000000 0.000000 125.000000 -0.518533 0.834162 0.187874
-7.98999977 1.84000003 0.02000000 205 157 74 0.000000 0.000000 0.000000 0.000000 0.000000 0.000000 125.000000 -0.531946 0.817082 -0.222283
-7.98000002 1.84000003 0.00000000 205 157 74 0.000000 0.000000 0.000000 0.000000 0.000000 0.000000 125.000000 -0.274322 0.928146 0.251580
-8.02999973 1.84000003 -0.01000000 205 157 74 0.000000 0.000000 0.000000 0.000000 0.000000 0.000000 125.000000 0.742324 -0.667948 -0.052921
-8.02000046 1.80999994 0.09000000 205 157 74 0.000000 0.000000 0.000000 0.000000 0.000000 0.000000 125.000000 0.813670 -0.565582 0.134381
-8.02000046 1.80999994 0.10000000 205 157 74 0.000000 0.000000 0.000000 0.000000 0.000000 0.000000 125.000000 -0.664972 0.743204 -0.073886
-8.02000046 1.77999997 0.09000000 205 157 74 0.000000 0.000000 0.000000 0.000000 0.000000 0.000000 125.000000 -0.514387 0.844539 0.148863
-8.02000046 1.77999997 0.09000000 205 157 74 0.000000 0.000000 0.000000 0.000000 0.000000 0.000000 125.000000 -0.514387 0.844539 0.148863
-8.05000019 1.82000005 0.14000000 205 157 74 0.000000 0.000000 0.000000 0.000000 0.000000 0.000000 125.000000 -0.497263 0.855992 -0.141450
-8.05000019 1.82000005 0.12000000 205 157 74 0.000000 0.000000 0.000000 0.000000 0.000000 0.000000 125.000000 -0.560978 0.825135 0.066749
-8.05000019 1.82000005 0.11000000 205 157 74 0.000000 0.000000 0.000000 0.000000 0.000000 0.000000 125.000000 0.910594 -0.400882 -0.100565
-8.05000019 1.82000005 0.14000000 205 157 74 0.000000 0.000000 0.000000 0.000000 0.000000 0.000000 125.000000 -0.497263 0.855992 -0.141450
-8.05000019 1.82000005 0.09000000 205 157 74 0.000000 0.000000 0.000000 0.000000 0.000000 0.000000 125.000000 -0.680038 0.716388 0.156000
-8.05000019 1.75000000 0.11000000 205 157 74 0.000000 0.000000 0.000000 0.000000 0.000000 0.000000 125.000000 0.934389 -0.346907 0.081078
-8.05000019 1.76999998 0.11000000 205 157 74 0.000000 0.000000 0.000000 0.000000 0.000000 0.000000 125.000000 0.824562 -0.525830 -0.208808
-8.01000023 1.78999996 0.05000000 205 157 74 0.000000 0.000000 0.000000 0.000000 0.000000 0.000000 125.000000 -0.647102 0.698741 0.304993
-8.01000023 1.78999996 0.05000000 205 157 74 0.000000 0.000000 0.000000 0.000000 0.000000 0.000000 125.000000 -0.647102 0.698741 0.304993
-8.01000023 1.77999997 0.06000000 205 157 74 0.000000 0.000000 0.000000 0.000000 0.000000 0.000000 125.000000 -0.617197 0.751574 0.232816
-8.01000023 1.77999997 0.01000000 205 157 74 0.000000 0.000000 0.000000 0.000000 0.000000 0.000000 125.000000 0.840318 -0.502380 -0.203668
-8.00000000 1.75999999 0.01000000 205 157 74 0.000000 0.000000 0.000000 0.000000 0.000000 0.000000 125.000000 0.795706 -0.563947 -0.220944
-7.98000002 1.76999998 -0.02000000 205 157 74 0.000000 0.000000 0.000000 0.000000 0.000000 0.000000 125.000000 0.723773 -0.686062 0.073973
-7.98000002 1.76999998 -0.01000000 205 157 74 0.000000 0.000000 0.000000 0.000000 0.000000 0.000000 125.000000 -0.397378 0.904427 0.155248
-8.01000023 1.77999997 0.01000000 205 157 74 0.000000 0.000000 0.000000 0.000000 0.000000 0.000000 125.000000 0.840318 -0.502380 -0.203668
-8.01000023 1.75000000 0.01000000 205 157 74 0.000000 0.000000 0.000000 0.000000 0.000000 0.000000 125.000000 0.937442 -0.327768 -0.117349
-8.00000000 1.75999999 0.01000000 205 157 74 0.000000 0.000000 0.000000 0.000000 0.000000 0.000000 125.000000 0.795706 -0.563947 -0.220944
-8.06000042 1.80999994 -0.01000000 205 157 74 0.000000 0.000000 0.000000 0.000000 0.000000 0.000000 125.000000 0.813222 -0.473983 -0.337654
-8.06999969 1.85000002 0.05000000 205 157 74 0.000000 0.000000 0.000000 0.000000 0.000000 0.000000 125.000000 0.517926 -0.726420 -0.451737
-8.13000011 1.84000003 0.03000000 205 157 74 0.000000 0.000000 0.000000 0.000000 0.000000 0.000000 125.000000 -0.497512 0.847115 0.186754
-8.14000034 1.87000000 0.05000000 205 157 74 0.000000 0.000000 0.000000 0.000000 0.000000 0.000000 125.000000 -0.488841 0.774674 0.401142
-8.07999992 1.75000000 0.12000000 205 157 74 0.000000 0.000000 0.000000 0.000000 0.000000 0.000000 125.000000 -0.768690 0.600976 -0.218960
-8.14999962 1.80999994 0.12000000 205 157 74 0.000000 0.000000 0.000000 0.000000 0.000000 0.000000 125.000000 0.871951 -0.472606 -0.127848
-8.14999962 1.79999995 0.12000000 205 157 74 0.000000 0.000000 0.000000 0.000000 0.000000 0.000000 125.000000 -0.670842 0.739499 -0.055784
-8.14000034 1.76999998 0.12000000 205 157 74 0.000000 0.000000 0.000000 0.000000 0.000000 0.000000 125.000000 0.784436 -0.286834 -0.549897
-8.14000034 1.77999997 0.13000000 205 157 74 0.000000 0.000000 0.000000 0.000000 0.000000 0.000000 125.000000 -0.675631 0.728854 -0.110880
-8.13000011 1.80999994 0.04000000 205 157 74 0.000000 0.000000 0.000000 0.000000 0.000000 0.000000 125.000000 0.826572 -0.546628 -0.134079
-8.14000034 1.80999994 0.03000000 205 157 74 0.000000 0.000000 0.000000 0.000000 0.000000 0.000000 125.000000 0.684708 -0.574755 -0.448142
-8.14000034 1.79999995 0.04000000 205 157 74 0.000000 0.000000 0.000000 0.000000 0.000000 0.000000 125.000000 0.784161 -0.605604 -0.135405
-8.14999962 1.79999995 0.03000000 205 157 74 0.000000 0.000000 0.000000 0.000000 0.000000 0.000000 125.000000 0.776077 -0.542454 -0.321632
-8.14000034 1.80999994 0.03000000 205 157 74 0.000000 0.000000 0.000000 0.000000 0.000000 0.000000 125.000000 0.684708 -0.574755 -0.448142
-8.13000011 1.80999994 -0.02000000 205 157 74 0.000000 0.000000 0.000000 0.000000 0.000000 0.000000 125.000000 0.824640 -0.553166 0.118223
-8.11999989 1.75999999 0.06000000 205 157 74 0.000000 0.000000 0.000000 0.000000 0.000000 0.000000 125.000000 0.704024 -0.588610 -0.397353
-8.14999962 1.75999999 0.03000000 205 157 74 0.000000 0.000000 0.000000 0.000000 0.000000 0.000000 125.000000 0.882794 -0.466718 0.053378
-8.14999962 1.75999999 0.01000000 205 157 74 0.000000 0.000000 0.000000 0.000000 0.000000 0.000000 125.000000 0.799397 -0.475794 -0.366858
-8.14999962 1.76999998 0.01000000 205 157 74 0.000000 0.000000 0.000000 0.000000 0.000000 0.000000 125.000000 0.895406 -0.444367 -0.028023
-8.02999973 1.82000005 -0.07000000 205 157 74 0.000000 0.000000 0.000000 0.000000 0.000000 0.000000 125.000000 0.691223 -0.672155 0.265366
-8.05000019 1.76999998 -0.19000000 205 157 74 0.000000 0.000000 0.000000 0.000000 0.000000 0.000000 125.000000 -0.431830 0.855976 0.284301
-8.10999966 1.77999997 -0.04000000 205 157 74 0.000000 0.000000 0.000000 0.000000 0.000000 0.000000 125.000000 0.807376 -0.318826 -0.496481
-8.11999989 1.77999997 -0.06000000 205 157 74 0.000000 0.000000 0.000000 0.000000 0.000000 0.000000 125.000000 -0.706329 0.691204 0.152761
-8.10000038 1.75999999 -0.12000000 205 157 74 0.000000 0.000000 0.000000 0.000000 0.000000 0.000000 125.000000 0.835813 -0.508162 -0.207816
-8.10999966 1.75000000 -0.13000000 205 157 74 0.000000 0.000000 0.000000 0.000000 0.000000 0.000000 125.000000 0.882624 -0.294208 -0.366628
-8.02000046 1.73000002 0.08000000 205 157 74 0.000000 0.000000 0.000000 0.000000 0.000000 0.000000 125.000000 0.832862 -0.432962 -0.344796
-8.02000046 1.72000003 0.09000000 205 157 74 0.000000 0.000000 0.000000 0.000000 0.000000 0.000000 125.000000 0.906315 -0.422600 0.001300
-8.05000019 1.71000004 0.12000000 205 157 74 0.000000 0.000000 0.000000 0.000000 0.000000 0.000000 125.000000 0.692593 -0.586295 -0.420206
-8.03999996 1.73000002 0.12000000 205 157 74 0.000000 0.000000 0.000000 0.000000 0.000000 0.000000 125.000000 0.555121 -0.691818 -0.461767
-8.06000042 1.74000001 0.11000000 205 157 74 0.000000 0.000000 0.000000 0.000000 0.000000 0.000000 125.000000 0.751005 -0.638278 0.169090
-8.06000042 1.72000003 0.08000000 205 157 74 0.000000 0.000000 0.000000 0.000000 0.000000 0.000000 125.000000 -0.607922 0.750034 0.260538
-7.98000002 1.71000004 0.00000000 205 157 74 0.000000 0.000000 0.000000 0.000000 0.000000 0.000000 125.000000 -0.490565 0.741628 0.457530
-7.98999977 1.74000001 0.00000000 205 157 74 0.000000 0.000000 0.000000 0.000000 0.000000 0.000000 125.000000 0.827037 -0.531774 -0.182280
-8.00000000 1.73000002 0.00000000 205 157 74 0.000000 0.000000 0.000000 0.000000 0.000000 0.000000 125.000000 0.885499 -0.457346 0.082016
-7.98999977 1.72000003 -0.02000000 205 157 74 0.000000 0.000000 0.000000 0.000000 0.000000 0.000000 125.000000 -0.525576 0.849007 0.054370
-8.00000000 1.73000002 0.00000000 205 157 74 0.000000 0.000000 0.000000 0.000000 0.000000 0.000000 125.000000 0.885499 -0.457346 0.082016
-8.01000023 1.71000004 -0.01000000 205 157 74 0.000000 0.000000 0.000000 0.000000 0.000000 0.000000 125.000000 0.866890 -0.497126 -0.036976
-8.02000046 1.69000006 0.01000000 205 157 74 0.000000 0.000000 0.000000 0.000000 0.000000 0.000000 125.000000 0.949396 -0.310502 0.047278
-8.02000046 1.69000006 0.01000000 205 157 74 0.000000 0.000000 0.000000 0.000000 0.000000 0.000000 125.000000 0.949396 -0.310502 0.047278
-8.02000046 1.69000006 -0.01000000 205 157 74 0.000000 0.000000 0.000000 0.000000 0.000000 0.000000 125.000000 0.811715 -0.558713 0.170174
-8.02000046 1.61000001 0.14000000 205 157 74 0.000000 0.000000 0.000000 0.000000 0.000000 0.000000 125.000000 0.779885 -0.290670 -0.554338
-8.06000042 1.62000000 0.13000000 205 157 74 0.000000 0.000000 0.000000 0.000000 0.000000 0.000000 125.000000 0.951061 0.223859 -0.213005
-8.05000019 1.64999998 0.13000000 205 157 74 0.000000 0.000000 0.000000 0.000000 0.000000 0.000000 125.000000 0.983736 -0.070182 -0.165344
-8.06000042 1.62000000 0.13000000 205 157 74 0.000000 0.000000 0.000000 0.000000 0.000000 0.000000 125.000000 0.951061 0.223859 -0.213005
-7.98000002 1.63999999 -0.02000000 205 157 74 0.000000 0.000000 0.000000 0.000000 0.000000 0.000000 125.000000 0.774720 -0.626462 0.085757
-8.03999996 1.63999999 0.04000000 205 157 74 0.000000 0.000000 0.000000 0.000000 0.000000 0.000000 125.000000 0.951914 -0.142854 -0.271022
-8.03999996 1.62000000 0.05000000 205 157 74 0.000000 0.000000 0.000000 0.000000 0.000000 0.000000 125.000000 0.776890 -0.381147 -0.501167
-8.02999973 1.59000003 0.00000000 205 157 74 0.000000 0.000000 0.000000 0.000000 0.000000 0.000000 125.000000 0.974033 0.223291 -0.037416
-8.09000015 1.74000001 0.11000000 205 157 74 0.000000 0.000000 0.000000 0.000000 0.000000 0.000000 125.000000 -0.592291 0.737539 0.324388
-8.06999969 1.65999997 0.13000000 205 157 74 0.000000 0.000000 0.000000 0.000000 0.000000 0.000000 125.000000 0.795537 -0.604720 -0.037883
-8.06999969 1.65999997 0.13000000 205 157 74 0.000000 0.000000 0.000000 0.000000 0.000000 0.000000 125.000000 0.795537 -0.604720 -0.037883
-8.06999969 1.65999997 0.09000000 205 157 74 0.000000 0.000000 0.000000 0.000000 0.000000 0.000000 125.000000 0.796404 -0.587999 -0.141417
-8.07999992 1.67999995 0.09000000 205 157 74 0.000000 0.000000 0.000000 0.000000 0.000000 0.000000 125.000000 0.859824 -0.442847 -0.254143
-8.11999989 1.71000004 0.13000000 205 157 74 0.000000 0.000000 0.000000 0.000000 0.000000 0.000000 125.000000 0.930957 -0.351635 -0.098350
-8.10999966 1.73000002 0.11000000 205 157 74 0.000000 0.000000 0.000000 0.000000 0.000000 0.000000 125.000000 0.767121 -0.622438 0.155233
-8.13000011 1.74000001 0.10000000 205 157 74 0.000000 0.000000 0.000000 0.000000 0.000000 0.000000 125.000000 -0.657351 0.670400 0.344171
-8.10999966 1.69000006 0.07000000 205 157 74 0.000000 0.000000 0.000000 0.000000 0.000000 0.000000 125.000000 -0.688823 0.682518 0.244319
-8.10999966 1.69000006 0.07000000 205 157 74 0.000000 0.000000 0.000000 0.000000 0.000000 0.000000 125.000000 -0.688823 0.682518 0.244319
-8.10999966 1.67999995 0.08000000 205 157 74 0.000000 0.000000 0.000000 0.000000 0.000000 0.000000 125.000000 0.791719 -0.601472 -0.106831
-8.09000015 1.69000006 0.03000000 205 157 74 0.000000 0.000000 0.000000 0.000000 0.000000 0.000000 125.000000 0.944588 -0.259111 -0.201530
-8.06999969 1.66999996 0.04000000 205 157 74 0.000000 0.000000 0.000000 0.000000 0.000000 0.000000 125.000000 0.806862 -0.561624 -0.183171
-8.09000015 1.66999996 0.01000000 205 157 74 0.000000 0.000000 0.000000 0.000000 0.000000 0.000000 125.000000 0.905318 -0.001299 -0.424733
-8.14999962 1.74000001 -0.01000000 205 157 74 0.000000 0.000000 0.000000 0.000000 0.000000 0.000000 125.000000 0.856258 -0.515404 -0.034360
-8.13000011 1.70000005 0.06000000 205 157 74 0.000000 0.000000 0.000000 0.000000 0.000000 0.000000 125.000000 0.931504 -0.001267 -0.363730
-8.11999989 1.65999997 0.06000000 205 157 74 0.000000 0.000000 0.000000 0.000000 0.000000 0.000000 125.000000 0.969369 -0.245605 -0.001186
-8.11999989 1.69000006 0.03000000 205 157 74 0.000000 0.000000 0.000000 0.000000 0.000000 0.000000 125.000000 0.689770 -0.680299 -0.247812
-8.11999989 1.65999997 0.06000000 205 157 74 0.000000 0.000000 0.000000 0.000000 0.000000 0.000000 125.000000 0.969369 -0.245605 -0.001186
-8.13000011 1.67999995 0.02000000 205 157 74 0.000000 0.000000 0.000000 0.000000 0.000000 0.000000 125.000000 0.694841 -0.652924 -0.301474
-8.10999966 1.70000005 0.03000000 205 157 74 0.000000 0.000000 0.000000 0.000000 0.000000 0.000000 125.000000 -0.727109 0.655793 0.203094
-8.14999962 1.66999996 0.02000000 205 157 74 0.000000 0.000000 0.000000 0.000000 0.000000 0.000000 125.000000 0.919162 -0.377832 -0.111289
-8.10999966 1.70000005 0.03000000 205 157 74 0.000000 0.000000 0.000000 0.000000 0.000000 0.000000 125.000000 -0.727109 0.655793 0.203094
-8.11999989 1.67999995 -0.01000000 205 157 74 0.000000 0.000000 0.000000 0.000000 0.000000 0.000000 125.000000 0.977446 -0.200346 -0.066782
-8.09000015 1.62000000 0.14000000 205 157 74 0.000000 0.000000 0.000000 0.000000 0.000000 0.000000 125.000000 0.986062 -0.072036 -0.149976
-8.06999969 1.63000000 0.07000000 205 157 74 0.000000 0.000000 0.000000 0.000000 0.000000 0.000000 125.000000 0.783320 -0.445990 -0.433016
-8.06999969 1.60000002 0.13000000 205 157 74 0.000000 0.000000 0.000000 0.000000 0.000000 0.000000 125.000000 0.786888 -0.248738 -0.564745
-8.06999969 1.59000003 0.14000000 205 157 74 0.000000 0.000000 0.000000 0.000000 0.000000 0.000000 125.000000 0.885044 -0.042145 -0.463595
-8.07999992 1.60000002 0.11000000 205 157 74 0.000000 0.000000 0.000000 0.000000 0.000000 0.000000 125.000000 0.844333 0.117309 -0.522820
-8.11999989 1.63000000 0.07000000 205 157 74 0.000000 0.000000 0.000000 0.000000 0.000000 0.000000 125.000000 0.875568 -0.481902 -0.033937
-8.14000034 1.62000000 0.09000000 205 157 74 0.000000 0.000000 0.000000 0.000000 0.000000 0.000000 125.000000 0.949051 -0.036746 -0.312972
-8.10000038 1.63000000 0.05000000 205 157 74 0.000000 0.000000 0.000000 0.000000 0.000000 0.000000 125.000000 0.890008 -0.028190 -0.455072
-8.06999969 1.63999999 0.06000000 205 157 74 0.000000 0.000000 0.000000 0.000000 0.000000 0.000000 125.000000 0.878960 -0.139540 -0.456024
-8.11999989 1.64999998 0.02000000 205 157 74 0.000000 0.000000 0.000000 0.000000 0.000000 0.000000 125.000000 0.765245 -0.518287 -0.381810
-7.98000002 1.72000003 -0.04000000 205 157 74 0.000000 0.000000 0.000000 0.000000 0.000000 0.000000 125.000000 0.837056 -0.534260 -0.117916
-8.00000000 1.74000001 -0.09000000 205 157 74 0.000000 0.000000 0.000000 0.000000 0.000000 0.000000 125.000000 0.902494 -0.418568 -0.101513
-8.01000023 1.65999997 -0.04000000 205 157 74 0.000000 0.000000 0.000000 0.000000 0.000000 0.000000 125.000000 0.959291 -0.282288 -0.008554
-8.02000046 1.69000006 -0.03000000 205 157 74 0.000000 0.000000 0.000000 0.000000 0.000000 0.000000 125.000000 0.959134 -0.280631 0.036170
-8.00000000 1.67999995 -0.06000000 205 157 74 0.000000 0.000000 0.000000 0.000000 0.000000 0.000000 125.000000 -0.594290 0.768989 0.235532
-8.00000000 1.67999995 -0.07000000 205 157 74 0.000000 0.000000 0.000000 0.000000 0.000000 0.000000 125.000000 -0.710173 0.701565 -0.058822
-8.00000000 1.67999995 -0.09000000 205 157 74 0.000000 0.000000 0.000000 0.000000 0.000000 0.000000 125.000000 0.856776 -0.508401 0.086386
-7.98999977 1.67999995 -0.09000000 205 157 74 0.000000 0.000000 0.000000 0.000000 0.000000 0.000000 125.000000 0.652163 -0.635568 -0.413202
-7.98000002 1.70000005 -0.10000000 205 157 74 0.000000 0.000000 0.000000 0.000000 0.000000 0.000000 125.000000 -0.577659 0.812735 -0.075970
-8.06000042 1.65999997 -0.06000000 205 157 74 0.000000 0.000000 0.000000 0.000000 0.000000 0.000000 125.000000 0.991222 -0.109115 -0.074657
-8.02999973 1.69000006 -0.04000000 205 157 74 0.000000 0.000000 0.000000 0.000000 0.000000 0.000000 125.000000 -0.576876 0.721506 0.382940
-8.00000000 1.71000004 -0.16000000 205 157 74 0.000000 0.000000 0.000000 0.000000 0.000000 0.000000 125.000000 0.840354 -0.533990 0.093055
-7.98999977 1.72000003 -0.17000000 205 157 74 0.000000 0.000000 0.000000 0.000000 0.000000 0.000000 125.000000 0.738212 -0.531052 -0.415964
-7.98999977 1.72000003 -0.16000000 205 157 74 0.000000 0.000000 0.000000 0.000000 0.000000 0.000000 125.000000 -0.307197 0.945530 0.107719
-8.00000000 1.65999997 -0.12000000 205 157 74 0.000000 0.000000 0.000000 0.000000 0.000000 0.000000 125.000000 0.952354 -0.301346 -0.047046
-7.98999977 1.66999996 -0.19000000 205 157 74 0.000000 0.000000 0.000000 0.000000 0.000000 0.000000 125.000000 0.924268 -0.295709 -0.241424
-8.06000042 1.66999996 -0.13000000 205 157 74 0.000000 0.000000 0.000000 0.000000 0.000000 0.000000 125.000000 0.725658 -0.438039 -0.530606
-8.03999996 1.65999997 -0.17000000 205 157 74 0.000000 0.000000 0.000000 0.000000 0.000000 0.000000 125.000000 0.752636 -0.312930 -0.579321
-8.02000046 1.62000000 -0.06000000 205 157 74 0.000000 0.000000 0.000000 0.000000 0.000000 0.000000 125.000000 0.972262 0.042590 -0.229984
-8.00000000 1.64999998 -0.10000000 205 157 74 0.000000 0.000000 0.000000 0.000000 0.000000 0.000000 125.000000 0.996496 -0.033468 -0.076654
-8.00000000 1.64999998 -0.09000000 205 157 74 0.000000 0.000000 0.000000 0.000000 0.000000 0.000000 125.000000 0.964394 -0.008449 -0.264333
-8.00000000 1.59000003 -0.09000000 205 157 74 0.000000 0.000000 0.000000 0.000000 0.000000 0.000000 125.000000 0.992461 -0.083180 -0.090017
-8.03999996 1.59000003 -0.04000000 205 157 74 0.000000 0.000000 0.000000 0.000000 0.000000 0.000000 125.000000 0.982697 0.185046 0.008045
-8.05000019 1.61000001 -0.07000000 205 157 74 0.000000 0.000000 0.000000 0.000000 0.000000 0.000000 125.000000 0.964441 0.056145 -0.258266
-8.01000023 1.63000000 -0.13000000 205 157 74 0.000000 0.000000 0.000000 0.000000 0.000000 0.000000 125.000000 0.755343 -0.641667 -0.133120
-8.00000000 1.62000000 -0.18000001 205 157 74 0.000000 0.000000 0.000000 0.000000 0.000000 0.000000 125.000000 0.709915 -0.467180 -0.527033
-8.00000000 1.62000000 -0.18000001 205 157 74 0.000000 0.000000 0.000000 0.000000 0.000000 0.000000 125.000000 0.709915 -0.467180 -0.527033
-8.00000000 1.62000000 -0.19000000 205 157 74 0.000000 0.000000 0.000000 0.000000 0.000000 0.000000 125.000000 0.920305 -0.009035 -0.391097
-7.98999977 1.63000000 -0.16000000 205 157 74 0.000000 0.000000 0.000000 0.000000 0.000000 0.000000 125.000000 0.882437 -0.434633 -0.180000
-8.00000000 1.63999999 -0.16000000 205 157 74 0.000000 0.000000 0.000000 0.000000 0.000000 0.000000 125.000000 0.854703 -0.254430 -0.452490
-7.98000002 1.63999999 -0.16000000 205 157 74 0.000000 0.000000 0.000000 0.000000 0.000000 0.000000 125.000000 0.812636 -0.582042 0.029172
-7.98999977 1.62000000 -0.17000000 205 157 74 0.000000 0.000000 0.000000 0.000000 0.000000 0.000000 125.000000 0.798548 -0.574288 -0.180317
-8.00000000 1.61000001 -0.18000001 205 157 74 0.000000 0.000000 0.000000 0.000000 0.000000 0.000000 125.000000 0.931662 -0.174077 -0.318910
-8.00000000 1.59000003 -0.19000000 205 157 74 0.000000 0.000000 0.000000 0.000000 0.000000 0.000000 125.000000 0.986936 0.062049 -0.148684
-8.02999973 1.63000000 -0.13000000 205 157 74 0.000000 0.000000 0.000000 0.000000 0.000000 0.000000 125.000000 0.853774 -0.498157 -0.151358
-8.02999973 1.63999999 -0.15000001 205 157 74 0.000000 0.000000 0.000000 0.000000 0.000000 0.000000 125.000000 0.907365 -0.392106 0.151463
-8.02999973 1.61000001 -0.13000000 205 157 74 0.000000 0.000000 0.000000 0.000000 0.000000 0.000000 125.000000 0.833265 -0.267449 -0.483881
-8.06000042 1.59000003 -0.14000000 205 157 74 0.000000 0.000000 0.000000 0.000000 0.000000 0.000000 125.000000 0.868498 0.268279 -0.416818
-8.02999973 1.60000002 -0.14000000 205 157 74 0.000000 0.000000 0.000000 0.000000 0.000000 0.000000 125.000000 0.944241 0.104916 -0.312091
-8.06000042 1.58000004 -0.15000001 205 157 74 0.000000 0.000000 0.000000 0.000000 0.000000 0.000000 125.000000 0.966566 0.111085 -0.231108
-8.05000019 1.61000001 -0.12000000 205 157 74 0.000000 0.000000 0.000000 0.000000 0.000000 0.000000 125.000000 0.825310 0.017852 -0.564397
-8.02999973 1.59000003 -0.18000001 205 157 74 0.000000 0.000000 0.000000 0.000000 0.000000 0.000000 125.000000 0.827602 -0.481599 -0.288336
-8.10000038 1.66999996 -0.05000000 205 157 74 0.000000 0.000000 0.000000 0.000000 0.000000 0.000000 125.000000 -0.785474 0.266022 0.558804
-8.09000015 1.69000006 -0.07000000 205 157 74 0.000000 0.000000 0.000000 0.000000 0.000000 0.000000 125.000000 0.918448 -0.378670 0.114290
-8.14999962 1.73000002 -0.06000000 205 157 74 0.000000 0.000000 0.000000 0.000000 0.000000 0.000000 125.000000 0.910684 -0.358231 -0.205731
-8.14999962 1.73000002 -0.06000000 205 157 74 0.000000 0.000000 0.000000 0.000000 0.000000 0.000000 125.000000 0.910684 -0.358231 -0.205731
-8.14999962 1.73000002 -0.03000000 205 157 74 0.000000 0.000000 0.000000 0.000000 0.000000 0.000000 125.000000 0.952535 -0.253920 0.167936
-8.14000034 1.74000001 -0.05000000 205 157 74 0.000000 0.000000 0.000000 0.000000 0.000000 0.000000 125.000000 0.915778 -0.400735 -0.027592
-8.14999962 1.74000001 -0.07000000 205 157 74 0.000000 0.000000 0.000000 0.000000 0.000000 0.000000 125.000000 0.929678 -0.366944 -0.032416
-8.11999989 1.72000003 -0.07000000 205 157 74 0.000000 0.000000 0.000000 0.000000 0.000000 0.000000 125.000000 0.716388 -0.680038 -0.156000
-8.14000034 1.72000003 -0.09000000 205 157 74 0.000000 0.000000 0.000000 0.000000 0.000000 0.000000 125.000000 0.926638 -0.157459 -0.341393
-8.13000011 1.66999996 -0.03000000 205 157 74 0.000000 0.000000 0.000000 0.000000 0.000000 0.000000 125.000000 0.993294 -0.012047 -0.114990
-8.13000011 1.65999997 -0.03000000 205 157 74 0.000000 0.000000 0.000000 0.000000 0.000000 0.000000 125.000000 0.996580 -0.076494 -0.031244
-8.13000011 1.65999997 -0.06000000 205 157 74 0.000000 0.000000 0.000000 0.000000 0.000000 0.000000 125.000000 0.987389 -0.056987 -0.147701
-8.11999989 1.65999997 -0.07000000 205 157 74 0.000000 0.000000 0.000000 0.000000 0.000000 0.000000 125.000000 0.962146 -0.177688 -0.206644
-8.14999962 1.70000005 -0.08000000 205 157 74 0.000000 0.000000 0.000000 0.000000 0.000000 0.000000 125.000000 0.957029 -0.227610 0.179692
-8.11999989 1.65999997 -0.08000000 205 157 74 0.000000 0.000000 0.000000 0.000000 0.000000 0.000000 125.000000 0.929276 -0.019280 -0.368883
-8.13000011 1.65999997 -0.09000000 205 157 74 0.000000 0.000000 0.000000 0.000000 0.000000 0.000000 125.000000 0.844165 -0.063207 -0.532344
-8.14000034 1.69000006 -0.10000000 205 157 74 0.000000 0.000000 0.000000 0.000000 0.000000 0.000000 125.000000 0.984144 -0.131299 0.119254
-8.07999992 1.73000002 -0.14000000 205 157 74 0.000000 0.000000 0.000000 0.000000 0.000000 0.000000 125.000000 0.807575 -0.572590 -0.141289
-8.07999992 1.73000002 -0.14000000 205 157 74 0.000000 0.000000 0.000000 0.000000 0.000000 0.000000 125.000000 0.807575 -0.572590 -0.141289
-8.06999969 1.74000001 -0.14000000 205 157 74 0.000000 0.000000 0.000000 0.000000 0.000000 0.000000 125.000000 -0.557961 0.782410 0.276610
-8.10000038 1.67999995 -0.16000000 205 157 74 0.000000 0.000000 0.000000 0.000000 0.000000 0.000000 125.000000 0.988970 -0.014626 -0.147389
-8.07999992 1.70000005 -0.17000000 205 157 74 0.000000 0.000000 0.000000 0.000000 0.000000 0.000000 125.000000 -0.598516 0.771730 0.214971
-8.14000034 1.71000004 -0.14000000 205 157 74 0.000000 0.000000 0.000000 0.000000 0.000000 0.000000 125.000000 0.873667 -0.484151 -0.048004
-8.13000011 1.74000001 -0.16000000 205 157 74 0.000000 0.000000 0.000000 0.000000 0.000000 0.000000 125.000000 -0.687593 0.722334 -0.073826
-8.10999966 1.67999995 -0.11000000 205 157 74 0.000000 0.000000 0.000000 0.000000 0.000000 0.000000 125.000000 0.989441 -0.030601 -0.141672
-8.10999966 1.67999995 -0.11000000 205 157 74 0.000000 0.000000 0.000000 0.000000 0.000000 0.000000 125.000000 0.989441 -0.030601 -0.141672
-8.10999966 1.65999997 -0.11000000 205 157 74 0.000000 0.000000 0.000000 0.000000 0.000000 0.000000 125.000000 0.756148 -0.239525 -0.608989
-8.10999966 1.66999996 -0.11000000 205 157 74 0.000000 0.000000 0.000000 0.000000 0.000000 0.000000 125.000000 0.928691 -0.154088 -0.337327
-8.13000011 1.69000006 -0.11000000 205 157 74 0.000000 0.000000 0.000000 0.000000 0.000000 0.000000 125.000000 -0.726084 0.657965 0.199712
-8.13000011 1.65999997 -0.19000000 205 157 74 0.000000 0.000000 0.000000 0.000000 0.000000 0.000000 125.000000 0.974270 -0.098298 -0.202817
-8.10999966 1.65999997 -0.19000000 205 157 74 0.000000 0.000000 0.000000 0.000000 0.000000 0.000000 125.000000 0.748380 -0.627021 -0.216268
-8.09000015 1.63999999 -0.06000000 205 157 74 0.000000 0.000000 0.000000 0.000000 0.000000 0.000000 125.000000 0.786938 -0.300467 -0.538933
-8.09000015 1.63999999 -0.06000000 205 157 74 0.000000 0.000000 0.000000 0.000000 0.000000 0.000000 125.000000 0.786938 -0.300467 -0.538933
-8.06999969 1.63000000 -0.06000000 205 157 74 0.000000 0.000000 0.000000 0.000000 0.000000 0.000000 125.000000 0.998384 0.036899 -0.043225
-8.10000038 1.59000003 -0.08000000 205 157 74 0.000000 0.000000 0.000000 0.000000 0.000000 0.000000 125.000000 0.872206 0.091589 -0.480488
-8.10000038 1.61000001 -0.08000000 205 157 74 0.000000 0.000000 0.000000 0.000000 0.000000 0.000000 125.000000 0.839602 0.139689 -0.524935
-8.11999989 1.63000000 -0.09000000 205 157 74 0.000000 0.000000 0.000000 0.000000 0.000000 0.000000 125.000000 0.930040 0.168214 -0.326696
-8.06999969 1.63999999 -0.11000000 205 157 74 0.000000 0.000000 0.000000 0.000000 0.000000 0.000000 125.000000 0.865531 -0.213767 -0.452946
-8.10000038 1.63999999 -0.19000000 205 157 74 0.000000 0.000000 0.000000 0.000000 0.000000 0.000000 125.000000 0.985816 -0.166407 0.021805
-8.07999992 1.59000003 -0.14000000 205 157 74 0.000000 0.000000 0.000000 0.000000 0.000000 0.000000 125.000000 0.978930 0.161715 0.124681
-8.13000011 1.63000000 -0.13000000 205 157 74 0.000000 0.000000 0.000000 0.000000 0.000000 0.000000 125.000000 0.941530 -0.320946 -0.102543
-8.13000011 1.63000000 -0.15000001 205 157 74 0.000000 0.000000 0.000000 0.000000 0.000000 0.000000 125.000000 0.992687 -0.091894 -0.078280
-8.13000011 1.62000000 -0.19000000 205 157 74 0.000000 0.000000 0.000000 0.000000 0.000000 0.000000 125.000000 0.990101 0.077587 -0.116959
-8.10999966 1.58000004 -0.16000000 205 157 74 0.000000 0.000000 0.000000 0.000000 0.000000 0.000000 125.000000 0.992687 0.078280 -0.091894
-8.11999989 1.58000004 -0.17000000 205 157 74 0.000000 0.000000 0.000000 0.000000 0.000000 0.000000 125.000000 0.813378 -0.115778 -0.570098
-8.18999958 1.88000000 0.09000000 205 157 74 0.000000 0.000000 0.000000 0.000000 0.000000 0.000000 125.000000 0.774628 -0.512645 -0.370333
-8.18999958 1.88000000 0.10000000 205 157 74 0.000000 0.000000 0.000000 0.000000 0.000000 0.000000 125.000000 0.860147 -0.335102 -0.384518
-8.18000031 1.87000000 0.11000000 205 157 74 0.000000 0.000000 0.000000 0.000000 0.000000 0.000000 125.000000 -0.522117 0.698936 0.488755
-8.15999985 1.83000004 0.08000000 205 157 74 0.000000 0.000000 0.000000 0.000000 0.000000 0.000000 125.000000 0.608483 -0.638655 -0.471029
-8.15999985 1.87000000 0.09000000 205 157 74 0.000000 0.000000 0.000000 0.000000 0.000000 0.000000 125.000000 -0.677411 0.735593 -0.004156
-8.15999985 1.87000000 0.09000000 205 157 74 0.000000 0.000000 0.000000 0.000000 0.000000 0.000000 125.000000 -0.677411 0.735593 -0.004156
-8.15999985 1.89999998 0.06000000 205 157 74 0.000000 0.000000 0.000000 0.000000 0.000000 0.000000 125.000000 -0.601440 0.655050 0.457362
-8.15999985 1.79999995 0.08000000 205 157 74 0.000000 0.000000 0.000000 0.000000 0.000000 0.000000 125.000000 0.933394 -0.328544 0.144339
-8.17000008 1.75999999 0.12000000 205 157 74 0.000000 0.000000 0.000000 0.000000 0.000000 0.000000 125.000000 0.851754 -0.490766 -0.183478
-8.15999985 1.78999996 0.03000000 205 157 74 0.000000 0.000000 0.000000 0.000000 0.000000 0.000000 125.000000 0.715033 -0.452909 -0.532542
-8.15999985 1.82000005 0.02000000 205 157 74 0.000000 0.000000 0.000000 0.000000 0.000000 0.000000 125.000000 0.864862 -0.364072 -0.345638
-8.15999985 1.75000000 0.02000000 205 157 74 0.000000 0.000000 0.000000 0.000000 0.000000 0.000000 125.000000 0.847921 -0.382580 -0.366964
-8.18000031 1.76999998 -0.01000000 205 157 74 0.000000 0.000000 0.000000 0.000000 0.000000 0.000000 125.000000 0.726136 -0.561479 -0.396822
-8.17000008 1.72000003 0.11000000 205 157 74 0.000000 0.000000 0.000000 0.000000 0.000000 0.000000 125.000000 0.982196 -0.171914 -0.075738
-8.17000008 1.72000003 0.11000000 205 157 74 0.000000 0.000000 0.000000 0.000000 0.000000 0.000000 125.000000 0.982196 -0.171914 -0.075738
-8.17000008 1.67999995 0.13000000 205 157 74 0.000000 0.000000 0.000000 0.000000 0.000000 0.000000 125.000000 0.976321 -0.213906 0.032265
-7.88000011 1.57000005 0.28000000 205 157 74 0.000000 0.000000 0.000000 0.000000 0.000000 0.000000 125.000000 0.988754 0.131601 -0.071041
-7.88000011 1.55999994 0.28000000 205 157 74 0.000000 0.000000 0.000000 0.000000 0.000000 0.000000 125.000000 0.962442 0.237688 -0.131183
-7.88000011 1.57000005 0.25999999 205 157 74 0.000000 0.000000 0.000000 0.000000 0.000000 0.000000 125.000000 0.895526 -0.159556 -0.415421
-7.90999985 1.57000005 0.27000001 205 157 74 0.000000 0.000000 0.000000 0.000000 0.000000 0.000000 125.000000 0.986716 -0.154574 -0.049975
-7.92000008 1.57000005 0.30000001 205 157 74 0.000000 0.000000 0.000000 0.000000 0.000000 0.000000 125.000000 0.998196 -0.045517 0.039166
-7.90999985 1.52999997 0.23000000 205 157 74 0.000000 0.000000 0.000000 0.000000 0.000000 0.000000 125.000000 0.763755 0.284225 -0.579564
-8.27999973 1.50999999 0.28999999 205 157 74 0.000000 0.000000 0.000000 0.000000 0.000000 0.000000 125.000000 0.947966 -0.230513 -0.219601
-8.27999973 1.51999998 0.25999999 205 157 74 0.000000 0.000000 0.000000 0.000000 0.000000 0.000000 125.000000 0.945063 -0.235234 -0.226980
-8.27999973 1.51999998 0.25999999 205 157 74 0.000000 0.000000 0.000000 0.000000 0.000000 0.000000 125.000000 0.945063 -0.235234 -0.226980
-8.27999973 1.50999999 0.25999999 205 157 74 0.000000 0.000000 0.000000 0.000000 0.000000 0.000000 125.000000 0.897741 0.183596 -0.400442
-8.28999996 1.55999994 0.25000000 205 157 74 0.000000 0.000000 0.000000 0.000000 0.000000 0.000000 125.000000 0.909034 -0.344706 -0.234167
-8.31999969 1.52999997 0.25000000 205 157 74 0.000000 0.000000 0.000000 0.000000 0.000000 0.000000 125.000000 0.894512 -0.072825 -0.441073
-8.05000019 1.57000005 -0.15000001 205 157 74 0.000000 0.000000 0.000000 0.000000 0.000000 0.000000 125.000000 0.965669 -0.258246 -0.028150
-8.00000000 1.55999994 -0.15000001 205 157 74 0.000000 0.000000 0.000000 0.000000 0.000000 0.000000 125.000000 0.971585 0.236008 -0.017970
-8.00000000 1.52999997 -0.17000000 205 157 74 0.000000 0.000000 0.000000 0.000000 0.000000 0.000000 125.000000 0.981019 0.193909 -0.001147
-8.05000019 1.57000005 -0.14000000 205 157 74 0.000000 0.000000 0.000000 0.000000 0.000000 0.000000 125.000000 0.817590 0.229418 -0.528123
-8.11999989 1.57000005 -0.18000001 205 157 74 0.000000 0.000000 0.000000 0.000000 0.000000 0.000000 125.000000 0.893737 0.171817 -0.414382
-8.11999989 1.57000005 -0.17000000 205 157 74 0.000000 0.000000 0.000000 0.000000 0.000000 0.000000 125.000000 0.840887 -0.253650 -0.478091
-8.35000038 1.97000003 0.02000000 205 157 74 0.000000 0.000000 0.000000 0.000000 0.000000 0.000000 149.000000 0.598857 -0.665582 -0.445389
-8.35999966 1.96000004 0.00000000 205 157 74 0.000000 0.000000 0.000000 0.000000 0.000000 0.000000 149.000000 0.714841 -0.627704 -0.308204
-8.36999989 1.95000005 -0.01000000 205 157 74 0.000000 0.000000 0.000000 0.000000 0.000000 0.000000 149.000000 -0.626848 0.772967 -0.097899
-8.36999989 2.07999992 -0.03000000 205 157 74 0.000000 0.000000 0.000000 0.000000 0.000000 0.000000 149.000000 -0.425201 0.845730 0.322405
-8.38000011 2.06999993 -0.05000000 205 157 74 0.000000 0.000000 0.000000 0.000000 0.000000 0.000000 149.000000 -0.434409 0.899750 -0.041692
-8.34000015 1.95000005 -0.05000000 205 157 74 0.000000 0.000000 0.000000 0.000000 0.000000 0.000000 149.000000 -0.482012 0.875269 0.039599
-8.43999958 2.00000000 -0.07000000 205 157 74 0.000000 0.000000 0.000000 0.000000 0.000000 0.000000 149.000000 -0.502438 0.772356 0.388617
-8.34000015 1.52999997 0.27000001 205 157 74 0.000000 0.000000 0.000000 0.000000 0.000000 0.000000 125.000000 0.983363 -0.033829 -0.178475
-8.35000038 1.45000005 0.27000001 205 157 74 0.000000 0.000000 0.000000 0.000000 0.000000 0.000000 125.000000 0.958853 0.003655 -0.283879
-8.40999985 1.42999995 0.28000000 205 157 74 0.000000 0.000000 0.000000 0.000000 0.000000 0.000000 125.000000 0.941130 -0.182730 -0.284400
-8.38000011 1.39999998 0.30000001 205 157 74 0.000000 0.000000 0.000000 0.000000 0.000000 0.000000 125.000000 0.992991 0.068911 -0.096023
-8.38000011 1.38999999 0.28999999 205 157 74 0.000000 0.000000 0.000000 0.000000 0.000000 0.000000 125.000000 0.973868 0.137680 -0.180627
-8.38000011 1.39999998 0.30000001 205 157 74 0.000000 0.000000 0.000000 0.000000 0.000000 0.000000 125.000000 0.992991 0.068911 -0.096023
-8.05000019 2.25999999 -1.21000004 205 157 74 0.000000 0.000000 0.000000 0.000000 0.000000 0.000000 193.000000 0.110916 0.991379 -0.069751
-8.05000019 2.25999999 -1.24000001 205 157 74 0.000000 0.000000 0.000000 0.000000 0.000000 0.000000 193.000000 0.290845 0.954536 -0.065344
-7.44999981 1.36000001 -0.22000000 205 157 74 0.000000 0.000000 0.000000 0.000000 0.000000 0.000000 125.000000 0.927639 -0.133701 -0.348726
-7.44999981 1.38000000 -0.20999999 205 157 74 0.000000 0.000000 0.000000 0.000000 0.000000 0.000000 125.000000 0.746437 -0.439953 -0.499273
-7.44000006 1.39999998 -0.25000000 205 157 74 0.000000 0.000000 0.000000 0.000000 0.000000 0.000000 125.000000 0.973381 -0.095967 -0.208136
-7.44999981 1.35000002 -0.20999999 205 157 74 0.000000 0.000000 0.000000 0.000000 0.000000 0.000000 125.000000 0.904573 -0.216343 -0.367347
-7.50000000 1.48000002 -0.25999999 205 157 74 0.000000 0.000000 0.000000 0.000000 0.000000 0.000000 125.000000 0.917636 -0.123182 -0.377850
-7.46999979 1.41999996 -0.27000001 205 157 74 0.000000 0.000000 0.000000 0.000000 0.000000 0.000000 125.000000 0.975247 -0.069923 -0.209770
-7.51000023 1.48000002 -0.25999999 205 157 74 0.000000 0.000000 0.000000 0.000000 0.000000 0.000000 125.000000 0.934569 -0.248750 -0.254371
-7.51000023 1.46000004 -0.25999999 205 157 74 0.000000 0.000000 0.000000 0.000000 0.000000 0.000000 125.000000 0.947931 -0.233232 -0.216865
-7.51000023 1.40999997 -0.22000000 205 157 74 0.000000 0.000000 0.000000 0.000000 0.000000 0.000000 125.000000 0.942876 -0.331350 -0.034542
-7.51000023 1.42999995 -0.23999999 205 157 74 0.000000 0.000000 0.000000 0.000000 0.000000 0.000000 125.000000 0.902407 -0.380952 -0.201340
-7.48999977 1.42999995 -0.28999999 205 157 74 0.000000 0.000000 0.000000 0.000000 0.000000 0.000000 125.000000 0.879718 -0.406139 -0.247280
-7.53000021 1.47000003 -0.30000001 205 157 74 0.000000 0.000000 0.000000 0.000000 0.000000 0.000000 125.000000 0.979121 0.109612 -0.171192
-7.53000021 1.46000004 -0.31999999 205 157 74 0.000000 0.000000 0.000000 0.000000 0.000000 0.000000 125.000000 0.839833 -0.057484 -0.539793
-7.51999998 1.44000006 -0.31000000 205 157 74 0.000000 0.000000 0.000000 0.000000 0.000000 0.000000 125.000000 0.816928 -0.163386 -0.553113
-7.51000023 1.40999997 -0.28999999 205 157 74 0.000000 0.000000 0.000000 0.000000 0.000000 0.000000 125.000000 0.916186 -0.400751 0.001289
-7.51999998 1.44000006 -0.31000000 205 157 74 0.000000 0.000000 0.000000 0.000000 0.000000 0.000000 125.000000 0.816928 -0.163386 -0.553113
-7.51999998 1.44000006 -0.28999999 205 157 74 0.000000 0.000000 0.000000 0.000000 0.000000 0.000000 125.000000 0.897283 0.003930 -0.441437
-7.51999998 1.44000006 -0.28999999 205 157 74 0.000000 0.000000 0.000000 0.000000 0.000000 0.000000 125.000000 0.897283 0.003930 -0.441437
-7.59000015 1.49000001 -0.23999999 205 157 74 0.000000 0.000000 0.000000 0.000000 0.000000 0.000000 125.000000 0.813345 -0.286786 -0.506186
-7.59000015 1.52999997 -0.34999999 205 157 74 0.000000 0.000000 0.000000 0.000000 0.000000 0.000000 125.000000 0.764112 -0.232828 -0.601601
-7.55000019 1.49000001 -0.30000001 205 157 74 0.000000 0.000000 0.000000 0.000000 0.000000 0.000000 125.000000 0.985386 -0.103913 -0.134968
-7.59000015 1.50999999 -0.34000000 205 157 74 0.000000 0.000000 0.000000 0.000000 0.000000 0.000000 125.000000 0.900241 -0.174287 -0.398987
-7.55000019 1.50000000 -0.34999999 205 157 74 0.000000 0.000000 0.000000 0.000000 0.000000 0.000000 125.000000 0.949016 0.018805 -0.314667
-7.59999990 1.50000000 -0.30000001 205 157 74 0.000000 0.000000 0.000000 0.000000 0.000000 0.000000 125.000000 0.798942 -0.546645 -0.250740
-7.63000011 1.49000001 -0.31000000 205 157 74 0.000000 0.000000 0.000000 0.000000 0.000000 0.000000 125.000000 0.832392 -0.380657 -0.402770
-7.57999992 1.45000005 -0.25999999 205 157 74 0.000000 0.000000 0.000000 0.000000 0.000000 0.000000 125.000000 0.869113 -0.258467 -0.421709
-7.59000015 1.45000005 -0.28000000 205 157 74 0.000000 0.000000 0.000000 0.000000 0.000000 0.000000 125.000000 0.920098 -0.057256 -0.387480
-7.59000015 1.46000004 -0.23999999 205 157 74 0.000000 0.000000 0.000000 0.000000 0.000000 0.000000 125.000000 0.803248 -0.519192 -0.291947
-7.59000015 1.48000002 -0.25999999 205 157 74 0.000000 0.000000 0.000000 0.000000 0.000000 0.000000 125.000000 0.873595 -0.302340 -0.381343
-7.59000015 1.45000005 -0.36000001 205 157 74 0.000000 0.000000 0.000000 0.000000 0.000000 0.000000 125.000000 0.977624 -0.192581 -0.084637
-7.57000017 1.42999995 -0.33000001 205 157 74 0.000000 0.000000 0.000000 0.000000 0.000000 0.000000 125.000000 0.830240 -0.338713 -0.442690
-7.61999989 1.47000003 -0.30000001 205 157 74 0.000000 0.000000 0.000000 0.000000 0.000000 0.000000 125.000000 0.889982 -0.445689 -0.096403
-7.59999990 1.44000006 -0.31000000 205 157 74 0.000000 0.000000 0.000000 0.000000 0.000000 0.000000 125.000000 0.749188 -0.560672 -0.352654
-7.63000011 1.42999995 -0.31999999 205 157 74 0.000000 0.000000 0.000000 0.000000 0.000000 0.000000 125.000000 0.911322 -0.130189 -0.390567
-7.55999994 1.52999997 -0.38999999 205 157 74 0.000000 0.000000 0.000000 0.000000 0.000000 0.000000 125.000000 0.932028 -0.173627 -0.318084
-7.57000017 1.50999999 -0.37000000 205 157 74 0.000000 0.000000 0.000000 0.000000 0.000000 0.000000 125.000000 0.974804 0.144648 -0.169805
-7.57000017 1.50999999 -0.37000000 205 157 74 0.000000 0.000000 0.000000 0.000000 0.000000 0.000000 125.000000 0.974804 0.144648 -0.169805
-7.55999994 1.50999999 -0.38999999 205 157 74 0.000000 0.000000 0.000000 0.000000 0.000000 0.000000 125.000000 0.954730 -0.296724 0.021106
-7.59000015 1.49000001 -0.38999999 205 157 74 0.000000 0.000000 0.000000 0.000000 0.000000 0.000000 125.000000 0.885680 -0.454733 -0.093745
-7.59000015 1.50999999 -0.43000001 205 157 74 0.000000 0.000000 0.000000 0.000000 0.000000 0.000000 125.000000 0.803149 -0.247003 -0.542164
-7.55999994 1.49000001 -0.41999999 205 157 74 0.000000 0.000000 0.000000 0.000000 0.000000 0.000000 125.000000 0.971952 0.052704 -0.229199
-7.55999994 1.50000000 -0.44000000 205 157 74 0.000000 0.000000 0.000000 0.000000 0.000000 0.000000 125.000000 0.953051 -0.300897 -0.033993
-7.59000015 1.51999998 -0.44000000 205 157 74 0.000000 0.000000 0.000000 0.000000 0.000000 0.000000 125.000000 0.882250 -0.025592 -0.470085
-7.59000015 1.50999999 -0.43000001 205 157 74 0.000000 0.000000 0.000000 0.000000 0.000000 0.000000 125.000000 0.803149 -0.247003 -0.542164
-7.63000011 1.53999996 -0.38999999 205 157 74 0.000000 0.000000 0.000000 0.000000 0.000000 0.000000 125.000000 0.950696 0.286928 -0.117680
-7.63000011 1.54999995 -0.38000000 205 157 74 0.000000 0.000000 0.000000 0.000000 0.000000 0.000000 125.000000 0.897025 -0.144037 -0.417851
-7.59000015 1.50999999 -0.46000001 205 157 74 0.000000 0.000000 0.000000 0.000000 0.000000 0.000000 125.000000 0.909967 0.190592 -0.368286
-7.61999989 1.52999997 -0.47000000 205 157 74 0.000000 0.000000 0.000000 0.000000 0.000000 0.000000 125.000000 0.853455 0.199490 -0.481475
-7.61999989 1.54999995 -0.50000000 205 157 74 0.000000 0.000000 0.000000 0.000000 0.000000 0.000000 125.000000 0.959556 0.137830 -0.245468
-7.59999990 1.51999998 -0.47999999 205 157 74 0.000000 0.000000 0.000000 0.000000 0.000000 0.000000 125.000000 0.758791 -0.274052 -0.590874
-7.61999989 1.50000000 -0.50999999 205 157 74 0.000000 0.000000 0.000000 0.000000 0.000000 0.000000 125.000000 0.938971 -0.328171 -0.103139
-7.61999989 1.50000000 -0.51999998 205 157 74 0.000000 0.000000 0.000000 0.000000 0.000000 0.000000 125.000000 0.910803 -0.329749 -0.248401
-7.57999992 1.46000004 -0.40000001 205 157 74 0.000000 0.000000 0.000000 0.000000 0.000000 0.000000 125.000000 0.727942 -0.601485 -0.329114
-7.55999994 1.47000003 -0.44000000 205 157 74 0.000000 0.000000 0.000000 0.000000 0.000000 0.000000 125.000000 0.926239 -0.006388 -0.376883
-7.59000015 1.47000003 -0.41999999 205 157 74 0.000000 0.000000 0.000000 0.000000 0.000000 0.000000 125.000000 0.970652 -0.101975 -0.217799
-7.59000015 1.45000005 -0.41000000 205 157 74 0.000000 0.000000 0.000000 0.000000 0.000000 0.000000 125.000000 0.741943 -0.576345 -0.342560
-7.63000011 1.48000002 -0.38999999 205 157 74 0.000000 0.000000 0.000000 0.000000 0.000000 0.000000 125.000000 0.694494 -0.513758 -0.503717
-7.48000002 1.39999998 -0.27000001 205 157 74 0.000000 0.000000 0.000000 0.000000 0.000000 0.000000 125.000000 0.888281 -0.178819 -0.423060
-7.48999977 1.38000000 -0.28000000 205 157 74 0.000000 0.000000 0.000000 0.000000 0.000000 0.000000 125.000000 0.936654 -0.175709 -0.302994
-7.53999996 1.36000001 -0.20000000 205 157 74 0.000000 0.000000 0.000000 0.000000 0.000000 0.000000 125.000000 0.858866 -0.506294 -0.077566
-7.48999977 1.38000000 -0.28999999 205 157 74 0.000000 0.000000 0.000000 0.000000 0.000000 0.000000 125.000000 0.723552 -0.364226 -0.586355
-7.50000000 1.38000000 -0.31999999 205 157 74 0.000000 0.000000 0.000000 0.000000 0.000000 0.000000 125.000000 0.924367 -0.235009 -0.300526
-7.67999983 1.63000000 -0.57999998 205 157 74 0.000000 0.000000 0.000000 0.000000 0.000000 0.000000 125.000000 0.770050 0.326347 -0.548198
-7.67000008 1.62000000 -0.60000002 205 157 74 0.000000 0.000000 0.000000 0.000000 0.000000 0.000000 125.000000 0.880039 0.282277 -0.381904
-7.67000008 1.59000003 -0.56000000 205 157 74 0.000000 0.000000 0.000000 0.000000 0.000000 0.000000 125.000000 0.794233 0.378590 -0.475251
-7.67000008 1.58000004 -0.56000000 205 157 74 0.000000 0.000000 0.000000 0.000000 0.000000 0.000000 125.000000 0.875126 0.228879 -0.426343
-7.69000006 1.59000003 -0.61000001 205 157 74 0.000000 0.000000 0.000000 0.000000 0.000000 0.000000 125.000000 0.836556 0.448769 -0.314295
