//X Y Z R G B PointSourceId ScanDirectionFlag NumberOfReturns ReturnNumber GpsTime Intensity Classification Nx Ny Nz
1.53999996 -1.07000005 0.11000000 100 111 150 0.000000 0.000000 0.000000 0.000000 0.000000 0.000000 41.000000 -0.662238 0.612195 -0.432039
1.53999996 -1.05999994 0.13000000 100 111 150 0.000000 0.000000 0.000000 0.000000 0.000000 0.000000 41.000000 -0.640973 0.761247 -0.098273
1.52999997 -1.07000005 0.11000000 100 111 150 0.000000 0.000000 0.000000 0.000000 0.000000 0.000000 41.000000 -0.361698 0.814220 -0.454115
1.54999995 -1.05999994 0.10000000 100 111 150 0.000000 0.000000 0.000000 0.000000 0.000000 0.000000 41.000000 0.863380 -0.406387 0.299039
1.54999995 -1.05999994 0.10000000 100 111 150 0.000000 0.000000 0.000000 0.000000 0.000000 0.000000 41.000000 0.863380 -0.406387 0.299039
1.50999999 -1.02999997 0.13000000 100 111 150 0.000000 0.000000 0.000000 0.000000 0.000000 0.000000 41.000000 -0.703463 0.709170 -0.047088
1.50999999 -1.02999997 0.13000000 100 111 150 0.000000 0.000000 0.000000 0.000000 0.000000 0.000000 41.000000 -0.703463 0.709170 -0.047088
1.49000001 -1.07000005 0.14000000 100 111 150 0.000000 0.000000 0.000000 0.000000 0.000000 0.000000 41.000000 -0.608282 0.733470 -0.303339
1.49000001 -1.08000004 0.13000000 100 111 150 0.000000 0.000000 0.000000 0.000000 0.000000 0.000000 41.000000 0.757603 -0.526249 0.386133
1.49000001 -1.07000005 0.13000000 100 111 150 0.000000 0.000000 0.000000 0.000000 0.000000 0.000000 41.000000 0.841495 -0.467841 0.270205
1.48000002 -1.05999994 0.10000000 100 111 150 0.000000 0.000000 0.000000 0.000000 0.000000 0.000000 41.000000 0.880973 -0.377990 0.284622
1.50000000 -1.10000002 0.14000000 100 111 150 0.000000 0.000000 0.000000 0.000000 0.000000 0.000000 41.000000 0.881543 -0.428262 0.198678
1.50000000 -1.10000002 0.13000000 100 111 150 0.000000 0.000000 0.000000 0.000000 0.000000 0.000000 41.000000 0.667952 -0.730995 0.139594
1.50000000 -1.10000002 0.13000000 100 111 150 0.000000 0.000000 0.000000 0.000000 0.000000 0.000000 41.000000 0.667952 -0.730995 0.139594
1.49000001 -1.11000001 -0.17000000 100 111 150 0.000000 0.000000 0.000000 0.000000 0.000000 0.000000 41.000000 0.916608 -0.358426 -0.177088
1.49000001 -1.15999997 -0.18000001 100 111 150 0.000000 0.000000 0.000000 0.000000 0.000000 0.000000 41.000000 0.781336 -0.620768 0.064514
1.47000003 -0.88000000 0.12000000 100 111 150 0.000000 0.000000 0.000000 0.000000 0.000000 0.000000 41.000000 -0.463477 0.803468 -0.373669
1.44000006 -0.91000003 0.02000000 100 111 150 0.000000 0.000000 0.000000 0.000000 0.000000 0.000000 41.000000 0.602359 -0.722506 0.339334
1.40999997 -0.88000000 0.04000000 100 111 150 0.000000 0.000000 0.000000 0.000000 0.000000 0.000000 41.000000 0.583674 -0.600593 0.546455
1.47000003 -0.92000002 0.09000000 100 111 150 0.000000 0.000000 0.000000 0.000000 0.000000 0.000000 41.000000 -0.656746 0.722265 -0.216835
1.46000004 -0.97000003 0.14000000 100 111 150 0.000000 0.000000 0.000000 0.000000 0.000000 0.000000 41.000000 -0.407215 0.838014 -0.363192
1.47000003 -1.00000000 0.10000000 100 111 150 0.000000 0.000000 0.000000 0.000000 0.000000 0.000000 41.000000 0.739942 -0.505930 0.443306
1.39999998 -0.95999998 -0.02000000 100 111 150 0.000000 0.000000 0.000000 0.000000 0.000000 0.000000 41.000000 -0.546452 0.827735 -0.127457
1.38000000 -0.83999997 0.06000000 100 111 150 0.000000 0.000000 0.000000 0.000000 0.000000 0.000000 41.000000 0.684433 -0.283711 0.671610
1.37000000 -0.93000001 0.04000000 100 111 150 0.000000 0.000000 0.000000 0.000000 0.000000 0.000000 41.000000 0.713208 -0.450535 0.536984
1.38000000 -0.92000002 0.04000000 100 111 150 0.000000 0.000000 0.000000 0.000000 0.000000 0.000000 41.000000 0.769804 -0.405246 0.493130
1.35000002 -0.97000003 0.02000000 100 111 150 0.000000 0.000000 0.000000 0.000000 0.000000 0.000000 41.000000 -0.509475 0.854833 -0.098470
1.42999995 -0.91000003 -0.13000000 100 111 150 0.000000 0.000000 0.000000 0.000000 0.000000 0.000000 41.000000 0.843325 -0.532552 -0.072043
1.44000006 -0.88999999 -0.19000000 100 111 150 0.000000 0.000000 0.000000 0.000000 0.000000 0.000000 41.000000 -0.435309 0.834474 0.337875
1.41999996 -0.88999999 -0.19000000 100 111 150 0.000000 0.000000 0.000000 0.000000 0.000000 0.000000 41.000000 0.947803 -0.310734 -0.071508
1.42999995 -0.94999999 -0.15000001 100 111 150 0.000000 0.000000 0.000000 0.000000 0.000000 0.000000 41.000000 0.691238 -0.719980 -0.061795
1.42999995 -0.92000002 -0.14000000 100 111 150 0.000000 0.000000 0.000000 0.000000 0.000000 0.000000 41.000000 0.934460 -0.355681 0.016573
1.44000006 -0.94999999 -0.15000001 100 111 150 0.000000 0.000000 0.000000 0.000000 0.000000 0.000000 41.000000 -0.465644 0.878920 0.103319
1.47000003 -0.94999999 -0.17000000 100 111 150 0.000000 0.000000 0.000000 0.000000 0.000000 0.000000 41.000000 0.815719 -0.545331 0.192917
1.42999995 -0.95999998 -0.16000000 100 111 150 0.000000 0.000000 0.000000 0.000000 0.000000 0.000000 41.000000 -0.633174 0.731071 -0.254217
1.42999995 -0.94999999 -0.19000000 100 111 150 0.000000 0.000000 0.000000 0.000000 0.000000 0.000000 41.000000 0.917155 -0.397912 -0.022179
1.47000003 -0.94999999 -0.18000001 100 111 150 0.000000 0.000000 0.000000 0.000000 0.000000 0.000000 41.000000 0.875923 -0.469904 -0.109313
1.47000003 -0.95999998 -0.18000001 100 111 150 0.000000 0.000000 0.000000 0.000000 0.000000 0.000000 41.000000 0.719460 -0.694216 0.021037
1.38999999 -0.93000001 -0.18000001 100 111 150 0.000000 0.000000 0.000000 0.000000 0.000000 0.000000 41.000000 -0.440818 0.852452 0.281079
1.48000002 -1.29999995 -0.19000000 100 111 150 0.000000 0.000000 0.000000 0.000000 0.000000 0.000000 41.000000 -0.713241 0.639513 0.286899
1.50000000 -1.30999994 -0.16000000 100 111 150 0.000000 0.000000 0.000000 0.000000 0.000000 0.000000 41.000000 -0.561446 0.791623 0.241064
1.50000000 -1.30999994 -0.17000000 100 111 150 0.000000 0.000000 0.000000 0.000000 0.000000 0.000000 41.000000 0.903200 -0.419096 -0.092671
1.47000003 -1.21000004 -0.19000000 100 111 150 0.000000 0.000000 0.000000 0.000000 0.000000 0.000000 41.000000 -0.643203 0.733532 -0.219592
1.42999995 -1.20000005 -0.17000000 100 111 150 0.000000 0.000000 0.000000 0.000000 0.000000 0.000000 41.000000 0.761667 -0.642247 0.085924
1.46000004 -1.27999997 -0.17000000 100 111 150 0.000000 0.000000 0.000000 0.000000 0.000000 0.000000 41.000000 -0.644133 0.720100 0.257970
1.46000004 -1.27999997 -0.18000001 100 111 150 0.000000 0.000000 0.000000 0.000000 0.000000 0.000000 41.000000 0.886229 -0.443828 0.132720
1.44000006 -1.38000000 -0.15000001 100 111 150 0.000000 0.000000 0.000000 0.000000 0.000000 0.000000 41.000000 -0.536523 0.802438 0.261222
1.44000006 -1.35000002 -0.19000000 100 111 150 0.000000 0.000000 0.000000 0.000000 0.000000 0.000000 41.000000 0.697027 -0.658570 -0.283618
1.41999996 -1.38000000 -0.17000000 100 111 150 0.000000 0.000000 0.000000 0.000000 0.000000 0.000000 41.000000 0.925798 -0.350115 0.142537
1.41999996 -1.37000000 -0.17000000 100 111 150 0.000000 0.000000 0.000000 0.000000 0.000000 0.000000 41.000000 0.860546 -0.494418 0.122523
1.41999996 -1.36000001 -0.17000000 100 111 150 0.000000 0.000000 0.000000 0.000000 0.000000 0.000000 41.000000 0.858978 -0.490217 0.147797
1.41999996 -1.39999998 -0.19000000 100 111 150 0.000000 0.000000 0.000000 0.000000 0.000000 0.000000 41.000000 0.740803 -0.557646 -0.374490
1.40999997 -1.39999998 -0.19000000 100 111 150 0.000000 0.000000 0.000000 0.000000 0.000000 0.000000 41.000000 0.748959 -0.613358 -0.250704
1.28999996 -0.66000003 0.20999999 100 111 150 0.000000 0.000000 0.000000 0.000000 0.000000 0.000000 41.000000 0.382358 -0.566153 0.730255
1.22000003 -0.57999998 0.19000000 100 111 150 97.000000 1.000000 4.000000 1.000000 176.000000 114.000000 41.000000 0.119143 0.224193 0.967234
1.20000005 -0.57999998 0.15000001 100 111 150 97.000000 1.000000 4.000000 1.000000 176.000000 114.000000 41.000000 0.105789 0.328079 0.938708
1.19000006 -0.58999997 0.15000001 100 111 150 97.000000 1.000000 4.000000 1.000000 176.000000 114.000000 41.000000 0.153804 0.230049 0.960948
1.13999999 -0.58999997 0.17000000 100 111 150 97.000000 1.000000 4.000000 1.000000 176.000000 114.000000 41.000000 -0.159556 0.415421 0.895526
1.15999997 -0.60000002 0.16000000 100 111 150 97.000000 1.000000 4.000000 1.000000 176.000000 114.000000 41.000000 0.132889 0.384678 0.913435
1.14999998 -0.61000001 0.17000000 100 111 150 97.000000 1.000000 4.000000 1.000000 176.000000 114.000000 41.000000 0.060575 0.233646 0.970433
1.14999998 -0.60000002 0.17000000 100 111 150 97.000000 1.000000 4.000000 1.000000 176.000000 114.000000 41.000000 0.134356 0.278023 0.951132
1.16999996 -0.61000001 0.17000000 100 111 150 97.000000 1.000000 4.000000 1.000000 176.000000 114.000000 41.000000 0.259126 0.183152 0.948319
1.25000000 -0.69000000 0.16000000 100 111 150 0.000000 0.000000 0.000000 0.000000 0.000000 0.000000 41.000000 0.428478 0.123028 0.895137
1.28999996 -0.76999998 0.19000000 100 111 150 0.000000 0.000000 0.000000 0.000000 0.000000 0.000000 41.000000 0.603887 -0.145352 0.783705
1.28999996 -0.76999998 0.19000000 100 111 150 0.000000 0.000000 0.000000 0.000000 0.000000 0.000000 41.000000 0.603887 -0.145352 0.783705
1.26999998 -0.81000000 0.22000000 100 111 150 0.000000 0.000000 0.000000 0.000000 0.000000 0.000000 41.000000 0.578289 -0.274093 0.768411
1.20000005 -0.72000003 0.23999999 100 111 150 0.000000 0.000000 0.000000 0.000000 0.000000 0.000000 41.000000 0.126701 0.249484 0.960055
1.15999997 -0.68000001 0.20000000 100 111 150 0.000000 0.000000 0.000000 0.000000 0.000000 0.000000 41.000000 0.447656 0.019925 0.893984
1.13000000 -0.73000002 0.15000001 100 111 150 0.000000 0.000000 0.000000 0.000000 0.000000 0.000000 41.000000 0.141134 0.136225 0.980573
1.13000000 -0.72000003 0.15000001 100 111 150 0.000000 0.000000 0.000000 0.000000 0.000000 0.000000 41.000000 0.325940 -0.008742 0.945350
1.13999999 -0.73000002 0.18000001 100 111 150 0.000000 0.000000 0.000000 0.000000 0.000000 0.000000 41.000000 0.177806 0.182997 0.966901
1.13999999 -0.74000001 0.15000001 100 111 150 0.000000 0.000000 0.000000 0.000000 0.000000 0.000000 41.000000 0.397954 0.173836 0.900785
1.13000000 -0.73000002 0.19000000 100 111 150 0.000000 0.000000 0.000000 0.000000 0.000000 0.000000 41.000000 0.295977 0.228002 0.927584
1.13000000 -0.73000002 0.19000000 100 111 150 0.000000 0.000000 0.000000 0.000000 0.000000 0.000000 41.000000 0.295977 0.228002 0.927584
1.14999998 -0.75999999 0.22000000 100 111 150 0.000000 0.000000 0.000000 0.000000 0.000000 0.000000 41.000000 0.258186 0.124506 0.958039
1.14999998 -0.79000002 0.23000000 100 111 150 0.000000 0.000000 0.000000 0.000000 0.000000 0.000000 41.000000 0.143235 0.212917 0.966514
1.14999998 -0.75999999 0.20999999 100 111 150 0.000000 0.000000 0.000000 0.000000 0.000000 0.000000 41.000000 0.502880 -0.059900 0.862278
1.13999999 -0.79000002 0.20999999 100 111 150 0.000000 0.000000 0.000000 0.000000 0.000000 0.000000 41.000000 0.289185 0.026064 0.956918
1.16999996 -0.81000000 0.20999999 100 111 150 0.000000 0.000000 0.000000 0.000000 0.000000 0.000000 41.000000 0.430159 -0.376191 0.820636
1.15999997 -0.82999998 0.20999999 100 111 150 0.000000 0.000000 0.000000 0.000000 0.000000 0.000000 41.000000 0.594047 -0.112942 0.796463
1.11000001 -0.61000001 0.18000001 100 111 150 97.000000 1.000000 4.000000 1.000000 176.000000 114.000000 41.000000 -0.161850 0.459305 0.873409
1.05999994 -0.69999999 0.25000000 100 111 150 0.000000 0.000000 0.000000 0.000000 0.000000 0.000000 41.000000 0.092290 0.152219 0.984028
1.09000003 -0.68000001 0.20000000 100 111 150 0.000000 0.000000 0.000000 0.000000 0.000000 0.000000 41.000000 0.119524 0.271884 0.954879
1.11000001 -0.68000001 0.20000000 100 111 150 0.000000 0.000000 0.000000 0.000000 0.000000 0.000000 41.000000 0.304376 0.151506 0.940426
1.09000003 -0.68000001 0.20000000 100 111 150 0.000000 0.000000 0.000000 0.000000 0.000000 0.000000 41.000000 0.119524 0.271884 0.954879
1.10000002 -0.67000002 0.20000000 100 111 150 0.000000 0.000000 0.000000 0.000000 0.000000 0.000000 41.000000 0.047621 0.328198 0.943408
1.12000000 -0.67000002 0.18000001 100 111 150 0.000000 0.000000 0.000000 0.000000 0.000000 0.000000 41.000000 0.342907 -0.032107 0.938820
1.07000005 -0.67000002 0.16000000 100 111 150 0.000000 0.000000 0.000000 0.000000 0.000000 0.000000 41.000000 -0.061243 0.329672 0.942107
1.08000004 -0.76999998 0.23999999 100 111 150 0.000000 0.000000 0.000000 0.000000 0.000000 0.000000 41.000000 0.463637 0.017370 0.885855
1.08000004 -0.77999997 0.23999999 100 111 150 0.000000 0.000000 0.000000 0.000000 0.000000 0.000000 41.000000 0.382241 0.019436 0.923858
1.08000004 -0.80000001 0.23999999 100 111 150 0.000000 0.000000 0.000000 0.000000 0.000000 0.000000 41.000000 0.333591 0.055815 0.941064
1.10000002 -0.75000000 0.20999999 100 111 150 0.000000 0.000000 0.000000 0.000000 0.000000 0.000000 41.000000 0.375561 0.011536 0.926726
1.11000001 -0.75999999 0.15000001 100 111 150 0.000000 0.000000 0.000000 0.000000 0.000000 0.000000 41.000000 0.398172 -0.357574 0.844749
1.11000001 -0.76999998 0.19000000 100 111 150 0.000000 0.000000 0.000000 0.000000 0.000000 0.000000 41.000000 0.178890 0.191948 0.964963
1.05999994 -0.75999999 0.20999999 100 111 150 0.000000 0.000000 0.000000 0.000000 0.000000 0.000000 41.000000 0.163764 0.141262 0.976333
1.08000004 -0.75000000 0.18000001 100 111 150 0.000000 0.000000 0.000000 0.000000 0.000000 0.000000 41.000000 0.246178 0.015611 0.969099
1.08000004 -0.81999999 0.22000000 100 111 150 0.000000 0.000000 0.000000 0.000000 0.000000 0.000000 41.000000 0.501852 -0.083406 0.860923
1.02999997 -0.69999999 0.25000000 100 111 150 0.000000 0.000000 0.000000 0.000000 0.000000 0.000000 41.000000 0.169475 0.117519 0.978503
1.02999997 -0.69999999 0.25000000 100 111 150 0.000000 0.000000 0.000000 0.000000 0.000000 0.000000 41.000000 0.169475 0.117519 0.978503
1.00000000 -0.73000002 0.22000000 100 111 150 0.000000 0.000000 0.000000 0.000000 0.000000 0.000000 41.000000 0.077658 0.410088 0.908734
1.00000000 -0.74000001 0.22000000 100 111 150 0.000000 0.000000 0.000000 0.000000 0.000000 0.000000 41.000000 0.077692 0.327885 0.941518
1.00999999 -0.75999999 0.25000000 100 111 150 0.000000 0.000000 0.000000 0.000000 0.000000 0.000000 41.000000 0.060540 0.235981 0.969870
1.00000000 -0.76999998 0.25000000 100 111 150 0.000000 0.000000 0.000000 0.000000 0.000000 0.000000 41.000000 0.011815 0.431890 0.901849
1.01999998 -0.81999999 0.23999999 100 111 150 0.000000 0.000000 0.000000 0.000000 0.000000 0.000000 41.000000 0.256897 0.088189 0.962407
1.02999997 -0.81000000 0.23999999 100 111 150 0.000000 0.000000 0.000000 0.000000 0.000000 0.000000 41.000000 0.255375 0.040712 0.965984
0.98000002 -0.81999999 0.23999999 100 111 150 0.000000 0.000000 0.000000 0.000000 0.000000 0.000000 41.000000 0.209787 -0.329665 0.920494
0.99000001 -0.82999998 0.25999999 100 111 150 0.000000 0.000000 0.000000 0.000000 0.000000 0.000000 41.000000 0.176015 -0.107086 0.978545
1.01999998 -0.79000002 0.23000000 100 111 150 0.000000 0.000000 0.000000 0.000000 0.000000 0.000000 41.000000 0.153931 -0.084722 0.984443
1.01999998 -0.76999998 0.20999999 100 111 150 0.000000 0.000000 0.000000 0.000000 0.000000 0.000000 41.000000 0.022438 0.421044 0.906763
1.01999998 -0.79000002 0.17000000 100 111 150 0.000000 0.000000 0.000000 0.000000 0.000000 0.000000 41.000000 -0.043499 0.386216 0.921382
1.02999997 -0.81999999 0.23000000 100 111 150 0.000000 0.000000 0.000000 0.000000 0.000000 0.000000 41.000000 0.416477 -0.116389 0.901665
1.00000000 -0.81999999 0.23000000 100 111 150 0.000000 0.000000 0.000000 0.000000 0.000000 0.000000 41.000000 0.249009 0.027938 0.968098
1.19000006 -0.51999998 0.11000000 100 111 150 97.000000 1.000000 4.000000 1.000000 176.000000 114.000000 41.000000 0.129816 0.334789 0.933308
1.21000004 -0.52999997 0.13000000 100 111 150 97.000000 1.000000 4.000000 1.000000 176.000000 114.000000 41.000000 0.155671 0.363233 0.918601
1.21000004 -0.52999997 0.13000000 100 111 150 97.000000 1.000000 4.000000 1.000000 176.000000 114.000000 41.000000 0.155671 0.363233 0.918601
1.17999995 -0.56999999 0.14000000 100 111 150 97.000000 1.000000 4.000000 1.000000 176.000000 114.000000 41.000000 -0.099294 0.443325 0.890845
1.21000004 -0.56000000 0.13000000 100 111 150 97.000000 1.000000 4.000000 1.000000 176.000000 114.000000 41.000000 0.067434 0.355680 0.932172
1.23000002 -0.72000003 0.09000000 100 111 150 0.000000 0.000000 0.000000 0.000000 0.000000 0.000000 41.000000 0.416891 0.019727 0.908743
1.23000002 -0.73000002 0.09000000 100 111 150 0.000000 0.000000 0.000000 0.000000 0.000000 0.000000 41.000000 0.595557 -0.260655 0.759849
1.28999996 -0.77999997 0.08000000 100 111 150 0.000000 0.000000 0.000000 0.000000 0.000000 0.000000 41.000000 -0.283720 0.681248 -0.674836
1.22000003 -0.79000002 0.08000000 100 111 150 0.000000 0.000000 0.000000 0.000000 0.000000 0.000000 41.000000 0.582821 -0.364059 0.726485
1.24000001 -0.77999997 0.08000000 100 111 150 0.000000 0.000000 0.000000 0.000000 0.000000 0.000000 41.000000 0.633222 -0.333703 0.698335
1.25000000 -0.75999999 0.08000000 100 111 150 0.000000 0.000000 0.000000 0.000000 0.000000 0.000000 41.000000 -0.486351 0.634444 -0.600786
1.24000001 -0.77999997 0.08000000 100 111 150 0.000000 0.000000 0.000000 0.000000 0.000000 0.000000 41.000000 0.633222 -0.333703 0.698335
1.25000000 -0.75999999 0.08000000 100 111 150 0.000000 0.000000 0.000000 0.000000 0.000000 0.000000 41.000000 -0.486351 0.634444 -0.600786
1.26999998 -0.75999999 0.06000000 100 111 150 0.000000 0.000000 0.000000 0.000000 0.000000 0.000000 41.000000 -0.391525 0.692190 -0.606285
1.17999995 -0.72000003 0.11000000 100 111 150 0.000000 0.000000 0.000000 0.000000 0.000000 0.000000 41.000000 0.492813 -0.167231 0.853914
1.20000005 -0.77999997 0.10000000 100 111 150 0.000000 0.000000 0.000000 0.000000 0.000000 0.000000 41.000000 0.644929 -0.359388 0.674468
1.09000003 -0.50000000 0.01000000 100 111 150 97.000000 1.000000 4.000000 1.000000 176.000000 114.000000 41.000000 0.373580 -0.620439 -0.689560
1.04999995 -0.52999997 -0.02000000 100 111 150 97.000000 1.000000 4.000000 1.000000 176.000000 114.000000 41.000000 0.520782 -0.621904 -0.584826
1.04999995 -0.50999999 -0.01000000 100 111 150 97.000000 1.000000 4.000000 1.000000 176.000000 114.000000 41.000000 0.545574 -0.472163 -0.692395
1.01999998 -0.51999998 0.03000000 100 111 150 97.000000 1.000000 4.000000 1.000000 176.000000 114.000000 41.000000 -0.395774 0.509784 0.763861
1.00999999 -0.54000002 0.04000000 100 111 150 97.000000 1.000000 4.000000 1.000000 176.000000 114.000000 41.000000 -0.631026 0.702401 0.329301
1.00000000 -0.55000001 0.03000000 100 111 150 97.000000 1.000000 4.000000 1.000000 176.000000 114.000000 41.000000 -0.401661 0.792031 0.459733
0.99000001 -0.55000001 0.03000000 100 111 150 97.000000 1.000000 4.000000 1.000000 176.000000 114.000000 41.000000 0.656816 -0.370385 -0.656816
0.95999998 -0.61000001 0.05000000 100 111 150 97.000000 1.000000 4.000000 1.000000 176.000000 114.000000 41.000000 -0.193517 0.447601 0.873043
0.98000002 -0.57999998 0.03000000 100 111 150 97.000000 1.000000 4.000000 1.000000 176.000000 114.000000 41.000000 -0.470174 0.667613 0.577260
0.95999998 -0.61000001 0.05000000 100 111 150 97.000000 1.000000 4.000000 1.000000 176.000000 114.000000 41.000000 -0.193517 0.447601 0.873043
1.12000000 -0.74000001 0.14000000 100 111 150 0.000000 0.000000 0.000000 0.000000 0.000000 0.000000 41.000000 0.185282 0.113159 0.976148
1.03999996 -0.68000001 0.13000000 100 111 150 0.000000 0.000000 0.000000 0.000000 0.000000 0.000000 41.000000 0.025136 0.422027 0.906235
0.99000001 -0.73000002 0.13000000 100 111 150 0.000000 0.000000 0.000000 0.000000 0.000000 0.000000 41.000000 -0.226641 0.439774 0.869041
0.97000003 -0.74000001 0.12000000 100 111 150 0.000000 0.000000 0.000000 0.000000 0.000000 0.000000 41.000000 -0.198342 0.463791 0.863457
0.99000001 -0.73000002 0.13000000 100 111 150 0.000000 0.000000 0.000000 0.000000 0.000000 0.000000 41.000000 -0.226641 0.439774 0.869041
0.97000003 -0.72000003 0.11000000 100 111 150 0.000000 0.000000 0.000000 0.000000 0.000000 0.000000 41.000000 -0.138321 0.378635 0.915152
0.98000002 -0.75000000 0.13000000 100 111 150 0.000000 0.000000 0.000000 0.000000 0.000000 0.000000 41.000000 0.022993 0.488268 0.872391
1.25999999 -0.88999999 0.34999999 100 111 150 0.000000 0.000000 0.000000 0.000000 0.000000 0.000000 41.000000 0.503835 -0.477230 0.720002
1.20000005 -0.94999999 0.37000000 100 111 150 0.000000 0.000000 0.000000 0.000000 0.000000 0.000000 41.000000 0.436385 -0.465804 0.769802
1.21000004 -0.95999998 0.36000001 100 111 150 0.000000 0.000000 0.000000 0.000000 0.000000 0.000000 41.000000 -0.366719 0.666015 -0.649570
1.26999998 -0.88000000 0.28000000 100 111 150 0.000000 0.000000 0.000000 0.000000 0.000000 0.000000 41.000000 0.683012 -0.095475 0.724140
1.23000002 -0.89999998 0.28000000 100 111 150 0.000000 0.000000 0.000000 0.000000 0.000000 0.000000 41.000000 0.480842 -0.065129 0.874385
1.23000002 -0.89999998 0.28000000 100 111 150 0.000000 0.000000 0.000000 0.000000 0.000000 0.000000 41.000000 0.480842 -0.065129 0.874385
1.23000002 -0.91000003 0.28000000 100 111 150 0.000000 0.000000 0.000000 0.000000 0.000000 0.000000 41.000000 -0.241200 0.710990 -0.660542
1.23000002 -0.89999998 0.28000000 100 111 150 0.000000 0.000000 0.000000 0.000000 0.000000 0.000000 41.000000 0.480842 -0.065129 0.874385
1.23000002 -0.91000003 0.28000000 100 111 150 0.000000 0.000000 0.000000 0.000000 0.000000 0.000000 41.000000 -0.241200 0.710990 -0.660542
1.23000002 -0.88000000 0.23999999 100 111 150 0.000000 0.000000 0.000000 0.000000 0.000000 0.000000 41.000000 0.551087 -0.377748 0.744049
1.25000000 -0.92000002 0.28999999 100 111 150 0.000000 0.000000 0.000000 0.000000 0.000000 0.000000 41.000000 0.542496 -0.369809 0.754281
1.27999997 -0.93000001 0.23000000 100 111 150 0.000000 0.000000 0.000000 0.000000 0.000000 0.000000 41.000000 -0.696003 0.525758 -0.489038
1.21000004 -0.93000001 0.27000001 100 111 150 0.000000 0.000000 0.000000 0.000000 0.000000 0.000000 41.000000 0.496215 -0.062548 0.865944
1.13999999 -1.16999996 0.15000001 100 111 150 0.000000 0.000000 0.000000 0.000000 0.000000 0.000000 41.000000 0.560092 -0.290360 0.775879
1.04999995 -0.89999998 0.25999999 100 111 150 0.000000 0.000000 0.000000 0.000000 0.000000 0.000000 41.000000 0.202182 0.109253 0.973235
1.05999994 -0.88000000 0.22000000 100 111 150 0.000000 0.000000 0.000000 0.000000 0.000000 0.000000 41.000000 0.267509 0.125189 0.955388
1.04999995 -0.94000000 0.25000000 100 111 150 0.000000 0.000000 0.000000 0.000000 0.000000 0.000000 41.000000 0.466403 -0.479588 0.743279
1.04999995 -0.94000000 0.25000000 100 111 150 0.000000 0.000000 0.000000 0.000000 0.000000 0.000000 41.000000 0.466403 -0.479588 0.743279
1.09000003 -0.94999999 0.19000000 100 111 150 0.000000 0.000000 0.000000 0.000000 0.000000 0.000000 41.000000 0.650031 -0.340492 0.679356
1.04999995 -0.94000000 0.20999999 100 111 150 0.000000 0.000000 0.000000 0.000000 0.000000 0.000000 41.000000 0.386421 -0.529902 0.754906
1.05999994 -0.99000001 0.19000000 100 111 150 0.000000 0.000000 0.000000 0.000000 0.000000 0.000000 41.000000 0.404186 -0.143238 0.903392
1.05999994 -0.99000001 0.18000001 100 111 150 0.000000 0.000000 0.000000 0.000000 0.000000 0.000000 41.000000 0.326047 -0.350311 0.878052
1.01999998 -0.83999997 0.25000000 100 111 150 0.000000 0.000000 0.000000 0.000000 0.000000 0.000000 41.000000 -0.056040 0.337541 0.939641
1.00999999 -0.86000001 0.25000000 100 111 150 0.000000 0.000000 0.000000 0.000000 0.000000 0.000000 41.000000 0.380347 0.120328 0.916983
1.00999999 -0.87000000 0.23999999 100 111 150 0.000000 0.000000 0.000000 0.000000 0.000000 0.000000 41.000000 0.289513 -0.243875 0.925585
1.01999998 -0.83999997 0.25000000 100 111 150 0.000000 0.000000 0.000000 0.000000 0.000000 0.000000 41.000000 -0.056040 0.337541 0.939641
1.00000000 -0.86000001 0.25999999 100 111 150 0.000000 0.000000 0.000000 0.000000 0.000000 0.000000 41.000000 0.156286 0.059929 0.985892
1.00999999 -0.91000003 0.27000001 100 111 150 0.000000 0.000000 0.000000 0.000000 0.000000 0.000000 41.000000 0.462668 -0.181815 0.867687
1.02999997 -0.89999998 0.25999999 100 111 150 0.000000 0.000000 0.000000 0.000000 0.000000 0.000000 41.000000 0.168128 -0.291148 0.941789
0.97000003 -0.88999999 0.23999999 100 111 150 0.000000 0.000000 0.000000 0.000000 0.000000 0.000000 41.000000 0.246562 -0.053277 0.967662
0.97000003 -0.88999999 0.27000001 100 111 150 0.000000 0.000000 0.000000 0.000000 0.000000 0.000000 41.000000 0.330556 -0.021530 0.943541
0.97000003 -0.88000000 0.27000001 100 111 150 0.000000 0.000000 0.000000 0.000000 0.000000 0.000000 41.000000 0.235209 0.297932 0.925156
0.98000002 -0.88999999 0.27000001 100 111 150 0.000000 0.000000 0.000000 0.000000 0.000000 0.000000 41.000000 0.201503 0.162502 0.965914
0.97000003 -0.91000003 0.25999999 100 111 150 0.000000 0.000000 0.000000 0.000000 0.000000 0.000000 41.000000 0.299691 -0.335475 0.893108
1.02999997 -0.87000000 0.22000000 100 111 150 0.000000 0.000000 0.000000 0.000000 0.000000 0.000000 41.000000 0.342855 0.163731 0.925009
1.01999998 -0.88999999 0.23000000 100 111 150 0.000000 0.000000 0.000000 0.000000 0.000000 0.000000 41.000000 0.195849 -0.428511 0.882055
1.03999996 -0.94000000 0.25999999 100 111 150 0.000000 0.000000 0.000000 0.000000 0.000000 0.000000 41.000000 0.228564 -0.353765 0.906978
1.02999997 -0.94999999 0.25000000 100 111 150 0.000000 0.000000 0.000000 0.000000 0.000000 0.000000 41.000000 0.357256 -0.423357 0.832549
0.95999998 -0.93000001 0.27000001 100 111 150 0.000000 0.000000 0.000000 0.000000 0.000000 0.000000 41.000000 0.424697 0.092686 0.900579
0.97000003 -0.95999998 0.25000000 100 111 150 0.000000 0.000000 0.000000 0.000000 0.000000 0.000000 41.000000 0.159193 -0.292534 0.942911
0.99000001 -0.95999998 0.25000000 100 111 150 0.000000 0.000000 0.000000 0.000000 0.000000 0.000000 41.000000 0.219171 0.227338 0.948832
0.98000002 -0.95999998 0.25999999 100 111 150 0.000000 0.000000 0.000000 0.000000 0.000000 0.000000 41.000000 0.367526 0.187338 0.910950
0.98000002 -0.95999998 0.25999999 100 111 150 0.000000 0.000000 0.000000 0.000000 0.000000 0.000000 41.000000 0.367526 0.187338 0.910950
0.98000002 -0.95999998 0.25999999 100 111 150 0.000000 0.000000 0.000000 0.000000 0.000000 0.000000 41.000000 0.367526 0.187338 0.910950
0.97000003 -0.98000002 0.25999999 100 111 150 0.000000 0.000000 0.000000 0.000000 0.000000 0.000000 41.000000 0.297767 -0.294833 0.907969
0.99000001 -0.97000003 0.25999999 100 111 150 0.000000 0.000000 0.000000 0.000000 0.000000 0.000000 41.000000 0.184365 0.168894 0.968238
1.02999997 -0.98000002 0.20000000 100 111 150 0.000000 0.000000 0.000000 0.000000 0.000000 0.000000 41.000000 0.166683 -0.563120 0.809391
1.03999996 -0.99000001 0.19000000 100 111 150 0.000000 0.000000 0.000000 0.000000 0.000000 0.000000 41.000000 0.254143 -0.442847 0.859824
1.02999997 -1.00000000 0.19000000 100 111 150 0.000000 0.000000 0.000000 0.000000 0.000000 0.000000 41.000000 0.595768 -0.413221 0.688701
1.02999997 -1.00000000 0.19000000 100 111 150 0.000000 0.000000 0.000000 0.000000 0.000000 0.000000 41.000000 0.595768 -0.413221 0.688701
1.09000003 -1.05999994 0.20000000 100 111 150 0.000000 0.000000 0.000000 0.000000 0.000000 0.000000 41.000000 0.509801 -0.177907 0.841696
1.09000003 -1.05999994 0.18000001 100 111 150 0.000000 0.000000 0.000000 0.000000 0.000000 0.000000 41.000000 0.314722 -0.426347 0.848044
1.09000003 -1.05999994 0.18000001 100 111 150 0.000000 0.000000 0.000000 0.000000 0.000000 0.000000 41.000000 0.314722 -0.426347 0.848044
1.07000005 -1.03999996 0.19000000 100 111 150 0.000000 0.000000 0.000000 0.000000 0.000000 0.000000 41.000000 0.600598 -0.184917 0.777874
1.05999994 -1.03999996 0.19000000 100 111 150 0.000000 0.000000 0.000000 0.000000 0.000000 0.000000 41.000000 0.305458 -0.574134 0.759648
1.07000005 -1.09000003 0.17000000 100 111 150 0.000000 0.000000 0.000000 0.000000 0.000000 0.000000 41.000000 0.399819 -0.127662 0.907660
1.08000004 -1.07000005 0.19000000 100 111 150 0.000000 0.000000 0.000000 0.000000 0.000000 0.000000 41.000000 0.407133 -0.326635 0.852967
1.08000004 -1.07000005 0.18000001 100 111 150 0.000000 0.000000 0.000000 0.000000 0.000000 0.000000 41.000000 0.248738 -0.564745 0.786888
1.09000003 -1.12000000 0.17000000 100 111 150 0.000000 0.000000 0.000000 0.000000 0.000000 0.000000 41.000000 0.572659 -0.066786 0.817069
1.09000003 -1.11000001 0.19000000 100 111 150 0.000000 0.000000 0.000000 0.000000 0.000000 0.000000 41.000000 0.625804 -0.442235 0.642493
1.09000003 -1.13000000 0.17000000 100 111 150 0.000000 0.000000 0.000000 0.000000 0.000000 0.000000 41.000000 0.496268 -0.086246 0.863875
1.10000002 -1.13999999 0.16000000 100 111 150 0.000000 0.000000 0.000000 0.000000 0.000000 0.000000 41.000000 0.304483 -0.623465 0.720126
1.05999994 -1.10000002 0.18000001 100 111 150 0.000000 0.000000 0.000000 0.000000 0.000000 0.000000 41.000000 0.398356 -0.462868 0.791875
1.05999994 -1.10000002 0.18000001 100 111 150 0.000000 0.000000 0.000000 0.000000 0.000000 0.000000 41.000000 0.398356 -0.462868 0.791875
1.00999999 -1.00999999 0.23999999 100 111 150 0.000000 0.000000 0.000000 0.000000 0.000000 0.000000 41.000000 0.411955 -0.418366 0.809483
1.00000000 -1.03999996 0.17000000 100 111 150 0.000000 0.000000 0.000000 0.000000 0.000000 0.000000 41.000000 0.229406 -0.395170 0.889502
1.02999997 -1.11000001 0.19000000 100 111 150 0.000000 0.000000 0.000000 0.000000 0.000000 0.000000 41.000000 0.390567 -0.130189 0.911322
1.08000004 -1.15999997 0.13000000 100 111 150 0.000000 0.000000 0.000000 0.000000 0.000000 0.000000 41.000000 0.379567 -0.603036 0.701624
1.05999994 -1.13000000 0.14000000 100 111 150 0.000000 0.000000 0.000000 0.000000 0.000000 0.000000 41.000000 0.603826 -0.271009 0.749632
0.94000000 -0.72000003 0.17000000 100 111 150 0.000000 0.000000 0.000000 0.000000 0.000000 0.000000 41.000000 0.003629 0.274560 0.961563
0.94000000 -0.82999998 0.25000000 100 111 150 0.000000 0.000000 0.000000 0.000000 0.000000 0.000000 41.000000 0.099741 0.081398 0.991678
0.93000001 -0.82999998 0.25000000 100 111 150 0.000000 0.000000 0.000000 0.000000 0.000000 0.000000 41.000000 0.263428 -0.028181 0.964267
0.89999998 -0.79000002 0.25000000 100 111 150 0.000000 0.000000 0.000000 0.000000 0.000000 0.000000 41.000000 -0.066061 0.314760 0.946870
0.91000003 -0.75999999 0.23999999 100 111 150 0.000000 0.000000 0.000000 0.000000 0.000000 0.000000 41.000000 0.146410 0.216376 0.965270
0.89999998 -0.79000002 0.25000000 100 111 150 0.000000 0.000000 0.000000 0.000000 0.000000 0.000000 41.000000 -0.066061 0.314760 0.946870
0.91000003 -0.81999999 0.25999999 100 111 150 0.000000 0.000000 0.000000 0.000000 0.000000 0.000000 41.000000 0.264305 0.250171 0.931428
0.88999999 -0.81999999 0.25999999 100 111 150 0.000000 0.000000 0.000000 0.000000 0.000000 0.000000 41.000000 0.075769 0.354917 0.931823
0.89999998 -0.81999999 0.25000000 100 111 150 0.000000 0.000000 0.000000 0.000000 0.000000 0.000000 41.000000 -0.090487 0.368703 0.925133
0.94000000 -0.79000002 0.18000001 100 111 150 0.000000 0.000000 0.000000 0.000000 0.000000 0.000000 41.000000 0.075554 0.435465 0.897030
0.91000003 -0.75000000 0.20000000 100 111 150 0.000000 0.000000 0.000000 0.000000 0.000000 0.000000 41.000000 -0.342158 0.515646 0.785517
0.85000002 -0.75999999 0.23999999 100 111 150 0.000000 0.000000 0.000000 0.000000 0.000000 0.000000 41.000000 -0.073856 0.480763 0.873735
0.86000001 -0.79000002 0.25000000 100 111 150 0.000000 0.000000 0.000000 0.000000 0.000000 0.000000 41.000000 0.051809 0.286846 0.956575
0.86000001 -0.79000002 0.25000000 100 111 150 0.000000 0.000000 0.000000 0.000000 0.000000 0.000000 41.000000 0.051809 0.286846 0.956575
0.85000002 -0.76999998 0.23999999 100 111 150 0.000000 0.000000 0.000000 0.000000 0.000000 0.000000 41.000000 0.015366 0.221033 0.975145
0.86000001 -0.77999997 0.25000000 100 111 150 0.000000 0.000000 0.000000 0.000000 0.000000 0.000000 41.000000 -0.154569 0.387130 0.908977
0.85000002 -0.76999998 0.25000000 100 111 150 0.000000 0.000000 0.000000 0.000000 0.000000 0.000000 41.000000 -0.038922 0.292539 0.955461
0.85000002 -0.81000000 0.25000000 100 111 150 0.000000 0.000000 0.000000 0.000000 0.000000 0.000000 41.000000 0.052483 0.225797 0.972760
0.85000002 -0.81000000 0.25000000 100 111 150 0.000000 0.000000 0.000000 0.000000 0.000000 0.000000 41.000000 0.052483 0.225797 0.972760
0.87000000 -0.80000001 0.23999999 100 111 150 0.000000 0.000000 0.000000 0.000000 0.000000 0.000000 41.000000 -0.014908 0.513641 0.857876
0.94000000 -0.62000000 0.08000000 100 111 150 0.000000 0.000000 0.000000 0.000000 0.000000 0.000000 41.000000 0.563615 -0.696622 -0.443909
0.89999998 -0.61000001 0.06000000 100 111 150 97.000000 1.000000 4.000000 1.000000 176.000000 114.000000 41.000000 0.606223 -0.569072 -0.555563
0.87000000 -0.64999998 0.07000000 100 111 150 0.000000 0.000000 0.000000 0.000000 0.000000 0.000000 41.000000 0.621554 -0.651548 -0.434921
0.94999999 -0.69999999 0.12000000 100 111 150 0.000000 0.000000 0.000000 0.000000 0.000000 0.000000 41.000000 -0.083148 0.491839 0.866707
0.94999999 -0.72000003 0.12000000 100 111 150 0.000000 0.000000 0.000000 0.000000 0.000000 0.000000 41.000000 0.087980 0.377639 0.921764
0.88999999 -0.67000002 0.13000000 100 111 150 0.000000 0.000000 0.000000 0.000000 0.000000 0.000000 41.000000 0.216130 -0.642170 -0.735463
0.88999999 -0.67000002 0.13000000 100 111 150 0.000000 0.000000 0.000000 0.000000 0.000000 0.000000 41.000000 0.216130 -0.642170 -0.735463
0.94000000 -0.82999998 0.12000000 100 111 150 0.000000 0.000000 0.000000 0.000000 0.000000 0.000000 41.000000 0.150576 -0.021511 0.988364
0.92000002 -0.85000002 0.25000000 100 111 150 0.000000 0.000000 0.000000 0.000000 0.000000 0.000000 41.000000 0.217376 0.096751 0.971281
0.93000001 -0.87000000 0.23999999 100 111 150 0.000000 0.000000 0.000000 0.000000 0.000000 0.000000 41.000000 0.109936 0.351522 0.929702
0.94000000 -0.88999999 0.25000000 100 111 150 0.000000 0.000000 0.000000 0.000000 0.000000 0.000000 41.000000 0.211081 -0.093675 0.972970
0.91000003 -0.87000000 0.25999999 100 111 150 0.000000 0.000000 0.000000 0.000000 0.000000 0.000000 41.000000 0.061041 0.427288 0.902053
0.91000003 -0.87000000 0.25999999 100 111 150 0.000000 0.000000 0.000000 0.000000 0.000000 0.000000 41.000000 0.061041 0.427288 0.902053
0.89999998 -0.83999997 0.25999999 100 111 150 0.000000 0.000000 0.000000 0.000000 0.000000 0.000000 41.000000 0.292539 0.038922 0.955461
1.13000000 -1.17999995 0.16000000 100 111 150 0.000000 0.000000 0.000000 0.000000 0.000000 0.000000 41.000000 0.405948 -0.651174 0.641232
1.75000000 -0.74000001 -0.20000000 100 111 150 0.000000 0.000000 0.000000 0.000000 0.000000 0.000000 41.000000 -0.516349 0.812743 0.269874
1.74000001 -0.72000003 -0.20000000 100 111 150 0.000000 0.000000 0.000000 0.000000 0.000000 0.000000 41.000000 -0.649312 0.758248 -0.058768
1.69000006 -0.77999997 -0.22000000 100 111 150 0.000000 0.000000 0.000000 0.000000 0.000000 0.000000 41.000000 -0.418275 0.773075 0.476866
1.63000000 -0.69999999 -0.20999999 100 111 150 0.000000 0.000000 0.000000 0.000000 0.000000 0.000000 41.000000 -0.665751 0.736922 0.117137
1.49000001 -0.91000003 -0.20000000 100 111 150 0.000000 0.000000 0.000000 0.000000 0.000000 0.000000 41.000000 -0.513292 0.749439 0.418177
1.50999999 -0.94000000 -0.28000000 100 111 150 0.000000 0.000000 0.000000 0.000000 0.000000 0.000000 41.000000 -0.505347 0.815127 0.283182
1.50000000 -0.99000001 -0.22000000 100 111 150 0.000000 0.000000 0.000000 0.000000 0.000000 0.000000 41.000000 0.820240 -0.560910 0.112182
1.50000000 -1.00000000 -0.20999999 100 111 150 0.000000 0.000000 0.000000 0.000000 0.000000 0.000000 41.000000 0.542678 -0.660286 -0.519156
1.48000002 -0.99000001 -0.28000000 100 111 150 0.000000 0.000000 0.000000 0.000000 0.000000 0.000000 41.000000 0.927783 -0.321425 -0.189487
1.48000002 -0.98000002 -0.25000000 100 111 150 0.000000 0.000000 0.000000 0.000000 0.000000 0.000000 41.000000 0.876124 -0.362901 -0.317348
1.48000002 -0.99000001 -0.28000000 100 111 150 0.000000 0.000000 0.000000 0.000000 0.000000 0.000000 41.000000 0.927783 -0.321425 -0.189487
1.48000002 -0.93000001 -0.28999999 100 111 150 0.000000 0.000000 0.000000 0.000000 0.000000 0.000000 41.000000 -0.535713 0.714836 0.449468
1.48000002 -0.94000000 -0.28999999 100 111 150 0.000000 0.000000 0.000000 0.000000 0.000000 0.000000 41.000000 -0.547698 0.652182 0.524105
1.49000001 -0.97000003 -0.28999999 100 111 150 0.000000 0.000000 0.000000 0.000000 0.000000 0.000000 41.000000 0.695648 -0.704663 -0.139731
1.49000001 -0.97000003 -0.28999999 100 111 150 0.000000 0.000000 0.000000 0.000000 0.000000 0.000000 41.000000 0.695648 -0.704663 -0.139731
1.48000002 -1.01999998 -0.25000000 100 111 150 0.000000 0.000000 0.000000 0.000000 0.000000 0.000000 41.000000 -0.648068 0.749843 -0.133206
1.49000001 -1.02999997 -0.28999999 100 111 150 0.000000 0.000000 0.000000 0.000000 0.000000 0.000000 41.000000 0.553880 -0.789240 -0.265172
1.50000000 -1.10000002 -0.23999999 100 111 150 0.000000 0.000000 0.000000 0.000000 0.000000 0.000000 41.000000 0.899132 -0.435412 0.044485
1.50000000 -1.10000002 -0.23999999 100 111 150 0.000000 0.000000 0.000000 0.000000 0.000000 0.000000 41.000000 0.899132 -0.435412 0.044485
1.48000002 -1.15999997 -0.20000000 100 111 150 0.000000 0.000000 0.000000 0.000000 0.000000 0.000000 41.000000 0.757075 -0.599022 -0.260788
1.42999995 -0.94999999 -0.20999999 100 111 150 0.000000 0.000000 0.000000 0.000000 0.000000 0.000000 41.000000 0.716700 -0.697064 0.021038
1.47000003 -0.94999999 -0.20999999 100 111 150 0.000000 0.000000 0.000000 0.000000 0.000000 0.000000 41.000000 -0.709247 0.671836 0.213553
1.44000006 -1.00000000 -0.25000000 100 111 150 0.000000 0.000000 0.000000 0.000000 0.000000 0.000000 41.000000 0.834678 -0.550533 -0.015027
1.44000006 -1.00000000 -0.25000000 100 111 150 0.000000 0.000000 0.000000 0.000000 0.000000 0.000000 41.000000 0.834678 -0.550533 -0.015027
1.40999997 -0.95999998 -0.22000000 100 111 150 0.000000 0.000000 0.000000 0.000000 0.000000 0.000000 41.000000 -0.614027 0.783213 0.097719
1.45000005 -0.94999999 -0.28999999 100 111 150 0.000000 0.000000 0.000000 0.000000 0.000000 0.000000 41.000000 0.517464 -0.830067 -0.207896
1.47000003 -0.94999999 -0.28999999 100 111 150 0.000000 0.000000 0.000000 0.000000 0.000000 0.000000 41.000000 0.693242 -0.657856 -0.294347
1.42999995 -1.02999997 -0.22000000 100 111 150 0.000000 0.000000 0.000000 0.000000 0.000000 0.000000 41.000000 -0.548052 0.835326 -0.043231
1.47000003 -1.09000003 -0.20999999 100 111 150 0.000000 0.000000 0.000000 0.000000 0.000000 0.000000 41.000000 0.782241 -0.616179 0.091771
1.47000003 -1.09000003 -0.20999999 100 111 150 0.000000 0.000000 0.000000 0.000000 0.000000 0.000000 41.000000 0.782241 -0.616179 0.091771
1.45000005 -1.05999994 -0.25999999 100 111 150 0.000000 0.000000 0.000000 0.000000 0.000000 0.000000 41.000000 -0.604648 0.730414 0.317642
1.44000006 -1.08000004 -0.23999999 100 111 150 0.000000 0.000000 0.000000 0.000000 0.000000 0.000000 41.000000 -0.566411 0.816855 -0.109205
1.46000004 -1.04999995 -0.25999999 100 111 150 0.000000 0.000000 0.000000 0.000000 0.000000 0.000000 41.000000 0.536274 -0.689973 -0.486155
1.46000004 -1.13000000 -0.20999999 100 111 150 0.000000 0.000000 0.000000 0.000000 0.000000 0.000000 41.000000 -0.417070 0.835713 0.357263
1.46000004 -1.10000002 -0.25000000 100 111 150 0.000000 0.000000 0.000000 0.000000 0.000000 0.000000 41.000000 0.907532 -0.274166 -0.318149
1.47000003 -1.16999996 -0.20999999 100 111 150 0.000000 0.000000 0.000000 0.000000 0.000000 0.000000 41.000000 0.621520 -0.667927 -0.409374
1.47000003 -1.16999996 -0.20999999 100 111 150 0.000000 0.000000 0.000000 0.000000 0.000000 0.000000 41.000000 0.621520 -0.667927 -0.409374
1.44000006 -1.13999999 -0.23000000 100 111 150 0.000000 0.000000 0.000000 0.000000 0.000000 0.000000 41.000000 -0.531881 0.724087 0.439092
1.52999997 -1.21000004 -0.25000000 100 111 150 0.000000 0.000000 0.000000 0.000000 0.000000 0.000000 41.000000 0.887065 -0.405895 -0.219921
1.48000002 -1.23000002 -0.28000000 100 111 150 0.000000 0.000000 0.000000 0.000000 0.000000 0.000000 41.000000 0.871485 -0.476527 -0.115912
1.50999999 -1.25999999 -0.28999999 100 111 150 0.000000 0.000000 0.000000 0.000000 0.000000 0.000000 41.000000 0.873730 -0.482010 -0.065287
1.48000002 -1.26999998 -0.20999999 100 111 150 0.000000 0.000000 0.000000 0.000000 0.000000 0.000000 41.000000 0.833454 -0.552453 -0.012277
1.50000000 -1.26999998 -0.31999999 100 111 150 0.000000 0.000000 0.000000 0.000000 0.000000 0.000000 41.000000 -0.537892 0.842925 0.012256
1.50000000 -1.26999998 -0.31999999 100 111 150 0.000000 0.000000 0.000000 0.000000 0.000000 0.000000 41.000000 -0.537892 0.842925 0.012256
1.46000004 -1.25000000 -0.20000000 100 111 150 0.000000 0.000000 0.000000 0.000000 0.000000 0.000000 41.000000 -0.562093 0.825618 0.049060
1.44000006 -1.25999999 -0.20999999 100 111 150 0.000000 0.000000 0.000000 0.000000 0.000000 0.000000 41.000000 0.880226 -0.473342 -0.033907
1.44000006 -1.29999995 -0.20000000 100 111 150 0.000000 0.000000 0.000000 0.000000 0.000000 0.000000 41.000000 -0.665568 0.745039 -0.043993
1.44000006 -1.29999995 -0.20000000 100 111 150 0.000000 0.000000 0.000000 0.000000 0.000000 0.000000 41.000000 -0.665568 0.745039 -0.043993
1.47000003 -1.27999997 -0.25000000 100 111 150 0.000000 0.000000 0.000000 0.000000 0.000000 0.000000 41.000000 0.887350 -0.441532 -0.132888
1.47000003 -1.32000005 -0.20000000 100 111 150 0.000000 0.000000 0.000000 0.000000 0.000000 0.000000 41.000000 0.782269 -0.576982 -0.234836
1.47000003 -1.32000005 -0.20000000 100 111 150 0.000000 0.000000 0.000000 0.000000 0.000000 0.000000 41.000000 0.782269 -0.576982 -0.234836
1.46000004 -1.33000004 -0.20999999 100 111 150 0.000000 0.000000 0.000000 0.000000 0.000000 0.000000 41.000000 -0.612396 0.753357 0.239633
1.46000004 -1.33000004 -0.20999999 100 111 150 0.000000 0.000000 0.000000 0.000000 0.000000 0.000000 41.000000 -0.612396 0.753357 0.239633
1.46000004 -1.33000004 -0.22000000 100 111 150 0.000000 0.000000 0.000000 0.000000 0.000000 0.000000 41.000000 0.892599 -0.442829 -0.084679
1.46000004 -1.34000003 -0.23000000 100 111 150 0.000000 0.000000 0.000000 0.000000 0.000000 0.000000 41.000000 0.775564 -0.613551 -0.148512
1.44000006 -1.33000004 -0.28999999 100 111 150 0.000000 0.000000 0.000000 0.000000 0.000000 0.000000 41.000000 0.728364 -0.678536 -0.095259
2.13000011 0.67000002 -0.14000000 100 111 150 97.000000 1.000000 4.000000 1.000000 176.000000 114.000000 41.000000 0.849797 -0.521756 0.074941
2.07999992 0.41000000 -0.18000001 100 111 150 97.000000 1.000000 4.000000 1.000000 176.000000 114.000000 41.000000 -0.256977 -0.121314 0.958773
2.08999991 0.41000000 -0.18000001 100 111 150 97.000000 1.000000 4.000000 1.000000 176.000000 114.000000 41.000000 0.058915 -0.259477 0.963951
2.07999992 0.40000001 -0.18000001 100 111 150 97.000000 1.000000 4.000000 1.000000 176.000000 114.000000 41.000000 -0.301565 -0.039115 0.952643
2.02999997 0.47999999 -0.15000001 100 111 150 97.000000 1.000000 4.000000 1.000000 176.000000 114.000000 41.000000 -0.395416 0.683293 -0.613805
1.99000001 0.47000000 -0.19000000 100 111 150 97.000000 1.000000 4.000000 1.000000 176.000000 114.000000 41.000000 -0.662585 0.582068 -0.471358
2.02999997 0.41000000 -0.09000000 100 111 150 97.000000 1.000000 4.000000 1.000000 176.000000 114.000000 41.000000 -0.453150 0.885125 -0.105876
2.02999997 0.43000001 -0.13000000 100 111 150 97.000000 1.000000 4.000000 1.000000 176.000000 114.000000 41.000000 0.479496 -0.489451 0.728369
2.02999997 0.43000001 -0.13000000 100 111 150 97.000000 1.000000 4.000000 1.000000 176.000000 114.000000 41.000000 0.479496 -0.489451 0.728369
2.02999997 0.38000000 -0.13000000 100 111 150 97.000000 1.000000 4.000000 1.000000 176.000000 114.000000 41.000000 0.143632 -0.131356 0.980875
1.99000001 0.43000001 -0.15000001 100 111 150 97.000000 1.000000 4.000000 1.000000 176.000000 114.000000 41.000000 0.624726 -0.463938 0.628076
2.01999998 0.40000001 -0.16000000 100 111 150 97.000000 1.000000 4.000000 1.000000 176.000000 114.000000 41.000000 0.220145 -0.167416 0.960993
2.21000004 0.16000000 -0.18000001 100 111 150 97.000000 1.000000 4.000000 1.000000 176.000000 114.000000 41.000000 0.526981 -0.694276 -0.490176
2.07999992 -0.08000000 -0.14000000 100 111 150 97.000000 1.000000 4.000000 1.000000 176.000000 114.000000 41.000000 -0.678915 0.678915 0.279553
2.04999995 -0.05000000 -0.15000001 100 111 150 97.000000 1.000000 4.000000 1.000000 176.000000 114.000000 41.000000 0.693136 -0.492711 -0.526115
2.05999994 -0.07000000 -0.18000001 100 111 150 97.000000 1.000000 4.000000 1.000000 176.000000 114.000000 41.000000 -0.510327 0.618119 0.597908
2.10999990 -0.22000000 0.07000000 100 111 150 97.000000 1.000000 4.000000 1.000000 176.000000 114.000000 41.000000 0.748959 -0.660511 -0.052784
1.99000001 -0.28000000 0.03000000 100 111 150 97.000000 1.000000 4.000000 1.000000 176.000000 114.000000 41.000000 0.753421 -0.646427 -0.120369
2.00000000 -0.31000000 -0.01000000 100 111 150 97.000000 1.000000 4.000000 1.000000 176.000000 114.000000 41.000000 0.863105 -0.504937 -0.009425
1.99000001 -0.33000001 -0.02000000 100 111 150 97.000000 1.000000 4.000000 1.000000 176.000000 114.000000 41.000000 0.837376 -0.508461 -0.200669
2.02999997 -0.34000000 -0.04000000 100 111 150 97.000000 1.000000 4.000000 1.000000 176.000000 114.000000 41.000000 -0.489569 0.857113 -0.160249
2.03999996 -0.38000000 -0.04000000 100 111 150 97.000000 1.000000 4.000000 1.000000 176.000000 114.000000 41.000000 0.872653 -0.454721 -0.178062
1.99000001 -0.33000001 -0.03000000 100 111 150 97.000000 1.000000 4.000000 1.000000 176.000000 114.000000 41.000000 0.905292 -0.408707 -0.115777
1.85000002 0.55000001 -0.09000000 100 111 150 97.000000 1.000000 4.000000 1.000000 176.000000 114.000000 41.000000 0.950880 -0.304127 -0.057746
1.83000004 0.56000000 -0.15000001 100 111 150 97.000000 1.000000 4.000000 1.000000 176.000000 114.000000 41.000000 -0.614656 0.781889 -0.104154
1.82000005 0.56999999 -0.13000000 100 111 150 97.000000 1.000000 4.000000 1.000000 176.000000 114.000000 41.000000 0.774104 -0.618985 -0.132746
1.75000000 0.63000000 -0.09000000 100 111 150 97.000000 1.000000 4.000000 1.000000 176.000000 114.000000 41.000000 -0.589407 0.804519 0.073138
1.78999996 0.56999999 -0.12000000 100 111 150 97.000000 1.000000 4.000000 1.000000 176.000000 114.000000 41.000000 -0.532435 0.832023 0.155726
1.74000001 0.56999999 -0.14000000 100 111 150 97.000000 1.000000 4.000000 1.000000 176.000000 114.000000 41.000000 -0.653348 0.750249 -0.101306
1.91999996 0.49000001 -0.09000000 100 111 150 97.000000 1.000000 4.000000 1.000000 176.000000 114.000000 41.000000 -0.650101 0.758215 -0.049789
1.91999996 0.49000001 -0.09000000 100 111 150 97.000000 1.000000 4.000000 1.000000 176.000000 114.000000 41.000000 -0.650101 0.758215 -0.049789
1.96000004 0.44999999 -0.18000001 100 111 150 97.000000 1.000000 4.000000 1.000000 176.000000 114.000000 41.000000 0.791421 -0.441836 0.422415
1.94000006 0.43000001 -0.17000000 100 111 150 97.000000 1.000000 4.000000 1.000000 176.000000 114.000000 41.000000 0.504017 -0.691558 0.517412
1.94000006 0.43000001 -0.17000000 100 111 150 97.000000 1.000000 4.000000 1.000000 176.000000 114.000000 41.000000 0.504017 -0.691558 0.517412
1.90999997 0.43000001 -0.19000000 100 111 150 97.000000 1.000000 4.000000 1.000000 176.000000 114.000000 41.000000 0.722279 -0.286669 0.629392
1.86000001 0.51999998 -0.19000000 100 111 150 97.000000 1.000000 4.000000 1.000000 176.000000 114.000000 41.000000 0.839554 -0.230077 0.492152
1.84000003 0.52999997 -0.19000000 100 111 150 97.000000 1.000000 4.000000 1.000000 176.000000 114.000000 41.000000 0.707238 -0.639575 0.301261
1.88000000 0.38999999 -0.09000000 100 111 150 97.000000 1.000000 4.000000 1.000000 176.000000 114.000000 41.000000 0.690925 -0.648855 0.318764
