//X Y Z R G B PointSourceId ScanDirectionFlag NumberOfReturns ReturnNumber GpsTime Intensity Classification Nx Ny Nz
-11.67000008 -15.57999992 -0.77999997 145 109 128 116.000000 1.000000 4.000000 4.000000 224.000000 95.000000 14.000000 0.417211 0.430098 0.800594
-11.67000008 -15.56999969 -0.77999997 145 109 128 116.000000 1.000000 4.000000 4.000000 224.000000 95.000000 14.000000 0.368080 0.219684 0.903469
-11.67000008 -15.56999969 -0.77999997 145 109 128 116.000000 1.000000 4.000000 4.000000 224.000000 95.000000 14.000000 0.368080 0.219684 0.903469
-11.59000015 -15.56999969 -0.80000001 145 109 128 116.000000 1.000000 4.000000 4.000000 224.000000 95.000000 14.000000 0.659034 0.203137 0.724162
-11.64000034 -15.55000019 -0.82999998 145 109 128 116.000000 1.000000 4.000000 4.000000 224.000000 95.000000 14.000000 0.429440 0.107710 0.896649
-11.68000031 -15.53999996 -0.73000002 145 109 128 116.000000 1.000000 4.000000 4.000000 224.000000 95.000000 14.000000 0.799535 -0.132020 0.585930
-11.69999981 -15.56000042 -0.72000003 145 109 128 116.000000 1.000000 4.000000 4.000000 224.000000 95.000000 14.000000 0.347795 -0.070088 0.934947
-11.69999981 -15.52999973 -0.73000002 145 109 128 116.000000 1.000000 4.000000 4.000000 224.000000 95.000000 14.000000 0.861235 0.037087 0.506851
-11.68999958 -15.55000019 -0.73000002 145 109 128 116.000000 1.000000 4.000000 4.000000 224.000000 95.000000 14.000000 0.741665 -0.233632 0.628768
-11.68999958 -15.57999992 -0.75000000 145 109 128 116.000000 1.000000 4.000000 4.000000 224.000000 95.000000 14.000000 0.654560 0.308694 0.690116
-11.68000031 -15.56999969 -0.76999998 145 109 128 116.000000 1.000000 4.000000 4.000000 224.000000 95.000000 14.000000 0.867668 0.001333 0.497143
-11.68000031 -15.56999969 -0.76999998 145 109 128 116.000000 1.000000 4.000000 4.000000 224.000000 95.000000 14.000000 0.867668 0.001333 0.497143
-11.71000004 -15.57999992 -0.77999997 145 109 128 116.000000 1.000000 4.000000 4.000000 224.000000 95.000000 14.000000 0.235963 0.399209 0.885976
-11.75000000 -15.52999973 -0.73000002 145 109 128 116.000000 1.000000 4.000000 4.000000 224.000000 95.000000 14.000000 0.737156 0.243623 0.630276
-11.32999992 -15.56999969 -0.91000003 145 109 128 116.000000 1.000000 4.000000 4.000000 224.000000 95.000000 14.000000 0.664548 0.058848 0.744925
-11.32999992 -15.57999992 -1.00000000 145 109 128 116.000000 1.000000 4.000000 4.000000 224.000000 95.000000 14.000000 0.560672 0.352654 0.749188
-11.32999992 -15.59000015 -1.00000000 145 109 128 116.000000 1.000000 4.000000 4.000000 224.000000 95.000000 14.000000 0.510785 0.642275 0.571473
-11.32999992 -15.59000015 -0.97000003 145 109 128 116.000000 1.000000 4.000000 4.000000 224.000000 95.000000 14.000000 0.228349 0.510336 0.829104
-11.35000038 -15.57999992 -0.93000001 145 109 128 116.000000 1.000000 4.000000 4.000000 224.000000 95.000000 14.000000 0.450605 0.041948 0.891737
-11.35000038 -15.53999996 -0.98000002 145 109 128 116.000000 1.000000 4.000000 4.000000 224.000000 95.000000 14.000000 0.726903 -0.379040 0.572662
-11.34000015 -15.55000019 -0.99000001 145 109 128 116.000000 1.000000 4.000000 4.000000 224.000000 95.000000 14.000000 0.804481 0.085214 0.587834
-11.34000015 -15.56000042 -0.99000001 145 109 128 116.000000 1.000000 4.000000 4.000000 224.000000 95.000000 14.000000 0.859991 0.110550 0.498192
-11.34000015 -15.57999992 -0.99000001 145 109 128 116.000000 1.000000 4.000000 4.000000 224.000000 95.000000 14.000000 0.794606 0.367606 0.483185
-11.34000015 -15.57999992 -0.99000001 145 109 128 116.000000 1.000000 4.000000 4.000000 224.000000 95.000000 14.000000 0.794606 0.367606 0.483185
-11.35000038 -15.56999969 -0.98000002 145 109 128 116.000000 1.000000 4.000000 4.000000 224.000000 95.000000 14.000000 0.821880 0.189199 0.537325
-11.35000038 -15.57999992 -0.98000002 145 109 128 116.000000 1.000000 4.000000 4.000000 224.000000 95.000000 14.000000 0.813695 0.023565 0.580815
-11.47999954 -15.51000023 -0.89999998 145 109 128 116.000000 1.000000 4.000000 4.000000 224.000000 95.000000 14.000000 0.798149 0.040822 0.601075
-11.43000031 -15.56000042 -0.89999998 145 109 128 116.000000 1.000000 4.000000 4.000000 224.000000 95.000000 14.000000 0.783573 0.088679 0.614938
-11.44999981 -15.56999969 -0.94000000 145 109 128 116.000000 1.000000 4.000000 4.000000 224.000000 95.000000 14.000000 0.710392 0.052886 0.701816
-11.47000027 -15.52999973 -0.91000003 145 109 128 116.000000 1.000000 4.000000 4.000000 224.000000 95.000000 14.000000 0.466790 -0.044910 0.883227
-11.47999954 -15.59000015 -0.91000003 145 109 128 116.000000 1.000000 4.000000 4.000000 224.000000 95.000000 14.000000 0.379624 0.526260 0.760878
-11.47000027 -15.60000038 -0.91000003 145 109 128 116.000000 1.000000 4.000000 4.000000 224.000000 95.000000 14.000000 0.380667 0.611374 0.693769
-11.90999985 -15.51000023 -0.44999999 145 109 128 116.000000 1.000000 4.000000 4.000000 224.000000 95.000000 14.000000 0.604148 0.009633 0.796814
-11.92000008 -15.52000046 -0.44000000 145 109 128 116.000000 1.000000 4.000000 4.000000 224.000000 95.000000 14.000000 0.425239 -0.544372 0.723071
-11.90999985 -15.52000046 -0.47999999 145 109 128 116.000000 1.000000 4.000000 4.000000 224.000000 95.000000 14.000000 0.822961 -0.133970 0.552076
-11.90999985 -15.53999996 -0.44000000 145 109 128 116.000000 1.000000 4.000000 4.000000 224.000000 95.000000 14.000000 0.461509 0.311323 0.830715
-11.90999985 -15.52999973 -0.44999999 145 109 128 116.000000 1.000000 4.000000 4.000000 224.000000 95.000000 14.000000 0.696786 0.234359 0.677912
-11.90999985 -15.53999996 -0.44999999 145 109 128 116.000000 1.000000 4.000000 4.000000 224.000000 95.000000 14.000000 0.544455 0.251167 0.800302
-11.93000031 -15.56000042 -0.43000001 145 109 128 116.000000 1.000000 4.000000 4.000000 224.000000 95.000000 14.000000 0.510995 0.174304 0.841726
-11.90999985 -15.52999973 -0.44999999 145 109 128 116.000000 1.000000 4.000000 4.000000 224.000000 95.000000 14.000000 0.696786 0.234359 0.677912
-11.90999985 -15.52999973 -0.47999999 145 109 128 116.000000 1.000000 4.000000 4.000000 224.000000 95.000000 14.000000 0.796404 -0.141417 0.587999
-11.92000008 -15.52999973 -0.47000000 145 109 128 116.000000 1.000000 4.000000 4.000000 224.000000 95.000000 14.000000 0.623066 -0.253959 0.739793
-11.93000031 -15.55000019 -0.47000000 145 109 128 116.000000 1.000000 4.000000 4.000000 224.000000 95.000000 14.000000 0.794096 0.029308 0.607086
-11.92000008 -15.56000042 -0.47999999 145 109 128 116.000000 1.000000 4.000000 4.000000 224.000000 95.000000 14.000000 0.594100 0.361697 0.718485
-11.90999985 -15.52999973 -0.50000000 145 109 128 116.000000 1.000000 4.000000 4.000000 224.000000 95.000000 14.000000 0.503370 0.340374 0.794206
-11.93000031 -15.53999996 -0.50000000 145 109 128 116.000000 1.000000 4.000000 4.000000 224.000000 95.000000 14.000000 0.751975 0.120138 0.648152
-12.00000000 -15.43000031 -0.31000000 145 109 128 116.000000 1.000000 4.000000 4.000000 224.000000 95.000000 14.000000 -0.383584 0.918690 -0.094190
-12.05000019 -15.43000031 -0.30000001 145 109 128 116.000000 1.000000 4.000000 4.000000 224.000000 95.000000 14.000000 0.137088 0.985842 0.096558
-12.06000042 -15.43000031 -0.28999999 145 109 128 116.000000 1.000000 4.000000 4.000000 224.000000 95.000000 14.000000 -0.023926 0.987811 0.153811
-12.05000019 -15.43000031 -0.30000001 145 109 128 116.000000 1.000000 4.000000 4.000000 224.000000 95.000000 14.000000 0.137088 0.985842 0.096558
-12.01000023 -15.47999954 -0.27000001 145 109 128 116.000000 1.000000 4.000000 4.000000 224.000000 95.000000 14.000000 0.368032 0.852531 0.371138
-12.01000023 -15.47999954 -0.33000001 145 109 128 116.000000 1.000000 4.000000 4.000000 224.000000 95.000000 14.000000 -0.612937 0.773360 -0.161936
-12.00000000 -15.48999977 -0.36000001 145 109 128 116.000000 1.000000 4.000000 4.000000 224.000000 95.000000 14.000000 -0.268436 0.942969 -0.196853
-12.00000000 -15.48999977 -0.34999999 145 109 128 116.000000 1.000000 4.000000 4.000000 224.000000 95.000000 14.000000 -0.261570 0.907457 -0.328789
-12.01000023 -15.53999996 -0.36000001 145 109 128 116.000000 1.000000 4.000000 4.000000 224.000000 95.000000 14.000000 0.386576 -0.221951 0.895152
-12.02999973 -15.47000027 -0.20000000 145 109 128 116.000000 1.000000 4.000000 4.000000 224.000000 95.000000 14.000000 0.398833 0.897736 0.187089
-12.03999996 -15.43999958 -0.20999999 145 109 128 116.000000 1.000000 4.000000 4.000000 224.000000 95.000000 14.000000 0.670031 0.704552 0.233805
-12.02000046 -15.47000027 -0.28000000 145 109 128 116.000000 1.000000 4.000000 4.000000 224.000000 95.000000 14.000000 0.123483 0.976638 -0.175870
-12.05000019 -15.46000004 -0.27000001 145 109 128 116.000000 1.000000 4.000000 4.000000 224.000000 95.000000 14.000000 0.087415 0.951128 0.296167
-12.03999996 -15.48999977 -0.28000000 145 109 128 116.000000 1.000000 4.000000 4.000000 224.000000 95.000000 14.000000 -0.214867 0.952714 0.214867
-12.10000038 -15.47999954 -0.23000000 145 109 128 116.000000 1.000000 4.000000 4.000000 224.000000 95.000000 14.000000 -0.327683 0.940597 0.088886
-12.07999992 -15.46000004 -0.20000000 145 109 128 116.000000 1.000000 4.000000 4.000000 224.000000 95.000000 14.000000 0.433929 0.900830 -0.014508
-12.07999992 -15.46000004 -0.22000000 145 109 128 116.000000 1.000000 4.000000 4.000000 224.000000 95.000000 14.000000 0.016514 0.938735 0.344245
-12.09000015 -15.43999958 -0.22000000 145 109 128 116.000000 1.000000 4.000000 4.000000 224.000000 95.000000 14.000000 0.056389 0.935001 0.350134
-12.10000038 -15.43999958 -0.22000000 145 109 128 116.000000 1.000000 4.000000 4.000000 224.000000 95.000000 14.000000 -0.182148 0.963156 0.197873
-12.10000038 -15.43999958 -0.23000000 145 109 128 116.000000 1.000000 4.000000 4.000000 224.000000 95.000000 14.000000 -0.197062 0.964431 -0.176182
-12.09000015 -15.47999954 -0.25999999 145 109 128 116.000000 1.000000 4.000000 4.000000 224.000000 95.000000 14.000000 0.264840 -0.743771 0.613730
-12.10000038 -15.47000027 -0.25000000 145 109 128 116.000000 1.000000 4.000000 4.000000 224.000000 95.000000 14.000000 0.107426 0.899867 -0.422728
-12.06999969 -15.43999958 -0.25000000 145 109 128 116.000000 1.000000 4.000000 4.000000 224.000000 95.000000 14.000000 -0.300681 0.951080 -0.070976
-12.06999969 -15.43999958 -0.27000001 145 109 128 116.000000 1.000000 4.000000 4.000000 224.000000 95.000000 14.000000 0.290135 0.954763 0.065185
-12.09000015 -15.47999954 -0.25999999 145 109 128 116.000000 1.000000 4.000000 4.000000 224.000000 95.000000 14.000000 0.264840 -0.743771 0.613730
-12.09000015 -15.43999958 -0.25000000 145 109 128 116.000000 1.000000 4.000000 4.000000 224.000000 95.000000 14.000000 0.119314 0.992827 -0.007662
-12.06999969 -15.46000004 -0.23999999 145 109 128 116.000000 1.000000 4.000000 4.000000 224.000000 95.000000 14.000000 0.296222 0.954213 -0.041597
-12.07999992 -15.50000000 -0.28000000 145 109 128 116.000000 1.000000 4.000000 4.000000 224.000000 95.000000 14.000000 -0.361906 0.901102 -0.238829
-12.02000046 -15.44999981 -0.30000001 145 109 128 116.000000 1.000000 4.000000 4.000000 224.000000 95.000000 14.000000 0.026454 0.997829 -0.060314
-12.06000042 -15.43999958 -0.31000000 145 109 128 116.000000 1.000000 4.000000 4.000000 224.000000 95.000000 14.000000 -0.578883 0.783743 -0.225035
-12.02000046 -15.44999981 -0.28999999 145 109 128 116.000000 1.000000 4.000000 4.000000 224.000000 95.000000 14.000000 -0.200024 0.978560 0.049108
-12.02000046 -15.44999981 -0.31999999 145 109 128 116.000000 1.000000 4.000000 4.000000 224.000000 95.000000 14.000000 -0.533833 0.824190 -0.189034
-12.02000046 -15.47999954 -0.33000001 145 109 128 116.000000 1.000000 4.000000 4.000000 224.000000 95.000000 14.000000 0.047686 0.884236 -0.464599
-12.06000042 -15.43999958 -0.34000000 145 109 128 116.000000 1.000000 4.000000 4.000000 224.000000 95.000000 14.000000 -0.394540 0.900361 -0.183541
-12.05000019 -15.44999981 -0.36000001 145 109 128 116.000000 1.000000 4.000000 4.000000 224.000000 95.000000 14.000000 0.336808 -0.552752 0.762250
-12.06000042 -15.44999981 -0.34999999 145 109 128 116.000000 1.000000 4.000000 4.000000 224.000000 95.000000 14.000000 0.483491 -0.503429 0.716098
-12.05000019 -15.43999958 -0.36000001 145 109 128 116.000000 1.000000 4.000000 4.000000 224.000000 95.000000 14.000000 -0.055727 0.942169 -0.330472
-12.02000046 -15.46000004 -0.34999999 145 109 128 116.000000 1.000000 4.000000 4.000000 224.000000 95.000000 14.000000 0.394695 -0.678744 0.619292
-12.05000019 -15.50000000 -0.31999999 145 109 128 116.000000 1.000000 4.000000 4.000000 224.000000 95.000000 14.000000 0.696432 -0.627930 0.347400
-12.05000019 -15.48999977 -0.36000001 145 109 128 116.000000 1.000000 4.000000 4.000000 224.000000 95.000000 14.000000 -0.453859 0.651480 -0.607936
-12.02999973 -15.52000046 -0.34000000 145 109 128 116.000000 1.000000 4.000000 4.000000 224.000000 95.000000 14.000000 0.675563 -0.517988 0.524693
-12.06000042 -15.51000023 -0.33000001 145 109 128 116.000000 1.000000 4.000000 4.000000 224.000000 95.000000 14.000000 0.238344 -0.389345 0.889720
-12.02000046 -15.48999977 -0.36000001 145 109 128 116.000000 1.000000 4.000000 4.000000 224.000000 95.000000 14.000000 -0.475482 0.845472 -0.243092
-12.02999973 -15.48999977 -0.34000000 145 109 128 116.000000 1.000000 4.000000 4.000000 224.000000 95.000000 14.000000 -0.520006 0.829280 -0.204667
-12.02000046 -15.48999977 -0.36000001 145 109 128 116.000000 1.000000 4.000000 4.000000 224.000000 95.000000 14.000000 -0.475482 0.845472 -0.243092
-12.07999992 -15.44999981 -0.28999999 145 109 128 116.000000 1.000000 4.000000 4.000000 224.000000 95.000000 14.000000 -0.354822 0.899570 -0.254706
-12.09000015 -15.51000023 -0.31999999 145 109 128 116.000000 1.000000 4.000000 4.000000 224.000000 95.000000 14.000000 0.649761 -0.410463 0.639790
-12.07999992 -15.50000000 -0.34999999 145 109 128 116.000000 1.000000 4.000000 4.000000 224.000000 95.000000 14.000000 0.744869 -0.508090 0.432452
-12.02000046 -15.52999973 -0.28999999 145 109 128 116.000000 1.000000 4.000000 4.000000 224.000000 95.000000 14.000000 0.194176 0.922690 0.333075
-12.05000019 -15.55000019 -0.31999999 145 109 128 116.000000 1.000000 4.000000 4.000000 224.000000 95.000000 14.000000 0.649084 0.527697 0.547928
-12.07999992 -15.52999973 -0.30000001 145 109 128 116.000000 1.000000 4.000000 4.000000 224.000000 95.000000 14.000000 0.645524 -0.318717 0.694059
-12.07999992 -15.52999973 -0.30000001 145 109 128 116.000000 1.000000 4.000000 4.000000 224.000000 95.000000 14.000000 0.645524 -0.318717 0.694059
-12.07999992 -15.53999996 -0.31000000 145 109 128 116.000000 1.000000 4.000000 4.000000 224.000000 95.000000 14.000000 0.850604 0.126500 0.510363
-12.09000015 -15.52999973 -0.30000001 145 109 128 116.000000 1.000000 4.000000 4.000000 224.000000 95.000000 14.000000 0.807722 0.097159 0.581502
-12.09000015 -15.53999996 -0.30000001 145 109 128 116.000000 1.000000 4.000000 4.000000 224.000000 95.000000 14.000000 0.626285 -0.293121 0.722390
-11.97000027 -15.46000004 -0.40000001 145 109 128 116.000000 1.000000 4.000000 4.000000 224.000000 95.000000 14.000000 0.045011 0.879754 -0.473294
-11.97000027 -15.52000046 -0.41999999 145 109 128 116.000000 1.000000 4.000000 4.000000 224.000000 95.000000 14.000000 0.377078 -0.298330 0.876819
-11.94999981 -15.51000023 -0.43000001 145 109 128 116.000000 1.000000 4.000000 4.000000 224.000000 95.000000 14.000000 0.552319 -0.186124 0.812590
-11.94999981 -15.52000046 -0.43000001 145 109 128 116.000000 1.000000 4.000000 4.000000 224.000000 95.000000 14.000000 0.626857 0.009687 0.779074
-11.96000004 -15.52000046 -0.41999999 145 109 128 116.000000 1.000000 4.000000 4.000000 224.000000 95.000000 14.000000 0.343744 -0.047994 0.937836
-11.94999981 -15.51000023 -0.43000001 145 109 128 116.000000 1.000000 4.000000 4.000000 224.000000 95.000000 14.000000 0.552319 -0.186124 0.812590
-12.00000000 -15.47999954 -0.40000001 145 109 128 116.000000 1.000000 4.000000 4.000000 224.000000 95.000000 14.000000 0.577784 -0.277020 0.767741
-12.00000000 -15.47999954 -0.40000001 145 109 128 116.000000 1.000000 4.000000 4.000000 224.000000 95.000000 14.000000 0.577784 -0.277020 0.767741
-11.97999954 -15.47999954 -0.41000000 145 109 128 116.000000 1.000000 4.000000 4.000000 224.000000 95.000000 14.000000 0.620171 -0.250909 0.743258
-12.01000023 -15.48999977 -0.40000001 145 109 128 116.000000 1.000000 4.000000 4.000000 224.000000 95.000000 14.000000 0.714318 -0.613435 0.336820
-12.01000023 -15.48999977 -0.38000000 145 109 128 116.000000 1.000000 4.000000 4.000000 224.000000 95.000000 14.000000 0.376911 -0.376911 0.846095
-11.98999977 -15.52000046 -0.40000001 145 109 128 116.000000 1.000000 4.000000 4.000000 224.000000 95.000000 14.000000 0.525522 -0.232709 0.818335
-11.97999954 -15.51000023 -0.41000000 145 109 128 116.000000 1.000000 4.000000 4.000000 224.000000 95.000000 14.000000 0.611849 -0.257704 0.747816
-11.98999977 -15.50000000 -0.43000001 145 109 128 116.000000 1.000000 4.000000 4.000000 224.000000 95.000000 14.000000 -0.510356 0.601311 -0.614786
-11.97999954 -15.51000023 -0.41000000 145 109 128 116.000000 1.000000 4.000000 4.000000 224.000000 95.000000 14.000000 0.611849 -0.257704 0.747816
-11.97999954 -15.52000046 -0.41000000 145 109 128 116.000000 1.000000 4.000000 4.000000 224.000000 95.000000 14.000000 0.810515 -0.345544 0.472933
-11.93999958 -15.52000046 -0.47999999 145 109 128 116.000000 1.000000 4.000000 4.000000 224.000000 95.000000 14.000000 0.637988 -0.254879 0.726642
-11.97000027 -15.55000019 -0.41999999 145 109 128 116.000000 1.000000 4.000000 4.000000 224.000000 95.000000 14.000000 0.346172 0.136538 0.928182
-11.94999981 -15.52999973 -0.43000001 145 109 128 116.000000 1.000000 4.000000 4.000000 224.000000 95.000000 14.000000 0.774947 0.158615 0.611800
-11.94999981 -15.52999973 -0.43000001 145 109 128 116.000000 1.000000 4.000000 4.000000 224.000000 95.000000 14.000000 0.774947 0.158615 0.611800
-11.93999958 -15.56000042 -0.43000001 145 109 128 116.000000 1.000000 4.000000 4.000000 224.000000 95.000000 14.000000 0.354175 0.092920 0.930551
-11.96000004 -15.55000019 -0.41999999 145 109 128 116.000000 1.000000 4.000000 4.000000 224.000000 95.000000 14.000000 0.589996 0.532518 0.606901
-11.97000027 -15.57999992 -0.40000001 145 109 128 116.000000 1.000000 4.000000 4.000000 224.000000 95.000000 14.000000 0.234101 0.859376 0.454609
-12.00000000 -15.53999996 -0.40000001 145 109 128 116.000000 1.000000 4.000000 4.000000 224.000000 95.000000 14.000000 0.532800 0.136502 0.835160
-11.98999977 -15.53999996 -0.37000000 145 109 128 116.000000 1.000000 4.000000 4.000000 224.000000 95.000000 14.000000 0.592909 0.321496 0.738309
-11.98999977 -15.52999973 -0.41000000 145 109 128 116.000000 1.000000 4.000000 4.000000 224.000000 95.000000 14.000000 0.553207 -0.244658 0.796307
-11.98999977 -15.52999973 -0.41000000 145 109 128 116.000000 1.000000 4.000000 4.000000 224.000000 95.000000 14.000000 0.553207 -0.244658 0.796307
-11.98999977 -15.52999973 -0.41000000 145 109 128 116.000000 1.000000 4.000000 4.000000 224.000000 95.000000 14.000000 0.553207 -0.244658 0.796307
-12.00000000 -15.59000015 -0.47000000 145 109 128 116.000000 1.000000 4.000000 4.000000 224.000000 95.000000 14.000000 0.332378 0.718260 0.611251
-12.03999996 -15.47999954 -0.37000000 145 109 128 116.000000 1.000000 4.000000 4.000000 224.000000 95.000000 14.000000 0.719456 -0.390185 0.574577
-12.03999996 -15.48999977 -0.37000000 145 109 128 116.000000 1.000000 4.000000 4.000000 224.000000 95.000000 14.000000 0.225420 -0.467481 0.854779
-12.05000019 -15.51000023 -0.38000000 145 109 128 116.000000 1.000000 4.000000 4.000000 224.000000 95.000000 14.000000 0.367840 -0.444275 0.816893
-12.03999996 -15.51000023 -0.38999999 145 109 128 116.000000 1.000000 4.000000 4.000000 224.000000 95.000000 14.000000 0.611718 -0.428370 0.665056
-12.02000046 -15.51000023 -0.41000000 145 109 128 116.000000 1.000000 4.000000 4.000000 224.000000 95.000000 14.000000 0.544364 0.037399 0.838015
-12.02000046 -15.50000000 -0.41000000 145 109 128 116.000000 1.000000 4.000000 4.000000 224.000000 95.000000 14.000000 0.635058 -0.409554 0.654955
-12.03999996 -15.48999977 -0.43000001 145 109 128 116.000000 1.000000 4.000000 4.000000 224.000000 95.000000 14.000000 0.359813 -0.571468 0.737536
-12.02000046 -15.56999969 -0.41000000 145 109 128 116.000000 1.000000 4.000000 4.000000 224.000000 95.000000 14.000000 0.731080 0.434027 0.526444
-11.81999969 -15.52000046 -0.58999997 145 109 128 116.000000 1.000000 4.000000 4.000000 224.000000 95.000000 14.000000 0.361372 -0.119541 0.924727
-11.77000046 -15.50000000 -0.61000001 145 109 128 116.000000 1.000000 4.000000 4.000000 224.000000 95.000000 14.000000 -0.467729 0.704090 -0.534310
-11.81999969 -15.53999996 -0.62000000 145 109 128 116.000000 1.000000 4.000000 4.000000 224.000000 95.000000 14.000000 0.525665 0.404484 0.748377
-11.84000015 -15.53999996 -0.58999997 145 109 128 116.000000 1.000000 4.000000 4.000000 224.000000 95.000000 14.000000 0.823227 0.043328 0.566056
-11.82999992 -15.53999996 -0.61000001 145 109 128 116.000000 1.000000 4.000000 4.000000 224.000000 95.000000 14.000000 0.589096 0.372492 0.717088
-11.80000019 -15.55000019 -0.63999999 145 109 128 116.000000 1.000000 4.000000 4.000000 224.000000 95.000000 14.000000 0.512158 0.410708 0.754329
-11.78999996 -15.55000019 -0.68000001 145 109 128 116.000000 1.000000 4.000000 4.000000 224.000000 95.000000 14.000000 0.280111 -0.097713 0.954982
-11.78999996 -15.55000019 -0.70999998 145 109 128 116.000000 1.000000 4.000000 4.000000 224.000000 95.000000 14.000000 0.516514 0.039944 0.855347
-11.76000023 -15.53999996 -0.68000001 145 109 128 116.000000 1.000000 4.000000 4.000000 224.000000 95.000000 14.000000 0.533353 0.253459 0.807027
-11.80000019 -15.59000015 -0.69000000 145 109 128 116.000000 1.000000 4.000000 4.000000 224.000000 95.000000 14.000000 0.428803 0.441748 0.788027
-11.82999992 -15.56000042 -0.66000003 145 109 128 116.000000 1.000000 4.000000 4.000000 224.000000 95.000000 14.000000 0.378390 0.481440 0.790593
-11.82999992 -15.56000042 -0.70999998 145 109 128 116.000000 1.000000 4.000000 4.000000 224.000000 95.000000 14.000000 0.287651 -0.117977 0.950441
-11.82999992 -15.56000042 -0.70999998 145 109 128 116.000000 1.000000 4.000000 4.000000 224.000000 95.000000 14.000000 0.287651 -0.117977 0.950441
-11.81000042 -15.60999966 -0.69000000 145 109 128 116.000000 1.000000 4.000000 4.000000 224.000000 95.000000 14.000000 0.320185 0.270476 0.907923
-11.90999985 -15.50000000 -0.57999998 145 109 128 116.000000 1.000000 4.000000 4.000000 224.000000 95.000000 14.000000 0.769522 -0.142504 0.622518
-11.90999985 -15.52000046 -0.56000000 145 109 128 116.000000 1.000000 4.000000 4.000000 224.000000 95.000000 14.000000 0.838752 -0.220724 0.497771
-11.89999962 -15.51000023 -0.58999997 145 109 128 116.000000 1.000000 4.000000 4.000000 224.000000 95.000000 14.000000 0.432491 -0.147995 0.889409
-11.89000034 -15.48999977 -0.58999997 145 109 128 116.000000 1.000000 4.000000 4.000000 224.000000 95.000000 14.000000 0.529339 -0.274879 0.802647
-11.85999966 -15.52999973 -0.56000000 145 109 128 116.000000 1.000000 4.000000 4.000000 224.000000 95.000000 14.000000 0.813937 -0.128052 0.566665
-11.85999966 -15.52999973 -0.56000000 145 109 128 116.000000 1.000000 4.000000 4.000000 224.000000 95.000000 14.000000 0.813937 -0.128052 0.566665
-11.89000034 -15.52999973 -0.57999998 145 109 128 116.000000 1.000000 4.000000 4.000000 224.000000 95.000000 14.000000 0.807250 0.037774 0.588999
-11.90999985 -15.52999973 -0.56000000 145 109 128 116.000000 1.000000 4.000000 4.000000 224.000000 95.000000 14.000000 0.326799 -0.123397 0.937004
-11.90999985 -15.52999973 -0.56000000 145 109 128 116.000000 1.000000 4.000000 4.000000 224.000000 95.000000 14.000000 0.326799 -0.123397 0.937004
-11.89000034 -15.56999969 -0.55000001 145 109 128 116.000000 1.000000 4.000000 4.000000 224.000000 95.000000 14.000000 0.835977 0.105399 0.538548
-11.90999985 -15.56999969 -0.54000002 145 109 128 116.000000 1.000000 4.000000 4.000000 224.000000 95.000000 14.000000 0.459377 0.022768 0.887950
-11.76000023 -15.53999996 -0.72000003 145 109 128 116.000000 1.000000 4.000000 4.000000 224.000000 95.000000 14.000000 0.555297 -0.388216 0.735482
-11.77000046 -15.55000019 -0.72000003 145 109 128 116.000000 1.000000 4.000000 4.000000 224.000000 95.000000 14.000000 0.623740 0.178429 0.760994
-11.77999973 -15.53999996 -0.75000000 145 109 128 116.000000 1.000000 4.000000 4.000000 224.000000 95.000000 14.000000 0.567491 -0.237880 0.788268
-11.96000004 -15.51000023 -0.60000002 145 109 128 116.000000 1.000000 4.000000 4.000000 224.000000 95.000000 14.000000 0.681400 -0.391021 0.618705
-11.94999981 -15.51000023 -0.61000001 145 109 128 116.000000 1.000000 4.000000 4.000000 224.000000 95.000000 14.000000 0.602613 -0.397890 0.691767
-12.14000034 -15.42000008 -0.23999999 145 109 128 116.000000 1.000000 4.000000 4.000000 224.000000 95.000000 14.000000 -0.350801 0.832169 -0.429456
-12.21000004 -15.34000015 -0.28000000 145 109 128 116.000000 1.000000 4.000000 4.000000 224.000000 95.000000 14.000000 -0.439228 0.845862 -0.302648
-12.25000000 -15.34000015 -0.20999999 145 109 128 116.000000 1.000000 4.000000 4.000000 224.000000 95.000000 14.000000 0.119495 0.989602 -0.080050
-12.22999954 -15.38000011 -0.23000000 145 109 128 116.000000 1.000000 4.000000 4.000000 224.000000 95.000000 14.000000 -0.201456 0.886700 -0.416146
-12.18999958 -15.39999962 -0.22000000 145 109 128 116.000000 1.000000 4.000000 4.000000 224.000000 95.000000 14.000000 -0.096782 0.942627 -0.319512
-12.22999954 -15.43000031 -0.22000000 145 109 128 116.000000 1.000000 4.000000 4.000000 224.000000 95.000000 14.000000 -0.521646 0.781667 -0.341879
-12.18999958 -15.39999962 -0.22000000 145 109 128 116.000000 1.000000 4.000000 4.000000 224.000000 95.000000 14.000000 -0.096782 0.942627 -0.319512
-12.18999958 -15.40999985 -0.23000000 145 109 128 116.000000 1.000000 4.000000 4.000000 224.000000 95.000000 14.000000 -0.226946 0.842288 -0.488923
-12.19999981 -15.39999962 -0.28000000 145 109 128 116.000000 1.000000 4.000000 4.000000 224.000000 95.000000 14.000000 -0.277518 0.854018 -0.440042
-12.21000004 -15.43000031 -0.25000000 145 109 128 116.000000 1.000000 4.000000 4.000000 224.000000 95.000000 14.000000 0.236223 -0.599161 0.764987
-12.23999977 -15.36999989 -0.20999999 145 109 128 116.000000 1.000000 4.000000 4.000000 224.000000 95.000000 14.000000 -0.465147 0.751138 -0.468434
-12.27000046 -15.38000011 -0.25999999 145 109 128 116.000000 1.000000 4.000000 4.000000 224.000000 95.000000 14.000000 -0.590085 0.785255 -0.187546
-12.27000046 -15.39000034 -0.27000001 145 109 128 116.000000 1.000000 4.000000 4.000000 224.000000 95.000000 14.000000 -0.634839 0.574218 -0.516965
-12.27000046 -15.38000011 -0.25000000 145 109 128 116.000000 1.000000 4.000000 4.000000 224.000000 95.000000 14.000000 -0.622506 0.507789 -0.595514
-12.23999977 -15.40999985 -0.22000000 145 109 128 116.000000 1.000000 4.000000 4.000000 224.000000 95.000000 14.000000 -0.156291 0.984275 -0.082321
-12.23999977 -15.42000008 -0.27000001 145 109 128 116.000000 1.000000 4.000000 4.000000 224.000000 95.000000 14.000000 -0.244946 0.930230 -0.273264
-12.25000000 -15.39999962 -0.28000000 145 109 128 116.000000 1.000000 4.000000 4.000000 224.000000 95.000000 14.000000 -0.308310 0.910318 -0.276164
-12.10999966 -15.43999958 -0.22000000 145 109 128 116.000000 1.000000 4.000000 4.000000 224.000000 95.000000 14.000000 -0.143241 0.986112 0.084050
-12.10999966 -15.43999958 -0.22000000 145 109 128 116.000000 1.000000 4.000000 4.000000 224.000000 95.000000 14.000000 -0.143241 0.986112 0.084050
-12.10999966 -15.43999958 -0.20999999 145 109 128 116.000000 1.000000 4.000000 4.000000 224.000000 95.000000 14.000000 -0.262892 0.960519 0.091051
-12.13000011 -15.46000004 -0.25000000 145 109 128 116.000000 1.000000 4.000000 4.000000 224.000000 95.000000 14.000000 -0.233700 0.941712 -0.241997
-12.13000011 -15.46000004 -0.25000000 145 109 128 116.000000 1.000000 4.000000 4.000000 224.000000 95.000000 14.000000 -0.233700 0.941712 -0.241997
-12.10999966 -15.52000046 -0.20000000 145 109 128 116.000000 1.000000 4.000000 4.000000 224.000000 95.000000 14.000000 0.722800 0.476882 0.500144
-12.13000011 -15.48999977 -0.20999999 145 109 128 116.000000 1.000000 4.000000 4.000000 224.000000 95.000000 14.000000 0.188186 0.932567 -0.308068
-12.14000034 -15.50000000 -0.27000001 145 109 128 116.000000 1.000000 4.000000 4.000000 224.000000 95.000000 14.000000 0.597352 -0.690016 0.408715
-12.14000034 -15.50000000 -0.25000000 145 109 128 116.000000 1.000000 4.000000 4.000000 224.000000 95.000000 14.000000 0.686800 -0.459538 0.563143
-12.10999966 -15.48999977 -0.27000001 145 109 128 116.000000 1.000000 4.000000 4.000000 224.000000 95.000000 14.000000 -0.521017 0.833327 -0.184683
-12.18000031 -15.43999958 -0.20000000 145 109 128 116.000000 1.000000 4.000000 4.000000 224.000000 95.000000 14.000000 -0.172827 0.816045 -0.551544
-12.17000008 -15.43999958 -0.22000000 145 109 128 116.000000 1.000000 4.000000 4.000000 224.000000 95.000000 14.000000 -0.173921 0.983188 -0.055608
-12.18000031 -15.48999977 -0.22000000 145 109 128 116.000000 1.000000 4.000000 4.000000 224.000000 95.000000 14.000000 -0.285243 0.908389 -0.305722
-12.17000008 -15.48999977 -0.28000000 145 109 128 116.000000 1.000000 4.000000 4.000000 224.000000 95.000000 14.000000 0.421696 -0.122701 0.898397
-12.14999962 -15.53999996 -0.22000000 145 109 128 116.000000 1.000000 4.000000 4.000000 224.000000 95.000000 14.000000 0.698665 0.139733 0.701670
-12.22999954 -15.47999954 -0.23999999 145 109 128 116.000000 1.000000 4.000000 4.000000 224.000000 95.000000 14.000000 0.700616 -0.220015 0.678771
-12.19999981 -15.47000027 -0.25000000 145 109 128 116.000000 1.000000 4.000000 4.000000 224.000000 95.000000 14.000000 0.526679 -0.331376 0.782815
-12.22000027 -15.50000000 -0.20000000 145 109 128 116.000000 1.000000 4.000000 4.000000 224.000000 95.000000 14.000000 -0.437577 0.816280 -0.377112
-12.18999958 -15.51000023 -0.23999999 145 109 128 116.000000 1.000000 4.000000 4.000000 224.000000 95.000000 14.000000 0.785478 -0.221545 0.577877
-12.26000023 -15.47999954 -0.22000000 145 109 128 116.000000 1.000000 4.000000 4.000000 224.000000 95.000000 14.000000 0.389324 -0.218903 0.894711
-12.26000023 -15.47999954 -0.22000000 145 109 128 116.000000 1.000000 4.000000 4.000000 224.000000 95.000000 14.000000 0.389324 -0.218903 0.894711
-12.23999977 -15.47999954 -0.23000000 145 109 128 116.000000 1.000000 4.000000 4.000000 224.000000 95.000000 14.000000 0.576050 -0.324331 0.750317
-12.27000046 -15.50000000 -0.22000000 145 109 128 116.000000 1.000000 4.000000 4.000000 224.000000 95.000000 14.000000 0.582466 0.064085 0.810325
-12.18999958 -15.50000000 -0.31000000 145 109 128 116.000000 1.000000 4.000000 4.000000 224.000000 95.000000 14.000000 0.556711 0.115434 0.822647
-12.21000004 -15.52000046 -0.28999999 145 109 128 116.000000 1.000000 4.000000 4.000000 224.000000 95.000000 14.000000 0.771426 -0.378405 0.511577
-12.23999977 -15.52999973 -0.20000000 145 109 128 116.000000 1.000000 4.000000 4.000000 224.000000 95.000000 14.000000 0.586177 -0.207700 0.783108
-12.25000000 -15.56000042 -0.25000000 145 109 128 116.000000 1.000000 4.000000 4.000000 224.000000 95.000000 14.000000 0.774628 0.370333 0.512645
-12.23999977 -15.52999973 -0.20000000 145 109 128 116.000000 1.000000 4.000000 4.000000 224.000000 95.000000 14.000000 0.586177 -0.207700 0.783108
-12.25000000 -15.52999973 -0.20000000 145 109 128 116.000000 1.000000 4.000000 4.000000 224.000000 95.000000 14.000000 0.390941 0.311220 0.866203
-12.21000004 -15.52999973 -0.25000000 145 109 128 116.000000 1.000000 4.000000 4.000000 224.000000 95.000000 14.000000 0.308510 0.242503 0.919790
-12.28999996 -15.35000038 -0.20999999 145 109 128 116.000000 1.000000 4.000000 4.000000 224.000000 95.000000 14.000000 -0.396678 0.912770 -0.097454
-12.30000019 -15.35999966 -0.22000000 145 109 128 116.000000 1.000000 4.000000 4.000000 224.000000 95.000000 14.000000 -0.574553 0.802574 -0.160515
-12.31000042 -15.38000011 -0.20000000 145 109 128 116.000000 1.000000 4.000000 4.000000 224.000000 95.000000 14.000000 -0.578650 0.615765 -0.534788
-12.31000042 -15.38000011 -0.20000000 145 109 128 116.000000 1.000000 4.000000 4.000000 224.000000 95.000000 14.000000 -0.578650 0.615765 -0.534788
-12.30000019 -15.38000011 -0.23000000 145 109 128 116.000000 1.000000 4.000000 4.000000 224.000000 95.000000 14.000000 -0.150978 0.942590 -0.297875
-12.28999996 -15.38000011 -0.23999999 145 109 128 116.000000 1.000000 4.000000 4.000000 224.000000 95.000000 14.000000 -0.382893 0.854147 -0.351890
-12.30000019 -15.39000034 -0.23999999 145 109 128 116.000000 1.000000 4.000000 4.000000 224.000000 95.000000 14.000000 -0.519801 0.805614 -0.284242
-12.30000019 -15.40999985 -0.20000000 145 109 128 116.000000 1.000000 4.000000 4.000000 224.000000 95.000000 14.000000 0.192633 -0.716594 0.670362
-12.32999992 -15.39000034 -0.20000000 145 109 128 116.000000 1.000000 4.000000 4.000000 224.000000 95.000000 14.000000 -0.100010 0.957241 -0.271456
-12.31999969 -15.39000034 -0.20000000 145 109 128 116.000000 1.000000 4.000000 4.000000 224.000000 95.000000 14.000000 -0.589188 0.599318 -0.541918
-12.35999966 -15.39999962 -0.23000000 145 109 128 116.000000 1.000000 4.000000 4.000000 224.000000 95.000000 14.000000 -0.518415 0.757180 -0.397397
-12.35000038 -15.39999962 -0.27000001 145 109 128 116.000000 1.000000 4.000000 4.000000 224.000000 95.000000 14.000000 0.681848 -0.629272 0.372963
-12.35999966 -15.42000008 -0.23999999 145 109 128 116.000000 1.000000 4.000000 4.000000 224.000000 95.000000 14.000000 -0.435639 0.723856 -0.535024
-12.38000011 -15.43000031 -0.23999999 145 109 128 116.000000 1.000000 4.000000 4.000000 224.000000 95.000000 14.000000 0.364537 -0.593395 0.717632
-12.27999973 -15.44999981 -0.23000000 145 109 128 116.000000 1.000000 4.000000 4.000000 224.000000 95.000000 14.000000 0.556291 -0.367054 0.745528
-12.28999996 -15.52000046 -0.20000000 145 109 128 116.000000 1.000000 4.000000 4.000000 224.000000 95.000000 14.000000 0.624077 -0.175474 0.761404
-12.35999966 -15.44999981 -0.25000000 145 109 128 116.000000 1.000000 4.000000 4.000000 224.000000 95.000000 14.000000 0.459289 -0.039290 0.887417
-12.27999973 -15.47000027 -0.28999999 145 109 128 116.000000 1.000000 4.000000 4.000000 224.000000 95.000000 14.000000 0.516295 -0.028759 0.855928
-12.42000008 -15.44999981 -0.23000000 145 109 128 116.000000 1.000000 4.000000 4.000000 224.000000 95.000000 14.000000 0.618448 -0.318105 0.718562
-11.92000008 -15.80000019 -0.81000000 145 109 128 116.000000 1.000000 4.000000 4.000000 224.000000 95.000000 30.000000 0.371879 0.454873 0.809195
-12.02999973 -15.77000046 -0.69999999 145 109 128 116.000000 1.000000 4.000000 4.000000 224.000000 95.000000 30.000000 0.644037 0.402316 0.650660
-11.97000027 -15.73999977 -0.81999999 145 109 128 116.000000 1.000000 4.000000 4.000000 224.000000 95.000000 30.000000 0.398293 0.749053 0.529418
-11.97999954 -15.76000023 -0.81999999 145 109 128 116.000000 1.000000 4.000000 4.000000 224.000000 95.000000 30.000000 0.468584 0.262714 0.843451
-12.03999996 -15.76000023 -0.75000000 145 109 128 116.000000 1.000000 4.000000 4.000000 224.000000 95.000000 30.000000 0.405263 0.686466 0.603760
-12.06000042 -15.77000046 -0.76999998 145 109 128 116.000000 1.000000 4.000000 4.000000 224.000000 95.000000 30.000000 0.392142 0.666807 0.633714
-12.10000038 -15.73999977 -0.76999998 145 109 128 116.000000 1.000000 4.000000 4.000000 224.000000 95.000000 30.000000 0.817745 0.235621 0.525143
-12.06999969 -15.72000027 -0.76999998 145 109 128 116.000000 1.000000 4.000000 4.000000 224.000000 95.000000 30.000000 0.699450 0.539194 0.469083
-12.02000046 -15.72999954 -0.81999999 145 109 128 116.000000 1.000000 4.000000 4.000000 224.000000 95.000000 30.000000 0.419644 0.150384 0.895144
-12.06000042 -15.77000046 -0.81999999 145 109 128 116.000000 1.000000 4.000000 4.000000 224.000000 95.000000 30.000000 0.789101 0.472815 0.392130
-11.97999954 -15.81999969 -0.76999998 145 109 128 116.000000 1.000000 4.000000 4.000000 224.000000 95.000000 30.000000 0.633313 0.449502 0.629971
-12.01000023 -15.80000019 -0.74000001 145 109 128 116.000000 1.000000 4.000000 4.000000 224.000000 95.000000 30.000000 0.496465 0.573880 0.651295
-11.93999958 -15.80000019 -0.81999999 145 109 128 116.000000 1.000000 4.000000 4.000000 224.000000 95.000000 30.000000 0.355275 0.751106 0.556435
-11.93999958 -15.78999996 -0.81000000 145 109 128 116.000000 1.000000 4.000000 4.000000 224.000000 95.000000 30.000000 0.198577 0.467327 0.861494
-11.94999981 -15.80000019 -0.81999999 145 109 128 116.000000 1.000000 4.000000 4.000000 224.000000 95.000000 30.000000 0.389946 0.844099 0.368021
-11.93999958 -15.85000038 -0.81999999 145 109 128 116.000000 1.000000 4.000000 4.000000 224.000000 95.000000 30.000000 0.167231 0.492813 0.853914
-11.94999981 -15.84000015 -0.81999999 145 109 128 116.000000 1.000000 4.000000 4.000000 224.000000 95.000000 30.000000 0.627914 0.377408 0.680652
-11.97999954 -15.89000034 -0.81999999 145 109 128 116.000000 1.000000 4.000000 4.000000 224.000000 95.000000 30.000000 0.366768 0.357483 0.858887
-12.02000046 -15.80000019 -0.75000000 145 109 128 116.000000 1.000000 4.000000 4.000000 224.000000 95.000000 30.000000 0.265699 0.849316 0.456143
-12.02999973 -15.78999996 -0.73000002 145 109 128 116.000000 1.000000 4.000000 4.000000 224.000000 95.000000 30.000000 0.239045 0.396429 0.886398
-12.05000019 -15.81999969 -0.82999998 145 109 128 116.000000 1.000000 4.000000 4.000000 224.000000 95.000000 30.000000 0.538154 0.723610 0.432179
-12.03999996 -15.80000019 -0.86000001 145 109 128 116.000000 1.000000 4.000000 4.000000 224.000000 95.000000 30.000000 0.272458 0.683535 0.677161
-12.02000046 -15.82999992 -0.86000001 145 109 128 116.000000 1.000000 4.000000 4.000000 224.000000 95.000000 30.000000 0.411333 0.213775 0.886062
-12.02000046 -15.76000023 -0.89999998 145 109 128 116.000000 1.000000 4.000000 4.000000 224.000000 95.000000 30.000000 0.736469 0.471671 0.484911
-12.03999996 -15.76000023 -0.89999998 145 109 128 116.000000 1.000000 4.000000 4.000000 224.000000 95.000000 30.000000 0.312380 0.568692 0.760926
-12.10000038 -15.77999973 -0.94000000 145 109 128 116.000000 1.000000 4.000000 4.000000 224.000000 95.000000 30.000000 0.275047 0.618459 0.736110
-12.05000019 -15.72000027 -1.01999998 145 109 128 116.000000 1.000000 4.000000 4.000000 224.000000 95.000000 30.000000 0.555272 0.037575 0.830820
-12.02999973 -15.77999973 -1.00999999 145 109 128 116.000000 1.000000 4.000000 4.000000 224.000000 95.000000 30.000000 0.615060 0.058509 0.786306
-12.06000042 -15.76000023 -1.04999995 145 109 128 116.000000 1.000000 4.000000 4.000000 224.000000 95.000000 30.000000 0.664837 -0.055761 0.744904
-12.10000038 -15.72999954 -1.00999999 145 109 128 116.000000 1.000000 4.000000 4.000000 224.000000 95.000000 30.000000 0.867885 0.191380 0.458421
-12.09000015 -15.71000004 -1.01999998 145 109 128 116.000000 1.000000 4.000000 4.000000 224.000000 95.000000 30.000000 0.594520 0.119494 0.795152
-12.06999969 -15.77000046 -1.00000000 145 109 128 116.000000 1.000000 4.000000 4.000000 224.000000 95.000000 30.000000 0.453920 0.648218 0.611368
-12.07999992 -15.76000023 -0.99000001 145 109 128 116.000000 1.000000 4.000000 4.000000 224.000000 95.000000 30.000000 0.764534 0.070550 0.640711
-12.07999992 -15.76000023 -0.99000001 145 109 128 116.000000 1.000000 4.000000 4.000000 224.000000 95.000000 30.000000 0.764534 0.070550 0.640711
-12.06999969 -15.77000046 -1.03999996 145 109 128 116.000000 1.000000 4.000000 4.000000 224.000000 95.000000 30.000000 0.733157 0.325308 0.597207
-12.06999969 -15.77000046 -1.03999996 145 109 128 116.000000 1.000000 4.000000 4.000000 224.000000 95.000000 30.000000 0.733157 0.325308 0.597207
-12.06000042 -15.76000023 -1.05999994 145 109 128 116.000000 1.000000 4.000000 4.000000 224.000000 95.000000 30.000000 0.483188 0.274998 0.831207
-11.97999954 -15.86999989 -0.91000003 145 109 128 116.000000 1.000000 4.000000 4.000000 224.000000 95.000000 30.000000 0.422947 0.745507 0.515107
-11.98999977 -15.93999958 -0.93000001 145 109 128 116.000000 1.000000 4.000000 4.000000 224.000000 95.000000 30.000000 0.358593 0.676251 0.643503
-12.06000042 -15.81000042 -0.95999998 145 109 128 116.000000 1.000000 4.000000 4.000000 224.000000 95.000000 30.000000 0.431162 0.340226 0.835671
-12.06000042 -15.84000015 -0.95999998 145 109 128 116.000000 1.000000 4.000000 4.000000 224.000000 95.000000 30.000000 0.394614 0.615861 0.681905
-12.06999969 -15.78999996 -0.92000002 145 109 128 116.000000 1.000000 4.000000 4.000000 224.000000 95.000000 30.000000 0.690187 0.347541 0.634711
-12.06000042 -15.78999996 -0.97000003 145 109 128 116.000000 1.000000 4.000000 4.000000 224.000000 95.000000 30.000000 0.585689 0.295238 0.754853
-12.03999996 -15.84000015 -0.97000003 145 109 128 116.000000 1.000000 4.000000 4.000000 224.000000 95.000000 30.000000 0.298271 0.431179 0.851539
-12.10000038 -15.80000019 -1.00999999 145 109 128 116.000000 1.000000 4.000000 4.000000 224.000000 95.000000 30.000000 0.749665 0.523289 0.405180
-12.06999969 -15.78999996 -1.00000000 145 109 128 116.000000 1.000000 4.000000 4.000000 224.000000 95.000000 30.000000 0.449398 0.213502 0.867443
-12.09000015 -15.81000042 -1.00999999 145 109 128 116.000000 1.000000 4.000000 4.000000 224.000000 95.000000 30.000000 0.399490 0.500585 0.767999
-12.06999969 -15.85999966 -0.98000002 145 109 128 116.000000 1.000000 4.000000 4.000000 224.000000 95.000000 30.000000 0.335543 0.581932 0.740788
-12.02999973 -15.86999989 -1.00999999 145 109 128 116.000000 1.000000 4.000000 4.000000 224.000000 95.000000 30.000000 0.662669 0.355059 0.659396
-12.11999989 -15.72999954 -0.98000002 145 109 128 116.000000 1.000000 4.000000 4.000000 224.000000 95.000000 30.000000 0.218357 0.323968 0.920524
-12.10999966 -15.77000046 -0.97000003 145 109 128 116.000000 1.000000 4.000000 4.000000 224.000000 95.000000 30.000000 0.528120 0.397316 0.750486
-12.35000038 -15.21000004 0.63999999 145 109 128 116.000000 1.000000 4.000000 4.000000 224.000000 95.000000 15.000000 0.559183 0.589592 0.582834
-12.32999992 -15.25000000 0.63000000 145 109 128 116.000000 1.000000 4.000000 4.000000 224.000000 95.000000 15.000000 0.813341 0.193074 0.548815
-12.35999966 -15.26000023 0.58999997 145 109 128 116.000000 1.000000 4.000000 4.000000 224.000000 95.000000 15.000000 0.367799 0.477014 0.798236
-12.42000008 -15.14999962 0.63999999 145 109 128 116.000000 1.000000 4.000000 4.000000 224.000000 95.000000 15.000000 0.727773 0.632640 0.264789
-12.43000031 -15.14000034 0.66000003 145 109 128 116.000000 1.000000 4.000000 4.000000 224.000000 95.000000 15.000000 0.698843 0.394855 0.596412
-12.43999958 -15.14999962 0.54000002 145 109 128 116.000000 1.000000 4.000000 4.000000 224.000000 95.000000 15.000000 0.430662 0.758162 0.489612
-12.42000008 -15.17000008 0.56000000 145 109 128 116.000000 1.000000 4.000000 4.000000 224.000000 95.000000 15.000000 0.470929 0.672037 0.571483
-12.42000008 -15.18000031 0.56000000 145 109 128 116.000000 1.000000 4.000000 4.000000 224.000000 95.000000 15.000000 0.469352 0.820182 0.327124
-12.43999958 -15.14999962 0.54000002 145 109 128 116.000000 1.000000 4.000000 4.000000 224.000000 95.000000 15.000000 0.430662 0.758162 0.489612
-12.43999958 -15.15999985 0.54000002 145 109 128 116.000000 1.000000 4.000000 4.000000 224.000000 95.000000 15.000000 0.566534 0.430300 0.702767
-12.39000034 -15.22000027 0.61000001 145 109 128 116.000000 1.000000 4.000000 4.000000 224.000000 95.000000 15.000000 0.486404 0.783741 0.386214
-12.36999989 -15.22999954 0.63000000 145 109 128 116.000000 1.000000 4.000000 4.000000 224.000000 95.000000 15.000000 0.288354 0.256793 0.922447
-12.40999985 -15.22000027 0.63000000 145 109 128 116.000000 1.000000 4.000000 4.000000 224.000000 95.000000 15.000000 0.720057 0.500548 0.480593
-12.43000031 -15.22000027 0.58999997 145 109 128 116.000000 1.000000 4.000000 4.000000 224.000000 95.000000 15.000000 0.383829 0.261362 0.885644
-12.43999958 -15.22999954 0.60000002 145 109 128 116.000000 1.000000 4.000000 4.000000 224.000000 95.000000 15.000000 0.242830 0.400744 0.883424
-12.43999958 -15.25000000 0.55000001 145 109 128 116.000000 1.000000 4.000000 4.000000 224.000000 95.000000 15.000000 0.117053 0.656387 0.745288
-12.31000042 -15.27999973 0.68000001 145 109 128 116.000000 1.000000 4.000000 4.000000 224.000000 95.000000 15.000000 0.653449 0.082954 0.752412
-12.39999962 -15.53999996 0.69999999 145 109 128 116.000000 1.000000 4.000000 4.000000 224.000000 95.000000 14.000000 0.643994 0.049757 0.763410
-12.11999989 -15.39999962 -0.17000000 145 109 128 116.000000 1.000000 4.000000 4.000000 224.000000 95.000000 14.000000 0.012392 0.987942 -0.154331
-12.22000027 -15.43000031 -0.11000000 145 109 128 116.000000 1.000000 4.000000 4.000000 224.000000 95.000000 14.000000 -0.251773 0.948572 0.191892
-12.26000023 -15.56999969 0.06000000 145 109 128 116.000000 1.000000 4.000000 4.000000 224.000000 95.000000 14.000000 0.514483 -0.276789 0.811601
-12.27000046 -15.53999996 -0.01000000 145 109 128 116.000000 1.000000 4.000000 4.000000 224.000000 95.000000 14.000000 0.759291 0.070598 0.646910
-12.26000023 -15.50000000 -0.06000000 145 109 128 116.000000 1.000000 4.000000 4.000000 224.000000 95.000000 14.000000 0.362153 0.355989 0.861462
-12.19999981 -15.43999958 -0.09000000 145 109 128 116.000000 1.000000 4.000000 4.000000 224.000000 95.000000 14.000000 0.470303 0.790304 0.392728
-12.19999981 -15.46000004 -0.19000000 145 109 128 116.000000 1.000000 4.000000 4.000000 224.000000 95.000000 14.000000 -0.289875 0.934043 -0.208654
-12.22999954 -15.52000046 -0.14000000 145 109 128 116.000000 1.000000 4.000000 4.000000 224.000000 95.000000 14.000000 0.034455 0.850347 -0.525093
-12.19999981 -15.51000023 -0.12000000 145 109 128 116.000000 1.000000 4.000000 4.000000 224.000000 95.000000 14.000000 0.579441 0.430015 0.692341
-12.22000027 -15.52000046 -0.14000000 145 109 128 116.000000 1.000000 4.000000 4.000000 224.000000 95.000000 14.000000 0.008913 0.930792 -0.365441
-12.25000000 -15.44999981 -0.15000001 145 109 128 116.000000 1.000000 4.000000 4.000000 224.000000 95.000000 14.000000 -0.486270 0.864320 -0.128422
-12.25000000 -15.43999958 -0.12000000 145 109 128 116.000000 1.000000 4.000000 4.000000 224.000000 95.000000 14.000000 -0.134302 0.983674 -0.119783
-12.23999977 -15.48999977 -0.18000001 145 109 128 116.000000 1.000000 4.000000 4.000000 224.000000 95.000000 14.000000 -0.163524 0.855921 -0.490571
-12.23999977 -15.48999977 -0.17000000 145 109 128 116.000000 1.000000 4.000000 4.000000 224.000000 95.000000 14.000000 -0.173040 0.856326 -0.486583
-12.25000000 -15.60000038 -0.04000000 145 109 128 116.000000 1.000000 4.000000 4.000000 224.000000 95.000000 14.000000 -0.552170 0.820069 -0.150321
-12.38000011 -15.43000031 -0.01000000 145 109 128 116.000000 1.000000 4.000000 4.000000 224.000000 95.000000 14.000000 -0.094911 0.977459 0.188589
-12.30000019 -15.40999985 -0.08000000 145 109 128 116.000000 1.000000 4.000000 4.000000 224.000000 95.000000 14.000000 -0.114104 0.974273 0.194353
-12.30000019 -15.39999962 -0.10000000 145 109 128 116.000000 1.000000 4.000000 4.000000 224.000000 95.000000 14.000000 0.276474 0.960959 -0.010962
-12.30000019 -15.40999985 -0.08000000 145 109 128 116.000000 1.000000 4.000000 4.000000 224.000000 95.000000 14.000000 -0.114104 0.974273 0.194353
-12.30000019 -15.40999985 -0.10000000 145 109 128 116.000000 1.000000 4.000000 4.000000 224.000000 95.000000 14.000000 -0.035026 0.990903 -0.129936
-12.31000042 -15.42000008 -0.14000000 145 109 128 116.000000 1.000000 4.000000 4.000000 224.000000 95.000000 14.000000 -0.352208 0.754732 -0.553470
-12.31000042 -15.40999985 -0.19000000 145 109 128 116.000000 1.000000 4.000000 4.000000 224.000000 95.000000 14.000000 0.444101 -0.567185 0.693596
-12.34000015 -15.42000008 -0.15000001 145 109 128 116.000000 1.000000 4.000000 4.000000 224.000000 95.000000 14.000000 -0.687177 0.614669 -0.387258
