//X Y Z R G B PointSourceId ScanDirectionFlag NumberOfReturns ReturnNumber GpsTime Intensity Classification Nx Ny Nz
-8.89999962 -7.98000002 0.47000000 241 139 65 0.000000 0.000000 0.000000 0.000000 0.000000 0.000000 225.000000 -0.403314 0.904273 0.140099
-8.89000034 -7.98999977 0.47999999 241 139 65 0.000000 0.000000 0.000000 0.000000 0.000000 0.000000 225.000000 -0.469368 0.866639 0.169208
-8.92000008 -7.98999977 0.41000000 241 139 65 0.000000 0.000000 0.000000 0.000000 0.000000 0.000000 225.000000 -0.448721 0.893448 -0.019973
-8.90999985 -8.05000019 0.43000001 241 139 65 0.000000 0.000000 0.000000 0.000000 0.000000 0.000000 225.000000 -0.656558 0.735772 0.166044
-8.92000008 -7.98000002 0.37000000 241 139 65 0.000000 0.000000 0.000000 0.000000 0.000000 0.000000 225.000000 0.784805 -0.606777 -0.126103
-8.92000008 -7.98000002 0.37000000 241 139 65 0.000000 0.000000 0.000000 0.000000 0.000000 0.000000 225.000000 0.784805 -0.606777 -0.126103
-8.89999962 -7.98000002 0.34000000 241 139 65 0.000000 0.000000 0.000000 0.000000 0.000000 0.000000 225.000000 0.729579 -0.652129 -0.206017
-8.96000004 -7.94999981 0.49000001 241 139 65 0.000000 0.000000 0.000000 0.000000 0.000000 0.000000 225.000000 -0.551699 0.790612 -0.265633
-8.93999958 -8.00000000 0.47000000 241 139 65 0.000000 0.000000 0.000000 0.000000 0.000000 0.000000 225.000000 -0.242886 0.967806 -0.066015
-8.94999981 -8.00000000 0.47999999 241 139 65 0.000000 0.000000 0.000000 0.000000 0.000000 0.000000 225.000000 -0.473517 0.722736 -0.503423
-8.93999958 -8.00000000 0.44999999 241 139 65 0.000000 0.000000 0.000000 0.000000 0.000000 0.000000 225.000000 -0.675881 0.736947 -0.009715
-8.93999958 -8.00000000 0.46000001 241 139 65 0.000000 0.000000 0.000000 0.000000 0.000000 0.000000 225.000000 -0.433228 0.893267 0.119949
-8.96000004 -7.98999977 0.43000001 241 139 65 0.000000 0.000000 0.000000 0.000000 0.000000 0.000000 225.000000 -0.563323 0.813028 -0.147148
-8.93999958 -8.03999996 0.47000000 241 139 65 0.000000 0.000000 0.000000 0.000000 0.000000 0.000000 225.000000 -0.482871 0.764409 -0.427218
-9.01000023 -8.00000000 0.41000000 241 139 65 0.000000 0.000000 0.000000 0.000000 0.000000 0.000000 225.000000 0.712543 -0.691717 0.117518
-8.98999977 -7.98999977 0.41999999 241 139 65 0.000000 0.000000 0.000000 0.000000 0.000000 0.000000 225.000000 -0.344283 0.892751 0.290628
-9.00000000 -8.01000023 0.49000001 241 139 65 0.000000 0.000000 0.000000 0.000000 0.000000 0.000000 225.000000 0.592768 -0.589390 0.548859
-8.96000004 -8.00000000 0.38999999 241 139 65 0.000000 0.000000 0.000000 0.000000 0.000000 0.000000 225.000000 -0.704680 0.679900 -0.202886
-8.94999981 -7.98999977 0.37000000 241 139 65 0.000000 0.000000 0.000000 0.000000 0.000000 0.000000 225.000000 -0.650017 0.682600 0.333969
-8.94999981 -7.98999977 0.36000001 241 139 65 0.000000 0.000000 0.000000 0.000000 0.000000 0.000000 225.000000 0.619788 -0.692124 -0.369900
-8.96000004 -7.98000002 0.33000001 241 139 65 0.000000 0.000000 0.000000 0.000000 0.000000 0.000000 225.000000 -0.509184 0.769470 0.385548
-8.94999981 -8.05000019 0.34999999 241 139 65 0.000000 0.000000 0.000000 0.000000 0.000000 0.000000 225.000000 -0.323013 0.936330 -0.137655
-8.97999954 -7.98999977 0.33000001 241 139 65 0.000000 0.000000 0.000000 0.000000 0.000000 0.000000 225.000000 0.777089 -0.623123 0.088603
-8.97999954 -7.98999977 0.33000001 241 139 65 0.000000 0.000000 0.000000 0.000000 0.000000 0.000000 225.000000 0.777089 -0.623123 0.088603
-8.97000027 -8.00000000 0.34000000 241 139 65 0.000000 0.000000 0.000000 0.000000 0.000000 0.000000 225.000000 -0.661850 0.693900 0.283650
-8.97999954 -7.98999977 0.34000000 241 139 65 0.000000 0.000000 0.000000 0.000000 0.000000 0.000000 225.000000 -0.682402 0.704065 0.196519
-9.00000000 -8.03999996 0.38999999 241 139 65 0.000000 0.000000 0.000000 0.000000 0.000000 0.000000 225.000000 -0.601649 0.797991 0.035061
-9.00000000 -8.05000019 0.38000000 241 139 65 0.000000 0.000000 0.000000 0.000000 0.000000 0.000000 225.000000 0.752960 -0.655434 -0.058803
-9.00000000 -8.03999996 0.38000000 241 139 65 0.000000 0.000000 0.000000 0.000000 0.000000 0.000000 225.000000 -0.616005 0.725374 0.307198
-9.00000000 -8.03999996 0.40000001 241 139 65 0.000000 0.000000 0.000000 0.000000 0.000000 0.000000 225.000000 -0.254869 0.950702 -0.176655
-9.01000023 -8.05000019 0.38999999 241 139 65 0.000000 0.000000 0.000000 0.000000 0.000000 0.000000 225.000000 0.787052 -0.603258 0.128952
-8.97000027 -8.01000023 0.40000001 241 139 65 0.000000 0.000000 0.000000 0.000000 0.000000 0.000000 225.000000 0.728426 -0.671354 0.136674
-9.00000000 -8.03999996 0.34999999 241 139 65 0.000000 0.000000 0.000000 0.000000 0.000000 0.000000 225.000000 -0.412481 0.910622 0.025039
-8.92000008 -7.90000010 0.25000000 241 139 65 0.000000 0.000000 0.000000 0.000000 0.000000 0.000000 225.000000 -0.577543 0.808560 0.112584
-8.92000008 -7.88999987 0.25000000 241 139 65 0.000000 0.000000 0.000000 0.000000 0.000000 0.000000 225.000000 0.728382 -0.633168 -0.261836
-8.92000008 -7.94999981 0.28000000 241 139 65 0.000000 0.000000 0.000000 0.000000 0.000000 0.000000 225.000000 0.671522 -0.665018 -0.326818
-8.92000008 -7.94999981 0.28000000 241 139 65 0.000000 0.000000 0.000000 0.000000 0.000000 0.000000 225.000000 0.671522 -0.665018 -0.326818
-8.93000031 -7.90000010 0.23999999 241 139 65 0.000000 0.000000 0.000000 0.000000 0.000000 0.000000 225.000000 -0.411784 0.896743 0.162131
-8.93000031 -7.96000004 0.28999999 241 139 65 0.000000 0.000000 0.000000 0.000000 0.000000 0.000000 225.000000 0.656814 -0.630209 -0.414042
-8.94999981 -7.94000006 0.28999999 241 139 65 0.000000 0.000000 0.000000 0.000000 0.000000 0.000000 225.000000 -0.611675 0.776992 0.148786
-8.94999981 -7.94000006 0.28999999 241 139 65 0.000000 0.000000 0.000000 0.000000 0.000000 0.000000 225.000000 -0.611675 0.776992 0.148786
-8.96000004 -7.94000006 0.27000001 241 139 65 0.000000 0.000000 0.000000 0.000000 0.000000 0.000000 225.000000 -0.444301 0.762362 0.470533
-8.98999977 -7.92000008 0.23999999 241 139 65 0.000000 0.000000 0.000000 0.000000 0.000000 0.000000 225.000000 -0.494619 0.682407 0.538213
-8.97000027 -7.88999987 0.25000000 241 139 65 0.000000 0.000000 0.000000 0.000000 0.000000 0.000000 225.000000 -0.495982 0.633848 0.593497
-8.96000004 -7.88999987 0.23000000 241 139 65 0.000000 0.000000 0.000000 0.000000 0.000000 0.000000 225.000000 -0.342928 0.865778 0.364457
-8.96000004 -7.88999987 0.23000000 241 139 65 0.000000 0.000000 0.000000 0.000000 0.000000 0.000000 225.000000 -0.342928 0.865778 0.364457
-8.93000031 -7.92999983 0.20000000 241 139 65 0.000000 0.000000 0.000000 0.000000 0.000000 0.000000 225.000000 -0.254455 0.951850 0.170983
-8.94999981 -7.94000006 0.20000000 241 139 65 0.000000 0.000000 0.000000 0.000000 0.000000 0.000000 225.000000 -0.302317 0.802485 0.514414
-8.94999981 -7.94999981 0.20999999 241 139 65 0.000000 0.000000 0.000000 0.000000 0.000000 0.000000 225.000000 -0.250740 0.798942 0.546645
-8.93000031 -7.94999981 0.16000000 241 139 65 0.000000 0.000000 0.000000 0.000000 0.000000 0.000000 225.000000 -0.344910 0.655492 0.671839
-8.98999977 -7.88000011 0.16000000 241 139 65 0.000000 0.000000 0.000000 0.000000 0.000000 0.000000 225.000000 -0.354321 0.762033 0.541998
-8.97999954 -7.88000011 0.16000000 241 139 65 0.000000 0.000000 0.000000 0.000000 0.000000 0.000000 225.000000 -0.504294 0.863145 0.025826
-9.00000000 -7.96000004 0.18000001 241 139 65 0.000000 0.000000 0.000000 0.000000 0.000000 0.000000 225.000000 0.695678 -0.478800 -0.535522
-9.01000023 -7.92999983 0.16000000 241 139 65 0.000000 0.000000 0.000000 0.000000 0.000000 0.000000 225.000000 0.625055 -0.584620 -0.517229
-8.93999958 -7.96999979 0.28999999 241 139 65 0.000000 0.000000 0.000000 0.000000 0.000000 0.000000 225.000000 -0.351141 0.790467 0.501858
-8.93999958 -7.96999979 0.30000001 241 139 65 0.000000 0.000000 0.000000 0.000000 0.000000 0.000000 225.000000 -0.412039 0.907580 0.080765
-8.96000004 -7.98999977 0.28999999 241 139 65 0.000000 0.000000 0.000000 0.000000 0.000000 0.000000 225.000000 -0.626258 0.716413 0.307494
-8.93000031 -8.00000000 0.31999999 241 139 65 0.000000 0.000000 0.000000 0.000000 0.000000 0.000000 225.000000 -0.376872 0.922593 -0.082399
-8.93999958 -7.96999979 0.30000001 241 139 65 0.000000 0.000000 0.000000 0.000000 0.000000 0.000000 225.000000 -0.412039 0.907580 0.080765
-8.96000004 -7.96999979 0.25999999 241 139 65 0.000000 0.000000 0.000000 0.000000 0.000000 0.000000 225.000000 -0.401115 0.909103 0.112423
-8.94999981 -7.96999979 0.27000001 241 139 65 0.000000 0.000000 0.000000 0.000000 0.000000 0.000000 225.000000 -0.682245 0.730270 0.035313
-8.96000004 -8.02000046 0.28999999 241 139 65 0.000000 0.000000 0.000000 0.000000 0.000000 0.000000 225.000000 -0.504225 0.828038 0.245173
-8.94999981 -8.02999973 0.23999999 241 139 65 0.000000 0.000000 0.000000 0.000000 0.000000 0.000000 225.000000 -0.327542 0.929663 0.168650
-9.00000000 -7.98000002 0.27000001 241 139 65 0.000000 0.000000 0.000000 0.000000 0.000000 0.000000 225.000000 -0.387209 0.918779 0.076902
-9.00000000 -7.98000002 0.25000000 241 139 65 0.000000 0.000000 0.000000 0.000000 0.000000 0.000000 225.000000 -0.749953 0.590048 0.299022
-8.97999954 -8.01000023 0.28000000 241 139 65 0.000000 0.000000 0.000000 0.000000 0.000000 0.000000 225.000000 -0.547575 0.797182 0.254287
-8.93999958 -7.96999979 0.23000000 241 139 65 0.000000 0.000000 0.000000 0.000000 0.000000 0.000000 225.000000 -0.517083 0.853397 0.065862
-9.01000023 -8.00000000 0.23000000 241 139 65 0.000000 0.000000 0.000000 0.000000 0.000000 0.000000 225.000000 -0.632822 0.575446 0.518071
-9.01000023 -7.96999979 0.20999999 241 139 65 0.000000 0.000000 0.000000 0.000000 0.000000 0.000000 225.000000 -0.410842 0.899872 0.146425
-9.01000023 -7.98000002 0.22000000 241 139 65 0.000000 0.000000 0.000000 0.000000 0.000000 0.000000 225.000000 -0.431004 0.667308 0.607400
-9.00000000 -8.02999973 0.22000000 241 139 65 0.000000 0.000000 0.000000 0.000000 0.000000 0.000000 225.000000 -0.523806 0.710048 0.470594
-9.00000000 -8.02999973 0.22000000 241 139 65 0.000000 0.000000 0.000000 0.000000 0.000000 0.000000 225.000000 -0.523806 0.710048 0.470594
-9.01000023 -8.02000046 0.20999999 241 139 65 0.000000 0.000000 0.000000 0.000000 0.000000 0.000000 225.000000 -0.296281 0.917750 0.264485
-8.98999977 -8.01000023 0.20000000 241 139 65 0.000000 0.000000 0.000000 0.000000 0.000000 0.000000 225.000000 0.611502 -0.681103 -0.402696
-8.80000019 -7.78999996 0.10000000 241 139 65 0.000000 0.000000 0.000000 0.000000 0.000000 0.000000 61.000000 0.632013 -0.661872 -0.403095
-8.82999992 -7.78999996 0.09000000 241 139 65 0.000000 0.000000 0.000000 0.000000 0.000000 0.000000 61.000000 -0.188508 0.770890 0.608436
-8.80000019 -7.78000021 0.10000000 241 139 65 0.000000 0.000000 0.000000 0.000000 0.000000 0.000000 61.000000 0.636047 -0.464868 -0.615908
-8.84000015 -7.73000002 0.11000000 241 139 65 0.000000 0.000000 0.000000 0.000000 0.000000 0.000000 61.000000 -0.649300 0.709922 0.272802
-8.85999966 -7.73000002 0.11000000 241 139 65 0.000000 0.000000 0.000000 0.000000 0.000000 0.000000 61.000000 -0.592039 0.527943 0.608906
-8.84000015 -7.73000002 0.12000000 241 139 65 0.000000 0.000000 0.000000 0.000000 0.000000 0.000000 61.000000 -0.673684 0.657372 0.337657
-8.86999989 -7.73000002 0.08000000 241 139 65 0.000000 0.000000 0.000000 0.000000 0.000000 0.000000 61.000000 0.696143 -0.519186 -0.495814
-8.85999966 -7.71999979 0.07000000 241 139 65 0.000000 0.000000 0.000000 0.000000 0.000000 0.000000 61.000000 -0.580536 0.742245 0.334738
-8.84000015 -7.71000004 0.08000000 241 139 65 0.000000 0.000000 0.000000 0.000000 0.000000 0.000000 61.000000 0.675072 -0.588396 -0.445048
-8.84000015 -7.76999998 0.14000000 241 139 65 0.000000 0.000000 0.000000 0.000000 0.000000 0.000000 61.000000 0.595403 -0.710219 -0.375612
-8.85000038 -7.78000021 0.13000000 241 139 65 0.000000 0.000000 0.000000 0.000000 0.000000 0.000000 61.000000 -0.359615 0.567899 0.740384
-8.84000015 -7.76000023 0.12000000 241 139 65 0.000000 0.000000 0.000000 0.000000 0.000000 0.000000 61.000000 -0.317143 0.888302 0.332174
-8.85999966 -7.76000023 0.12000000 241 139 65 0.000000 0.000000 0.000000 0.000000 0.000000 0.000000 61.000000 0.265066 -0.646000 -0.715838
-8.90999985 -7.71999979 0.13000000 241 139 65 0.000000 0.000000 0.000000 0.000000 0.000000 0.000000 61.000000 0.708007 -0.680242 -0.189727
-8.86999989 -7.71999979 0.02000000 241 139 65 0.000000 0.000000 0.000000 0.000000 0.000000 0.000000 61.000000 0.534310 -0.467729 -0.704090
-8.85999966 -7.71000004 0.02000000 241 139 65 0.000000 0.000000 0.000000 0.000000 0.000000 0.000000 61.000000 -0.673979 0.383954 0.631135
-8.86999989 -7.71000004 0.05000000 241 139 65 0.000000 0.000000 0.000000 0.000000 0.000000 0.000000 61.000000 0.669264 -0.504884 -0.545140
-8.86999989 -7.71999979 0.02000000 241 139 65 0.000000 0.000000 0.000000 0.000000 0.000000 0.000000 61.000000 0.534310 -0.467729 -0.704090
-8.86999989 -7.71000004 0.01000000 241 139 65 0.000000 0.000000 0.000000 0.000000 0.000000 0.000000 61.000000 -0.433374 0.695723 0.572850
-8.84000015 -7.78999996 0.01000000 241 139 65 0.000000 0.000000 0.000000 0.000000 0.000000 0.000000 61.000000 0.686700 -0.673954 -0.272450
-8.85999966 -7.78999996 0.01000000 241 139 65 0.000000 0.000000 0.000000 0.000000 0.000000 0.000000 61.000000 -0.683258 0.627281 0.373734
-8.90999985 -7.73000002 0.02000000 241 139 65 0.000000 0.000000 0.000000 0.000000 0.000000 0.000000 61.000000 -0.086228 0.697128 0.711743
-8.89000034 -7.73000002 0.04000000 241 139 65 0.000000 0.000000 0.000000 0.000000 0.000000 0.000000 61.000000 -0.419460 0.843598 0.335256
-8.89000034 -7.71999979 0.01000000 241 139 65 0.000000 0.000000 0.000000 0.000000 0.000000 0.000000 61.000000 -0.267240 0.435219 0.859748
-8.89000034 -7.71999979 0.01000000 241 139 65 0.000000 0.000000 0.000000 0.000000 0.000000 0.000000 61.000000 -0.267240 0.435219 0.859748
-8.89999962 -7.76000023 -0.02000000 241 139 65 0.000000 0.000000 0.000000 0.000000 0.000000 0.000000 61.000000 0.751097 -0.404185 -0.522004
-8.89999962 -7.82000017 0.12000000 241 139 65 0.000000 0.000000 0.000000 0.000000 0.000000 0.000000 61.000000 -0.258715 0.655517 0.709482
-8.86999989 -7.82000017 0.11000000 241 139 65 0.000000 0.000000 0.000000 0.000000 0.000000 0.000000 61.000000 0.343226 -0.768632 -0.539815
-8.88000011 -7.80999994 0.07000000 241 139 65 0.000000 0.000000 0.000000 0.000000 0.000000 0.000000 61.000000 -0.294507 0.775270 0.558768
-8.90999985 -7.80000019 0.10000000 241 139 65 0.000000 0.000000 0.000000 0.000000 0.000000 0.000000 61.000000 -0.509272 0.852635 0.116859
-8.88000011 -7.82000017 0.03000000 241 139 65 0.000000 0.000000 0.000000 0.000000 0.000000 0.000000 61.000000 -0.405601 0.876039 0.260851
-8.86999989 -7.80000019 0.01000000 241 139 65 0.000000 0.000000 0.000000 0.000000 0.000000 0.000000 61.000000 -0.451164 0.858275 0.244570
-8.88000011 -7.80999994 0.00000000 241 139 65 0.000000 0.000000 0.000000 0.000000 0.000000 0.000000 61.000000 -0.320426 0.876237 0.359910
-8.89000034 -7.82000017 0.02000000 241 139 65 0.000000 0.000000 0.000000 0.000000 0.000000 0.000000 61.000000 -0.348201 0.911679 0.218167
-8.89999962 -7.80000019 0.06000000 241 139 65 0.000000 0.000000 0.000000 0.000000 0.000000 0.000000 61.000000 -0.430282 0.882592 0.189442
-8.89999962 -7.82000017 0.01000000 241 139 65 0.000000 0.000000 0.000000 0.000000 0.000000 0.000000 61.000000 -0.182589 0.883730 0.430910
-8.94999981 -7.76999998 0.12000000 241 139 65 0.000000 0.000000 0.000000 0.000000 0.000000 0.000000 61.000000 0.341976 -0.565639 -0.750403
-8.93000031 -7.84999990 0.12000000 241 139 65 0.000000 0.000000 0.000000 0.000000 0.000000 0.000000 61.000000 -0.689027 0.715699 0.114097
-8.93000031 -7.82000017 0.14000000 241 139 65 0.000000 0.000000 0.000000 0.000000 0.000000 0.000000 61.000000 0.602461 -0.534958 -0.592335
-8.97000027 -7.86999989 -0.17000000 241 139 65 0.000000 0.000000 0.000000 0.000000 0.000000 0.000000 57.000000 -0.590048 0.299022 0.749953
-8.97000027 -7.92999983 0.07000000 241 139 65 0.000000 0.000000 0.000000 0.000000 0.000000 0.000000 57.000000 -0.176742 0.811201 0.557418
-8.97999954 -7.92999983 0.07000000 241 139 65 0.000000 0.000000 0.000000 0.000000 0.000000 0.000000 57.000000 -0.216273 0.814476 0.538382
-8.97000027 -7.92999983 0.07000000 241 139 65 0.000000 0.000000 0.000000 0.000000 0.000000 0.000000 57.000000 -0.176742 0.811201 0.557418
-8.98999977 -7.88999987 0.04000000 241 139 65 0.000000 0.000000 0.000000 0.000000 0.000000 0.000000 57.000000 -0.267122 0.935626 0.230760
-8.97999954 -7.92000008 0.03000000 241 139 65 0.000000 0.000000 0.000000 0.000000 0.000000 0.000000 57.000000 -0.256414 0.941109 0.220377
-8.97999954 -7.92999983 0.03000000 241 139 65 0.000000 0.000000 0.000000 0.000000 0.000000 0.000000 57.000000 0.373120 -0.639399 -0.672273
-8.97000027 -7.94999981 0.03000000 241 139 65 0.000000 0.000000 0.000000 0.000000 0.000000 0.000000 57.000000 -0.211911 0.821728 0.529016
-8.97999954 -7.94999981 0.01000000 241 139 65 0.000000 0.000000 0.000000 0.000000 0.000000 0.000000 57.000000 -0.490951 0.685321 0.537868
-8.97999954 -7.96000004 -0.02000000 241 139 65 0.000000 0.000000 0.000000 0.000000 0.000000 0.000000 57.000000 -0.362304 0.824281 0.435081
-9.00000000 -7.92999983 -0.01000000 241 139 65 0.000000 0.000000 0.000000 0.000000 0.000000 0.000000 57.000000 -0.407462 0.777586 0.478889
-8.97000027 -7.92999983 -0.02000000 241 139 65 0.000000 0.000000 0.000000 0.000000 0.000000 0.000000 57.000000 -0.325310 0.888982 0.322312
-8.96000004 -7.90000010 -0.04000000 241 139 65 0.000000 0.000000 0.000000 0.000000 0.000000 0.000000 57.000000 -0.363568 0.899351 0.242869
-8.96000004 -7.88000011 -0.10000000 241 139 65 0.000000 0.000000 0.000000 0.000000 0.000000 0.000000 57.000000 -0.457582 0.828679 0.322351
-8.96000004 -7.90999985 -0.09000000 241 139 65 0.000000 0.000000 0.000000 0.000000 0.000000 0.000000 57.000000 -0.540500 0.722320 0.431408
-9.00000000 -7.88999987 -0.05000000 241 139 65 0.000000 0.000000 0.000000 0.000000 0.000000 0.000000 57.000000 -0.605654 0.464727 0.645920
-8.97000027 -7.88999987 -0.09000000 241 139 65 0.000000 0.000000 0.000000 0.000000 0.000000 0.000000 57.000000 -0.429968 0.398000 0.810385
-8.98999977 -7.92000008 -0.10000000 241 139 65 0.000000 0.000000 0.000000 0.000000 0.000000 0.000000 57.000000 -0.449708 0.407800 0.794646
-8.97999954 -7.90999985 -0.08000000 241 139 65 0.000000 0.000000 0.000000 0.000000 0.000000 0.000000 57.000000 -0.085924 0.642247 0.761667
-8.97999954 -7.90000010 -0.09000000 241 139 65 0.000000 0.000000 0.000000 0.000000 0.000000 0.000000 57.000000 -0.378685 0.524958 0.762245
-8.97000027 -7.94999981 -0.05000000 241 139 65 0.000000 0.000000 0.000000 0.000000 0.000000 0.000000 57.000000 0.604969 -0.329246 -0.724990
-8.98999977 -7.94000006 -0.06000000 241 139 65 0.000000 0.000000 0.000000 0.000000 0.000000 0.000000 57.000000 0.689507 -0.420350 -0.589819
-8.98999977 -7.96000004 -0.03000000 241 139 65 0.000000 0.000000 0.000000 0.000000 0.000000 0.000000 57.000000 -0.101544 0.704922 0.701979
-8.97000027 -7.94999981 -0.04000000 241 139 65 0.000000 0.000000 0.000000 0.000000 0.000000 0.000000 57.000000 -0.316806 0.570894 0.757439
-9.01000023 -7.94000006 -0.08000000 241 139 65 0.000000 0.000000 0.000000 0.000000 0.000000 0.000000 57.000000 0.668975 -0.691327 -0.273018
-9.01000023 -7.92999983 -0.07000000 241 139 65 0.000000 0.000000 0.000000 0.000000 0.000000 0.000000 57.000000 -0.592126 0.700985 0.397500
-8.96000004 -7.88000011 -0.13000000 241 139 65 0.000000 0.000000 0.000000 0.000000 0.000000 0.000000 57.000000 -0.579360 0.397794 0.711408
-8.97999954 -7.92000008 -0.19000000 241 139 65 0.000000 0.000000 0.000000 0.000000 0.000000 0.000000 57.000000 -0.336427 0.774266 0.536030
-8.94999981 -7.96999979 -0.09000000 241 139 65 0.000000 0.000000 0.000000 0.000000 0.000000 0.000000 57.000000 -0.609366 0.672462 0.420081
-9.00000000 -7.98000002 -0.12000000 241 139 65 0.000000 0.000000 0.000000 0.000000 0.000000 0.000000 57.000000 -0.420235 0.857403 0.297089
-8.96000004 -8.06000042 0.55000001 241 139 65 0.000000 0.000000 0.000000 0.000000 0.000000 0.000000 225.000000 -0.446058 0.766304 -0.462397
-8.98999977 -8.06000042 0.56999999 241 139 65 0.000000 0.000000 0.000000 0.000000 0.000000 0.000000 225.000000 -0.433234 0.898101 -0.075644
-8.96000004 -8.06000042 0.55000001 241 139 65 0.000000 0.000000 0.000000 0.000000 0.000000 0.000000 225.000000 -0.446058 0.766304 -0.462397
-8.94999981 -8.06000042 0.41999999 241 139 65 0.000000 0.000000 0.000000 0.000000 0.000000 0.000000 225.000000 -0.363222 0.931632 -0.011470
-8.94999981 -8.06000042 0.41000000 241 139 65 0.000000 0.000000 0.000000 0.000000 0.000000 0.000000 225.000000 0.703652 -0.694573 0.149810
-8.96000004 -8.06999969 0.41000000 241 139 65 0.000000 0.000000 0.000000 0.000000 0.000000 0.000000 225.000000 -0.557592 0.824078 0.099932
-8.94999981 -8.06000042 0.41000000 241 139 65 0.000000 0.000000 0.000000 0.000000 0.000000 0.000000 225.000000 0.703652 -0.694573 0.149810
-8.97000027 -8.07999992 0.41000000 241 139 65 0.000000 0.000000 0.000000 0.000000 0.000000 0.000000 225.000000 -0.311837 0.946037 0.088156
-8.97000027 -8.06999969 0.41000000 241 139 65 0.000000 0.000000 0.000000 0.000000 0.000000 0.000000 225.000000 -0.255866 0.964224 0.069323
-9.01000023 -8.06999969 0.40000001 241 139 65 0.000000 0.000000 0.000000 0.000000 0.000000 0.000000 225.000000 -0.520006 0.829280 0.204667
-8.97999954 -8.07999992 0.38999999 241 139 65 0.000000 0.000000 0.000000 0.000000 0.000000 0.000000 225.000000 -0.267967 0.906403 -0.326539
-8.96000004 -8.06999969 0.40000001 241 139 65 0.000000 0.000000 0.000000 0.000000 0.000000 0.000000 225.000000 -0.464851 0.873225 0.146261
-9.00000000 -8.07999992 0.31999999 241 139 65 0.000000 0.000000 0.000000 0.000000 0.000000 0.000000 225.000000 -0.323705 0.946118 0.008749
-8.96000004 -8.06999969 0.31000000 241 139 65 0.000000 0.000000 0.000000 0.000000 0.000000 0.000000 225.000000 -0.462156 0.870026 -0.171658
-8.93000031 -8.06000042 0.30000001 241 139 65 0.000000 0.000000 0.000000 0.000000 0.000000 0.000000 225.000000 -0.550210 0.813948 0.186435
-9.02999973 -7.90999985 0.51999998 241 139 65 0.000000 0.000000 0.000000 0.000000 0.000000 0.000000 225.000000 0.736922 -0.665751 0.117137
-9.09000015 -7.92000008 0.50999999 241 139 65 0.000000 0.000000 0.000000 0.000000 0.000000 0.000000 225.000000 0.735099 -0.623961 0.265144
-9.09000015 -7.92000008 0.50999999 241 139 65 0.000000 0.000000 0.000000 0.000000 0.000000 0.000000 225.000000 0.735099 -0.623961 0.265144
-9.14000034 -7.94000006 0.50000000 241 139 65 0.000000 0.000000 0.000000 0.000000 0.000000 0.000000 225.000000 -0.160426 0.973924 -0.160426
-9.19999981 -8.02000046 0.50999999 241 139 65 0.000000 0.000000 0.000000 0.000000 0.000000 0.000000 225.000000 -0.582850 0.776613 -0.239078
-9.09000015 -7.48999977 0.19000000 241 139 65 0.000000 0.000000 0.000000 0.000000 0.000000 0.000000 204.000000 -0.029478 0.759422 0.649930
-9.13000011 -7.44000006 0.20000000 241 139 65 0.000000 0.000000 0.000000 0.000000 0.000000 0.000000 204.000000 -0.478707 0.065215 0.875549
-9.10999966 -7.42999983 0.15000001 241 139 65 0.000000 0.000000 0.000000 0.000000 0.000000 0.000000 204.000000 0.161920 -0.628008 -0.761176
-9.15999985 -7.44000006 0.18000001 241 139 65 0.000000 0.000000 0.000000 0.000000 0.000000 0.000000 204.000000 0.134973 0.421969 0.896507
-9.10999966 -7.53000021 0.20000000 241 139 65 0.000000 0.000000 0.000000 0.000000 0.000000 0.000000 204.000000 -0.606365 0.639958 0.471990
-9.10999966 -7.51000023 0.20000000 241 139 65 0.000000 0.000000 0.000000 0.000000 0.000000 0.000000 204.000000 -0.295688 0.331348 0.895978
-9.15999985 -7.51999998 0.18000001 241 139 65 0.000000 0.000000 0.000000 0.000000 0.000000 0.000000 204.000000 -0.532435 0.155726 0.832023
-9.21000004 -7.44000006 0.20999999 241 139 65 0.000000 0.000000 0.000000 0.000000 0.000000 0.000000 204.000000 0.276165 0.137416 0.951236
-9.18999958 -7.50000000 0.16000000 241 139 65 0.000000 0.000000 0.000000 0.000000 0.000000 0.000000 204.000000 0.006682 0.493103 0.869945
-9.22999954 -7.46999979 0.20999999 241 139 65 0.000000 0.000000 0.000000 0.000000 0.000000 0.000000 204.000000 -0.160692 -0.116533 0.980101
-9.22999954 -7.46999979 0.20999999 241 139 65 0.000000 0.000000 0.000000 0.000000 0.000000 0.000000 204.000000 -0.160692 -0.116533 0.980101
-9.03999996 -7.53000021 0.10000000 241 139 65 0.000000 0.000000 0.000000 0.000000 0.000000 0.000000 204.000000 -0.650020 0.376847 0.659894
-9.02000046 -7.51999998 0.09000000 241 139 65 0.000000 0.000000 0.000000 0.000000 0.000000 0.000000 204.000000 -0.536709 0.664577 0.519885
-9.03999996 -7.50000000 0.03000000 241 139 65 0.000000 0.000000 0.000000 0.000000 0.000000 0.000000 204.000000 -0.455101 0.006596 0.890415
-9.06000042 -7.48999977 0.02000000 241 139 65 0.000000 0.000000 0.000000 0.000000 0.000000 0.000000 204.000000 -0.285597 0.416941 0.862899
-9.10999966 -7.53000021 0.12000000 241 139 65 0.000000 0.000000 0.000000 0.000000 0.000000 0.000000 204.000000 -0.406583 0.735800 0.541562
-9.14999962 -7.44999981 0.11000000 241 139 65 0.000000 0.000000 0.000000 0.000000 0.000000 0.000000 204.000000 -0.122200 -0.164168 0.978834
-9.17000008 -7.46000004 0.07000000 241 139 65 0.000000 0.000000 0.000000 0.000000 0.000000 0.000000 204.000000 -0.168798 -0.133788 0.976528
-9.18000031 -7.53999996 0.13000000 241 139 65 0.000000 0.000000 0.000000 0.000000 0.000000 0.000000 204.000000 -0.035151 0.617253 0.785979
-9.22000027 -7.46000004 0.12000000 241 139 65 0.000000 0.000000 0.000000 0.000000 0.000000 0.000000 204.000000 -0.051720 -0.134471 0.989567
-9.02000046 -7.92000008 0.49000001 241 139 65 0.000000 0.000000 0.000000 0.000000 0.000000 0.000000 225.000000 -0.333612 0.817429 -0.469587
-9.03999996 -8.05000019 0.34000000 241 139 65 0.000000 0.000000 0.000000 0.000000 0.000000 0.000000 225.000000 -0.343136 0.881269 0.324996
-9.10000038 -7.92000008 0.47999999 241 139 65 0.000000 0.000000 0.000000 0.000000 0.000000 0.000000 225.000000 -0.705390 0.654436 -0.272284
-9.17000008 -8.01000023 0.33000001 241 139 65 0.000000 0.000000 0.000000 0.000000 0.000000 0.000000 225.000000 -0.183069 0.973421 0.137617
-9.17000008 -8.01000023 0.33000001 241 139 65 0.000000 0.000000 0.000000 0.000000 0.000000 0.000000 225.000000 -0.183069 0.973421 0.137617
-9.05000019 -7.90999985 0.23999999 241 139 65 0.000000 0.000000 0.000000 0.000000 0.000000 0.000000 225.000000 0.809240 -0.582135 -0.079055
-9.02999973 -7.88999987 0.20000000 241 139 65 0.000000 0.000000 0.000000 0.000000 0.000000 0.000000 225.000000 0.803234 -0.505388 -0.315273
-9.02999973 -7.90999985 0.20000000 241 139 65 0.000000 0.000000 0.000000 0.000000 0.000000 0.000000 225.000000 -0.391975 0.807948 0.439972
-9.02999973 -7.90999985 0.22000000 241 139 65 0.000000 0.000000 0.000000 0.000000 0.000000 0.000000 225.000000 -0.290058 0.936789 0.195685
-9.03999996 -7.90999985 0.20999999 241 139 65 0.000000 0.000000 0.000000 0.000000 0.000000 0.000000 225.000000 -0.603715 0.785575 0.135650
-9.02999973 -7.90000010 0.19000000 241 139 65 0.000000 0.000000 0.000000 0.000000 0.000000 0.000000 225.000000 -0.499772 0.743885 0.443692
-9.03999996 -7.90000010 0.18000001 241 139 65 0.000000 0.000000 0.000000 0.000000 0.000000 0.000000 225.000000 0.442206 -0.645787 -0.622425
-9.05000019 -7.96000004 0.16000000 241 139 65 0.000000 0.000000 0.000000 0.000000 0.000000 0.000000 225.000000 -0.400093 0.911551 0.094867
-9.02000046 -7.98000002 0.31999999 241 139 65 0.000000 0.000000 0.000000 0.000000 0.000000 0.000000 225.000000 -0.531328 0.819194 -0.215900
-9.02000046 -7.98000002 0.25999999 241 139 65 0.000000 0.000000 0.000000 0.000000 0.000000 0.000000 225.000000 -0.356285 0.933129 0.048288
-9.02000046 -7.98999977 0.23999999 241 139 65 0.000000 0.000000 0.000000 0.000000 0.000000 0.000000 225.000000 0.729614 -0.645247 -0.226540
-9.02000046 -8.03999996 0.31999999 241 139 65 0.000000 0.000000 0.000000 0.000000 0.000000 0.000000 225.000000 -0.309486 0.936710 0.163684
-9.03999996 -8.02999973 0.31000000 241 139 65 0.000000 0.000000 0.000000 0.000000 0.000000 0.000000 225.000000 -0.727543 0.656487 0.199263
-9.02999973 -8.02999973 0.31000000 241 139 65 0.000000 0.000000 0.000000 0.000000 0.000000 0.000000 225.000000 -0.389495 0.843124 0.370724
-9.03999996 -8.02999973 0.30000001 241 139 65 0.000000 0.000000 0.000000 0.000000 0.000000 0.000000 225.000000 -0.341437 0.937304 0.069869
-9.02000046 -8.05000019 0.25999999 241 139 65 0.000000 0.000000 0.000000 0.000000 0.000000 0.000000 225.000000 -0.622453 0.652491 0.432213
-9.03999996 -7.96999979 0.18000001 241 139 65 0.000000 0.000000 0.000000 0.000000 0.000000 0.000000 225.000000 -0.261396 0.924170 0.278536
-9.02999973 -8.03999996 0.22000000 241 139 65 0.000000 0.000000 0.000000 0.000000 0.000000 0.000000 225.000000 -0.504225 0.828038 0.245173
-9.03999996 -8.05000019 0.23000000 241 139 65 0.000000 0.000000 0.000000 0.000000 0.000000 0.000000 225.000000 -0.431766 0.901822 -0.017165
-9.02000046 -8.02999973 0.16000000 241 139 65 0.000000 0.000000 0.000000 0.000000 0.000000 0.000000 225.000000 0.757026 -0.484431 -0.438451
-9.06000042 -7.96999979 0.17000000 241 139 65 0.000000 0.000000 0.000000 0.000000 0.000000 0.000000 225.000000 -0.544928 0.821145 0.169633
-9.07999992 -8.00000000 0.17000000 241 139 65 0.000000 0.000000 0.000000 0.000000 0.000000 0.000000 225.000000 -0.301323 0.704162 0.642931
-9.06000042 -8.02999973 0.22000000 241 139 65 0.000000 0.000000 0.000000 0.000000 0.000000 0.000000 225.000000 -0.535203 0.833030 -0.140067
-9.09000015 -8.02000046 0.23000000 241 139 65 0.000000 0.000000 0.000000 0.000000 0.000000 0.000000 225.000000 -0.333318 0.934651 0.123804
-9.09000015 -8.03999996 0.16000000 241 139 65 0.000000 0.000000 0.000000 0.000000 0.000000 0.000000 225.000000 -0.591414 0.661781 0.460734
-9.07999992 -8.01000023 0.17000000 241 139 65 0.000000 0.000000 0.000000 0.000000 0.000000 0.000000 225.000000 -0.439476 0.650023 0.619945
-9.10999966 -8.02999973 0.23999999 241 139 65 0.000000 0.000000 0.000000 0.000000 0.000000 0.000000 225.000000 -0.401890 0.910121 0.100818
-9.11999989 -8.03999996 0.23999999 241 139 65 0.000000 0.000000 0.000000 0.000000 0.000000 0.000000 225.000000 -0.178966 0.982534 0.050964
-9.10000038 -8.02000046 0.23999999 241 139 65 0.000000 0.000000 0.000000 0.000000 0.000000 0.000000 225.000000 -0.516790 0.837349 0.178255
-9.10999966 -8.02999973 0.23999999 241 139 65 0.000000 0.000000 0.000000 0.000000 0.000000 0.000000 225.000000 -0.401890 0.910121 0.100818
-9.15999985 -7.98000002 0.25999999 241 139 65 0.000000 0.000000 0.000000 0.000000 0.000000 0.000000 225.000000 -0.712784 0.698384 0.064799
-9.17000008 -8.01000023 0.25000000 241 139 65 0.000000 0.000000 0.000000 0.000000 0.000000 0.000000 225.000000 -0.310102 0.933087 0.182168
-9.17000008 -8.01000023 0.25000000 241 139 65 0.000000 0.000000 0.000000 0.000000 0.000000 0.000000 225.000000 -0.310102 0.933087 0.182168
-9.11999989 -7.96999979 0.17000000 241 139 65 0.000000 0.000000 0.000000 0.000000 0.000000 0.000000 225.000000 0.728631 -0.560865 -0.393099
-9.11999989 -7.96999979 0.17000000 241 139 65 0.000000 0.000000 0.000000 0.000000 0.000000 0.000000 225.000000 0.728631 -0.560865 -0.393099
-9.10999966 -8.03999996 0.20999999 241 139 65 0.000000 0.000000 0.000000 0.000000 0.000000 0.000000 225.000000 -0.241160 0.834076 0.496145
-9.10000038 -8.02000046 0.22000000 241 139 65 0.000000 0.000000 0.000000 0.000000 0.000000 0.000000 225.000000 -0.518787 0.742771 0.423264
-9.11999989 -8.03999996 0.20000000 241 139 65 0.000000 0.000000 0.000000 0.000000 0.000000 0.000000 225.000000 -0.662587 0.712712 0.230261
-9.10999966 -8.03999996 0.16000000 241 139 65 0.000000 0.000000 0.000000 0.000000 0.000000 0.000000 225.000000 -0.463901 0.811429 0.355498
-9.14999962 -7.96999979 0.23000000 241 139 65 0.000000 0.000000 0.000000 0.000000 0.000000 0.000000 225.000000 -0.330240 0.792895 0.512112
-9.15999985 -7.98999977 0.17000000 241 139 65 0.000000 0.000000 0.000000 0.000000 0.000000 0.000000 225.000000 -0.341904 0.909319 0.237150
-9.15999985 -7.98999977 0.19000000 241 139 65 0.000000 0.000000 0.000000 0.000000 0.000000 0.000000 225.000000 -0.132199 0.894120 0.427870
-9.15999985 -8.03999996 0.20000000 241 139 65 0.000000 0.000000 0.000000 0.000000 0.000000 0.000000 225.000000 -0.282426 0.862545 0.419823
-9.14000034 -8.03999996 0.23000000 241 139 65 0.000000 0.000000 0.000000 0.000000 0.000000 0.000000 225.000000 -0.482518 0.702907 0.522589
-9.14000034 -8.02999973 0.22000000 241 139 65 0.000000 0.000000 0.000000 0.000000 0.000000 0.000000 225.000000 -0.409607 0.904490 0.118828
-9.14999962 -8.02999973 0.20000000 241 139 65 0.000000 0.000000 0.000000 0.000000 0.000000 0.000000 225.000000 -0.177824 0.871483 0.457051
-9.14000034 -8.02000046 0.23000000 241 139 65 0.000000 0.000000 0.000000 0.000000 0.000000 0.000000 225.000000 -0.556351 0.773153 0.304479
-9.17000008 -8.02999973 0.19000000 241 139 65 0.000000 0.000000 0.000000 0.000000 0.000000 0.000000 225.000000 -0.252213 0.908257 0.333854
-9.14000034 -8.02000046 0.18000001 241 139 65 0.000000 0.000000 0.000000 0.000000 0.000000 0.000000 225.000000 -0.376118 0.782907 0.495572
-9.25000000 -8.02999973 0.34000000 241 139 65 0.000000 0.000000 0.000000 0.000000 0.000000 0.000000 225.000000 -0.626858 0.707848 0.325577
-9.31999969 -8.02999973 0.33000001 241 139 65 0.000000 0.000000 0.000000 0.000000 0.000000 0.000000 225.000000 0.816584 -0.563516 -0.125062
-9.21000004 -8.05000019 0.31999999 241 139 65 0.000000 0.000000 0.000000 0.000000 0.000000 0.000000 225.000000 0.798281 -0.600477 -0.046625
-9.19999981 -8.03999996 0.28999999 241 139 65 0.000000 0.000000 0.000000 0.000000 0.000000 0.000000 225.000000 0.750045 -0.661315 0.009705
-9.19999981 -8.05000019 0.31999999 241 139 65 0.000000 0.000000 0.000000 0.000000 0.000000 0.000000 225.000000 -0.647416 0.723027 -0.241009
-9.22999954 -8.05000019 0.31000000 241 139 65 0.000000 0.000000 0.000000 0.000000 0.000000 0.000000 225.000000 -0.703010 0.705933 -0.086232
-9.25000000 -8.03999996 0.27000001 241 139 65 0.000000 0.000000 0.000000 0.000000 0.000000 0.000000 225.000000 0.799109 -0.575540 -0.173719
-9.25000000 -8.02999973 0.27000001 241 139 65 0.000000 0.000000 0.000000 0.000000 0.000000 0.000000 225.000000 -0.476305 0.879230 -0.009339
-9.22000027 -8.00000000 0.16000000 241 139 65 0.000000 0.000000 0.000000 0.000000 0.000000 0.000000 225.000000 -0.289516 0.724590 0.625419
-9.19999981 -7.98999977 0.18000001 241 139 65 0.000000 0.000000 0.000000 0.000000 0.000000 0.000000 225.000000 -0.240033 0.950641 0.196638
-9.19999981 -7.98999977 0.17000000 241 139 65 0.000000 0.000000 0.000000 0.000000 0.000000 0.000000 225.000000 -0.317127 0.919813 0.231029
-9.22000027 -8.00000000 0.16000000 241 139 65 0.000000 0.000000 0.000000 0.000000 0.000000 0.000000 225.000000 -0.289516 0.724590 0.625419
-9.22000027 -8.00000000 0.16000000 241 139 65 0.000000 0.000000 0.000000 0.000000 0.000000 0.000000 225.000000 -0.289516 0.724590 0.625419
-9.19999981 -8.02000046 0.20000000 241 139 65 0.000000 0.000000 0.000000 0.000000 0.000000 0.000000 225.000000 -0.580200 0.813950 0.029219
-9.23999977 -8.05000019 0.23000000 241 139 65 0.000000 0.000000 0.000000 0.000000 0.000000 0.000000 225.000000 -0.265437 0.904833 0.332896
-9.26000023 -8.02000046 0.18000001 241 139 65 0.000000 0.000000 0.000000 0.000000 0.000000 0.000000 225.000000 -0.253305 0.906333 0.338228
-9.26000023 -8.02000046 0.18000001 241 139 65 0.000000 0.000000 0.000000 0.000000 0.000000 0.000000 225.000000 -0.253305 0.906333 0.338228
-9.34000015 -7.94999981 0.18000001 241 139 65 0.000000 0.000000 0.000000 0.000000 0.000000 0.000000 225.000000 -0.459453 0.860155 0.221441
-9.31000042 -7.94000006 0.16000000 241 139 65 0.000000 0.000000 0.000000 0.000000 0.000000 0.000000 225.000000 -0.243213 0.949754 0.197016
-9.35000038 -8.03999996 0.23999999 241 139 65 0.000000 0.000000 0.000000 0.000000 0.000000 0.000000 225.000000 0.803127 -0.557429 -0.210379
-9.30000019 -7.98999977 0.15000001 241 139 65 0.000000 0.000000 0.000000 0.000000 0.000000 0.000000 225.000000 -0.397553 0.815862 0.419906
-9.28999996 -8.00000000 0.16000000 241 139 65 0.000000 0.000000 0.000000 0.000000 0.000000 0.000000 225.000000 0.689064 -0.685925 -0.233874
-9.30000019 -7.98999977 0.15000001 241 139 65 0.000000 0.000000 0.000000 0.000000 0.000000 0.000000 225.000000 -0.397553 0.815862 0.419906
-9.31000042 -8.02999973 0.20999999 241 139 65 0.000000 0.000000 0.000000 0.000000 0.000000 0.000000 225.000000 0.430942 -0.838378 -0.333784
-9.27000046 -8.02000046 0.16000000 241 139 65 0.000000 0.000000 0.000000 0.000000 0.000000 0.000000 225.000000 0.740669 -0.656536 -0.142725
-9.27000046 -8.02000046 0.19000000 241 139 65 0.000000 0.000000 0.000000 0.000000 0.000000 0.000000 225.000000 -0.652239 0.749853 0.110925
-9.35000038 -8.02999973 0.20000000 241 139 65 0.000000 0.000000 0.000000 0.000000 0.000000 0.000000 225.000000 0.762981 -0.646240 -0.015287
-9.32999992 -8.03999996 0.20000000 241 139 65 0.000000 0.000000 0.000000 0.000000 0.000000 0.000000 225.000000 0.533170 -0.779741 -0.328228
-9.32999992 -8.05000019 0.16000000 241 139 65 0.000000 0.000000 0.000000 0.000000 0.000000 0.000000 225.000000 -0.287122 0.858296 0.425310
-9.32999992 -8.05000019 0.16000000 241 139 65 0.000000 0.000000 0.000000 0.000000 0.000000 0.000000 225.000000 -0.287122 0.858296 0.425310
-9.02999973 -7.86999989 -0.13000000 241 139 65 0.000000 0.000000 0.000000 0.000000 0.000000 0.000000 57.000000 -0.503695 0.684422 0.527122
-9.06000042 -8.02000046 0.11000000 241 139 65 0.000000 0.000000 0.000000 0.000000 0.000000 0.000000 225.000000 -0.320502 0.819413 0.475228
-9.06999969 -8.02000046 0.12000000 241 139 65 0.000000 0.000000 0.000000 0.000000 0.000000 0.000000 225.000000 -0.350836 0.915038 0.199046
-9.02999973 -7.96999979 0.00000000 241 139 65 0.000000 0.000000 0.000000 0.000000 0.000000 0.000000 57.000000 -0.221859 0.920358 0.322054
-9.17000008 -8.00000000 0.11000000 241 139 65 0.000000 0.000000 0.000000 0.000000 0.000000 0.000000 225.000000 0.792599 -0.507583 -0.337855
-9.18000031 -8.01000023 0.10000000 241 139 65 0.000000 0.000000 0.000000 0.000000 0.000000 0.000000 225.000000 -0.169815 0.946889 0.273063
-9.03999996 -7.88999987 -0.12000000 241 139 65 0.000000 0.000000 0.000000 0.000000 0.000000 0.000000 57.000000 -0.375515 0.575571 0.726434
-9.22000027 -7.96000004 0.10000000 241 139 65 0.000000 0.000000 0.000000 0.000000 0.000000 0.000000 225.000000 -0.297869 0.652091 0.697174
-9.21000004 -7.98999977 0.12000000 241 139 65 0.000000 0.000000 0.000000 0.000000 0.000000 0.000000 225.000000 -0.506723 0.594263 0.624566
-9.21000004 -7.98999977 0.12000000 241 139 65 0.000000 0.000000 0.000000 0.000000 0.000000 0.000000 225.000000 -0.506723 0.594263 0.624566
-9.22000027 -8.02999973 0.08000000 241 139 65 0.000000 0.000000 0.000000 0.000000 0.000000 0.000000 225.000000 -0.496318 0.864690 0.077330
-9.22000027 -8.02999973 0.08000000 241 139 65 0.000000 0.000000 0.000000 0.000000 0.000000 0.000000 225.000000 -0.496318 0.864690 0.077330
-9.26000023 -7.98999977 0.14000000 241 139 65 0.000000 0.000000 0.000000 0.000000 0.000000 0.000000 225.000000 -0.414398 0.906751 0.077956
-9.25000000 -7.98000002 0.14000000 241 139 65 0.000000 0.000000 0.000000 0.000000 0.000000 0.000000 225.000000 -0.268778 0.895433 0.354906
-9.22999954 -8.00000000 0.14000000 241 139 65 0.000000 0.000000 0.000000 0.000000 0.000000 0.000000 225.000000 -0.292151 0.905815 0.306832
-9.26000023 -7.98000002 0.12000000 241 139 65 0.000000 0.000000 0.000000 0.000000 0.000000 0.000000 225.000000 0.483827 -0.507104 -0.713271
-9.26000023 -7.98999977 0.13000000 241 139 65 0.000000 0.000000 0.000000 0.000000 0.000000 0.000000 225.000000 -0.557418 0.811201 0.176742
-9.22999954 -8.05000019 0.14000000 241 139 65 0.000000 0.000000 0.000000 0.000000 0.000000 0.000000 225.000000 0.749700 -0.466297 -0.469592
-9.23999977 -8.03999996 0.08000000 241 139 65 0.000000 0.000000 0.000000 0.000000 0.000000 0.000000 225.000000 -0.371248 0.841181 0.393178
-9.25000000 -8.02000046 0.09000000 241 139 65 0.000000 0.000000 0.000000 0.000000 0.000000 0.000000 225.000000 -0.448016 0.729059 0.517450
-9.26000023 -7.96999979 0.00000000 241 139 65 0.000000 0.000000 0.000000 0.000000 0.000000 0.000000 225.000000 -0.655580 0.612209 0.442058
-9.25000000 -8.02999973 0.06000000 241 139 65 0.000000 0.000000 0.000000 0.000000 0.000000 0.000000 225.000000 -0.564332 0.722279 0.399804
-9.25000000 -8.02000046 0.06000000 241 139 65 0.000000 0.000000 0.000000 0.000000 0.000000 0.000000 225.000000 -0.618459 0.736110 0.275047
-9.27000046 -7.96000004 0.11000000 241 139 65 0.000000 0.000000 0.000000 0.000000 0.000000 0.000000 225.000000 -0.503205 0.833576 0.227895
-9.27000046 -7.96000004 0.09000000 241 139 65 0.000000 0.000000 0.000000 0.000000 0.000000 0.000000 225.000000 -0.596051 0.707708 0.379305
-9.27000046 -7.96000004 0.10000000 241 139 65 0.000000 0.000000 0.000000 0.000000 0.000000 0.000000 225.000000 -0.457162 0.813972 0.358403
-9.27000046 -7.92000008 0.01000000 241 139 65 0.000000 0.000000 0.000000 0.000000 0.000000 0.000000 225.000000 -0.343015 0.837958 0.424461
-9.35000038 -7.92000008 0.02000000 241 139 65 0.000000 0.000000 0.000000 0.000000 0.000000 0.000000 225.000000 0.487814 -0.564925 -0.665505
-9.34000015 -7.96000004 0.04000000 241 139 65 0.000000 0.000000 0.000000 0.000000 0.000000 0.000000 225.000000 -0.671803 0.668566 0.318904
-9.34000015 -7.94999981 0.00000000 241 139 65 0.000000 0.000000 0.000000 0.000000 0.000000 0.000000 225.000000 -0.366023 0.612227 0.700860
-9.31000042 -7.98000002 0.11000000 241 139 65 0.000000 0.000000 0.000000 0.000000 0.000000 0.000000 225.000000 -0.444383 0.884451 0.142375
-9.27999973 -7.98000002 0.11000000 241 139 65 0.000000 0.000000 0.000000 0.000000 0.000000 0.000000 225.000000 -0.337450 0.882213 0.328371
-9.27000046 -7.98999977 0.12000000 241 139 65 0.000000 0.000000 0.000000 0.000000 0.000000 0.000000 225.000000 -0.246290 0.588272 0.770245
-9.27999973 -7.98000002 0.10000000 241 139 65 0.000000 0.000000 0.000000 0.000000 0.000000 0.000000 225.000000 -0.599711 0.791265 0.119353
-9.32999992 -7.98000002 0.11000000 241 139 65 0.000000 0.000000 0.000000 0.000000 0.000000 0.000000 225.000000 -0.158046 0.849311 0.503678
-9.35000038 -8.00000000 0.09000000 241 139 65 0.000000 0.000000 0.000000 0.000000 0.000000 0.000000 225.000000 -0.401870 0.892883 0.203127
-9.32999992 -7.96999979 0.08000000 241 139 65 0.000000 0.000000 0.000000 0.000000 0.000000 0.000000 225.000000 -0.408443 0.893923 0.184599
-9.32999992 -7.96999979 0.08000000 241 139 65 0.000000 0.000000 0.000000 0.000000 0.000000 0.000000 225.000000 -0.408443 0.893923 0.184599
-9.31999969 -8.03999996 0.10000000 241 139 65 0.000000 0.000000 0.000000 0.000000 0.000000 0.000000 225.000000 -0.612984 0.771173 0.171879
-9.32999992 -8.03999996 0.10000000 241 139 65 0.000000 0.000000 0.000000 0.000000 0.000000 0.000000 225.000000 -0.494876 0.835007 0.240543
-9.31000042 -7.98999977 0.06000000 241 139 65 0.000000 0.000000 0.000000 0.000000 0.000000 0.000000 225.000000 -0.623420 0.413951 0.663319
-9.31000042 -8.00000000 0.03000000 241 139 65 0.000000 0.000000 0.000000 0.000000 0.000000 0.000000 225.000000 -0.469657 0.845994 0.252421
-9.28999996 -7.98999977 -0.02000000 241 139 65 0.000000 0.000000 0.000000 0.000000 0.000000 0.000000 225.000000 -0.230319 0.495720 0.837386
-9.31000042 -7.98000002 -0.02000000 241 139 65 0.000000 0.000000 0.000000 0.000000 0.000000 0.000000 225.000000 -0.231399 0.422490 0.876331
-9.27000046 -8.03999996 0.04000000 241 139 65 0.000000 0.000000 0.000000 0.000000 0.000000 0.000000 225.000000 -0.382580 0.847921 0.366964
-9.27000046 -8.01000023 0.02000000 241 139 65 0.000000 0.000000 0.000000 0.000000 0.000000 0.000000 225.000000 -0.540258 0.536892 0.647973
-9.30000019 -8.02000046 0.00000000 241 139 65 0.000000 0.000000 0.000000 0.000000 0.000000 0.000000 225.000000 -0.073973 0.686062 0.723773
-9.35000038 -8.00000000 0.04000000 241 139 65 0.000000 0.000000 0.000000 0.000000 0.000000 0.000000 225.000000 -0.388424 0.672718 0.629744
-9.31999969 -7.96999979 0.06000000 241 139 65 0.000000 0.000000 0.000000 0.000000 0.000000 0.000000 225.000000 -0.527335 0.493853 0.691395
-9.31999969 -7.96999979 0.03000000 241 139 65 0.000000 0.000000 0.000000 0.000000 0.000000 0.000000 225.000000 -0.041034 0.771158 0.635321
-9.31999969 -8.00000000 0.00000000 241 139 65 0.000000 0.000000 0.000000 0.000000 0.000000 0.000000 225.000000 -0.277857 0.763709 0.582705
-9.32999992 -8.01000023 0.00000000 241 139 65 0.000000 0.000000 0.000000 0.000000 0.000000 0.000000 225.000000 -0.280941 0.760288 0.585691
-9.35999966 -8.03999996 0.22000000 241 139 65 0.000000 0.000000 0.000000 0.000000 0.000000 0.000000 225.000000 0.482057 -0.806610 -0.342054
-9.39000034 -8.02000046 0.18000001 241 139 65 0.000000 0.000000 0.000000 0.000000 0.000000 0.000000 225.000000 -0.251311 0.791397 0.557256
-9.38000011 -8.02999973 0.19000000 241 139 65 0.000000 0.000000 0.000000 0.000000 0.000000 0.000000 225.000000 -0.283650 0.693900 0.661850
-9.47999954 -8.05000019 0.15000001 241 139 65 0.000000 0.000000 0.000000 0.000000 0.000000 0.000000 225.000000 -0.334759 0.901048 0.275771
-9.56000042 -8.05000019 0.16000000 241 139 65 0.000000 0.000000 0.000000 0.000000 0.000000 0.000000 225.000000 -0.505075 0.849645 0.151670
-9.56999969 -8.05000019 0.19000000 241 139 65 0.000000 0.000000 0.000000 0.000000 0.000000 0.000000 225.000000 -0.391367 0.890545 0.231867
-9.38000011 -7.92999983 0.09000000 241 139 65 0.000000 0.000000 0.000000 0.000000 0.000000 0.000000 225.000000 0.651081 -0.686801 -0.323105
-9.38000011 -7.96000004 0.09000000 241 139 65 0.000000 0.000000 0.000000 0.000000 0.000000 0.000000 225.000000 0.549906 -0.762773 -0.340265
-9.36999989 -7.98999977 0.14000000 241 139 65 0.000000 0.000000 0.000000 0.000000 0.000000 0.000000 225.000000 -0.317162 0.838994 0.442151
-9.39000034 -7.96999979 0.11000000 241 139 65 0.000000 0.000000 0.000000 0.000000 0.000000 0.000000 225.000000 0.249545 -0.773748 -0.582273
-9.38000011 -7.98999977 0.13000000 241 139 65 0.000000 0.000000 0.000000 0.000000 0.000000 0.000000 225.000000 -0.331862 0.597351 0.730096
-9.38000011 -7.98999977 0.13000000 241 139 65 0.000000 0.000000 0.000000 0.000000 0.000000 0.000000 225.000000 -0.331862 0.597351 0.730096
-9.35999966 -8.01000023 0.12000000 241 139 65 0.000000 0.000000 0.000000 0.000000 0.000000 0.000000 225.000000 -0.269331 0.655001 0.705999
-9.43000031 -7.98000002 0.10000000 241 139 65 0.000000 0.000000 0.000000 0.000000 0.000000 0.000000 225.000000 -0.089117 0.691022 0.717319
-9.43999958 -8.03999996 0.08000000 241 139 65 0.000000 0.000000 0.000000 0.000000 0.000000 0.000000 225.000000 0.757381 -0.603070 -0.250361
-9.36999989 -7.98999977 0.01000000 241 139 65 0.000000 0.000000 0.000000 0.000000 0.000000 0.000000 225.000000 -0.326126 0.857820 0.397225
-9.44999981 -7.98000002 0.10000000 241 139 65 0.000000 0.000000 0.000000 0.000000 0.000000 0.000000 225.000000 -0.340594 0.708891 0.617632
-9.47000027 -8.03999996 0.13000000 241 139 65 0.000000 0.000000 0.000000 0.000000 0.000000 0.000000 225.000000 -0.356225 0.821693 0.444886
-9.47000027 -8.03999996 0.08000000 241 139 65 0.000000 0.000000 0.000000 0.000000 0.000000 0.000000 225.000000 -0.359598 0.468276 0.807098
-9.47000027 -8.03999996 0.08000000 241 139 65 0.000000 0.000000 0.000000 0.000000 0.000000 0.000000 225.000000 -0.359598 0.468276 0.807098
-9.46000004 -8.03999996 0.09000000 241 139 65 0.000000 0.000000 0.000000 0.000000 0.000000 0.000000 225.000000 -0.244841 0.793784 0.556740
-9.50000000 -8.02999973 0.13000000 241 139 65 0.000000 0.000000 0.000000 0.000000 0.000000 0.000000 225.000000 -0.333355 0.840431 0.427258
-9.52000046 -8.03999996 0.07000000 241 139 65 0.000000 0.000000 0.000000 0.000000 0.000000 0.000000 225.000000 -0.492697 0.570049 0.657490
-9.52000046 -8.03999996 0.10000000 241 139 65 0.000000 0.000000 0.000000 0.000000 0.000000 0.000000 225.000000 0.678043 -0.681234 -0.276003
-9.48999977 -8.03999996 0.07000000 241 139 65 0.000000 0.000000 0.000000 0.000000 0.000000 0.000000 225.000000 0.565377 -0.789659 -0.238300
