//X Y Z R G B PointSourceId ScanDirectionFlag NumberOfReturns ReturnNumber GpsTime Intensity Classification Nx Ny Nz
-8.00000000 8.76000023 -0.07000000 79 61 185 0.000000 0.000000 0.000000 0.000000 0.000000 0.000000 202.000000 0.830485 0.393887 -0.393887
-7.98000002 8.69999981 -0.10000000 79 61 185 0.000000 0.000000 0.000000 0.000000 0.000000 0.000000 202.000000 0.883975 0.387394 -0.261752
-8.03999996 8.57999992 -0.15000001 79 61 185 0.000000 0.000000 0.000000 0.000000 0.000000 0.000000 202.000000 0.935305 0.040214 -0.351550
-8.25000000 8.77000046 -0.18000001 79 61 185 0.000000 0.000000 0.000000 0.000000 0.000000 0.000000 201.000000 0.730716 0.335384 -0.594618
-8.25000000 8.71000004 -0.14000000 79 61 185 0.000000 0.000000 0.000000 0.000000 0.000000 0.000000 201.000000 0.685075 0.544375 -0.484075
-8.31000042 8.77000046 -0.18000001 79 61 185 0.000000 0.000000 0.000000 0.000000 0.000000 0.000000 201.000000 0.676893 0.373856 -0.634072
-8.28999996 8.68000031 -0.16000000 79 61 185 0.000000 0.000000 0.000000 0.000000 0.000000 0.000000 201.000000 -0.412461 -0.396536 0.820144
-8.26000023 8.47999954 0.06000000 79 61 185 0.000000 0.000000 0.000000 0.000000 0.000000 0.000000 189.000000 0.935626 0.230760 -0.267122
-8.30000019 8.46000004 -0.06000000 79 61 185 0.000000 0.000000 0.000000 0.000000 0.000000 0.000000 189.000000 0.877525 0.244507 -0.412512
-8.28999996 8.47999954 -0.05000000 79 61 185 0.000000 0.000000 0.000000 0.000000 0.000000 0.000000 189.000000 -0.541155 -0.344077 0.767309
-8.05000019 8.43000031 -0.05000000 79 61 185 0.000000 0.000000 0.000000 0.000000 0.000000 0.000000 189.000000 0.643958 0.502724 -0.576704
-8.14999962 8.39999962 -0.05000000 79 61 185 0.000000 0.000000 0.000000 0.000000 0.000000 0.000000 189.000000 0.624750 0.490033 -0.607910
-8.14999962 8.40999985 -0.05000000 79 61 185 0.000000 0.000000 0.000000 0.000000 0.000000 0.000000 189.000000 0.566432 0.546142 -0.617158
-8.14999962 8.40999985 -0.05000000 79 61 185 0.000000 0.000000 0.000000 0.000000 0.000000 0.000000 189.000000 0.566432 0.546142 -0.617158
-8.14999962 8.40999985 -0.05000000 79 61 185 0.000000 0.000000 0.000000 0.000000 0.000000 0.000000 189.000000 0.566432 0.546142 -0.617158
-8.19999981 8.34000015 0.01000000 79 61 185 0.000000 0.000000 0.000000 0.000000 0.000000 0.000000 189.000000 -0.792256 -0.091582 0.603277
-8.31999969 8.40999985 0.01000000 79 61 185 0.000000 0.000000 0.000000 0.000000 0.000000 0.000000 189.000000 -0.714963 0.169213 0.678376
-8.30000019 8.36999989 0.02000000 79 61 185 0.000000 0.000000 0.000000 0.000000 0.000000 0.000000 189.000000 -0.472541 -0.330305 0.817070
-8.18000031 8.39000034 -0.06000000 79 61 185 0.000000 0.000000 0.000000 0.000000 0.000000 0.000000 189.000000 -0.468073 -0.308396 0.828130
-8.15999985 8.38000011 -0.08000000 79 61 185 0.000000 0.000000 0.000000 0.000000 0.000000 0.000000 189.000000 0.617726 0.285718 -0.732652
-8.31000042 8.18000031 0.02000000 79 61 185 0.000000 0.000000 0.000000 0.000000 0.000000 0.000000 189.000000 -0.226399 -0.369541 0.901212
-8.27999973 8.11999989 0.03000000 79 61 185 0.000000 0.000000 0.000000 0.000000 0.000000 0.000000 189.000000 -0.422288 -0.075164 0.903340
-8.22000027 8.01000023 0.01000000 79 61 185 0.000000 0.000000 0.000000 0.000000 0.000000 0.000000 189.000000 0.601785 -0.178250 -0.778512
-8.15999985 7.94999981 0.00000000 79 61 185 0.000000 0.000000 0.000000 0.000000 0.000000 0.000000 189.000000 -0.511649 0.161652 0.843851
-8.23999977 8.03999996 0.03000000 79 61 185 0.000000 0.000000 0.000000 0.000000 0.000000 0.000000 189.000000 -0.264350 -0.233579 0.935714
-8.28999996 8.05000019 0.04000000 79 61 185 0.000000 0.000000 0.000000 0.000000 0.000000 0.000000 189.000000 -0.485959 -0.203110 0.850053
-8.27000046 8.06000042 0.02000000 79 61 185 0.000000 0.000000 0.000000 0.000000 0.000000 0.000000 189.000000 -0.252341 -0.260800 0.931830
-8.31999969 8.00000000 0.01000000 79 61 185 0.000000 0.000000 0.000000 0.000000 0.000000 0.000000 189.000000 0.106311 -0.023016 0.994066
-8.31000042 8.01000023 0.01000000 79 61 185 0.000000 0.000000 0.000000 0.000000 0.000000 0.000000 189.000000 -0.139023 -0.440002 0.887170
-8.27999973 7.96999979 0.04000000 79 61 185 0.000000 0.000000 0.000000 0.000000 0.000000 0.000000 189.000000 0.025471 -0.019358 0.999488
-8.27999973 7.98000002 0.04000000 79 61 185 0.000000 0.000000 0.000000 0.000000 0.000000 0.000000 189.000000 -0.037613 0.005083 0.999279
-8.30000019 7.98999977 0.05000000 79 61 185 0.000000 0.000000 0.000000 0.000000 0.000000 0.000000 189.000000 0.149003 -0.028436 0.988428
-8.23999977 7.90999985 0.03000000 79 61 185 0.000000 0.000000 0.000000 0.000000 0.000000 0.000000 189.000000 -0.047955 0.101487 0.993680
-8.47999954 8.97000027 -0.11000000 79 61 185 0.000000 0.000000 0.000000 0.000000 0.000000 0.000000 189.000000 0.763545 0.379330 -0.522597
-8.35000038 8.85000038 -0.17000000 79 61 185 0.000000 0.000000 0.000000 0.000000 0.000000 0.000000 201.000000 0.530484 0.533852 -0.658474
-8.32999992 8.81000042 -0.15000001 79 61 185 0.000000 0.000000 0.000000 0.000000 0.000000 0.000000 201.000000 0.880439 -0.053568 -0.471124
-8.44999981 8.89999962 -0.12000000 79 61 185 0.000000 0.000000 0.000000 0.000000 0.000000 0.000000 189.000000 -0.338886 -0.478895 0.809825
-8.50000000 8.92000008 -0.07000000 79 61 185 0.000000 0.000000 0.000000 0.000000 0.000000 0.000000 189.000000 -0.499979 -0.395749 0.770327
-8.50000000 8.92000008 -0.09000000 79 61 185 0.000000 0.000000 0.000000 0.000000 0.000000 0.000000 189.000000 -0.468752 -0.159171 0.868871
-8.52000046 8.93000031 -0.12000000 79 61 185 0.000000 0.000000 0.000000 0.000000 0.000000 0.000000 189.000000 0.613033 0.518461 -0.596145
-8.52000046 8.93999958 -0.11000000 79 61 185 0.000000 0.000000 0.000000 0.000000 0.000000 0.000000 189.000000 -0.497213 -0.193778 0.845712
-8.53999996 8.78999996 -0.06000000 79 61 185 0.000000 0.000000 0.000000 0.000000 0.000000 0.000000 189.000000 -0.165958 0.111868 0.979767
-8.53999996 8.80000019 -0.09000000 79 61 185 0.000000 0.000000 0.000000 0.000000 0.000000 0.000000 189.000000 -0.245940 -0.160858 0.955844
-8.55000019 8.85000038 -0.10000000 79 61 185 0.000000 0.000000 0.000000 0.000000 0.000000 0.000000 189.000000 -0.119744 -0.136677 0.983352
-8.56999969 8.78999996 -0.11000000 79 61 185 0.000000 0.000000 0.000000 0.000000 0.000000 0.000000 189.000000 -0.346216 0.163997 0.923710
-8.60999966 8.80000019 -0.09000000 79 61 185 0.000000 0.000000 0.000000 0.000000 0.000000 0.000000 189.000000 -0.043315 -0.169747 0.984535
-8.63000011 8.80000019 -0.09000000 79 61 185 0.000000 0.000000 0.000000 0.000000 0.000000 0.000000 189.000000 -0.271567 0.218646 0.937254
-8.59000015 8.85000038 -0.11000000 79 61 185 0.000000 0.000000 0.000000 0.000000 0.000000 0.000000 189.000000 0.003109 -0.061152 0.998124
-8.40999985 8.75000000 -0.02000000 79 61 185 0.000000 0.000000 0.000000 0.000000 0.000000 0.000000 189.000000 0.572776 0.589673 -0.569397
-8.43000031 8.76000023 -0.04000000 79 61 185 0.000000 0.000000 0.000000 0.000000 0.000000 0.000000 189.000000 0.697046 0.434198 -0.570613
-8.40999985 8.75000000 -0.03000000 79 61 185 0.000000 0.000000 0.000000 0.000000 0.000000 0.000000 189.000000 0.668658 0.431876 -0.605293
-8.42000008 8.72000027 -0.05000000 79 61 185 0.000000 0.000000 0.000000 0.000000 0.000000 0.000000 189.000000 -0.684215 -0.079898 0.724890
-8.46000004 8.72999954 -0.05000000 79 61 185 0.000000 0.000000 0.000000 0.000000 0.000000 0.000000 189.000000 -0.304461 -0.096215 0.947653
-8.43000031 8.64999962 -0.04000000 79 61 185 0.000000 0.000000 0.000000 0.000000 0.000000 0.000000 189.000000 0.735305 0.156158 -0.659501
-8.42000008 8.63000011 -0.03000000 79 61 185 0.000000 0.000000 0.000000 0.000000 0.000000 0.000000 189.000000 0.794505 0.094411 -0.599873
-8.43999958 8.65999985 -0.08000000 79 61 185 0.000000 0.000000 0.000000 0.000000 0.000000 0.000000 189.000000 0.769969 0.343823 -0.537526
-8.47999954 8.61999989 -0.06000000 79 61 185 0.000000 0.000000 0.000000 0.000000 0.000000 0.000000 189.000000 -0.423643 -0.404459 0.810518
-8.47000027 8.65999985 -0.06000000 79 61 185 0.000000 0.000000 0.000000 0.000000 0.000000 0.000000 189.000000 -0.191738 -0.079382 0.978231
-8.39999962 8.60999966 -0.01000000 79 61 185 0.000000 0.000000 0.000000 0.000000 0.000000 0.000000 189.000000 0.726811 0.357689 -0.586349
-8.35000038 8.60999966 -0.02000000 79 61 185 0.000000 0.000000 0.000000 0.000000 0.000000 0.000000 189.000000 -0.509129 -0.211250 0.834363
-8.39999962 8.57999992 -0.01000000 79 61 185 0.000000 0.000000 0.000000 0.000000 0.000000 0.000000 189.000000 0.843089 0.266644 -0.467013
-8.39999962 8.51000023 0.00000000 79 61 185 0.000000 0.000000 0.000000 0.000000 0.000000 0.000000 189.000000 0.655745 0.182749 -0.732531
-8.44999981 8.52999973 -0.02000000 79 61 185 0.000000 0.000000 0.000000 0.000000 0.000000 0.000000 189.000000 -0.365307 -0.497269 0.786940
-8.35000038 8.59000015 -0.10000000 79 61 185 0.000000 0.000000 0.000000 0.000000 0.000000 0.000000 189.000000 0.762216 0.044001 -0.645826
-8.35999966 8.47999954 -0.04000000 79 61 185 0.000000 0.000000 0.000000 0.000000 0.000000 0.000000 189.000000 -0.369124 -0.378468 0.848828
-8.47999954 8.53999996 -0.04000000 79 61 185 0.000000 0.000000 0.000000 0.000000 0.000000 0.000000 189.000000 -0.014566 0.144543 0.989391
-8.47000027 8.51000023 -0.04000000 79 61 185 0.000000 0.000000 0.000000 0.000000 0.000000 0.000000 189.000000 -0.465791 0.022820 0.884600
-8.46000004 8.46000004 -0.08000000 79 61 185 0.000000 0.000000 0.000000 0.000000 0.000000 0.000000 189.000000 -0.350699 0.040117 0.935629
-8.51000023 8.77000046 -0.07000000 79 61 185 0.000000 0.000000 0.000000 0.000000 0.000000 0.000000 189.000000 -0.581197 -0.305809 0.754116
-8.56000042 8.76000023 -0.09000000 79 61 185 0.000000 0.000000 0.000000 0.000000 0.000000 0.000000 189.000000 -0.110385 0.258431 0.959702
-8.56000042 8.77999973 -0.07000000 79 61 185 0.000000 0.000000 0.000000 0.000000 0.000000 0.000000 189.000000 -0.222949 0.052387 0.973422
-8.56000042 8.76000023 -0.08000000 79 61 185 0.000000 0.000000 0.000000 0.000000 0.000000 0.000000 189.000000 -0.234705 -0.145543 0.961109
-8.56000042 8.77999973 -0.07000000 79 61 185 0.000000 0.000000 0.000000 0.000000 0.000000 0.000000 189.000000 -0.222949 0.052387 0.973422
-8.56000042 8.61999989 -0.06000000 79 61 185 0.000000 0.000000 0.000000 0.000000 0.000000 0.000000 189.000000 -0.016499 0.346482 0.937912
-8.55000019 8.69999981 -0.07000000 79 61 185 0.000000 0.000000 0.000000 0.000000 0.000000 0.000000 189.000000 0.114261 -0.050908 0.992146
-8.59000015 8.77999973 -0.09000000 79 61 185 0.000000 0.000000 0.000000 0.000000 0.000000 0.000000 189.000000 -0.571538 -0.060983 0.818306
-8.60000038 8.73999977 -0.08000000 79 61 185 0.000000 0.000000 0.000000 0.000000 0.000000 0.000000 189.000000 -0.294404 0.168426 0.940723
-8.63000011 8.72000027 -0.08000000 79 61 185 0.000000 0.000000 0.000000 0.000000 0.000000 0.000000 189.000000 -0.239586 0.311318 0.919608
-8.63000011 8.76000023 -0.09000000 79 61 185 0.000000 0.000000 0.000000 0.000000 0.000000 0.000000 189.000000 -0.154545 -0.108303 0.982032
-8.60000038 8.76000023 -0.09000000 79 61 185 0.000000 0.000000 0.000000 0.000000 0.000000 0.000000 189.000000 0.031392 0.005063 0.999494
-8.59000015 8.72000027 -0.07000000 79 61 185 0.000000 0.000000 0.000000 0.000000 0.000000 0.000000 189.000000 -0.106090 -0.018593 0.994183
-8.64999962 8.63000011 -0.07000000 79 61 185 0.000000 0.000000 0.000000 0.000000 0.000000 0.000000 189.000000 -0.041217 0.410845 0.910773
-8.64999962 8.61999989 -0.06000000 79 61 185 0.000000 0.000000 0.000000 0.000000 0.000000 0.000000 189.000000 0.129583 0.437166 0.889997
-8.61999989 8.61999989 -0.06000000 79 61 185 0.000000 0.000000 0.000000 0.000000 0.000000 0.000000 189.000000 0.032743 0.051755 0.998123
-8.60999966 8.69999981 -0.09000000 79 61 185 0.000000 0.000000 0.000000 0.000000 0.000000 0.000000 189.000000 -0.342572 0.240529 0.908180
-8.65999985 8.61999989 -0.05000000 79 61 185 0.000000 0.000000 0.000000 0.000000 0.000000 0.000000 189.000000 0.042613 0.023905 0.998806
-8.61999989 8.61999989 -0.07000000 79 61 185 0.000000 0.000000 0.000000 0.000000 0.000000 0.000000 189.000000 0.130759 -0.063644 0.989369
-8.64000034 8.65999985 -0.06000000 79 61 185 0.000000 0.000000 0.000000 0.000000 0.000000 0.000000 189.000000 0.029091 -0.076499 0.996645
-8.63000011 8.64999962 -0.07000000 79 61 185 0.000000 0.000000 0.000000 0.000000 0.000000 0.000000 189.000000 -0.093974 -0.136797 0.986131
-8.60000038 8.69999981 -0.09000000 79 61 185 0.000000 0.000000 0.000000 0.000000 0.000000 0.000000 189.000000 -0.024772 -0.082931 0.996247
-8.51000023 8.60000038 -0.03000000 79 61 185 0.000000 0.000000 0.000000 0.000000 0.000000 0.000000 189.000000 -0.649267 -0.038192 0.759601
-8.52999973 8.60999966 -0.06000000 79 61 185 0.000000 0.000000 0.000000 0.000000 0.000000 0.000000 189.000000 -0.155284 0.074678 0.985043
-8.51000023 8.56999969 -0.06000000 79 61 185 0.000000 0.000000 0.000000 0.000000 0.000000 0.000000 189.000000 -0.425670 0.188699 0.884984
-8.51000023 8.56999969 -0.06000000 79 61 185 0.000000 0.000000 0.000000 0.000000 0.000000 0.000000 189.000000 -0.425670 0.188699 0.884984
-8.53999996 8.59000015 -0.05000000 79 61 185 0.000000 0.000000 0.000000 0.000000 0.000000 0.000000 189.000000 -0.328775 -0.159532 0.930836
-8.56000042 8.59000015 -0.06000000 79 61 185 0.000000 0.000000 0.000000 0.000000 0.000000 0.000000 189.000000 -0.134864 -0.125144 0.982930
-8.56999969 8.59000015 -0.06000000 79 61 185 0.000000 0.000000 0.000000 0.000000 0.000000 0.000000 189.000000 -0.019552 -0.033959 0.999232
-8.56000042 8.60999966 -0.08000000 79 61 185 0.000000 0.000000 0.000000 0.000000 0.000000 0.000000 189.000000 -0.008090 0.192997 0.981166
-8.52999973 8.52999973 -0.06000000 79 61 185 0.000000 0.000000 0.000000 0.000000 0.000000 0.000000 189.000000 0.032943 -0.056323 0.997869
-8.52999973 8.47999954 -0.04000000 79 61 185 0.000000 0.000000 0.000000 0.000000 0.000000 0.000000 189.000000 -0.112582 0.084727 0.990024
-8.59000015 8.56999969 -0.08000000 79 61 185 0.000000 0.000000 0.000000 0.000000 0.000000 0.000000 189.000000 -0.263618 0.051224 0.963266
-8.59000015 8.53999996 -0.06000000 79 61 185 0.000000 0.000000 0.000000 0.000000 0.000000 0.000000 189.000000 0.035442 0.389866 0.920189
-8.65999985 8.60000038 -0.07000000 79 61 185 0.000000 0.000000 0.000000 0.000000 0.000000 0.000000 189.000000 0.076097 0.292780 0.953147
-8.61999989 8.59000015 -0.07000000 79 61 185 0.000000 0.000000 0.000000 0.000000 0.000000 0.000000 189.000000 0.114308 0.321408 0.940016
-8.60999966 8.56999969 -0.05000000 79 61 185 0.000000 0.000000 0.000000 0.000000 0.000000 0.000000 189.000000 0.017289 0.456167 0.889726
-8.65999985 8.59000015 -0.06000000 79 61 185 0.000000 0.000000 0.000000 0.000000 0.000000 0.000000 189.000000 0.212938 0.104579 0.971453
-8.59000015 8.55000019 -0.07000000 79 61 185 0.000000 0.000000 0.000000 0.000000 0.000000 0.000000 189.000000 -0.191070 -0.029305 0.981139
-8.60999966 8.52999973 -0.05000000 79 61 185 0.000000 0.000000 0.000000 0.000000 0.000000 0.000000 189.000000 -0.003146 -0.072365 0.997373
-8.59000015 8.51000023 -0.03000000 79 61 185 0.000000 0.000000 0.000000 0.000000 0.000000 0.000000 189.000000 0.145387 0.347544 0.926324
-8.90999985 8.47999954 0.17000000 79 61 185 0.000000 0.000000 0.000000 0.000000 0.000000 0.000000 63.000000 0.967298 0.110876 -0.228124
-8.89000034 8.48999977 0.14000000 79 61 185 0.000000 0.000000 0.000000 0.000000 0.000000 0.000000 63.000000 0.985142 0.017203 -0.170880
-8.64000034 8.14000034 0.16000000 79 61 185 0.000000 0.000000 0.000000 0.000000 0.000000 0.000000 189.000000 0.752586 0.654360 -0.073670
-8.35999966 8.38000011 0.01000000 79 61 185 0.000000 0.000000 0.000000 0.000000 0.000000 0.000000 189.000000 -0.450353 -0.430843 0.782021
-8.36999989 8.40999985 0.00000000 79 61 185 0.000000 0.000000 0.000000 0.000000 0.000000 0.000000 189.000000 0.613132 0.485466 -0.623211
-8.39000034 8.39000034 0.01000000 79 61 185 0.000000 0.000000 0.000000 0.000000 0.000000 0.000000 189.000000 -0.229808 -0.280563 0.931919
-8.39000034 8.34000015 0.01000000 79 61 185 0.000000 0.000000 0.000000 0.000000 0.000000 0.000000 189.000000 0.398776 0.466584 -0.789479
-8.39999962 8.30000019 -0.02000000 79 61 185 0.000000 0.000000 0.000000 0.000000 0.000000 0.000000 189.000000 0.149035 -0.182153 0.971910
-8.35999966 8.28999996 0.04000000 79 61 185 0.000000 0.000000 0.000000 0.000000 0.000000 0.000000 189.000000 -0.675550 -0.018182 0.737090
-8.35999966 8.34000015 0.02000000 79 61 185 0.000000 0.000000 0.000000 0.000000 0.000000 0.000000 189.000000 -0.402752 -0.298618 0.865227
-8.46000004 8.35999966 0.03000000 79 61 185 0.000000 0.000000 0.000000 0.000000 0.000000 0.000000 189.000000 -0.123599 0.118799 0.985195
-8.47000027 8.36999989 0.00000000 79 61 185 0.000000 0.000000 0.000000 0.000000 0.000000 0.000000 189.000000 0.053226 0.333638 0.941197
-8.47999954 8.31000042 0.04000000 79 61 185 0.000000 0.000000 0.000000 0.000000 0.000000 0.000000 189.000000 0.476070 0.222166 0.850881
-8.43000031 8.28999996 -0.02000000 79 61 185 0.000000 0.000000 0.000000 0.000000 0.000000 0.000000 189.000000 0.111381 0.001081 0.993777
-8.40999985 8.31000042 0.00000000 79 61 185 0.000000 0.000000 0.000000 0.000000 0.000000 0.000000 189.000000 -0.269725 0.172136 0.947427
-8.43999958 8.28999996 0.03000000 79 61 185 0.000000 0.000000 0.000000 0.000000 0.000000 0.000000 189.000000 -0.251054 -0.074433 0.965107
-8.46000004 8.28999996 0.02000000 79 61 185 0.000000 0.000000 0.000000 0.000000 0.000000 0.000000 189.000000 -0.037385 -0.346778 0.937202
-8.38000011 8.18999958 0.09000000 79 61 185 0.000000 0.000000 0.000000 0.000000 0.000000 0.000000 189.000000 -0.337000 -0.103382 0.935812
-8.39999962 8.19999981 0.00000000 79 61 185 0.000000 0.000000 0.000000 0.000000 0.000000 0.000000 189.000000 -0.126972 0.392078 0.911127
-8.32999992 8.18999958 0.00000000 79 61 185 0.000000 0.000000 0.000000 0.000000 0.000000 0.000000 189.000000 -0.121955 0.129200 0.984091
-8.38000011 8.14999962 0.04000000 79 61 185 0.000000 0.000000 0.000000 0.000000 0.000000 0.000000 189.000000 0.121157 -0.183610 0.975504
-8.32999992 8.10999966 0.03000000 79 61 185 0.000000 0.000000 0.000000 0.000000 0.000000 0.000000 189.000000 -0.364630 -0.424612 0.828704
-8.39000034 8.14999962 0.04000000 79 61 185 0.000000 0.000000 0.000000 0.000000 0.000000 0.000000 189.000000 0.350983 0.070197 0.933747
-8.47000027 8.18999958 0.08000000 79 61 185 0.000000 0.000000 0.000000 0.000000 0.000000 0.000000 189.000000 0.272643 0.080641 0.958730
-8.44999981 8.21000004 0.07000000 79 61 185 0.000000 0.000000 0.000000 0.000000 0.000000 0.000000 189.000000 0.279449 0.223279 0.933839
-8.42000008 8.22000027 0.04000000 79 61 185 0.000000 0.000000 0.000000 0.000000 0.000000 0.000000 189.000000 0.054884 0.099686 0.993504
-8.43000031 8.22000027 0.06000000 79 61 185 0.000000 0.000000 0.000000 0.000000 0.000000 0.000000 189.000000 -0.275714 0.094493 0.956584
-8.48999977 8.23999977 0.05000000 79 61 185 0.000000 0.000000 0.000000 0.000000 0.000000 0.000000 189.000000 0.623239 0.351697 0.698486
-8.47999954 8.23999977 0.04000000 79 61 185 0.000000 0.000000 0.000000 0.000000 0.000000 0.000000 189.000000 0.375761 0.204565 0.903857
-8.46000004 8.23999977 0.05000000 79 61 185 0.000000 0.000000 0.000000 0.000000 0.000000 0.000000 189.000000 0.205067 0.471505 0.857689
-8.47999954 8.26000023 0.01000000 79 61 185 0.000000 0.000000 0.000000 0.000000 0.000000 0.000000 189.000000 0.382697 -0.268638 0.883955
-8.48999977 8.22999954 0.05000000 79 61 185 0.000000 0.000000 0.000000 0.000000 0.000000 0.000000 189.000000 0.435128 0.541015 0.719699
-8.47999954 8.18999958 0.00000000 79 61 185 0.000000 0.000000 0.000000 0.000000 0.000000 0.000000 189.000000 0.079115 0.005274 0.996852
-8.44999981 8.18000031 0.07000000 79 61 185 0.000000 0.000000 0.000000 0.000000 0.000000 0.000000 189.000000 0.224508 0.243791 0.943484
-8.40999985 8.15999985 0.04000000 79 61 185 0.000000 0.000000 0.000000 0.000000 0.000000 0.000000 189.000000 0.175256 0.332285 0.926753
-8.34000015 8.15999985 -0.03000000 79 61 185 0.000000 0.000000 0.000000 0.000000 0.000000 0.000000 189.000000 -0.609094 -0.145165 0.779700
-8.50000000 8.34000015 0.05000000 79 61 185 0.000000 0.000000 0.000000 0.000000 0.000000 0.000000 189.000000 0.022820 0.465791 0.884600
-8.52999973 8.22999954 0.11000000 79 61 185 0.000000 0.000000 0.000000 0.000000 0.000000 0.000000 189.000000 0.880129 0.250395 0.403330
-8.51000023 8.14999962 0.07000000 79 61 185 0.000000 0.000000 0.000000 0.000000 0.000000 0.000000 189.000000 0.580051 0.128408 0.804396
-8.50000000 8.15999985 0.10000000 79 61 185 0.000000 0.000000 0.000000 0.000000 0.000000 0.000000 189.000000 0.826844 0.527547 0.194996
-8.63000011 8.14999962 0.11000000 79 61 185 0.000000 0.000000 0.000000 0.000000 0.000000 0.000000 189.000000 0.838160 0.319968 0.441712
-8.65999985 8.17000008 0.13000000 79 61 185 0.000000 0.000000 0.000000 0.000000 0.000000 0.000000 189.000000 0.828262 0.493861 0.264734
-8.59000015 8.00000000 0.25999999 79 61 185 0.000000 0.000000 0.000000 0.000000 0.000000 0.000000 189.000000 0.591285 0.621608 -0.513795
-8.35000038 8.10000038 0.03000000 79 61 185 0.000000 0.000000 0.000000 0.000000 0.000000 0.000000 189.000000 0.010329 0.180189 0.983578
-8.57999992 8.07999992 0.10000000 79 61 185 0.000000 0.000000 0.000000 0.000000 0.000000 0.000000 189.000000 0.938708 0.105789 0.328079
-8.57999992 8.09000015 0.10000000 79 61 185 0.000000 0.000000 0.000000 0.000000 0.000000 0.000000 189.000000 0.997224 -0.001049 0.074451
-8.73999977 8.39999962 0.16000000 79 61 185 0.000000 0.000000 0.000000 0.000000 0.000000 0.000000 63.000000 0.897246 0.189886 -0.398615
-8.76000023 8.43000031 0.16000000 79 61 185 0.000000 0.000000 0.000000 0.000000 0.000000 0.000000 63.000000 0.962989 0.239775 0.123128
-8.76000023 8.30000019 0.15000001 79 61 185 0.000000 0.000000 0.000000 0.000000 0.000000 0.000000 63.000000 0.877254 0.477631 0.047900
-8.75000000 8.26000023 0.17000000 79 61 185 0.000000 0.000000 0.000000 0.000000 0.000000 0.000000 189.000000 0.832406 0.522323 0.185146
-8.72999954 8.21000004 0.18000001 79 61 185 0.000000 0.000000 0.000000 0.000000 0.000000 0.000000 189.000000 0.813708 0.460199 -0.355101
-8.81000042 8.18000031 0.25999999 79 61 185 0.000000 0.000000 0.000000 0.000000 0.000000 0.000000 189.000000 0.952613 0.286963 0.100896
-8.88000011 8.39999962 0.17000000 79 61 185 0.000000 0.000000 0.000000 0.000000 0.000000 0.000000 63.000000 0.745047 0.504921 -0.435844
-9.00000000 8.11999989 0.36000001 79 61 185 0.000000 0.000000 0.000000 0.000000 0.000000 0.000000 189.000000 0.797007 0.528708 -0.291973
-9.01000023 8.13000011 0.34000000 79 61 185 0.000000 0.000000 0.000000 0.000000 0.000000 0.000000 189.000000 0.938038 0.037418 -0.344506
-8.68999958 8.07999992 0.25000000 79 61 185 0.000000 0.000000 0.000000 0.000000 0.000000 0.000000 189.000000 0.708067 0.372926 -0.599639
-8.75000000 8.05000019 0.25000000 79 61 185 0.000000 0.000000 0.000000 0.000000 0.000000 0.000000 189.000000 0.793051 0.103695 -0.600265
-8.94999981 7.98999977 0.41999999 79 61 185 0.000000 0.000000 0.000000 0.000000 0.000000 0.000000 189.000000 0.840361 0.381697 -0.384838
-8.89999962 8.10000038 0.31000000 79 61 185 0.000000 0.000000 0.000000 0.000000 0.000000 0.000000 189.000000 0.942816 0.088596 -0.321324
-8.93000031 8.06000042 0.31000000 79 61 185 0.000000 0.000000 0.000000 0.000000 0.000000 0.000000 189.000000 0.743982 0.236508 -0.624944
-9.15999985 8.55000019 0.41999999 79 61 185 0.000000 0.000000 0.000000 0.000000 0.000000 0.000000 189.000000 0.902778 0.256888 -0.344964
-9.17000008 8.56999969 0.40000001 79 61 185 0.000000 0.000000 0.000000 0.000000 0.000000 0.000000 189.000000 0.812147 -0.015167 -0.583256
-9.02999973 8.44999981 0.16000000 79 61 185 0.000000 0.000000 0.000000 0.000000 0.000000 0.000000 63.000000 0.982175 -0.010363 -0.187684
-9.22999954 8.59000015 0.38000000 79 61 185 0.000000 0.000000 0.000000 0.000000 0.000000 0.000000 189.000000 0.889977 0.114244 -0.441462
-9.19999981 8.52000046 0.43000001 79 61 185 0.000000 0.000000 0.000000 0.000000 0.000000 0.000000 189.000000 0.648113 0.377654 -0.661307
-9.22000027 8.50000000 0.40000001 79 61 185 0.000000 0.000000 0.000000 0.000000 0.000000 0.000000 189.000000 0.838714 0.490395 -0.236795
-9.26000023 8.48999977 0.40000001 79 61 185 0.000000 0.000000 0.000000 0.000000 0.000000 0.000000 189.000000 0.921083 0.230629 -0.313713
-9.21000004 8.47000027 0.33000001 79 61 185 0.000000 0.000000 0.000000 0.000000 0.000000 0.000000 189.000000 0.753376 0.555716 -0.351575
-9.22000027 8.46000004 0.37000000 79 61 185 0.000000 0.000000 0.000000 0.000000 0.000000 0.000000 189.000000 0.629859 0.485411 -0.606344
-9.19999981 8.47000027 0.38000000 79 61 185 0.000000 0.000000 0.000000 0.000000 0.000000 0.000000 189.000000 0.737091 0.192352 -0.647840
-9.31000042 8.47000027 0.34000000 79 61 185 0.000000 0.000000 0.000000 0.000000 0.000000 0.000000 189.000000 0.894930 -0.055848 -0.442698
-9.14000034 8.35000038 0.43000001 79 61 185 0.000000 0.000000 0.000000 0.000000 0.000000 0.000000 189.000000 0.884947 0.448886 -0.123978
-9.13000011 8.34000015 0.36000001 79 61 185 0.000000 0.000000 0.000000 0.000000 0.000000 0.000000 189.000000 0.983905 0.077520 -0.161003
-9.03999996 8.23999977 0.34999999 79 61 185 0.000000 0.000000 0.000000 0.000000 0.000000 0.000000 189.000000 0.755243 0.270748 -0.596911
-9.02000046 8.21000004 0.34999999 79 61 185 0.000000 0.000000 0.000000 0.000000 0.000000 0.000000 189.000000 0.863827 0.444728 -0.236686
-9.05000019 8.14999962 0.43000001 79 61 185 0.000000 0.000000 0.000000 0.000000 0.000000 0.000000 189.000000 0.933603 0.234454 -0.270955
-9.07999992 8.17000008 0.34000000 79 61 185 0.000000 0.000000 0.000000 0.000000 0.000000 0.000000 189.000000 0.790494 0.467183 -0.396055
-9.15999985 8.23999977 0.46000001 79 61 185 0.000000 0.000000 0.000000 0.000000 0.000000 0.000000 189.000000 0.643612 0.616865 -0.453036
-9.18000031 8.27000046 0.43000001 79 61 185 0.000000 0.000000 0.000000 0.000000 0.000000 0.000000 189.000000 0.862189 0.443975 -0.243959
-9.14999962 8.18000031 0.47000000 79 61 185 0.000000 0.000000 0.000000 0.000000 0.000000 0.000000 189.000000 0.766011 0.325996 -0.554033
-9.19999981 8.43000031 0.38999999 79 61 185 0.000000 0.000000 0.000000 0.000000 0.000000 0.000000 189.000000 0.740651 0.470124 -0.480021
-9.23999977 8.42000008 0.34000000 79 61 185 0.000000 0.000000 0.000000 0.000000 0.000000 0.000000 189.000000 0.968431 0.124092 -0.216202
-9.18999958 8.35999966 0.38999999 79 61 185 0.000000 0.000000 0.000000 0.000000 0.000000 0.000000 189.000000 0.663219 0.334054 -0.669737
-9.21000004 8.30000019 0.44999999 79 61 185 0.000000 0.000000 0.000000 0.000000 0.000000 0.000000 189.000000 0.955123 -0.081205 -0.284861
-9.26000023 8.31999969 0.41999999 79 61 185 0.000000 0.000000 0.000000 0.000000 0.000000 0.000000 189.000000 0.886813 0.141833 -0.439825
-9.22999954 8.27999973 0.44000000 79 61 185 0.000000 0.000000 0.000000 0.000000 0.000000 0.000000 189.000000 0.668370 0.687603 -0.283696
-9.32999992 8.31999969 0.38999999 79 61 185 0.000000 0.000000 0.000000 0.000000 0.000000 0.000000 189.000000 0.990221 0.136621 -0.028228
-9.27000046 8.22999954 0.44999999 79 61 185 0.000000 0.000000 0.000000 0.000000 0.000000 0.000000 189.000000 0.842504 0.538606 -0.009497
-9.03999996 8.05000019 0.41999999 79 61 185 0.000000 0.000000 0.000000 0.000000 0.000000 0.000000 189.000000 0.965756 0.259223 0.010851
-9.06999969 8.03999996 0.43000001 79 61 185 0.000000 0.000000 0.000000 0.000000 0.000000 0.000000 189.000000 0.922372 0.320763 -0.215268
-9.02999973 8.10000038 0.38999999 79 61 185 0.000000 0.000000 0.000000 0.000000 0.000000 0.000000 189.000000 0.756213 0.208771 -0.620126
-8.17000008 8.80000019 -0.22000000 79 61 185 0.000000 0.000000 0.000000 0.000000 0.000000 0.000000 201.000000 0.738994 0.562810 -0.370313
-7.92000008 7.94000006 -0.25000000 79 61 185 0.000000 0.000000 0.000000 0.000000 0.000000 0.000000 220.000000 -0.480458 -0.131296 0.867134
-7.96999979 7.96000004 -0.25000000 79 61 185 0.000000 0.000000 0.000000 0.000000 0.000000 0.000000 220.000000 -0.463338 -0.172097 0.869310
-7.84000015 7.88999987 -0.25999999 79 61 185 0.000000 0.000000 0.000000 0.000000 0.000000 0.000000 220.000000 -0.512514 0.054168 0.856968
-7.86000013 7.90000010 -0.23999999 79 61 185 0.000000 0.000000 0.000000 0.000000 0.000000 0.000000 220.000000 -0.564946 -0.224431 0.794020
-8.25000000 8.10999966 -0.22000000 79 61 185 0.000000 0.000000 0.000000 0.000000 0.000000 0.000000 200.000000 -0.076217 0.060753 0.995239
-8.30000019 8.11999989 -0.25000000 79 61 185 0.000000 0.000000 0.000000 0.000000 0.000000 0.000000 200.000000 0.100667 0.195120 0.975599
-8.00000000 7.98999977 -0.23999999 79 61 185 0.000000 0.000000 0.000000 0.000000 0.000000 0.000000 220.000000 0.612195 0.432039 -0.662238
-8.00000000 7.92999983 -0.28000000 79 61 185 0.000000 0.000000 0.000000 0.000000 0.000000 0.000000 220.000000 -0.396630 0.065881 0.915611
-7.98000002 7.96000004 -0.25999999 79 61 185 0.000000 0.000000 0.000000 0.000000 0.000000 0.000000 220.000000 -0.368995 -0.461643 0.806677
-7.98999977 7.98000002 -0.25000000 79 61 185 0.000000 0.000000 0.000000 0.000000 0.000000 0.000000 220.000000 -0.250482 -0.135077 0.958652
-8.18999958 8.06000042 -0.23000000 79 61 185 0.000000 0.000000 0.000000 0.000000 0.000000 0.000000 200.000000 -0.074197 0.029034 0.996821
-8.19999981 8.02999973 -0.23999999 79 61 185 0.000000 0.000000 0.000000 0.000000 0.000000 0.000000 200.000000 -0.250580 -0.061087 0.966167
-8.22999954 8.06000042 -0.23999999 79 61 185 0.000000 0.000000 0.000000 0.000000 0.000000 0.000000 200.000000 -0.364132 -0.443636 0.818899
-8.22000027 8.06999969 -0.23000000 79 61 185 0.000000 0.000000 0.000000 0.000000 0.000000 0.000000 200.000000 -0.238907 -0.425225 0.872988
-8.22000027 7.94000006 -0.23999999 79 61 185 0.000000 0.000000 0.000000 0.000000 0.000000 0.000000 200.000000 -0.077976 0.084756 0.993346
-8.18999958 7.94999981 -0.22000000 79 61 185 0.000000 0.000000 0.000000 0.000000 0.000000 0.000000 200.000000 -0.076938 -0.147959 0.985996
-8.22999954 7.96000004 -0.25999999 79 61 185 0.000000 0.000000 0.000000 0.000000 0.000000 0.000000 200.000000 -0.320882 -0.168081 0.932086
-8.19999981 8.01000023 -0.23999999 79 61 185 0.000000 0.000000 0.000000 0.000000 0.000000 0.000000 200.000000 -0.157314 -0.267569 0.950610
-8.25000000 8.09000015 -0.22000000 79 61 185 0.000000 0.000000 0.000000 0.000000 0.000000 0.000000 200.000000 -0.396699 -0.063203 0.915770
-8.27000046 8.02000046 -0.25999999 79 61 185 0.000000 0.000000 0.000000 0.000000 0.000000 0.000000 200.000000 0.040115 0.234610 0.971262
-8.23999977 8.06000042 -0.27000001 79 61 185 0.000000 0.000000 0.000000 0.000000 0.000000 0.000000 200.000000 0.171192 -0.109612 0.979121
-8.23999977 7.94000006 -0.25000000 79 61 185 0.000000 0.000000 0.000000 0.000000 0.000000 0.000000 200.000000 -0.294392 -0.215512 0.931068
-8.26000023 7.98000002 -0.25000000 79 61 185 0.000000 0.000000 0.000000 0.000000 0.000000 0.000000 200.000000 -0.391998 -0.262834 0.881621
-8.26000023 8.00000000 -0.23999999 79 61 185 0.000000 0.000000 0.000000 0.000000 0.000000 0.000000 200.000000 -0.260814 0.171624 0.950011
-8.23999977 7.92999983 -0.25000000 79 61 185 0.000000 0.000000 0.000000 0.000000 0.000000 0.000000 200.000000 -0.196825 0.366354 0.909420
-8.28999996 7.96999979 -0.23999999 79 61 185 0.000000 0.000000 0.000000 0.000000 0.000000 0.000000 200.000000 0.270820 -0.085995 0.958781
-8.27000046 7.90999985 -0.25999999 79 61 185 0.000000 0.000000 0.000000 0.000000 0.000000 0.000000 200.000000 0.324423 0.091368 0.941489
-8.35999966 8.76000023 -0.20000000 79 61 185 0.000000 0.000000 0.000000 0.000000 0.000000 0.000000 201.000000 -0.487952 -0.189510 0.852050
-8.32999992 7.92999983 -0.25999999 79 61 185 0.000000 0.000000 0.000000 0.000000 0.000000 0.000000 200.000000 0.001051 -0.076696 0.997054
-8.39000034 8.76000023 -0.20000000 79 61 185 0.000000 0.000000 0.000000 0.000000 0.000000 0.000000 201.000000 -0.315709 -0.376716 0.870869
-8.35999966 8.77000046 -0.20000000 79 61 185 0.000000 0.000000 0.000000 0.000000 0.000000 0.000000 201.000000 -0.436898 -0.263357 0.860095
-7.90000010 8.71000004 -0.10000000 79 61 185 0.000000 0.000000 0.000000 0.000000 0.000000 0.000000 202.000000 0.993150 0.025465 -0.114041
-7.96000004 8.68000031 -0.10000000 79 61 185 0.000000 0.000000 0.000000 0.000000 0.000000 0.000000 202.000000 -0.679943 -0.143225 0.719141
-7.82000017 8.60000038 -0.14000000 79 61 185 0.000000 0.000000 0.000000 0.000000 0.000000 0.000000 202.000000 0.862245 0.436445 -0.257001
-7.90999985 8.50000000 -0.10000000 79 61 185 0.000000 0.000000 0.000000 0.000000 0.000000 0.000000 202.000000 0.951813 0.261782 -0.159754
-7.92000008 8.52000046 -0.11000000 79 61 185 0.000000 0.000000 0.000000 0.000000 0.000000 0.000000 202.000000 0.865610 0.498382 -0.048320
-8.00000000 8.60000038 -0.15000001 79 61 185 0.000000 0.000000 0.000000 0.000000 0.000000 0.000000 202.000000 0.650488 0.456512 -0.607011
-8.17000008 8.77999973 -0.18000001 79 61 185 0.000000 0.000000 0.000000 0.000000 0.000000 0.000000 201.000000 0.909856 0.363655 -0.199795
-8.26000023 8.76000023 -0.15000001 79 61 185 0.000000 0.000000 0.000000 0.000000 0.000000 0.000000 201.000000 0.758479 0.414461 -0.502923
-8.25000000 8.67000008 -0.13000000 79 61 185 0.000000 0.000000 0.000000 0.000000 0.000000 0.000000 201.000000 0.710331 -0.107805 -0.695563
-8.27999973 8.50000000 -0.07000000 79 61 185 0.000000 0.000000 0.000000 0.000000 0.000000 0.000000 189.000000 0.581672 0.412639 -0.700990
-8.06000042 8.42000008 -0.08000000 79 61 185 0.000000 0.000000 0.000000 0.000000 0.000000 0.000000 189.000000 0.806249 0.116018 -0.580088
-8.10000038 8.39000034 -0.12000000 79 61 185 0.000000 0.000000 0.000000 0.000000 0.000000 0.000000 189.000000 0.912930 0.337104 -0.230041
-8.31999969 8.35999966 0.00000000 79 61 185 0.000000 0.000000 0.000000 0.000000 0.000000 0.000000 189.000000 0.663138 -0.139846 -0.735317
-8.31000042 8.43000031 0.03000000 79 61 185 0.000000 0.000000 0.000000 0.000000 0.000000 0.000000 189.000000 -0.463556 -0.447176 0.764950
-8.28999996 8.38000011 -0.06000000 79 61 185 0.000000 0.000000 0.000000 0.000000 0.000000 0.000000 189.000000 -0.613768 0.178191 0.769114
-8.27000046 8.30000019 -0.04000000 79 61 185 0.000000 0.000000 0.000000 0.000000 0.000000 0.000000 189.000000 -0.356308 -0.228328 0.906041
-8.30000019 8.02000046 0.03000000 79 61 185 0.000000 0.000000 0.000000 0.000000 0.000000 0.000000 189.000000 -0.599228 0.097684 0.794597
-8.21000004 7.98999977 0.02000000 79 61 185 0.000000 0.000000 0.000000 0.000000 0.000000 0.000000 189.000000 0.499481 0.519527 -0.693260
-8.31000042 8.00000000 0.01000000 79 61 185 0.000000 0.000000 0.000000 0.000000 0.000000 0.000000 189.000000 -0.143287 0.131041 0.980967
-8.27000046 8.06000042 0.04000000 79 61 185 0.000000 0.000000 0.000000 0.000000 0.000000 0.000000 189.000000 -0.292617 0.006122 0.956210
-8.27999973 8.09000015 0.03000000 79 61 185 0.000000 0.000000 0.000000 0.000000 0.000000 0.000000 189.000000 -0.425780 -0.160209 0.890530
-8.22000027 7.96000004 0.00000000 79 61 185 0.000000 0.000000 0.000000 0.000000 0.000000 0.000000 189.000000 -0.170603 -0.444735 0.879264
-8.22999954 7.92000008 -0.01000000 79 61 185 0.000000 0.000000 0.000000 0.000000 0.000000 0.000000 189.000000 -0.331711 -0.451189 0.828490
-8.43999958 8.80000019 -0.05000000 79 61 185 0.000000 0.000000 0.000000 0.000000 0.000000 0.000000 189.000000 -0.526831 -0.411946 0.743472
-8.52000046 8.93000031 -0.11000000 79 61 185 0.000000 0.000000 0.000000 0.000000 0.000000 0.000000 189.000000 -0.394620 0.080009 0.915355
-8.51000023 8.86999989 -0.09000000 79 61 185 0.000000 0.000000 0.000000 0.000000 0.000000 0.000000 189.000000 0.693599 0.402254 -0.597588
-8.51000023 8.85000038 -0.07000000 79 61 185 0.000000 0.000000 0.000000 0.000000 0.000000 0.000000 189.000000 -0.356121 0.037555 0.933685
-8.60000038 8.81000042 -0.08000000 79 61 185 0.000000 0.000000 0.000000 0.000000 0.000000 0.000000 189.000000 -0.551471 -0.075524 0.830768
-8.48999977 8.61999989 -0.06000000 79 61 185 0.000000 0.000000 0.000000 0.000000 0.000000 0.000000 189.000000 -0.483977 -0.082767 0.871158
-8.43000031 8.64000034 -0.05000000 79 61 185 0.000000 0.000000 0.000000 0.000000 0.000000 0.000000 189.000000 -0.303690 -0.044473 0.951732
-8.48999977 8.68000031 -0.06000000 79 61 185 0.000000 0.000000 0.000000 0.000000 0.000000 0.000000 189.000000 -0.642769 0.043986 0.764796
-8.42000008 8.64999962 -0.03000000 79 61 185 0.000000 0.000000 0.000000 0.000000 0.000000 0.000000 189.000000 -0.416132 0.011740 0.909229
-8.40999985 8.44999981 -0.02000000 79 61 185 0.000000 0.000000 0.000000 0.000000 0.000000 0.000000 189.000000 -0.330442 -0.285988 0.899455
-8.35000038 8.56999969 0.00000000 79 61 185 0.000000 0.000000 0.000000 0.000000 0.000000 0.000000 189.000000 -0.544910 -0.203006 0.813549
-8.43999958 8.47000027 -0.02000000 79 61 185 0.000000 0.000000 0.000000 0.000000 0.000000 0.000000 189.000000 -0.063750 -0.135614 0.988709
-8.38000011 8.52999973 -0.07000000 79 61 185 0.000000 0.000000 0.000000 0.000000 0.000000 0.000000 189.000000 -0.318428 -0.300656 0.899005
-8.40999985 8.55000019 -0.03000000 79 61 185 0.000000 0.000000 0.000000 0.000000 0.000000 0.000000 189.000000 0.686918 0.398909 -0.607467
-8.47999954 8.52000046 -0.04000000 79 61 185 0.000000 0.000000 0.000000 0.000000 0.000000 0.000000 189.000000 -0.091112 -0.260503 0.961164
-8.42000008 8.47000027 -0.06000000 79 61 185 0.000000 0.000000 0.000000 0.000000 0.000000 0.000000 189.000000 -0.199127 -0.265045 0.943451
-8.53999996 8.75000000 -0.09000000 79 61 185 0.000000 0.000000 0.000000 0.000000 0.000000 0.000000 189.000000 -0.363273 -0.363273 0.857943
-8.55000019 8.71000004 -0.07000000 79 61 185 0.000000 0.000000 0.000000 0.000000 0.000000 0.000000 189.000000 -0.122638 0.275607 0.953415
-8.57999992 8.72999954 -0.09000000 79 61 185 0.000000 0.000000 0.000000 0.000000 0.000000 0.000000 189.000000 -0.507266 -0.107776 0.855024
-8.57999992 8.77000046 -0.08000000 79 61 185 0.000000 0.000000 0.000000 0.000000 0.000000 0.000000 189.000000 -0.443248 0.030800 0.895870
-8.52999973 8.77000046 -0.05000000 79 61 185 0.000000 0.000000 0.000000 0.000000 0.000000 0.000000 189.000000 -0.085898 -0.173005 0.981168
-8.63000011 8.72000027 -0.08000000 79 61 185 0.000000 0.000000 0.000000 0.000000 0.000000 0.000000 189.000000 -0.239586 0.311318 0.919608
-8.64999962 8.67000008 -0.06000000 79 61 185 0.000000 0.000000 0.000000 0.000000 0.000000 0.000000 189.000000 -0.192865 0.166977 0.966914
-8.64000034 8.61999989 -0.06000000 79 61 185 0.000000 0.000000 0.000000 0.000000 0.000000 0.000000 189.000000 0.234788 0.294552 0.926344
-8.60999966 8.68999958 -0.07000000 79 61 185 0.000000 0.000000 0.000000 0.000000 0.000000 0.000000 189.000000 0.194554 0.079534 0.977662
-8.52000046 8.44999981 -0.01000000 79 61 185 0.000000 0.000000 0.000000 0.000000 0.000000 0.000000 189.000000 0.128013 -0.270543 0.954159
-8.52000046 8.56000042 -0.02000000 79 61 185 0.000000 0.000000 0.000000 0.000000 0.000000 0.000000 189.000000 -0.259451 -0.150349 0.953981
-8.50000000 8.46000004 -0.02000000 79 61 185 0.000000 0.000000 0.000000 0.000000 0.000000 0.000000 189.000000 0.201909 0.262344 0.943615
-8.52000046 8.51000023 -0.03000000 79 61 185 0.000000 0.000000 0.000000 0.000000 0.000000 0.000000 189.000000 -0.115583 0.298922 0.947252
-8.60999966 8.52999973 -0.06000000 79 61 185 0.000000 0.000000 0.000000 0.000000 0.000000 0.000000 189.000000 -0.094837 0.052439 0.994111
-8.52999973 8.56999969 -0.06000000 79 61 185 0.000000 0.000000 0.000000 0.000000 0.000000 0.000000 189.000000 -0.227183 -0.289270 0.929898
-8.63000011 8.60000038 -0.07000000 79 61 185 0.000000 0.000000 0.000000 0.000000 0.000000 0.000000 189.000000 0.144990 -0.074263 0.986642
-8.52000046 8.55000019 -0.05000000 79 61 185 0.000000 0.000000 0.000000 0.000000 0.000000 0.000000 189.000000 0.080235 -0.164063 0.983181
-8.59000015 8.51000023 -0.03000000 79 61 185 0.000000 0.000000 0.000000 0.000000 0.000000 0.000000 189.000000 0.145387 0.347544 0.926324
-8.52999973 8.56000042 -0.06000000 79 61 185 0.000000 0.000000 0.000000 0.000000 0.000000 0.000000 189.000000 -0.091681 0.398197 0.912707
-8.51000023 8.51000023 -0.04000000 79 61 185 0.000000 0.000000 0.000000 0.000000 0.000000 0.000000 189.000000 -0.428263 0.063900 0.901392
-9.00000000 8.47999954 0.17000000 79 61 185 0.000000 0.000000 0.000000 0.000000 0.000000 0.000000 63.000000 0.740013 0.651880 0.165629
-8.69999981 8.64000034 -0.08000000 79 61 185 0.000000 0.000000 0.000000 0.000000 0.000000 0.000000 189.000000 0.086700 0.040606 0.995407
-8.67000008 8.65999985 -0.08000000 79 61 185 0.000000 0.000000 0.000000 0.000000 0.000000 0.000000 189.000000 0.143436 0.061806 0.987728
-8.72000027 8.56999969 -0.08000000 79 61 185 0.000000 0.000000 0.000000 0.000000 0.000000 0.000000 189.000000 0.200567 0.008115 0.979646
-8.36999989 8.19999981 0.08000000 79 61 185 0.000000 0.000000 0.000000 0.000000 0.000000 0.000000 189.000000 -0.308777 -0.145547 0.939932
-8.39000034 8.18000031 0.09000000 79 61 185 0.000000 0.000000 0.000000 0.000000 0.000000 0.000000 189.000000 -0.121211 -0.003276 0.992621
-8.34000015 8.10999966 0.03000000 79 61 185 0.000000 0.000000 0.000000 0.000000 0.000000 0.000000 189.000000 0.049039 -0.194960 0.979584
-8.48999977 8.22000027 0.06000000 79 61 185 0.000000 0.000000 0.000000 0.000000 0.000000 0.000000 189.000000 0.281883 0.123076 0.951522
-8.47000027 8.21000004 0.05000000 79 61 185 0.000000 0.000000 0.000000 0.000000 0.000000 0.000000 189.000000 0.345416 0.133487 0.928907
-8.42000008 8.14000034 0.08000000 79 61 185 0.000000 0.000000 0.000000 0.000000 0.000000 0.000000 189.000000 0.528932 0.263686 0.806660
-8.43999958 8.14000034 0.09000000 79 61 185 0.000000 0.000000 0.000000 0.000000 0.000000 0.000000 189.000000 0.394680 0.242765 0.886168
-8.46000004 8.17000008 0.00000000 79 61 185 0.000000 0.000000 0.000000 0.000000 0.000000 0.000000 189.000000 0.374727 0.281421 0.883392
-8.57999992 8.27000046 0.07000000 79 61 185 0.000000 0.000000 0.000000 0.000000 0.000000 0.000000 189.000000 0.549517 0.199409 0.811337
-8.52000046 8.14000034 0.12000000 79 61 185 0.000000 0.000000 0.000000 0.000000 0.000000 0.000000 189.000000 0.765849 0.302183 0.567592
-8.51000023 8.14999962 0.08000000 79 61 185 0.000000 0.000000 0.000000 0.000000 0.000000 0.000000 189.000000 0.893300 0.055917 0.445968
-8.50000000 8.15999985 0.06000000 79 61 185 0.000000 0.000000 0.000000 0.000000 0.000000 0.000000 189.000000 0.608071 -0.018007 0.793678
-8.65999985 8.26000023 0.14000000 79 61 185 0.000000 0.000000 0.000000 0.000000 0.000000 0.000000 189.000000 0.941386 0.185529 -0.281729
-8.60999966 8.18000031 0.13000000 79 61 185 0.000000 0.000000 0.000000 0.000000 0.000000 0.000000 189.000000 0.998378 -0.055292 0.013562
-8.64000034 8.15999985 0.14000000 79 61 185 0.000000 0.000000 0.000000 0.000000 0.000000 0.000000 189.000000 0.732531 0.655745 0.182749
-8.56999969 8.06000042 0.09000000 79 61 185 0.000000 0.000000 0.000000 0.000000 0.000000 0.000000 189.000000 0.897580 0.143670 0.416784
-8.72999954 8.38000011 0.16000000 79 61 185 0.000000 0.000000 0.000000 0.000000 0.000000 0.000000 63.000000 0.791786 0.550330 0.264974
-8.81000042 8.22999954 0.20999999 79 61 185 0.000000 0.000000 0.000000 0.000000 0.000000 0.000000 189.000000 0.846863 0.521921 -0.102084
-8.82999992 8.14999962 0.23000000 79 61 185 0.000000 0.000000 0.000000 0.000000 0.000000 0.000000 189.000000 0.849179 0.437737 -0.295434
-8.85999966 8.22000027 0.33000001 79 61 185 0.000000 0.000000 0.000000 0.000000 0.000000 0.000000 189.000000 0.831165 0.411640 -0.373788
-8.85999966 8.21000004 0.33000001 79 61 185 0.000000 0.000000 0.000000 0.000000 0.000000 0.000000 189.000000 0.871635 0.225758 -0.435070
-8.98999977 8.19999981 0.38000000 79 61 185 0.000000 0.000000 0.000000 0.000000 0.000000 0.000000 189.000000 0.719012 0.577513 -0.386654
-8.85999966 8.14000034 0.28999999 79 61 185 0.000000 0.000000 0.000000 0.000000 0.000000 0.000000 189.000000 0.913431 0.406974 -0.003876
-8.94999981 8.00000000 0.38999999 79 61 185 0.000000 0.000000 0.000000 0.000000 0.000000 0.000000 189.000000 0.752366 0.376999 -0.540202
-8.89999962 8.07999992 0.28999999 79 61 185 0.000000 0.000000 0.000000 0.000000 0.000000 0.000000 189.000000 0.724590 0.289516 -0.625419
-9.19999981 8.56999969 0.38999999 79 61 185 0.000000 0.000000 0.000000 0.000000 0.000000 0.000000 189.000000 0.795782 0.012413 -0.605456
-9.22999954 8.52999973 0.41999999 79 61 185 0.000000 0.000000 0.000000 0.000000 0.000000 0.000000 189.000000 -0.626446 -0.254050 0.736902
-9.22000027 8.52000046 0.40000001 79 61 185 0.000000 0.000000 0.000000 0.000000 0.000000 0.000000 189.000000 0.921818 0.364569 -0.131688
-9.26000023 8.48999977 0.38999999 79 61 185 0.000000 0.000000 0.000000 0.000000 0.000000 0.000000 189.000000 0.757475 0.549859 -0.351975
-9.14000034 8.43000031 0.41000000 79 61 185 0.000000 0.000000 0.000000 0.000000 0.000000 0.000000 189.000000 0.895352 0.250106 -0.368500
-9.14000034 8.43999958 0.41999999 79 61 185 0.000000 0.000000 0.000000 0.000000 0.000000 0.000000 189.000000 0.787012 0.286618 -0.546316
-9.14000034 8.43999958 0.46000001 79 61 185 0.000000 0.000000 0.000000 0.000000 0.000000 0.000000 189.000000 0.836761 0.217163 -0.502664
-9.17000008 8.38000011 0.36000001 79 61 185 0.000000 0.000000 0.000000 0.000000 0.000000 0.000000 189.000000 0.696713 0.269438 -0.664827
-9.11999989 8.40999985 0.33000001 79 61 185 0.000000 0.000000 0.000000 0.000000 0.000000 0.000000 189.000000 0.984217 0.176123 -0.017267
-9.17000008 8.31999969 0.38999999 79 61 185 0.000000 0.000000 0.000000 0.000000 0.000000 0.000000 189.000000 0.832371 0.533723 -0.149324
-9.07999992 8.26000023 0.46000001 79 61 185 0.000000 0.000000 0.000000 0.000000 0.000000 0.000000 189.000000 0.777011 0.235127 -0.583926
-9.06000042 8.19999981 0.34000000 79 61 185 0.000000 0.000000 0.000000 0.000000 0.000000 0.000000 189.000000 0.891936 -0.050231 -0.449362
-9.03999996 8.22999954 0.36000001 79 61 185 0.000000 0.000000 0.000000 0.000000 0.000000 0.000000 189.000000 0.749546 0.640079 -0.168762
-9.02999973 8.14000034 0.41000000 79 61 185 0.000000 0.000000 0.000000 0.000000 0.000000 0.000000 189.000000 0.832949 -0.075464 -0.548180
-9.07999992 8.15999985 0.38999999 79 61 185 0.000000 0.000000 0.000000 0.000000 0.000000 0.000000 189.000000 0.771143 0.604908 -0.198558
-9.15999985 8.18000031 0.46000001 79 61 185 0.000000 0.000000 0.000000 0.000000 0.000000 0.000000 189.000000 0.780838 0.091607 -0.617981
-9.14000034 8.14999962 0.43000001 79 61 185 0.000000 0.000000 0.000000 0.000000 0.000000 0.000000 189.000000 0.751723 0.574657 -0.323547
-9.18999958 8.43999958 0.38999999 79 61 185 0.000000 0.000000 0.000000 0.000000 0.000000 0.000000 189.000000 0.843799 0.051604 -0.534173
-9.23999977 8.35000038 0.41999999 79 61 185 0.000000 0.000000 0.000000 0.000000 0.000000 0.000000 189.000000 0.646981 0.424113 -0.633675
-9.25000000 8.30000019 0.41999999 79 61 185 0.000000 0.000000 0.000000 0.000000 0.000000 0.000000 189.000000 0.870868 0.491293 -0.014806
-9.26000023 8.31000042 0.41000000 79 61 185 0.000000 0.000000 0.000000 0.000000 0.000000 0.000000 189.000000 0.921509 0.076680 -0.380711
-9.31999969 8.31999969 0.46000001 79 61 185 0.000000 0.000000 0.000000 0.000000 0.000000 0.000000 189.000000 0.926414 0.065128 -0.370831
-9.32999992 8.32999992 0.38000000 79 61 185 0.000000 0.000000 0.000000 0.000000 0.000000 0.000000 189.000000 0.908770 0.270729 -0.317557
-7.94999981 7.94999981 -0.23000000 79 61 185 0.000000 0.000000 0.000000 0.000000 0.000000 0.000000 220.000000 0.592768 0.548859 -0.589390
-7.82000017 7.88000011 -0.23999999 79 61 185 0.000000 0.000000 0.000000 0.000000 0.000000 0.000000 220.000000 -0.480963 -0.119164 0.868605
-7.86000013 7.90000010 -0.23999999 79 61 185 0.000000 0.000000 0.000000 0.000000 0.000000 0.000000 220.000000 -0.564946 -0.224431 0.794020
-7.88000011 7.88999987 -0.25999999 79 61 185 0.000000 0.000000 0.000000 0.000000 0.000000 0.000000 220.000000 -0.586138 0.001366 0.810210
