//X Y Z R G B PointSourceId ScanDirectionFlag NumberOfReturns ReturnNumber GpsTime Intensity Classification Nx Ny Nz
4.38999987 -13.05000019 0.14000000 87 140 142 0.000000 0.000000 0.000000 0.000000 0.000000 0.000000 11.000000 0.819114 0.561217 -0.118691
4.38000011 -13.03999996 0.10000000 87 140 142 0.000000 0.000000 0.000000 0.000000 0.000000 0.000000 11.000000 0.998906 -0.007186 0.046198
4.38000011 -13.03999996 0.10000000 87 140 142 0.000000 0.000000 0.000000 0.000000 0.000000 0.000000 11.000000 0.998906 -0.007186 0.046198
4.38999987 -13.09000015 0.03000000 87 140 142 0.000000 0.000000 0.000000 0.000000 0.000000 0.000000 11.000000 0.919926 0.254815 0.298004
4.38000011 -13.10000038 0.06000000 87 140 142 0.000000 0.000000 0.000000 0.000000 0.000000 0.000000 11.000000 0.837260 0.541589 0.075339
4.38999987 -13.09000015 0.04000000 87 140 142 0.000000 0.000000 0.000000 0.000000 0.000000 0.000000 11.000000 0.973457 0.210108 0.090757
4.17999983 -12.86999989 0.00000000 87 140 142 0.000000 0.000000 0.000000 0.000000 0.000000 0.000000 11.000000 0.925561 -0.016781 0.378228
4.17999983 -12.90999985 -0.02000000 87 140 142 0.000000 0.000000 0.000000 0.000000 0.000000 0.000000 11.000000 0.938591 -0.117155 -0.324534
4.17999983 -12.90999985 -0.02000000 87 140 142 0.000000 0.000000 0.000000 0.000000 0.000000 0.000000 11.000000 0.938591 -0.117155 -0.324534
4.19000006 -12.92000008 -0.02000000 87 140 142 0.000000 0.000000 0.000000 0.000000 0.000000 0.000000 11.000000 0.987738 -0.123614 -0.095360
4.11000013 -12.89000034 0.13000000 87 140 142 0.000000 0.000000 0.000000 0.000000 0.000000 0.000000 11.000000 0.999478 -0.029486 0.013218
4.17999983 -12.88000011 -0.03000000 87 140 142 0.000000 0.000000 0.000000 0.000000 0.000000 0.000000 11.000000 0.983359 0.176981 0.041022
4.15999985 -12.93000031 -0.04000000 87 140 142 0.000000 0.000000 0.000000 0.000000 0.000000 0.000000 11.000000 0.919813 -0.231029 -0.317127
3.97000003 -12.85999966 0.36000001 87 140 142 0.000000 0.000000 0.000000 0.000000 0.000000 0.000000 11.000000 0.878645 -0.408637 -0.246979
4.00000000 -12.85999966 0.34000000 87 140 142 0.000000 0.000000 0.000000 0.000000 0.000000 0.000000 11.000000 0.989372 0.138398 -0.044608
3.98000002 -12.84000015 0.34999999 87 140 142 0.000000 0.000000 0.000000 0.000000 0.000000 0.000000 11.000000 0.996882 0.039962 0.068043
3.95000005 -12.80000019 0.43000001 87 140 142 0.000000 0.000000 0.000000 0.000000 0.000000 0.000000 11.000000 0.919184 -0.210140 -0.333079
3.95000005 -12.82999992 0.38999999 87 140 142 0.000000 0.000000 0.000000 0.000000 0.000000 0.000000 11.000000 0.992316 -0.074053 0.099118
3.95000005 -12.82999992 0.38999999 87 140 142 0.000000 0.000000 0.000000 0.000000 0.000000 0.000000 11.000000 0.992316 -0.074053 0.099118
4.00000000 -12.85999966 0.25999999 87 140 142 0.000000 0.000000 0.000000 0.000000 0.000000 0.000000 11.000000 0.990372 -0.005533 -0.138320
4.03000021 -12.80000019 0.20000000 87 140 142 0.000000 0.000000 0.000000 0.000000 0.000000 0.000000 11.000000 0.999279 0.005083 0.037613
4.03999996 -12.81999969 0.22000000 87 140 142 0.000000 0.000000 0.000000 0.000000 0.000000 0.000000 11.000000 0.998710 0.044781 0.023952
3.96000004 -12.88000011 0.41999999 87 140 142 0.000000 0.000000 0.000000 0.000000 0.000000 0.000000 11.000000 0.988671 0.054348 -0.139917
4.01999998 -12.86999989 0.25999999 87 140 142 0.000000 0.000000 0.000000 0.000000 0.000000 0.000000 11.000000 0.999448 -0.023480 -0.023480
4.03999996 -12.88000011 0.23999999 87 140 142 0.000000 0.000000 0.000000 0.000000 0.000000 0.000000 11.000000 0.964372 0.173561 0.199660
4.01999998 -12.86999989 0.25999999 87 140 142 0.000000 0.000000 0.000000 0.000000 0.000000 0.000000 11.000000 0.999448 -0.023480 -0.023480
4.01999998 -12.89000034 0.20000000 87 140 142 0.000000 0.000000 0.000000 0.000000 0.000000 0.000000 11.000000 0.974463 0.116635 0.191883
4.03000021 -12.89000034 0.16000000 87 140 142 0.000000 0.000000 0.000000 0.000000 0.000000 0.000000 11.000000 0.940406 -0.295164 -0.168861
4.73999977 -12.84000015 -0.49000001 87 140 142 0.000000 0.000000 0.000000 0.000000 0.000000 0.000000 11.000000 0.840548 0.535154 0.084198
4.76999998 -12.81999969 -0.58999997 87 140 142 0.000000 0.000000 0.000000 0.000000 0.000000 0.000000 11.000000 0.748223 0.511423 0.422623
4.78000021 -12.85999966 -0.67000002 87 140 142 0.000000 0.000000 0.000000 0.000000 0.000000 0.000000 11.000000 0.883210 0.427644 0.192513
4.78999996 -12.85000038 -0.69000000 87 140 142 0.000000 0.000000 0.000000 0.000000 0.000000 0.000000 11.000000 0.908597 0.352136 0.224613
4.80000019 -12.85999966 -0.67000002 87 140 142 0.000000 0.000000 0.000000 0.000000 0.000000 0.000000 11.000000 0.901420 0.359102 0.241844
4.73999977 -12.81000042 -0.70999998 87 140 142 0.000000 0.000000 0.000000 0.000000 0.000000 0.000000 11.000000 0.767475 0.610597 0.195329
4.73999977 -12.84000015 -0.64999998 87 140 142 0.000000 0.000000 0.000000 0.000000 0.000000 0.000000 11.000000 0.708007 0.680242 0.189727
4.75000000 -12.82999992 -0.66000003 87 140 142 0.000000 0.000000 0.000000 0.000000 0.000000 0.000000 11.000000 0.602320 0.662386 0.445483
4.73999977 -12.82999992 -0.68000001 87 140 142 0.000000 0.000000 0.000000 0.000000 0.000000 0.000000 11.000000 0.613212 0.743143 -0.267785
4.76999998 -12.82999992 -0.70999998 87 140 142 0.000000 0.000000 0.000000 0.000000 0.000000 0.000000 11.000000 0.794720 0.600035 0.091531
4.78000021 -12.84000015 -0.73000002 87 140 142 0.000000 0.000000 0.000000 0.000000 0.000000 0.000000 11.000000 0.747439 0.607790 0.268189
4.78999996 -12.85000038 -0.72000003 87 140 142 0.000000 0.000000 0.000000 0.000000 0.000000 0.000000 11.000000 0.970813 0.221721 0.091444
4.78000021 -12.84000015 -0.77999997 87 140 142 0.000000 0.000000 0.000000 0.000000 0.000000 0.000000 11.000000 0.660513 0.689441 -0.297311
4.78000021 -12.84000015 -0.79000002 87 140 142 0.000000 0.000000 0.000000 0.000000 0.000000 0.000000 11.000000 0.821564 0.570037 0.009569
4.75000000 -12.81000042 -0.77999997 87 140 142 0.000000 0.000000 0.000000 0.000000 0.000000 0.000000 11.000000 0.383354 0.831389 0.402285
4.76999998 -12.81999969 -0.73000002 87 140 142 0.000000 0.000000 0.000000 0.000000 0.000000 0.000000 11.000000 0.565841 0.689358 0.452339
4.75000000 -12.82999992 -0.76999998 87 140 142 0.000000 0.000000 0.000000 0.000000 0.000000 0.000000 11.000000 0.758067 0.648328 0.070753
4.76000023 -12.84000015 -0.77999997 87 140 142 0.000000 0.000000 0.000000 0.000000 0.000000 0.000000 11.000000 0.787878 0.474021 0.393130
4.75000000 -12.82999992 -0.77999997 87 140 142 0.000000 0.000000 0.000000 0.000000 0.000000 0.000000 11.000000 0.670918 0.680572 0.294432
4.76999998 -12.85000038 -0.79000002 87 140 142 0.000000 0.000000 0.000000 0.000000 0.000000 0.000000 11.000000 0.784134 0.524360 0.331934
4.76999998 -12.85999966 -0.76999998 87 140 142 0.000000 0.000000 0.000000 0.000000 0.000000 0.000000 11.000000 0.593587 0.660470 0.459821
4.78999996 -12.81000042 -0.88000000 87 140 142 0.000000 0.000000 0.000000 0.000000 0.000000 0.000000 11.000000 0.749927 0.640404 -0.165805
4.78999996 -12.81000042 -0.88000000 87 140 142 0.000000 0.000000 0.000000 0.000000 0.000000 0.000000 11.000000 0.749927 0.640404 -0.165805
4.78000021 -12.81000042 -0.85000002 87 140 142 0.000000 0.000000 0.000000 0.000000 0.000000 0.000000 11.000000 0.574766 0.813892 0.084991
4.78000021 -12.80000019 -0.88000000 87 140 142 0.000000 0.000000 0.000000 0.000000 0.000000 0.000000 11.000000 0.564152 0.824530 0.043396
4.78000021 -12.81000042 -0.83999997 87 140 142 0.000000 0.000000 0.000000 0.000000 0.000000 0.000000 11.000000 0.578020 0.796484 0.177502
4.78000021 -12.84000015 -0.81000000 87 140 142 0.000000 0.000000 0.000000 0.000000 0.000000 0.000000 11.000000 0.825143 0.507424 0.248314
4.78999996 -12.85000038 -0.80000001 87 140 142 0.000000 0.000000 0.000000 0.000000 0.000000 0.000000 11.000000 0.808757 0.586525 0.043603
4.78000021 -12.84000015 -0.81000000 87 140 142 0.000000 0.000000 0.000000 0.000000 0.000000 0.000000 11.000000 0.825143 0.507424 0.248314
4.78000021 -12.81999969 -0.87000000 87 140 142 0.000000 0.000000 0.000000 0.000000 0.000000 0.000000 11.000000 0.867398 0.466834 0.172301
4.78000021 -12.81999969 -0.83999997 87 140 142 0.000000 0.000000 0.000000 0.000000 0.000000 0.000000 11.000000 0.525924 0.768658 0.364101
4.78000021 -12.81999969 -0.86000001 87 140 142 0.000000 0.000000 0.000000 0.000000 0.000000 0.000000 11.000000 0.599246 0.785477 0.154692
4.75000000 -12.80000019 -0.82999998 87 140 142 0.000000 0.000000 0.000000 0.000000 0.000000 0.000000 11.000000 0.516377 0.783413 0.345860
4.75000000 -12.81000042 -0.86000001 87 140 142 0.000000 0.000000 0.000000 0.000000 0.000000 0.000000 11.000000 0.468937 0.783724 0.407277
4.73999977 -12.78999996 -0.86000001 87 140 142 0.000000 0.000000 0.000000 0.000000 0.000000 0.000000 11.000000 0.604115 0.793529 -0.073183
4.75000000 -12.78999996 -0.87000000 87 140 142 0.000000 0.000000 0.000000 0.000000 0.000000 0.000000 11.000000 0.360902 0.793984 0.489223
4.75000000 -12.80000019 -0.85000002 87 140 142 0.000000 0.000000 0.000000 0.000000 0.000000 0.000000 11.000000 0.477556 0.870501 0.119031
4.76999998 -12.84000015 -0.81000000 87 140 142 0.000000 0.000000 0.000000 0.000000 0.000000 0.000000 11.000000 0.682786 0.640214 0.352036
4.73999977 -12.81999969 -0.81999999 87 140 142 0.000000 0.000000 0.000000 0.000000 0.000000 0.000000 11.000000 0.505127 0.860536 0.065765
4.75000000 -12.81999969 -0.85000002 87 140 142 0.000000 0.000000 0.000000 0.000000 0.000000 0.000000 11.000000 0.518523 0.850946 -0.083816
4.73999977 -12.76000023 -0.89999998 87 140 142 0.000000 0.000000 0.000000 0.000000 0.000000 0.000000 11.000000 0.596076 0.790286 -0.141923
4.75000000 -12.77000046 -1.02999997 87 140 142 0.000000 0.000000 0.000000 0.000000 0.000000 0.000000 11.000000 0.539458 0.838366 -0.078285
4.78000021 -12.81000042 -0.94000000 87 140 142 0.000000 0.000000 0.000000 0.000000 0.000000 0.000000 11.000000 0.656560 0.719239 0.227210
4.78000021 -12.84000015 -0.89999998 87 140 142 0.000000 0.000000 0.000000 0.000000 0.000000 0.000000 11.000000 0.637011 0.623635 0.453097
4.78000021 -12.81999969 -0.92000002 87 140 142 0.000000 0.000000 0.000000 0.000000 0.000000 0.000000 11.000000 0.681088 0.604860 0.412630
4.80000019 -12.84000015 -0.91000003 87 140 142 0.000000 0.000000 0.000000 0.000000 0.000000 0.000000 11.000000 0.687197 0.714146 0.133247
4.78000021 -12.82999992 -0.88999999 87 140 142 0.000000 0.000000 0.000000 0.000000 0.000000 0.000000 11.000000 0.864700 0.472860 -0.169405
4.78000021 -12.82999992 -0.91000003 87 140 142 0.000000 0.000000 0.000000 0.000000 0.000000 0.000000 11.000000 0.599655 0.743572 0.295830
4.78999996 -12.85000038 -0.91000003 87 140 142 0.000000 0.000000 0.000000 0.000000 0.000000 0.000000 11.000000 0.738037 0.568598 0.363316
4.78999996 -12.82999992 -0.91000003 87 140 142 0.000000 0.000000 0.000000 0.000000 0.000000 0.000000 11.000000 0.761625 0.637399 0.116832
4.78999996 -12.82999992 -0.91000003 87 140 142 0.000000 0.000000 0.000000 0.000000 0.000000 0.000000 11.000000 0.761625 0.637399 0.116832
4.80000019 -12.85000038 -0.92000002 87 140 142 0.000000 0.000000 0.000000 0.000000 0.000000 0.000000 11.000000 0.688264 0.724858 0.029557
4.78000021 -12.82999992 -0.95999998 87 140 142 0.000000 0.000000 0.000000 0.000000 0.000000 0.000000 11.000000 0.689048 0.679544 -0.251859
4.78999996 -12.82999992 -0.94999999 87 140 142 0.000000 0.000000 0.000000 0.000000 0.000000 0.000000 11.000000 0.875887 0.476360 0.076832
4.78999996 -12.82999992 -0.94000000 87 140 142 0.000000 0.000000 0.000000 0.000000 0.000000 0.000000 11.000000 0.871833 0.448498 0.196866
4.78999996 -12.84000015 -0.94000000 87 140 142 0.000000 0.000000 0.000000 0.000000 0.000000 0.000000 11.000000 0.748126 0.633979 0.195901
4.78999996 -12.84000015 -0.93000001 87 140 142 0.000000 0.000000 0.000000 0.000000 0.000000 0.000000 11.000000 0.801942 0.591738 0.082066
4.73999977 -12.81000042 -0.92000002 87 140 142 0.000000 0.000000 0.000000 0.000000 0.000000 0.000000 11.000000 0.209209 0.893891 0.396472
4.76999998 -12.81000042 -0.92000002 87 140 142 0.000000 0.000000 0.000000 0.000000 0.000000 0.000000 11.000000 0.310212 0.879187 0.361662
4.76999998 -12.78999996 -0.89999998 87 140 142 0.000000 0.000000 0.000000 0.000000 0.000000 0.000000 11.000000 0.760707 0.645230 0.070730
4.76000023 -12.77999973 -0.91000003 87 140 142 0.000000 0.000000 0.000000 0.000000 0.000000 0.000000 11.000000 0.662886 0.748688 -0.006919
4.76000023 -12.78999996 -0.94999999 87 140 142 0.000000 0.000000 0.000000 0.000000 0.000000 0.000000 11.000000 0.483621 0.859934 -0.163167
4.76000023 -12.80000019 -0.94000000 87 140 142 0.000000 0.000000 0.000000 0.000000 0.000000 0.000000 11.000000 0.601421 0.696989 0.390512
4.76999998 -12.80000019 -0.94000000 87 140 142 0.000000 0.000000 0.000000 0.000000 0.000000 0.000000 11.000000 0.673235 0.701483 0.233828
4.78999996 -12.82999992 -1.00999999 87 140 142 0.000000 0.000000 0.000000 0.000000 0.000000 0.000000 11.000000 0.727769 0.660070 0.186173
4.78000021 -12.81999969 -0.97000003 87 140 142 0.000000 0.000000 0.000000 0.000000 0.000000 0.000000 11.000000 0.636419 0.759211 -0.136269
4.78999996 -12.85000038 -1.01999998 87 140 142 0.000000 0.000000 0.000000 0.000000 0.000000 0.000000 11.000000 0.770668 0.604536 0.201512
4.80000019 -12.81999969 -1.02999997 87 140 142 0.000000 0.000000 0.000000 0.000000 0.000000 0.000000 11.000000 0.888984 0.457230 0.025476
4.78999996 -12.81999969 -1.04999995 87 140 142 0.000000 0.000000 0.000000 0.000000 0.000000 0.000000 11.000000 0.551766 0.833809 -0.017799
4.78000021 -12.81999969 -1.04999995 87 140 142 0.000000 0.000000 0.000000 0.000000 0.000000 0.000000 11.000000 0.565656 0.824631 -0.004089
4.76000023 -12.81000042 -0.97000003 87 140 142 0.000000 0.000000 0.000000 0.000000 0.000000 0.000000 11.000000 0.553269 0.818718 0.153603
4.76999998 -12.77999973 -0.99000001 87 140 142 0.000000 0.000000 0.000000 0.000000 0.000000 0.000000 11.000000 0.330637 0.913943 0.235344
4.75000000 -12.81000042 -0.99000001 87 140 142 0.000000 0.000000 0.000000 0.000000 0.000000 0.000000 11.000000 0.448789 0.893629 -0.003948
4.73999977 -12.81000042 -1.04999995 87 140 142 0.000000 0.000000 0.000000 0.000000 0.000000 0.000000 11.000000 0.220729 0.968400 -0.116106
4.76999998 -12.81999969 -0.98000002 87 140 142 0.000000 0.000000 0.000000 0.000000 0.000000 0.000000 11.000000 0.572396 0.793375 -0.207168
4.75000000 -12.81999969 -1.01999998 87 140 142 0.000000 0.000000 0.000000 0.000000 0.000000 0.000000 11.000000 0.745664 0.645432 0.165534
4.80000019 -12.84000015 -1.07000005 87 140 142 0.000000 0.000000 0.000000 0.000000 0.000000 0.000000 11.000000 0.953517 0.281989 0.106238
4.80000019 -12.82999992 -1.05999994 87 140 142 0.000000 0.000000 0.000000 0.000000 0.000000 0.000000 11.000000 0.852985 0.476889 0.212118
4.80999994 -12.85000038 -1.05999994 87 140 142 0.000000 0.000000 0.000000 0.000000 0.000000 0.000000 11.000000 0.965221 0.254137 0.061343
4.80000019 -12.81999969 -1.13000000 87 140 142 0.000000 0.000000 0.000000 0.000000 0.000000 0.000000 11.000000 0.354085 0.930315 0.095590
4.78999996 -12.81999969 -1.11000001 87 140 142 0.000000 0.000000 0.000000 0.000000 0.000000 0.000000 11.000000 0.585288 0.752056 -0.303067
4.78999996 -12.81999969 -1.12000000 87 140 142 0.000000 0.000000 0.000000 0.000000 0.000000 0.000000 11.000000 0.490829 0.871255 -0.001330
4.78999996 -12.84000015 -1.11000001 87 140 142 0.000000 0.000000 0.000000 0.000000 0.000000 0.000000 11.000000 0.498743 0.774920 0.388272
4.76999998 -12.80000019 -1.05999994 87 140 142 0.000000 0.000000 0.000000 0.000000 0.000000 0.000000 11.000000 0.311670 0.943037 0.116375
4.73999977 -12.80000019 -1.07000005 87 140 142 0.000000 0.000000 0.000000 0.000000 0.000000 0.000000 11.000000 0.089628 0.992713 0.080552
4.75000000 -12.85000038 -1.09000003 87 140 142 0.000000 0.000000 0.000000 0.000000 0.000000 0.000000 11.000000 0.510263 0.811711 0.284177
4.76000023 -12.81999969 -1.10000002 87 140 142 0.000000 0.000000 0.000000 0.000000 0.000000 0.000000 11.000000 0.437975 0.803757 0.402681
4.76000023 -12.80000019 -1.16999996 87 140 142 0.000000 0.000000 0.000000 0.000000 0.000000 0.000000 11.000000 0.363680 0.858904 0.360585
4.76000023 -12.81000042 -1.14999998 87 140 142 0.000000 0.000000 0.000000 0.000000 0.000000 0.000000 11.000000 0.377483 0.829200 0.412231
4.76999998 -12.81000042 -1.16999996 87 140 142 0.000000 0.000000 0.000000 0.000000 0.000000 0.000000 11.000000 0.371248 0.841181 0.393178
4.73999977 -12.81999969 -1.14999998 87 140 142 0.000000 0.000000 0.000000 0.000000 0.000000 0.000000 11.000000 -0.036088 0.999114 0.021653
4.65000010 -12.85000038 -0.25999999 87 140 142 0.000000 0.000000 0.000000 0.000000 0.000000 0.000000 11.000000 0.031859 0.944309 -0.327513
4.59999990 -12.82999992 -0.27000001 87 140 142 0.000000 0.000000 0.000000 0.000000 0.000000 0.000000 11.000000 -0.409315 0.863088 0.295872
4.57999992 -12.84000015 -0.36000001 87 140 142 0.000000 0.000000 0.000000 0.000000 0.000000 0.000000 11.000000 -0.434427 0.848757 -0.301471
4.57999992 -12.82999992 -0.34000000 87 140 142 0.000000 0.000000 0.000000 0.000000 0.000000 0.000000 11.000000 -0.548109 0.816879 -0.179683
4.67000008 -12.81000042 -0.44000000 87 140 142 0.000000 0.000000 0.000000 0.000000 0.000000 0.000000 11.000000 0.011266 0.945060 -0.326703
4.65999985 -12.81000042 -0.44999999 87 140 142 0.000000 0.000000 0.000000 0.000000 0.000000 0.000000 11.000000 0.099656 0.942084 -0.320229
4.65999985 -12.81000042 -0.44000000 87 140 142 0.000000 0.000000 0.000000 0.000000 0.000000 0.000000 11.000000 -0.303659 0.943366 0.133610
4.67000008 -12.84000015 -0.37000000 87 140 142 0.000000 0.000000 0.000000 0.000000 0.000000 0.000000 11.000000 -0.130093 0.988004 0.083213
4.67000008 -12.84000015 -0.44000000 87 140 142 0.000000 0.000000 0.000000 0.000000 0.000000 0.000000 11.000000 -0.167944 0.970485 0.173072
4.65999985 -12.84000015 -0.43000001 87 140 142 0.000000 0.000000 0.000000 0.000000 0.000000 0.000000 11.000000 -0.273493 0.951222 0.142750
4.71999979 -12.85999966 -0.47000000 87 140 142 0.000000 0.000000 0.000000 0.000000 0.000000 0.000000 11.000000 0.825971 0.551135 -0.118414
4.67999983 -12.82999992 -0.47000000 87 140 142 0.000000 0.000000 0.000000 0.000000 0.000000 0.000000 11.000000 -0.149778 0.979126 0.137399
4.65000010 -12.84000015 -0.37000000 87 140 142 0.000000 0.000000 0.000000 0.000000 0.000000 0.000000 11.000000 0.060850 0.946406 -0.317195
4.63000011 -12.82999992 -0.44999999 87 140 142 0.000000 0.000000 0.000000 0.000000 0.000000 0.000000 11.000000 -0.032320 0.932123 -0.360697
4.57999992 -12.85000038 -0.38000000 87 140 142 0.000000 0.000000 0.000000 0.000000 0.000000 0.000000 11.000000 0.769944 -0.636164 -0.049812
4.57000017 -12.85999966 -0.38999999 87 140 142 0.000000 0.000000 0.000000 0.000000 0.000000 0.000000 11.000000 0.825078 -0.559109 0.081507
4.59999990 -12.85000038 -0.40000001 87 140 142 0.000000 0.000000 0.000000 0.000000 0.000000 0.000000 11.000000 -0.510996 0.818525 -0.262487
4.57999992 -12.84000015 -0.38999999 87 140 142 0.000000 0.000000 0.000000 0.000000 0.000000 0.000000 11.000000 -0.701429 0.692260 -0.169627
4.57000017 -12.85999966 -0.43000001 87 140 142 0.000000 0.000000 0.000000 0.000000 0.000000 0.000000 11.000000 0.684953 -0.684953 -0.248355
4.59000015 -12.84000015 -0.44999999 87 140 142 0.000000 0.000000 0.000000 0.000000 0.000000 0.000000 11.000000 -0.511421 0.787171 -0.344688
4.61999989 -12.85000038 -0.49000001 87 140 142 0.000000 0.000000 0.000000 0.000000 0.000000 0.000000 11.000000 -0.520844 0.831841 -0.191731
4.63000011 -12.85999966 -0.51999998 87 140 142 0.000000 0.000000 0.000000 0.000000 0.000000 0.000000 11.000000 -0.459347 0.887892 -0.025445
4.61000013 -12.85999966 -0.52999997 87 140 142 0.000000 0.000000 0.000000 0.000000 0.000000 0.000000 11.000000 -0.561320 0.802979 -0.200362
4.59999990 -12.84000015 -0.46000001 87 140 142 0.000000 0.000000 0.000000 0.000000 0.000000 0.000000 11.000000 -0.547020 0.805892 -0.226513
4.55000019 -12.85999966 -0.20000000 87 140 142 0.000000 0.000000 0.000000 0.000000 0.000000 0.000000 11.000000 -0.411512 0.864328 0.289129
4.53000021 -12.85999966 -0.25000000 87 140 142 0.000000 0.000000 0.000000 0.000000 0.000000 0.000000 11.000000 0.875923 -0.469904 0.109313
4.53000021 -12.85999966 -0.27000001 87 140 142 0.000000 0.000000 0.000000 0.000000 0.000000 0.000000 11.000000 0.746472 -0.664317 -0.038244
4.53999996 -12.85000038 -0.23999999 87 140 142 0.000000 0.000000 0.000000 0.000000 0.000000 0.000000 11.000000 -0.460090 0.868401 -0.184924
4.53000021 -12.85000038 -0.23999999 87 140 142 0.000000 0.000000 0.000000 0.000000 0.000000 0.000000 11.000000 0.761545 -0.628313 0.158971
4.53000021 -12.85999966 -0.28000000 87 140 142 0.000000 0.000000 0.000000 0.000000 0.000000 0.000000 11.000000 0.646981 -0.633675 0.424113
4.55000019 -12.85999966 -0.31999999 87 140 142 0.000000 0.000000 0.000000 0.000000 0.000000 0.000000 11.000000 -0.536493 0.834707 -0.124256
4.55000019 -12.85000038 -0.31000000 87 140 142 0.000000 0.000000 0.000000 0.000000 0.000000 0.000000 11.000000 0.836802 -0.547504 0.001352
4.53999996 -12.85999966 -0.34000000 87 140 142 0.000000 0.000000 0.000000 0.000000 0.000000 0.000000 11.000000 -0.558043 0.710387 -0.428881
4.55999994 -12.84000015 -0.33000001 87 140 142 0.000000 0.000000 0.000000 0.000000 0.000000 0.000000 11.000000 -0.525018 0.842065 -0.123619
4.55000019 -12.84000015 -0.30000001 87 140 142 0.000000 0.000000 0.000000 0.000000 0.000000 0.000000 11.000000 0.820706 -0.563060 0.096979
4.46000004 -12.85000038 -0.20000000 87 140 142 0.000000 0.000000 0.000000 0.000000 0.000000 0.000000 11.000000 -0.750982 0.655112 0.082797
4.40000010 -12.85999966 -0.20999999 87 140 142 0.000000 0.000000 0.000000 0.000000 0.000000 0.000000 11.000000 0.927607 -0.352134 -0.124686
4.71000004 -12.81999969 -0.55000001 87 140 142 0.000000 0.000000 0.000000 0.000000 0.000000 0.000000 11.000000 0.546413 0.808076 -0.220104
4.73000002 -12.81999969 -0.60000002 87 140 142 0.000000 0.000000 0.000000 0.000000 0.000000 0.000000 11.000000 0.558192 0.789600 -0.254861
4.69999981 -12.80000019 -0.69000000 87 140 142 0.000000 0.000000 0.000000 0.000000 0.000000 0.000000 11.000000 0.392597 0.843066 0.367570
4.73000002 -12.81999969 -0.63999999 87 140 142 0.000000 0.000000 0.000000 0.000000 0.000000 0.000000 11.000000 0.651912 0.758005 -0.020939
4.73000002 -12.81999969 -0.63999999 87 140 142 0.000000 0.000000 0.000000 0.000000 0.000000 0.000000 11.000000 0.651912 0.758005 -0.020939
4.73000002 -12.82999992 -0.66000003 87 140 142 0.000000 0.000000 0.000000 0.000000 0.000000 0.000000 11.000000 0.670310 0.732733 0.117416
4.73000002 -12.82999992 -0.64999998 87 140 142 0.000000 0.000000 0.000000 0.000000 0.000000 0.000000 11.000000 0.690909 0.719757 0.067793
4.71999979 -12.81999969 -0.69000000 87 140 142 0.000000 0.000000 0.000000 0.000000 0.000000 0.000000 11.000000 0.601086 0.799155 -0.006877
4.65999985 -12.85999966 -0.67000002 87 140 142 0.000000 0.000000 0.000000 0.000000 0.000000 0.000000 11.000000 0.003895 0.910182 0.414191
4.59999990 -12.84000015 -0.56999999 87 140 142 0.000000 0.000000 0.000000 0.000000 0.000000 0.000000 11.000000 -0.374322 0.844182 0.383719
4.59999990 -12.85999966 -0.60000002 87 140 142 0.000000 0.000000 0.000000 0.000000 0.000000 0.000000 11.000000 0.738858 -0.635761 0.223376
4.71000004 -12.80000019 -0.74000001 87 140 142 0.000000 0.000000 0.000000 0.000000 0.000000 0.000000 11.000000 0.552001 0.832868 0.040322
4.71000004 -12.77999973 -0.73000002 87 140 142 0.000000 0.000000 0.000000 0.000000 0.000000 0.000000 11.000000 0.419414 0.884448 -0.204556
4.71999979 -12.81000042 -0.75999999 87 140 142 0.000000 0.000000 0.000000 0.000000 0.000000 0.000000 11.000000 0.316879 0.897080 -0.307953
4.69999981 -12.80000019 -0.75999999 87 140 142 0.000000 0.000000 0.000000 0.000000 0.000000 0.000000 11.000000 0.177168 0.879985 0.440725
4.71999979 -12.81999969 -0.75999999 87 140 142 0.000000 0.000000 0.000000 0.000000 0.000000 0.000000 11.000000 0.520335 0.853568 0.025948
4.71999979 -12.80000019 -0.80000001 87 140 142 0.000000 0.000000 0.000000 0.000000 0.000000 0.000000 11.000000 0.331192 0.871477 0.361717
4.71000004 -12.81000042 -0.88000000 87 140 142 0.000000 0.000000 0.000000 0.000000 0.000000 0.000000 11.000000 0.436744 0.894419 -0.096279
4.65999985 -12.81999969 -0.81999999 87 140 142 0.000000 0.000000 0.000000 0.000000 0.000000 0.000000 11.000000 -0.066227 0.912306 0.404118
4.65999985 -12.81999969 -0.81000000 87 140 142 0.000000 0.000000 0.000000 0.000000 0.000000 0.000000 11.000000 0.044796 0.988956 0.141279
4.61000013 -12.84000015 -0.79000002 87 140 142 0.000000 0.000000 0.000000 0.000000 0.000000 0.000000 11.000000 -0.284479 0.911793 0.296150
4.61999989 -12.84000015 -0.76999998 87 140 142 0.000000 0.000000 0.000000 0.000000 0.000000 0.000000 11.000000 -0.065475 0.997147 0.037567
4.65000010 -12.81999969 -0.81000000 87 140 142 0.000000 0.000000 0.000000 0.000000 0.000000 0.000000 11.000000 -0.114092 0.894424 0.432422
4.65000010 -12.85000038 -0.87000000 87 140 142 0.000000 0.000000 0.000000 0.000000 0.000000 0.000000 11.000000 -0.143241 0.986112 0.084050
4.61999989 -12.84000015 -0.87000000 87 140 142 0.000000 0.000000 0.000000 0.000000 0.000000 0.000000 11.000000 -0.454766 0.812197 0.365409
4.61999989 -12.85000038 -0.86000001 87 140 142 0.000000 0.000000 0.000000 0.000000 0.000000 0.000000 11.000000 -0.557999 0.769047 0.311776
4.63000011 -12.85000038 -0.86000001 87 140 142 0.000000 0.000000 0.000000 0.000000 0.000000 0.000000 11.000000 -0.374557 0.887895 0.267114
4.63000011 -12.85000038 -0.86000001 87 140 142 0.000000 0.000000 0.000000 0.000000 0.000000 0.000000 11.000000 -0.374557 0.887895 0.267114
4.38000011 -12.81999969 -0.23000000 87 140 142 0.000000 0.000000 0.000000 0.000000 0.000000 0.000000 11.000000 0.979604 -0.189640 -0.066434
4.38999987 -12.82999992 -0.23999999 87 140 142 0.000000 0.000000 0.000000 0.000000 0.000000 0.000000 11.000000 0.927537 -0.198456 0.316686
4.71000004 -12.81000042 -0.93000001 87 140 142 0.000000 0.000000 0.000000 0.000000 0.000000 0.000000 11.000000 -0.047164 0.949647 0.309751
4.65999985 -12.81999969 -0.94999999 87 140 142 0.000000 0.000000 0.000000 0.000000 0.000000 0.000000 11.000000 -0.297767 0.907969 0.294833
4.69999981 -12.80000019 -0.99000001 87 140 142 0.000000 0.000000 0.000000 0.000000 0.000000 0.000000 11.000000 0.025317 0.993961 0.106771
4.69999981 -12.80000019 -1.02999997 87 140 142 0.000000 0.000000 0.000000 0.000000 0.000000 0.000000 11.000000 0.128324 0.981370 -0.142989
4.71999979 -12.81000042 -1.01999998 87 140 142 0.000000 0.000000 0.000000 0.000000 0.000000 0.000000 11.000000 0.103476 0.936656 -0.334616
4.69999981 -12.80000019 -1.02999997 87 140 142 0.000000 0.000000 0.000000 0.000000 0.000000 0.000000 11.000000 0.128324 0.981370 -0.142989
4.65999985 -12.80000019 -1.00000000 87 140 142 0.000000 0.000000 0.000000 0.000000 0.000000 0.000000 11.000000 -0.036109 0.959999 0.277665
4.69000006 -12.80000019 -1.00999999 87 140 142 0.000000 0.000000 0.000000 0.000000 0.000000 0.000000 11.000000 0.189041 0.980874 -0.046369
4.67000008 -12.80000019 -1.00000000 87 140 142 0.000000 0.000000 0.000000 0.000000 0.000000 0.000000 11.000000 -0.011722 0.913049 0.407681
4.67000008 -12.81000042 -0.97000003 87 140 142 0.000000 0.000000 0.000000 0.000000 0.000000 0.000000 11.000000 -0.006116 0.957775 0.287455
4.67000008 -12.80000019 -1.00000000 87 140 142 0.000000 0.000000 0.000000 0.000000 0.000000 0.000000 11.000000 -0.011722 0.913049 0.407681
4.65999985 -12.82999992 -1.01999998 87 140 142 0.000000 0.000000 0.000000 0.000000 0.000000 0.000000 11.000000 -0.422581 0.801779 0.422581
4.65999985 -12.85999966 -1.03999996 87 140 142 0.000000 0.000000 0.000000 0.000000 0.000000 0.000000 11.000000 0.710965 -0.643863 -0.282788
4.65999985 -12.82999992 -1.02999997 87 140 142 0.000000 0.000000 0.000000 0.000000 0.000000 0.000000 11.000000 -0.058414 0.990741 0.122554
4.63000011 -12.85999966 -0.91000003 87 140 142 0.000000 0.000000 0.000000 0.000000 0.000000 0.000000 11.000000 -0.269538 0.941309 0.203190
4.63999987 -12.82999992 -0.89999998 87 140 142 0.000000 0.000000 0.000000 0.000000 0.000000 0.000000 11.000000 -0.244051 0.938551 0.244051
4.61999989 -12.82999992 -0.89999998 87 140 142 0.000000 0.000000 0.000000 0.000000 0.000000 0.000000 11.000000 -0.383018 0.891736 0.241050
4.65000010 -12.84000015 -0.99000001 87 140 142 0.000000 0.000000 0.000000 0.000000 0.000000 0.000000 11.000000 -0.201667 0.916797 -0.344693
4.73000002 -12.81000042 -1.11000001 87 140 142 0.000000 0.000000 0.000000 0.000000 0.000000 0.000000 11.000000 0.141524 0.985908 -0.089196
4.71999979 -12.81000042 -1.11000001 87 140 142 0.000000 0.000000 0.000000 0.000000 0.000000 0.000000 11.000000 0.146869 0.985094 -0.089554
4.71999979 -12.81999969 -1.13000000 87 140 142 0.000000 0.000000 0.000000 0.000000 0.000000 0.000000 11.000000 0.126367 0.968810 -0.213164
4.67999983 -12.78999996 -1.10000002 87 140 142 0.000000 0.000000 0.000000 0.000000 0.000000 0.000000 11.000000 0.028728 0.955519 0.293526
4.67000008 -12.84000015 -1.08000004 87 140 142 0.000000 0.000000 0.000000 0.000000 0.000000 0.000000 11.000000 -0.398921 0.904316 0.151902
4.67999983 -12.82999992 -1.13999999 87 140 142 0.000000 0.000000 0.000000 0.000000 0.000000 0.000000 11.000000 -0.311924 0.848868 0.426762
4.69000006 -12.84000015 -1.10000002 87 140 142 0.000000 0.000000 0.000000 0.000000 0.000000 0.000000 11.000000 0.206644 0.962146 -0.177688
4.69000006 -12.84000015 -1.10000002 87 140 142 0.000000 0.000000 0.000000 0.000000 0.000000 0.000000 11.000000 0.206644 0.962146 -0.177688
4.65999985 -12.85999966 -1.12000000 87 140 142 0.000000 0.000000 0.000000 0.000000 0.000000 0.000000 11.000000 -0.302846 0.936195 -0.178389
4.73000002 -12.81999969 -1.14999998 87 140 142 0.000000 0.000000 0.000000 0.000000 0.000000 0.000000 11.000000 0.186104 0.982022 0.031603
4.63999987 -12.85999966 -1.09000003 87 140 142 0.000000 0.000000 0.000000 0.000000 0.000000 0.000000 11.000000 -0.444473 0.856870 0.261185
4.65000010 -12.85999966 -1.10000002 87 140 142 0.000000 0.000000 0.000000 0.000000 0.000000 0.000000 11.000000 -0.360581 0.927786 -0.095885
4.65000010 -12.81999969 -1.11000001 87 140 142 0.000000 0.000000 0.000000 0.000000 0.000000 0.000000 11.000000 -0.440847 0.833059 0.334165
5.09000015 -13.18000031 -0.58999997 87 140 142 0.000000 0.000000 0.000000 0.000000 0.000000 0.000000 10.000000 0.877960 -0.409715 -0.247630
5.09000015 -13.18000031 -0.60000002 87 140 142 0.000000 0.000000 0.000000 0.000000 0.000000 0.000000 10.000000 0.875895 -0.447484 -0.180461
5.09000015 -13.19999981 -0.61000001 87 140 142 0.000000 0.000000 0.000000 0.000000 0.000000 0.000000 10.000000 0.940337 -0.284992 -0.185865
5.13999987 -13.10999966 -0.76999998 87 140 142 0.000000 0.000000 0.000000 0.000000 0.000000 0.000000 10.000000 0.731555 -0.681770 -0.004149
5.15000010 -13.11999989 -0.76999998 87 140 142 0.000000 0.000000 0.000000 0.000000 0.000000 0.000000 10.000000 0.950920 -0.271500 -0.148456
5.15999985 -13.11999989 -0.82999998 87 140 142 0.000000 0.000000 0.000000 0.000000 0.000000 0.000000 10.000000 0.858963 -0.499263 -0.113665
5.13000011 -13.18000031 -0.85000002 87 140 142 0.000000 0.000000 0.000000 0.000000 0.000000 0.000000 10.000000 0.994381 -0.100209 0.034137
5.11000013 -13.22999954 -0.69999999 87 140 142 0.000000 0.000000 0.000000 0.000000 0.000000 0.000000 10.000000 -0.621660 0.782362 0.038061
5.11000013 -13.21000004 -0.73000002 87 140 142 0.000000 0.000000 0.000000 0.000000 0.000000 0.000000 10.000000 0.737880 -0.648905 -0.185621
5.01000023 -13.14000034 -0.28999999 87 140 142 0.000000 0.000000 0.000000 0.000000 0.000000 0.000000 10.000000 0.934923 -0.253705 -0.248098
5.01000023 -13.18000031 -0.30000001 87 140 142 0.000000 0.000000 0.000000 0.000000 0.000000 0.000000 10.000000 0.905798 -0.369566 -0.207247
5.00000000 -13.19999981 -0.30000001 87 140 142 0.000000 0.000000 0.000000 0.000000 0.000000 0.000000 10.000000 -0.676726 0.716443 0.169563
4.90999985 -13.06000042 -0.25000000 87 140 142 0.000000 0.000000 0.000000 0.000000 0.000000 0.000000 10.000000 0.873061 -0.472968 -0.118599
4.96999979 -13.15999985 -0.23999999 87 140 142 0.000000 0.000000 0.000000 0.000000 0.000000 0.000000 10.000000 0.687294 -0.674536 -0.269496
4.98000002 -13.17000008 -0.20999999 87 140 142 0.000000 0.000000 0.000000 0.000000 0.000000 0.000000 10.000000 -0.622596 0.742386 -0.247462
4.96000004 -13.18999958 -0.27000001 87 140 142 0.000000 0.000000 0.000000 0.000000 0.000000 0.000000 10.000000 -0.559997 0.828358 -0.015061
4.96000004 -13.19999981 -0.25999999 87 140 142 0.000000 0.000000 0.000000 0.000000 0.000000 0.000000 10.000000 -0.591296 0.781739 -0.198123
4.92999983 -13.18000031 -0.23999999 87 140 142 0.000000 0.000000 0.000000 0.000000 0.000000 0.000000 10.000000 0.711322 -0.693502 -0.114346
4.98999977 -13.15999985 -0.33000001 87 140 142 0.000000 0.000000 0.000000 0.000000 0.000000 0.000000 10.000000 0.863649 -0.417303 -0.282788
5.00000000 -13.05000019 -0.38999999 87 140 142 0.000000 0.000000 0.000000 0.000000 0.000000 0.000000 10.000000 0.810637 -0.565803 -0.150781
5.01000023 -13.10000038 -0.50999999 87 140 142 0.000000 0.000000 0.000000 0.000000 0.000000 0.000000 10.000000 0.799672 -0.510327 -0.316371
4.96000004 -13.09000015 -0.40000001 87 140 142 0.000000 0.000000 0.000000 0.000000 0.000000 0.000000 10.000000 0.805577 -0.589620 0.058252
4.96000004 -13.10000038 -0.40000001 87 140 142 0.000000 0.000000 0.000000 0.000000 0.000000 0.000000 10.000000 0.749107 -0.650814 0.123610
4.96000004 -13.09000015 -0.40000001 87 140 142 0.000000 0.000000 0.000000 0.000000 0.000000 0.000000 10.000000 0.805577 -0.589620 0.058252
4.90999985 -13.10999966 -0.40000001 87 140 142 0.000000 0.000000 0.000000 0.000000 0.000000 0.000000 10.000000 0.746919 -0.625291 -0.226103
4.96999979 -13.03999996 -0.46000001 87 140 142 0.000000 0.000000 0.000000 0.000000 0.000000 0.000000 10.000000 0.774915 -0.629351 0.058511
4.96000004 -13.14000034 -0.44999999 87 140 142 0.000000 0.000000 0.000000 0.000000 0.000000 0.000000 10.000000 -0.665896 0.745068 0.038172
4.96000004 -13.11999989 -0.47999999 87 140 142 0.000000 0.000000 0.000000 0.000000 0.000000 0.000000 10.000000 0.793488 -0.595485 -0.125599
4.96000004 -13.11999989 -0.50000000 87 140 142 0.000000 0.000000 0.000000 0.000000 0.000000 0.000000 10.000000 0.705614 -0.705614 0.064934
4.92000008 -13.14000034 -0.51999998 87 140 142 0.000000 0.000000 0.000000 0.000000 0.000000 0.000000 10.000000 0.909843 -0.336278 -0.243110
4.92999983 -13.13000011 -0.52999997 87 140 142 0.000000 0.000000 0.000000 0.000000 0.000000 0.000000 10.000000 -0.587388 0.761546 -0.273903
4.92999983 -13.14000034 -0.51999998 87 140 142 0.000000 0.000000 0.000000 0.000000 0.000000 0.000000 10.000000 -0.596463 0.799575 0.070088
4.75000000 -12.93999958 -0.38999999 87 140 142 0.000000 0.000000 0.000000 0.000000 0.000000 0.000000 11.000000 0.922593 -0.082399 0.376872
4.75000000 -12.93999958 -0.38999999 87 140 142 0.000000 0.000000 0.000000 0.000000 0.000000 0.000000 11.000000 0.922593 -0.082399 0.376872
4.76999998 -12.93999958 -0.41999999 87 140 142 0.000000 0.000000 0.000000 0.000000 0.000000 0.000000 11.000000 0.973737 -0.168410 0.153215
4.76000023 -12.96000004 -0.43000001 87 140 142 0.000000 0.000000 0.000000 0.000000 0.000000 0.000000 11.000000 0.959130 -0.272030 0.077905
4.76000023 -12.97000027 -0.41999999 87 140 142 0.000000 0.000000 0.000000 0.000000 0.000000 0.000000 11.000000 0.963176 0.239178 -0.122821
4.73999977 -13.00000000 -0.44999999 87 140 142 0.000000 0.000000 0.000000 0.000000 0.000000 0.000000 11.000000 0.775047 -0.537559 0.332163
4.73999977 -13.00000000 -0.46000001 87 140 142 0.000000 0.000000 0.000000 0.000000 0.000000 0.000000 11.000000 0.821485 -0.566980 0.060798
4.73999977 -13.00000000 -0.49000001 87 140 142 0.000000 0.000000 0.000000 0.000000 0.000000 0.000000 11.000000 0.876205 -0.481712 0.014760
4.73999977 -13.01000023 -0.50999999 87 140 142 0.000000 0.000000 0.000000 0.000000 0.000000 0.000000 11.000000 0.806826 -0.570316 0.154180
4.73999977 -13.01000023 -0.50999999 87 140 142 0.000000 0.000000 0.000000 0.000000 0.000000 0.000000 11.000000 0.806826 -0.570316 0.154180
4.73999977 -13.00000000 -0.52999997 87 140 142 0.000000 0.000000 0.000000 0.000000 0.000000 0.000000 11.000000 0.768522 -0.636857 0.061539
4.73999977 -13.00000000 -0.52999997 87 140 142 0.000000 0.000000 0.000000 0.000000 0.000000 0.000000 11.000000 0.768522 -0.636857 0.061539
4.90000010 -13.10999966 -0.23000000 87 140 142 0.000000 0.000000 0.000000 0.000000 0.000000 0.000000 10.000000 0.702580 -0.684050 0.196105
4.88000011 -13.09000015 -0.23999999 87 140 142 0.000000 0.000000 0.000000 0.000000 0.000000 0.000000 10.000000 0.859852 -0.424562 -0.283552
4.90000010 -13.17000008 -0.25000000 87 140 142 0.000000 0.000000 0.000000 0.000000 0.000000 0.000000 10.000000 -0.650495 0.756757 0.064619
4.84999990 -13.11999989 -0.20999999 87 140 142 0.000000 0.000000 0.000000 0.000000 0.000000 0.000000 10.000000 -0.671885 0.738067 0.061865
4.86000013 -13.18999958 -0.20000000 87 140 142 0.000000 0.000000 0.000000 0.000000 0.000000 0.000000 10.000000 -0.469163 0.877744 0.097214
4.86000013 -13.18999958 -0.20000000 87 140 142 0.000000 0.000000 0.000000 0.000000 0.000000 0.000000 10.000000 -0.469163 0.877744 0.097214
4.88999987 -13.11999989 -0.28999999 87 140 142 0.000000 0.000000 0.000000 0.000000 0.000000 0.000000 10.000000 0.745048 -0.640588 -0.185878
4.86000013 -13.14999962 -0.28999999 87 140 142 0.000000 0.000000 0.000000 0.000000 0.000000 0.000000 10.000000 -0.661745 0.674752 0.326808
5.03000021 -13.06999969 -0.55000001 87 140 142 0.000000 0.000000 0.000000 0.000000 0.000000 0.000000 10.000000 0.928082 -0.357373 -0.104630
5.03000021 -13.10000038 -0.63000000 87 140 142 0.000000 0.000000 0.000000 0.000000 0.000000 0.000000 10.000000 0.857691 -0.467149 -0.214798
5.07999992 -13.19999981 -0.55000001 87 140 142 0.000000 0.000000 0.000000 0.000000 0.000000 0.000000 10.000000 -0.627785 0.769590 0.116694
5.07999992 -13.18999958 -0.61000001 87 140 142 0.000000 0.000000 0.000000 0.000000 0.000000 0.000000 10.000000 0.879321 -0.449107 -0.158423
5.01000023 -13.15999985 -0.70999998 87 140 142 0.000000 0.000000 0.000000 0.000000 0.000000 0.000000 10.000000 0.933130 -0.332967 -0.135653
5.00000000 -13.17000008 -0.68000001 87 140 142 0.000000 0.000000 0.000000 0.000000 0.000000 0.000000 10.000000 0.979076 -0.200562 -0.034416
5.00000000 -13.18999958 -0.69999999 87 140 142 0.000000 0.000000 0.000000 0.000000 0.000000 0.000000 10.000000 0.964312 -0.231694 -0.128143
4.98000002 -13.06999969 -0.54000002 87 140 142 0.000000 0.000000 0.000000 0.000000 0.000000 0.000000 10.000000 0.935223 -0.313583 -0.164389
4.98000002 -13.10999966 -0.56999999 87 140 142 0.000000 0.000000 0.000000 0.000000 0.000000 0.000000 10.000000 0.871148 -0.428803 -0.239227
4.98000002 -13.10999966 -0.56999999 87 140 142 0.000000 0.000000 0.000000 0.000000 0.000000 0.000000 10.000000 0.871148 -0.428803 -0.239227
4.98000002 -13.13000011 -0.57999998 87 140 142 0.000000 0.000000 0.000000 0.000000 0.000000 0.000000 10.000000 -0.657713 0.738986 -0.145991
4.96999979 -13.13000011 -0.67000002 87 140 142 0.000000 0.000000 0.000000 0.000000 0.000000 0.000000 10.000000 0.726588 -0.683080 -0.073964
4.96999979 -13.17000008 -0.68000001 87 140 142 0.000000 0.000000 0.000000 0.000000 0.000000 0.000000 10.000000 -0.530774 0.847328 0.017738
5.01000023 -13.15999985 -0.72000003 87 140 142 0.000000 0.000000 0.000000 0.000000 0.000000 0.000000 10.000000 0.912791 -0.379507 -0.150956
5.03000021 -13.15999985 -0.75000000 87 140 142 0.000000 0.000000 0.000000 0.000000 0.000000 0.000000 10.000000 0.943964 -0.265189 -0.196487
5.01000023 -13.15999985 -0.77999997 87 140 142 0.000000 0.000000 0.000000 0.000000 0.000000 0.000000 10.000000 -0.629583 0.752729 0.192415
5.03000021 -13.17000008 -0.75000000 87 140 142 0.000000 0.000000 0.000000 0.000000 0.000000 0.000000 10.000000 0.877837 -0.382259 -0.288583
5.01999998 -13.19999981 -0.75999999 87 140 142 0.000000 0.000000 0.000000 0.000000 0.000000 0.000000 10.000000 0.821748 -0.524878 -0.221887
5.07000017 -13.14999962 -0.81999999 87 140 142 0.000000 0.000000 0.000000 0.000000 0.000000 0.000000 10.000000 0.818228 -0.518159 -0.249026
5.05999994 -13.15999985 -0.81999999 87 140 142 0.000000 0.000000 0.000000 0.000000 0.000000 0.000000 10.000000 0.768706 -0.532430 -0.354414
5.05000019 -13.14999962 -0.85000002 87 140 142 0.000000 0.000000 0.000000 0.000000 0.000000 0.000000 10.000000 -0.654979 0.752866 0.064778
5.01999998 -13.13000011 -0.82999998 87 140 142 0.000000 0.000000 0.000000 0.000000 0.000000 0.000000 10.000000 0.825143 -0.507424 -0.248314
5.03000021 -13.15999985 -0.80000001 87 140 142 0.000000 0.000000 0.000000 0.000000 0.000000 0.000000 10.000000 0.860564 -0.418777 -0.289923
5.01999998 -13.18000031 -0.81000000 87 140 142 0.000000 0.000000 0.000000 0.000000 0.000000 0.000000 10.000000 0.905594 -0.398235 -0.145972
4.78999996 -12.89999962 -0.62000000 87 140 142 0.000000 0.000000 0.000000 0.000000 0.000000 0.000000 11.000000 0.995648 0.093041 -0.005347
4.78999996 -12.88000011 -0.60000002 87 140 142 0.000000 0.000000 0.000000 0.000000 0.000000 0.000000 11.000000 0.986050 0.157908 0.052636
4.78999996 -12.92000008 -0.62000000 87 140 142 0.000000 0.000000 0.000000 0.000000 0.000000 0.000000 11.000000 0.995121 0.027249 0.094825
4.78999996 -12.90999985 -0.62000000 87 140 142 0.000000 0.000000 0.000000 0.000000 0.000000 0.000000 11.000000 0.999757 0.019091 0.011053
4.78000021 -12.90999985 -0.58999997 87 140 142 0.000000 0.000000 0.000000 0.000000 0.000000 0.000000 11.000000 0.954213 0.041597 0.296222
4.76000023 -12.88000011 -0.56000000 87 140 142 0.000000 0.000000 0.000000 0.000000 0.000000 0.000000 11.000000 0.882130 0.278014 0.380203
4.78999996 -12.89000034 -0.64999998 87 140 142 0.000000 0.000000 0.000000 0.000000 0.000000 0.000000 11.000000 0.978127 0.135471 -0.157843
4.80000019 -12.89999962 -0.63999999 87 140 142 0.000000 0.000000 0.000000 0.000000 0.000000 0.000000 11.000000 0.959294 0.165396 0.228907
4.78999996 -12.89000034 -0.64999998 87 140 142 0.000000 0.000000 0.000000 0.000000 0.000000 0.000000 11.000000 0.978127 0.135471 -0.157843
4.78999996 -12.89999962 -0.64999998 87 140 142 0.000000 0.000000 0.000000 0.000000 0.000000 0.000000 11.000000 0.974827 0.155115 -0.160159
4.80000019 -12.89999962 -0.64999998 87 140 142 0.000000 0.000000 0.000000 0.000000 0.000000 0.000000 11.000000 0.902627 0.308755 -0.299891
4.78999996 -12.89999962 -0.64999998 87 140 142 0.000000 0.000000 0.000000 0.000000 0.000000 0.000000 11.000000 0.974827 0.155115 -0.160159
4.78999996 -12.88000011 -0.69999999 87 140 142 0.000000 0.000000 0.000000 0.000000 0.000000 0.000000 11.000000 0.996033 0.085436 0.024874
4.78999996 -12.89000034 -0.69000000 87 140 142 0.000000 0.000000 0.000000 0.000000 0.000000 0.000000 11.000000 0.999721 -0.005014 0.023063
4.78999996 -12.89000034 -0.69000000 87 140 142 0.000000 0.000000 0.000000 0.000000 0.000000 0.000000 11.000000 0.999721 -0.005014 0.023063
4.78999996 -12.93000031 -0.66000003 87 140 142 0.000000 0.000000 0.000000 0.000000 0.000000 0.000000 11.000000 0.983855 0.177303 0.024336
4.78999996 -12.90999985 -0.63000000 87 140 142 0.000000 0.000000 0.000000 0.000000 0.000000 0.000000 11.000000 0.966810 0.151428 0.205787
4.78999996 -12.90999985 -0.66000003 87 140 142 0.000000 0.000000 0.000000 0.000000 0.000000 0.000000 11.000000 0.996992 -0.067757 -0.037643
4.80000019 -12.93000031 -0.63999999 87 140 142 0.000000 0.000000 0.000000 0.000000 0.000000 0.000000 11.000000 0.985825 -0.150300 0.074558
4.78999996 -12.93000031 -0.64999998 87 140 142 0.000000 0.000000 0.000000 0.000000 0.000000 0.000000 11.000000 0.990534 -0.072647 -0.116466
4.80999994 -12.92000008 -0.69999999 87 140 142 0.000000 0.000000 0.000000 0.000000 0.000000 0.000000 11.000000 0.984316 -0.176380 0.003414
4.78999996 -12.92000008 -0.68000001 87 140 142 0.000000 0.000000 0.000000 0.000000 0.000000 0.000000 11.000000 0.994329 0.014127 0.105410
4.78999996 -12.92000008 -0.67000002 87 140 142 0.000000 0.000000 0.000000 0.000000 0.000000 0.000000 11.000000 0.992817 -0.064527 0.100753
4.78999996 -12.93999958 -0.69999999 87 140 142 0.000000 0.000000 0.000000 0.000000 0.000000 0.000000 11.000000 0.945674 -0.271557 -0.178764
4.78999996 -12.93999958 -0.69000000 87 140 142 0.000000 0.000000 0.000000 0.000000 0.000000 0.000000 11.000000 0.976553 -0.170866 0.130955
4.80000019 -12.92000008 -0.69000000 87 140 142 0.000000 0.000000 0.000000 0.000000 0.000000 0.000000 11.000000 0.991666 0.069611 0.108410
4.78000021 -12.97000027 -0.58999997 87 140 142 0.000000 0.000000 0.000000 0.000000 0.000000 0.000000 11.000000 0.869176 -0.488474 -0.076980
4.76999998 -12.98999977 -0.56000000 87 140 142 0.000000 0.000000 0.000000 0.000000 0.000000 0.000000 11.000000 0.770289 -0.541936 0.336097
4.76999998 -12.97999954 -0.56999999 87 140 142 0.000000 0.000000 0.000000 0.000000 0.000000 0.000000 11.000000 0.935625 -0.350046 0.045545
4.76999998 -12.97000027 -0.58999997 87 140 142 0.000000 0.000000 0.000000 0.000000 0.000000 0.000000 11.000000 0.849952 -0.519653 -0.086846
4.76999998 -12.97999954 -0.58999997 87 140 142 0.000000 0.000000 0.000000 0.000000 0.000000 0.000000 11.000000 0.846839 -0.505730 -0.164622
4.73999977 -13.01000023 -0.56000000 87 140 142 0.000000 0.000000 0.000000 0.000000 0.000000 0.000000 11.000000 -0.667846 0.628073 -0.399382
4.76000023 -13.00000000 -0.55000001 87 140 142 0.000000 0.000000 0.000000 0.000000 0.000000 0.000000 11.000000 0.728106 -0.681785 0.070929
4.76999998 -13.00000000 -0.62000000 87 140 142 0.000000 0.000000 0.000000 0.000000 0.000000 0.000000 11.000000 0.767687 -0.627565 -0.129687
4.78999996 -12.96000004 -0.64999998 87 140 142 0.000000 0.000000 0.000000 0.000000 0.000000 0.000000 11.000000 0.896386 -0.410064 0.168342
4.78000021 -12.97000027 -0.66000003 87 140 142 0.000000 0.000000 0.000000 0.000000 0.000000 0.000000 11.000000 0.848436 -0.473723 0.236100
4.78999996 -12.97999954 -0.63999999 87 140 142 0.000000 0.000000 0.000000 0.000000 0.000000 0.000000 11.000000 0.988152 -0.151236 -0.026154
4.78000021 -12.97999954 -0.66000003 87 140 142 0.000000 0.000000 0.000000 0.000000 0.000000 0.000000 11.000000 0.904787 -0.402284 0.139741
4.78999996 -12.94999981 -0.64999998 87 140 142 0.000000 0.000000 0.000000 0.000000 0.000000 0.000000 11.000000 0.876480 -0.329629 0.350896
4.78000021 -12.97999954 -0.63000000 87 140 142 0.000000 0.000000 0.000000 0.000000 0.000000 0.000000 11.000000 0.890649 -0.452758 -0.041897
4.78000021 -12.97999954 -0.63000000 87 140 142 0.000000 0.000000 0.000000 0.000000 0.000000 0.000000 11.000000 0.890649 -0.452758 -0.041897
4.78000021 -12.96000004 -0.63999999 87 140 142 0.000000 0.000000 0.000000 0.000000 0.000000 0.000000 11.000000 0.944591 -0.305956 0.118909
4.76999998 -12.97999954 -0.64999998 87 140 142 0.000000 0.000000 0.000000 0.000000 0.000000 0.000000 11.000000 0.927359 -0.293972 -0.231485
4.76000023 -12.98999977 -0.63999999 87 140 142 0.000000 0.000000 0.000000 0.000000 0.000000 0.000000 11.000000 0.703657 -0.709343 -0.041224
4.76999998 -12.97999954 -0.63999999 87 140 142 0.000000 0.000000 0.000000 0.000000 0.000000 0.000000 11.000000 0.832168 -0.518028 -0.197848
4.76999998 -12.98999977 -0.66000003 87 140 142 0.000000 0.000000 0.000000 0.000000 0.000000 0.000000 11.000000 0.744666 -0.618718 0.250321
4.76999998 -12.97000027 -0.63000000 87 140 142 0.000000 0.000000 0.000000 0.000000 0.000000 0.000000 11.000000 0.903637 -0.371059 0.213904
4.76999998 -12.98999977 -0.68000001 87 140 142 0.000000 0.000000 0.000000 0.000000 0.000000 0.000000 11.000000 0.769207 -0.565359 -0.297809
4.75000000 -13.01000023 -0.63999999 87 140 142 0.000000 0.000000 0.000000 0.000000 0.000000 0.000000 11.000000 -0.696518 0.711181 0.095313
4.75000000 -13.00000000 -0.64999998 87 140 142 0.000000 0.000000 0.000000 0.000000 0.000000 0.000000 11.000000 -0.703126 0.665205 0.251229
4.76999998 -13.00000000 -0.67000002 87 140 142 0.000000 0.000000 0.000000 0.000000 0.000000 0.000000 11.000000 0.712607 -0.701451 0.012551
