//X Y Z R G B PointSourceId ScanDirectionFlag NumberOfReturns ReturnNumber GpsTime Intensity Classification Nx Ny Nz
-4.42000008 -18.25000000 0.67000002 79 192 120 97.000000 1.000000 4.000000 1.000000 0.000000 114.000000 99.000000 -0.213569 0.975096 -0.059799
-4.42000008 -18.25000000 0.67000002 79 192 120 97.000000 1.000000 4.000000 1.000000 0.000000 114.000000 99.000000 -0.213569 0.975096 -0.059799
-4.42999983 -18.27000046 0.68000001 79 192 120 97.000000 1.000000 4.000000 1.000000 0.000000 114.000000 99.000000 -0.409130 0.910817 0.054998
-4.44999981 -18.29999924 0.72000003 79 192 120 97.000000 1.000000 4.000000 1.000000 0.000000 114.000000 99.000000 0.880424 -0.460770 0.112002
-4.40000010 -18.25000000 0.64999998 79 192 120 97.000000 1.000000 4.000000 1.000000 0.000000 114.000000 99.000000 0.129733 0.973627 0.187672
-4.38999987 -18.26000023 0.66000003 79 192 120 97.000000 1.000000 4.000000 1.000000 0.000000 114.000000 99.000000 0.358109 0.931612 -0.062107
-4.40999985 -18.27000046 0.57999998 79 192 120 97.000000 1.000000 4.000000 1.000000 0.000000 114.000000 99.000000 -0.246194 0.938875 -0.240630
-4.40000010 -18.26000023 0.62000000 79 192 120 97.000000 1.000000 4.000000 1.000000 0.000000 114.000000 99.000000 -0.034351 0.945287 -0.324426
-4.40999985 -18.27000046 0.62000000 79 192 120 97.000000 1.000000 4.000000 1.000000 0.000000 114.000000 99.000000 -0.086900 0.953306 -0.289234
-4.40999985 -18.27000046 0.57999998 79 192 120 97.000000 1.000000 4.000000 1.000000 0.000000 114.000000 99.000000 -0.246194 0.938875 -0.240630
-4.40000010 -18.25000000 0.62000000 79 192 120 97.000000 1.000000 4.000000 1.000000 0.000000 114.000000 99.000000 0.194776 0.940727 -0.277660
-4.42000008 -18.25000000 0.66000003 79 192 120 97.000000 1.000000 4.000000 1.000000 0.000000 114.000000 99.000000 -0.047823 0.997905 0.043572
-4.42000008 -18.25000000 0.66000003 79 192 120 97.000000 1.000000 4.000000 1.000000 0.000000 114.000000 99.000000 -0.047823 0.997905 0.043572
-4.42000008 -18.26000023 0.62000000 79 192 120 97.000000 1.000000 4.000000 1.000000 0.000000 114.000000 99.000000 -0.314069 0.903871 0.290477
-4.38000011 -18.27000046 0.51999998 79 192 120 97.000000 1.000000 4.000000 1.000000 0.000000 114.000000 99.000000 0.064760 0.985536 -0.156603
-4.38999987 -18.26000023 0.54000002 79 192 120 97.000000 1.000000 4.000000 1.000000 0.000000 114.000000 99.000000 0.181417 0.964510 -0.191858
-4.44000006 -18.27000046 0.56999999 79 192 120 97.000000 1.000000 4.000000 1.000000 0.000000 114.000000 99.000000 -0.474335 0.878142 0.062231
-4.38999987 -18.25000000 0.50000000 79 192 120 97.000000 1.000000 4.000000 1.000000 0.000000 114.000000 99.000000 0.304353 0.951264 -0.049664
-4.38000011 -18.26000023 0.55000001 79 192 120 97.000000 1.000000 4.000000 1.000000 0.000000 114.000000 99.000000 0.130503 0.981822 0.137821
-4.38999987 -18.27000046 0.50000000 79 192 120 97.000000 1.000000 4.000000 1.000000 0.000000 114.000000 99.000000 0.037439 0.990444 -0.132740
-4.42000008 -18.28000069 0.57999998 79 192 120 97.000000 1.000000 4.000000 1.000000 0.000000 114.000000 99.000000 -0.482311 0.840599 -0.246514
-4.46000004 -18.29999924 0.51999998 79 192 120 97.000000 1.000000 4.000000 1.000000 0.000000 114.000000 99.000000 0.795964 -0.586105 0.151398
-4.46999979 -18.31999969 0.50000000 79 192 120 97.000000 1.000000 4.000000 1.000000 0.000000 114.000000 99.000000 0.905661 0.366612 -0.213011
-4.28000021 -18.28000069 0.37000000 79 192 120 97.000000 1.000000 4.000000 1.000000 0.000000 114.000000 99.000000 0.861936 0.499612 0.086335
-4.34000015 -18.20999908 0.44999999 79 192 120 97.000000 1.000000 4.000000 1.000000 0.000000 114.000000 99.000000 0.500585 0.767999 0.399490
-4.36999989 -18.27000046 0.44000000 79 192 120 97.000000 1.000000 4.000000 1.000000 0.000000 114.000000 99.000000 0.097536 0.983784 0.150518
-4.34000015 -18.26000023 0.43000001 79 192 120 97.000000 1.000000 4.000000 1.000000 0.000000 114.000000 99.000000 0.565243 0.818076 0.106074
-4.28999996 -18.26000023 0.38000000 79 192 120 97.000000 1.000000 4.000000 1.000000 0.000000 114.000000 99.000000 0.709319 0.553169 0.436887
-4.36000013 -18.26000023 0.38000000 79 192 120 97.000000 1.000000 4.000000 1.000000 0.000000 114.000000 99.000000 0.349127 0.900069 -0.260740
-4.34999990 -18.26000023 0.38000000 79 192 120 97.000000 1.000000 4.000000 1.000000 0.000000 114.000000 99.000000 0.487558 0.859449 0.153735
-4.32000017 -18.28000069 0.38999999 79 192 120 97.000000 1.000000 4.000000 1.000000 0.000000 114.000000 99.000000 0.728957 0.684525 0.006942
-4.28999996 -18.32999992 0.38999999 79 192 120 97.000000 1.000000 4.000000 1.000000 0.000000 114.000000 99.000000 0.949940 -0.095649 -0.297430
-4.30000019 -18.36000061 0.36000001 79 192 120 97.000000 1.000000 4.000000 1.000000 0.000000 114.000000 99.000000 0.745004 -0.626303 -0.229593
-4.28999996 -18.34000015 0.34999999 79 192 120 97.000000 1.000000 4.000000 1.000000 0.000000 114.000000 99.000000 0.910022 -0.224250 -0.348673
-4.28000021 -18.35000038 0.18000001 79 192 120 97.000000 1.000000 4.000000 1.000000 0.000000 114.000000 99.000000 -0.715531 0.692023 0.095502
-4.36999989 -18.25000000 0.19000000 79 192 120 97.000000 1.000000 4.000000 1.000000 0.000000 114.000000 99.000000 -0.056475 0.933805 -0.353296
-4.32000017 -18.28000069 0.22000000 79 192 120 97.000000 1.000000 4.000000 1.000000 0.000000 114.000000 99.000000 0.720120 0.561924 0.407024
-4.38000011 -18.27000046 0.44000000 79 192 120 97.000000 1.000000 4.000000 1.000000 0.000000 114.000000 99.000000 -0.177679 0.979070 0.099255
-4.38999987 -18.27000046 0.44000000 79 192 120 97.000000 1.000000 4.000000 1.000000 0.000000 114.000000 99.000000 -0.161153 0.973260 0.163690
-4.38000011 -18.27000046 0.41000000 79 192 120 97.000000 1.000000 4.000000 1.000000 0.000000 114.000000 99.000000 0.233353 0.969601 -0.073625
-4.38999987 -18.27000046 0.47000000 79 192 120 97.000000 1.000000 4.000000 1.000000 0.000000 114.000000 99.000000 -0.176061 0.978801 0.104652
-4.40999985 -18.27000046 0.43000001 79 192 120 97.000000 1.000000 4.000000 1.000000 0.000000 114.000000 99.000000 -0.253241 0.916008 -0.311124
-4.40000010 -18.26000023 0.41000000 79 192 120 97.000000 1.000000 4.000000 1.000000 0.000000 114.000000 99.000000 -0.089733 0.995707 -0.022703
-4.40999985 -18.27000046 0.38000000 79 192 120 97.000000 1.000000 4.000000 1.000000 0.000000 114.000000 99.000000 -0.369856 0.929088 -0.001271
-4.38000011 -18.26000023 0.40000001 79 192 120 97.000000 1.000000 4.000000 1.000000 0.000000 114.000000 99.000000 0.402313 0.896126 0.187359
-4.38999987 -18.25000000 0.38999999 79 192 120 97.000000 1.000000 4.000000 1.000000 0.000000 114.000000 99.000000 -0.086359 0.957688 -0.274546
-4.40999985 -18.27000046 0.38000000 79 192 120 97.000000 1.000000 4.000000 1.000000 0.000000 114.000000 99.000000 -0.369856 0.929088 -0.001271
-4.38000011 -18.27000046 0.34999999 79 192 120 97.000000 1.000000 4.000000 1.000000 0.000000 114.000000 99.000000 0.063242 0.982034 -0.177792
-4.38000011 -18.27000046 0.34999999 79 192 120 97.000000 1.000000 4.000000 1.000000 0.000000 114.000000 99.000000 0.063242 0.982034 -0.177792
-4.38999987 -18.27000046 0.34999999 79 192 120 97.000000 1.000000 4.000000 1.000000 0.000000 114.000000 99.000000 0.068287 0.969676 -0.234659
-4.38000011 -18.28000069 0.44999999 79 192 120 97.000000 1.000000 4.000000 1.000000 0.000000 114.000000 99.000000 0.115998 0.992176 -0.046174
-4.38000011 -18.28000069 0.44999999 79 192 120 97.000000 1.000000 4.000000 1.000000 0.000000 114.000000 99.000000 0.115998 0.992176 -0.046174
-4.40000010 -18.28000069 0.38999999 79 192 120 97.000000 1.000000 4.000000 1.000000 0.000000 114.000000 99.000000 -0.162089 0.981063 0.106028
-4.44000006 -18.30999947 0.38999999 79 192 120 97.000000 1.000000 4.000000 1.000000 0.000000 114.000000 99.000000 0.980260 0.163172 0.111644
-4.42999983 -18.36000061 0.38999999 79 192 120 97.000000 1.000000 4.000000 1.000000 0.000000 114.000000 99.000000 0.815719 0.545331 -0.192917
-4.46000004 -18.34000015 0.36000001 79 192 120 97.000000 1.000000 4.000000 1.000000 0.000000 114.000000 99.000000 0.842695 0.519147 -0.142655
-4.44999981 -18.27000046 0.17000000 79 192 120 97.000000 1.000000 4.000000 1.000000 0.000000 114.000000 99.000000 0.855735 -0.403882 -0.323415
-4.38999987 -18.28000069 0.31000000 79 192 120 97.000000 1.000000 4.000000 1.000000 0.000000 114.000000 99.000000 -0.147198 0.956127 -0.253287
-4.44999981 -18.36000061 0.31999999 79 192 120 97.000000 1.000000 4.000000 1.000000 0.000000 114.000000 99.000000 0.848828 0.528668 0.001345
-4.46000004 -18.29999924 0.27000001 79 192 120 97.000000 1.000000 4.000000 1.000000 0.000000 114.000000 99.000000 0.970093 0.239784 0.037733
-4.48000002 -18.36000061 0.27000001 79 192 120 97.000000 1.000000 4.000000 1.000000 0.000000 114.000000 99.000000 0.839617 0.436226 0.323651
-4.46000004 -18.36000061 0.23000000 79 192 120 97.000000 1.000000 4.000000 1.000000 0.000000 114.000000 99.000000 0.934457 0.334994 0.120706
-4.36999989 -18.26000023 0.01000000 79 192 120 97.000000 1.000000 4.000000 1.000000 0.000000 114.000000 99.000000 -0.335014 0.930594 0.147516
-4.30000019 -18.31999969 0.09000000 79 192 120 97.000000 1.000000 4.000000 1.000000 0.000000 114.000000 99.000000 0.898558 -0.437964 0.027955
-4.28999996 -18.30999947 0.06000000 79 192 120 97.000000 1.000000 4.000000 1.000000 0.000000 114.000000 99.000000 0.930803 -0.283902 0.230229
-4.28999996 -18.30999947 0.05000000 79 192 120 97.000000 1.000000 4.000000 1.000000 0.000000 114.000000 99.000000 0.985371 -0.169019 0.021846
-4.40999985 -18.23999977 0.14000000 79 192 120 97.000000 1.000000 4.000000 1.000000 0.000000 114.000000 99.000000 -0.530882 0.822942 0.202313
-4.44999981 -18.25000000 0.12000000 79 192 120 97.000000 1.000000 4.000000 1.000000 0.000000 114.000000 99.000000 -0.543559 0.814577 0.202502
-4.40000010 -18.25000000 0.06000000 79 192 120 97.000000 1.000000 4.000000 1.000000 0.000000 114.000000 99.000000 -0.219123 0.974554 -0.047214
-4.48999977 -18.25000000 0.06000000 79 192 120 97.000000 1.000000 4.000000 1.000000 0.000000 114.000000 99.000000 0.848383 -0.514831 -0.123269
-4.51000023 -18.29000092 -0.01000000 79 192 120 97.000000 1.000000 4.000000 1.000000 0.000000 114.000000 99.000000 0.971205 -0.169737 -0.167185
-4.40000010 -18.26000023 -0.07000000 79 192 120 97.000000 1.000000 4.000000 1.000000 0.000000 114.000000 99.000000 0.740450 -0.656000 -0.146280
-4.51000023 -18.29000092 -0.13000000 79 192 120 97.000000 1.000000 4.000000 1.000000 0.000000 114.000000 99.000000 0.986224 -0.012513 0.164939
-4.57000017 -18.36000061 -0.10000000 79 192 120 97.000000 1.000000 4.000000 1.000000 0.000000 114.000000 99.000000 0.806815 0.521688 0.277294
-4.55999994 -18.35000038 -0.19000000 79 192 120 97.000000 1.000000 4.000000 1.000000 0.000000 114.000000 99.000000 0.952158 0.214742 -0.217443
-4.57000017 -18.35000038 -0.19000000 79 192 120 97.000000 1.000000 4.000000 1.000000 0.000000 114.000000 99.000000 0.985948 0.122796 -0.113259
-4.57000017 -18.35000038 -0.19000000 79 192 120 97.000000 1.000000 4.000000 1.000000 0.000000 114.000000 99.000000 0.985948 0.122796 -0.113259
-4.30999994 -18.38999939 0.62000000 79 192 120 97.000000 1.000000 4.000000 1.000000 0.000000 114.000000 99.000000 -0.654460 0.680443 0.329666
-4.30000019 -18.37999916 0.61000001 79 192 120 97.000000 1.000000 4.000000 1.000000 0.000000 114.000000 99.000000 0.820208 -0.510111 -0.258932
-4.30000019 -18.37999916 0.61000001 79 192 120 97.000000 1.000000 4.000000 1.000000 0.000000 114.000000 99.000000 0.820208 -0.510111 -0.258932
-4.30999994 -18.38999939 0.62000000 79 192 120 97.000000 1.000000 4.000000 1.000000 0.000000 114.000000 99.000000 -0.654460 0.680443 0.329666
-4.30000019 -18.37999916 0.54000002 79 192 120 97.000000 1.000000 4.000000 1.000000 0.000000 114.000000 99.000000 0.645644 -0.700387 -0.304306
-4.32999992 -18.39999962 0.50000000 79 192 120 97.000000 1.000000 4.000000 1.000000 0.000000 114.000000 99.000000 0.769352 -0.583701 -0.259597
-4.32999992 -18.40999985 0.50000000 79 192 120 97.000000 1.000000 4.000000 1.000000 0.000000 114.000000 99.000000 -0.528459 0.809056 0.257214
-4.46000004 -18.39999962 0.54000002 79 192 120 97.000000 1.000000 4.000000 1.000000 0.000000 114.000000 99.000000 0.430554 0.794993 0.427329
-4.32000017 -18.39999962 0.47000000 79 192 120 97.000000 1.000000 4.000000 1.000000 0.000000 114.000000 99.000000 -0.676349 0.692188 0.251849
-4.34999990 -18.40999985 0.46000001 79 192 120 97.000000 1.000000 4.000000 1.000000 0.000000 114.000000 99.000000 -0.280408 0.874569 -0.395602
-4.36999989 -18.44000053 0.44000000 79 192 120 97.000000 1.000000 4.000000 1.000000 0.000000 114.000000 99.000000 0.074519 0.963695 0.256396
-4.36999989 -18.43000031 0.43000001 79 192 120 97.000000 1.000000 4.000000 1.000000 0.000000 114.000000 99.000000 -0.001020 0.999036 0.043880
-4.30000019 -18.37000084 0.34000000 79 192 120 97.000000 1.000000 4.000000 1.000000 0.000000 114.000000 99.000000 -0.588634 0.804515 -0.079156
-4.36999989 -18.42000008 0.36000001 79 192 120 97.000000 1.000000 4.000000 1.000000 0.000000 114.000000 99.000000 -0.045513 0.998111 -0.041279
-4.36000013 -18.45000076 0.38999999 79 192 120 97.000000 1.000000 4.000000 1.000000 0.000000 114.000000 99.000000 -0.063378 0.912917 -0.403194
-4.30999994 -18.37999916 0.23000000 79 192 120 97.000000 1.000000 4.000000 1.000000 0.000000 114.000000 99.000000 -0.623917 0.778821 -0.064543
-4.30999994 -18.37999916 0.22000000 79 192 120 97.000000 1.000000 4.000000 1.000000 0.000000 114.000000 99.000000 -0.508355 0.853979 -0.110888
-4.32999992 -18.37999916 0.16000000 79 192 120 97.000000 1.000000 4.000000 1.000000 0.000000 114.000000 99.000000 -0.261029 0.965202 0.015783
-4.32999992 -18.38999939 0.15000001 79 192 120 97.000000 1.000000 4.000000 1.000000 0.000000 114.000000 99.000000 -0.334572 0.928748 -0.159650
-4.36000013 -18.43000031 0.22000000 79 192 120 97.000000 1.000000 4.000000 1.000000 0.000000 114.000000 99.000000 -0.013293 0.965565 -0.259820
-4.34999990 -18.43000031 0.23000000 79 192 120 97.000000 1.000000 4.000000 1.000000 0.000000 114.000000 99.000000 0.003811 0.931161 -0.364588
-4.32999992 -18.40999985 0.15000001 79 192 120 97.000000 1.000000 4.000000 1.000000 0.000000 114.000000 99.000000 -0.114930 0.986976 0.112560
-4.34999990 -18.43000031 0.17000000 79 192 120 97.000000 1.000000 4.000000 1.000000 0.000000 114.000000 99.000000 -0.188470 0.972708 -0.135344
-4.36000013 -18.45999908 0.19000000 79 192 120 97.000000 1.000000 4.000000 1.000000 0.000000 114.000000 99.000000 0.001120 0.987081 -0.160219
-4.40000010 -18.44000053 0.43000001 79 192 120 97.000000 1.000000 4.000000 1.000000 0.000000 114.000000 99.000000 0.208592 0.973012 0.098675
-4.38999987 -18.43000031 0.41000000 79 192 120 97.000000 1.000000 4.000000 1.000000 0.000000 114.000000 99.000000 0.178740 0.908000 -0.378929
-4.38999987 -18.44000053 0.43000001 79 192 120 97.000000 1.000000 4.000000 1.000000 0.000000 114.000000 99.000000 -0.233005 0.913206 0.334311
-4.42999983 -18.40999985 0.44999999 79 192 120 97.000000 1.000000 4.000000 1.000000 0.000000 114.000000 99.000000 0.425530 0.897406 -0.116564
-4.44000006 -18.40999985 0.46000001 79 192 120 97.000000 1.000000 4.000000 1.000000 0.000000 114.000000 99.000000 0.320375 0.885921 0.335416
-4.44999981 -18.43000031 0.41999999 79 192 120 97.000000 1.000000 4.000000 1.000000 0.000000 114.000000 99.000000 0.339231 0.856597 0.388799
-4.44999981 -18.44000053 0.44000000 79 192 120 97.000000 1.000000 4.000000 1.000000 0.000000 114.000000 99.000000 0.465237 0.807370 0.362917
-4.44999981 -18.43000031 0.43000001 79 192 120 97.000000 1.000000 4.000000 1.000000 0.000000 114.000000 99.000000 0.459520 0.873818 0.159009
-4.38999987 -18.44000053 0.34999999 79 192 120 97.000000 1.000000 4.000000 1.000000 0.000000 114.000000 99.000000 0.043126 0.967251 0.250130
-4.38000011 -18.43000031 0.34000000 79 192 120 97.000000 1.000000 4.000000 1.000000 0.000000 114.000000 99.000000 -0.121536 0.957913 0.260061
-4.40000010 -18.43000031 0.34000000 79 192 120 97.000000 1.000000 4.000000 1.000000 0.000000 114.000000 99.000000 0.187685 0.935644 0.298906
-4.42000008 -18.43000031 0.37000000 79 192 120 97.000000 1.000000 4.000000 1.000000 0.000000 114.000000 99.000000 0.167272 0.980433 0.103782
-4.44000006 -18.43000031 0.34999999 79 192 120 97.000000 1.000000 4.000000 1.000000 0.000000 114.000000 99.000000 0.352307 0.855158 0.380243
-4.42000008 -18.43000031 0.36000001 79 192 120 97.000000 1.000000 4.000000 1.000000 0.000000 114.000000 99.000000 0.060303 0.950736 0.304081
-4.42000008 -18.43000031 0.33000001 79 192 120 97.000000 1.000000 4.000000 1.000000 0.000000 114.000000 99.000000 0.320985 0.944762 0.066276
-4.42000008 -18.43000031 0.34000000 79 192 120 97.000000 1.000000 4.000000 1.000000 0.000000 114.000000 99.000000 0.189332 0.929828 -0.315553
-4.42000008 -18.43000031 0.34999999 79 192 120 97.000000 1.000000 4.000000 1.000000 0.000000 114.000000 99.000000 0.207386 0.967370 0.145556
-4.46000004 -18.44000053 0.47999999 79 192 120 97.000000 1.000000 4.000000 1.000000 0.000000 114.000000 99.000000 0.304017 0.891083 0.336964
-4.46000004 -18.42000008 0.41999999 79 192 120 97.000000 1.000000 4.000000 1.000000 0.000000 114.000000 99.000000 0.550251 0.781769 0.293362
-4.42000008 -18.43000031 0.31000000 79 192 120 97.000000 1.000000 4.000000 1.000000 0.000000 114.000000 99.000000 0.268494 0.894486 0.357498
-4.42999983 -18.42000008 0.31000000 79 192 120 97.000000 1.000000 4.000000 1.000000 0.000000 114.000000 99.000000 0.502637 0.796240 0.336687
-4.42000008 -18.42000008 0.31000000 79 192 120 97.000000 1.000000 4.000000 1.000000 0.000000 114.000000 99.000000 0.166651 0.907320 0.386003
-4.48000002 -18.37000084 0.31999999 79 192 120 97.000000 1.000000 4.000000 1.000000 0.000000 114.000000 99.000000 0.675051 0.625536 0.391166
-4.50000000 -18.40999985 0.15000001 79 192 120 97.000000 1.000000 4.000000 1.000000 0.000000 114.000000 99.000000 0.590565 0.699745 0.401981
-4.32999992 -18.37999916 0.09000000 79 192 120 97.000000 1.000000 4.000000 1.000000 0.000000 114.000000 99.000000 -0.565359 0.769207 0.297809
-4.34000015 -18.40999985 0.13000000 79 192 120 97.000000 1.000000 4.000000 1.000000 0.000000 114.000000 99.000000 -0.286244 0.905706 -0.312667
-4.34000015 -18.43000031 0.10000000 79 192 120 97.000000 1.000000 4.000000 1.000000 0.000000 114.000000 99.000000 0.085394 0.982628 0.164774
-4.34999990 -18.40999985 0.10000000 79 192 120 97.000000 1.000000 4.000000 1.000000 0.000000 114.000000 99.000000 -0.398582 0.917125 0.003870
-4.34000015 -18.40999985 0.09000000 79 192 120 97.000000 1.000000 4.000000 1.000000 0.000000 114.000000 99.000000 -0.245120 0.966652 0.074164
-4.32999992 -18.37000084 0.02000000 79 192 120 97.000000 1.000000 4.000000 1.000000 0.000000 114.000000 99.000000 -0.211432 0.941079 -0.263944
-4.32999992 -18.37000084 0.02000000 79 192 120 97.000000 1.000000 4.000000 1.000000 0.000000 114.000000 99.000000 -0.211432 0.941079 -0.263944
-4.34000015 -18.43000031 0.05000000 79 192 120 97.000000 1.000000 4.000000 1.000000 0.000000 114.000000 99.000000 -0.304249 0.940034 -0.154171
-4.32999992 -18.37000084 -0.04000000 79 192 120 97.000000 1.000000 4.000000 1.000000 0.000000 114.000000 99.000000 -0.531293 0.814650 0.232537
-4.44000006 -18.46999931 0.02000000 79 192 120 97.000000 1.000000 4.000000 1.000000 0.000000 114.000000 99.000000 0.414773 0.861688 0.292331
-4.48000002 -18.38999939 0.10000000 79 192 120 97.000000 1.000000 4.000000 1.000000 0.000000 114.000000 99.000000 0.971655 0.216898 -0.094031
-4.46999979 -18.44000053 0.03000000 79 192 120 97.000000 1.000000 4.000000 1.000000 0.000000 114.000000 99.000000 0.425201 0.845730 0.322405
-4.50000000 -18.43000031 -0.05000000 79 192 120 97.000000 1.000000 4.000000 1.000000 0.000000 114.000000 99.000000 0.517788 0.830587 0.204989
-4.53000021 -18.51000023 -0.15000001 79 192 120 97.000000 1.000000 4.000000 1.000000 0.000000 114.000000 99.000000 0.430697 0.856795 0.283555
-4.50000000 -18.51000023 -0.19000000 79 192 120 97.000000 1.000000 4.000000 1.000000 0.000000 114.000000 99.000000 0.347189 0.899736 0.264454
-4.57000017 -18.38999939 -0.09000000 79 192 120 97.000000 1.000000 4.000000 1.000000 0.000000 114.000000 99.000000 0.772024 0.471702 0.426001
-4.09999990 -18.47999954 -0.83999997 79 192 120 97.000000 1.000000 4.000000 1.000000 0.000000 114.000000 99.000000 0.727331 -0.684462 0.050013
-4.13000011 -18.38999939 -0.85000002 79 192 120 97.000000 1.000000 4.000000 1.000000 0.000000 114.000000 99.000000 0.841231 -0.374403 0.390068
-4.17999983 -18.39999962 -0.80000001 79 192 120 97.000000 1.000000 4.000000 1.000000 0.000000 114.000000 99.000000 0.847328 -0.530774 0.017738
-4.15999985 -18.50000000 -0.76999998 79 192 120 97.000000 1.000000 4.000000 1.000000 0.000000 114.000000 99.000000 -0.203303 0.978912 0.019978
-4.09999990 -18.62000084 -0.86000001 79 192 120 97.000000 1.000000 4.000000 1.000000 0.000000 114.000000 99.000000 -0.608100 0.791245 0.064387
-4.13999987 -18.60000038 -0.81000000 79 192 120 97.000000 1.000000 4.000000 1.000000 0.000000 114.000000 99.000000 -0.534294 0.800658 -0.271064
-4.13999987 -18.62999916 -0.85000002 79 192 120 97.000000 1.000000 4.000000 1.000000 0.000000 114.000000 99.000000 -0.296477 0.895390 -0.332233
-4.15999985 -18.63999939 -0.81999999 79 192 120 97.000000 1.000000 4.000000 1.000000 0.000000 114.000000 99.000000 -0.590642 0.778784 0.211274
-4.19000006 -18.64999962 -0.81000000 79 192 120 97.000000 1.000000 4.000000 1.000000 0.000000 114.000000 99.000000 -0.357581 0.933324 -0.032273
-4.00000000 -18.68000031 -1.11000001 79 192 120 97.000000 1.000000 4.000000 1.000000 0.000000 114.000000 99.000000 -0.683739 0.716799 -0.136748
-4.05999994 -18.52000046 -0.98000002 79 192 120 97.000000 1.000000 4.000000 1.000000 0.000000 114.000000 99.000000 0.876686 -0.434634 -0.206192
-4.19000006 -18.40999985 -0.89999998 79 192 120 97.000000 1.000000 4.000000 1.000000 0.000000 114.000000 99.000000 0.863944 -0.503176 0.020344
-4.11999989 -18.69000053 -0.88999999 79 192 120 97.000000 1.000000 4.000000 1.000000 0.000000 114.000000 99.000000 -0.443953 0.795887 -0.411666
-4.01000023 -18.76000023 -1.13000000 79 192 120 97.000000 1.000000 4.000000 1.000000 0.000000 114.000000 99.000000 -0.203908 0.975050 -0.087742
-4.07000017 -18.76000023 -1.02999997 79 192 120 97.000000 1.000000 4.000000 1.000000 0.000000 114.000000 99.000000 -0.268398 0.960380 -0.075050
-4.03999996 -18.76000023 -1.02999997 79 192 120 97.000000 1.000000 4.000000 1.000000 0.000000 114.000000 99.000000 -0.182201 0.982959 -0.024371
-4.03999996 -18.76000023 -1.03999996 79 192 120 97.000000 1.000000 4.000000 1.000000 0.000000 114.000000 99.000000 -0.320695 0.946995 -0.018864
-4.07999992 -18.76000023 -1.02999997 79 192 120 97.000000 1.000000 4.000000 1.000000 0.000000 114.000000 99.000000 -0.288786 0.946949 -0.141035
-4.09000015 -18.81999969 -1.02999997 79 192 120 97.000000 1.000000 4.000000 1.000000 0.000000 114.000000 99.000000 -0.030249 0.991493 -0.126597
-4.07999992 -18.81999969 -1.03999996 79 192 120 97.000000 1.000000 4.000000 1.000000 0.000000 114.000000 99.000000 0.001044 0.997400 -0.072063
-4.11000013 -18.81999969 -1.01999998 79 192 120 97.000000 1.000000 4.000000 1.000000 0.000000 114.000000 99.000000 -0.109056 0.988542 -0.104366
-4.13000011 -18.70999908 -0.92000002 79 192 120 97.000000 1.000000 4.000000 1.000000 0.000000 114.000000 99.000000 -0.381989 0.885315 -0.265145
-4.15999985 -18.81999969 -1.08000004 79 192 120 97.000000 1.000000 4.000000 1.000000 0.000000 114.000000 99.000000 0.179780 0.980949 0.073601
-4.03000021 -18.76000023 -1.07000005 79 192 120 97.000000 1.000000 4.000000 1.000000 0.000000 114.000000 99.000000 -0.390491 0.873667 -0.290210
-4.05000019 -18.76000023 -1.05999994 79 192 120 97.000000 1.000000 4.000000 1.000000 0.000000 114.000000 99.000000 -0.154417 0.975463 0.156928
-4.32000017 -18.31999969 -0.34999999 79 192 120 97.000000 1.000000 4.000000 1.000000 0.000000 114.000000 99.000000 -0.472747 0.876755 0.088377
-4.36999989 -18.34000015 -0.28999999 79 192 120 97.000000 1.000000 4.000000 1.000000 0.000000 114.000000 99.000000 0.961390 0.245876 0.123589
-4.32999992 -18.31999969 -0.28999999 79 192 120 97.000000 1.000000 4.000000 1.000000 0.000000 114.000000 99.000000 -0.186975 0.976974 0.102774
-4.32000017 -18.35000038 -0.38000000 79 192 120 97.000000 1.000000 4.000000 1.000000 0.000000 114.000000 99.000000 -0.491081 0.844659 0.213053
-4.36000013 -18.35000038 -0.38000000 79 192 120 97.000000 1.000000 4.000000 1.000000 0.000000 114.000000 99.000000 0.786199 0.583111 -0.204627
-4.36000013 -18.35000038 -0.38999999 79 192 120 97.000000 1.000000 4.000000 1.000000 0.000000 114.000000 99.000000 0.805706 0.587404 0.076118
-4.36000013 -18.34000015 -0.47000000 79 192 120 97.000000 1.000000 4.000000 1.000000 0.000000 114.000000 99.000000 0.630464 0.774975 -0.043920
-4.36000013 -18.31999969 -0.47000000 79 192 120 97.000000 1.000000 4.000000 1.000000 0.000000 114.000000 99.000000 0.856769 0.510685 0.071749
-4.38999987 -18.29000092 -0.23999999 79 192 120 97.000000 1.000000 4.000000 1.000000 0.000000 114.000000 99.000000 0.937912 -0.346482 0.016499
-4.40999985 -18.31999969 -0.25000000 79 192 120 97.000000 1.000000 4.000000 1.000000 0.000000 114.000000 99.000000 0.924375 0.223616 0.309074
-4.51999998 -18.29000092 -0.20999999 79 192 120 97.000000 1.000000 4.000000 1.000000 0.000000 114.000000 99.000000 0.994740 0.091839 0.045366
-4.42999983 -18.32999992 -0.46000001 79 192 120 97.000000 1.000000 4.000000 1.000000 0.000000 114.000000 99.000000 0.859748 0.435219 0.267240
-4.48999977 -18.32999992 -0.44000000 79 192 120 97.000000 1.000000 4.000000 1.000000 0.000000 114.000000 99.000000 0.985898 0.115918 -0.120698
-4.36000013 -18.34000015 -0.63000000 79 192 120 97.000000 1.000000 4.000000 1.000000 0.000000 114.000000 99.000000 0.882240 0.453274 0.127260
-4.36999989 -18.31999969 -0.69999999 79 192 120 97.000000 1.000000 4.000000 1.000000 0.000000 114.000000 99.000000 0.972258 -0.231259 0.035113
-4.34999990 -18.36000061 -0.74000001 79 192 120 97.000000 1.000000 4.000000 1.000000 0.000000 114.000000 99.000000 0.642514 0.748840 -0.162527
-4.42000008 -18.31999969 -0.67000002 79 192 120 97.000000 1.000000 4.000000 1.000000 0.000000 114.000000 99.000000 0.990635 0.126537 0.051299
-4.40999985 -18.34000015 -0.75999999 79 192 120 97.000000 1.000000 4.000000 1.000000 0.000000 114.000000 99.000000 0.956976 0.062273 0.283407
-4.44000006 -18.36000061 -0.73000002 79 192 120 97.000000 1.000000 4.000000 1.000000 0.000000 114.000000 99.000000 0.871158 0.483977 0.082767
-4.44000006 -18.36000061 -0.77999997 79 192 120 97.000000 1.000000 4.000000 1.000000 0.000000 114.000000 99.000000 0.859787 0.505178 -0.074581
-4.59999990 -18.35000038 -0.23999999 79 192 120 97.000000 1.000000 4.000000 1.000000 0.000000 114.000000 99.000000 0.864797 0.317963 0.388621
-4.59000015 -18.36000061 -0.38999999 79 192 120 97.000000 1.000000 4.000000 1.000000 0.000000 114.000000 99.000000 0.992283 0.057704 -0.109751
-4.55000019 -18.35000038 -0.43000001 79 192 120 97.000000 1.000000 4.000000 1.000000 0.000000 114.000000 99.000000 0.962891 0.208299 0.171617
-4.55999994 -18.32999992 -0.38999999 79 192 120 97.000000 1.000000 4.000000 1.000000 0.000000 114.000000 99.000000 0.991753 0.083504 -0.097231
-4.32999992 -18.40999985 -0.23000000 79 192 120 97.000000 1.000000 4.000000 1.000000 0.000000 114.000000 99.000000 -0.194785 0.980840 -0.003458
-4.32999992 -18.39999962 -0.36000001 79 192 120 97.000000 1.000000 4.000000 1.000000 0.000000 114.000000 99.000000 -0.184786 0.974213 0.129476
-4.30000019 -18.37000084 -0.38000000 79 192 120 97.000000 1.000000 4.000000 1.000000 0.000000 114.000000 99.000000 -0.206287 0.946733 0.247271
-4.40000010 -18.50000000 -0.20999999 79 192 120 97.000000 1.000000 4.000000 1.000000 0.000000 114.000000 99.000000 0.194226 0.932005 0.306011
-4.48999977 -18.53000069 -0.25000000 79 192 120 97.000000 1.000000 4.000000 1.000000 0.000000 114.000000 99.000000 0.525247 0.720765 0.452342
-4.48999977 -18.53000069 -0.25000000 79 192 120 97.000000 1.000000 4.000000 1.000000 0.000000 114.000000 99.000000 0.525247 0.720765 0.452342
-4.53999996 -18.44000053 -0.50999999 79 192 120 97.000000 1.000000 4.000000 1.000000 0.000000 114.000000 99.000000 0.921134 0.383694 -0.065509
-4.53999996 -18.44000053 -0.49000001 79 192 120 97.000000 1.000000 4.000000 1.000000 0.000000 114.000000 99.000000 0.900895 0.387341 0.195847
-4.51000023 -18.50000000 -0.38999999 79 192 120 97.000000 1.000000 4.000000 1.000000 0.000000 114.000000 99.000000 0.587470 0.680666 0.437690
-4.51999998 -18.47999954 -0.47000000 79 192 120 97.000000 1.000000 4.000000 1.000000 0.000000 114.000000 99.000000 0.734844 0.648210 -0.199568
-4.51000023 -18.50000000 -0.47999999 79 192 120 97.000000 1.000000 4.000000 1.000000 0.000000 114.000000 99.000000 0.694468 0.591706 0.409388
-4.32999992 -18.37000084 -0.81000000 79 192 120 97.000000 1.000000 4.000000 1.000000 0.000000 114.000000 99.000000 0.598658 0.762071 -0.246691
-4.34999990 -18.56999969 -0.64999998 79 192 120 97.000000 1.000000 4.000000 1.000000 0.000000 114.000000 99.000000 0.527995 0.828847 0.185024
-4.32999992 -18.61000061 -0.69000000 79 192 120 97.000000 1.000000 4.000000 1.000000 0.000000 114.000000 99.000000 0.333030 0.937566 -0.100310
-4.34000015 -18.60000038 -0.74000001 79 192 120 97.000000 1.000000 4.000000 1.000000 0.000000 114.000000 99.000000 0.451424 0.878171 0.158216
-4.30999994 -18.64999962 -0.81000000 79 192 120 97.000000 1.000000 4.000000 1.000000 0.000000 114.000000 99.000000 0.359740 0.927179 0.104528
-4.53000021 -18.39999962 -0.57999998 79 192 120 97.000000 1.000000 4.000000 1.000000 0.000000 114.000000 99.000000 0.998380 0.028345 -0.049342
-4.51000023 -18.38999939 -0.63999999 79 192 120 97.000000 1.000000 4.000000 1.000000 0.000000 114.000000 99.000000 0.999776 0.002996 0.020974
-4.50000000 -18.40999985 -0.68000001 79 192 120 97.000000 1.000000 4.000000 1.000000 0.000000 114.000000 99.000000 0.978930 0.161715 0.124681
-4.51999998 -18.44000053 -0.69000000 79 192 120 97.000000 1.000000 4.000000 1.000000 0.000000 114.000000 99.000000 0.887773 0.350002 -0.298929
-4.53000021 -18.45999908 -0.54000002 79 192 120 97.000000 1.000000 4.000000 1.000000 0.000000 114.000000 99.000000 0.706473 0.618368 0.344263
-4.46999979 -18.53000069 -0.69000000 79 192 120 97.000000 1.000000 4.000000 1.000000 0.000000 114.000000 99.000000 0.445690 0.829960 -0.335449
-4.42999983 -18.37000084 -0.77999997 79 192 120 97.000000 1.000000 4.000000 1.000000 0.000000 114.000000 99.000000 0.877978 0.465314 0.112415
-4.44000006 -18.51000023 -0.79000002 79 192 120 97.000000 1.000000 4.000000 1.000000 0.000000 114.000000 99.000000 0.728430 0.675021 0.117202
-4.38999987 -18.50000000 -0.81000000 79 192 120 97.000000 1.000000 4.000000 1.000000 0.000000 114.000000 99.000000 0.340657 0.937792 -0.067079
-4.42999983 -18.48999977 -0.81000000 79 192 120 97.000000 1.000000 4.000000 1.000000 0.000000 114.000000 99.000000 0.608633 0.791081 -0.061291
-4.42999983 -18.48999977 -0.81000000 79 192 120 97.000000 1.000000 4.000000 1.000000 0.000000 114.000000 99.000000 0.608633 0.791081 -0.061291
-4.46000004 -18.38999939 -0.73000002 79 192 120 97.000000 1.000000 4.000000 1.000000 0.000000 114.000000 99.000000 0.962327 0.260604 -0.077545
-4.46000004 -18.45999908 -0.77999997 79 192 120 97.000000 1.000000 4.000000 1.000000 0.000000 114.000000 99.000000 0.876724 0.431687 -0.212135
-4.48000002 -18.48999977 -0.75999999 79 192 120 97.000000 1.000000 4.000000 1.000000 0.000000 114.000000 99.000000 0.930027 0.364947 -0.043166
-4.46999979 -18.48999977 -0.77999997 79 192 120 97.000000 1.000000 4.000000 1.000000 0.000000 114.000000 99.000000 0.684045 0.727066 0.058796
-4.46000004 -18.45999908 -0.77999997 79 192 120 97.000000 1.000000 4.000000 1.000000 0.000000 114.000000 99.000000 0.876724 0.431687 -0.212135
-4.46000004 -18.54999924 -0.69999999 79 192 120 97.000000 1.000000 4.000000 1.000000 0.000000 114.000000 99.000000 0.314120 0.919412 -0.236666
-4.44000006 -18.56999969 -0.74000001 79 192 120 97.000000 1.000000 4.000000 1.000000 0.000000 114.000000 99.000000 0.497166 0.789995 -0.358796
-4.61000013 -18.43000031 -0.25999999 79 192 120 97.000000 1.000000 4.000000 1.000000 0.000000 114.000000 99.000000 0.895390 0.332233 -0.296477
-4.57999992 -18.42000008 -0.30000001 79 192 120 97.000000 1.000000 4.000000 1.000000 0.000000 114.000000 99.000000 0.806019 0.509480 0.301271
-4.57999992 -18.43000031 -0.43000001 79 192 120 97.000000 1.000000 4.000000 1.000000 0.000000 114.000000 99.000000 0.932941 0.220258 -0.284793
-4.59000015 -18.40999985 -0.38000000 79 192 120 97.000000 1.000000 4.000000 1.000000 0.000000 114.000000 99.000000 0.887725 0.431593 0.160224
-4.57000017 -18.42000008 -0.46000001 79 192 120 97.000000 1.000000 4.000000 1.000000 0.000000 114.000000 99.000000 0.855560 0.473640 0.209003
-4.59000015 -18.38999939 -0.46000001 79 192 120 97.000000 1.000000 4.000000 1.000000 0.000000 114.000000 99.000000 0.942740 0.312459 -0.116669
-4.55000019 -18.45999908 -0.40000001 79 192 120 97.000000 1.000000 4.000000 1.000000 0.000000 114.000000 99.000000 0.794509 0.539637 -0.278472
-4.55000019 -18.45999908 -0.51999998 79 192 120 97.000000 1.000000 4.000000 1.000000 0.000000 114.000000 99.000000 0.768063 0.585116 0.260227
-4.21999979 -18.40999985 -0.89999998 79 192 120 97.000000 1.000000 4.000000 1.000000 0.000000 114.000000 99.000000 -0.565546 0.810268 0.153697
-4.32000017 -18.43000031 -0.93000001 79 192 120 97.000000 1.000000 4.000000 1.000000 0.000000 114.000000 99.000000 0.319922 0.922796 0.214703
-4.30000019 -18.65999985 -0.95999998 79 192 120 97.000000 1.000000 4.000000 1.000000 0.000000 114.000000 99.000000 0.363114 0.926145 -0.101998
-4.21999979 -18.76000023 -0.91000003 79 192 120 97.000000 1.000000 4.000000 1.000000 0.000000 114.000000 99.000000 0.228188 0.967569 0.108357
-4.21000004 -18.78000069 -1.00000000 79 192 120 97.000000 1.000000 4.000000 1.000000 0.000000 114.000000 99.000000 0.197080 0.975485 0.097920
-4.25000000 -18.77000046 -1.01999998 79 192 120 97.000000 1.000000 4.000000 1.000000 0.000000 114.000000 99.000000 0.329328 0.929623 0.165359
-4.46000004 -18.21999931 0.83999997 79 192 120 97.000000 1.000000 4.000000 1.000000 0.000000 114.000000 99.000000 -0.172339 0.984958 0.012555
-4.36999989 -18.25000000 0.75999999 79 192 120 97.000000 1.000000 4.000000 1.000000 0.000000 114.000000 99.000000 0.355232 0.924708 -0.136840
-4.34000015 -18.23999977 0.75999999 79 192 120 97.000000 1.000000 4.000000 1.000000 0.000000 114.000000 99.000000 0.670310 0.732733 0.117416
-4.40000010 -18.22999954 0.77999997 79 192 120 97.000000 1.000000 4.000000 1.000000 0.000000 114.000000 99.000000 -0.130369 0.987751 -0.085738
-4.44000006 -18.26000023 0.75999999 79 192 120 97.000000 1.000000 4.000000 1.000000 0.000000 114.000000 99.000000 -0.309025 0.900459 -0.306067
-4.42999983 -18.25000000 0.75999999 79 192 120 97.000000 1.000000 4.000000 1.000000 0.000000 114.000000 99.000000 -0.354852 0.875708 -0.327439
-4.44000006 -18.23999977 0.79000002 79 192 120 97.000000 1.000000 4.000000 1.000000 0.000000 114.000000 99.000000 -0.333515 0.935732 -0.114772
-4.42999983 -18.22999954 0.81000000 79 192 120 97.000000 1.000000 4.000000 1.000000 0.000000 114.000000 99.000000 0.169363 0.980842 0.096257
-4.44000006 -18.23999977 0.81000000 79 192 120 97.000000 1.000000 4.000000 1.000000 0.000000 114.000000 99.000000 -0.396181 0.867314 0.301342
-4.38999987 -18.25000000 0.75999999 79 192 120 97.000000 1.000000 4.000000 1.000000 0.000000 114.000000 99.000000 0.029739 0.976615 -0.212928
-4.42000008 -18.21999931 0.77999997 79 192 120 97.000000 1.000000 4.000000 1.000000 0.000000 114.000000 99.000000 -0.003791 0.933859 0.357621
-4.40999985 -18.25000000 0.76999998 79 192 120 97.000000 1.000000 4.000000 1.000000 0.000000 114.000000 99.000000 -0.172399 0.983965 -0.045739
-4.38999987 -18.22999954 0.77999997 79 192 120 97.000000 1.000000 4.000000 1.000000 0.000000 114.000000 99.000000 -0.021227 0.999688 -0.013140
-4.38999987 -18.23999977 0.75000000 79 192 120 97.000000 1.000000 4.000000 1.000000 0.000000 114.000000 99.000000 -0.064333 0.962474 -0.263640
-4.44999981 -18.25000000 0.68000001 79 192 120 97.000000 1.000000 4.000000 1.000000 0.000000 114.000000 99.000000 -0.478234 0.868335 -0.131478
-4.38999987 -18.25000000 0.73000002 79 192 120 97.000000 1.000000 4.000000 1.000000 0.000000 114.000000 99.000000 0.023952 0.998710 -0.044781
-4.44999981 -18.25000000 0.70999998 79 192 120 97.000000 1.000000 4.000000 1.000000 0.000000 114.000000 99.000000 -0.309319 0.948665 -0.066005
-4.44000006 -18.23999977 0.72000003 79 192 120 97.000000 1.000000 4.000000 1.000000 0.000000 114.000000 99.000000 -0.084668 0.966733 0.241367
-4.46000004 -18.30999947 0.69999999 79 192 120 97.000000 1.000000 4.000000 1.000000 0.000000 114.000000 99.000000 0.997668 0.022217 0.064536
-4.46999979 -18.30999947 0.72000003 79 192 120 97.000000 1.000000 4.000000 1.000000 0.000000 114.000000 99.000000 0.921764 -0.377639 0.087980
-4.46999979 -18.29000092 0.75000000 79 192 120 97.000000 1.000000 4.000000 1.000000 0.000000 114.000000 99.000000 0.974941 -0.027446 0.220764
-4.46999979 -18.30999947 0.72000003 79 192 120 97.000000 1.000000 4.000000 1.000000 0.000000 114.000000 99.000000 0.921764 -0.377639 0.087980
-4.46999979 -18.29999924 0.74000001 79 192 120 97.000000 1.000000 4.000000 1.000000 0.000000 114.000000 99.000000 0.953302 -0.227876 0.198211
-4.38000011 -18.25000000 0.64999998 79 192 120 97.000000 1.000000 4.000000 1.000000 0.000000 114.000000 99.000000 0.062142 0.929482 0.363595
-4.40999985 -18.25000000 0.64999998 79 192 120 97.000000 1.000000 4.000000 1.000000 0.000000 114.000000 99.000000 0.045329 0.998291 -0.036896
-4.38999987 -18.26000023 0.55000001 79 192 120 97.000000 1.000000 4.000000 1.000000 0.000000 114.000000 99.000000 0.294167 0.952479 -0.079049
-4.38000011 -18.27000046 0.52999997 79 192 120 97.000000 1.000000 4.000000 1.000000 0.000000 114.000000 99.000000 0.064887 0.985101 -0.159268
-4.38999987 -18.27000046 0.50000000 79 192 120 97.000000 1.000000 4.000000 1.000000 0.000000 114.000000 99.000000 0.037439 0.990444 -0.132740
-4.40999985 -18.27000046 0.54000002 79 192 120 97.000000 1.000000 4.000000 1.000000 0.000000 114.000000 99.000000 -0.265117 0.947624 -0.178104
-4.44000006 -18.25000000 0.50999999 79 192 120 97.000000 1.000000 4.000000 1.000000 0.000000 114.000000 99.000000 -0.393683 0.903323 0.170357
-4.44999981 -18.26000023 0.55000001 79 192 120 97.000000 1.000000 4.000000 1.000000 0.000000 114.000000 99.000000 -0.416439 0.837592 -0.353580
-4.40999985 -18.28000069 0.52999997 79 192 120 97.000000 1.000000 4.000000 1.000000 0.000000 114.000000 99.000000 -0.282031 0.928292 -0.242348
-4.50000000 -18.34000015 0.63999999 79 192 120 97.000000 1.000000 4.000000 1.000000 0.000000 114.000000 99.000000 0.987585 -0.090636 0.128304
-4.34000015 -18.26000023 0.47999999 79 192 120 97.000000 1.000000 4.000000 1.000000 0.000000 114.000000 99.000000 0.711661 0.674612 0.196054
-4.36000013 -18.23999977 0.47000000 79 192 120 97.000000 1.000000 4.000000 1.000000 0.000000 114.000000 99.000000 0.369203 0.894093 0.253549
-4.28999996 -18.32999992 0.44999999 79 192 120 97.000000 1.000000 4.000000 1.000000 0.000000 114.000000 99.000000 0.967214 -0.063649 -0.245859
-4.28999996 -18.36000061 0.44000000 79 192 120 97.000000 1.000000 4.000000 1.000000 0.000000 114.000000 99.000000 0.726703 -0.662176 -0.182828
-4.30000019 -18.28000069 0.36000001 79 192 120 97.000000 1.000000 4.000000 1.000000 0.000000 114.000000 99.000000 0.725176 0.670674 -0.155936
-4.32000017 -18.28000069 0.22000000 79 192 120 97.000000 1.000000 4.000000 1.000000 0.000000 114.000000 99.000000 0.720120 0.561924 0.407024
-4.38999987 -18.25000000 0.41000000 79 192 120 97.000000 1.000000 4.000000 1.000000 0.000000 114.000000 99.000000 -0.120519 0.990553 0.065425
-4.40999985 -18.27000046 0.44000000 79 192 120 97.000000 1.000000 4.000000 1.000000 0.000000 114.000000 99.000000 -0.174639 0.939198 -0.295648
-4.38000011 -18.26000023 0.36000001 79 192 120 97.000000 1.000000 4.000000 1.000000 0.000000 114.000000 99.000000 0.138569 0.931565 -0.336132
-4.38999987 -18.29000092 0.38000000 79 192 120 97.000000 1.000000 4.000000 1.000000 0.000000 114.000000 99.000000 -0.021144 0.991552 0.127978
-4.46000004 -18.34000015 0.34999999 79 192 120 97.000000 1.000000 4.000000 1.000000 0.000000 114.000000 99.000000 0.808246 0.401722 0.430531
-4.44999981 -18.36000061 0.31999999 79 192 120 97.000000 1.000000 4.000000 1.000000 0.000000 114.000000 99.000000 0.848828 0.528668 0.001345
-4.44999981 -18.36000061 0.20999999 79 192 120 97.000000 1.000000 4.000000 1.000000 0.000000 114.000000 99.000000 0.771925 0.614821 0.161636
-4.44999981 -18.28000069 0.17000000 79 192 120 97.000000 1.000000 4.000000 1.000000 0.000000 114.000000 99.000000 0.961669 -0.253613 -0.104277
-4.51999998 -18.28000069 0.25000000 79 192 120 97.000000 1.000000 4.000000 1.000000 0.000000 114.000000 99.000000 0.983173 0.180345 0.029088
-4.50000000 -18.32999992 0.25000000 79 192 120 97.000000 1.000000 4.000000 1.000000 0.000000 114.000000 99.000000 0.933178 0.359305 0.008887
-4.36999989 -18.23999977 0.06000000 79 192 120 97.000000 1.000000 4.000000 1.000000 0.000000 114.000000 99.000000 -0.056215 0.937349 0.343826
-4.30000019 -18.32999992 0.08000000 79 192 120 97.000000 1.000000 4.000000 1.000000 0.000000 114.000000 99.000000 0.871937 -0.489201 -0.020215
-4.30999994 -18.32999992 0.11000000 79 192 120 97.000000 1.000000 4.000000 1.000000 0.000000 114.000000 99.000000 0.922518 -0.385780 0.011612
-4.34000015 -18.35000038 -0.11000000 79 192 120 97.000000 1.000000 4.000000 1.000000 0.000000 114.000000 99.000000 -0.243647 0.968405 -0.053182
-4.48999977 -18.30999947 0.04000000 79 192 120 97.000000 1.000000 4.000000 1.000000 0.000000 114.000000 99.000000 0.948357 -0.109782 -0.297602
-4.57000017 -18.34000015 -0.03000000 79 192 120 97.000000 1.000000 4.000000 1.000000 0.000000 114.000000 99.000000 0.852687 0.399163 0.337037
-4.30000019 -18.37999916 0.61000001 79 192 120 97.000000 1.000000 4.000000 1.000000 0.000000 114.000000 99.000000 0.820208 -0.510111 -0.258932
-4.30999994 -18.37999916 0.54000002 79 192 120 97.000000 1.000000 4.000000 1.000000 0.000000 114.000000 99.000000 0.939473 -0.291085 -0.180721
-4.46000004 -18.43000031 0.64999998 79 192 120 97.000000 1.000000 4.000000 1.000000 0.000000 114.000000 99.000000 0.099615 0.969672 0.223188
-4.32000017 -18.38999939 0.47000000 79 192 120 97.000000 1.000000 4.000000 1.000000 0.000000 114.000000 99.000000 0.786895 -0.553507 -0.272811
-4.32000017 -18.38999939 0.47000000 79 192 120 97.000000 1.000000 4.000000 1.000000 0.000000 114.000000 99.000000 0.786895 -0.553507 -0.272811
-4.36000013 -18.39999962 0.47000000 79 192 120 97.000000 1.000000 4.000000 1.000000 0.000000 114.000000 99.000000 -0.487845 0.847309 0.209939
-4.30000019 -18.37000084 0.34000000 79 192 120 97.000000 1.000000 4.000000 1.000000 0.000000 114.000000 99.000000 -0.588634 0.804515 -0.079156
-4.30999994 -18.39999962 0.20000000 79 192 120 97.000000 1.000000 4.000000 1.000000 0.000000 114.000000 99.000000 -0.269158 0.948140 -0.169069
-4.30999994 -18.37999916 0.23000000 79 192 120 97.000000 1.000000 4.000000 1.000000 0.000000 114.000000 99.000000 -0.623917 0.778821 -0.064543
-4.30999994 -18.38999939 0.15000001 79 192 120 97.000000 1.000000 4.000000 1.000000 0.000000 114.000000 99.000000 -0.275691 0.924207 -0.264263
-4.34999990 -18.43000031 0.23000000 79 192 120 97.000000 1.000000 4.000000 1.000000 0.000000 114.000000 99.000000 0.003811 0.931161 -0.364588
-4.36000013 -18.43000031 0.17000000 79 192 120 97.000000 1.000000 4.000000 1.000000 0.000000 114.000000 99.000000 0.022048 0.924722 -0.380005
-4.38000011 -18.43000031 0.46000001 79 192 120 97.000000 1.000000 4.000000 1.000000 0.000000 114.000000 99.000000 0.034884 0.934103 0.355295
-4.44000006 -18.37000084 0.44999999 79 192 120 97.000000 1.000000 4.000000 1.000000 0.000000 114.000000 99.000000 0.527990 0.786402 0.320622
-4.38000011 -18.44000053 0.40000001 79 192 120 97.000000 1.000000 4.000000 1.000000 0.000000 114.000000 99.000000 -0.101367 0.931228 0.350055
-4.38000011 -18.44000053 0.38999999 79 192 120 97.000000 1.000000 4.000000 1.000000 0.000000 114.000000 99.000000 0.079729 0.993801 -0.077483
-4.42999983 -18.43000031 0.34999999 79 192 120 97.000000 1.000000 4.000000 1.000000 0.000000 114.000000 99.000000 0.237715 0.957502 0.163346
-4.42999983 -18.46999931 0.44000000 79 192 120 97.000000 1.000000 4.000000 1.000000 0.000000 114.000000 99.000000 0.233158 0.886593 0.399487
-4.46000004 -18.38999939 0.47999999 79 192 120 97.000000 1.000000 4.000000 1.000000 0.000000 114.000000 99.000000 0.628687 0.709495 -0.318384
-4.44000006 -18.37999916 0.23999999 79 192 120 97.000000 1.000000 4.000000 1.000000 0.000000 114.000000 99.000000 0.821191 0.545965 0.166033
-4.42999983 -18.42000008 0.25000000 79 192 120 97.000000 1.000000 4.000000 1.000000 0.000000 114.000000 99.000000 0.186347 0.940017 0.285732
-4.32000017 -18.37999916 0.10000000 79 192 120 97.000000 1.000000 4.000000 1.000000 0.000000 114.000000 99.000000 -0.658391 0.752644 0.006930
-4.32000017 -18.37999916 0.10000000 79 192 120 97.000000 1.000000 4.000000 1.000000 0.000000 114.000000 99.000000 -0.658391 0.752644 0.006930
-4.32999992 -18.38999939 0.07000000 79 192 120 97.000000 1.000000 4.000000 1.000000 0.000000 114.000000 99.000000 -0.618142 0.762325 -0.191732
-4.34000015 -18.40999985 0.10000000 79 192 120 97.000000 1.000000 4.000000 1.000000 0.000000 114.000000 99.000000 -0.336767 0.940625 0.042580
-4.36999989 -18.44000053 0.08000000 79 192 120 97.000000 1.000000 4.000000 1.000000 0.000000 114.000000 99.000000 -0.080116 0.944312 -0.319149
-4.32999992 -18.40999985 0.09000000 79 192 120 97.000000 1.000000 4.000000 1.000000 0.000000 114.000000 99.000000 -0.363996 0.880537 -0.303581
-4.32999992 -18.37000084 0.04000000 79 192 120 97.000000 1.000000 4.000000 1.000000 0.000000 114.000000 99.000000 -0.433661 0.811314 0.392055
-4.32999992 -18.37000084 0.03000000 79 192 120 97.000000 1.000000 4.000000 1.000000 0.000000 114.000000 99.000000 -0.444907 0.814866 0.371553
-4.34000015 -18.39999962 0.05000000 79 192 120 97.000000 1.000000 4.000000 1.000000 0.000000 114.000000 99.000000 -0.199509 0.975239 0.095417
-4.36999989 -18.42000008 0.01000000 79 192 120 97.000000 1.000000 4.000000 1.000000 0.000000 114.000000 99.000000 -0.256416 0.955250 0.147473
-4.44999981 -18.40999985 0.08000000 79 192 120 97.000000 1.000000 4.000000 1.000000 0.000000 114.000000 99.000000 0.411879 0.850180 0.327949
-4.46999979 -18.40999985 0.14000000 79 192 120 97.000000 1.000000 4.000000 1.000000 0.000000 114.000000 99.000000 0.845682 0.533177 0.023301
-4.46000004 -18.42000008 0.08000000 79 192 120 97.000000 1.000000 4.000000 1.000000 0.000000 114.000000 99.000000 0.545600 0.726917 0.417029
-4.42999983 -18.48999977 -0.11000000 79 192 120 97.000000 1.000000 4.000000 1.000000 0.000000 114.000000 99.000000 0.395993 0.877810 0.269516
-4.55000019 -18.45000076 -0.11000000 79 192 120 97.000000 1.000000 4.000000 1.000000 0.000000 114.000000 99.000000 0.584467 0.745477 0.320410
-4.11999989 -18.59000015 -0.81000000 79 192 120 97.000000 1.000000 4.000000 1.000000 0.000000 114.000000 99.000000 -0.422781 0.876933 -0.228570
-4.15000010 -18.62000084 -0.88000000 79 192 120 97.000000 1.000000 4.000000 1.000000 0.000000 114.000000 99.000000 -0.394307 0.897741 -0.196426
-4.13999987 -18.71999931 -0.88000000 79 192 120 97.000000 1.000000 4.000000 1.000000 0.000000 114.000000 99.000000 -0.266318 0.951519 -0.153903
-4.03999996 -18.53000069 -1.01999998 79 192 120 97.000000 1.000000 4.000000 1.000000 0.000000 114.000000 99.000000 0.905529 -0.378623 -0.191471
-4.03999996 -18.50000000 -1.04999995 79 192 120 97.000000 1.000000 4.000000 1.000000 0.000000 114.000000 99.000000 0.724150 -0.665973 -0.179124
-4.00000000 -18.73999977 -1.01999998 79 192 120 97.000000 1.000000 4.000000 1.000000 0.000000 114.000000 99.000000 -0.501704 0.793429 -0.344621
-4.09000015 -18.70999908 -0.94999999 79 192 120 97.000000 1.000000 4.000000 1.000000 0.000000 114.000000 99.000000 -0.193705 0.935078 -0.296828
