//X Y Z R G B PointSourceId ScanDirectionFlag NumberOfReturns ReturnNumber GpsTime Intensity Classification Nx Ny Nz
14.52999973 -0.60000002 -0.74000001 90 144 138 116.000000 1.000000 4.000000 4.000000 0.000000 95.000000 127.000000 0.166987 0.852667 -0.495049
14.52999973 -0.57999998 -0.75999999 90 144 138 116.000000 1.000000 4.000000 4.000000 0.000000 95.000000 127.000000 -0.048551 0.930338 -0.363475
14.52999973 -0.58999997 -0.79000002 90 144 138 116.000000 1.000000 4.000000 4.000000 0.000000 95.000000 127.000000 -0.191495 0.887310 -0.419535
14.52000046 -0.57999998 -0.83999997 90 144 138 116.000000 1.000000 4.000000 4.000000 0.000000 95.000000 127.000000 -0.051692 0.921175 -0.385701
14.52999973 -0.57999998 -0.83999997 90 144 138 116.000000 1.000000 4.000000 4.000000 0.000000 95.000000 127.000000 -0.062936 0.919934 -0.386988
14.52000046 -0.58999997 -0.85000002 90 144 138 116.000000 1.000000 4.000000 4.000000 0.000000 95.000000 127.000000 -0.169031 -0.753786 0.635008
14.47000027 -0.57999998 -0.82999998 90 144 138 116.000000 1.000000 4.000000 4.000000 0.000000 95.000000 127.000000 0.281782 0.848425 -0.448079
14.47999954 -0.57999998 -0.88000000 90 144 138 116.000000 1.000000 4.000000 4.000000 0.000000 95.000000 127.000000 0.308242 0.885632 -0.347336
14.42000008 -0.50999999 -0.73000002 90 144 138 116.000000 1.000000 4.000000 4.000000 0.000000 95.000000 127.000000 0.100571 0.794367 -0.599055
14.40999985 -0.52999997 -0.75000000 90 144 138 116.000000 1.000000 4.000000 4.000000 0.000000 95.000000 127.000000 -0.093370 0.831715 -0.547295
14.40999985 -0.54000002 -0.77999997 90 144 138 116.000000 1.000000 4.000000 4.000000 0.000000 95.000000 127.000000 0.011886 0.894100 -0.447710
14.39000034 -0.50999999 -0.76999998 90 144 138 116.000000 1.000000 4.000000 4.000000 0.000000 95.000000 127.000000 -0.096038 0.841410 -0.531794
14.39000034 -0.50999999 -0.76999998 90 144 138 116.000000 1.000000 4.000000 4.000000 0.000000 95.000000 127.000000 -0.096038 0.841410 -0.531794
14.39999962 -0.54000002 -0.79000002 90 144 138 116.000000 1.000000 4.000000 4.000000 0.000000 95.000000 127.000000 0.605955 0.704485 -0.369485
14.35999966 -0.51999998 -0.81000000 90 144 138 116.000000 1.000000 4.000000 4.000000 0.000000 95.000000 127.000000 0.645070 0.645070 -0.409595
14.47999954 -0.82999998 -0.55000001 90 144 138 0.000000 0.000000 0.000000 0.000000 132.978989 0.000000 127.000000 -0.133245 -0.747070 0.651254
14.46000004 -0.82999998 -0.61000001 90 144 138 0.000000 0.000000 0.000000 0.000000 132.978989 0.000000 127.000000 -0.310871 0.815840 -0.487610
14.55000019 -0.86000001 -0.22000000 90 144 138 0.000000 0.000000 0.000000 0.000000 132.978989 0.000000 127.000000 -0.071005 0.875733 -0.477546
14.52999973 -0.88999999 -0.28000000 90 144 138 0.000000 0.000000 0.000000 0.000000 132.978989 0.000000 127.000000 -0.132173 0.785615 -0.604433
14.51000023 -0.89999998 -0.28999999 90 144 138 0.000000 0.000000 0.000000 0.000000 132.978989 0.000000 127.000000 0.115512 0.877038 -0.466327
14.44999981 -0.87000000 -0.63000000 90 144 138 0.000000 0.000000 0.000000 0.000000 132.978989 0.000000 127.000000 -0.221275 0.909686 -0.351437
14.44999981 -0.85000002 -0.69999999 90 144 138 0.000000 0.000000 0.000000 0.000000 132.978989 0.000000 127.000000 -0.034486 0.848345 -0.528319
14.43000031 -0.83999997 -0.63000000 90 144 138 0.000000 0.000000 0.000000 0.000000 132.978989 0.000000 127.000000 -0.098035 0.776965 -0.621864
14.39000034 -0.86000001 -0.64999998 90 144 138 0.000000 0.000000 0.000000 0.000000 132.978989 0.000000 127.000000 0.117166 0.893566 -0.433373
14.39000034 -0.83999997 -0.63000000 90 144 138 0.000000 0.000000 0.000000 0.000000 132.978989 0.000000 127.000000 -0.158453 -0.605139 0.780192
14.46000004 -0.88000000 -0.76999998 90 144 138 0.000000 0.000000 0.000000 0.000000 132.978989 0.000000 127.000000 -0.171665 0.940726 -0.292518
14.42000008 -0.88999999 -0.75999999 90 144 138 0.000000 0.000000 0.000000 0.000000 132.978989 0.000000 127.000000 0.029208 -0.588334 0.808090
14.38000011 -0.88999999 -0.74000001 90 144 138 0.000000 0.000000 0.000000 0.000000 132.978989 0.000000 127.000000 -0.032494 0.929325 -0.367831
14.39999962 -0.89999998 -0.77999997 90 144 138 0.000000 0.000000 0.000000 0.000000 132.978989 0.000000 127.000000 -0.278014 0.760963 -0.586212
14.39999962 -0.89999998 -0.88000000 90 144 138 0.000000 0.000000 0.000000 0.000000 132.978989 0.000000 127.000000 -0.017738 0.847328 -0.530774
14.39000034 -0.93000001 -0.86000001 90 144 138 0.000000 0.000000 0.000000 0.000000 132.978989 0.000000 127.000000 -0.076880 0.712229 -0.697724
14.77000046 -0.50000000 -0.91000003 90 144 138 116.000000 1.000000 4.000000 4.000000 0.000000 95.000000 127.000000 0.756048 -0.573056 0.316224
14.75000000 -0.52999997 -0.88999999 90 144 138 116.000000 1.000000 4.000000 4.000000 0.000000 95.000000 127.000000 0.783774 -0.552601 0.283426
14.73999977 -0.56000000 -0.95999998 90 144 138 116.000000 1.000000 4.000000 4.000000 0.000000 95.000000 127.000000 -0.580597 0.590753 -0.560284
14.77000046 -0.50999999 -0.99000001 90 144 138 116.000000 1.000000 4.000000 4.000000 0.000000 95.000000 127.000000 0.863483 -0.432500 0.259500
14.76000023 -0.52999997 -1.01999998 90 144 138 116.000000 1.000000 4.000000 4.000000 0.000000 95.000000 127.000000 -0.722442 0.639877 -0.261984
14.77000046 -0.55000001 -0.98000002 90 144 138 116.000000 1.000000 4.000000 4.000000 0.000000 95.000000 127.000000 0.593275 -0.729809 0.339711
14.77000046 -0.51999998 -1.07000005 90 144 138 116.000000 1.000000 4.000000 4.000000 0.000000 95.000000 127.000000 0.801509 -0.558441 0.213838
14.76000023 -0.51999998 -1.05999994 90 144 138 116.000000 1.000000 4.000000 4.000000 0.000000 95.000000 127.000000 0.843603 -0.464213 0.269891
14.77999973 -0.51999998 -1.14999998 90 144 138 116.000000 1.000000 4.000000 4.000000 0.000000 95.000000 127.000000 0.807967 -0.523538 0.270364
14.77999973 -0.50999999 -1.19000006 90 144 138 116.000000 1.000000 4.000000 4.000000 0.000000 95.000000 127.000000 0.919309 -0.347043 0.185562
14.77999973 -0.51999998 -1.14999998 90 144 138 116.000000 1.000000 4.000000 4.000000 0.000000 95.000000 127.000000 0.807967 -0.523538 0.270364
14.71000004 -0.60000002 -1.21000004 90 144 138 116.000000 1.000000 4.000000 4.000000 0.000000 95.000000 127.000000 0.629338 -0.691454 0.354718
14.77000046 -0.54000002 -1.25999999 90 144 138 116.000000 1.000000 4.000000 4.000000 0.000000 95.000000 127.000000 0.943573 -0.296474 0.147560
14.77999973 -0.52999997 -1.27999997 90 144 138 116.000000 1.000000 4.000000 4.000000 0.000000 95.000000 127.000000 0.865227 -0.402752 0.298618
14.71000004 -0.63000000 -1.30999994 90 144 138 0.000000 0.000000 0.000000 0.000000 132.978989 0.000000 127.000000 0.924106 -0.363875 0.116715
14.76000023 -0.58999997 -1.36000001 90 144 138 116.000000 1.000000 4.000000 4.000000 0.000000 95.000000 127.000000 0.980677 -0.184102 -0.066181
14.75000000 -0.61000001 -1.38999999 90 144 138 116.000000 1.000000 4.000000 4.000000 0.000000 95.000000 127.000000 0.929731 -0.261796 0.258966
14.76000023 -0.58999997 -1.38000000 90 144 138 116.000000 1.000000 4.000000 4.000000 0.000000 95.000000 127.000000 0.942865 -0.319593 0.094154
14.75000000 -0.60000002 -1.37000000 90 144 138 116.000000 1.000000 4.000000 4.000000 0.000000 95.000000 127.000000 0.929523 -0.320091 0.183109
14.72000027 -0.63000000 -1.35000002 90 144 138 0.000000 0.000000 0.000000 0.000000 132.978989 0.000000 127.000000 0.982373 0.005731 0.186846
14.72999954 -0.64999998 -1.38000000 90 144 138 0.000000 0.000000 0.000000 0.000000 132.978989 0.000000 127.000000 0.908120 -0.347265 0.233932
14.73999977 -0.62000000 -1.38000000 90 144 138 116.000000 1.000000 4.000000 4.000000 0.000000 95.000000 127.000000 0.860718 -0.302249 0.409647
14.76000023 -0.62000000 -1.40999997 90 144 138 116.000000 1.000000 4.000000 4.000000 0.000000 95.000000 127.000000 0.902232 -0.210666 0.376293
14.76000023 -0.63000000 -1.40999997 90 144 138 0.000000 0.000000 0.000000 0.000000 132.978989 0.000000 127.000000 0.904633 -0.160982 0.394619
14.69999981 -0.56000000 -0.89999998 90 144 138 116.000000 1.000000 4.000000 4.000000 0.000000 95.000000 127.000000 -0.542305 0.718098 -0.436166
14.64999962 -0.61000001 -0.94999999 90 144 138 116.000000 1.000000 4.000000 4.000000 0.000000 95.000000 127.000000 0.527319 -0.564383 0.635142
14.64999962 -0.58999997 -0.94000000 90 144 138 116.000000 1.000000 4.000000 4.000000 0.000000 95.000000 127.000000 -0.205064 0.936039 -0.285973
14.69999981 -0.57999998 -1.04999995 90 144 138 116.000000 1.000000 4.000000 4.000000 0.000000 95.000000 127.000000 -0.462540 0.815405 -0.348097
14.53999996 -0.54000002 -0.89999998 90 144 138 116.000000 1.000000 4.000000 4.000000 0.000000 95.000000 127.000000 0.233927 -0.642121 0.730040
14.60999966 -0.58999997 -0.93000001 90 144 138 116.000000 1.000000 4.000000 4.000000 0.000000 95.000000 127.000000 -0.218569 0.826893 -0.518146
14.56000042 -0.60000002 -0.93000001 90 144 138 116.000000 1.000000 4.000000 4.000000 0.000000 95.000000 127.000000 -0.023527 0.812385 -0.582647
14.59000015 -0.60000002 -1.00999999 90 144 138 116.000000 1.000000 4.000000 4.000000 0.000000 95.000000 127.000000 -0.148530 0.906740 -0.394665
14.55000019 -0.60000002 -1.00999999 90 144 138 116.000000 1.000000 4.000000 4.000000 0.000000 95.000000 127.000000 0.422619 -0.578409 0.697737
14.56000042 -0.60000002 -1.00999999 90 144 138 116.000000 1.000000 4.000000 4.000000 0.000000 95.000000 127.000000 -0.104630 0.928082 -0.357373
14.55000019 -0.60000002 -1.00999999 90 144 138 116.000000 1.000000 4.000000 4.000000 0.000000 95.000000 127.000000 0.422619 -0.578409 0.697737
14.56000042 -0.61000001 -1.01999998 90 144 138 116.000000 1.000000 4.000000 4.000000 0.000000 95.000000 127.000000 -0.398551 0.630074 -0.666456
14.53999996 -0.62000000 -1.01999998 90 144 138 116.000000 1.000000 4.000000 4.000000 0.000000 95.000000 127.000000 -0.392167 0.740030 -0.546408
14.68000031 -0.58999997 -1.12000000 90 144 138 116.000000 1.000000 4.000000 4.000000 0.000000 95.000000 127.000000 -0.499259 0.780395 -0.376464
14.68999958 -0.58999997 -1.13999999 90 144 138 116.000000 1.000000 4.000000 4.000000 0.000000 95.000000 127.000000 -0.595866 0.749225 -0.289147
14.55000019 -0.60000002 -1.13999999 90 144 138 116.000000 1.000000 4.000000 4.000000 0.000000 95.000000 127.000000 -0.519945 0.793433 -0.316419
14.55000019 -0.62000000 -1.13000000 90 144 138 116.000000 1.000000 4.000000 4.000000 0.000000 95.000000 127.000000 -0.143213 0.921848 -0.360119
14.44999981 -0.56000000 -0.94999999 90 144 138 116.000000 1.000000 4.000000 4.000000 0.000000 95.000000 127.000000 0.152734 -0.648742 0.745524
14.44999981 -0.55000001 -0.88999999 90 144 138 116.000000 1.000000 4.000000 4.000000 0.000000 95.000000 127.000000 0.400007 0.719355 -0.567911
14.44999981 -0.56000000 -0.99000001 90 144 138 116.000000 1.000000 4.000000 4.000000 0.000000 95.000000 127.000000 0.279230 0.843859 -0.458183
14.48999977 -0.56000000 -0.99000001 90 144 138 116.000000 1.000000 4.000000 4.000000 0.000000 95.000000 127.000000 0.066799 0.822906 -0.564238
14.44999981 -0.56000000 -1.02999997 90 144 138 116.000000 1.000000 4.000000 4.000000 0.000000 95.000000 127.000000 0.408225 0.821215 -0.398695
14.50000000 -0.60000002 -0.99000001 90 144 138 116.000000 1.000000 4.000000 4.000000 0.000000 95.000000 127.000000 0.188204 0.906539 -0.377844
14.51000023 -0.58999997 -1.00999999 90 144 138 116.000000 1.000000 4.000000 4.000000 0.000000 95.000000 127.000000 0.031531 0.949714 -0.311526
14.50000000 -0.57999998 -1.03999996 90 144 138 116.000000 1.000000 4.000000 4.000000 0.000000 95.000000 127.000000 -0.136076 0.847184 -0.513578
14.52999973 -0.62000000 -1.00999999 90 144 138 116.000000 1.000000 4.000000 4.000000 0.000000 95.000000 127.000000 -0.488190 0.787871 -0.375407
14.47000027 -0.57999998 -0.98000002 90 144 138 116.000000 1.000000 4.000000 4.000000 0.000000 95.000000 127.000000 0.258757 -0.658797 0.706421
14.44999981 -0.57999998 -1.03999996 90 144 138 116.000000 1.000000 4.000000 4.000000 0.000000 95.000000 127.000000 0.152511 0.902238 -0.403370
14.40999985 -0.51999998 -0.92000002 90 144 138 116.000000 1.000000 4.000000 4.000000 0.000000 95.000000 127.000000 0.558157 0.668783 -0.491111
14.43000031 -0.56000000 -0.94000000 90 144 138 116.000000 1.000000 4.000000 4.000000 0.000000 95.000000 127.000000 0.457645 0.618575 -0.638691
14.43999958 -0.56999999 -0.94999999 90 144 138 116.000000 1.000000 4.000000 4.000000 0.000000 95.000000 127.000000 0.475224 0.754768 -0.452203
14.39000034 -0.51999998 -0.93000001 90 144 138 116.000000 1.000000 4.000000 4.000000 0.000000 95.000000 127.000000 0.575119 0.704397 -0.416008
14.39000034 -0.52999997 -0.95999998 90 144 138 116.000000 1.000000 4.000000 4.000000 0.000000 95.000000 127.000000 -0.155943 -0.749433 0.643453
14.42000008 -0.55000001 -0.98000002 90 144 138 116.000000 1.000000 4.000000 4.000000 0.000000 95.000000 127.000000 0.250444 0.877304 -0.409409
14.43000031 -0.55000001 -0.97000003 90 144 138 116.000000 1.000000 4.000000 4.000000 0.000000 95.000000 127.000000 0.409875 0.682018 -0.605685
14.42000008 -0.55000001 -0.98000002 90 144 138 116.000000 1.000000 4.000000 4.000000 0.000000 95.000000 127.000000 0.250444 0.877304 -0.409409
14.43000031 -0.54000002 -0.97000003 90 144 138 116.000000 1.000000 4.000000 4.000000 0.000000 95.000000 127.000000 0.145308 0.774477 -0.615687
14.43000031 -0.56999999 -1.01999998 90 144 138 116.000000 1.000000 4.000000 4.000000 0.000000 95.000000 127.000000 0.012207 0.847706 -0.530325
14.40999985 -0.54000002 -1.01999998 90 144 138 116.000000 1.000000 4.000000 4.000000 0.000000 95.000000 127.000000 0.532261 0.676660 -0.508754
14.40999985 -0.56000000 -1.03999996 90 144 138 116.000000 1.000000 4.000000 4.000000 0.000000 95.000000 127.000000 0.069291 0.906214 -0.417103
14.39000034 -0.50999999 -0.99000001 90 144 138 116.000000 1.000000 4.000000 4.000000 0.000000 95.000000 127.000000 0.712138 0.536179 -0.453179
14.35999966 -0.51999998 -0.97000003 90 144 138 116.000000 1.000000 4.000000 4.000000 0.000000 95.000000 127.000000 0.773562 0.605064 -0.188412
14.39000034 -0.51999998 -1.00000000 90 144 138 116.000000 1.000000 4.000000 4.000000 0.000000 95.000000 127.000000 0.708726 0.614229 -0.347031
14.38000011 -0.51999998 -1.02999997 90 144 138 116.000000 1.000000 4.000000 4.000000 0.000000 95.000000 127.000000 0.769227 0.481788 -0.419727
14.39000034 -0.52999997 -1.02999997 90 144 138 116.000000 1.000000 4.000000 4.000000 0.000000 95.000000 127.000000 0.347079 0.725118 -0.594760
14.35999966 -0.50000000 -1.02999997 90 144 138 116.000000 1.000000 4.000000 4.000000 0.000000 95.000000 127.000000 0.798175 0.541003 -0.265013
14.35999966 -0.50999999 -1.02999997 90 144 138 116.000000 1.000000 4.000000 4.000000 0.000000 95.000000 127.000000 0.737617 0.499995 -0.453791
14.39000034 -0.51999998 -1.01999998 90 144 138 116.000000 1.000000 4.000000 4.000000 0.000000 95.000000 127.000000 0.480838 0.571310 -0.665132
14.47000027 -0.57999998 -1.09000003 90 144 138 116.000000 1.000000 4.000000 4.000000 0.000000 95.000000 127.000000 0.262055 0.792441 -0.550786
14.47000027 -0.57999998 -1.09000003 90 144 138 116.000000 1.000000 4.000000 4.000000 0.000000 95.000000 127.000000 0.262055 0.792441 -0.550786
14.44999981 -0.57999998 -1.12000000 90 144 138 116.000000 1.000000 4.000000 4.000000 0.000000 95.000000 127.000000 0.037883 -0.604720 0.795537
14.47000027 -0.58999997 -1.10000002 90 144 138 116.000000 1.000000 4.000000 4.000000 0.000000 95.000000 127.000000 0.209247 0.910585 -0.356441
14.47000027 -0.57999998 -1.10000002 90 144 138 116.000000 1.000000 4.000000 4.000000 0.000000 95.000000 127.000000 0.150991 0.890130 -0.429966
14.46000004 -0.58999997 -1.14999998 90 144 138 116.000000 1.000000 4.000000 4.000000 0.000000 95.000000 127.000000 -0.020984 -0.653294 0.756814
14.46000004 -0.60000002 -1.17999995 90 144 138 116.000000 1.000000 4.000000 4.000000 0.000000 95.000000 127.000000 -0.123580 -0.725105 0.677459
14.46000004 -0.60000002 -1.16999996 90 144 138 116.000000 1.000000 4.000000 4.000000 0.000000 95.000000 127.000000 -0.347134 0.705677 -0.617671
14.44999981 -0.57999998 -1.14999998 90 144 138 116.000000 1.000000 4.000000 4.000000 0.000000 95.000000 127.000000 0.268808 0.730075 -0.628278
14.43000031 -0.56999999 -1.08000004 90 144 138 116.000000 1.000000 4.000000 4.000000 0.000000 95.000000 127.000000 0.394889 0.669164 -0.629510
14.43000031 -0.56000000 -1.07000005 90 144 138 116.000000 1.000000 4.000000 4.000000 0.000000 95.000000 127.000000 -0.066497 0.907886 -0.413909
14.39000034 -0.51999998 -1.08000004 90 144 138 116.000000 1.000000 4.000000 4.000000 0.000000 95.000000 127.000000 0.496069 0.746575 -0.443330
14.39000034 -0.51999998 -1.08000004 90 144 138 116.000000 1.000000 4.000000 4.000000 0.000000 95.000000 127.000000 0.496069 0.746575 -0.443330
14.39999962 -0.52999997 -1.09000003 90 144 138 116.000000 1.000000 4.000000 4.000000 0.000000 95.000000 127.000000 0.626446 0.736902 -0.254050
14.36999989 -0.51999998 -1.13000000 90 144 138 116.000000 1.000000 4.000000 4.000000 0.000000 95.000000 127.000000 0.761139 0.632030 -0.145622
14.36999989 -0.50999999 -1.12000000 90 144 138 116.000000 1.000000 4.000000 4.000000 0.000000 95.000000 127.000000 0.777577 0.584351 -0.232182
14.38000011 -0.51999998 -1.13000000 90 144 138 116.000000 1.000000 4.000000 4.000000 0.000000 95.000000 127.000000 0.577369 0.687186 -0.440931
14.38000011 -0.51999998 -1.13000000 90 144 138 116.000000 1.000000 4.000000 4.000000 0.000000 95.000000 127.000000 0.577369 0.687186 -0.440931
14.36999989 -0.50999999 -1.12000000 90 144 138 116.000000 1.000000 4.000000 4.000000 0.000000 95.000000 127.000000 0.777577 0.584351 -0.232182
14.39000034 -0.54000002 -1.07000005 90 144 138 116.000000 1.000000 4.000000 4.000000 0.000000 95.000000 127.000000 0.304036 0.811287 -0.499375
14.39000034 -0.55000001 -1.11000001 90 144 138 116.000000 1.000000 4.000000 4.000000 0.000000 95.000000 127.000000 0.701851 0.488462 -0.518469
14.40999985 -0.55000001 -1.16999996 90 144 138 116.000000 1.000000 4.000000 4.000000 0.000000 95.000000 127.000000 0.630513 0.637203 -0.443199
14.38000011 -0.52999997 -1.14999998 90 144 138 116.000000 1.000000 4.000000 4.000000 0.000000 95.000000 127.000000 0.827096 0.519410 -0.214771
14.35999966 -0.50000000 -1.16999996 90 144 138 116.000000 1.000000 4.000000 4.000000 0.000000 95.000000 127.000000 0.909852 0.264339 -0.319836
14.36999989 -0.50999999 -1.14999998 90 144 138 116.000000 1.000000 4.000000 4.000000 0.000000 95.000000 127.000000 0.785255 0.590085 -0.187546
14.38000011 -0.54000002 -1.15999997 90 144 138 116.000000 1.000000 4.000000 4.000000 0.000000 95.000000 127.000000 0.748209 0.641540 -0.169147
14.39000034 -0.56000000 -1.22000003 90 144 138 116.000000 1.000000 4.000000 4.000000 0.000000 95.000000 127.000000 0.550899 0.537422 -0.638504
14.38000011 -0.55000001 -1.22000003 90 144 138 116.000000 1.000000 4.000000 4.000000 0.000000 95.000000 127.000000 0.843942 0.493683 -0.209853
14.38000011 -0.54000002 -1.21000004 90 144 138 116.000000 1.000000 4.000000 4.000000 0.000000 95.000000 127.000000 0.765161 0.577450 -0.284748
14.43999958 -0.58999997 -1.19000006 90 144 138 116.000000 1.000000 4.000000 4.000000 0.000000 95.000000 127.000000 0.354147 0.900798 -0.251283
14.48999977 -0.66000003 -1.28999996 90 144 138 0.000000 0.000000 0.000000 0.000000 132.978989 0.000000 127.000000 -0.076948 -0.738993 0.669304
14.47000027 -0.60000002 -1.26999998 90 144 138 116.000000 1.000000 4.000000 4.000000 0.000000 95.000000 127.000000 -0.411331 0.708679 -0.573220
14.44999981 -0.66000003 -1.34000003 90 144 138 0.000000 0.000000 0.000000 0.000000 132.978989 0.000000 127.000000 0.206608 0.809597 -0.549424
14.38000011 -0.56999999 -1.27999997 90 144 138 116.000000 1.000000 4.000000 4.000000 0.000000 95.000000 127.000000 0.840974 0.470637 -0.266951
14.42000008 -0.56999999 -1.23000002 90 144 138 116.000000 1.000000 4.000000 4.000000 0.000000 95.000000 127.000000 0.262055 0.792441 -0.550786
14.43000031 -0.61000001 -1.23000002 90 144 138 116.000000 1.000000 4.000000 4.000000 0.000000 95.000000 127.000000 0.388442 0.732630 -0.558897
14.43999958 -0.60000002 -1.24000001 90 144 138 116.000000 1.000000 4.000000 4.000000 0.000000 95.000000 127.000000 0.158855 0.932410 -0.324617
14.42000008 -0.60000002 -1.23000002 90 144 138 116.000000 1.000000 4.000000 4.000000 0.000000 95.000000 127.000000 0.577363 0.674427 -0.460217
14.40999985 -0.58999997 -1.24000001 90 144 138 116.000000 1.000000 4.000000 4.000000 0.000000 95.000000 127.000000 0.529218 0.835841 -0.145940
14.40999985 -0.58999997 -1.23000002 90 144 138 116.000000 1.000000 4.000000 4.000000 0.000000 95.000000 127.000000 0.436507 0.702062 -0.562646
14.42000008 -0.61000001 -1.29999995 90 144 138 116.000000 1.000000 4.000000 4.000000 0.000000 95.000000 127.000000 0.620791 0.644217 -0.446769
14.40999985 -0.57999998 -1.27999997 90 144 138 116.000000 1.000000 4.000000 4.000000 0.000000 95.000000 127.000000 0.704590 0.481387 -0.521363
14.40999985 -0.61000001 -1.29999995 90 144 138 116.000000 1.000000 4.000000 4.000000 0.000000 95.000000 127.000000 0.566782 0.607388 -0.556631
14.40999985 -0.60000002 -1.27999997 90 144 138 116.000000 1.000000 4.000000 4.000000 0.000000 95.000000 127.000000 0.642827 0.678813 -0.354945
14.42000008 -0.61000001 -1.29999995 90 144 138 116.000000 1.000000 4.000000 4.000000 0.000000 95.000000 127.000000 0.620791 0.644217 -0.446769
14.43000031 -0.62000000 -1.25000000 90 144 138 116.000000 1.000000 4.000000 4.000000 0.000000 95.000000 127.000000 0.355769 0.647598 -0.673829
14.43000031 -0.62000000 -1.25000000 90 144 138 116.000000 1.000000 4.000000 4.000000 0.000000 95.000000 127.000000 0.355769 0.647598 -0.673829
14.43000031 -0.62000000 -1.28999996 90 144 138 116.000000 1.000000 4.000000 4.000000 0.000000 95.000000 127.000000 0.436892 0.696037 -0.569787
14.43000031 -0.63999999 -1.26999998 90 144 138 0.000000 0.000000 0.000000 0.000000 132.978989 0.000000 127.000000 0.364396 0.908830 -0.203083
14.39999962 -0.57999998 -1.25000000 90 144 138 116.000000 1.000000 4.000000 4.000000 0.000000 95.000000 127.000000 0.545400 0.592680 -0.592680
14.39999962 -0.58999997 -1.27999997 90 144 138 116.000000 1.000000 4.000000 4.000000 0.000000 95.000000 127.000000 0.739413 0.433108 -0.515448
14.39000034 -0.57999998 -1.27999997 90 144 138 116.000000 1.000000 4.000000 4.000000 0.000000 95.000000 127.000000 0.595808 0.701436 -0.391154
14.39999962 -0.58999997 -1.27999997 90 144 138 116.000000 1.000000 4.000000 4.000000 0.000000 95.000000 127.000000 0.739413 0.433108 -0.515448
14.43999958 -0.74000001 -1.42999995 90 144 138 0.000000 0.000000 0.000000 0.000000 132.978989 0.000000 127.000000 0.095495 -0.718413 0.689030
14.43000031 -0.75999999 -1.45000005 90 144 138 0.000000 0.000000 0.000000 0.000000 132.978989 0.000000 127.000000 0.303709 0.890181 -0.339615
14.43000031 -0.88999999 -0.94999999 90 144 138 0.000000 0.000000 0.000000 0.000000 132.978989 0.000000 127.000000 -0.300836 0.914133 -0.271769
14.43999958 -0.88999999 -0.95999998 90 144 138 0.000000 0.000000 0.000000 0.000000 132.978989 0.000000 127.000000 -0.163212 0.909731 -0.381775
14.40999985 -0.91000003 -0.88999999 90 144 138 0.000000 0.000000 0.000000 0.000000 132.978989 0.000000 127.000000 0.091133 0.811518 -0.577176
14.39999962 -0.94000000 -0.95999998 90 144 138 0.000000 0.000000 0.000000 0.000000 132.978989 0.000000 127.000000 0.219931 0.841803 -0.492948
14.36999989 -0.93000001 -0.93000001 90 144 138 0.000000 0.000000 0.000000 0.000000 132.978989 0.000000 127.000000 0.495238 0.656400 -0.569104
14.39000034 -0.94999999 -0.94000000 90 144 138 0.000000 0.000000 0.000000 0.000000 132.978989 0.000000 127.000000 0.017659 0.857119 -0.514815
14.35999966 -0.92000002 -1.04999995 90 144 138 0.000000 0.000000 0.000000 0.000000 132.978989 0.000000 127.000000 0.400339 0.799069 -0.448572
14.38000011 -0.95999998 -1.13000000 90 144 138 0.000000 0.000000 0.000000 0.000000 132.978989 0.000000 127.000000 -0.159473 0.915911 -0.368340
14.36999989 -0.97000003 -1.15999997 90 144 138 0.000000 0.000000 0.000000 0.000000 132.978989 0.000000 127.000000 -0.113877 -0.655163 0.746856
14.39000034 -0.97000003 -1.16999996 90 144 138 0.000000 0.000000 0.000000 0.000000 132.978989 0.000000 127.000000 -0.272400 0.792006 -0.546374
14.38000011 -0.97000003 -1.15999997 90 144 138 0.000000 0.000000 0.000000 0.000000 132.978989 0.000000 127.000000 -0.142373 0.774811 -0.615952
14.39999962 -1.00000000 -1.25999999 90 144 138 0.000000 0.000000 0.000000 0.000000 132.978989 0.000000 127.000000 0.304117 0.709606 -0.635588
14.38000011 -0.98000002 -1.24000001 90 144 138 0.000000 0.000000 0.000000 0.000000 132.978989 0.000000 127.000000 0.429617 0.869786 -0.242696
14.39000034 -0.99000001 -1.25999999 90 144 138 0.000000 0.000000 0.000000 0.000000 132.978989 0.000000 127.000000 0.473023 0.693655 -0.543224
14.35000038 -0.51999998 -1.03999996 90 144 138 116.000000 1.000000 4.000000 4.000000 0.000000 95.000000 127.000000 0.629146 0.675382 -0.384753
14.35000038 -0.50000000 -1.20000005 90 144 138 116.000000 1.000000 4.000000 4.000000 0.000000 95.000000 127.000000 0.726703 0.662176 -0.182828
14.35000038 -0.50000000 -1.17999995 90 144 138 116.000000 1.000000 4.000000 4.000000 0.000000 95.000000 127.000000 0.779549 0.514857 -0.356688
14.35000038 -0.50000000 -1.17999995 90 144 138 116.000000 1.000000 4.000000 4.000000 0.000000 95.000000 127.000000 0.779549 0.514857 -0.356688
14.32999992 -0.98000002 -1.02999997 90 144 138 0.000000 0.000000 0.000000 0.000000 132.978989 0.000000 127.000000 0.112149 0.881573 -0.458532
14.85000038 -0.25000000 0.54000002 90 144 138 116.000000 1.000000 4.000000 4.000000 0.000000 95.000000 127.000000 -0.639902 0.736432 -0.219528
14.85000038 -0.34000000 0.56999999 90 144 138 116.000000 1.000000 4.000000 4.000000 0.000000 95.000000 127.000000 0.603826 -0.749632 0.271009
14.86999989 -0.33000001 0.51999998 90 144 138 116.000000 1.000000 4.000000 4.000000 0.000000 95.000000 127.000000 -0.513823 0.836281 -0.191365
14.80000019 -0.10000000 0.43000001 90 144 138 116.000000 1.000000 4.000000 4.000000 0.000000 95.000000 127.000000 -0.266704 0.889509 -0.371001
14.81999969 -0.05000000 0.25999999 90 144 138 116.000000 1.000000 4.000000 4.000000 0.000000 95.000000 127.000000 0.813378 -0.570098 0.115778
14.84000015 -0.14000000 0.23999999 90 144 138 116.000000 1.000000 4.000000 4.000000 0.000000 95.000000 127.000000 -0.701544 0.712614 0.004151
14.81999969 -0.11000000 0.25000000 90 144 138 116.000000 1.000000 4.000000 4.000000 0.000000 95.000000 127.000000 0.814780 -0.459008 0.354183
14.81999969 -0.09000000 0.16000000 90 144 138 116.000000 1.000000 4.000000 4.000000 0.000000 95.000000 127.000000 -0.231749 0.852777 -0.468043
14.81000042 -0.12000000 0.20000000 90 144 138 116.000000 1.000000 4.000000 4.000000 0.000000 95.000000 127.000000 -0.576704 0.643958 -0.502724
14.81000042 -0.12000000 0.20999999 90 144 138 116.000000 1.000000 4.000000 4.000000 0.000000 95.000000 127.000000 -0.223807 0.922312 -0.315040
14.77999973 -0.09000000 0.15000001 90 144 138 116.000000 1.000000 4.000000 4.000000 0.000000 95.000000 127.000000 -0.545607 0.781029 -0.303822
14.85999966 -0.14000000 0.04000000 90 144 138 116.000000 1.000000 4.000000 4.000000 0.000000 95.000000 127.000000 0.802926 -0.352776 0.480478
14.82999992 -0.14000000 0.05000000 90 144 138 116.000000 1.000000 4.000000 4.000000 0.000000 95.000000 127.000000 -0.405364 0.869938 -0.280870
14.72999954 -0.05000000 0.09000000 90 144 138 116.000000 1.000000 4.000000 4.000000 0.000000 95.000000 127.000000 -0.538831 0.666405 -0.515331
14.77000046 -0.04000000 0.05000000 90 144 138 116.000000 1.000000 4.000000 4.000000 0.000000 95.000000 127.000000 -0.565963 0.819423 -0.090727
14.77000046 -0.04000000 0.00000000 90 144 138 116.000000 1.000000 4.000000 4.000000 0.000000 95.000000 127.000000 -0.559921 0.770490 -0.304686
14.77999973 -0.03000000 0.00000000 90 144 138 116.000000 1.000000 4.000000 4.000000 0.000000 95.000000 127.000000 -0.486816 0.866560 -0.109926
14.72999954 -0.05000000 0.01000000 90 144 138 116.000000 1.000000 4.000000 4.000000 0.000000 95.000000 127.000000 -0.528033 0.555026 -0.642750
14.75000000 -0.07000000 0.01000000 90 144 138 116.000000 1.000000 4.000000 4.000000 0.000000 95.000000 127.000000 -0.389457 0.874384 -0.289441
14.80000019 -0.04000000 -0.13000000 90 144 138 116.000000 1.000000 4.000000 4.000000 0.000000 95.000000 127.000000 0.865082 -0.474400 0.163029
14.85000038 -0.11000000 -0.10000000 90 144 138 116.000000 1.000000 4.000000 4.000000 0.000000 95.000000 127.000000 0.753684 -0.458122 0.471258
14.85000038 -0.12000000 -0.16000000 90 144 138 116.000000 1.000000 4.000000 4.000000 0.000000 95.000000 127.000000 0.838007 -0.207607 0.504623
14.72999954 -0.04000000 -0.05000000 90 144 138 116.000000 1.000000 4.000000 4.000000 0.000000 95.000000 127.000000 0.855349 -0.514884 0.057209
14.88000011 -0.37000000 0.18000001 90 144 138 116.000000 1.000000 4.000000 4.000000 0.000000 95.000000 127.000000 -0.711284 0.521387 -0.471413
14.85000038 -0.16000000 0.44000000 90 144 138 116.000000 1.000000 4.000000 4.000000 0.000000 95.000000 127.000000 -0.369708 0.698338 -0.612894
14.86999989 -0.23999999 0.31999999 90 144 138 116.000000 1.000000 4.000000 4.000000 0.000000 95.000000 127.000000 0.677380 -0.560302 0.476675
14.86999989 -0.28000000 0.28999999 90 144 138 116.000000 1.000000 4.000000 4.000000 0.000000 95.000000 127.000000 0.732289 -0.669649 0.123788
14.85000038 -0.37000000 0.43000001 90 144 138 116.000000 1.000000 4.000000 4.000000 0.000000 95.000000 127.000000 -0.650230 0.710643 -0.268677
14.86999989 -0.38000000 0.17000000 90 144 138 116.000000 1.000000 4.000000 4.000000 0.000000 95.000000 127.000000 0.675072 -0.445048 0.588396
14.81000042 -0.47999999 0.28999999 90 144 138 116.000000 1.000000 4.000000 4.000000 0.000000 95.000000 127.000000 -0.274244 0.941251 -0.197070
14.85999966 -0.41999999 0.18000001 90 144 138 116.000000 1.000000 4.000000 4.000000 0.000000 95.000000 127.000000 -0.690323 0.719389 -0.077026
14.78999996 -0.47999999 0.23000000 90 144 138 116.000000 1.000000 4.000000 4.000000 0.000000 95.000000 127.000000 -0.035986 0.961693 -0.271756
14.77000046 -0.47999999 0.22000000 90 144 138 116.000000 1.000000 4.000000 4.000000 0.000000 95.000000 127.000000 -0.294920 0.890748 -0.345820
14.89000034 -0.25000000 0.13000000 90 144 138 116.000000 1.000000 4.000000 4.000000 0.000000 95.000000 127.000000 0.864692 -0.399442 0.304555
14.88000011 -0.20999999 -0.04000000 90 144 138 116.000000 1.000000 4.000000 4.000000 0.000000 95.000000 127.000000 0.671839 -0.655492 0.344910
14.89999962 -0.31000000 -0.12000000 90 144 138 116.000000 1.000000 4.000000 4.000000 0.000000 95.000000 127.000000 -0.474330 0.878541 -0.056370
14.89999962 -0.25999999 -0.15000001 90 144 138 116.000000 1.000000 4.000000 4.000000 0.000000 95.000000 127.000000 0.828565 -0.550931 0.099775
14.88000011 -0.37000000 0.00000000 90 144 138 116.000000 1.000000 4.000000 4.000000 0.000000 95.000000 127.000000 0.820411 -0.553369 0.143906
14.88000011 -0.38000000 0.06000000 90 144 138 116.000000 1.000000 4.000000 4.000000 0.000000 95.000000 127.000000 -0.226287 0.903686 -0.363518
14.86999989 -0.17000000 0.09000000 90 144 138 116.000000 1.000000 4.000000 4.000000 0.000000 95.000000 127.000000 0.450460 -0.550193 0.703117
14.86999989 -0.16000000 -0.07000000 90 144 138 116.000000 1.000000 4.000000 4.000000 0.000000 95.000000 127.000000 0.677667 -0.711474 0.185936
14.86999989 -0.15000001 -0.19000000 90 144 138 116.000000 1.000000 4.000000 4.000000 0.000000 95.000000 127.000000 0.908638 -0.267763 0.320438
14.86999989 -0.28000000 -0.08000000 90 144 138 116.000000 1.000000 4.000000 4.000000 0.000000 95.000000 127.000000 0.825355 -0.480805 0.296000
14.86999989 -0.36000001 0.11000000 90 144 138 116.000000 1.000000 4.000000 4.000000 0.000000 95.000000 127.000000 0.697355 -0.567537 0.437719
14.82999992 -0.44999999 0.13000000 90 144 138 116.000000 1.000000 4.000000 4.000000 0.000000 95.000000 127.000000 0.417756 -0.644110 0.640782
14.82999992 -0.46000001 0.12000000 90 144 138 116.000000 1.000000 4.000000 4.000000 0.000000 95.000000 127.000000 -0.355665 0.871607 -0.337347
14.85999966 -0.41000000 0.01000000 90 144 138 116.000000 1.000000 4.000000 4.000000 0.000000 95.000000 127.000000 -0.403123 0.912758 -0.066064
14.84000015 -0.46000001 -0.02000000 90 144 138 116.000000 1.000000 4.000000 4.000000 0.000000 95.000000 127.000000 -0.489900 0.597644 -0.634681
14.85999966 -0.41000000 -0.15000001 90 144 138 116.000000 1.000000 4.000000 4.000000 0.000000 95.000000 127.000000 -0.572347 0.807233 -0.144202
14.85000038 -0.41999999 -0.16000000 90 144 138 116.000000 1.000000 4.000000 4.000000 0.000000 95.000000 127.000000 0.605334 -0.662032 0.441910
14.65999985 -0.02000000 0.38000000 90 144 138 116.000000 1.000000 4.000000 4.000000 0.000000 95.000000 127.000000 0.001365 0.806665 -0.591008
14.65999985 -0.02000000 0.34999999 90 144 138 116.000000 1.000000 4.000000 4.000000 0.000000 95.000000 127.000000 -0.006220 0.946656 -0.322186
14.68000031 -0.05000000 0.28999999 90 144 138 116.000000 1.000000 4.000000 4.000000 0.000000 95.000000 127.000000 -0.112696 0.812290 -0.572262
14.68999958 -0.07000000 0.23000000 90 144 138 116.000000 1.000000 4.000000 4.000000 0.000000 95.000000 127.000000 0.159210 -0.668683 0.726302
14.60000038 -0.02000000 0.31999999 90 144 138 116.000000 1.000000 4.000000 4.000000 0.000000 95.000000 127.000000 -0.149149 0.745743 -0.649324
14.56999969 -0.01000000 0.31000000 90 144 138 116.000000 1.000000 4.000000 4.000000 0.000000 95.000000 127.000000 -0.376415 0.878302 -0.294783
14.59000015 -0.01000000 0.22000000 90 144 138 116.000000 1.000000 4.000000 4.000000 0.000000 95.000000 127.000000 0.041092 0.760911 -0.647554
14.56000042 0.00000000 0.17000000 90 144 138 116.000000 1.000000 4.000000 4.000000 0.000000 95.000000 127.000000 -0.445613 0.849594 -0.282170
14.50000000 -0.02000000 0.36000001 90 144 138 116.000000 1.000000 4.000000 4.000000 0.000000 95.000000 127.000000 0.409782 0.738924 -0.534856
14.43000031 -0.05000000 0.33000001 90 144 138 116.000000 1.000000 4.000000 4.000000 0.000000 95.000000 127.000000 0.069735 0.901092 -0.427984
14.35999966 -0.11000000 0.34000000 90 144 138 116.000000 1.000000 4.000000 4.000000 0.000000 95.000000 127.000000 0.471519 0.814443 -0.338160
14.44999981 -0.03000000 0.27000001 90 144 138 116.000000 1.000000 4.000000 4.000000 0.000000 95.000000 127.000000 -0.110646 -0.753865 0.647645
14.51000023 0.00000000 0.17000000 90 144 138 116.000000 1.000000 4.000000 4.000000 0.000000 95.000000 127.000000 0.037361 0.845457 -0.532735
14.50000000 -0.02000000 0.20999999 90 144 138 116.000000 1.000000 4.000000 4.000000 0.000000 95.000000 127.000000 0.408250 0.792295 -0.453432
14.47000027 -0.03000000 0.18000001 90 144 138 116.000000 1.000000 4.000000 4.000000 0.000000 95.000000 127.000000 -0.134758 0.804104 -0.579014
14.44999981 -0.02000000 0.16000000 90 144 138 116.000000 1.000000 4.000000 4.000000 0.000000 95.000000 127.000000 0.168609 0.770133 -0.615195
14.50000000 -0.08000000 0.31999999 90 144 138 116.000000 1.000000 4.000000 4.000000 0.000000 95.000000 127.000000 0.395503 0.617249 -0.680133
14.40999985 -0.08000000 0.25999999 90 144 138 116.000000 1.000000 4.000000 4.000000 0.000000 95.000000 127.000000 0.179747 0.942640 -0.281283
14.35999966 -0.11000000 0.31000000 90 144 138 116.000000 1.000000 4.000000 4.000000 0.000000 95.000000 127.000000 -0.117095 -0.638837 0.760379
14.39999962 -0.09000000 0.15000001 90 144 138 116.000000 1.000000 4.000000 4.000000 0.000000 95.000000 127.000000 0.202917 0.692396 -0.692396
14.64000034 -0.02000000 0.12000000 90 144 138 116.000000 1.000000 4.000000 4.000000 0.000000 95.000000 127.000000 -0.247469 0.903482 -0.349971
14.68999958 -0.04000000 -0.01000000 90 144 138 116.000000 1.000000 4.000000 4.000000 0.000000 95.000000 127.000000 -0.437480 0.819280 -0.370664
14.59000015 -0.02000000 0.07000000 90 144 138 116.000000 1.000000 4.000000 4.000000 0.000000 95.000000 127.000000 -0.096676 0.823911 -0.558412
14.64000034 -0.01000000 -0.19000000 90 144 138 116.000000 1.000000 4.000000 4.000000 0.000000 95.000000 127.000000 -0.452692 0.683214 -0.572964
14.59000015 -0.01000000 -0.10000000 90 144 138 116.000000 1.000000 4.000000 4.000000 0.000000 95.000000 127.000000 0.279450 -0.659503 0.697828
14.51000023 0.00000000 0.07000000 90 144 138 116.000000 1.000000 4.000000 4.000000 0.000000 95.000000 127.000000 0.320904 0.884370 -0.338983
14.48999977 -0.02000000 0.07000000 90 144 138 116.000000 1.000000 4.000000 4.000000 0.000000 95.000000 127.000000 -0.097739 0.792125 -0.602482
14.48999977 -0.02000000 0.07000000 90 144 138 116.000000 1.000000 4.000000 4.000000 0.000000 95.000000 127.000000 -0.097739 0.792125 -0.602482
14.47999954 -0.02000000 0.00000000 90 144 138 116.000000 1.000000 4.000000 4.000000 0.000000 95.000000 127.000000 0.267649 0.915793 -0.299477
14.43999958 -0.06000000 -0.02000000 90 144 138 116.000000 1.000000 4.000000 4.000000 0.000000 95.000000 127.000000 0.331609 0.845369 -0.418792
14.40999985 -0.06000000 0.01000000 90 144 138 116.000000 1.000000 4.000000 4.000000 0.000000 95.000000 127.000000 0.258793 0.703346 -0.662066
14.38000011 -0.08000000 0.04000000 90 144 138 116.000000 1.000000 4.000000 4.000000 0.000000 95.000000 127.000000 0.432106 0.754132 -0.494540
14.52999973 -0.01000000 -0.15000001 90 144 138 116.000000 1.000000 4.000000 4.000000 0.000000 95.000000 127.000000 0.111454 0.917773 -0.381144
14.52000046 -0.01000000 -0.19000000 90 144 138 116.000000 1.000000 4.000000 4.000000 0.000000 95.000000 127.000000 0.063481 0.947029 -0.314813
14.46000004 -0.03000000 -0.11000000 90 144 138 116.000000 1.000000 4.000000 4.000000 0.000000 95.000000 127.000000 0.183620 0.805802 -0.562999
14.43000031 -0.05000000 -0.09000000 90 144 138 116.000000 1.000000 4.000000 4.000000 0.000000 95.000000 127.000000 0.638354 0.611546 -0.467456
14.43999958 -0.05000000 -0.03000000 90 144 138 116.000000 1.000000 4.000000 4.000000 0.000000 95.000000 127.000000 0.017738 0.847328 -0.530774
14.35999966 -0.03000000 -0.11000000 90 144 138 116.000000 1.000000 4.000000 4.000000 0.000000 95.000000 127.000000 0.780111 0.610068 -0.138720
14.42000008 -0.09000000 -0.04000000 90 144 138 116.000000 1.000000 4.000000 4.000000 0.000000 95.000000 127.000000 0.295364 0.912283 -0.283724
14.35999966 -0.14000000 -0.11000000 90 144 138 116.000000 1.000000 4.000000 4.000000 0.000000 95.000000 127.000000 0.775626 0.503590 -0.380527
14.36999989 -0.16000000 0.20999999 90 144 138 116.000000 1.000000 4.000000 4.000000 0.000000 95.000000 127.000000 0.135419 0.793166 -0.593759
14.36999989 -0.47999999 0.27000001 90 144 138 116.000000 1.000000 4.000000 4.000000 0.000000 95.000000 127.000000 0.534854 0.642838 -0.548352
14.35999966 -0.43000001 0.30000001 90 144 138 116.000000 1.000000 4.000000 4.000000 0.000000 95.000000 127.000000 0.424414 0.677398 -0.600837
14.35999966 -0.47000000 0.31999999 90 144 138 116.000000 1.000000 4.000000 4.000000 0.000000 95.000000 127.000000 0.321032 0.941784 -0.099906
14.35999966 -0.46000001 0.20999999 90 144 138 116.000000 1.000000 4.000000 4.000000 0.000000 95.000000 127.000000 0.219097 0.917917 -0.330794
14.35999966 -0.46000001 0.12000000 90 144 138 116.000000 1.000000 4.000000 4.000000 0.000000 95.000000 127.000000 0.028565 0.957538 -0.286889
14.35999966 -0.47999999 0.10000000 90 144 138 116.000000 1.000000 4.000000 4.000000 0.000000 95.000000 127.000000 -0.097864 0.866595 -0.489321
14.39999962 -0.49000001 0.00000000 90 144 138 116.000000 1.000000 4.000000 4.000000 0.000000 95.000000 127.000000 0.076759 0.922451 -0.378407
14.38000011 -0.49000001 0.00000000 90 144 138 116.000000 1.000000 4.000000 4.000000 0.000000 95.000000 127.000000 0.516708 0.822105 -0.239074
14.36999989 -0.46000001 0.13000000 90 144 138 116.000000 1.000000 4.000000 4.000000 0.000000 95.000000 127.000000 0.539808 0.709225 -0.453439
14.35999966 -0.41999999 -0.07000000 90 144 138 116.000000 1.000000 4.000000 4.000000 0.000000 95.000000 127.000000 0.233030 0.959767 -0.156670
14.38000011 -0.49000001 -0.04000000 90 144 138 116.000000 1.000000 4.000000 4.000000 0.000000 95.000000 127.000000 0.143932 0.980461 -0.134091
14.31000042 -0.27000001 0.52999997 90 144 138 116.000000 1.000000 4.000000 4.000000 0.000000 95.000000 127.000000 -0.058222 -0.799494 0.597845
14.31000042 -0.37000000 0.60000002 90 144 138 116.000000 1.000000 4.000000 4.000000 0.000000 95.000000 127.000000 0.087786 0.975539 -0.201537
14.35000038 -0.10000000 0.17000000 90 144 138 116.000000 1.000000 4.000000 4.000000 0.000000 95.000000 127.000000 0.591270 0.719024 -0.365245
14.31999969 -0.14000000 -0.04000000 90 144 138 116.000000 1.000000 4.000000 4.000000 0.000000 95.000000 127.000000 0.798118 0.443399 -0.407927
14.31999969 -0.13000000 -0.12000000 90 144 138 116.000000 1.000000 4.000000 4.000000 0.000000 95.000000 127.000000 0.401196 0.592714 -0.698378
14.31000042 -0.30000001 0.43000001 90 144 138 116.000000 1.000000 4.000000 4.000000 0.000000 95.000000 127.000000 0.387580 0.851431 -0.353336
14.30000019 -0.28999999 0.44000000 90 144 138 116.000000 1.000000 4.000000 4.000000 0.000000 95.000000 127.000000 0.687027 0.654696 -0.315224
14.34000015 -0.15000001 0.20000000 90 144 138 116.000000 1.000000 4.000000 4.000000 0.000000 95.000000 127.000000 0.349270 0.931836 -0.098443
14.30000019 -0.16000000 0.20000000 90 144 138 116.000000 1.000000 4.000000 4.000000 0.000000 95.000000 127.000000 -0.236417 -0.621574 0.746828
14.31000042 -0.20000000 0.18000001 90 144 138 116.000000 1.000000 4.000000 4.000000 0.000000 95.000000 127.000000 0.558811 0.766964 -0.315432
14.31999969 -0.31000000 0.28999999 90 144 138 116.000000 1.000000 4.000000 4.000000 0.000000 95.000000 127.000000 0.104671 0.747437 -0.656035
14.31999969 -0.31000000 0.28999999 90 144 138 116.000000 1.000000 4.000000 4.000000 0.000000 95.000000 127.000000 0.104671 0.747437 -0.656035
14.30000019 -0.31000000 0.25000000 90 144 138 116.000000 1.000000 4.000000 4.000000 0.000000 95.000000 127.000000 0.458537 0.511509 -0.726707
14.27999973 -0.30000001 0.27000001 90 144 138 116.000000 1.000000 4.000000 4.000000 0.000000 95.000000 127.000000 0.602337 0.595588 -0.531474
14.22999954 -0.25000000 0.17000000 90 144 138 116.000000 1.000000 4.000000 4.000000 0.000000 95.000000 127.000000 0.399535 0.644893 -0.651525
14.30000019 -0.34999999 0.44999999 90 144 138 116.000000 1.000000 4.000000 4.000000 0.000000 95.000000 127.000000 0.246980 0.954543 -0.166878
14.31000042 -0.34999999 0.44999999 90 144 138 116.000000 1.000000 4.000000 4.000000 0.000000 95.000000 127.000000 0.548567 0.806716 -0.219734
14.31999969 -0.37000000 0.34000000 90 144 138 116.000000 1.000000 4.000000 4.000000 0.000000 95.000000 127.000000 0.425545 0.787986 -0.444961
14.32999992 -0.43000001 0.47999999 90 144 138 116.000000 1.000000 4.000000 4.000000 0.000000 95.000000 127.000000 0.023468 0.826904 -0.561853
14.31999969 -0.41000000 0.41000000 90 144 138 116.000000 1.000000 4.000000 4.000000 0.000000 95.000000 127.000000 0.208983 0.763173 -0.611468
14.31999969 -0.43000001 0.38999999 90 144 138 116.000000 1.000000 4.000000 4.000000 0.000000 95.000000 127.000000 0.216392 0.936768 -0.275027
14.31000042 -0.44999999 0.33000001 90 144 138 116.000000 1.000000 4.000000 4.000000 0.000000 95.000000 127.000000 0.562948 0.620426 -0.546042
14.26000023 -0.40000001 0.49000001 90 144 138 116.000000 1.000000 4.000000 4.000000 0.000000 95.000000 127.000000 -0.172963 -0.699504 0.693381
14.31999969 -0.33000001 0.31000000 90 144 138 116.000000 1.000000 4.000000 4.000000 0.000000 95.000000 127.000000 0.662804 0.685381 -0.301568
14.31999969 -0.38000000 0.28999999 90 144 138 116.000000 1.000000 4.000000 4.000000 0.000000 95.000000 127.000000 0.036627 0.951034 -0.306908
14.31000042 -0.36000001 0.28999999 90 144 138 116.000000 1.000000 4.000000 4.000000 0.000000 95.000000 127.000000 0.315325 0.545817 -0.776308
14.30000019 -0.34000000 0.30000001 90 144 138 116.000000 1.000000 4.000000 4.000000 0.000000 95.000000 127.000000 0.417756 0.644110 -0.640782
14.30000019 -0.34000000 0.30000001 90 144 138 116.000000 1.000000 4.000000 4.000000 0.000000 95.000000 127.000000 0.417756 0.644110 -0.640782
14.27999973 -0.31999999 0.30000001 90 144 138 116.000000 1.000000 4.000000 4.000000 0.000000 95.000000 127.000000 0.033712 0.957659 -0.285924
14.31999969 -0.34999999 0.22000000 90 144 138 116.000000 1.000000 4.000000 4.000000 0.000000 95.000000 127.000000 0.642141 0.681355 -0.351298
14.32999992 -0.38000000 0.20000000 90 144 138 116.000000 1.000000 4.000000 4.000000 0.000000 95.000000 127.000000 0.573257 0.657312 -0.489201
14.34000015 -0.49000001 0.31999999 90 144 138 116.000000 1.000000 4.000000 4.000000 0.000000 95.000000 127.000000 0.552956 0.617214 -0.559720
14.34000015 -0.46000001 0.27000001 90 144 138 116.000000 1.000000 4.000000 4.000000 0.000000 95.000000 127.000000 0.199848 0.845972 -0.494360
14.35000038 -0.44000000 0.20000000 90 144 138 116.000000 1.000000 4.000000 4.000000 0.000000 95.000000 127.000000 0.478800 0.535522 -0.695678
14.35000038 -0.44000000 0.20000000 90 144 138 116.000000 1.000000 4.000000 4.000000 0.000000 95.000000 127.000000 0.478800 0.535522 -0.695678
14.35000038 -0.43000001 0.20000000 90 144 138 116.000000 1.000000 4.000000 4.000000 0.000000 95.000000 127.000000 0.562344 0.659705 -0.498556
14.34000015 -0.43000001 0.17000000 90 144 138 116.000000 1.000000 4.000000 4.000000 0.000000 95.000000 127.000000 0.240179 0.964570 -0.109172
14.35000038 -0.44000000 0.16000000 90 144 138 116.000000 1.000000 4.000000 4.000000 0.000000 95.000000 127.000000 0.505584 0.673552 -0.539178
14.34000015 -0.15000001 0.12000000 90 144 138 116.000000 1.000000 4.000000 4.000000 0.000000 95.000000 127.000000 -0.254641 -0.627904 0.735455
14.31999969 -0.20000000 0.14000000 90 144 138 116.000000 1.000000 4.000000 4.000000 0.000000 95.000000 127.000000 0.291462 0.946915 -0.135657
14.30000019 -0.22000000 0.03000000 90 144 138 116.000000 1.000000 4.000000 4.000000 0.000000 95.000000 127.000000 0.355830 0.660827 -0.660827
14.32999992 -0.23999999 0.07000000 90 144 138 116.000000 1.000000 4.000000 4.000000 0.000000 95.000000 127.000000 0.661490 0.540301 -0.520103
14.31999969 -0.23999999 0.07000000 90 144 138 116.000000 1.000000 4.000000 4.000000 0.000000 95.000000 127.000000 0.364239 0.857123 -0.364239
14.31999969 -0.23999999 0.06000000 90 144 138 116.000000 1.000000 4.000000 4.000000 0.000000 95.000000 127.000000 0.277047 0.888048 -0.366900
14.28999996 -0.28000000 0.06000000 90 144 138 116.000000 1.000000 4.000000 4.000000 0.000000 95.000000 127.000000 0.695781 0.620472 -0.361806
14.28999996 -0.28000000 0.06000000 90 144 138 116.000000 1.000000 4.000000 4.000000 0.000000 95.000000 127.000000 0.695781 0.620472 -0.361806
14.26000023 -0.27000001 0.09000000 90 144 138 116.000000 1.000000 4.000000 4.000000 0.000000 95.000000 127.000000 0.367098 0.925197 -0.096177
14.25000000 -0.25000000 0.00000000 90 144 138 116.000000 1.000000 4.000000 4.000000 0.000000 95.000000 127.000000 0.409307 0.618103 -0.671131
14.27999973 -0.18000001 -0.10000000 90 144 138 116.000000 1.000000 4.000000 4.000000 0.000000 95.000000 127.000000 0.441917 0.888097 -0.126465
14.31000042 -0.23000000 -0.10000000 90 144 138 116.000000 1.000000 4.000000 4.000000 0.000000 95.000000 127.000000 0.495212 0.808477 -0.318011
14.30000019 -0.23000000 -0.07000000 90 144 138 116.000000 1.000000 4.000000 4.000000 0.000000 95.000000 127.000000 0.769063 0.416372 -0.484950
14.34000015 -0.20999999 -0.13000000 90 144 138 116.000000 1.000000 4.000000 4.000000 0.000000 95.000000 127.000000 -0.277354 -0.572141 0.771835
14.30000019 -0.18000001 -0.12000000 90 144 138 116.000000 1.000000 4.000000 4.000000 0.000000 95.000000 127.000000 0.664967 0.587918 -0.460620
14.32999992 -0.28000000 -0.05000000 90 144 138 116.000000 1.000000 4.000000 4.000000 0.000000 95.000000 127.000000 0.639663 0.468414 -0.609442
14.30000019 -0.25999999 -0.15000001 90 144 138 116.000000 1.000000 4.000000 4.000000 0.000000 95.000000 127.000000 0.642027 0.757681 -0.117137
14.28999996 -0.25999999 -0.14000000 90 144 138 116.000000 1.000000 4.000000 4.000000 0.000000 95.000000 127.000000 0.474256 0.846340 -0.242465
