//X Y Z R G B PointSourceId ScanDirectionFlag NumberOfReturns ReturnNumber GpsTime Intensity Classification Nx Ny Nz
-19.30999947 2.43000007 0.33000001 241 197 36 0.000000 0.000000 0.000000 0.000000 -0.000107 0.000000 129.000000 0.738383 -0.044104 0.672938
-19.22999954 2.35999990 0.22000000 241 197 36 0.000000 0.000000 0.000000 0.000000 -0.000107 0.000000 129.000000 0.759362 -0.152476 0.632550
-19.22999954 2.36999989 0.22000000 241 197 36 0.000000 0.000000 0.000000 0.000000 -0.000107 0.000000 129.000000 0.753028 -0.126747 0.645666
-19.20999908 2.33999991 0.17000000 241 197 36 0.000000 0.000000 0.000000 0.000000 -0.000107 0.000000 129.000000 0.538717 0.130643 0.832296
-19.26000023 2.39000010 0.28000000 241 197 36 0.000000 0.000000 0.000000 0.000000 -0.000107 0.000000 129.000000 0.440979 -0.473766 0.762288
-19.29000092 2.36999989 0.30000001 241 197 36 0.000000 0.000000 0.000000 0.000000 -0.000107 0.000000 129.000000 0.386090 -0.583242 0.714677
-19.28000069 2.38000011 0.30000001 241 197 36 0.000000 0.000000 0.000000 0.000000 -0.000107 0.000000 129.000000 0.784534 -0.026571 0.619516
-19.30999947 2.42000008 0.17000000 241 197 36 0.000000 0.000000 0.000000 0.000000 -0.000107 0.000000 129.000000 0.325971 0.018879 0.945191
-19.23999977 2.33999991 0.20000000 241 197 36 0.000000 0.000000 0.000000 0.000000 -0.000107 0.000000 129.000000 0.595662 -0.468140 0.652711
-19.12000084 2.42000008 0.14000000 241 197 36 0.000000 0.000000 0.000000 0.000000 -0.000107 0.000000 129.000000 0.605846 0.132482 0.784474
-19.09000015 2.25999999 0.07000000 241 197 36 0.000000 0.000000 0.000000 0.000000 -0.000107 0.000000 129.000000 0.347400 -0.627930 0.696432
-19.11000061 2.26999998 0.14000000 241 197 36 0.000000 0.000000 0.000000 0.000000 -0.000107 0.000000 129.000000 0.657320 -0.029558 0.753032
-19.12000084 2.27999997 0.03000000 241 197 36 0.000000 0.000000 0.000000 0.000000 -0.000107 0.000000 129.000000 0.349356 -0.139466 0.926553
-19.12000084 2.27999997 0.03000000 241 197 36 0.000000 0.000000 0.000000 0.000000 -0.000107 0.000000 129.000000 0.349356 -0.139466 0.926553
-19.03000069 2.34999990 -0.19000000 241 197 36 0.000000 0.000000 0.000000 0.000000 -0.000107 0.000000 129.000000 0.653984 0.741584 0.149525
-18.97999954 2.27999997 -0.19000000 241 197 36 0.000000 0.000000 0.000000 0.000000 -0.000107 0.000000 129.000000 0.571331 -0.167329 0.803481
-19.02000046 2.29999995 -0.19000000 241 197 36 0.000000 0.000000 0.000000 0.000000 -0.000107 0.000000 129.000000 0.664923 0.574480 0.477337
-19.09000015 2.34999990 -0.10000000 241 197 36 0.000000 0.000000 0.000000 0.000000 -0.000107 0.000000 129.000000 0.638537 0.693779 0.333079
-19.09000015 2.34999990 -0.12000000 241 197 36 0.000000 0.000000 0.000000 0.000000 -0.000107 0.000000 129.000000 0.522104 0.666480 0.532177
-19.07999992 2.35999990 -0.12000000 241 197 36 0.000000 0.000000 0.000000 0.000000 -0.000107 0.000000 129.000000 0.591141 0.697116 0.405685
-19.11000061 2.30999994 -0.03000000 241 197 36 0.000000 0.000000 0.000000 0.000000 -0.000107 0.000000 129.000000 0.349236 0.042843 0.936055
-19.11000061 2.26999998 -0.05000000 241 197 36 0.000000 0.000000 0.000000 0.000000 -0.000107 0.000000 129.000000 0.187966 -0.603632 0.774788
-19.11000061 2.27999997 -0.08000000 241 197 36 0.000000 0.000000 0.000000 0.000000 -0.000107 0.000000 129.000000 0.494685 -0.494685 0.714545
-19.11000061 2.25999999 -0.10000000 241 197 36 0.000000 0.000000 0.000000 0.000000 -0.000107 0.000000 129.000000 0.167227 0.944898 -0.281430
-19.09000015 2.31999993 -0.11000000 241 197 36 0.000000 0.000000 0.000000 0.000000 -0.000107 0.000000 129.000000 0.441395 -0.183304 0.878391
-19.10000038 2.30999994 -0.15000001 241 197 36 0.000000 0.000000 0.000000 0.000000 -0.000107 0.000000 129.000000 -0.264789 0.727773 -0.632640
-19.07999992 2.26999998 -0.15000001 241 197 36 0.000000 0.000000 0.000000 0.000000 -0.000107 0.000000 129.000000 0.081827 0.926927 -0.366210
-19.07999992 2.25999999 -0.16000000 241 197 36 0.000000 0.000000 0.000000 0.000000 -0.000107 0.000000 129.000000 0.391110 0.913511 -0.111943
-19.07999992 2.25999999 -0.17000000 241 197 36 0.000000 0.000000 0.000000 0.000000 -0.000107 0.000000 129.000000 0.333720 0.862751 -0.379857
-19.12000084 2.30999994 -0.11000000 241 197 36 0.000000 0.000000 0.000000 0.000000 -0.000107 0.000000 129.000000 0.225077 -0.389840 0.892953
-19.15999985 2.38000011 0.13000000 241 197 36 0.000000 0.000000 0.000000 0.000000 -0.000107 0.000000 129.000000 0.683981 -0.341174 0.644803
-19.14999962 2.34999990 0.14000000 241 197 36 0.000000 0.000000 0.000000 0.000000 -0.000107 0.000000 129.000000 0.672780 -0.107941 0.731926
-19.21999931 2.34999990 0.01000000 241 197 36 0.000000 0.000000 0.000000 0.000000 -0.000107 0.000000 129.000000 0.255460 -0.159161 0.953629
-19.18000031 2.32999992 0.10000000 241 197 36 0.000000 0.000000 0.000000 0.000000 -0.000107 0.000000 129.000000 0.682525 -0.026738 0.730373
-19.19000053 2.29999995 0.08000000 241 197 36 0.000000 0.000000 0.000000 0.000000 -0.000107 0.000000 129.000000 -0.516695 0.543624 -0.661437
-19.15999985 2.30999994 0.00000000 241 197 36 0.000000 0.000000 0.000000 0.000000 -0.000107 0.000000 129.000000 0.226434 -0.212875 0.950480
-19.27000046 2.36999989 0.13000000 241 197 36 0.000000 0.000000 0.000000 0.000000 -0.000107 0.000000 129.000000 0.359471 -0.356385 0.862421
-19.25000000 2.35999990 0.10000000 241 197 36 0.000000 0.000000 0.000000 0.000000 -0.000107 0.000000 129.000000 0.213955 -0.281079 0.935531
-19.27000046 2.31999993 0.10000000 241 197 36 0.000000 0.000000 0.000000 0.000000 -0.000107 0.000000 129.000000 0.575825 -0.491886 0.653050
-19.27000046 2.31999993 0.10000000 241 197 36 0.000000 0.000000 0.000000 0.000000 -0.000107 0.000000 129.000000 0.575825 -0.491886 0.653050
-19.29999924 2.31999993 0.12000000 241 197 36 0.000000 0.000000 0.000000 0.000000 -0.000107 0.000000 129.000000 -0.334026 0.676198 -0.656645
-19.29000092 2.32999992 0.12000000 241 197 36 0.000000 0.000000 0.000000 0.000000 -0.000107 0.000000 129.000000 0.473892 -0.557618 0.681534
-19.23999977 2.29999995 0.06000000 241 197 36 0.000000 0.000000 0.000000 0.000000 -0.000107 0.000000 129.000000 0.496701 -0.580888 0.644870
-19.18000031 2.25999999 -0.07000000 241 197 36 0.000000 0.000000 0.000000 0.000000 -0.000107 0.000000 129.000000 0.219218 0.936914 -0.272278
-19.14999962 2.29999995 -0.05000000 241 197 36 0.000000 0.000000 0.000000 0.000000 -0.000107 0.000000 129.000000 0.577026 -0.553336 0.600716
-18.52000046 2.22000003 0.03000000 241 197 36 0.000000 0.000000 0.000000 0.000000 -0.000107 0.000000 129.000000 0.367628 -0.065032 0.927696
-18.59000015 2.23000002 0.04000000 241 197 36 0.000000 0.000000 0.000000 0.000000 -0.000107 0.000000 129.000000 0.404850 0.030331 0.913880
-18.54999924 2.23000002 -0.10000000 241 197 36 0.000000 0.000000 0.000000 0.000000 -0.000107 0.000000 129.000000 0.733561 0.385653 0.559607
-18.55999947 2.21000004 -0.03000000 241 197 36 0.000000 0.000000 0.000000 0.000000 -0.000107 0.000000 129.000000 0.559368 0.090592 0.823954
-18.88999939 2.22000003 0.50000000 241 197 36 0.000000 0.000000 0.000000 0.000000 -0.000107 0.000000 129.000000 0.244729 -0.120422 0.962084
-18.79999924 2.19000006 0.43000001 241 197 36 0.000000 0.000000 0.000000 0.000000 -0.000107 0.000000 129.000000 0.838472 -0.191178 0.510309
-18.77000046 2.08999991 0.41000000 241 197 36 0.000000 0.000000 0.000000 0.000000 -0.000107 0.000000 129.000000 0.347484 -0.106814 0.931582
-18.79999924 2.11999989 0.38000000 241 197 36 0.000000 0.000000 0.000000 0.000000 -0.000107 0.000000 129.000000 0.284524 -0.051847 0.957266
-18.77000046 2.18000007 0.25999999 241 197 36 0.000000 0.000000 0.000000 0.000000 -0.000107 0.000000 129.000000 0.665264 -0.351430 0.658726
-18.72999954 2.13000011 0.15000001 241 197 36 0.000000 0.000000 0.000000 0.000000 -0.000107 0.000000 129.000000 0.591008 -0.001365 0.806665
-18.79000092 2.15000010 0.18000001 241 197 36 0.000000 0.000000 0.000000 0.000000 -0.000107 0.000000 129.000000 0.665955 -0.498208 0.555242
-18.78000069 2.13000011 0.16000000 241 197 36 0.000000 0.000000 0.000000 0.000000 -0.000107 0.000000 129.000000 0.510519 -0.648679 0.564435
-18.81999969 2.19000006 0.44000000 241 197 36 0.000000 0.000000 0.000000 0.000000 -0.000107 0.000000 129.000000 0.491065 0.009366 0.871072
-18.82999992 2.20000005 0.34999999 241 197 36 0.000000 0.000000 0.000000 0.000000 -0.000107 0.000000 129.000000 0.450408 -0.621195 0.641287
-18.82999992 2.18000007 0.33000001 241 197 36 0.000000 0.000000 0.000000 0.000000 -0.000107 0.000000 129.000000 0.614099 -0.175239 0.769528
-18.82999992 2.15000010 0.47999999 241 197 36 0.000000 0.000000 0.000000 0.000000 -0.000107 0.000000 129.000000 0.739317 -0.219460 0.636591
-18.84000015 2.16000009 0.43000001 241 197 36 0.000000 0.000000 0.000000 0.000000 -0.000107 0.000000 129.000000 0.611549 -0.362338 0.703363
-18.81999969 2.16000009 0.41000000 241 197 36 0.000000 0.000000 0.000000 0.000000 -0.000107 0.000000 129.000000 0.520754 -0.161716 0.838250
-18.63999939 2.23000002 0.13000000 241 197 36 0.000000 0.000000 0.000000 0.000000 -0.000107 0.000000 129.000000 0.276280 -0.067479 0.958705
-18.68000031 2.11999989 0.10000000 241 197 36 0.000000 0.000000 0.000000 0.000000 -0.000107 0.000000 129.000000 0.429186 0.036100 0.902494
-18.78000069 2.20000005 0.02000000 241 197 36 0.000000 0.000000 0.000000 0.000000 -0.000107 0.000000 129.000000 0.471583 -0.188931 0.861345
-18.79000092 2.18000007 -0.01000000 241 197 36 0.000000 0.000000 0.000000 0.000000 -0.000107 0.000000 129.000000 0.606663 -0.401687 0.686009
-18.79999924 2.18000007 -0.01000000 241 197 36 0.000000 0.000000 0.000000 0.000000 -0.000107 0.000000 129.000000 -0.588824 0.481460 -0.649216
-18.79000092 2.18000007 -0.01000000 241 197 36 0.000000 0.000000 0.000000 0.000000 -0.000107 0.000000 129.000000 0.606663 -0.401687 0.686009
-18.78000069 2.15000010 0.09000000 241 197 36 0.000000 0.000000 0.000000 0.000000 -0.000107 0.000000 129.000000 0.580674 0.012355 0.814042
-18.78000069 2.14000010 0.06000000 241 197 36 0.000000 0.000000 0.000000 0.000000 -0.000107 0.000000 129.000000 0.407829 -0.057877 0.911222
-18.78000069 2.13000011 -0.02000000 241 197 36 0.000000 0.000000 0.000000 0.000000 -0.000107 0.000000 129.000000 0.542965 -0.603859 0.583561
-18.76000023 2.14000010 -0.10000000 241 197 36 0.000000 0.000000 0.000000 0.000000 -0.000107 0.000000 129.000000 0.651117 0.006912 0.758946
-18.73999977 2.13000011 -0.11000000 241 197 36 0.000000 0.000000 0.000000 0.000000 -0.000107 0.000000 129.000000 0.648742 -0.152734 0.745524
-18.78000069 2.17000008 -0.13000000 241 197 36 0.000000 0.000000 0.000000 0.000000 -0.000107 0.000000 129.000000 0.368021 -0.096419 0.924805
-18.70000076 2.06999993 0.04000000 241 197 36 0.000000 0.000000 0.000000 0.000000 -0.000107 0.000000 129.000000 -0.672921 0.442492 -0.592772
-18.81999969 2.18000007 -0.04000000 241 197 36 0.000000 0.000000 0.000000 0.000000 -0.000107 0.000000 129.000000 0.456411 -0.489365 0.743109
-19.06999969 2.25000000 0.08000000 241 197 36 0.000000 0.000000 0.000000 0.000000 -0.000107 0.000000 129.000000 -0.354983 0.675614 -0.646168
-19.02000046 2.25000000 -0.14000000 241 197 36 0.000000 0.000000 0.000000 0.000000 -0.000107 0.000000 129.000000 -0.325865 0.695503 -0.640381
-19.10000038 2.25000000 -0.12000000 241 197 36 0.000000 0.000000 0.000000 0.000000 -0.000107 0.000000 129.000000 0.210081 -0.667590 0.714275
-19.12999916 2.22000003 -0.14000000 241 197 36 0.000000 0.000000 0.000000 0.000000 -0.000107 0.000000 129.000000 0.224060 0.864660 -0.449623
-19.12999916 2.25000000 -0.19000000 241 197 36 0.000000 0.000000 0.000000 0.000000 -0.000107 0.000000 129.000000 0.399773 0.916201 -0.027525
-19.13999939 2.23000002 -0.18000001 241 197 36 0.000000 0.000000 0.000000 0.000000 -0.000107 0.000000 129.000000 0.420037 0.880149 -0.221150
-19.07999992 2.13000011 -0.17000000 241 197 36 0.000000 0.000000 0.000000 0.000000 -0.000107 0.000000 129.000000 0.083686 0.970508 -0.226077
-19.17000008 2.16000009 -0.18000001 241 197 36 0.000000 0.000000 0.000000 0.000000 -0.000107 0.000000 129.000000 0.398962 0.914791 0.063135
-19.53000069 2.61999989 0.50000000 241 197 36 0.000000 0.000000 0.000000 0.000000 -0.000107 0.000000 129.000000 0.538419 0.548546 0.639689
-19.51000023 2.64000010 0.50000000 241 197 36 0.000000 0.000000 0.000000 0.000000 -0.000107 0.000000 129.000000 0.399259 0.621254 0.674267
-19.51000023 2.64000010 0.50000000 241 197 36 0.000000 0.000000 0.000000 0.000000 -0.000107 0.000000 129.000000 0.399259 0.621254 0.674267
-19.60000038 2.72000003 0.54000002 241 197 36 0.000000 0.000000 0.000000 0.000000 -0.000107 0.000000 129.000000 0.259747 0.766646 0.587185
-19.60000038 2.72000003 0.54000002 241 197 36 0.000000 0.000000 0.000000 0.000000 -0.000107 0.000000 129.000000 0.259747 0.766646 0.587185
-19.61000061 2.72000003 0.54000002 241 197 36 0.000000 0.000000 0.000000 0.000000 -0.000107 0.000000 129.000000 0.323932 0.884410 0.335986
-19.62999916 2.74000001 0.50000000 241 197 36 0.000000 0.000000 0.000000 0.000000 -0.000107 0.000000 129.000000 0.767229 0.640064 0.040975
-19.63999939 2.74000001 0.50000000 241 197 36 0.000000 0.000000 0.000000 0.000000 -0.000107 0.000000 129.000000 0.661282 0.611311 0.434747
-19.64999962 2.75000000 0.50999999 241 197 36 0.000000 0.000000 0.000000 0.000000 -0.000107 0.000000 129.000000 0.425027 0.635040 0.645040
-19.63999939 2.73000002 0.54000002 241 197 36 0.000000 0.000000 0.000000 0.000000 -0.000107 0.000000 129.000000 0.395321 0.686436 0.610349
-19.62999916 2.72000003 0.51999998 241 197 36 0.000000 0.000000 0.000000 0.000000 -0.000107 0.000000 129.000000 0.305464 0.845065 0.438814
-19.62999916 2.72000003 0.51999998 241 197 36 0.000000 0.000000 0.000000 0.000000 -0.000107 0.000000 129.000000 0.305464 0.845065 0.438814
-19.62999916 2.73000002 0.50999999 241 197 36 0.000000 0.000000 0.000000 0.000000 -0.000107 0.000000 129.000000 0.773535 0.464121 0.431551
-19.65999985 2.73000002 0.51999998 241 197 36 0.000000 0.000000 0.000000 0.000000 -0.000107 0.000000 129.000000 0.712362 0.608035 0.350476
-19.54000092 2.54999995 0.50000000 241 197 36 0.000000 0.000000 0.000000 0.000000 -0.000107 0.000000 129.000000 0.313500 0.287007 0.905177
-19.78000069 2.80999994 0.55000001 241 197 36 0.000000 0.000000 0.000000 0.000000 -0.000107 0.000000 129.000000 0.428564 0.899846 0.081303
-19.80999947 2.80999994 0.55000001 241 197 36 0.000000 0.000000 0.000000 0.000000 -0.000107 0.000000 129.000000 0.276609 0.929121 -0.245401
-19.79999924 2.80999994 0.55000001 241 197 36 0.000000 0.000000 0.000000 0.000000 -0.000107 0.000000 129.000000 0.358426 0.916608 -0.177088
-19.67000008 2.78999996 0.50999999 241 197 36 0.000000 0.000000 0.000000 0.000000 -0.000107 0.000000 129.000000 0.469000 0.882903 -0.022845
-19.67000008 2.78999996 0.50999999 241 197 36 0.000000 0.000000 0.000000 0.000000 -0.000107 0.000000 129.000000 0.469000 0.882903 -0.022845
-19.69000053 2.71000004 0.52999997 241 197 36 0.000000 0.000000 0.000000 0.000000 -0.000107 0.000000 129.000000 0.240461 0.724525 0.645943
-19.73999977 2.70000005 0.54000002 241 197 36 0.000000 0.000000 0.000000 0.000000 -0.000107 0.000000 129.000000 0.716925 0.693845 0.067798
-19.73999977 2.70000005 0.54000002 241 197 36 0.000000 0.000000 0.000000 0.000000 -0.000107 0.000000 129.000000 0.716925 0.693845 0.067798
-19.70000076 2.66000009 0.50000000 241 197 36 0.000000 0.000000 0.000000 0.000000 -0.000107 0.000000 129.000000 0.415465 0.513995 0.750465
-19.71999931 2.64000010 0.51999998 241 197 36 0.000000 0.000000 0.000000 0.000000 -0.000107 0.000000 129.000000 0.575217 0.635944 0.514490
-19.73999977 2.60999990 0.50000000 241 197 36 0.000000 0.000000 0.000000 0.000000 -0.000107 0.000000 129.000000 0.433374 0.695723 0.572850
-19.75000000 2.60999990 0.50000000 241 197 36 0.000000 0.000000 0.000000 0.000000 -0.000107 0.000000 129.000000 0.297069 0.812617 0.501402
-19.82999992 2.73000002 0.54000002 241 197 36 0.000000 0.000000 0.000000 0.000000 -0.000107 0.000000 129.000000 0.435986 0.832623 0.341549
-19.81999969 2.72000003 0.56000000 241 197 36 0.000000 0.000000 0.000000 0.000000 -0.000107 0.000000 129.000000 0.276609 0.929121 0.245401
-19.84000015 2.69000006 0.55000001 241 197 36 0.000000 0.000000 0.000000 0.000000 -0.000107 0.000000 129.000000 0.479766 0.869307 -0.118867
-19.84000015 2.74000001 0.54000002 241 197 36 0.000000 0.000000 0.000000 0.000000 -0.000107 0.000000 129.000000 0.524571 0.819931 0.229212
-19.44000053 2.60999990 0.44000000 241 197 36 0.000000 0.000000 0.000000 0.000000 -0.000107 0.000000 129.000000 0.660993 0.272361 0.699219
-19.51000023 2.66000009 0.47999999 241 197 36 0.000000 0.000000 0.000000 0.000000 -0.000107 0.000000 129.000000 0.699950 0.380443 0.604427
-19.50000000 2.65000010 0.47999999 241 197 36 0.000000 0.000000 0.000000 0.000000 -0.000107 0.000000 129.000000 0.775871 0.329303 0.538130
-19.55999947 2.60999990 0.49000001 241 197 36 0.000000 0.000000 0.000000 0.000000 -0.000107 0.000000 129.000000 0.700860 0.612227 0.366023
-19.55999947 2.60999990 0.49000001 241 197 36 0.000000 0.000000 0.000000 0.000000 -0.000107 0.000000 129.000000 0.700860 0.612227 0.366023
-19.38999939 2.56999993 0.44999999 241 197 36 0.000000 0.000000 0.000000 0.000000 -0.000107 0.000000 129.000000 0.337286 0.266589 0.902867
-19.37999916 2.55999994 0.44000000 241 197 36 0.000000 0.000000 0.000000 0.000000 -0.000107 0.000000 129.000000 0.844574 -0.040218 0.533926
-19.37999916 2.56999993 0.44000000 241 197 36 0.000000 0.000000 0.000000 0.000000 -0.000107 0.000000 129.000000 0.822370 0.448421 0.350181
-19.44000053 2.58999991 0.44999999 241 197 36 0.000000 0.000000 0.000000 0.000000 -0.000107 0.000000 129.000000 0.642607 0.432299 0.632592
-19.43000031 2.59999990 0.41999999 241 197 36 0.000000 0.000000 0.000000 0.000000 -0.000107 0.000000 129.000000 0.818138 0.370148 0.440047
-19.45000076 2.51999998 0.44999999 241 197 36 0.000000 0.000000 0.000000 0.000000 -0.000107 0.000000 129.000000 0.653540 0.098398 0.750469
-19.40999985 2.50999999 0.46000001 241 197 36 0.000000 0.000000 0.000000 0.000000 -0.000107 0.000000 129.000000 0.582761 -0.256038 0.771255
-19.43000031 2.45000005 0.36000001 241 197 36 0.000000 0.000000 0.000000 0.000000 -0.000107 0.000000 129.000000 0.696078 0.175932 0.696078
-19.32999992 2.45000005 0.31999999 241 197 36 0.000000 0.000000 0.000000 0.000000 -0.000107 0.000000 129.000000 0.830442 -0.057807 0.554098
-19.36000061 2.45000005 0.17000000 241 197 36 0.000000 0.000000 0.000000 0.000000 -0.000107 0.000000 129.000000 0.377636 0.434999 0.817415
-19.36000061 2.44000006 0.18000001 241 197 36 0.000000 0.000000 0.000000 0.000000 -0.000107 0.000000 129.000000 0.484853 0.356839 0.798488
-19.39999962 2.44000006 0.17000000 241 197 36 0.000000 0.000000 0.000000 0.000000 -0.000107 0.000000 129.000000 0.814067 0.182750 0.551270
-19.37000084 2.44000006 0.18000001 241 197 36 0.000000 0.000000 0.000000 0.000000 -0.000107 0.000000 129.000000 0.677968 0.326790 0.658458
-19.44000053 2.48000002 0.17000000 241 197 36 0.000000 0.000000 0.000000 0.000000 -0.000107 0.000000 129.000000 0.447728 0.854198 0.264358
-19.42000008 2.44000006 0.18000001 241 197 36 0.000000 0.000000 0.000000 0.000000 -0.000107 0.000000 129.000000 0.485254 0.059447 0.872350
-19.40999985 2.47000003 0.18000001 241 197 36 0.000000 0.000000 0.000000 0.000000 -0.000107 0.000000 129.000000 0.442092 0.582227 0.682324
-19.37999916 2.35999990 0.33000001 241 197 36 0.000000 0.000000 0.000000 0.000000 -0.000107 0.000000 129.000000 0.430842 -0.577229 0.693673
-19.35000038 2.43000007 0.34000000 241 197 36 0.000000 0.000000 0.000000 0.000000 -0.000107 0.000000 129.000000 0.649071 -0.079863 0.756524
-19.39999962 2.42000008 0.34000000 241 197 36 0.000000 0.000000 0.000000 0.000000 -0.000107 0.000000 129.000000 0.443815 -0.167340 0.880355
-19.44000053 2.39000010 0.34000000 241 197 36 0.000000 0.000000 0.000000 0.000000 -0.000107 0.000000 129.000000 0.739804 -0.226790 0.633448
-19.40999985 2.39000010 0.34000000 241 197 36 0.000000 0.000000 0.000000 0.000000 -0.000107 0.000000 129.000000 0.568562 -0.106151 0.815763
-19.47999954 2.43000007 0.38000000 241 197 36 0.000000 0.000000 0.000000 0.000000 -0.000107 0.000000 129.000000 0.397601 -0.531771 0.747752
-19.48999977 2.43000007 0.37000000 241 197 36 0.000000 0.000000 0.000000 0.000000 -0.000107 0.000000 129.000000 0.627396 -0.257596 0.734859
-19.48999977 2.41000009 0.36000001 241 197 36 0.000000 0.000000 0.000000 0.000000 -0.000107 0.000000 129.000000 0.178852 -0.303632 0.935852
-19.46999931 2.43000007 0.36000001 241 197 36 0.000000 0.000000 0.000000 0.000000 -0.000107 0.000000 129.000000 0.568497 -0.262989 0.779518
-19.32999992 2.43000007 0.31999999 241 197 36 0.000000 0.000000 0.000000 0.000000 -0.000107 0.000000 129.000000 0.818396 0.212630 0.533870
-19.37000084 2.38000011 0.30000001 241 197 36 0.000000 0.000000 0.000000 0.000000 -0.000107 0.000000 129.000000 0.332512 -0.397468 0.855252
-19.37999916 2.38000011 0.30000001 241 197 36 0.000000 0.000000 0.000000 0.000000 -0.000107 0.000000 129.000000 0.269045 -0.638384 0.721167
-19.36000061 2.43000007 0.18000001 241 197 36 0.000000 0.000000 0.000000 0.000000 -0.000107 0.000000 129.000000 0.457684 0.438139 0.773666
-19.32999992 2.35999990 0.17000000 241 197 36 0.000000 0.000000 0.000000 0.000000 -0.000107 0.000000 129.000000 0.071679 -0.507373 0.858740
-19.32999992 2.36999989 0.17000000 241 197 36 0.000000 0.000000 0.000000 0.000000 -0.000107 0.000000 129.000000 0.262985 -0.262985 0.928266
-19.34000015 2.34999990 0.17000000 241 197 36 0.000000 0.000000 0.000000 0.000000 -0.000107 0.000000 129.000000 0.512575 -0.363815 0.777756
-19.44000053 2.42000008 0.31999999 241 197 36 0.000000 0.000000 0.000000 0.000000 -0.000107 0.000000 129.000000 0.463870 -0.088289 0.881493
-19.46999931 2.43000007 0.31999999 241 197 36 0.000000 0.000000 0.000000 0.000000 -0.000107 0.000000 129.000000 0.621420 0.073532 0.780019
-19.42000008 2.43000007 0.18000001 241 197 36 0.000000 0.000000 0.000000 0.000000 -0.000107 0.000000 129.000000 0.500032 -0.183594 0.846322
-19.44000053 2.32999992 0.28999999 241 197 36 0.000000 0.000000 0.000000 0.000000 -0.000107 0.000000 129.000000 0.032315 -0.625225 0.779775
-19.43000031 2.31999993 0.28000000 241 197 36 0.000000 0.000000 0.000000 0.000000 -0.000107 0.000000 129.000000 -0.079838 0.759185 -0.645960
-19.44000053 2.30999994 0.27000001 241 197 36 0.000000 0.000000 0.000000 0.000000 -0.000107 0.000000 129.000000 -0.043603 -0.586525 0.808757
-19.44000053 2.30999994 0.27000001 241 197 36 0.000000 0.000000 0.000000 0.000000 -0.000107 0.000000 129.000000 -0.043603 -0.586525 0.808757
-19.47999954 2.30999994 0.23999999 241 197 36 0.000000 0.000000 0.000000 0.000000 -0.000107 0.000000 129.000000 -0.064619 0.756757 -0.650495
-19.45999908 2.29999995 0.25999999 241 197 36 0.000000 0.000000 0.000000 0.000000 -0.000107 0.000000 129.000000 0.009685 -0.640563 0.767845
-19.51000023 2.55999994 0.49000001 241 197 36 0.000000 0.000000 0.000000 0.000000 -0.000107 0.000000 129.000000 0.520400 0.129736 0.844010
-19.54999924 2.53999996 0.41999999 241 197 36 0.000000 0.000000 0.000000 0.000000 -0.000107 0.000000 129.000000 0.731310 0.192450 0.654330
-19.50000000 2.52999997 0.33000001 241 197 36 0.000000 0.000000 0.000000 0.000000 -0.000107 0.000000 129.000000 0.874641 0.292558 0.386540
-19.55999947 2.45000005 0.37000000 241 197 36 0.000000 0.000000 0.000000 0.000000 -0.000107 0.000000 129.000000 0.288017 -0.571260 0.768575
-19.54999924 2.44000006 0.36000001 241 197 36 0.000000 0.000000 0.000000 0.000000 -0.000107 0.000000 129.000000 0.751113 -0.205975 0.627218
-19.54999924 2.49000001 0.40000001 241 197 36 0.000000 0.000000 0.000000 0.000000 -0.000107 0.000000 129.000000 0.525174 -0.014927 0.850864
-19.54000092 2.44000006 0.38999999 241 197 36 0.000000 0.000000 0.000000 0.000000 -0.000107 0.000000 129.000000 0.287592 -0.368901 0.883857
-19.50000000 2.45000005 0.37000000 241 197 36 0.000000 0.000000 0.000000 0.000000 -0.000107 0.000000 129.000000 0.505032 0.068550 0.860374
-19.65999985 2.54999995 0.47999999 241 197 36 0.000000 0.000000 0.000000 0.000000 -0.000107 0.000000 129.000000 0.678062 -0.251310 0.690706
-19.61000061 2.50999999 0.44999999 241 197 36 0.000000 0.000000 0.000000 0.000000 -0.000107 0.000000 129.000000 0.770552 -0.178524 0.611864
-19.63999939 2.48000002 0.41999999 241 197 36 0.000000 0.000000 0.000000 0.000000 -0.000107 0.000000 129.000000 0.518215 -0.445367 0.730137
-19.61000061 2.50000000 0.47000000 241 197 36 0.000000 0.000000 0.000000 0.000000 -0.000107 0.000000 129.000000 0.725872 -0.441476 0.527456
-19.59000015 2.45000005 0.38000000 241 197 36 0.000000 0.000000 0.000000 0.000000 -0.000107 0.000000 129.000000 0.435579 -0.359551 0.825224
-19.52000046 2.39000010 0.34000000 241 197 36 0.000000 0.000000 0.000000 0.000000 -0.000107 0.000000 129.000000 0.627736 -0.293800 0.720853
-19.54000092 2.42000008 0.38999999 241 197 36 0.000000 0.000000 0.000000 0.000000 -0.000107 0.000000 129.000000 0.503205 -0.227895 0.833576
-19.64999962 2.43000007 0.41000000 241 197 36 0.000000 0.000000 0.000000 0.000000 -0.000107 0.000000 129.000000 0.269259 -0.499608 0.823342
-19.62000084 2.42000008 0.40000001 241 197 36 0.000000 0.000000 0.000000 0.000000 -0.000107 0.000000 129.000000 -0.114111 0.709859 -0.695039
-19.62000084 2.42000008 0.40000001 241 197 36 0.000000 0.000000 0.000000 0.000000 -0.000107 0.000000 129.000000 -0.114111 0.709859 -0.695039
-19.51000023 2.29999995 0.30000001 241 197 36 0.000000 0.000000 0.000000 0.000000 -0.000107 0.000000 129.000000 -0.238131 0.792213 -0.561864
-19.50000000 2.30999994 0.31000000 241 197 36 0.000000 0.000000 0.000000 0.000000 -0.000107 0.000000 129.000000 -0.006932 -0.697319 0.716727
-19.75000000 2.65000010 0.44999999 241 197 36 0.000000 0.000000 0.000000 0.000000 -0.000107 0.000000 129.000000 0.117821 0.913459 0.389502
-19.73999977 2.65000010 0.46000001 241 197 36 0.000000 0.000000 0.000000 0.000000 -0.000107 0.000000 129.000000 0.086922 0.932069 0.351699
-19.75000000 2.61999989 0.49000001 241 197 36 0.000000 0.000000 0.000000 0.000000 -0.000107 0.000000 129.000000 0.761226 0.396098 0.513461
-19.67000008 2.57999992 0.47999999 241 197 36 0.000000 0.000000 0.000000 0.000000 -0.000107 0.000000 129.000000 0.622322 0.336346 0.706815
-19.67000008 2.52999997 0.43000001 241 197 36 0.000000 0.000000 0.000000 0.000000 -0.000107 0.000000 129.000000 0.462630 -0.238141 0.853969
-19.68000031 2.48000002 0.41000000 241 197 36 0.000000 0.000000 0.000000 0.000000 -0.000107 0.000000 129.000000 0.091371 -0.601890 0.793335
-19.68000031 2.50999999 0.44000000 241 197 36 0.000000 0.000000 0.000000 0.000000 -0.000107 0.000000 129.000000 0.801312 -0.274422 0.531594
-19.67000008 2.48000002 0.41000000 241 197 36 0.000000 0.000000 0.000000 0.000000 -0.000107 0.000000 129.000000 0.251670 -0.564303 0.786273
-19.68000031 2.49000001 0.43000001 241 197 36 0.000000 0.000000 0.000000 0.000000 -0.000107 0.000000 129.000000 0.588136 -0.474195 0.655160
-19.68000031 2.39000010 0.40000001 241 197 36 0.000000 0.000000 0.000000 0.000000 -0.000107 0.000000 103.000000 0.238295 0.914187 -0.327837
-19.67000008 2.26999998 0.41999999 241 197 36 0.000000 0.000000 0.000000 0.000000 -0.000107 0.000000 103.000000 -0.101543 0.853817 -0.510574
-19.67000008 2.26999998 0.40000001 241 197 36 0.000000 0.000000 0.000000 0.000000 -0.000107 0.000000 103.000000 -0.072347 0.832696 -0.548984
-19.79000092 2.38000011 0.41000000 241 197 36 0.000000 0.000000 0.000000 0.000000 -0.000107 0.000000 103.000000 0.319149 0.944312 0.080116
-19.78000069 2.38000011 0.38999999 241 197 36 0.000000 0.000000 0.000000 0.000000 -0.000107 0.000000 103.000000 0.324419 0.934930 -0.143730
-19.70999908 2.15000010 0.43000001 241 197 36 0.000000 0.000000 0.000000 0.000000 -0.000107 0.000000 103.000000 0.084360 0.990369 -0.109784
-19.02000046 2.30999994 -0.20999999 241 197 36 0.000000 0.000000 0.000000 0.000000 -0.000107 0.000000 129.000000 0.425972 0.701113 0.571830
-19.09000015 2.26999998 -0.20000000 241 197 36 0.000000 0.000000 0.000000 0.000000 -0.000107 0.000000 129.000000 0.624012 0.634050 0.456717
-19.07999992 2.26999998 -0.20999999 241 197 36 0.000000 0.000000 0.000000 0.000000 -0.000107 0.000000 129.000000 0.576148 0.720596 0.385740
-18.98999977 2.25000000 -0.22000000 241 197 36 0.000000 0.000000 0.000000 0.000000 -0.000107 0.000000 129.000000 0.061575 -0.625777 0.777568
-19.19000053 2.22000003 -0.20000000 241 197 36 0.000000 0.000000 0.000000 0.000000 -0.000107 0.000000 129.000000 0.655160 0.588136 0.474195
-18.62000084 2.59999990 0.20000000 241 197 36 0.000000 0.000000 0.000000 0.000000 -0.000107 0.000000 129.000000 0.792625 0.440706 0.421335
-18.62000084 2.27999997 0.25999999 241 197 36 0.000000 0.000000 0.000000 0.000000 -0.000107 0.000000 129.000000 0.399446 -0.054774 0.915119
-19.06999969 2.97000003 0.41000000 241 197 36 0.000000 0.000000 0.000000 0.000000 -0.000107 0.000000 129.000000 0.796543 0.561447 0.224269
-19.13999939 2.98000002 0.37000000 241 197 36 0.000000 0.000000 0.000000 0.000000 -0.000107 0.000000 129.000000 0.574448 0.818485 0.009597
-18.98999977 2.95000005 0.28999999 241 197 36 0.000000 0.000000 0.000000 0.000000 -0.000107 0.000000 129.000000 0.450923 0.847982 0.278557
-18.96999931 2.60999990 0.57999998 241 197 36 0.000000 0.000000 0.000000 0.000000 -0.000107 0.000000 129.000000 0.758117 -0.061624 0.649200
-18.96999931 2.57999992 0.55000001 241 197 36 0.000000 0.000000 0.000000 0.000000 -0.000107 0.000000 129.000000 0.740086 -0.082878 0.667386
-18.94000053 2.56999993 0.55000001 241 197 36 0.000000 0.000000 0.000000 0.000000 -0.000107 0.000000 129.000000 0.543270 0.124469 0.830280
-18.95000076 2.56999993 0.52999997 241 197 36 0.000000 0.000000 0.000000 0.000000 -0.000107 0.000000 129.000000 0.555559 0.112278 0.823861
-18.94000053 2.57999992 0.52999997 241 197 36 0.000000 0.000000 0.000000 0.000000 -0.000107 0.000000 129.000000 0.723865 -0.070797 0.686299
-18.95000076 2.56999993 0.52999997 241 197 36 0.000000 0.000000 0.000000 0.000000 -0.000107 0.000000 129.000000 0.555559 0.112278 0.823861
-19.27000046 2.39000010 0.50000000 241 197 36 0.000000 0.000000 0.000000 0.000000 -0.000107 0.000000 129.000000 0.311201 -0.127983 0.941687
-18.78000069 2.81999993 0.22000000 241 197 36 0.000000 0.000000 0.000000 0.000000 -0.000107 0.000000 129.000000 0.668638 0.632317 0.391277
-18.79999924 2.78999996 0.15000001 241 197 36 0.000000 0.000000 0.000000 0.000000 -0.000107 0.000000 129.000000 0.797648 0.533339 0.281615
-18.79999924 2.64000010 0.33000001 241 197 36 0.000000 0.000000 0.000000 0.000000 -0.000107 0.000000 129.000000 0.610625 0.070402 0.788784
-18.73999977 2.75999999 0.17000000 241 197 36 0.000000 0.000000 0.000000 0.000000 -0.000107 0.000000 129.000000 0.817585 0.536397 0.209363
-18.73999977 2.75999999 0.17000000 241 197 36 0.000000 0.000000 0.000000 0.000000 -0.000107 0.000000 129.000000 0.817585 0.536397 0.209363
-18.88999939 2.89000010 0.23999999 241 197 36 0.000000 0.000000 0.000000 0.000000 -0.000107 0.000000 129.000000 0.735720 0.667625 0.113985
-18.89999962 2.90000010 0.25000000 241 197 36 0.000000 0.000000 0.000000 0.000000 -0.000107 0.000000 129.000000 0.571272 0.819894 -0.037712
-18.89999962 2.89000010 0.27000001 241 197 36 0.000000 0.000000 0.000000 0.000000 -0.000107 0.000000 129.000000 0.825373 0.400805 0.397637
-18.90999985 2.85999990 0.28000000 241 197 36 0.000000 0.000000 0.000000 0.000000 -0.000107 0.000000 129.000000 0.731766 0.371613 0.571334
-18.79999924 2.75999999 0.06000000 241 197 36 0.000000 0.000000 0.000000 0.000000 -0.000107 0.000000 129.000000 0.839915 0.440995 0.316332
-18.77000046 2.71000004 0.01000000 241 197 36 0.000000 0.000000 0.000000 0.000000 -0.000107 0.000000 129.000000 0.739605 0.436515 0.512288
-18.72999954 2.65000010 -0.07000000 241 197 36 0.000000 0.000000 0.000000 0.000000 -0.000107 0.000000 129.000000 0.758789 0.453962 0.467073
-18.77000046 2.51999998 0.33000001 241 197 36 0.000000 0.000000 0.000000 0.000000 -0.000107 0.000000 129.000000 0.636197 0.602625 0.481764
-18.73999977 2.45000005 0.41000000 241 197 36 0.000000 0.000000 0.000000 0.000000 -0.000107 0.000000 129.000000 0.425381 -0.135155 0.894865
-18.76000023 2.49000001 0.37000000 241 197 36 0.000000 0.000000 0.000000 0.000000 -0.000107 0.000000 129.000000 0.605925 0.261038 0.751474
-18.68000031 2.52999997 0.19000000 241 197 36 0.000000 0.000000 0.000000 0.000000 -0.000107 0.000000 129.000000 0.541402 0.311426 0.780960
-18.69000053 2.52999997 0.23000000 241 197 36 0.000000 0.000000 0.000000 0.000000 -0.000107 0.000000 129.000000 0.805045 0.468943 0.363311
-18.63999939 2.49000001 0.17000000 241 197 36 0.000000 0.000000 0.000000 0.000000 -0.000107 0.000000 129.000000 0.677066 -0.018148 0.735699
-18.65999985 2.45000005 0.16000000 241 197 36 0.000000 0.000000 0.000000 0.000000 -0.000107 0.000000 129.000000 0.680660 0.038208 0.731603
-18.69000053 2.48000002 0.19000000 241 197 36 0.000000 0.000000 0.000000 0.000000 -0.000107 0.000000 129.000000 0.375689 0.175702 0.909938
-18.73999977 2.55999994 0.15000001 241 197 36 0.000000 0.000000 0.000000 0.000000 -0.000107 0.000000 129.000000 0.654660 0.209926 0.726190
-18.76000023 2.50000000 0.28000000 241 197 36 0.000000 0.000000 0.000000 0.000000 -0.000107 0.000000 129.000000 0.676574 0.417248 0.606755
-18.70000076 2.33999991 0.41999999 241 197 36 0.000000 0.000000 0.000000 0.000000 -0.000107 0.000000 129.000000 0.639085 -0.223445 0.735964
-18.71999931 2.39000010 0.43000001 241 197 36 0.000000 0.000000 0.000000 0.000000 -0.000107 0.000000 129.000000 0.669420 -0.139901 0.729592
-18.64999962 2.41000009 0.19000000 241 197 36 0.000000 0.000000 0.000000 0.000000 -0.000107 0.000000 129.000000 0.544185 -0.130546 0.828746
-18.64999962 2.27999997 0.30000001 241 197 36 0.000000 0.000000 0.000000 0.000000 -0.000107 0.000000 129.000000 0.873148 -0.056555 0.484163
-18.82999992 2.56999993 0.36000001 241 197 36 0.000000 0.000000 0.000000 0.000000 -0.000107 0.000000 129.000000 0.709190 -0.080093 0.700453
-18.95999908 2.57999992 0.47000000 241 197 36 0.000000 0.000000 0.000000 0.000000 -0.000107 0.000000 129.000000 0.631969 0.107538 0.767496
-18.93000031 2.54999995 0.38999999 241 197 36 0.000000 0.000000 0.000000 0.000000 -0.000107 0.000000 129.000000 0.767091 0.430160 0.475956
-18.88999939 2.52999997 0.23000000 241 197 36 0.000000 0.000000 0.000000 0.000000 -0.000107 0.000000 129.000000 0.846377 0.440983 0.298630
-18.84000015 2.48000002 0.27000001 241 197 36 0.000000 0.000000 0.000000 0.000000 -0.000107 0.000000 129.000000 0.509211 0.333621 0.793348
-18.87999916 2.47000003 0.31000000 241 197 36 0.000000 0.000000 0.000000 0.000000 -0.000107 0.000000 129.000000 0.837213 0.006785 0.546835
-18.88999939 2.50999999 0.22000000 241 197 36 0.000000 0.000000 0.000000 0.000000 -0.000107 0.000000 129.000000 0.860513 0.012158 0.509283
-18.92000008 2.52999997 0.31000000 241 197 36 0.000000 0.000000 0.000000 0.000000 -0.000107 0.000000 129.000000 0.692341 0.430015 0.579441
-18.89999962 2.50000000 0.31000000 241 197 36 0.000000 0.000000 0.000000 0.000000 -0.000107 0.000000 129.000000 0.576449 0.485696 0.657119
-18.89999962 2.48000002 0.31999999 241 197 36 0.000000 0.000000 0.000000 0.000000 -0.000107 0.000000 129.000000 0.702421 0.070966 0.708215
-18.87999916 2.42000008 0.15000001 241 197 36 0.000000 0.000000 0.000000 0.000000 -0.000107 0.000000 129.000000 0.750361 0.023843 0.660598
-18.75000000 2.45000005 0.09000000 241 197 36 0.000000 0.000000 0.000000 0.000000 -0.000107 0.000000 129.000000 0.728049 0.505820 0.462701
-18.75000000 2.48000002 0.00000000 241 197 36 0.000000 0.000000 0.000000 0.000000 -0.000107 0.000000 129.000000 0.787188 0.228238 0.572924
-18.71999931 2.50000000 -0.01000000 241 197 36 0.000000 0.000000 0.000000 0.000000 -0.000107 0.000000 129.000000 0.730717 0.629272 0.264706
-18.71999931 2.48000002 -0.07000000 241 197 36 0.000000 0.000000 0.000000 0.000000 -0.000107 0.000000 129.000000 0.754668 0.574449 0.316993
-18.79999924 2.40000010 -0.04000000 241 197 36 0.000000 0.000000 0.000000 0.000000 -0.000107 0.000000 129.000000 0.736335 0.104769 0.668456
-18.87999916 2.53999996 0.14000000 241 197 36 0.000000 0.000000 0.000000 0.000000 -0.000107 0.000000 129.000000 0.752636 0.579321 0.312930
-18.80999947 2.45000005 0.11000000 241 197 36 0.000000 0.000000 0.000000 0.000000 -0.000107 0.000000 129.000000 0.510748 0.023154 0.859419
-18.87000084 2.49000001 0.10000000 241 197 36 0.000000 0.000000 0.000000 0.000000 -0.000107 0.000000 129.000000 0.662787 0.179090 0.727076
-18.81999969 2.45000005 0.05000000 241 197 36 0.000000 0.000000 0.000000 0.000000 -0.000107 0.000000 129.000000 0.573957 0.580730 0.577344
-18.84000015 2.43000007 0.07000000 241 197 36 0.000000 0.000000 0.000000 0.000000 -0.000107 0.000000 129.000000 0.747732 0.142927 0.648436
-18.87999916 2.41000009 0.07000000 241 197 36 0.000000 0.000000 0.000000 0.000000 -0.000107 0.000000 129.000000 0.762434 0.291285 0.577795
-18.86000061 2.40000010 0.09000000 241 197 36 0.000000 0.000000 0.000000 0.000000 -0.000107 0.000000 129.000000 0.758252 0.506047 0.411061
-18.80999947 2.36999989 0.06000000 241 197 36 0.000000 0.000000 0.000000 0.000000 -0.000107 0.000000 129.000000 0.824921 0.115343 0.553354
-18.80999947 2.30999994 -0.18000001 241 197 36 0.000000 0.000000 0.000000 0.000000 -0.000107 0.000000 129.000000 0.537423 0.051648 0.841730
-18.85000038 2.31999993 -0.19000000 241 197 36 0.000000 0.000000 0.000000 0.000000 -0.000107 0.000000 129.000000 0.478355 0.192236 0.856867
-19.10000038 2.36999989 0.15000001 241 197 36 0.000000 0.000000 0.000000 0.000000 -0.000107 0.000000 129.000000 0.375505 0.027286 0.926419
-19.22999954 2.44000006 0.40000001 241 197 36 0.000000 0.000000 0.000000 0.000000 -0.000107 0.000000 129.000000 0.496318 0.077330 0.864690
-19.31999969 2.41000009 0.46000001 241 197 36 0.000000 0.000000 0.000000 0.000000 -0.000107 0.000000 129.000000 0.681431 -0.318864 0.658770
-19.25000000 2.43000007 0.43000001 241 197 36 0.000000 0.000000 0.000000 0.000000 -0.000107 0.000000 129.000000 0.692190 0.233869 0.682772
-19.19000053 2.35999990 0.16000000 241 197 36 0.000000 0.000000 0.000000 0.000000 -0.000107 0.000000 129.000000 0.631998 -0.132973 0.763477
-19.31999969 2.42000008 0.28000000 241 197 36 0.000000 0.000000 0.000000 0.000000 -0.000107 0.000000 129.000000 0.532243 -0.236038 0.813021
-19.30999947 2.36999989 0.15000001 241 197 36 0.000000 0.000000 0.000000 0.000000 -0.000107 0.000000 129.000000 0.625069 -0.098079 0.774383
-19.09000015 2.31999993 0.06000000 241 197 36 0.000000 0.000000 0.000000 0.000000 -0.000107 0.000000 129.000000 0.352185 -0.466924 0.811140
-19.12999916 2.32999992 0.00000000 241 197 36 0.000000 0.000000 0.000000 0.000000 -0.000107 0.000000 129.000000 0.290544 -0.270307 0.917888
-19.12999916 2.28999996 0.03000000 241 197 36 0.000000 0.000000 0.000000 0.000000 -0.000107 0.000000 129.000000 0.165128 -0.454467 0.875324
-19.12999916 2.28999996 0.03000000 241 197 36 0.000000 0.000000 0.000000 0.000000 -0.000107 0.000000 129.000000 0.165128 -0.454467 0.875324
-19.05999947 2.29999995 -0.09000000 241 197 36 0.000000 0.000000 0.000000 0.000000 -0.000107 0.000000 129.000000 0.334438 0.045194 0.941333
-19.04000092 2.25999999 -0.14000000 241 197 36 0.000000 0.000000 0.000000 0.000000 -0.000107 0.000000 129.000000 0.425557 -0.276078 0.861790
-19.04999924 2.30999994 -0.16000000 241 197 36 0.000000 0.000000 0.000000 0.000000 -0.000107 0.000000 129.000000 0.462026 0.350886 0.814500
-19.09000015 2.35999990 -0.13000000 241 197 36 0.000000 0.000000 0.000000 0.000000 -0.000107 0.000000 129.000000 0.666628 0.646876 0.370349
-19.12999916 2.26999998 -0.04000000 241 197 36 0.000000 0.000000 0.000000 0.000000 -0.000107 0.000000 129.000000 0.095169 -0.663255 0.742318
-19.12999916 2.28999996 -0.04000000 241 197 36 0.000000 0.000000 0.000000 0.000000 -0.000107 0.000000 129.000000 0.494368 -0.406263 0.768473
-19.09000015 2.29999995 -0.13000000 241 197 36 0.000000 0.000000 0.000000 0.000000 -0.000107 0.000000 129.000000 0.187626 -0.405796 0.894497
-19.13999939 2.25999999 -0.15000001 241 197 36 0.000000 0.000000 0.000000 0.000000 -0.000107 0.000000 129.000000 0.408984 0.911941 0.033089
-19.21999931 2.35999990 0.13000000 241 197 36 0.000000 0.000000 0.000000 0.000000 -0.000107 0.000000 129.000000 0.680660 0.136733 0.719726
-19.18000031 2.29999995 0.09000000 241 197 36 0.000000 0.000000 0.000000 0.000000 -0.000107 0.000000 129.000000 -0.424127 0.637023 -0.643676
-19.22999954 2.31999993 0.06000000 241 197 36 0.000000 0.000000 0.000000 0.000000 -0.000107 0.000000 129.000000 0.644909 -0.179226 0.742947
-19.20999908 2.32999992 0.02000000 241 197 36 0.000000 0.000000 0.000000 0.000000 -0.000107 0.000000 129.000000 0.098372 -0.679793 0.726777
-19.31999969 2.34999990 0.13000000 241 197 36 0.000000 0.000000 0.000000 0.000000 -0.000107 0.000000 129.000000 0.191778 -0.530033 0.826006
-19.26000023 2.34999990 0.02000000 241 197 36 0.000000 0.000000 0.000000 0.000000 -0.000107 0.000000 129.000000 0.376714 -0.260573 0.888925
-19.25000000 2.34999990 0.06000000 241 197 36 0.000000 0.000000 0.000000 0.000000 -0.000107 0.000000 129.000000 0.515556 -0.221827 0.827644
-18.42000008 2.02999997 0.15000001 241 197 36 0.000000 0.000000 0.000000 0.000000 -0.000107 0.000000 129.000000 0.683701 0.064772 0.726882
-18.62999916 2.25000000 0.25000000 241 197 36 0.000000 0.000000 0.000000 0.000000 -0.000107 0.000000 129.000000 0.622438 -0.155233 0.767121
-18.62999916 2.23000002 0.22000000 241 197 36 0.000000 0.000000 0.000000 0.000000 -0.000107 0.000000 129.000000 0.658045 -0.347800 0.667842
-18.61000061 2.24000001 0.06000000 241 197 36 0.000000 0.000000 0.000000 0.000000 -0.000107 0.000000 129.000000 0.345683 0.011396 0.938282
-18.82999992 2.23000002 0.51999998 241 197 36 0.000000 0.000000 0.000000 0.000000 -0.000107 0.000000 129.000000 0.575825 -0.491886 0.653050
-18.79000092 2.22000003 0.46000001 241 197 36 0.000000 0.000000 0.000000 0.000000 -0.000107 0.000000 129.000000 -0.548546 0.538419 -0.639689
-18.78000069 2.15000010 0.46000001 241 197 36 0.000000 0.000000 0.000000 0.000000 -0.000107 0.000000 129.000000 -0.660951 0.499497 -0.560042
-18.82999992 2.18000007 0.33000001 241 197 36 0.000000 0.000000 0.000000 0.000000 -0.000107 0.000000 129.000000 0.614099 -0.175239 0.769528
-18.81999969 2.15000010 0.47999999 241 197 36 0.000000 0.000000 0.000000 0.000000 -0.000107 0.000000 129.000000 0.818396 -0.137633 0.557930
-18.80999947 2.21000004 0.28999999 241 197 36 0.000000 0.000000 0.000000 0.000000 -0.000107 0.000000 129.000000 0.598159 -0.225281 0.769061
-18.80999947 2.16000009 0.30000001 241 197 36 0.000000 0.000000 0.000000 0.000000 -0.000107 0.000000 129.000000 0.684846 -0.179255 0.706296
-18.79999924 2.18000007 0.07000000 241 197 36 0.000000 0.000000 0.000000 0.000000 -0.000107 0.000000 129.000000 0.476367 -0.118734 0.871193
-18.79000092 2.16000009 -0.02000000 241 197 36 0.000000 0.000000 0.000000 0.000000 -0.000107 0.000000 129.000000 0.518319 -0.585852 0.622995
-18.78000069 2.13000011 -0.02000000 241 197 36 0.000000 0.000000 0.000000 0.000000 -0.000107 0.000000 129.000000 0.542965 -0.603859 0.583561
-18.77000046 2.23000002 -0.04000000 241 197 36 0.000000 0.000000 0.000000 0.000000 -0.000107 0.000000 129.000000 0.499725 0.012123 0.866099
-18.76000023 2.15000010 -0.06000000 241 197 36 0.000000 0.000000 0.000000 0.000000 -0.000107 0.000000 129.000000 0.555309 -0.410302 0.723384
-18.80999947 2.23000002 -0.03000000 241 197 36 0.000000 0.000000 0.000000 0.000000 -0.000107 0.000000 129.000000 0.722947 0.114306 0.681382
-18.87999916 2.23000002 -0.17000000 241 197 36 0.000000 0.000000 0.000000 0.000000 -0.000107 0.000000 129.000000 0.495378 0.132198 0.858559
-18.87999916 2.22000003 -0.17000000 241 197 36 0.000000 0.000000 0.000000 0.000000 -0.000107 0.000000 129.000000 0.500369 -0.037014 0.865021
-19.06999969 2.25000000 0.08000000 241 197 36 0.000000 0.000000 0.000000 0.000000 -0.000107 0.000000 129.000000 -0.354983 0.675614 -0.646168
-19.12999916 2.25000000 -0.10000000 241 197 36 0.000000 0.000000 0.000000 0.000000 -0.000107 0.000000 129.000000 0.049658 0.908599 -0.414708
-19.17000008 2.25000000 -0.05000000 241 197 36 0.000000 0.000000 0.000000 0.000000 -0.000107 0.000000 129.000000 0.352032 0.789259 -0.503133
-19.15999985 2.16000009 -0.15000001 241 197 36 0.000000 0.000000 0.000000 0.000000 -0.000107 0.000000 129.000000 0.202247 0.970531 -0.131015
-19.56999969 2.65000010 0.50000000 241 197 36 0.000000 0.000000 0.000000 0.000000 -0.000107 0.000000 129.000000 0.736478 0.186041 0.650376
-19.45000076 2.54999995 0.50000000 241 197 36 0.000000 0.000000 0.000000 0.000000 -0.000107 0.000000 129.000000 0.641751 0.058601 0.764670
-19.67000008 2.73000002 0.52999997 241 197 36 0.000000 0.000000 0.000000 0.000000 -0.000107 0.000000 129.000000 0.271286 0.804448 0.528458
-19.70999908 2.69000006 0.55000001 241 197 36 0.000000 0.000000 0.000000 0.000000 -0.000107 0.000000 129.000000 0.516978 0.769795 0.374364
-19.71999931 2.69000006 0.50999999 241 197 36 0.000000 0.000000 0.000000 0.000000 -0.000107 0.000000 129.000000 0.694712 0.662771 0.279482
-19.81999969 2.72000003 0.56000000 241 197 36 0.000000 0.000000 0.000000 0.000000 -0.000107 0.000000 129.000000 0.276609 0.929121 0.245401
-19.39999962 2.60999990 0.43000001 241 197 36 0.000000 0.000000 0.000000 0.000000 -0.000107 0.000000 129.000000 0.803443 0.550536 0.226691
-19.38999939 2.49000001 0.36000001 241 197 36 0.000000 0.000000 0.000000 0.000000 -0.000107 0.000000 129.000000 0.358190 0.158727 0.920057
-19.46999931 2.52999997 0.44000000 241 197 36 0.000000 0.000000 0.000000 0.000000 -0.000107 0.000000 129.000000 0.662025 -0.172769 0.729297
-19.45000076 2.58999991 0.44999999 241 197 36 0.000000 0.000000 0.000000 0.000000 -0.000107 0.000000 129.000000 0.619788 0.358136 0.698284
-19.45000076 2.50000000 0.44999999 241 197 36 0.000000 0.000000 0.000000 0.000000 -0.000107 0.000000 129.000000 0.293774 -0.018593 0.955694
-19.47999954 2.47000003 0.44000000 241 197 36 0.000000 0.000000 0.000000 0.000000 -0.000107 0.000000 129.000000 0.310086 0.026364 0.950343
-19.48999977 2.44000006 0.37000000 241 197 36 0.000000 0.000000 0.000000 0.000000 -0.000107 0.000000 129.000000 0.443065 -0.078675 0.893031
-19.40999985 2.44000006 0.34000000 241 197 36 0.000000 0.000000 0.000000 0.000000 -0.000107 0.000000 129.000000 0.703746 0.162637 0.691586
-19.34000015 2.44000006 0.18000001 241 197 36 0.000000 0.000000 0.000000 0.000000 -0.000107 0.000000 129.000000 0.806427 0.213511 0.551442
-19.34000015 2.45000005 0.17000000 241 197 36 0.000000 0.000000 0.000000 0.000000 -0.000107 0.000000 129.000000 0.570271 0.392780 0.721467
-19.36000061 2.44000006 0.18000001 241 197 36 0.000000 0.000000 0.000000 0.000000 -0.000107 0.000000 129.000000 0.484853 0.356839 0.798488
-19.42000008 2.41000009 0.34999999 241 197 36 0.000000 0.000000 0.000000 0.000000 -0.000107 0.000000 129.000000 0.596368 -0.488853 0.636685
-19.46999931 2.42000008 0.34000000 241 197 36 0.000000 0.000000 0.000000 0.000000 -0.000107 0.000000 129.000000 0.359529 -0.412908 0.836807
-19.36000061 2.39000010 0.30000001 241 197 36 0.000000 0.000000 0.000000 0.000000 -0.000107 0.000000 129.000000 0.239858 -0.435968 0.867410
-19.35000038 2.42000008 0.31000000 241 197 36 0.000000 0.000000 0.000000 0.000000 -0.000107 0.000000 129.000000 0.650743 -0.344127 0.676838
-19.34000015 2.34999990 0.28000000 241 197 36 0.000000 0.000000 0.000000 0.000000 -0.000107 0.000000 129.000000 -0.456211 0.569846 -0.683481
-19.37000084 2.42000008 0.30000001 241 197 36 0.000000 0.000000 0.000000 0.000000 -0.000107 0.000000 129.000000 0.727953 -0.073808 0.681642
-19.35000038 2.40000010 0.20000000 241 197 36 0.000000 0.000000 0.000000 0.000000 -0.000107 0.000000 129.000000 0.514263 -0.359500 0.778649
-19.36000061 2.43000007 0.18000001 241 197 36 0.000000 0.000000 0.000000 0.000000 -0.000107 0.000000 129.000000 0.457684 0.438139 0.773666
-19.34000015 2.35999990 0.17000000 241 197 36 0.000000 0.000000 0.000000 0.000000 -0.000107 0.000000 129.000000 0.206598 -0.362631 0.908744
-19.37000084 2.42000008 0.19000000 241 197 36 0.000000 0.000000 0.000000 0.000000 -0.000107 0.000000 129.000000 0.559997 -0.015061 0.828358
