//X Y Z R G B PointSourceId ScanDirectionFlag NumberOfReturns ReturnNumber GpsTime Intensity Classification Nx Ny Nz
-13.56000042 14.89000034 0.15000001 4 45 231 97.000000 1.000000 4.000000 1.000000 0.000000 114.000000 14.000000 -0.630074 0.666456 -0.398551
-13.56000042 14.85999966 0.30000001 4 45 231 97.000000 1.000000 4.000000 1.000000 0.000000 114.000000 14.000000 -0.717664 0.637746 -0.279713
-13.53999996 14.88000011 0.28999999 4 45 231 97.000000 1.000000 4.000000 1.000000 0.000000 114.000000 14.000000 -0.553207 0.796307 -0.244658
-13.52999973 14.85999966 0.31999999 4 45 231 97.000000 1.000000 4.000000 1.000000 0.000000 114.000000 14.000000 -0.524893 0.840705 -0.133051
-13.52999973 14.85999966 0.25999999 4 45 231 97.000000 1.000000 4.000000 1.000000 0.000000 114.000000 14.000000 -0.490805 0.856330 0.160654
-13.56000042 14.84000015 0.28999999 4 45 231 97.000000 1.000000 4.000000 1.000000 0.000000 114.000000 14.000000 -0.546915 0.734147 -0.402385
-13.52000046 14.88000011 0.17000000 4 45 231 97.000000 1.000000 4.000000 1.000000 0.000000 114.000000 14.000000 -0.412448 0.906281 -0.092421
-13.52999973 14.88000011 0.17000000 4 45 231 97.000000 1.000000 4.000000 1.000000 0.000000 114.000000 14.000000 -0.526046 0.826210 -0.201626
-13.52999973 14.88000011 0.17000000 4 45 231 97.000000 1.000000 4.000000 1.000000 0.000000 114.000000 14.000000 -0.526046 0.826210 -0.201626
-13.60000038 14.93999958 0.28999999 4 45 231 97.000000 1.000000 4.000000 1.000000 0.000000 114.000000 14.000000 0.717760 -0.658337 0.226743
-13.57999992 14.93999958 0.25000000 4 45 231 97.000000 1.000000 4.000000 1.000000 0.000000 114.000000 14.000000 -0.494590 0.860847 -0.119682
-13.57999992 14.93999958 0.25999999 4 45 231 97.000000 1.000000 4.000000 1.000000 0.000000 114.000000 14.000000 -0.525143 0.817745 0.235621
-13.57999992 14.93999958 0.25000000 4 45 231 97.000000 1.000000 4.000000 1.000000 0.000000 114.000000 14.000000 -0.494590 0.860847 -0.119682
-13.56999969 14.93999958 0.25000000 4 45 231 97.000000 1.000000 4.000000 1.000000 0.000000 114.000000 14.000000 -0.430052 0.897682 -0.096031
-13.56999969 14.94999981 0.25000000 4 45 231 97.000000 1.000000 4.000000 1.000000 0.000000 114.000000 14.000000 0.713077 -0.682668 -0.159644
-13.56999969 14.93999958 0.23999999 4 45 231 97.000000 1.000000 4.000000 1.000000 0.000000 114.000000 14.000000 -0.442029 0.861274 -0.250635
-13.59000015 14.92000008 0.30000001 4 45 231 97.000000 1.000000 4.000000 1.000000 0.000000 114.000000 14.000000 0.713502 -0.699261 -0.044149
-13.57999992 14.93000031 0.28000000 4 45 231 97.000000 1.000000 4.000000 1.000000 0.000000 114.000000 14.000000 -0.530681 0.843683 -0.081096
-13.59000015 14.92000008 0.28999999 4 45 231 97.000000 1.000000 4.000000 1.000000 0.000000 114.000000 14.000000 0.662066 -0.703346 -0.258793
-13.59000015 14.92000008 0.23999999 4 45 231 97.000000 1.000000 4.000000 1.000000 0.000000 114.000000 14.000000 0.826893 -0.518146 0.218569
-13.59000015 14.92000008 0.25000000 4 45 231 97.000000 1.000000 4.000000 1.000000 0.000000 114.000000 14.000000 -0.682033 0.728175 0.067771
-13.59000015 14.93000031 0.25999999 4 45 231 97.000000 1.000000 4.000000 1.000000 0.000000 114.000000 14.000000 0.804909 -0.510777 0.302039
-13.64999962 14.93999958 0.31000000 4 45 231 97.000000 1.000000 4.000000 1.000000 0.000000 114.000000 14.000000 -0.572850 0.695723 -0.433374
-13.56999969 14.94999981 0.22000000 4 45 231 97.000000 1.000000 4.000000 1.000000 0.000000 114.000000 14.000000 -0.603085 0.746298 -0.281652
-13.56999969 14.94999981 0.22000000 4 45 231 97.000000 1.000000 4.000000 1.000000 0.000000 114.000000 14.000000 -0.603085 0.746298 -0.281652
-13.56999969 14.94999981 0.23000000 4 45 231 97.000000 1.000000 4.000000 1.000000 0.000000 114.000000 14.000000 -0.615319 0.747511 0.250219
-13.57999992 14.94999981 0.19000000 4 45 231 97.000000 1.000000 4.000000 1.000000 0.000000 114.000000 14.000000 -0.676841 0.722065 0.143207
-13.56999969 14.93999958 0.19000000 4 45 231 97.000000 1.000000 4.000000 1.000000 0.000000 114.000000 14.000000 0.661564 -0.699823 -0.269408
-13.56999969 14.93000031 0.23000000 4 45 231 97.000000 1.000000 4.000000 1.000000 0.000000 114.000000 14.000000 0.708007 -0.680242 0.189727
-13.57999992 14.92000008 0.15000001 4 45 231 97.000000 1.000000 4.000000 1.000000 0.000000 114.000000 14.000000 0.772798 -0.608179 0.181387
-13.57999992 14.89999962 0.19000000 4 45 231 97.000000 1.000000 4.000000 1.000000 0.000000 114.000000 14.000000 -0.712942 0.685811 -0.146206
-13.59000015 14.85999966 0.31999999 4 45 231 97.000000 1.000000 4.000000 1.000000 0.000000 114.000000 14.000000 -0.421056 0.897401 0.131846
-13.59000015 14.88000011 0.28000000 4 45 231 97.000000 1.000000 4.000000 1.000000 0.000000 114.000000 14.000000 -0.571354 0.793120 0.210985
-13.59000015 14.82999992 0.30000001 4 45 231 97.000000 1.000000 4.000000 1.000000 0.000000 114.000000 14.000000 0.719126 -0.666545 0.196406
-13.57999992 14.84000015 0.28999999 4 45 231 97.000000 1.000000 4.000000 1.000000 0.000000 114.000000 14.000000 -0.334571 0.896652 0.289962
-13.64999962 14.88000011 0.31999999 4 45 231 97.000000 1.000000 4.000000 1.000000 0.000000 114.000000 14.000000 -0.404661 0.905936 -0.124619
-13.60999966 14.88000011 0.18000001 4 45 231 97.000000 1.000000 4.000000 1.000000 0.000000 114.000000 14.000000 0.719411 -0.694070 -0.026749
-13.55000019 14.78999996 0.30000001 4 45 231 97.000000 1.000000 4.000000 1.000000 0.000000 114.000000 14.000000 -0.374777 0.904386 0.204029
-13.50000000 14.94999981 0.12000000 4 45 231 97.000000 1.000000 4.000000 1.000000 0.000000 114.000000 14.000000 0.665145 -0.693856 -0.275947
-13.50000000 14.94999981 0.11000000 4 45 231 97.000000 1.000000 4.000000 1.000000 0.000000 114.000000 14.000000 -0.520416 0.853912 -0.001345
-13.51000023 14.93999958 0.11000000 4 45 231 97.000000 1.000000 4.000000 1.000000 0.000000 114.000000 14.000000 -0.392592 0.915135 -0.091650
-13.47999954 14.90999985 0.13000000 4 45 231 97.000000 1.000000 4.000000 1.000000 0.000000 114.000000 14.000000 0.652612 -0.709775 -0.265173
-13.52000046 14.89999962 0.11000000 4 45 231 97.000000 1.000000 4.000000 1.000000 0.000000 114.000000 14.000000 -0.347839 0.898461 -0.267910
-13.48999977 14.90999985 0.07000000 4 45 231 97.000000 1.000000 4.000000 1.000000 0.000000 114.000000 14.000000 0.864850 -0.489078 0.113305
-13.50000000 14.90999985 0.08000000 4 45 231 97.000000 1.000000 4.000000 1.000000 0.000000 114.000000 14.000000 -0.513962 0.852807 0.092542
-13.48999977 14.90999985 0.08000000 4 45 231 97.000000 1.000000 4.000000 1.000000 0.000000 114.000000 14.000000 0.813900 -0.575616 -0.078950
-13.47999954 14.89999962 0.10000000 4 45 231 97.000000 1.000000 4.000000 1.000000 0.000000 114.000000 14.000000 -0.449150 0.860492 -0.240454
-13.53999996 14.97000027 0.13000000 4 45 231 97.000000 1.000000 4.000000 1.000000 0.000000 114.000000 14.000000 -0.406306 0.882563 -0.236640
-13.56000042 14.96000004 0.10000000 4 45 231 97.000000 1.000000 4.000000 1.000000 0.000000 114.000000 14.000000 -0.538890 0.839993 0.063316
-13.53999996 14.94999981 0.07000000 4 45 231 97.000000 1.000000 4.000000 1.000000 0.000000 114.000000 14.000000 -0.671198 0.720124 0.175826
-13.56000042 14.92000008 0.11000000 4 45 231 97.000000 1.000000 4.000000 1.000000 0.000000 114.000000 14.000000 -0.433888 0.894456 0.108121
-13.56000042 14.92000008 0.12000000 4 45 231 97.000000 1.000000 4.000000 1.000000 0.000000 114.000000 14.000000 0.711237 -0.702951 0.001381
-13.56000042 14.92000008 0.11000000 4 45 231 97.000000 1.000000 4.000000 1.000000 0.000000 114.000000 14.000000 -0.433888 0.894456 0.108121
-13.56000042 14.92000008 0.08000000 4 45 231 97.000000 1.000000 4.000000 1.000000 0.000000 114.000000 14.000000 -0.560302 0.677380 -0.476675
-13.56000042 14.92000008 0.07000000 4 45 231 97.000000 1.000000 4.000000 1.000000 0.000000 114.000000 14.000000 -0.618504 0.762770 -0.188774
-13.55000019 14.92000008 0.07000000 4 45 231 97.000000 1.000000 4.000000 1.000000 0.000000 114.000000 14.000000 0.791081 -0.608633 0.061291
-13.50000000 14.96000004 0.05000000 4 45 231 97.000000 1.000000 4.000000 1.000000 0.000000 114.000000 14.000000 -0.406277 0.909677 -0.086180
-13.52000046 14.94999981 0.05000000 4 45 231 97.000000 1.000000 4.000000 1.000000 0.000000 114.000000 14.000000 -0.372816 0.874977 -0.308905
-13.50000000 14.96000004 0.05000000 4 45 231 97.000000 1.000000 4.000000 1.000000 0.000000 114.000000 14.000000 -0.406277 0.909677 -0.086180
-13.52000046 14.94999981 -0.01000000 4 45 231 97.000000 1.000000 4.000000 1.000000 0.000000 114.000000 14.000000 0.843545 -0.517863 -0.142302
-13.52000046 14.94999981 -0.02000000 4 45 231 97.000000 1.000000 4.000000 1.000000 0.000000 114.000000 14.000000 0.847654 -0.528570 -0.045782
-13.48999977 14.89000034 0.05000000 4 45 231 97.000000 1.000000 4.000000 1.000000 0.000000 114.000000 14.000000 -0.384344 0.917775 0.099847
-13.47999954 14.92000008 0.02000000 4 45 231 97.000000 1.000000 4.000000 1.000000 0.000000 114.000000 14.000000 0.791265 -0.599711 -0.119353
-13.48999977 14.89999962 0.06000000 4 45 231 97.000000 1.000000 4.000000 1.000000 0.000000 114.000000 14.000000 0.863703 -0.494963 -0.095022
-13.51000023 14.89999962 0.01000000 4 45 231 97.000000 1.000000 4.000000 1.000000 0.000000 114.000000 14.000000 -0.593517 0.792843 0.138338
-13.48999977 14.92000008 0.00000000 4 45 231 97.000000 1.000000 4.000000 1.000000 0.000000 114.000000 14.000000 0.797052 -0.595967 0.097628
-13.52000046 14.89000034 -0.01000000 4 45 231 97.000000 1.000000 4.000000 1.000000 0.000000 114.000000 14.000000 -0.447247 0.887439 0.111459
-13.47999954 14.89999962 -0.01000000 4 45 231 97.000000 1.000000 4.000000 1.000000 0.000000 114.000000 14.000000 -0.673191 0.736618 0.064869
-13.52999973 14.97000027 0.04000000 4 45 231 97.000000 1.000000 4.000000 1.000000 0.000000 114.000000 14.000000 0.721943 -0.686940 -0.083133
-13.53999996 14.94999981 0.05000000 4 45 231 97.000000 1.000000 4.000000 1.000000 0.000000 114.000000 14.000000 -0.555643 0.822468 -0.121684
-13.53999996 14.96000004 0.00000000 4 45 231 97.000000 1.000000 4.000000 1.000000 0.000000 114.000000 14.000000 -0.459639 0.877493 0.136883
-13.52999973 14.93999958 -0.01000000 4 45 231 97.000000 1.000000 4.000000 1.000000 0.000000 114.000000 14.000000 -0.610301 0.746627 -0.264728
-13.52999973 14.93999958 -0.02000000 4 45 231 97.000000 1.000000 4.000000 1.000000 0.000000 114.000000 14.000000 0.814180 -0.579562 0.034913
-13.53999996 14.93000031 0.00000000 4 45 231 97.000000 1.000000 4.000000 1.000000 0.000000 114.000000 14.000000 0.680805 -0.708467 -0.185953
-13.55000019 14.93000031 0.00000000 4 45 231 97.000000 1.000000 4.000000 1.000000 0.000000 114.000000 14.000000 0.679001 -0.669324 -0.301599
-13.55000019 14.90999985 0.01000000 4 45 231 97.000000 1.000000 4.000000 1.000000 0.000000 114.000000 14.000000 0.609157 -0.768735 -0.194869
-13.52999973 14.93000031 0.01000000 4 45 231 97.000000 1.000000 4.000000 1.000000 0.000000 114.000000 14.000000 0.752617 -0.596684 -0.278452
-13.55000019 14.86999989 0.12000000 4 45 231 97.000000 1.000000 4.000000 1.000000 0.000000 114.000000 14.000000 0.725622 -0.667816 0.165813
-13.53999996 14.88000011 0.13000000 4 45 231 97.000000 1.000000 4.000000 1.000000 0.000000 114.000000 14.000000 -0.279827 0.932288 -0.229205
-13.55000019 14.86999989 0.10000000 4 45 231 97.000000 1.000000 4.000000 1.000000 0.000000 114.000000 14.000000 0.844165 -0.532344 0.063207
-13.52999973 14.86999989 0.04000000 4 45 231 97.000000 1.000000 4.000000 1.000000 0.000000 114.000000 14.000000 0.721280 -0.689607 0.064786
-13.56999969 14.90999985 0.13000000 4 45 231 97.000000 1.000000 4.000000 1.000000 0.000000 114.000000 14.000000 -0.421432 0.893205 0.156778
-13.56999969 14.90999985 0.13000000 4 45 231 97.000000 1.000000 4.000000 1.000000 0.000000 114.000000 14.000000 -0.421432 0.893205 0.156778
-13.51000023 14.94999981 -0.05000000 4 45 231 97.000000 1.000000 4.000000 1.000000 0.000000 114.000000 14.000000 -0.619110 0.777932 0.107352
-13.51000023 14.94999981 -0.04000000 4 45 231 97.000000 1.000000 4.000000 1.000000 0.000000 114.000000 14.000000 -0.616279 0.745524 -0.253762
-13.51000023 14.96000004 -0.04000000 4 45 231 97.000000 1.000000 4.000000 1.000000 0.000000 114.000000 14.000000 -0.632924 0.632924 -0.445886
-13.52000046 14.94999981 -0.03000000 4 45 231 97.000000 1.000000 4.000000 1.000000 0.000000 114.000000 14.000000 -0.529766 0.831211 0.168630
-13.52000046 14.93999958 -0.05000000 4 45 231 97.000000 1.000000 4.000000 1.000000 0.000000 114.000000 14.000000 0.797909 -0.601587 0.037862
-13.48999977 14.97000027 -0.04000000 4 45 231 97.000000 1.000000 4.000000 1.000000 0.000000 114.000000 14.000000 0.769822 -0.635567 0.058558
-13.52000046 14.93999958 -0.06000000 4 45 231 97.000000 1.000000 4.000000 1.000000 0.000000 114.000000 14.000000 -0.569753 0.764459 -0.301634
-13.50000000 14.96000004 -0.04000000 4 45 231 97.000000 1.000000 4.000000 1.000000 0.000000 114.000000 14.000000 -0.549746 0.765776 -0.333717
-13.51000023 14.94999981 -0.06000000 4 45 231 97.000000 1.000000 4.000000 1.000000 0.000000 114.000000 14.000000 -0.617243 0.717687 -0.322392
-13.48999977 14.97000027 -0.03000000 4 45 231 97.000000 1.000000 4.000000 1.000000 0.000000 114.000000 14.000000 0.870374 -0.467990 0.153081
-13.52000046 14.96000004 -0.06000000 4 45 231 97.000000 1.000000 4.000000 1.000000 0.000000 114.000000 14.000000 0.750279 -0.648850 -0.126787
-13.51000023 14.94999981 -0.05000000 4 45 231 97.000000 1.000000 4.000000 1.000000 0.000000 114.000000 14.000000 -0.619110 0.777932 0.107352
-13.52000046 14.94999981 -0.03000000 4 45 231 97.000000 1.000000 4.000000 1.000000 0.000000 114.000000 14.000000 -0.529766 0.831211 0.168630
-13.48999977 14.96000004 -0.09000000 4 45 231 97.000000 1.000000 4.000000 1.000000 0.000000 114.000000 14.000000 0.741002 -0.653112 -0.156080
-13.51000023 14.93999958 -0.09000000 4 45 231 97.000000 1.000000 4.000000 1.000000 0.000000 114.000000 14.000000 0.767955 -0.633891 -0.091805
-13.51000023 14.97000027 -0.07000000 4 45 231 97.000000 1.000000 4.000000 1.000000 0.000000 114.000000 14.000000 -0.539778 0.821007 0.185974
-13.51000023 14.93999958 -0.09000000 4 45 231 97.000000 1.000000 4.000000 1.000000 0.000000 114.000000 14.000000 0.767955 -0.633891 -0.091805
-13.51000023 14.94999981 -0.09000000 4 45 231 97.000000 1.000000 4.000000 1.000000 0.000000 114.000000 14.000000 0.877136 -0.476554 -0.059397
-13.52000046 14.96000004 -0.08000000 4 45 231 97.000000 1.000000 4.000000 1.000000 0.000000 114.000000 14.000000 -0.704815 0.633524 -0.319192
-13.52000046 14.93999958 -0.09000000 4 45 231 97.000000 1.000000 4.000000 1.000000 0.000000 114.000000 14.000000 0.699499 -0.654680 0.286523
-13.50000000 14.94999981 -0.09000000 4 45 231 97.000000 1.000000 4.000000 1.000000 0.000000 114.000000 14.000000 -0.646405 0.748865 0.146157
-13.50000000 14.94999981 -0.08000000 4 45 231 97.000000 1.000000 4.000000 1.000000 0.000000 114.000000 14.000000 -0.581982 0.789724 0.193994
-13.51000023 14.93999958 -0.09000000 4 45 231 97.000000 1.000000 4.000000 1.000000 0.000000 114.000000 14.000000 0.767955 -0.633891 -0.091805
-13.47999954 14.90999985 -0.04000000 4 45 231 97.000000 1.000000 4.000000 1.000000 0.000000 114.000000 14.000000 0.650394 -0.701783 0.290670
-13.47999954 14.90999985 -0.04000000 4 45 231 97.000000 1.000000 4.000000 1.000000 0.000000 114.000000 14.000000 0.650394 -0.701783 0.290670
-13.47999954 14.89999962 -0.04000000 4 45 231 97.000000 1.000000 4.000000 1.000000 0.000000 114.000000 14.000000 0.805735 -0.578892 -0.125206
-13.50000000 14.92000008 -0.09000000 4 45 231 97.000000 1.000000 4.000000 1.000000 0.000000 114.000000 14.000000 -0.466834 0.867398 -0.172301
-13.47999954 14.90999985 -0.10000000 4 45 231 97.000000 1.000000 4.000000 1.000000 0.000000 114.000000 14.000000 -0.552607 0.788763 0.269219
-13.52999973 14.94999981 -0.06000000 4 45 231 97.000000 1.000000 4.000000 1.000000 0.000000 114.000000 14.000000 0.795787 -0.598652 -0.091320
-13.47999954 14.94999981 -0.14000000 4 45 231 97.000000 1.000000 4.000000 1.000000 0.000000 114.000000 14.000000 0.838649 -0.521002 0.158824
-13.48999977 14.93999958 -0.14000000 4 45 231 97.000000 1.000000 4.000000 1.000000 0.000000 114.000000 14.000000 -0.509456 0.857515 -0.071576
-13.47999954 14.94999981 -0.15000001 4 45 231 97.000000 1.000000 4.000000 1.000000 0.000000 114.000000 14.000000 0.882434 -0.470007 -0.020086
-13.50000000 14.96000004 -0.14000000 4 45 231 97.000000 1.000000 4.000000 1.000000 0.000000 114.000000 14.000000 0.801160 -0.597735 -0.029260
-13.47999954 14.96000004 -0.12000000 4 45 231 97.000000 1.000000 4.000000 1.000000 0.000000 114.000000 14.000000 0.751386 -0.651004 0.107763
-13.47999954 14.97000027 -0.12000000 4 45 231 97.000000 1.000000 4.000000 1.000000 0.000000 114.000000 14.000000 -0.591158 0.783628 0.190943
-13.50000000 14.97000027 -0.13000000 4 45 231 97.000000 1.000000 4.000000 1.000000 0.000000 114.000000 14.000000 0.860109 -0.489196 0.144568
-13.47999954 14.94999981 -0.15000001 4 45 231 97.000000 1.000000 4.000000 1.000000 0.000000 114.000000 14.000000 0.882434 -0.470007 -0.020086
-13.47999954 14.89000034 -0.13000000 4 45 231 97.000000 1.000000 4.000000 1.000000 0.000000 114.000000 14.000000 -0.476667 0.872230 0.109562
-13.50000000 14.90999985 -0.19000000 4 45 231 97.000000 1.000000 4.000000 1.000000 0.000000 114.000000 14.000000 0.723223 -0.674907 -0.146456
-12.73999977 15.13000011 -0.88000000 4 45 231 97.000000 1.000000 4.000000 1.000000 0.000000 114.000000 133.000000 0.979337 0.186135 -0.079077
-12.73999977 15.18000031 -0.89999998 4 45 231 97.000000 1.000000 4.000000 1.000000 0.000000 114.000000 133.000000 0.983667 -0.174692 -0.043380
-12.78999996 15.14999962 -0.89999998 4 45 231 97.000000 1.000000 4.000000 1.000000 0.000000 114.000000 133.000000 0.984524 0.010291 -0.174950
-12.73999977 15.14000034 -0.89999998 4 45 231 97.000000 1.000000 4.000000 1.000000 0.000000 114.000000 133.000000 0.895957 -0.441897 0.044595
-12.73999977 15.13000011 -0.93000001 4 45 231 97.000000 1.000000 4.000000 1.000000 0.000000 114.000000 133.000000 0.980995 -0.187140 -0.051255
-12.75000000 15.14000034 -0.88999999 4 45 231 97.000000 1.000000 4.000000 1.000000 0.000000 114.000000 133.000000 0.953868 -0.252849 -0.161877
-12.76000023 15.13000011 -0.98000002 4 45 231 97.000000 1.000000 4.000000 1.000000 0.000000 114.000000 133.000000 0.958822 0.282299 0.031090
-12.75000000 15.14000034 -0.99000001 4 45 231 97.000000 1.000000 4.000000 1.000000 0.000000 114.000000 133.000000 0.989321 0.032940 0.141981
-13.13000011 15.02999973 -1.00999999 4 45 231 97.000000 1.000000 4.000000 1.000000 0.000000 114.000000 14.000000 0.964003 -0.265556 -0.013338
-13.11999989 15.02999973 -1.04999995 4 45 231 97.000000 1.000000 4.000000 1.000000 0.000000 114.000000 14.000000 0.845860 -0.203549 0.493041
-13.13000011 15.02999973 -1.01999998 4 45 231 97.000000 1.000000 4.000000 1.000000 0.000000 114.000000 14.000000 0.954108 -0.252205 0.161464
-13.13000011 15.02000046 -1.01999998 4 45 231 97.000000 1.000000 4.000000 1.000000 0.000000 114.000000 14.000000 0.905524 -0.118964 0.407276
-13.07999992 15.06999969 -1.08000004 4 45 231 97.000000 1.000000 4.000000 1.000000 0.000000 114.000000 14.000000 0.990176 0.089174 0.107703
-13.13000011 15.01000023 -1.10000002 4 45 231 97.000000 1.000000 4.000000 1.000000 0.000000 114.000000 14.000000 0.863958 -0.493894 0.098209
-13.06000042 15.06000042 -1.16999996 4 45 231 97.000000 1.000000 4.000000 1.000000 0.000000 114.000000 14.000000 0.944598 -0.164455 0.284059
-13.06000042 15.06000042 -1.15999997 4 45 231 97.000000 1.000000 4.000000 1.000000 0.000000 114.000000 14.000000 0.992280 -0.005482 0.123898
-13.06999969 15.02999973 -1.16999996 4 45 231 97.000000 1.000000 4.000000 1.000000 0.000000 114.000000 14.000000 0.787280 -0.609742 0.091680
-13.18999958 15.43999958 -0.20000000 4 45 231 97.000000 1.000000 4.000000 1.000000 0.000000 114.000000 119.000000 0.839208 0.538173 -0.078099
-13.38000011 15.31999969 -0.36000001 4 45 231 97.000000 1.000000 4.000000 1.000000 0.000000 114.000000 14.000000 0.878384 0.477529 0.020177
-13.43000031 15.35000038 -0.27000001 4 45 231 97.000000 1.000000 4.000000 1.000000 0.000000 114.000000 14.000000 0.966221 0.253618 -0.045775
-13.47000027 15.31999969 -0.23000000 4 45 231 97.000000 1.000000 4.000000 1.000000 0.000000 114.000000 14.000000 0.860765 0.444805 0.247451
-13.44999981 15.34000015 -0.28000000 4 45 231 97.000000 1.000000 4.000000 1.000000 0.000000 114.000000 14.000000 0.779023 0.546431 0.307467
-13.42000008 15.38000011 -0.33000001 4 45 231 97.000000 1.000000 4.000000 1.000000 0.000000 114.000000 14.000000 0.926582 0.219939 -0.305077
-13.40999985 15.32999992 -0.28999999 4 45 231 97.000000 1.000000 4.000000 1.000000 0.000000 114.000000 14.000000 0.768018 0.640246 -0.015277
-13.42000008 15.32999992 -0.30000001 4 45 231 97.000000 1.000000 4.000000 1.000000 0.000000 114.000000 14.000000 0.914246 0.210980 0.345892
-13.40999985 15.32999992 -0.31999999 4 45 231 97.000000 1.000000 4.000000 1.000000 0.000000 114.000000 14.000000 0.997519 0.066784 0.022261
-13.43000031 15.35000038 -0.28999999 4 45 231 97.000000 1.000000 4.000000 1.000000 0.000000 114.000000 14.000000 0.837228 0.422541 0.347143
-13.43000031 15.35000038 -0.34999999 4 45 231 97.000000 1.000000 4.000000 1.000000 0.000000 114.000000 14.000000 0.930608 0.350841 0.104304
-13.40999985 15.31999969 -0.33000001 4 45 231 97.000000 1.000000 4.000000 1.000000 0.000000 114.000000 14.000000 0.944588 0.201530 0.259111
-13.44999981 15.32999992 -0.38999999 4 45 231 97.000000 1.000000 4.000000 1.000000 0.000000 114.000000 14.000000 0.980744 0.160396 -0.111420
-13.48999977 15.36999989 -0.28000000 4 45 231 97.000000 1.000000 4.000000 1.000000 0.000000 114.000000 14.000000 0.851975 0.523567 -0.004038
-13.47999954 15.32999992 -0.23000000 4 45 231 97.000000 1.000000 4.000000 1.000000 0.000000 114.000000 14.000000 0.926855 0.283324 0.246307
-13.47999954 15.32999992 -0.23000000 4 45 231 97.000000 1.000000 4.000000 1.000000 0.000000 114.000000 14.000000 0.926855 0.283324 0.246307
-13.47999954 15.32999992 -0.23000000 4 45 231 97.000000 1.000000 4.000000 1.000000 0.000000 114.000000 14.000000 0.926855 0.283324 0.246307
-13.47999954 15.34000015 -0.20000000 4 45 231 97.000000 1.000000 4.000000 1.000000 0.000000 114.000000 14.000000 0.989577 -0.056449 0.132481
-13.47999954 15.32999992 -0.22000000 4 45 231 97.000000 1.000000 4.000000 1.000000 0.000000 114.000000 14.000000 0.995708 0.033808 0.086157
-13.47999954 15.32999992 -0.20000000 4 45 231 97.000000 1.000000 4.000000 1.000000 0.000000 114.000000 14.000000 0.902643 0.302851 0.305805
-13.47999954 15.31999969 -0.20000000 4 45 231 97.000000 1.000000 4.000000 1.000000 0.000000 114.000000 14.000000 0.806700 0.389718 0.444246
-13.47999954 15.32999992 -0.20000000 4 45 231 97.000000 1.000000 4.000000 1.000000 0.000000 114.000000 14.000000 0.902643 0.302851 0.305805
-13.47999954 15.31999969 -0.23999999 4 45 231 97.000000 1.000000 4.000000 1.000000 0.000000 114.000000 14.000000 0.955618 0.282430 -0.083826
-13.48999977 15.34000015 -0.31999999 4 45 231 97.000000 1.000000 4.000000 1.000000 0.000000 114.000000 14.000000 0.794612 0.500430 0.343746
-13.47999954 15.36999989 -0.31999999 4 45 231 97.000000 1.000000 4.000000 1.000000 0.000000 114.000000 14.000000 0.819604 0.344012 0.458154
-13.48999977 15.38000011 -0.28999999 4 45 231 97.000000 1.000000 4.000000 1.000000 0.000000 114.000000 14.000000 0.881603 0.459905 0.106132
-13.47999954 15.32999992 -0.33000001 4 45 231 97.000000 1.000000 4.000000 1.000000 0.000000 114.000000 14.000000 0.928861 0.144919 0.340904
-13.48999977 15.34000015 -0.28999999 4 45 231 97.000000 1.000000 4.000000 1.000000 0.000000 114.000000 14.000000 0.946315 0.314568 0.074400
-13.42000008 15.28999996 -0.25999999 4 45 231 97.000000 1.000000 4.000000 1.000000 0.000000 114.000000 14.000000 0.904657 0.086748 0.417216
-13.46000004 15.31000042 -0.28000000 4 45 231 97.000000 1.000000 4.000000 1.000000 0.000000 114.000000 14.000000 0.827602 0.481599 0.288336
-13.46000004 15.31000042 -0.27000001 4 45 231 97.000000 1.000000 4.000000 1.000000 0.000000 114.000000 14.000000 0.915752 0.401691 0.006458
-13.40999985 15.30000019 -0.33000001 4 45 231 97.000000 1.000000 4.000000 1.000000 0.000000 114.000000 14.000000 0.960739 -0.148109 0.234614
-13.43000031 15.23999977 -0.34000000 4 45 231 97.000000 1.000000 4.000000 1.000000 0.000000 114.000000 14.000000 0.981682 0.110973 0.154874
-13.47000027 15.30000019 -0.31999999 4 45 231 97.000000 1.000000 4.000000 1.000000 0.000000 114.000000 14.000000 0.993255 0.050504 -0.104376
-13.46000004 15.27999973 -0.34999999 4 45 231 97.000000 1.000000 4.000000 1.000000 0.000000 114.000000 14.000000 0.867978 0.495008 -0.039765
-13.47000027 15.30000019 -0.33000001 4 45 231 97.000000 1.000000 4.000000 1.000000 0.000000 114.000000 14.000000 0.986112 0.003389 -0.166046
-13.47000027 15.30000019 -0.36000001 4 45 231 97.000000 1.000000 4.000000 1.000000 0.000000 114.000000 14.000000 0.919229 0.327377 0.218728
-13.47000027 15.28999996 -0.36000001 4 45 231 97.000000 1.000000 4.000000 1.000000 0.000000 114.000000 14.000000 0.816745 0.557886 0.147282
-13.47000027 15.30000019 -0.34000000 4 45 231 97.000000 1.000000 4.000000 1.000000 0.000000 114.000000 14.000000 0.812940 0.568025 -0.128359
-13.47000027 15.31000042 -0.34999999 4 45 231 97.000000 1.000000 4.000000 1.000000 0.000000 114.000000 14.000000 0.995059 -0.076543 -0.063231
-13.46000004 15.27999973 -0.34999999 4 45 231 97.000000 1.000000 4.000000 1.000000 0.000000 114.000000 14.000000 0.867978 0.495008 -0.039765
-13.46000004 15.31000042 -0.34000000 4 45 231 97.000000 1.000000 4.000000 1.000000 0.000000 114.000000 14.000000 0.991901 0.034745 -0.122166
-13.47000027 15.28999996 -0.33000001 4 45 231 97.000000 1.000000 4.000000 1.000000 0.000000 114.000000 14.000000 0.845321 0.534243 -0.004058
-13.43999958 15.23999977 -0.33000001 4 45 231 97.000000 1.000000 4.000000 1.000000 0.000000 114.000000 14.000000 0.962959 0.264219 0.053846
-13.36999989 15.30000019 -0.37000000 4 45 231 97.000000 1.000000 4.000000 1.000000 0.000000 114.000000 14.000000 0.992954 -0.084916 0.082652
-13.39000034 15.27999973 -0.51999998 4 45 231 97.000000 1.000000 4.000000 1.000000 0.000000 114.000000 14.000000 0.996086 0.005315 -0.088234
-13.38000011 15.27000046 -0.47999999 4 45 231 97.000000 1.000000 4.000000 1.000000 0.000000 114.000000 14.000000 0.988164 -0.016940 0.152460
-13.39000034 15.28999996 -0.46000001 4 45 231 97.000000 1.000000 4.000000 1.000000 0.000000 114.000000 14.000000 0.907290 -0.014401 0.420260
-13.38000011 15.27000046 -0.51999998 4 45 231 97.000000 1.000000 4.000000 1.000000 0.000000 114.000000 14.000000 0.976197 0.211167 -0.049474
-13.39000034 15.30000019 -0.50000000 4 45 231 97.000000 1.000000 4.000000 1.000000 0.000000 114.000000 14.000000 0.831973 0.538508 0.133527
-13.38000011 15.27999973 -0.47999999 4 45 231 97.000000 1.000000 4.000000 1.000000 0.000000 114.000000 14.000000 0.964431 0.176182 -0.197062
-13.43000031 15.30000019 -0.43000001 4 45 231 97.000000 1.000000 4.000000 1.000000 0.000000 114.000000 14.000000 0.966256 0.167312 0.195845
-13.40999985 15.27000046 -0.38000000 4 45 231 97.000000 1.000000 4.000000 1.000000 0.000000 114.000000 14.000000 0.886935 0.459135 0.050410
-13.46000004 15.27999973 -0.40000001 4 45 231 97.000000 1.000000 4.000000 1.000000 0.000000 114.000000 14.000000 0.955968 0.264305 -0.127550
-13.46000004 15.31000042 -0.38000000 4 45 231 97.000000 1.000000 4.000000 1.000000 0.000000 114.000000 14.000000 0.948732 0.060503 0.310237
-13.46000004 15.28999996 -0.38999999 4 45 231 97.000000 1.000000 4.000000 1.000000 0.000000 114.000000 14.000000 0.976302 -0.159166 0.146633
-13.44999981 15.28999996 -0.37000000 4 45 231 97.000000 1.000000 4.000000 1.000000 0.000000 114.000000 14.000000 0.853569 0.469840 -0.225100
-13.46000004 15.31000042 -0.37000000 4 45 231 97.000000 1.000000 4.000000 1.000000 0.000000 114.000000 14.000000 0.847723 0.357511 0.391857
-13.46000004 15.31000042 -0.38000000 4 45 231 97.000000 1.000000 4.000000 1.000000 0.000000 114.000000 14.000000 0.948732 0.060503 0.310237
-13.47000027 15.28999996 -0.37000000 4 45 231 97.000000 1.000000 4.000000 1.000000 0.000000 114.000000 14.000000 0.973172 0.132533 0.188071
-13.46000004 15.31000042 -0.37000000 4 45 231 97.000000 1.000000 4.000000 1.000000 0.000000 114.000000 14.000000 0.847723 0.357511 0.391857
-13.46000004 15.31000042 -0.37000000 4 45 231 97.000000 1.000000 4.000000 1.000000 0.000000 114.000000 14.000000 0.847723 0.357511 0.391857
-13.44999981 15.27999973 -0.44999999 4 45 231 97.000000 1.000000 4.000000 1.000000 0.000000 114.000000 14.000000 0.983781 0.143644 0.107431
-13.46000004 15.28999996 -0.41000000 4 45 231 97.000000 1.000000 4.000000 1.000000 0.000000 114.000000 14.000000 0.993522 0.086835 0.073302
-13.46000004 15.27999973 -0.41000000 4 45 231 97.000000 1.000000 4.000000 1.000000 0.000000 114.000000 14.000000 0.988428 0.149003 0.028436
-13.44999981 15.28999996 -0.44999999 4 45 231 97.000000 1.000000 4.000000 1.000000 0.000000 114.000000 14.000000 0.983092 0.010348 0.182821
-13.44999981 15.28999996 -0.44999999 4 45 231 97.000000 1.000000 4.000000 1.000000 0.000000 114.000000 14.000000 0.983092 0.010348 0.182821
-13.46000004 15.28999996 -0.44999999 4 45 231 97.000000 1.000000 4.000000 1.000000 0.000000 114.000000 14.000000 0.913119 -0.057657 0.403596
-13.46000004 15.28999996 -0.43000001 4 45 231 97.000000 1.000000 4.000000 1.000000 0.000000 114.000000 14.000000 0.940504 0.339592 0.011362
-13.46000004 15.27999973 -0.41999999 4 45 231 97.000000 1.000000 4.000000 1.000000 0.000000 114.000000 14.000000 0.889027 0.150804 0.432306
-13.44999981 15.30000019 -0.44999999 4 45 231 97.000000 1.000000 4.000000 1.000000 0.000000 114.000000 14.000000 0.953469 0.206338 -0.219824
-13.46000004 15.27999973 -0.41999999 4 45 231 97.000000 1.000000 4.000000 1.000000 0.000000 114.000000 14.000000 0.889027 0.150804 0.432306
-13.46000004 15.28999996 -0.41999999 4 45 231 97.000000 1.000000 4.000000 1.000000 0.000000 114.000000 14.000000 0.883019 0.076482 0.463064
-13.44999981 15.31000042 -0.44000000 4 45 231 97.000000 1.000000 4.000000 1.000000 0.000000 114.000000 14.000000 0.953958 0.119738 -0.275003
-13.46000004 15.27999973 -0.41000000 4 45 231 97.000000 1.000000 4.000000 1.000000 0.000000 114.000000 14.000000 0.988428 0.149003 0.028436
-13.43999958 15.27000046 -0.41999999 4 45 231 97.000000 1.000000 4.000000 1.000000 0.000000 114.000000 14.000000 0.895860 0.349133 0.274849
-13.43999958 15.27000046 -0.41000000 4 45 231 97.000000 1.000000 4.000000 1.000000 0.000000 114.000000 14.000000 0.975390 -0.164448 -0.146873
-13.42000008 15.28999996 -0.46000001 4 45 231 97.000000 1.000000 4.000000 1.000000 0.000000 114.000000 14.000000 0.824741 0.565023 0.023485
-13.42000008 15.28999996 -0.50999999 4 45 231 97.000000 1.000000 4.000000 1.000000 0.000000 114.000000 14.000000 0.985643 -0.152639 -0.072178
-13.43000031 15.27999973 -0.52999997 4 45 231 97.000000 1.000000 4.000000 1.000000 0.000000 114.000000 14.000000 0.965722 -0.035676 0.257116
-13.40999985 15.25000000 -0.49000001 4 45 231 97.000000 1.000000 4.000000 1.000000 0.000000 114.000000 14.000000 0.968988 -0.243778 -0.040426
-13.40999985 15.27000046 -0.46000001 4 45 231 97.000000 1.000000 4.000000 1.000000 0.000000 114.000000 14.000000 0.962108 -0.048667 -0.268292
-13.40999985 15.27000046 -0.46000001 4 45 231 97.000000 1.000000 4.000000 1.000000 0.000000 114.000000 14.000000 0.962108 -0.048667 -0.268292
-13.39999962 15.26000023 -0.46000001 4 45 231 97.000000 1.000000 4.000000 1.000000 0.000000 114.000000 14.000000 0.933326 0.354111 -0.059238
-13.43000031 15.23999977 -0.52999997 4 45 231 97.000000 1.000000 4.000000 1.000000 0.000000 114.000000 14.000000 0.985246 -0.157308 0.067418
-13.43000031 15.23999977 -0.52999997 4 45 231 97.000000 1.000000 4.000000 1.000000 0.000000 114.000000 14.000000 0.985246 -0.157308 0.067418
-13.43000031 15.23999977 -0.52999997 4 45 231 97.000000 1.000000 4.000000 1.000000 0.000000 114.000000 14.000000 0.985246 -0.157308 0.067418
-13.44999981 15.27999973 -0.47000000 4 45 231 97.000000 1.000000 4.000000 1.000000 0.000000 114.000000 14.000000 0.979732 0.093947 0.176913
-13.44999981 15.27999973 -0.47000000 4 45 231 97.000000 1.000000 4.000000 1.000000 0.000000 114.000000 14.000000 0.979732 0.093947 0.176913
-13.44999981 15.27999973 -0.47999999 4 45 231 97.000000 1.000000 4.000000 1.000000 0.000000 114.000000 14.000000 0.836359 0.376441 0.398491
-13.44999981 15.27000046 -0.47000000 4 45 231 97.000000 1.000000 4.000000 1.000000 0.000000 114.000000 14.000000 0.927177 -0.032510 0.373211
-13.44999981 15.27000046 -0.47999999 4 45 231 97.000000 1.000000 4.000000 1.000000 0.000000 114.000000 14.000000 0.920566 0.161626 0.355577
-13.44999981 15.26000023 -0.52999997 4 45 231 97.000000 1.000000 4.000000 1.000000 0.000000 114.000000 14.000000 0.907065 0.072076 0.414775
-13.43000031 15.22999954 -0.52999997 4 45 231 97.000000 1.000000 4.000000 1.000000 0.000000 114.000000 14.000000 0.988051 -0.085764 0.128059
-13.43000031 15.22999954 -0.52999997 4 45 231 97.000000 1.000000 4.000000 1.000000 0.000000 114.000000 14.000000 0.988051 -0.085764 0.128059
-13.43000031 15.22000027 -0.51999998 4 45 231 97.000000 1.000000 4.000000 1.000000 0.000000 114.000000 14.000000 0.950746 0.199372 -0.237347
-13.43000031 15.22999954 -0.50999999 4 45 231 97.000000 1.000000 4.000000 1.000000 0.000000 114.000000 14.000000 0.984600 0.138253 -0.106996
-13.39999962 15.22000027 -0.52999997 4 45 231 97.000000 1.000000 4.000000 1.000000 0.000000 114.000000 14.000000 0.982001 -0.183165 -0.046087
-13.42000008 15.21000004 -0.49000001 4 45 231 97.000000 1.000000 4.000000 1.000000 0.000000 114.000000 14.000000 0.990653 0.039717 0.130498
-13.38000011 14.98999977 -0.33000001 4 45 231 97.000000 1.000000 4.000000 1.000000 0.000000 114.000000 14.000000 0.785883 -0.611565 0.091517
-13.39000034 14.98999977 -0.34000000 4 45 231 97.000000 1.000000 4.000000 1.000000 0.000000 114.000000 14.000000 -0.674491 0.736970 0.044019
-13.43000031 14.97999954 -0.23999999 4 45 231 97.000000 1.000000 4.000000 1.000000 0.000000 114.000000 14.000000 -0.721462 0.679464 -0.133493
-13.43999958 14.97999954 -0.23000000 4 45 231 97.000000 1.000000 4.000000 1.000000 0.000000 114.000000 14.000000 -0.534209 0.835708 0.127332
-13.42000008 14.98999977 -0.30000001 4 45 231 97.000000 1.000000 4.000000 1.000000 0.000000 114.000000 14.000000 0.662932 -0.721653 -0.199343
-13.43000031 14.98999977 -0.31999999 4 45 231 97.000000 1.000000 4.000000 1.000000 0.000000 114.000000 14.000000 0.699115 -0.670708 0.247768
-13.43000031 14.97999954 -0.28999999 4 45 231 97.000000 1.000000 4.000000 1.000000 0.000000 114.000000 14.000000 -0.740692 0.599301 -0.303667
-13.39999962 14.98999977 -0.30000001 4 45 231 97.000000 1.000000 4.000000 1.000000 0.000000 114.000000 14.000000 -0.547309 0.820213 -0.166442
-13.42000008 14.97999954 -0.34000000 4 45 231 97.000000 1.000000 4.000000 1.000000 0.000000 114.000000 14.000000 0.817446 -0.523845 0.239516
-13.42000008 15.00000000 -0.33000001 4 45 231 97.000000 1.000000 4.000000 1.000000 0.000000 114.000000 14.000000 0.775802 -0.578325 0.252332
-13.40999985 14.98999977 -0.34999999 4 45 231 97.000000 1.000000 4.000000 1.000000 0.000000 114.000000 14.000000 -0.593929 0.785323 -0.174685
-13.38000011 15.00000000 -0.37000000 4 45 231 97.000000 1.000000 4.000000 1.000000 0.000000 114.000000 14.000000 -0.652446 0.727189 0.213330
-13.39000034 14.97999954 -0.38000000 4 45 231 97.000000 1.000000 4.000000 1.000000 0.000000 114.000000 14.000000 0.677656 -0.687178 0.261858
-13.38000011 15.00000000 -0.40000001 4 45 231 97.000000 1.000000 4.000000 1.000000 0.000000 114.000000 14.000000 -0.622943 0.747844 -0.229505
-13.35999966 15.00000000 -0.41999999 4 45 231 97.000000 1.000000 4.000000 1.000000 0.000000 114.000000 14.000000 -0.663148 0.727472 0.176125
-13.38000011 14.98999977 -0.41999999 4 45 231 97.000000 1.000000 4.000000 1.000000 0.000000 114.000000 14.000000 0.770366 -0.577379 0.270498
-13.35999966 14.98999977 -0.43000001 4 45 231 97.000000 1.000000 4.000000 1.000000 0.000000 114.000000 14.000000 -0.609614 0.771566 -0.181815
-13.35999966 14.98999977 -0.43000001 4 45 231 97.000000 1.000000 4.000000 1.000000 0.000000 114.000000 14.000000 -0.609614 0.771566 -0.181815
-13.39000034 14.97999954 -0.41000000 4 45 231 97.000000 1.000000 4.000000 1.000000 0.000000 114.000000 14.000000 0.844573 -0.527322 0.092889
-13.36999989 14.98999977 -0.43000001 4 45 231 97.000000 1.000000 4.000000 1.000000 0.000000 114.000000 14.000000 -0.629833 0.653099 -0.420443
-13.38000011 14.98999977 -0.41000000 4 45 231 97.000000 1.000000 4.000000 1.000000 0.000000 114.000000 14.000000 0.749927 -0.640404 0.165805
-13.36999989 14.97999954 -0.46000001 4 45 231 97.000000 1.000000 4.000000 1.000000 0.000000 114.000000 14.000000 0.989071 -0.144216 0.030660
-13.35999966 14.98999977 -0.47999999 4 45 231 97.000000 1.000000 4.000000 1.000000 0.000000 114.000000 14.000000 0.764176 -0.586976 -0.267383
-13.35000038 14.98999977 -0.52999997 4 45 231 97.000000 1.000000 4.000000 1.000000 0.000000 114.000000 14.000000 0.701868 -0.663844 0.258249
-13.35999966 15.00000000 -0.50000000 4 45 231 97.000000 1.000000 4.000000 1.000000 0.000000 114.000000 14.000000 0.763418 -0.636917 -0.107379
-13.35000038 14.97999954 -0.50000000 4 45 231 97.000000 1.000000 4.000000 1.000000 0.000000 114.000000 14.000000 0.783573 -0.614938 -0.088679
-13.36999989 14.98999977 -0.50000000 4 45 231 97.000000 1.000000 4.000000 1.000000 0.000000 114.000000 14.000000 -0.634793 0.772122 -0.029428
-13.35000038 14.98999977 -0.52999997 4 45 231 97.000000 1.000000 4.000000 1.000000 0.000000 114.000000 14.000000 0.701868 -0.663844 0.258249
-13.35000038 15.00000000 -0.50000000 4 45 231 97.000000 1.000000 4.000000 1.000000 0.000000 114.000000 14.000000 0.773496 -0.633115 -0.029480
-13.39999962 14.97999954 -0.37000000 4 45 231 97.000000 1.000000 4.000000 1.000000 0.000000 114.000000 14.000000 -0.618368 0.706473 -0.344263
-13.39999962 14.97999954 -0.38000000 4 45 231 97.000000 1.000000 4.000000 1.000000 0.000000 114.000000 14.000000 0.705475 -0.627629 0.329222
-13.28999996 15.15999985 -0.83999997 4 45 231 97.000000 1.000000 4.000000 1.000000 0.000000 114.000000 14.000000 0.878171 -0.158216 0.451424
-13.30000019 15.02000046 -0.62000000 4 45 231 97.000000 1.000000 4.000000 1.000000 0.000000 114.000000 14.000000 -0.678214 0.734380 0.026679
-13.30000019 15.02000046 -0.62000000 4 45 231 97.000000 1.000000 4.000000 1.000000 0.000000 114.000000 14.000000 -0.678214 0.734380 0.026679
-13.26000023 15.06000042 -0.69000000 4 45 231 97.000000 1.000000 4.000000 1.000000 0.000000 114.000000 14.000000 0.955520 -0.150172 0.253831
-13.26000023 14.97999954 -0.63000000 4 45 231 97.000000 1.000000 4.000000 1.000000 0.000000 114.000000 14.000000 0.824976 -0.565033 0.012313
-13.25000000 14.97999954 -0.68000001 4 45 231 97.000000 1.000000 4.000000 1.000000 0.000000 114.000000 14.000000 0.991779 -0.085794 -0.094945
-13.21000004 14.98999977 -0.81999999 4 45 231 97.000000 1.000000 4.000000 1.000000 0.000000 114.000000 14.000000 0.923326 -0.170049 0.344315
-13.27000046 15.06999969 -0.81999999 4 45 231 97.000000 1.000000 4.000000 1.000000 0.000000 114.000000 14.000000 0.804739 -0.593615 -0.004113
-13.22999954 14.97999954 -0.72000003 4 45 231 97.000000 1.000000 4.000000 1.000000 0.000000 114.000000 14.000000 0.953703 -0.269265 -0.133969
-13.23999977 14.97999954 -0.79000002 4 45 231 97.000000 1.000000 4.000000 1.000000 0.000000 114.000000 14.000000 0.866254 -0.482854 -0.128281
-13.23999977 14.98999977 -0.77999997 4 45 231 97.000000 1.000000 4.000000 1.000000 0.000000 114.000000 14.000000 0.968098 -0.245416 0.050563
-13.23999977 15.00000000 -0.76999998 4 45 231 97.000000 1.000000 4.000000 1.000000 0.000000 114.000000 14.000000 0.975894 -0.074880 0.204999
-13.23999977 14.98999977 -0.75999999 4 45 231 97.000000 1.000000 4.000000 1.000000 0.000000 114.000000 14.000000 0.918565 -0.394787 0.019544
-13.23999977 14.98999977 -0.77999997 4 45 231 97.000000 1.000000 4.000000 1.000000 0.000000 114.000000 14.000000 0.968098 -0.245416 0.050563
-13.22999954 15.00000000 -0.76999998 4 45 231 97.000000 1.000000 4.000000 1.000000 0.000000 114.000000 14.000000 0.835983 -0.548741 -0.004065
-13.27999973 15.03999996 -0.79000002 4 45 231 97.000000 1.000000 4.000000 1.000000 0.000000 114.000000 14.000000 -0.721471 0.666092 -0.189213
-13.30000019 15.02999973 -0.75999999 4 45 231 97.000000 1.000000 4.000000 1.000000 0.000000 114.000000 14.000000 0.963788 -0.263526 0.040828
-13.30000019 15.02999973 -0.76999998 4 45 231 97.000000 1.000000 4.000000 1.000000 0.000000 114.000000 14.000000 0.892345 -0.448216 -0.053132
-13.27000046 14.97999954 -0.75000000 4 45 231 97.000000 1.000000 4.000000 1.000000 0.000000 114.000000 14.000000 0.953011 -0.190063 -0.235894
-13.30000019 14.98999977 -0.75000000 4 45 231 97.000000 1.000000 4.000000 1.000000 0.000000 114.000000 14.000000 0.991898 -0.099533 0.078940
-13.25000000 14.97999954 -0.81999999 4 45 231 97.000000 1.000000 4.000000 1.000000 0.000000 114.000000 14.000000 0.773499 -0.628377 -0.082719
-13.27000046 15.06000042 -0.82999998 4 45 231 97.000000 1.000000 4.000000 1.000000 0.000000 114.000000 14.000000 0.742299 -0.668211 0.049867
-13.28999996 15.03999996 -0.82999998 4 45 231 97.000000 1.000000 4.000000 1.000000 0.000000 114.000000 14.000000 0.864488 -0.502609 0.006701
-13.28999996 15.02999973 -0.82999998 4 45 231 97.000000 1.000000 4.000000 1.000000 0.000000 114.000000 14.000000 0.939450 -0.283634 -0.192317
-13.27999973 15.03999996 -0.81000000 4 45 231 97.000000 1.000000 4.000000 1.000000 0.000000 114.000000 14.000000 0.914682 -0.355313 -0.192640
-13.28999996 15.02000046 -0.81000000 4 45 231 97.000000 1.000000 4.000000 1.000000 0.000000 114.000000 14.000000 0.996366 -0.084365 -0.011747
-13.28999996 15.03999996 -0.86000001 4 45 231 97.000000 1.000000 4.000000 1.000000 0.000000 114.000000 14.000000 0.737067 -0.675293 0.026675
-13.30000019 15.02999973 -0.83999997 4 45 231 97.000000 1.000000 4.000000 1.000000 0.000000 114.000000 14.000000 0.734668 -0.658615 -0.162753
-13.28999996 15.02999973 -0.87000000 4 45 231 97.000000 1.000000 4.000000 1.000000 0.000000 114.000000 14.000000 0.956750 -0.196154 0.214835
-13.30000019 15.02999973 -0.88000000 4 45 231 97.000000 1.000000 4.000000 1.000000 0.000000 114.000000 14.000000 0.928398 -0.207093 0.308527
-13.27999973 15.05000019 -0.83999997 4 45 231 97.000000 1.000000 4.000000 1.000000 0.000000 114.000000 14.000000 0.762794 -0.635415 -0.119973
-13.28999996 15.01000023 -0.82999998 4 45 231 97.000000 1.000000 4.000000 1.000000 0.000000 114.000000 14.000000 0.999852 -0.016947 0.002991
-13.36999989 15.27000046 -0.56999999 4 45 231 97.000000 1.000000 4.000000 1.000000 0.000000 114.000000 14.000000 0.948572 0.191892 0.251773
-13.35999966 15.25000000 -0.56999999 4 45 231 97.000000 1.000000 4.000000 1.000000 0.000000 114.000000 14.000000 0.891324 0.225409 0.393361
-13.36999989 15.27999973 -0.55000001 4 45 231 97.000000 1.000000 4.000000 1.000000 0.000000 114.000000 14.000000 0.829527 0.491514 0.265139
-13.36999989 15.26000023 -0.56999999 4 45 231 97.000000 1.000000 4.000000 1.000000 0.000000 114.000000 14.000000 0.938202 0.152030 0.310908
-13.35000038 15.25000000 -0.66000003 4 45 231 97.000000 1.000000 4.000000 1.000000 0.000000 114.000000 14.000000 0.851585 0.446507 0.274655
-13.35999966 15.23999977 -0.63000000 4 45 231 97.000000 1.000000 4.000000 1.000000 0.000000 114.000000 14.000000 0.902183 0.226642 0.367014
-13.35000038 15.23999977 -0.69000000 4 45 231 97.000000 1.000000 4.000000 1.000000 0.000000 114.000000 14.000000 0.909395 0.409160 0.074763
-13.34000015 15.22000027 -0.69999999 4 45 231 97.000000 1.000000 4.000000 1.000000 0.000000 114.000000 14.000000 0.962168 0.211336 0.171956
-13.34000015 15.22000027 -0.69000000 4 45 231 97.000000 1.000000 4.000000 1.000000 0.000000 114.000000 14.000000 0.955907 0.220594 0.193855
-13.32999992 15.19999981 -0.70999998 4 45 231 97.000000 1.000000 4.000000 1.000000 0.000000 114.000000 14.000000 0.931428 0.250171 0.264305
-13.35999966 15.22000027 -0.63999999 4 45 231 97.000000 1.000000 4.000000 1.000000 0.000000 114.000000 14.000000 0.913064 -0.159963 0.375135
-13.35000038 15.22999954 -0.66000003 4 45 231 97.000000 1.000000 4.000000 1.000000 0.000000 114.000000 14.000000 0.984889 0.012583 0.172727
-13.35000038 15.22000027 -0.64999998 4 45 231 97.000000 1.000000 4.000000 1.000000 0.000000 114.000000 14.000000 0.984433 0.045651 0.169730
-13.39000034 15.21000004 -0.69000000 4 45 231 97.000000 1.000000 4.000000 1.000000 0.000000 114.000000 14.000000 0.991904 0.062635 0.110465
-13.35000038 15.22999954 -0.68000001 4 45 231 97.000000 1.000000 4.000000 1.000000 0.000000 114.000000 14.000000 0.936019 -0.112106 0.333617
-13.38000011 15.18000031 -0.66000003 4 45 231 97.000000 1.000000 4.000000 1.000000 0.000000 114.000000 14.000000 0.973432 0.057549 0.221624
-13.39000034 15.17000008 -0.64999998 4 45 231 97.000000 1.000000 4.000000 1.000000 0.000000 114.000000 14.000000 0.992849 0.100527 -0.064383
-13.43000031 15.27999973 -0.56999999 4 45 231 97.000000 1.000000 4.000000 1.000000 0.000000 114.000000 14.000000 0.974631 -0.095601 0.202376
-13.43000031 15.27999973 -0.56999999 4 45 231 97.000000 1.000000 4.000000 1.000000 0.000000 114.000000 14.000000 0.974631 -0.095601 0.202376
-13.43000031 15.23999977 -0.54000002 4 45 231 97.000000 1.000000 4.000000 1.000000 0.000000 114.000000 14.000000 0.983591 0.050652 -0.173159
-13.42000008 15.23999977 -0.57999998 4 45 231 97.000000 1.000000 4.000000 1.000000 0.000000 114.000000 14.000000 0.920544 0.388499 -0.040825
-13.43000031 15.23999977 -0.54000002 4 45 231 97.000000 1.000000 4.000000 1.000000 0.000000 114.000000 14.000000 0.983591 0.050652 -0.173159
-13.43000031 15.27000046 -0.56999999 4 45 231 97.000000 1.000000 4.000000 1.000000 0.000000 114.000000 14.000000 0.942624 -0.122366 0.310622
-13.43000031 15.23999977 -0.55000001 4 45 231 97.000000 1.000000 4.000000 1.000000 0.000000 114.000000 14.000000 0.995239 -0.076217 0.060753
-13.43000031 15.26000023 -0.54000002 4 45 231 97.000000 1.000000 4.000000 1.000000 0.000000 114.000000 14.000000 0.936199 -0.219051 0.274860
-13.43000031 15.27000046 -0.56999999 4 45 231 97.000000 1.000000 4.000000 1.000000 0.000000 114.000000 14.000000 0.942624 -0.122366 0.310622
-13.43000031 15.26000023 -0.58999997 4 45 231 97.000000 1.000000 4.000000 1.000000 0.000000 114.000000 14.000000 0.994267 -0.003239 -0.106876
-13.43000031 15.27000046 -0.58999997 4 45 231 97.000000 1.000000 4.000000 1.000000 0.000000 114.000000 14.000000 0.981696 -0.186934 0.036446
-13.43000031 15.27000046 -0.58999997 4 45 231 97.000000 1.000000 4.000000 1.000000 0.000000 114.000000 14.000000 0.981696 -0.186934 0.036446
-13.42000008 15.26000023 -0.60000002 4 45 231 97.000000 1.000000 4.000000 1.000000 0.000000 114.000000 14.000000 0.952596 -0.243875 0.181896
-13.42000008 15.25000000 -0.58999997 4 45 231 97.000000 1.000000 4.000000 1.000000 0.000000 114.000000 14.000000 0.906374 0.342992 -0.246662
-13.44999981 15.30000019 -0.58999997 4 45 231 97.000000 1.000000 4.000000 1.000000 0.000000 114.000000 14.000000 0.772299 0.615119 0.158692
-13.43999958 15.27999973 -0.60000002 4 45 231 97.000000 1.000000 4.000000 1.000000 0.000000 114.000000 14.000000 0.893005 0.338418 0.296674
-13.43999958 15.27000046 -0.56000000 4 45 231 97.000000 1.000000 4.000000 1.000000 0.000000 114.000000 14.000000 0.925031 -0.169332 0.340064
-13.43999958 15.26000023 -0.60000002 4 45 231 97.000000 1.000000 4.000000 1.000000 0.000000 114.000000 14.000000 0.973135 -0.106456 -0.204145
-13.43000031 15.25000000 -0.63999999 4 45 231 97.000000 1.000000 4.000000 1.000000 0.000000 114.000000 14.000000 0.989608 0.061058 0.130181
-13.43000031 15.26000023 -0.63999999 4 45 231 97.000000 1.000000 4.000000 1.000000 0.000000 114.000000 14.000000 0.981448 0.159714 0.106070
-13.43000031 15.26000023 -0.63999999 4 45 231 97.000000 1.000000 4.000000 1.000000 0.000000 114.000000 14.000000 0.981448 0.159714 0.106070
