//X Y Z R G B PointSourceId ScanDirectionFlag NumberOfReturns ReturnNumber GpsTime Intensity Classification Nx Ny Nz
-10.77999973 -8.86999989 0.14000000 158 1 176 0.000000 0.000000 0.000000 0.000000 0.000000 0.000000 197.000000 -0.429812 0.332909 0.839305
-10.77999973 -8.86999989 0.08000000 158 1 176 0.000000 0.000000 0.000000 0.000000 0.000000 0.000000 197.000000 -0.181052 0.210126 0.960764
-10.77999973 -8.89999962 0.08000000 158 1 176 0.000000 0.000000 0.000000 0.000000 0.000000 0.000000 197.000000 -0.366166 0.128504 0.921634
-10.77000046 -8.84000015 0.06000000 158 1 176 0.000000 0.000000 0.000000 0.000000 0.000000 0.000000 197.000000 -0.367924 0.301304 0.879686
-10.77999973 -8.85999966 0.06000000 158 1 176 0.000000 0.000000 0.000000 0.000000 0.000000 0.000000 197.000000 -0.488474 0.076980 0.869176
-10.78999996 -8.88000011 0.06000000 158 1 176 0.000000 0.000000 0.000000 0.000000 0.000000 0.000000 197.000000 -0.363210 -0.413525 0.834911
-10.85999966 -8.85999966 0.08000000 158 1 176 0.000000 0.000000 0.000000 0.000000 0.000000 0.000000 197.000000 -0.484851 -0.100951 0.868751
-10.81999969 -8.85999966 0.05000000 158 1 176 0.000000 0.000000 0.000000 0.000000 0.000000 0.000000 197.000000 -0.701424 0.015339 0.712579
-10.81999969 -8.85999966 0.05000000 158 1 176 0.000000 0.000000 0.000000 0.000000 0.000000 0.000000 197.000000 -0.701424 0.015339 0.712579
-10.82999992 -8.88000011 0.02000000 158 1 176 0.000000 0.000000 0.000000 0.000000 0.000000 0.000000 197.000000 -0.486816 0.109926 0.866560
-10.84000015 -8.88000011 0.05000000 158 1 176 0.000000 0.000000 0.000000 0.000000 0.000000 0.000000 197.000000 -0.268173 -0.237284 0.933691
-10.81999969 -8.89000034 0.06000000 158 1 176 0.000000 0.000000 0.000000 0.000000 0.000000 0.000000 197.000000 -0.441440 0.061501 0.895181
-10.82999992 -8.88000011 0.01000000 158 1 176 0.000000 0.000000 0.000000 0.000000 0.000000 0.000000 197.000000 -0.272796 0.030859 0.961577
-10.84000015 -8.89999962 0.01000000 158 1 176 0.000000 0.000000 0.000000 0.000000 0.000000 0.000000 197.000000 -0.625989 -0.043805 0.778601
-10.86999989 -8.85000038 0.04000000 158 1 176 0.000000 0.000000 0.000000 0.000000 0.000000 0.000000 197.000000 -0.397724 -0.291055 0.870117
-10.89000034 -8.84000015 0.04000000 158 1 176 0.000000 0.000000 0.000000 0.000000 0.000000 0.000000 197.000000 -0.564966 -0.262812 0.782140
-10.88000011 -8.89999962 0.03000000 158 1 176 0.000000 0.000000 0.000000 0.000000 0.000000 0.000000 197.000000 0.679107 -0.388297 -0.622928
-10.88000011 -8.88000011 0.02000000 158 1 176 0.000000 0.000000 0.000000 0.000000 0.000000 0.000000 197.000000 -0.400125 0.308142 0.863104
-10.86999989 -8.89000034 0.03000000 158 1 176 0.000000 0.000000 0.000000 0.000000 0.000000 0.000000 197.000000 -0.509194 0.351778 0.785477
-10.89000034 -8.88000011 0.02000000 158 1 176 0.000000 0.000000 0.000000 0.000000 0.000000 0.000000 197.000000 -0.410367 0.271054 0.870706
-10.75000000 -8.92000008 0.09000000 158 1 176 0.000000 0.000000 0.000000 0.000000 0.000000 0.000000 197.000000 -0.563410 -0.200018 0.801600
-10.77000046 -8.93000031 0.10000000 158 1 176 0.000000 0.000000 0.000000 0.000000 0.000000 0.000000 197.000000 -0.174926 0.096637 0.979828
-10.78999996 -8.90999985 0.07000000 158 1 176 0.000000 0.000000 0.000000 0.000000 0.000000 0.000000 197.000000 0.705591 0.018164 -0.708386
-10.73999977 -8.94999981 0.02000000 158 1 176 0.000000 0.000000 0.000000 0.000000 0.000000 0.000000 197.000000 -0.373731 -0.318816 0.871023
-10.75000000 -8.98999977 0.05000000 158 1 176 0.000000 0.000000 0.000000 0.000000 0.000000 0.000000 197.000000 -0.160045 -0.234115 0.958945
-10.73999977 -8.97999954 0.00000000 158 1 176 0.000000 0.000000 0.000000 0.000000 0.000000 0.000000 197.000000 -0.180151 -0.228192 0.956804
-10.78999996 -8.94999981 -0.01000000 158 1 176 0.000000 0.000000 0.000000 0.000000 0.000000 0.000000 197.000000 0.672614 0.049982 -0.738304
-10.81000042 -8.98999977 -0.01000000 158 1 176 0.000000 0.000000 0.000000 0.000000 0.000000 0.000000 197.000000 -0.479155 -0.327344 0.814406
-10.77000046 -9.02999973 0.03000000 158 1 176 0.000000 0.000000 0.000000 0.000000 0.000000 0.000000 197.000000 -0.635512 -0.155481 0.756274
-10.75000000 -9.03999996 0.00000000 158 1 176 0.000000 0.000000 0.000000 0.000000 0.000000 0.000000 197.000000 -0.293157 -0.162259 0.942195
-10.85000038 -8.93000031 0.03000000 158 1 176 0.000000 0.000000 0.000000 0.000000 0.000000 0.000000 197.000000 -0.204176 0.010500 0.978878
-10.85000038 -8.94999981 0.02000000 158 1 176 0.000000 0.000000 0.000000 0.000000 0.000000 0.000000 197.000000 -0.451658 -0.328908 0.829352
-10.85000038 -8.93000031 0.01000000 158 1 176 0.000000 0.000000 0.000000 0.000000 0.000000 0.000000 197.000000 0.788456 -0.180783 -0.587924
-10.86999989 -8.93000031 0.05000000 158 1 176 0.000000 0.000000 0.000000 0.000000 0.000000 0.000000 197.000000 -0.258219 -0.069278 0.963599
-10.85999966 -8.94999981 0.03000000 158 1 176 0.000000 0.000000 0.000000 0.000000 0.000000 0.000000 197.000000 -0.604985 0.017997 0.796033
-10.89000034 -8.93000031 0.03000000 158 1 176 0.000000 0.000000 0.000000 0.000000 0.000000 0.000000 197.000000 0.820648 0.159944 -0.548593
-10.85999966 -8.92000008 0.03000000 158 1 176 0.000000 0.000000 0.000000 0.000000 0.000000 0.000000 197.000000 -0.603751 -0.167961 0.779278
-10.85999966 -8.94999981 0.03000000 158 1 176 0.000000 0.000000 0.000000 0.000000 0.000000 0.000000 197.000000 -0.604985 0.017997 0.796033
-10.85999966 -8.92000008 0.03000000 158 1 176 0.000000 0.000000 0.000000 0.000000 0.000000 0.000000 197.000000 -0.603751 -0.167961 0.779278
-10.88000011 -8.93000031 0.05000000 158 1 176 0.000000 0.000000 0.000000 0.000000 0.000000 0.000000 197.000000 -0.539479 -0.048790 0.840584
-10.86999989 -8.92000008 0.06000000 158 1 176 0.000000 0.000000 0.000000 0.000000 0.000000 0.000000 197.000000 -0.482732 0.094848 0.870617
-10.85999966 -8.93000031 0.03000000 158 1 176 0.000000 0.000000 0.000000 0.000000 0.000000 0.000000 197.000000 -0.583578 0.094126 0.806583
-10.86999989 -8.93000031 0.00000000 158 1 176 0.000000 0.000000 0.000000 0.000000 0.000000 0.000000 197.000000 -0.429722 -0.138482 0.892279
-10.85999966 -8.93000031 0.00000000 158 1 176 0.000000 0.000000 0.000000 0.000000 0.000000 0.000000 197.000000 -0.583589 0.069917 0.809034
-10.86999989 -8.96000004 0.02000000 158 1 176 0.000000 0.000000 0.000000 0.000000 0.000000 0.000000 197.000000 0.693832 -0.369059 -0.618379
-10.89000034 -8.96000004 0.03000000 158 1 176 0.000000 0.000000 0.000000 0.000000 0.000000 0.000000 197.000000 0.730964 -0.155878 -0.664375
-10.85999966 -8.96000004 0.02000000 158 1 176 0.000000 0.000000 0.000000 0.000000 0.000000 0.000000 197.000000 -0.623448 -0.325489 0.710893
-10.85999966 -8.97000027 0.02000000 158 1 176 0.000000 0.000000 0.000000 0.000000 0.000000 0.000000 197.000000 0.804009 0.046466 -0.592798
-10.89999962 -8.98999977 0.01000000 158 1 176 0.000000 0.000000 0.000000 0.000000 0.000000 0.000000 197.000000 -0.582723 -0.292160 0.758338
-10.85000038 -9.02000046 -0.02000000 158 1 176 0.000000 0.000000 0.000000 0.000000 0.000000 0.000000 197.000000 -0.342521 -0.148380 0.927719
-10.88000011 -9.02000046 0.02000000 158 1 176 0.000000 0.000000 0.000000 0.000000 0.000000 0.000000 197.000000 0.740738 -0.209643 -0.638246
-10.89000034 -9.02999973 0.01000000 158 1 176 0.000000 0.000000 0.000000 0.000000 0.000000 0.000000 197.000000 -0.247324 -0.084978 0.965199
-10.88000011 -9.06000042 0.00000000 158 1 176 0.000000 0.000000 0.000000 0.000000 0.000000 0.000000 197.000000 -0.443570 -0.154599 0.882805
-10.88000011 -9.02999973 -0.10000000 158 1 176 0.000000 0.000000 0.000000 0.000000 0.000000 0.000000 197.000000 -0.714775 0.206215 0.668260
-10.92000008 -8.93999958 0.00000000 158 1 176 0.000000 0.000000 0.000000 0.000000 0.000000 0.000000 197.000000 0.604520 0.282322 -0.744883
-10.92000008 -8.94999981 0.00000000 158 1 176 0.000000 0.000000 0.000000 0.000000 0.000000 0.000000 197.000000 -0.624493 0.058591 0.778830
-10.90999985 -8.96000004 0.02000000 158 1 176 0.000000 0.000000 0.000000 0.000000 0.000000 0.000000 197.000000 -0.268813 -0.035924 0.962522
-10.97000027 -9.00000000 0.01000000 158 1 176 0.000000 0.000000 0.000000 0.000000 0.000000 0.000000 197.000000 -0.503017 -0.170640 0.847264
-10.96000004 -9.07999992 -0.01000000 158 1 176 0.000000 0.000000 0.000000 0.000000 0.000000 0.000000 197.000000 -0.472384 -0.134348 0.871094
-11.00000000 -8.97000027 -0.01000000 158 1 176 0.000000 0.000000 0.000000 0.000000 0.000000 0.000000 197.000000 0.771648 0.269840 -0.575974
-11.06000042 -8.98999977 0.01000000 158 1 176 0.000000 0.000000 0.000000 0.000000 0.000000 0.000000 197.000000 0.778987 0.332475 -0.531639
-11.01000023 -9.01000023 -0.01000000 158 1 176 0.000000 0.000000 0.000000 0.000000 0.000000 0.000000 197.000000 0.852523 0.151136 -0.500362
-11.01000023 -9.01000023 -0.01000000 158 1 176 0.000000 0.000000 0.000000 0.000000 0.000000 0.000000 197.000000 0.852523 0.151136 -0.500362
-11.02000046 -9.02000046 -0.02000000 158 1 176 0.000000 0.000000 0.000000 0.000000 0.000000 0.000000 197.000000 -0.495318 -0.203246 0.844601
-10.94999981 -8.98999977 -0.19000000 158 1 176 0.000000 0.000000 0.000000 0.000000 0.000000 0.000000 47.000000 0.703337 -0.166299 -0.691131
-10.93000031 -9.01000023 -0.03000000 158 1 176 0.000000 0.000000 0.000000 0.000000 0.000000 0.000000 197.000000 0.761563 0.350869 -0.544897
-10.90999985 -9.00000000 -0.04000000 158 1 176 0.000000 0.000000 0.000000 0.000000 0.000000 0.000000 197.000000 0.778804 -0.231620 -0.582937
-10.92000008 -9.02000046 -0.06000000 158 1 176 0.000000 0.000000 0.000000 0.000000 0.000000 0.000000 197.000000 0.721653 -0.199343 -0.662932
-10.92000008 -9.02000046 -0.03000000 158 1 176 0.000000 0.000000 0.000000 0.000000 0.000000 0.000000 197.000000 -0.702781 0.358762 0.614319
-10.93000031 -9.02000046 -0.04000000 158 1 176 0.000000 0.000000 0.000000 0.000000 0.000000 0.000000 197.000000 -0.592720 0.061120 0.803086
-10.93999958 -9.01000023 -0.08000000 158 1 176 0.000000 0.000000 0.000000 0.000000 0.000000 0.000000 197.000000 0.728884 -0.004149 -0.684625
-10.93000031 -9.02999973 -0.07000000 158 1 176 0.000000 0.000000 0.000000 0.000000 0.000000 0.000000 197.000000 -0.512656 -0.062860 0.856290
-10.94999981 -9.02999973 -0.09000000 158 1 176 0.000000 0.000000 0.000000 0.000000 0.000000 0.000000 197.000000 0.692231 0.143272 -0.707312
-10.94999981 -9.06000042 -0.06000000 158 1 176 0.000000 0.000000 0.000000 0.000000 0.000000 0.000000 197.000000 0.668753 -0.064718 -0.740662
-10.96000004 -9.06000042 -0.07000000 158 1 176 0.000000 0.000000 0.000000 0.000000 0.000000 0.000000 197.000000 -0.601004 -0.043633 0.798054
-10.98999977 -9.00000000 -0.07000000 158 1 176 0.000000 0.000000 0.000000 0.000000 0.000000 0.000000 197.000000 0.914383 -0.027629 -0.403907
-11.02000046 -9.05000019 -0.10000000 158 1 176 0.000000 0.000000 0.000000 0.000000 0.000000 0.000000 197.000000 0.762033 -0.168834 -0.625141
-11.02000046 -9.05000019 -0.10000000 158 1 176 0.000000 0.000000 0.000000 0.000000 0.000000 0.000000 197.000000 0.762033 -0.168834 -0.625141
-11.03999996 -9.03999996 -0.08000000 158 1 176 0.000000 0.000000 0.000000 0.000000 0.000000 0.000000 197.000000 0.791404 0.141588 -0.594671
-10.98999977 -9.05000019 -0.18000001 158 1 176 0.000000 0.000000 0.000000 0.000000 0.000000 0.000000 47.000000 0.858436 -0.001339 -0.512919
-11.02999973 -9.05000019 -0.12000000 158 1 176 0.000000 0.000000 0.000000 0.000000 0.000000 0.000000 197.000000 0.847872 -0.385680 -0.363820
-10.77999973 -9.25000000 -0.16000000 158 1 176 0.000000 0.000000 0.000000 0.000000 0.000000 0.000000 197.000000 0.859981 0.086423 -0.502954
-10.77999973 -9.26000023 -0.15000001 158 1 176 0.000000 0.000000 0.000000 0.000000 0.000000 0.000000 197.000000 0.749645 -0.182429 -0.636202
-10.78999996 -9.26000023 -0.17000000 158 1 176 0.000000 0.000000 0.000000 0.000000 0.000000 0.000000 197.000000 0.776084 0.073433 -0.626339
-10.89000034 -9.28999996 -0.19000000 158 1 176 0.000000 0.000000 0.000000 0.000000 0.000000 0.000000 197.000000 0.781566 -0.414344 -0.466340
-10.89000034 -9.30000019 -0.19000000 158 1 176 0.000000 0.000000 0.000000 0.000000 0.000000 0.000000 197.000000 0.702062 -0.436507 -0.562646
-11.02000046 -9.10999966 -0.08000000 158 1 176 0.000000 0.000000 0.000000 0.000000 0.000000 0.000000 197.000000 0.858004 0.141301 -0.493826
-11.02000046 -9.10999966 -0.07000000 158 1 176 0.000000 0.000000 0.000000 0.000000 0.000000 0.000000 197.000000 0.788776 0.204498 -0.579666
-10.98999977 -9.10999966 -0.09000000 158 1 176 0.000000 0.000000 0.000000 0.000000 0.000000 0.000000 197.000000 0.755572 0.032362 -0.654266
-11.02999973 -9.15999985 -0.05000000 158 1 176 0.000000 0.000000 0.000000 0.000000 0.000000 0.000000 197.000000 0.810385 -0.398000 -0.429968
-11.03999996 -9.15999985 -0.07000000 158 1 176 0.000000 0.000000 0.000000 0.000000 0.000000 0.000000 197.000000 0.844105 0.001351 -0.536176
-11.02999973 -9.15999985 -0.11000000 158 1 176 0.000000 0.000000 0.000000 0.000000 0.000000 0.000000 197.000000 0.823305 -0.398168 -0.404514
-11.06000042 -9.18000031 -0.07000000 158 1 176 0.000000 0.000000 0.000000 0.000000 0.000000 0.000000 197.000000 0.763114 0.239746 -0.600149
-11.06000042 -9.17000008 -0.08000000 158 1 176 0.000000 0.000000 0.000000 0.000000 0.000000 0.000000 197.000000 0.889090 0.166253 -0.426474
-11.00000000 -9.39000034 -0.18000001 158 1 176 0.000000 0.000000 0.000000 0.000000 0.000000 0.000000 197.000000 0.729231 -0.076838 -0.679939
-10.40999985 -9.48999977 -0.06000000 158 1 176 0.000000 0.000000 0.000000 0.000000 0.000000 0.000000 197.000000 0.121522 -0.100285 0.987510
-10.43999958 -9.51000023 -0.05000000 158 1 176 0.000000 0.000000 0.000000 0.000000 0.000000 0.000000 197.000000 0.541589 -0.075339 0.837260
-10.46000004 -9.51000023 -0.09000000 158 1 176 0.000000 0.000000 0.000000 0.000000 0.000000 0.000000 197.000000 0.503808 -0.180892 0.844663
-10.46000004 -9.50000000 -0.07000000 158 1 176 0.000000 0.000000 0.000000 0.000000 0.000000 0.000000 197.000000 0.730627 -0.127001 0.670862
-10.44999981 -9.50000000 -0.08000000 158 1 176 0.000000 0.000000 0.000000 0.000000 0.000000 0.000000 197.000000 0.529761 -0.114661 0.840361
-10.44999981 -9.51000023 -0.08000000 158 1 176 0.000000 0.000000 0.000000 0.000000 0.000000 0.000000 197.000000 0.177390 0.041117 0.983281
-10.46000004 -9.52999973 -0.05000000 158 1 176 0.000000 0.000000 0.000000 0.000000 0.000000 0.000000 197.000000 0.511735 -0.086470 0.854781
-10.44999981 -9.53999996 -0.05000000 158 1 176 0.000000 0.000000 0.000000 0.000000 0.000000 0.000000 197.000000 0.366309 0.008934 0.930450
-10.43999958 -9.55000019 -0.07000000 158 1 176 0.000000 0.000000 0.000000 0.000000 0.000000 0.000000 197.000000 0.381147 -0.501167 0.776890
-10.46000004 -9.53999996 -0.08000000 158 1 176 0.000000 0.000000 0.000000 0.000000 0.000000 0.000000 197.000000 0.688834 0.098405 0.718209
-10.46000004 -9.52000046 -0.09000000 158 1 176 0.000000 0.000000 0.000000 0.000000 0.000000 0.000000 197.000000 0.604199 0.058287 0.794699
-10.48999977 -9.43999958 -0.06000000 158 1 176 0.000000 0.000000 0.000000 0.000000 0.000000 0.000000 197.000000 0.411475 -0.049591 0.910071
-10.48999977 -9.43999958 -0.06000000 158 1 176 0.000000 0.000000 0.000000 0.000000 0.000000 0.000000 197.000000 0.411475 -0.049591 0.910071
-10.52000046 -9.43999958 -0.05000000 158 1 176 0.000000 0.000000 0.000000 0.000000 0.000000 0.000000 197.000000 0.459340 0.194736 0.866651
-10.52000046 -9.43999958 -0.08000000 158 1 176 0.000000 0.000000 0.000000 0.000000 0.000000 0.000000 197.000000 0.279349 -0.311525 0.908249
-10.52000046 -9.43999958 -0.08000000 158 1 176 0.000000 0.000000 0.000000 0.000000 0.000000 0.000000 197.000000 0.279349 -0.311525 0.908249
-10.52999973 -9.50000000 -0.06000000 158 1 176 0.000000 0.000000 0.000000 0.000000 0.000000 0.000000 197.000000 -0.041874 0.206975 0.977450
-10.55000019 -9.48999977 -0.08000000 158 1 176 0.000000 0.000000 0.000000 0.000000 0.000000 0.000000 197.000000 0.494720 -0.268296 0.826601
-10.51000023 -9.47000027 -0.12000000 158 1 176 0.000000 0.000000 0.000000 0.000000 0.000000 0.000000 197.000000 0.501102 -0.409696 0.762263
-10.52000046 -9.43999958 -0.12000000 158 1 176 0.000000 0.000000 0.000000 0.000000 0.000000 0.000000 197.000000 0.475910 0.156684 0.865424
-10.52000046 -9.43000031 -0.15000001 158 1 176 0.000000 0.000000 0.000000 0.000000 0.000000 0.000000 197.000000 0.648850 0.126787 0.750279
-10.52000046 -9.46000004 -0.16000000 158 1 176 0.000000 0.000000 0.000000 0.000000 0.000000 0.000000 197.000000 0.075121 -0.044637 0.996175
-10.55000019 -9.47000027 -0.14000000 158 1 176 0.000000 0.000000 0.000000 0.000000 0.000000 0.000000 197.000000 0.159839 -0.050168 0.985868
-10.55000019 -9.47000027 -0.15000001 158 1 176 0.000000 0.000000 0.000000 0.000000 0.000000 0.000000 197.000000 0.357093 0.167961 0.918844
-10.52999973 -9.51000023 -0.14000000 158 1 176 0.000000 0.000000 0.000000 0.000000 0.000000 0.000000 197.000000 -0.034650 0.040950 0.998560
-10.52000046 -9.47000027 -0.11000000 158 1 176 0.000000 0.000000 0.000000 0.000000 0.000000 0.000000 197.000000 0.475173 -0.122023 0.871390
-10.52000046 -9.47999954 -0.11000000 158 1 176 0.000000 0.000000 0.000000 0.000000 0.000000 0.000000 197.000000 0.329101 -0.347300 0.878109
-10.55000019 -9.47999954 -0.15000001 158 1 176 0.000000 0.000000 0.000000 0.000000 0.000000 0.000000 197.000000 0.329014 0.016388 0.944183
-10.48999977 -9.57999992 -0.07000000 158 1 176 0.000000 0.000000 0.000000 0.000000 0.000000 0.000000 197.000000 0.463477 -0.373669 0.803468
-10.55000019 -9.55000019 -0.08000000 158 1 176 0.000000 0.000000 0.000000 0.000000 0.000000 0.000000 197.000000 0.225439 -0.185421 0.956450
-10.55000019 -9.52999973 -0.09000000 158 1 176 0.000000 0.000000 0.000000 0.000000 0.000000 0.000000 197.000000 0.471995 0.181992 0.862612
-10.53999996 -9.53999996 -0.08000000 158 1 176 0.000000 0.000000 0.000000 0.000000 0.000000 0.000000 197.000000 0.151900 0.313379 0.937401
-10.51000023 -9.53999996 -0.12000000 158 1 176 0.000000 0.000000 0.000000 0.000000 0.000000 0.000000 197.000000 0.604149 -0.043656 0.795674
-10.52000046 -9.52999973 -0.16000000 158 1 176 0.000000 0.000000 0.000000 0.000000 0.000000 0.000000 197.000000 0.159614 0.067393 0.984877
-10.39999962 -9.71000004 -0.09000000 158 1 176 0.000000 0.000000 0.000000 0.000000 0.000000 0.000000 197.000000 -0.800504 0.200509 -0.564792
-10.40999985 -9.68999958 -0.18000001 158 1 176 0.000000 0.000000 0.000000 0.000000 0.000000 0.000000 197.000000 0.584887 -0.444914 0.678202
-10.40999985 -9.75000000 -0.17000000 158 1 176 0.000000 0.000000 0.000000 0.000000 0.000000 0.000000 197.000000 0.646738 0.199115 0.736263
-10.46000004 -9.71000004 -0.12000000 158 1 176 0.000000 0.000000 0.000000 0.000000 0.000000 0.000000 197.000000 0.330382 -0.251789 0.909643
-10.44999981 -9.71000004 -0.14000000 158 1 176 0.000000 0.000000 0.000000 0.000000 0.000000 0.000000 197.000000 0.464901 -0.091295 0.880643
-10.44999981 -9.69999981 -0.11000000 158 1 176 0.000000 0.000000 0.000000 0.000000 0.000000 0.000000 197.000000 0.269725 -0.172136 0.947427
-10.47000027 -9.69999981 -0.11000000 158 1 176 0.000000 0.000000 0.000000 0.000000 0.000000 0.000000 197.000000 0.097614 0.029613 0.994784
-10.44999981 -9.75000000 -0.15000001 158 1 176 0.000000 0.000000 0.000000 0.000000 0.000000 0.000000 197.000000 0.504650 -0.341240 0.793022
-10.44999981 -9.75000000 -0.15000001 158 1 176 0.000000 0.000000 0.000000 0.000000 0.000000 0.000000 197.000000 0.504650 -0.341240 0.793022
-10.44999981 -9.73999977 -0.17000000 158 1 176 0.000000 0.000000 0.000000 0.000000 0.000000 0.000000 197.000000 0.282541 0.046462 0.958129
-10.47000027 -9.76000023 -0.18000001 158 1 176 0.000000 0.000000 0.000000 0.000000 0.000000 0.000000 197.000000 0.590934 0.201071 0.781260
-10.51000023 -9.72999954 -0.09000000 158 1 176 0.000000 0.000000 0.000000 0.000000 0.000000 0.000000 197.000000 0.132987 0.132987 0.982155
-10.47999954 -9.76000023 -0.12000000 158 1 176 0.000000 0.000000 0.000000 0.000000 0.000000 0.000000 197.000000 0.654467 -0.421323 0.627822
-10.47999954 -9.72999954 -0.12000000 158 1 176 0.000000 0.000000 0.000000 0.000000 0.000000 0.000000 197.000000 0.383961 0.008989 0.923305
-10.59000015 -9.50000000 -0.06000000 158 1 176 0.000000 0.000000 0.000000 0.000000 0.000000 0.000000 197.000000 0.199736 0.215823 0.955786
-10.59000015 -9.51000023 -0.07000000 158 1 176 0.000000 0.000000 0.000000 0.000000 0.000000 0.000000 197.000000 0.422187 0.175548 0.889349
-10.56999969 -9.47000027 -0.07000000 158 1 176 0.000000 0.000000 0.000000 0.000000 0.000000 0.000000 197.000000 0.475377 -0.166308 0.863920
-10.56000042 -9.47999954 -0.07000000 158 1 176 0.000000 0.000000 0.000000 0.000000 0.000000 0.000000 197.000000 0.395814 -0.304120 0.866512
-10.56000042 -9.48999977 -0.08000000 158 1 176 0.000000 0.000000 0.000000 0.000000 0.000000 0.000000 197.000000 -0.058861 -0.135033 0.989091
-10.57999992 -9.43999958 -0.16000000 158 1 176 0.000000 0.000000 0.000000 0.000000 0.000000 0.000000 197.000000 -0.010291 0.174950 0.984524
-10.56000042 -9.48999977 -0.14000000 158 1 176 0.000000 0.000000 0.000000 0.000000 0.000000 0.000000 197.000000 0.292732 0.141644 0.945645
-10.56999969 -9.47999954 -0.15000001 158 1 176 0.000000 0.000000 0.000000 0.000000 0.000000 0.000000 197.000000 -0.209692 -0.085614 0.974012
-10.56999969 -9.47000027 -0.19000000 158 1 176 0.000000 0.000000 0.000000 0.000000 0.000000 0.000000 197.000000 0.051229 -0.021955 0.998446
-10.60999966 -9.46000004 -0.15000001 158 1 176 0.000000 0.000000 0.000000 0.000000 0.000000 0.000000 197.000000 -0.011195 0.314715 0.949120
-10.64000034 -9.46000004 -0.18000001 158 1 176 0.000000 0.000000 0.000000 0.000000 0.000000 0.000000 197.000000 -0.047823 -0.043572 0.997905
-10.64000034 -9.46000004 -0.18000001 158 1 176 0.000000 0.000000 0.000000 0.000000 0.000000 0.000000 197.000000 -0.047823 -0.043572 0.997905
-10.63000011 -9.46000004 -0.17000000 158 1 176 0.000000 0.000000 0.000000 0.000000 0.000000 0.000000 197.000000 -0.227120 -0.136272 0.964285
-10.63000011 -9.46000004 -0.18000001 158 1 176 0.000000 0.000000 0.000000 0.000000 0.000000 0.000000 197.000000 -0.105638 0.014158 0.994304
-10.60999966 -9.47999954 -0.15000001 158 1 176 0.000000 0.000000 0.000000 0.000000 0.000000 0.000000 197.000000 0.077855 0.164094 0.983368
-10.60000038 -9.47999954 -0.15000001 158 1 176 0.000000 0.000000 0.000000 0.000000 0.000000 0.000000 197.000000 -0.057244 0.099896 0.993350
-10.63000011 -9.47000027 -0.18000001 158 1 176 0.000000 0.000000 0.000000 0.000000 0.000000 0.000000 197.000000 0.150930 -0.126389 0.980432
-10.61999989 -9.47000027 -0.18000001 158 1 176 0.000000 0.000000 0.000000 0.000000 0.000000 0.000000 197.000000 0.074385 -0.149950 0.985891
-10.61999989 -9.47999954 -0.18000001 158 1 176 0.000000 0.000000 0.000000 0.000000 0.000000 0.000000 197.000000 -0.140535 0.282408 0.948945
-10.56999969 -9.56000042 -0.09000000 158 1 176 0.000000 0.000000 0.000000 0.000000 0.000000 0.000000 197.000000 0.027631 0.109419 0.993612
-10.67000008 -9.46000004 -0.18000001 158 1 176 0.000000 0.000000 0.000000 0.000000 0.000000 0.000000 197.000000 -0.259921 -0.088348 0.961580
-10.68000031 -9.51000023 -0.15000001 158 1 176 0.000000 0.000000 0.000000 0.000000 0.000000 0.000000 197.000000 -0.367159 -0.014072 0.930052
-10.69999981 -9.47000027 -0.18000001 158 1 176 0.000000 0.000000 0.000000 0.000000 0.000000 0.000000 197.000000 -0.081042 -0.001052 0.996710
-10.40999985 -9.82999992 -0.15000001 158 1 176 0.000000 0.000000 0.000000 0.000000 0.000000 0.000000 197.000000 0.794735 0.076168 0.602159
-10.44999981 -9.77000046 -0.15000001 158 1 176 0.000000 0.000000 0.000000 0.000000 0.000000 0.000000 197.000000 0.838844 -0.001351 0.544370
-10.44999981 -9.78999996 -0.15000001 158 1 176 0.000000 0.000000 0.000000 0.000000 0.000000 0.000000 197.000000 0.757157 -0.162356 0.632735
-10.43999958 -9.81999969 -0.15000001 158 1 176 0.000000 0.000000 0.000000 0.000000 0.000000 0.000000 197.000000 0.662171 0.089167 0.744029
-10.43999958 -9.84000015 -0.15000001 158 1 176 0.000000 0.000000 0.000000 0.000000 0.000000 0.000000 197.000000 0.575939 -0.160902 0.801502
-10.46000004 -9.82999992 -0.19000000 158 1 176 0.000000 0.000000 0.000000 0.000000 0.000000 0.000000 197.000000 0.689257 0.111170 0.715937
-10.39000034 -9.88000011 -0.10000000 158 1 176 0.000000 0.000000 0.000000 0.000000 0.000000 0.000000 197.000000 0.600886 0.267941 0.753089
-10.39999962 -9.86999989 -0.10000000 158 1 176 0.000000 0.000000 0.000000 0.000000 0.000000 0.000000 197.000000 0.277611 0.086511 0.956790
-10.44999981 -9.92000008 -0.08000000 158 1 176 0.000000 0.000000 0.000000 0.000000 0.000000 0.000000 197.000000 0.755674 -0.243512 0.607996
-10.42000008 -9.88000011 -0.11000000 158 1 176 0.000000 0.000000 0.000000 0.000000 0.000000 0.000000 197.000000 0.342390 0.121405 0.931681
-10.39999962 -9.92000008 -0.14000000 158 1 176 0.000000 0.000000 0.000000 0.000000 0.000000 0.000000 197.000000 0.644907 -0.035279 0.763446
-10.39000034 -9.92000008 -0.15000001 158 1 176 0.000000 0.000000 0.000000 0.000000 0.000000 0.000000 197.000000 0.782832 -0.012470 0.622109
-10.39000034 -9.92000008 -0.11000000 158 1 176 0.000000 0.000000 0.000000 0.000000 0.000000 0.000000 197.000000 0.631633 0.123354 0.765391
-10.39999962 -9.92000008 -0.15000001 158 1 176 0.000000 0.000000 0.000000 0.000000 0.000000 0.000000 197.000000 0.780056 -0.187763 0.596873
-10.51000023 -9.77000046 -0.10000000 158 1 176 0.000000 0.000000 0.000000 0.000000 0.000000 0.000000 197.000000 0.604720 -0.037883 0.795537
-10.52999973 -9.82999992 -0.14000000 158 1 176 0.000000 0.000000 0.000000 0.000000 0.000000 0.000000 197.000000 0.596968 -0.079116 0.798355
-10.81000042 -9.52000046 -0.18000001 158 1 176 0.000000 0.000000 0.000000 0.000000 0.000000 0.000000 197.000000 -0.207729 -0.090804 0.973963
-10.98999977 -9.43000031 -0.18000001 158 1 176 0.000000 0.000000 0.000000 0.000000 0.000000 0.000000 197.000000 0.924050 -0.214334 -0.316533
-9.96000004 -10.13000011 -0.01000000 158 1 176 0.000000 0.000000 0.000000 0.000000 0.000000 0.000000 197.000000 0.885946 0.114819 0.449352
-10.03999996 -10.14000034 -0.02000000 158 1 176 0.000000 0.000000 0.000000 0.000000 0.000000 0.000000 197.000000 0.644768 -0.092110 0.758808
-9.96000004 -10.18000031 -0.04000000 158 1 176 0.000000 0.000000 0.000000 0.000000 0.000000 0.000000 197.000000 0.707716 0.202868 0.676744
-10.02000046 -10.11999989 -0.05000000 158 1 176 0.000000 0.000000 0.000000 0.000000 0.000000 0.000000 197.000000 0.626986 -0.029456 0.778473
-10.02000046 -10.11999989 -0.04000000 158 1 176 0.000000 0.000000 0.000000 0.000000 0.000000 0.000000 197.000000 0.769635 0.158766 0.618430
-10.03999996 -10.11999989 -0.04000000 158 1 176 0.000000 0.000000 0.000000 0.000000 0.000000 0.000000 197.000000 0.665057 -0.206183 0.717766
-10.03999996 -10.18000031 -0.03000000 158 1 176 0.000000 0.000000 0.000000 0.000000 0.000000 0.000000 197.000000 0.949960 -0.021277 0.311647
-10.03999996 -10.18000031 -0.03000000 158 1 176 0.000000 0.000000 0.000000 0.000000 0.000000 0.000000 197.000000 0.949960 -0.021277 0.311647
-10.10000038 -10.11999989 0.01000000 158 1 176 0.000000 0.000000 0.000000 0.000000 0.000000 0.000000 197.000000 0.650215 0.216738 0.728179
-10.05000019 -10.14999962 0.02000000 158 1 176 0.000000 0.000000 0.000000 0.000000 0.000000 0.000000 197.000000 0.914214 0.193144 0.356243
-10.71000004 -9.23999977 -0.23999999 158 1 176 0.000000 0.000000 0.000000 0.000000 0.000000 0.000000 197.000000 -0.287455 -0.006116 0.957775
-10.64000034 -9.39999962 -0.20000000 158 1 176 0.000000 0.000000 0.000000 0.000000 0.000000 0.000000 197.000000 -0.064643 0.105469 0.992319
-10.60000038 -9.42000008 -0.20999999 158 1 176 0.000000 0.000000 0.000000 0.000000 0.000000 0.000000 197.000000 0.128503 -0.170921 0.976869
-10.68000031 -9.30000019 -0.20000000 158 1 176 0.000000 0.000000 0.000000 0.000000 0.000000 0.000000 197.000000 -0.259638 -0.204688 0.943764
-10.72000027 -9.32999992 -0.22000000 158 1 176 0.000000 0.000000 0.000000 0.000000 0.000000 0.000000 197.000000 -0.560744 0.399592 0.725185
-10.64999962 -9.39000034 -0.20000000 158 1 176 0.000000 0.000000 0.000000 0.000000 0.000000 0.000000 197.000000 -0.217047 0.307838 0.926351
-10.69999981 -9.38000011 -0.23000000 158 1 176 0.000000 0.000000 0.000000 0.000000 0.000000 0.000000 197.000000 -0.419077 0.278877 0.864061
-10.72000027 -9.40999985 -0.23000000 158 1 176 0.000000 0.000000 0.000000 0.000000 0.000000 0.000000 197.000000 -0.141559 0.195122 0.970509
-10.71000004 -9.39999962 -0.23000000 158 1 176 0.000000 0.000000 0.000000 0.000000 0.000000 0.000000 197.000000 -0.187971 0.056272 0.980561
-10.69999981 -9.39999962 -0.23000000 158 1 176 0.000000 0.000000 0.000000 0.000000 0.000000 0.000000 197.000000 -0.555535 0.072461 0.828330
-10.69999981 -9.39000034 -0.23999999 158 1 176 0.000000 0.000000 0.000000 0.000000 0.000000 0.000000 197.000000 -0.202786 0.297885 0.932814
-10.81000042 -9.07999992 -0.23000000 158 1 176 0.000000 0.000000 0.000000 0.000000 0.000000 0.000000 47.000000 0.818047 0.115609 -0.563413
-10.81000042 -9.06999969 -0.23000000 158 1 176 0.000000 0.000000 0.000000 0.000000 0.000000 0.000000 47.000000 0.807421 0.176576 -0.562931
-10.81000042 -9.06000042 -0.23000000 158 1 176 0.000000 0.000000 0.000000 0.000000 0.000000 0.000000 47.000000 0.742185 -0.219388 -0.633269
-10.81000042 -9.00000000 -0.23000000 158 1 176 0.000000 0.000000 0.000000 0.000000 0.000000 0.000000 47.000000 0.688971 -0.268905 -0.673059
-10.81000042 -9.05000019 -0.22000000 158 1 176 0.000000 0.000000 0.000000 0.000000 0.000000 0.000000 47.000000 0.670733 -0.272436 -0.689852
-10.85000038 -8.93000031 -0.28000000 158 1 176 0.000000 0.000000 0.000000 0.000000 0.000000 0.000000 47.000000 0.976753 -0.123183 -0.175442
-10.82999992 -8.94999981 -0.25000000 158 1 176 0.000000 0.000000 0.000000 0.000000 0.000000 0.000000 47.000000 0.749205 0.257096 -0.610405
-10.89999962 -8.97000027 -0.23000000 158 1 176 0.000000 0.000000 0.000000 0.000000 0.000000 0.000000 47.000000 0.960257 -0.259773 -0.102100
-10.86999989 -8.97999954 -0.23999999 158 1 176 0.000000 0.000000 0.000000 0.000000 0.000000 0.000000 47.000000 0.823392 0.349270 -0.447255
-10.86999989 -8.97999954 -0.23999999 158 1 176 0.000000 0.000000 0.000000 0.000000 0.000000 0.000000 47.000000 0.823392 0.349270 -0.447255
-10.85000038 -8.93999958 -0.30000001 158 1 176 0.000000 0.000000 0.000000 0.000000 0.000000 0.000000 47.000000 0.976936 -0.148474 -0.153465
-10.85000038 -9.00000000 -0.23999999 158 1 176 0.000000 0.000000 0.000000 0.000000 0.000000 0.000000 47.000000 0.845578 0.167927 -0.506752
-10.81999969 -9.06999969 -0.23000000 158 1 176 0.000000 0.000000 0.000000 0.000000 0.000000 0.000000 47.000000 -0.576625 -0.177074 0.797589
-10.82999992 -9.05000019 -0.25000000 158 1 176 0.000000 0.000000 0.000000 0.000000 0.000000 0.000000 47.000000 0.895722 0.061351 -0.440362
-10.81999969 -9.06999969 -0.23999999 158 1 176 0.000000 0.000000 0.000000 0.000000 0.000000 0.000000 47.000000 -0.603025 -0.052499 0.795993
-10.81999969 -9.06999969 -0.23999999 158 1 176 0.000000 0.000000 0.000000 0.000000 0.000000 0.000000 47.000000 -0.603025 -0.052499 0.795993
-10.85999966 -9.05000019 -0.23000000 158 1 176 0.000000 0.000000 0.000000 0.000000 0.000000 0.000000 47.000000 0.911718 0.242062 -0.331929
-10.85999966 -9.05000019 -0.23000000 158 1 176 0.000000 0.000000 0.000000 0.000000 0.000000 0.000000 47.000000 0.911718 0.242062 -0.331929
-10.85999966 -9.03999996 -0.25000000 158 1 176 0.000000 0.000000 0.000000 0.000000 0.000000 0.000000 47.000000 0.708526 0.130321 -0.693547
-10.85999966 -9.05000019 -0.25000000 158 1 176 0.000000 0.000000 0.000000 0.000000 0.000000 0.000000 47.000000 0.940462 0.160166 -0.299798
-10.97000027 -8.98999977 -0.22000000 158 1 176 0.000000 0.000000 0.000000 0.000000 0.000000 0.000000 47.000000 0.959556 -0.213088 -0.183970
-10.97000027 -8.98999977 -0.22000000 158 1 176 0.000000 0.000000 0.000000 0.000000 0.000000 0.000000 47.000000 0.959556 -0.213088 -0.183970
-10.96000004 -9.00000000 -0.25999999 158 1 176 0.000000 0.000000 0.000000 0.000000 0.000000 0.000000 47.000000 0.892132 0.259772 -0.369619
-10.94999981 -9.00000000 -0.23999999 158 1 176 0.000000 0.000000 0.000000 0.000000 0.000000 0.000000 47.000000 0.754885 0.209260 -0.621578
-11.02000046 -8.98999977 -0.22000000 158 1 176 0.000000 0.000000 0.000000 0.000000 0.000000 0.000000 47.000000 0.711210 -0.175891 -0.680620
-11.02000046 -9.00000000 -0.22000000 158 1 176 0.000000 0.000000 0.000000 0.000000 0.000000 0.000000 47.000000 0.757511 0.199020 -0.621746
-10.98999977 -9.01000023 -0.25999999 158 1 176 0.000000 0.000000 0.000000 0.000000 0.000000 0.000000 47.000000 0.949054 0.275966 -0.152118
-10.81000042 -9.11999989 -0.25999999 158 1 176 0.000000 0.000000 0.000000 0.000000 0.000000 0.000000 47.000000 0.900459 -0.306067 -0.309025
-10.80000019 -9.10999966 -0.25000000 158 1 176 0.000000 0.000000 0.000000 0.000000 0.000000 0.000000 47.000000 0.848579 0.196750 -0.491124
-10.76000023 -9.22999954 -0.20999999 158 1 176 0.000000 0.000000 0.000000 0.000000 0.000000 0.000000 197.000000 0.723506 -0.004150 -0.690305
-10.88000011 -9.15999985 -0.27000001 158 1 176 0.000000 0.000000 0.000000 0.000000 0.000000 0.000000 197.000000 0.920353 0.277978 -0.275098
-10.81999969 -9.10999966 -0.22000000 158 1 176 0.000000 0.000000 0.000000 0.000000 0.000000 0.000000 47.000000 -0.602356 -0.043731 0.797029
-10.89000034 -9.11999989 -0.34000000 158 1 176 0.000000 0.000000 0.000000 0.000000 0.000000 0.000000 197.000000 0.973235 0.202182 -0.109253
-10.89999962 -9.11999989 -0.31999999 158 1 176 0.000000 0.000000 0.000000 0.000000 0.000000 0.000000 197.000000 0.937566 -0.333030 -0.100310
-10.85000038 -9.17000008 -0.30000001 158 1 176 0.000000 0.000000 0.000000 0.000000 0.000000 0.000000 197.000000 0.922009 0.009001 -0.387064
-10.81999969 -9.22999954 -0.28999999 158 1 176 0.000000 0.000000 0.000000 0.000000 0.000000 0.000000 197.000000 0.910608 -0.106399 -0.399341
-10.82999992 -9.25000000 -0.28999999 158 1 176 0.000000 0.000000 0.000000 0.000000 0.000000 0.000000 197.000000 0.916970 -0.326770 -0.228883
-10.89000034 -9.21000004 -0.31999999 158 1 176 0.000000 0.000000 0.000000 0.000000 0.000000 0.000000 197.000000 0.971059 -0.167600 -0.170159
-10.85999966 -9.19999981 -0.30000001 158 1 176 0.000000 0.000000 0.000000 0.000000 0.000000 0.000000 197.000000 0.921965 -0.166992 -0.349420
-10.88000011 -9.17000008 -0.31999999 158 1 176 0.000000 0.000000 0.000000 0.000000 0.000000 0.000000 197.000000 0.817083 -0.441193 -0.371112
-10.89000034 -9.18000031 -0.31999999 158 1 176 0.000000 0.000000 0.000000 0.000000 0.000000 0.000000 197.000000 0.908875 -0.408652 -0.083370
-10.89000034 -9.18999958 -0.33000001 158 1 176 0.000000 0.000000 0.000000 0.000000 0.000000 0.000000 197.000000 0.862988 -0.101276 -0.494970
-10.86999989 -9.22999954 -0.31000000 158 1 176 0.000000 0.000000 0.000000 0.000000 0.000000 0.000000 197.000000 0.890490 -0.278931 -0.359478
-10.78999996 -9.28999996 -0.20999999 158 1 176 0.000000 0.000000 0.000000 0.000000 0.000000 0.000000 197.000000 0.745998 0.267672 -0.609786
-10.81000042 -9.30000019 -0.28000000 158 1 176 0.000000 0.000000 0.000000 0.000000 0.000000 0.000000 197.000000 0.969904 -0.134176 -0.203181
-10.77000046 -9.35999966 -0.25999999 158 1 176 0.000000 0.000000 0.000000 0.000000 0.000000 0.000000 197.000000 -0.485321 0.153954 0.860675
-10.72999954 -9.42000008 -0.22000000 158 1 176 0.000000 0.000000 0.000000 0.000000 0.000000 0.000000 197.000000 -0.335617 0.209939 0.918306
-10.72999954 -9.40999985 -0.23999999 158 1 176 0.000000 0.000000 0.000000 0.000000 0.000000 0.000000 197.000000 0.638537 -0.333079 -0.693779
-10.75000000 -9.39999962 -0.25999999 158 1 176 0.000000 0.000000 0.000000 0.000000 0.000000 0.000000 197.000000 -0.334360 0.115063 0.935395
-10.77000046 -9.40999985 -0.27000001 158 1 176 0.000000 0.000000 0.000000 0.000000 0.000000 0.000000 197.000000 0.902210 -0.098398 -0.419923
-10.73999977 -9.39999962 -0.25000000 158 1 176 0.000000 0.000000 0.000000 0.000000 0.000000 0.000000 197.000000 -0.475482 0.243092 0.845472
-10.77999973 -9.38000011 -0.22000000 158 1 176 0.000000 0.000000 0.000000 0.000000 0.000000 0.000000 197.000000 -0.325394 -0.082995 0.941929
-10.80000019 -9.35999966 -0.23999999 158 1 176 0.000000 0.000000 0.000000 0.000000 0.000000 0.000000 197.000000 0.601421 -0.390512 -0.696989
-10.80000019 -9.39999962 -0.22000000 158 1 176 0.000000 0.000000 0.000000 0.000000 0.000000 0.000000 197.000000 0.858863 0.119808 -0.497996
-10.81000042 -9.39000034 -0.23000000 158 1 176 0.000000 0.000000 0.000000 0.000000 0.000000 0.000000 197.000000 0.771670 -0.012469 -0.635901
-10.81000042 -9.39999962 -0.25999999 158 1 176 0.000000 0.000000 0.000000 0.000000 0.000000 0.000000 197.000000 0.783401 -0.194700 -0.590233
-10.77999973 -9.39999962 -0.28000000 158 1 176 0.000000 0.000000 0.000000 0.000000 0.000000 0.000000 197.000000 -0.637877 -0.001378 0.770137
-10.81000042 -9.40999985 -0.25999999 158 1 176 0.000000 0.000000 0.000000 0.000000 0.000000 0.000000 197.000000 0.934350 0.008874 -0.356245
-10.82999992 -9.28999996 -0.23999999 158 1 176 0.000000 0.000000 0.000000 0.000000 0.000000 0.000000 197.000000 -0.649067 0.442166 0.619033
-10.84000015 -9.28999996 -0.25000000 158 1 176 0.000000 0.000000 0.000000 0.000000 0.000000 0.000000 197.000000 0.733998 -0.321023 -0.598491
-10.84000015 -9.28999996 -0.25000000 158 1 176 0.000000 0.000000 0.000000 0.000000 0.000000 0.000000 197.000000 0.733998 -0.321023 -0.598491
-10.88000011 -9.28999996 -0.25999999 158 1 176 0.000000 0.000000 0.000000 0.000000 0.000000 0.000000 197.000000 0.910731 0.148259 -0.385472
-10.88000011 -9.28999996 -0.25000000 158 1 176 0.000000 0.000000 0.000000 0.000000 0.000000 0.000000 197.000000 0.951649 0.165096 -0.259052
-10.88000011 -9.27999973 -0.25000000 158 1 176 0.000000 0.000000 0.000000 0.000000 0.000000 0.000000 197.000000 0.812290 -0.112696 -0.572262
-10.89999962 -9.32999992 -0.20999999 158 1 176 0.000000 0.000000 0.000000 0.000000 0.000000 0.000000 197.000000 0.961042 0.035962 -0.274052
-10.89999962 -9.31000042 -0.28000000 158 1 176 0.000000 0.000000 0.000000 0.000000 0.000000 0.000000 197.000000 0.897376 -0.078572 -0.434214
-10.89000034 -9.30000019 -0.25999999 158 1 176 0.000000 0.000000 0.000000 0.000000 0.000000 0.000000 197.000000 0.835548 -0.155830 -0.526855
-10.89000034 -9.31000042 -0.28000000 158 1 176 0.000000 0.000000 0.000000 0.000000 0.000000 0.000000 197.000000 0.885644 -0.261362 -0.383829
-10.89000034 -9.31000042 -0.27000001 158 1 176 0.000000 0.000000 0.000000 0.000000 0.000000 0.000000 197.000000 0.789072 -0.157814 -0.593683
-10.89000034 -9.31999969 -0.27000001 158 1 176 0.000000 0.000000 0.000000 0.000000 0.000000 0.000000 197.000000 0.826006 -0.191778 -0.530033
-10.89999962 -9.32999992 -0.28000000 158 1 176 0.000000 0.000000 0.000000 0.000000 0.000000 0.000000 197.000000 -0.664859 0.029518 0.746385
-10.89000034 -9.31999969 -0.27000001 158 1 176 0.000000 0.000000 0.000000 0.000000 0.000000 0.000000 197.000000 0.826006 -0.191778 -0.530033
-10.89000034 -9.32999992 -0.23999999 158 1 176 0.000000 0.000000 0.000000 0.000000 0.000000 0.000000 197.000000 0.758283 -0.192262 -0.622930
-10.81999969 -9.31999969 -0.28999999 158 1 176 0.000000 0.000000 0.000000 0.000000 0.000000 0.000000 197.000000 0.868605 0.119164 -0.480963
-10.82999992 -9.26000023 -0.31000000 158 1 176 0.000000 0.000000 0.000000 0.000000 0.000000 0.000000 197.000000 0.808015 -0.314667 -0.498092
-10.84000015 -9.36999989 -0.23999999 158 1 176 0.000000 0.000000 0.000000 0.000000 0.000000 0.000000 197.000000 0.937313 0.178076 -0.299554
-10.81999969 -9.36999989 -0.25000000 158 1 176 0.000000 0.000000 0.000000 0.000000 0.000000 0.000000 197.000000 0.789761 -0.228084 -0.569435
-10.86999989 -9.35999966 -0.22000000 158 1 176 0.000000 0.000000 0.000000 0.000000 0.000000 0.000000 197.000000 0.936545 -0.146292 -0.318562
-10.85999966 -9.38000011 -0.33000001 158 1 176 0.000000 0.000000 0.000000 0.000000 0.000000 0.000000 197.000000 0.940612 -0.029354 -0.338212
-10.93000031 -9.15999985 -0.31000000 158 1 176 0.000000 0.000000 0.000000 0.000000 0.000000 0.000000 197.000000 0.943586 -0.329039 0.037129
-10.92000008 -9.14999962 -0.31999999 158 1 176 0.000000 0.000000 0.000000 0.000000 0.000000 0.000000 197.000000 0.805018 -0.429022 -0.409740
-10.90999985 -9.14999962 -0.28999999 158 1 176 0.000000 0.000000 0.000000 0.000000 0.000000 0.000000 197.000000 0.958658 0.229388 -0.168395
-10.90999985 -9.23999977 -0.27000001 158 1 176 0.000000 0.000000 0.000000 0.000000 0.000000 0.000000 197.000000 0.919441 -0.102769 -0.379561
-10.92000008 -9.17000008 -0.25999999 158 1 176 0.000000 0.000000 0.000000 0.000000 0.000000 0.000000 197.000000 0.865793 0.034194 -0.499233
-10.94999981 -9.28999996 -0.27000001 158 1 176 0.000000 0.000000 0.000000 0.000000 0.000000 0.000000 197.000000 0.863348 0.071363 -0.499538
-10.92000008 -9.36999989 -0.28000000 158 1 176 0.000000 0.000000 0.000000 0.000000 0.000000 0.000000 197.000000 0.689441 -0.297311 -0.660513
-10.92000008 -9.34000015 -0.27000001 158 1 176 0.000000 0.000000 0.000000 0.000000 0.000000 0.000000 197.000000 0.733626 -0.335233 -0.591111
-10.92000008 -9.34000015 -0.27000001 158 1 176 0.000000 0.000000 0.000000 0.000000 0.000000 0.000000 197.000000 0.733626 -0.335233 -0.591111
-10.93000031 -9.35000038 -0.30000001 158 1 176 0.000000 0.000000 0.000000 0.000000 0.000000 0.000000 197.000000 0.940268 0.189158 -0.283047
-10.93000031 -9.34000015 -0.30000001 158 1 176 0.000000 0.000000 0.000000 0.000000 0.000000 0.000000 197.000000 0.853914 -0.167231 -0.492813
-10.94999981 -9.35000038 -0.34999999 158 1 176 0.000000 0.000000 0.000000 0.000000 0.000000 0.000000 197.000000 0.911434 -0.184576 -0.367722
-11.02999973 -9.40999985 -0.25000000 158 1 176 0.000000 0.000000 0.000000 0.000000 0.000000 0.000000 197.000000 0.784819 0.038043 -0.618556
-10.67000008 -9.51000023 -0.23000000 158 1 176 0.000000 0.000000 0.000000 0.000000 0.000000 0.000000 197.000000 -0.510613 0.158364 0.845101
-10.64999962 -9.51000023 -0.22000000 158 1 176 0.000000 0.000000 0.000000 0.000000 0.000000 0.000000 197.000000 -0.337903 0.159913 0.927496
-10.68000031 -9.50000000 -0.23000000 158 1 176 0.000000 0.000000 0.000000 0.000000 0.000000 0.000000 197.000000 -0.518584 -0.037140 0.854220
-10.69999981 -9.44999981 -0.23000000 158 1 176 0.000000 0.000000 0.000000 0.000000 0.000000 0.000000 197.000000 -0.027162 0.201945 0.979020
-10.69999981 -9.46000004 -0.22000000 158 1 176 0.000000 0.000000 0.000000 0.000000 0.000000 0.000000 197.000000 -0.294533 -0.123944 0.947570
-10.72000027 -9.43999958 -0.27000001 158 1 176 0.000000 0.000000 0.000000 0.000000 0.000000 0.000000 197.000000 -0.444886 0.356225 0.821693
-10.71000004 -9.47000027 -0.23000000 158 1 176 0.000000 0.000000 0.000000 0.000000 0.000000 0.000000 197.000000 -0.146492 0.213904 0.965808
-10.71000004 -9.52999973 -0.27000001 158 1 176 0.000000 0.000000 0.000000 0.000000 0.000000 0.000000 197.000000 -0.101835 0.106517 0.989082
-10.48999977 -9.78999996 -0.20999999 158 1 176 0.000000 0.000000 0.000000 0.000000 0.000000 0.000000 197.000000 0.793490 -0.129035 0.594747
-10.72999954 -9.44999981 -0.20000000 158 1 176 0.000000 0.000000 0.000000 0.000000 0.000000 0.000000 197.000000 -0.518928 0.379029 0.766192
-10.72999954 -9.44999981 -0.20000000 158 1 176 0.000000 0.000000 0.000000 0.000000 0.000000 0.000000 197.000000 -0.518928 0.379029 0.766192
-10.76000023 -9.44999981 -0.28000000 158 1 176 0.000000 0.000000 0.000000 0.000000 0.000000 0.000000 197.000000 -0.372029 0.102206 0.922577
-10.77000046 -9.46000004 -0.23999999 158 1 176 0.000000 0.000000 0.000000 0.000000 0.000000 0.000000 197.000000 -0.276086 0.203943 0.939247
-10.77000046 -9.47999954 -0.20000000 158 1 176 0.000000 0.000000 0.000000 0.000000 0.000000 0.000000 197.000000 -0.543366 0.304349 0.782384
-10.75000000 -9.48999977 -0.22000000 158 1 176 0.000000 0.000000 0.000000 0.000000 0.000000 0.000000 197.000000 -0.517649 -0.009461 0.855541
-10.75000000 -9.51000023 -0.22000000 158 1 176 0.000000 0.000000 0.000000 0.000000 0.000000 0.000000 197.000000 -0.099159 -0.020703 0.994856
-10.73999977 -9.47000027 -0.22000000 158 1 176 0.000000 0.000000 0.000000 0.000000 0.000000 0.000000 197.000000 -0.318149 0.274166 0.907532
-10.77999973 -9.44999981 -0.25000000 158 1 176 0.000000 0.000000 0.000000 0.000000 0.000000 0.000000 197.000000 -0.608341 -0.116365 0.785099
-10.77999973 -9.47000027 -0.20999999 158 1 176 0.000000 0.000000 0.000000 0.000000 0.000000 0.000000 197.000000 -0.328629 0.275577 0.903361
-10.78999996 -9.51000023 -0.22000000 158 1 176 0.000000 0.000000 0.000000 0.000000 0.000000 0.000000 197.000000 0.856456 0.068685 -0.511631
-10.78999996 -9.51000023 -0.22000000 158 1 176 0.000000 0.000000 0.000000 0.000000 0.000000 0.000000 197.000000 0.856456 0.068685 -0.511631
-10.76000023 -9.43000031 -0.30000001 158 1 176 0.000000 0.000000 0.000000 0.000000 0.000000 0.000000 197.000000 0.739835 -0.089014 -0.666873
-10.75000000 -9.52999973 -0.22000000 158 1 176 0.000000 0.000000 0.000000 0.000000 0.000000 0.000000 197.000000 -0.124166 -0.007692 0.992232
-10.85000038 -9.48999977 -0.25000000 158 1 176 0.000000 0.000000 0.000000 0.000000 0.000000 0.000000 197.000000 -0.606046 0.142159 0.782623
-10.85999966 -9.48999977 -0.25999999 158 1 176 0.000000 0.000000 0.000000 0.000000 0.000000 0.000000 197.000000 0.819487 0.063911 -0.569522
-10.89000034 -9.46000004 -0.28999999 158 1 176 0.000000 0.000000 0.000000 0.000000 0.000000 0.000000 197.000000 0.809894 -0.015177 -0.586380
-10.89000034 -9.43999958 -0.30000001 158 1 176 0.000000 0.000000 0.000000 0.000000 0.000000 0.000000 197.000000 0.788102 -0.307280 -0.533362
-10.89999962 -9.53999996 -0.23000000 158 1 176 0.000000 0.000000 0.000000 0.000000 0.000000 0.000000 197.000000 -0.502417 0.157650 0.850131
-10.90999985 -9.46000004 -0.22000000 158 1 176 0.000000 0.000000 0.000000 0.000000 0.000000 0.000000 197.000000 0.867765 -0.092014 -0.488383
-10.93000031 -9.46000004 -0.25000000 158 1 176 0.000000 0.000000 0.000000 0.000000 0.000000 0.000000 197.000000 0.906238 -0.164122 -0.389611
-10.93999958 -9.51000023 -0.25999999 158 1 176 0.000000 0.000000 0.000000 0.000000 0.000000 0.000000 197.000000 0.963408 -0.010907 -0.267815
-10.93999958 -9.47000027 -0.25000000 158 1 176 0.000000 0.000000 0.000000 0.000000 0.000000 0.000000 197.000000 0.754698 0.091965 -0.649595
-10.97999954 -9.44999981 -0.23000000 158 1 176 0.000000 0.000000 0.000000 0.000000 0.000000 0.000000 197.000000 0.704065 0.196519 -0.682402
-10.96000004 -9.43999958 -0.20000000 158 1 176 0.000000 0.000000 0.000000 0.000000 0.000000 0.000000 197.000000 0.693273 0.133264 -0.708247
-10.96000004 -9.43999958 -0.27000001 158 1 176 0.000000 0.000000 0.000000 0.000000 0.000000 0.000000 197.000000 0.953147 0.076097 -0.292780
-10.93999958 -9.55000019 -0.25999999 158 1 176 0.000000 0.000000 0.000000 0.000000 0.000000 0.000000 197.000000 0.937074 -0.311443 -0.157780
-10.93999958 -9.55000019 -0.27000001 158 1 176 0.000000 0.000000 0.000000 0.000000 0.000000 0.000000 197.000000 -0.613289 0.029337 0.789313
-10.93999958 -9.57999992 -0.20999999 158 1 176 0.000000 0.000000 0.000000 0.000000 0.000000 0.000000 197.000000 -0.660551 0.026646 0.750308
-10.94999981 -9.55000019 -0.22000000 158 1 176 0.000000 0.000000 0.000000 0.000000 0.000000 0.000000 197.000000 0.925434 0.093492 -0.367193
-10.96000004 -9.56000042 -0.23999999 158 1 176 0.000000 0.000000 0.000000 0.000000 0.000000 0.000000 197.000000 0.862612 -0.181992 -0.471995
-10.94999981 -9.55000019 -0.28999999 158 1 176 0.000000 0.000000 0.000000 0.000000 0.000000 0.000000 197.000000 0.698050 -0.307916 -0.646462
-10.98999977 -9.52000046 -0.23999999 158 1 176 0.000000 0.000000 0.000000 0.000000 0.000000 0.000000 197.000000 0.719141 0.143225 -0.679943
-11.23999977 -8.86999989 -0.36000001 158 1 176 0.000000 0.000000 0.000000 0.000000 0.000000 0.000000 68.000000 0.953456 -0.262701 -0.148019
-11.23999977 -8.85999966 -0.37000000 158 1 176 0.000000 0.000000 0.000000 0.000000 0.000000 0.000000 68.000000 0.932198 -0.029737 0.360726
