//X Y Z R G B PointSourceId ScanDirectionFlag NumberOfReturns ReturnNumber GpsTime Intensity Classification Nx Ny Nz
2.00999999 12.31000042 -1.19000006 64 194 126 0.000000 0.000000 0.000000 0.000000 0.000000 0.000000 57.000000 -0.226630 0.626750 0.745535
2.00000000 12.31000042 -1.19000006 64 194 126 0.000000 0.000000 0.000000 0.000000 0.000000 0.000000 57.000000 -0.073842 0.696435 0.713810
2.01999998 12.30000019 -1.17999995 64 194 126 0.000000 0.000000 0.000000 0.000000 0.000000 0.000000 57.000000 0.021121 0.294457 0.955431
2.02999997 12.30000019 -1.19000006 64 194 126 0.000000 0.000000 0.000000 0.000000 0.000000 0.000000 57.000000 -0.364831 0.216573 0.905536
1.99000001 12.39999962 -1.23000002 64 194 126 0.000000 0.000000 0.000000 0.000000 0.000000 0.000000 57.000000 -0.434092 0.312733 0.844845
2.05999994 12.10000038 -0.88999999 64 194 126 0.000000 0.000000 0.000000 0.000000 0.000000 0.000000 58.000000 -0.097315 0.914214 0.393373
1.95000005 12.75000000 -1.14999998 64 194 126 0.000000 0.000000 0.000000 0.000000 0.000000 0.000000 57.000000 -0.509852 -0.437251 0.740852
1.95000005 12.72999954 -1.16999996 64 194 126 0.000000 0.000000 0.000000 0.000000 0.000000 0.000000 57.000000 0.548671 0.609447 -0.572306
1.96000004 12.72999954 -1.16999996 64 194 126 0.000000 0.000000 0.000000 0.000000 0.000000 0.000000 57.000000 0.115647 -0.469726 0.875205
1.98000002 12.68000031 -1.15999997 64 194 126 0.000000 0.000000 0.000000 0.000000 0.000000 0.000000 57.000000 -0.130239 -0.341363 0.930865
1.94000006 12.72000027 -1.17999995 64 194 126 0.000000 0.000000 0.000000 0.000000 0.000000 0.000000 57.000000 0.542144 0.410316 -0.733295
1.90999997 12.73999977 -1.15999997 64 194 126 0.000000 0.000000 0.000000 0.000000 0.000000 0.000000 57.000000 -0.307176 -0.386645 0.869568
1.90999997 12.65999985 -1.14999998 64 194 126 0.000000 0.000000 0.000000 0.000000 0.000000 0.000000 57.000000 0.063837 -0.254097 0.965070
1.92999995 12.65999985 -1.15999997 64 194 126 0.000000 0.000000 0.000000 0.000000 0.000000 0.000000 57.000000 0.024594 -0.371502 0.928107
1.96000004 12.63000011 -1.15999997 64 194 126 0.000000 0.000000 0.000000 0.000000 0.000000 0.000000 57.000000 -0.027509 0.015283 0.999505
1.97000003 12.64999962 -1.15999997 64 194 126 0.000000 0.000000 0.000000 0.000000 0.000000 0.000000 57.000000 0.016399 -0.110417 0.993750
1.98000002 12.63000011 -1.15999997 64 194 126 0.000000 0.000000 0.000000 0.000000 0.000000 0.000000 57.000000 0.015343 -0.033754 0.999312
1.97000003 12.60999966 -1.15999997 64 194 126 0.000000 0.000000 0.000000 0.000000 0.000000 0.000000 57.000000 0.037689 0.007130 0.999264
1.94000006 12.61999989 -1.15999997 64 194 126 0.000000 0.000000 0.000000 0.000000 0.000000 0.000000 57.000000 -0.124110 0.075394 0.989400
1.90999997 12.63000011 -1.14999998 64 194 126 0.000000 0.000000 0.000000 0.000000 0.000000 0.000000 57.000000 0.036663 -0.471188 0.881271
1.91999996 12.64000034 -1.17999995 64 194 126 0.000000 0.000000 0.000000 0.000000 0.000000 0.000000 57.000000 -0.004926 -0.002956 0.999984
1.92999995 12.63000011 -1.15999997 64 194 126 0.000000 0.000000 0.000000 0.000000 0.000000 0.000000 57.000000 -0.118166 -0.018774 0.992816
1.94000006 12.63000011 -1.15999997 64 194 126 0.000000 0.000000 0.000000 0.000000 0.000000 0.000000 57.000000 -0.026036 0.042699 0.998749
1.92999995 12.61999989 -1.16999996 64 194 126 0.000000 0.000000 0.000000 0.000000 0.000000 0.000000 57.000000 -0.344283 -0.290628 0.892751
1.90999997 12.56999969 -1.15999997 64 194 126 0.000000 0.000000 0.000000 0.000000 0.000000 0.000000 57.000000 -0.352253 -0.121987 0.927921
1.92999995 12.56999969 -1.14999998 64 194 126 0.000000 0.000000 0.000000 0.000000 0.000000 0.000000 57.000000 0.163243 -0.240219 0.956894
1.90999997 12.60000038 -1.14999998 64 194 126 0.000000 0.000000 0.000000 0.000000 0.000000 0.000000 57.000000 -0.129476 -0.382860 0.914688
1.92999995 12.60999966 -1.15999997 64 194 126 0.000000 0.000000 0.000000 0.000000 0.000000 0.000000 57.000000 -0.449818 0.014596 0.893001
1.90999997 12.56999969 -1.15999997 64 194 126 0.000000 0.000000 0.000000 0.000000 0.000000 0.000000 57.000000 -0.352253 -0.121987 0.927921
1.86000001 12.61999989 -1.14999998 64 194 126 0.000000 0.000000 0.000000 0.000000 0.000000 0.000000 57.000000 -0.240582 0.003555 0.970622
1.88999999 12.64000034 -1.16999996 64 194 126 0.000000 0.000000 0.000000 0.000000 0.000000 0.000000 57.000000 0.128904 -0.423540 0.896659
1.88999999 12.61999989 -1.14999998 64 194 126 0.000000 0.000000 0.000000 0.000000 0.000000 0.000000 57.000000 0.124165 -0.186874 0.974506
1.86000001 12.56999969 -1.16999996 64 194 126 0.000000 0.000000 0.000000 0.000000 0.000000 0.000000 57.000000 -0.267633 -0.350437 0.897533
1.88999999 12.56999969 -1.14999998 64 194 126 0.000000 0.000000 0.000000 0.000000 0.000000 0.000000 57.000000 0.067261 -0.156942 0.985315
1.87000000 12.59000015 -1.14999998 64 194 126 0.000000 0.000000 0.000000 0.000000 0.000000 0.000000 57.000000 -0.117704 -0.174697 0.977562
1.85000002 12.63000011 -1.15999997 64 194 126 0.000000 0.000000 0.000000 0.000000 0.000000 0.000000 57.000000 -0.272593 -0.067197 0.959780
1.85000002 12.60999966 -1.16999996 64 194 126 0.000000 0.000000 0.000000 0.000000 0.000000 0.000000 57.000000 -0.188475 -0.225903 0.955743
1.84000003 12.57999992 -1.15999997 64 194 126 0.000000 0.000000 0.000000 0.000000 0.000000 0.000000 57.000000 -0.283426 -0.552601 0.783774
1.84000003 12.59000015 -1.16999996 64 194 126 0.000000 0.000000 0.000000 0.000000 0.000000 0.000000 57.000000 -0.090878 -0.033943 0.995283
1.82000005 12.59000015 -1.19000006 64 194 126 0.000000 0.000000 0.000000 0.000000 0.000000 0.000000 57.000000 0.276632 0.468265 -0.839168
1.79999995 12.63000011 -1.21000004 64 194 126 0.000000 0.000000 0.000000 0.000000 0.000000 0.000000 57.000000 0.003115 0.063348 0.997987
1.73000002 12.61999989 -1.16999996 64 194 126 0.000000 0.000000 0.000000 0.000000 0.000000 0.000000 57.000000 -0.557844 -0.344408 0.755111
1.73000002 12.63000011 -1.22000003 64 194 126 0.000000 0.000000 0.000000 0.000000 0.000000 0.000000 57.000000 -0.318983 -0.044837 0.946699
1.73000002 12.60999966 -1.22000003 64 194 126 0.000000 0.000000 0.000000 0.000000 0.000000 0.000000 57.000000 0.053908 0.075912 0.995656
1.74000001 12.57999992 -1.22000003 64 194 126 0.000000 0.000000 0.000000 0.000000 0.000000 0.000000 57.000000 -0.130938 0.003301 0.991385
1.71000004 12.56999969 -1.19000006 64 194 126 0.000000 0.000000 0.000000 0.000000 0.000000 0.000000 57.000000 0.119537 -0.131612 0.984068
1.73000002 12.60000038 -1.23000002 64 194 126 0.000000 0.000000 0.000000 0.000000 0.000000 0.000000 57.000000 0.132446 -0.078530 0.988074
1.74000001 12.57999992 -1.23000002 64 194 126 0.000000 0.000000 0.000000 0.000000 0.000000 0.000000 57.000000 -0.487249 0.031217 0.872705
1.72000003 12.65999985 -1.23000002 64 194 126 0.000000 0.000000 0.000000 0.000000 0.000000 0.000000 57.000000 0.128190 -0.170505 0.976983
1.65999997 12.67000008 -1.24000001 64 194 126 0.000000 0.000000 0.000000 0.000000 0.000000 0.000000 57.000000 -0.369677 -0.102309 0.923510
1.65999997 12.67000008 -1.24000001 64 194 126 0.000000 0.000000 0.000000 0.000000 0.000000 0.000000 57.000000 -0.369677 -0.102309 0.923510
1.70000005 12.72000027 -1.36000001 64 194 126 0.000000 0.000000 0.000000 0.000000 0.000000 0.000000 248.000000 0.101530 -0.424199 0.899859
1.70000005 12.68000031 -1.38999999 64 194 126 0.000000 0.000000 0.000000 0.000000 0.000000 0.000000 248.000000 -0.569522 -0.063911 0.819487
1.67999995 12.68999958 -1.38000000 64 194 126 0.000000 0.000000 0.000000 0.000000 0.000000 0.000000 248.000000 -0.551293 -0.237600 0.799764
1.69000006 12.64999962 -1.24000001 64 194 126 0.000000 0.000000 0.000000 0.000000 0.000000 0.000000 57.000000 -0.075719 -0.126976 0.989012
1.70000005 12.61999989 -1.23000002 64 194 126 0.000000 0.000000 0.000000 0.000000 0.000000 0.000000 57.000000 -0.174325 0.114980 0.977952
1.70000005 12.61999989 -1.24000001 64 194 126 0.000000 0.000000 0.000000 0.000000 0.000000 0.000000 57.000000 -0.181581 -0.123976 0.975530
1.71000004 12.63000011 -1.23000002 64 194 126 0.000000 0.000000 0.000000 0.000000 0.000000 0.000000 57.000000 -0.185679 0.115894 0.975752
1.70000005 12.63000011 -1.23000002 64 194 126 0.000000 0.000000 0.000000 0.000000 0.000000 0.000000 57.000000 0.021185 -0.011097 0.999714
1.71000004 12.61999989 -1.24000001 64 194 126 0.000000 0.000000 0.000000 0.000000 0.000000 0.000000 57.000000 -0.465385 -0.221397 0.856971
1.71000004 12.60999966 -1.24000001 64 194 126 0.000000 0.000000 0.000000 0.000000 0.000000 0.000000 57.000000 -0.365335 -0.331705 0.869771
1.70000005 12.56999969 -1.25000000 64 194 126 0.000000 0.000000 0.000000 0.000000 0.000000 0.000000 57.000000 -0.407673 0.254231 0.877023
1.69000006 12.60999966 -1.24000001 64 194 126 0.000000 0.000000 0.000000 0.000000 0.000000 0.000000 57.000000 -0.060955 -0.125361 0.990237
1.69000006 12.56999969 -1.24000001 64 194 126 0.000000 0.000000 0.000000 0.000000 0.000000 0.000000 57.000000 -0.475809 -0.263312 0.839210
1.70000005 12.59000015 -1.24000001 64 194 126 0.000000 0.000000 0.000000 0.000000 0.000000 0.000000 57.000000 -0.063992 0.048807 0.996756
1.70000005 12.59000015 -1.25999999 64 194 126 0.000000 0.000000 0.000000 0.000000 0.000000 0.000000 57.000000 -0.043666 -0.390347 0.919632
1.69000006 12.60000038 -1.24000001 64 194 126 0.000000 0.000000 0.000000 0.000000 0.000000 0.000000 57.000000 0.625761 0.205497 -0.752459
1.65999997 12.64000034 -1.24000001 64 194 126 0.000000 0.000000 0.000000 0.000000 0.000000 0.000000 57.000000 -0.021397 -0.021397 0.999542
1.66999996 12.64999962 -1.25000000 64 194 126 0.000000 0.000000 0.000000 0.000000 0.000000 0.000000 57.000000 -0.405996 -0.457757 0.790965
1.64999998 12.63000011 -1.25000000 64 194 126 0.000000 0.000000 0.000000 0.000000 0.000000 0.000000 57.000000 -0.516863 -0.463681 0.719620
1.65999997 12.64000034 -1.23000002 64 194 126 0.000000 0.000000 0.000000 0.000000 0.000000 0.000000 57.000000 -0.031646 -0.013271 0.999411
1.64999998 12.64999962 -1.24000001 64 194 126 0.000000 0.000000 0.000000 0.000000 0.000000 0.000000 57.000000 -0.419466 -0.137926 0.897231
1.67999995 12.63000011 -1.25000000 64 194 126 0.000000 0.000000 0.000000 0.000000 0.000000 0.000000 57.000000 -0.368226 -0.252878 0.894686
1.67999995 12.57999992 -1.25000000 64 194 126 0.000000 0.000000 0.000000 0.000000 0.000000 0.000000 57.000000 -0.241286 -0.055681 0.968855
1.65999997 12.60000038 -1.25000000 64 194 126 0.000000 0.000000 0.000000 0.000000 0.000000 0.000000 57.000000 -0.023872 0.153466 0.987866
1.65999997 12.60999966 -1.24000001 64 194 126 0.000000 0.000000 0.000000 0.000000 0.000000 0.000000 57.000000 -0.291454 -0.121106 0.948888
1.67999995 12.59000015 -1.25000000 64 194 126 0.000000 0.000000 0.000000 0.000000 0.000000 0.000000 57.000000 -0.226886 -0.216018 0.949663
1.67999995 12.57999992 -1.25000000 64 194 126 0.000000 0.000000 0.000000 0.000000 0.000000 0.000000 57.000000 -0.241286 -0.055681 0.968855
1.65999997 12.56999969 -1.25000000 64 194 126 0.000000 0.000000 0.000000 0.000000 0.000000 0.000000 57.000000 0.079565 -0.075082 0.993998
1.64999998 12.71000004 -1.40999997 64 194 126 0.000000 0.000000 0.000000 0.000000 0.000000 0.000000 248.000000 0.047585 -0.322806 0.945268
1.55999994 12.75000000 -1.35000002 64 194 126 0.000000 0.000000 0.000000 0.000000 0.000000 0.000000 248.000000 -0.126312 -0.512508 0.849341
1.59000003 12.75000000 -1.35000002 64 194 126 0.000000 0.000000 0.000000 0.000000 0.000000 0.000000 248.000000 -0.106697 -0.248102 0.962840
1.63999999 12.68000031 -1.25000000 64 194 126 0.000000 0.000000 0.000000 0.000000 0.000000 0.000000 57.000000 -0.345271 0.042674 0.937532
1.63000000 12.69999981 -1.34000003 64 194 126 0.000000 0.000000 0.000000 0.000000 0.000000 0.000000 248.000000 0.428632 0.628771 -0.648785
1.61000001 12.67000008 -1.36000001 64 194 126 0.000000 0.000000 0.000000 0.000000 0.000000 0.000000 248.000000 0.042464 -0.075129 0.996269
1.63000000 12.67000008 -1.37000000 64 194 126 0.000000 0.000000 0.000000 0.000000 0.000000 0.000000 248.000000 -0.532173 -0.165466 0.830309
1.60000002 12.73999977 -1.35000002 64 194 126 0.000000 0.000000 0.000000 0.000000 0.000000 0.000000 248.000000 -0.017166 -0.437084 0.899257
1.55999994 12.67000008 -1.34000003 64 194 126 0.000000 0.000000 0.000000 0.000000 0.000000 0.000000 248.000000 0.033370 -0.268196 0.962786
1.60000002 12.67000008 -1.36000001 64 194 126 0.000000 0.000000 0.000000 0.000000 0.000000 0.000000 248.000000 -0.321324 -0.088596 0.942816
1.63999999 12.64000034 -1.25000000 64 194 126 0.000000 0.000000 0.000000 0.000000 0.000000 0.000000 57.000000 -0.083005 -0.164807 0.982827
1.63999999 12.60000038 -1.25000000 64 194 126 0.000000 0.000000 0.000000 0.000000 0.000000 0.000000 57.000000 -0.137067 0.149416 0.979228
1.63999999 12.56999969 -1.25000000 64 194 126 0.000000 0.000000 0.000000 0.000000 0.000000 0.000000 57.000000 -0.070184 0.276908 0.958330
1.61000001 12.57999992 -1.25999999 64 194 126 0.000000 0.000000 0.000000 0.000000 0.000000 0.000000 57.000000 -0.159982 0.130218 0.978493
1.59000003 12.64000034 -1.25000000 64 194 126 0.000000 0.000000 0.000000 0.000000 0.000000 0.000000 57.000000 -0.433489 -0.333333 0.837244
1.57000005 12.63000011 -1.26999998 64 194 126 0.000000 0.000000 0.000000 0.000000 0.000000 0.000000 57.000000 -0.156586 -0.105605 0.982002
1.58000004 12.64000034 -1.26999998 64 194 126 0.000000 0.000000 0.000000 0.000000 0.000000 0.000000 57.000000 -0.114895 -0.082399 0.989954
1.58000004 12.60999966 -1.26999998 64 194 126 0.000000 0.000000 0.000000 0.000000 0.000000 0.000000 57.000000 -0.375307 0.147593 0.915074
1.63999999 12.63000011 -1.38000000 64 194 126 0.000000 0.000000 0.000000 0.000000 0.000000 0.000000 248.000000 -0.437166 0.129583 0.889997
1.51999998 12.72999954 -1.35000002 64 194 126 0.000000 0.000000 0.000000 0.000000 0.000000 0.000000 248.000000 -0.200097 -0.034336 0.979174
1.52999997 12.72999954 -1.34000003 64 194 126 0.000000 0.000000 0.000000 0.000000 0.000000 0.000000 248.000000 -0.129998 -0.679875 0.721714
1.54999995 12.68000031 -1.33000004 64 194 126 0.000000 0.000000 0.000000 0.000000 0.000000 0.000000 248.000000 0.078093 -0.216924 0.973060
1.53999996 12.61999989 -1.25000000 64 194 126 0.000000 0.000000 0.000000 0.000000 0.000000 0.000000 57.000000 -0.104536 -0.254242 0.961474
1.51999998 12.57999992 -1.26999998 64 194 126 0.000000 0.000000 0.000000 0.000000 0.000000 0.000000 57.000000 -0.011977 -0.107794 0.994101
1.54999995 12.60999966 -1.27999997 64 194 126 0.000000 0.000000 0.000000 0.000000 0.000000 0.000000 57.000000 -0.163847 -0.005650 0.986470
1.51999998 12.60000038 -1.26999998 64 194 126 0.000000 0.000000 0.000000 0.000000 0.000000 0.000000 57.000000 -0.192597 0.144129 0.970636
1.52999997 12.57999992 -1.30999994 64 194 126 0.000000 0.000000 0.000000 0.000000 0.000000 0.000000 57.000000 0.031912 -0.197380 0.979808
1.50999999 12.57999992 -1.26999998 64 194 126 0.000000 0.000000 0.000000 0.000000 0.000000 0.000000 57.000000 -0.404299 -0.351225 0.844502
1.63999999 12.69999981 -1.40999997 64 194 126 0.000000 0.000000 0.000000 0.000000 0.000000 0.000000 248.000000 -0.172728 -0.242354 0.954688
1.32000005 12.76000023 -1.34000003 64 194 126 0.000000 0.000000 0.000000 0.000000 0.000000 0.000000 57.000000 -0.271288 -0.537872 0.798183
1.38999999 12.67000008 -1.35000002 64 194 126 0.000000 0.000000 0.000000 0.000000 0.000000 0.000000 57.000000 -0.305212 -0.074030 0.949403
1.40999997 12.61999989 -1.26999998 64 194 126 0.000000 0.000000 0.000000 0.000000 0.000000 0.000000 57.000000 -0.506296 0.086510 0.858009
1.41999996 12.63000011 -1.28999996 64 194 126 0.000000 0.000000 0.000000 0.000000 0.000000 0.000000 57.000000 -0.128919 -0.429258 0.893934
1.39999998 12.60000038 -1.24000001 64 194 126 0.000000 0.000000 0.000000 0.000000 0.000000 0.000000 57.000000 -0.573606 -0.352613 0.739351
1.38999999 12.60999966 -1.26999998 64 194 126 0.000000 0.000000 0.000000 0.000000 0.000000 0.000000 57.000000 -0.365800 -0.016686 0.930544
1.37000000 12.72999954 -1.35000002 64 194 126 0.000000 0.000000 0.000000 0.000000 0.000000 0.000000 57.000000 0.077566 -0.324725 0.942623
1.35000002 12.68999958 -1.34000003 64 194 126 0.000000 0.000000 0.000000 0.000000 0.000000 0.000000 57.000000 -0.191379 -0.135613 0.972103
1.33000004 12.72999954 -1.36000001 64 194 126 0.000000 0.000000 0.000000 0.000000 0.000000 0.000000 57.000000 -0.009347 -0.484714 0.874622
1.32000005 12.71000004 -1.38999999 64 194 126 0.000000 0.000000 0.000000 0.000000 0.000000 0.000000 57.000000 -0.108620 -0.383609 0.917086
1.33000004 12.68000031 -1.35000002 64 194 126 0.000000 0.000000 0.000000 0.000000 0.000000 0.000000 57.000000 -0.027841 -0.029903 0.999165
1.33000004 12.68000031 -1.35000002 64 194 126 0.000000 0.000000 0.000000 0.000000 0.000000 0.000000 57.000000 -0.027841 -0.029903 0.999165
1.32000005 12.67000008 -1.36000001 64 194 126 0.000000 0.000000 0.000000 0.000000 0.000000 0.000000 57.000000 -0.107001 -0.611227 0.784189
1.29999995 12.67000008 -1.38999999 64 194 126 0.000000 0.000000 0.000000 0.000000 0.000000 0.000000 57.000000 -0.338631 0.001250 0.940919
1.38000000 12.57999992 -1.25999999 64 194 126 0.000000 0.000000 0.000000 0.000000 0.000000 0.000000 57.000000 -0.184379 -0.410861 0.892859
1.36000001 12.56999969 -1.29999995 64 194 126 0.000000 0.000000 0.000000 0.000000 0.000000 0.000000 57.000000 -0.241085 -0.017991 0.970337
1.36000001 12.60999966 -1.29999995 64 194 126 0.000000 0.000000 0.000000 0.000000 0.000000 0.000000 57.000000 -0.376362 -0.489431 0.786644
1.37000000 12.60000038 -1.28999996 64 194 126 0.000000 0.000000 0.000000 0.000000 0.000000 0.000000 57.000000 -0.447011 -0.213788 0.868606
1.35000002 12.56999969 -1.29999995 64 194 126 0.000000 0.000000 0.000000 0.000000 0.000000 0.000000 57.000000 -0.096640 -0.047765 0.994173
1.36000001 12.57999992 -1.29999995 64 194 126 0.000000 0.000000 0.000000 0.000000 0.000000 0.000000 57.000000 -0.337826 0.313803 0.887356
1.34000003 12.56999969 -1.29999995 64 194 126 0.000000 0.000000 0.000000 0.000000 0.000000 0.000000 57.000000 -0.521964 0.232497 0.820669
1.32000005 12.57999992 -1.30999994 64 194 126 0.000000 0.000000 0.000000 0.000000 0.000000 0.000000 57.000000 0.595791 0.184375 -0.781690
1.36000001 12.64000034 -1.36000001 64 194 126 0.000000 0.000000 0.000000 0.000000 0.000000 0.000000 57.000000 -0.145841 -0.210373 0.966682
1.35000002 12.60999966 -1.36000001 64 194 126 0.000000 0.000000 0.000000 0.000000 0.000000 0.000000 57.000000 -0.361717 -0.331192 0.871477
1.29999995 12.64999962 -1.38999999 64 194 126 0.000000 0.000000 0.000000 0.000000 0.000000 0.000000 57.000000 -0.586046 -0.141665 0.797798
1.98000002 12.13000011 -0.87000000 64 194 126 0.000000 0.000000 0.000000 0.000000 0.000000 0.000000 58.000000 0.235066 0.903763 0.357709
1.98000002 12.00000000 -0.83999997 64 194 126 0.000000 0.000000 0.000000 0.000000 0.000000 0.000000 58.000000 0.180753 0.976067 -0.120918
1.97000003 12.01000023 -0.86000001 64 194 126 0.000000 0.000000 0.000000 0.000000 0.000000 0.000000 58.000000 -0.003226 0.994762 -0.102165
1.92999995 12.05000019 -0.86000001 64 194 126 0.000000 0.000000 0.000000 0.000000 0.000000 0.000000 58.000000 -0.023859 0.998978 0.038382
1.94000006 12.56000042 -1.16999996 64 194 126 0.000000 0.000000 0.000000 0.000000 0.000000 0.000000 57.000000 0.020302 0.075864 0.996911
1.97000003 12.52999973 -1.17999995 64 194 126 0.000000 0.000000 0.000000 0.000000 0.000000 0.000000 57.000000 -0.210570 -0.370313 0.904726
1.96000004 12.56000042 -1.16999996 64 194 126 0.000000 0.000000 0.000000 0.000000 0.000000 0.000000 57.000000 0.120273 -0.239253 0.963479
1.98000002 12.44999981 -1.17999995 64 194 126 0.000000 0.000000 0.000000 0.000000 0.000000 0.000000 57.000000 -0.094493 -0.275714 0.956584
1.94000006 12.42000008 -1.19000006 64 194 126 0.000000 0.000000 0.000000 0.000000 0.000000 0.000000 57.000000 -0.142908 0.040014 0.988927
1.96000004 12.43000031 -1.19000006 64 194 126 0.000000 0.000000 0.000000 0.000000 0.000000 0.000000 57.000000 -0.202314 0.128514 0.970852
1.98000002 12.47000027 -1.20000005 64 194 126 0.000000 0.000000 0.000000 0.000000 0.000000 0.000000 57.000000 -0.526538 -0.191605 0.828279
1.90999997 12.43999958 -1.21000004 64 194 126 0.000000 0.000000 0.000000 0.000000 0.000000 0.000000 57.000000 -0.003886 0.413214 0.910626
1.90999997 12.39999962 -1.20000005 64 194 126 0.000000 0.000000 0.000000 0.000000 0.000000 0.000000 57.000000 0.049204 0.073259 0.996099
1.97000003 12.44999981 -1.20000005 64 194 126 0.000000 0.000000 0.000000 0.000000 0.000000 0.000000 57.000000 -0.426677 0.163439 0.889513
1.94000006 12.40999985 -1.17999995 64 194 126 0.000000 0.000000 0.000000 0.000000 0.000000 0.000000 57.000000 0.029737 0.360726 0.932198
1.95000005 12.44999981 -1.19000006 64 194 126 0.000000 0.000000 0.000000 0.000000 0.000000 0.000000 57.000000 0.144541 -0.030729 0.989022
1.97000003 12.43000031 -1.19000006 64 194 126 0.000000 0.000000 0.000000 0.000000 0.000000 0.000000 57.000000 0.068680 0.136197 0.988298
1.92999995 12.46000004 -1.19000006 64 194 126 0.000000 0.000000 0.000000 0.000000 0.000000 0.000000 57.000000 -0.069032 -0.252280 0.965189
1.90999997 12.46000004 -1.20000005 64 194 126 0.000000 0.000000 0.000000 0.000000 0.000000 0.000000 57.000000 -0.243919 -0.015620 0.969670
1.88000000 12.52999973 -1.14999998 64 194 126 0.000000 0.000000 0.000000 0.000000 0.000000 0.000000 57.000000 -0.247821 -0.090232 0.964595
1.89999998 12.52999973 -1.17999995 64 194 126 0.000000 0.000000 0.000000 0.000000 0.000000 0.000000 57.000000 0.041410 -0.190484 0.980816
1.88000000 12.52000046 -1.14999998 64 194 126 0.000000 0.000000 0.000000 0.000000 0.000000 0.000000 57.000000 -0.136407 -0.348596 0.927294
1.86000001 12.51000023 -1.15999997 64 194 126 0.000000 0.000000 0.000000 0.000000 0.000000 0.000000 57.000000 -0.345416 0.133487 0.928907
1.86000001 12.52000046 -1.16999996 64 194 126 0.000000 0.000000 0.000000 0.000000 0.000000 0.000000 57.000000 -0.566537 0.052015 0.822393
1.88999999 12.51000023 -1.17999995 64 194 126 0.000000 0.000000 0.000000 0.000000 0.000000 0.000000 57.000000 -0.102381 0.007544 0.994717
1.84000003 12.53999996 -1.15999997 64 194 126 0.000000 0.000000 0.000000 0.000000 0.000000 0.000000 57.000000 -0.254700 0.015692 0.966893
1.82000005 12.52999973 -1.17999995 64 194 126 0.000000 0.000000 0.000000 0.000000 0.000000 0.000000 57.000000 -0.038000 0.251291 0.967165
1.84000003 12.56000042 -1.15999997 64 194 126 0.000000 0.000000 0.000000 0.000000 0.000000 0.000000 57.000000 0.147301 -0.293251 0.944620
1.84000003 12.53999996 -1.16999996 64 194 126 0.000000 0.000000 0.000000 0.000000 0.000000 0.000000 57.000000 0.086166 0.097655 0.991483
1.83000004 12.51000023 -1.16999996 64 194 126 0.000000 0.000000 0.000000 0.000000 0.000000 0.000000 57.000000 0.104818 0.055227 0.992957
1.83000004 12.52000046 -1.15999997 64 194 126 0.000000 0.000000 0.000000 0.000000 0.000000 0.000000 57.000000 -0.090917 0.009627 0.995812
1.82000005 12.48999977 -1.15999997 64 194 126 0.000000 0.000000 0.000000 0.000000 0.000000 0.000000 57.000000 -0.063478 -0.083523 0.994482
1.82000005 12.51000023 -1.16999996 64 194 126 0.000000 0.000000 0.000000 0.000000 0.000000 0.000000 57.000000 -0.116700 0.232118 0.965662
1.89999998 12.44999981 -1.19000006 64 194 126 0.000000 0.000000 0.000000 0.000000 0.000000 0.000000 57.000000 0.111381 0.001081 0.993777
1.86000001 12.42000008 -1.16999996 64 194 126 0.000000 0.000000 0.000000 0.000000 0.000000 0.000000 57.000000 -0.530293 0.149191 0.834584
1.84000003 12.47999954 -1.16999996 64 194 126 0.000000 0.000000 0.000000 0.000000 0.000000 0.000000 57.000000 0.114216 -0.104797 0.987913
1.84000003 12.46000004 -1.17999995 64 194 126 0.000000 0.000000 0.000000 0.000000 0.000000 0.000000 57.000000 -0.168211 -0.178483 0.969458
1.82000005 12.47999954 -1.16999996 64 194 126 0.000000 0.000000 0.000000 0.000000 0.000000 0.000000 57.000000 -0.079548 -0.246221 0.965944
1.85000002 12.40999985 -1.17999995 64 194 126 0.000000 0.000000 0.000000 0.000000 0.000000 0.000000 57.000000 -0.460526 0.319068 0.828318
1.82000005 12.43999958 -1.17999995 64 194 126 0.000000 0.000000 0.000000 0.000000 0.000000 0.000000 57.000000 -0.237630 0.025331 0.971025
1.90999997 12.31999969 -1.01999998 64 194 126 0.000000 0.000000 0.000000 0.000000 0.000000 0.000000 82.000000 0.043629 0.589702 0.806442
1.96000004 12.22999954 -0.99000001 64 194 126 0.000000 0.000000 0.000000 0.000000 0.000000 0.000000 82.000000 -0.073917 0.671049 0.737719
1.97000003 12.23999977 -1.00000000 64 194 126 0.000000 0.000000 0.000000 0.000000 0.000000 0.000000 82.000000 -0.470867 0.741823 0.477476
1.96000004 12.22999954 -1.00000000 64 194 126 0.000000 0.000000 0.000000 0.000000 0.000000 0.000000 82.000000 0.004120 0.602847 0.797846
1.95000005 12.22999954 -0.99000001 64 194 126 0.000000 0.000000 0.000000 0.000000 0.000000 0.000000 82.000000 0.154023 0.575716 0.803012
1.97000003 12.23999977 -1.00000000 64 194 126 0.000000 0.000000 0.000000 0.000000 0.000000 0.000000 82.000000 -0.470867 0.741823 0.477476
1.95000005 12.22999954 -0.99000001 64 194 126 0.000000 0.000000 0.000000 0.000000 0.000000 0.000000 82.000000 0.154023 0.575716 0.803012
1.92999995 12.27999973 -1.00999999 64 194 126 0.000000 0.000000 0.000000 0.000000 0.000000 0.000000 82.000000 -0.213904 0.371059 0.903637
1.92999995 12.27999973 -1.00999999 64 194 126 0.000000 0.000000 0.000000 0.000000 0.000000 0.000000 82.000000 -0.213904 0.371059 0.903637
1.90999997 12.30000019 -1.00999999 64 194 126 0.000000 0.000000 0.000000 0.000000 0.000000 0.000000 82.000000 0.017370 0.463637 0.885855
1.91999996 12.27999973 -1.00999999 64 194 126 0.000000 0.000000 0.000000 0.000000 0.000000 0.000000 82.000000 -0.216912 0.368314 0.904043
1.89999998 12.31999969 -1.00999999 64 194 126 0.000000 0.000000 0.000000 0.000000 0.000000 0.000000 82.000000 -0.392039 0.673248 0.626931
1.89999998 12.31999969 -1.00999999 64 194 126 0.000000 0.000000 0.000000 0.000000 0.000000 0.000000 82.000000 -0.392039 0.673248 0.626931
1.86000001 12.23999977 -1.00000000 64 194 126 0.000000 0.000000 0.000000 0.000000 0.000000 0.000000 82.000000 0.047013 0.665308 0.745088
1.88000000 12.23999977 -1.00999999 64 194 126 0.000000 0.000000 0.000000 0.000000 0.000000 0.000000 82.000000 0.009674 0.775274 0.631551
1.89999998 12.22999954 -0.99000001 64 194 126 0.000000 0.000000 0.000000 0.000000 0.000000 0.000000 82.000000 -0.067428 0.626940 0.776144
1.83000004 12.27000046 -1.00999999 64 194 126 0.000000 0.000000 0.000000 0.000000 0.000000 0.000000 82.000000 0.268916 0.685816 0.676269
1.83000004 12.27000046 -1.00999999 64 194 126 0.000000 0.000000 0.000000 0.000000 0.000000 0.000000 82.000000 0.268916 0.685816 0.676269
1.85000002 12.25000000 -1.00000000 64 194 126 0.000000 0.000000 0.000000 0.000000 0.000000 0.000000 82.000000 0.244570 0.858275 0.451164
1.85000002 12.25000000 -1.00000000 64 194 126 0.000000 0.000000 0.000000 0.000000 0.000000 0.000000 82.000000 0.244570 0.858275 0.451164
1.97000003 12.38000011 -1.19000006 64 194 126 0.000000 0.000000 0.000000 0.000000 0.000000 0.000000 57.000000 0.037867 0.245522 0.968651
1.98000002 12.39000034 -1.21000004 64 194 126 0.000000 0.000000 0.000000 0.000000 0.000000 0.000000 57.000000 -0.510791 0.474187 0.717104
1.98000002 12.36999989 -1.20000005 64 194 126 0.000000 0.000000 0.000000 0.000000 0.000000 0.000000 57.000000 0.040258 0.545571 0.837097
1.95000005 12.39000034 -1.19000006 64 194 126 0.000000 0.000000 0.000000 0.000000 0.000000 0.000000 57.000000 0.095624 0.243524 0.965170
1.95000005 12.36999989 -1.19000006 64 194 126 0.000000 0.000000 0.000000 0.000000 0.000000 0.000000 57.000000 -0.094625 -0.025016 0.995199
1.97000003 12.35999966 -1.19000006 64 194 126 0.000000 0.000000 0.000000 0.000000 0.000000 0.000000 57.000000 -0.441231 0.425069 0.790337
1.97000003 12.32999992 -1.17999995 64 194 126 0.000000 0.000000 0.000000 0.000000 0.000000 0.000000 57.000000 -0.452044 0.521590 0.723602
1.97000003 12.35000038 -1.19000006 64 194 126 0.000000 0.000000 0.000000 0.000000 0.000000 0.000000 57.000000 -0.270988 0.196707 0.942269
1.95000005 12.34000015 -1.19000006 64 194 126 0.000000 0.000000 0.000000 0.000000 0.000000 0.000000 57.000000 -0.391634 0.229069 0.891151
1.96000004 12.34000015 -1.19000006 64 194 126 0.000000 0.000000 0.000000 0.000000 0.000000 0.000000 57.000000 -0.281430 0.167227 0.944898
1.90999997 12.38000011 -1.19000006 64 194 126 0.000000 0.000000 0.000000 0.000000 0.000000 0.000000 57.000000 -0.076025 0.091911 0.992861
1.94000006 12.38000011 -1.19000006 64 194 126 0.000000 0.000000 0.000000 0.000000 0.000000 0.000000 57.000000 -0.238716 -0.030294 0.970617
1.90999997 12.35000038 -1.17999995 64 194 126 0.000000 0.000000 0.000000 0.000000 0.000000 0.000000 57.000000 0.171405 0.229869 0.958009
1.90999997 12.35000038 -1.19000006 64 194 126 0.000000 0.000000 0.000000 0.000000 0.000000 0.000000 57.000000 0.081210 0.135350 0.987464
1.94000006 12.28999996 -1.22000003 64 194 126 0.000000 0.000000 0.000000 0.000000 0.000000 0.000000 57.000000 -0.472398 0.249194 0.845424
1.90999997 12.26000023 -1.22000003 64 194 126 0.000000 0.000000 0.000000 0.000000 0.000000 0.000000 57.000000 0.087056 0.354922 0.930834
1.92999995 12.30000019 -1.22000003 64 194 126 0.000000 0.000000 0.000000 0.000000 0.000000 0.000000 57.000000 -0.311526 0.031531 0.949714
1.78999996 12.56000042 -1.17999995 64 194 126 0.000000 0.000000 0.000000 0.000000 0.000000 0.000000 57.000000 -0.026401 0.058082 0.997963
1.79999995 12.53999996 -1.16999996 64 194 126 0.000000 0.000000 0.000000 0.000000 0.000000 0.000000 57.000000 -0.212114 -0.069887 0.974743
1.78999996 12.55000019 -1.16999996 64 194 126 0.000000 0.000000 0.000000 0.000000 0.000000 0.000000 57.000000 -0.267681 -0.046066 0.962406
1.79999995 12.52000046 -1.17999995 64 194 126 0.000000 0.000000 0.000000 0.000000 0.000000 0.000000 57.000000 0.164217 -0.119767 0.979126
1.77999997 12.52000046 -1.16999996 64 194 126 0.000000 0.000000 0.000000 0.000000 0.000000 0.000000 57.000000 -0.020100 0.066646 0.997574
1.77999997 12.51000023 -1.16999996 64 194 126 0.000000 0.000000 0.000000 0.000000 0.000000 0.000000 57.000000 0.015803 -0.066371 0.997670
1.78999996 12.50000000 -1.16999996 64 194 126 0.000000 0.000000 0.000000 0.000000 0.000000 0.000000 57.000000 -0.045155 0.336729 0.940518
1.80999994 12.52000046 -1.16999996 64 194 126 0.000000 0.000000 0.000000 0.000000 0.000000 0.000000 57.000000 0.070754 0.084231 0.993931
1.77999997 12.48999977 -1.16999996 64 194 126 0.000000 0.000000 0.000000 0.000000 0.000000 0.000000 57.000000 -0.456522 0.130231 0.880129
1.78999996 12.51000023 -1.17999995 64 194 126 0.000000 0.000000 0.000000 0.000000 0.000000 0.000000 57.000000 0.117239 -0.058050 0.991406
1.77999997 12.50000000 -1.16999996 64 194 126 0.000000 0.000000 0.000000 0.000000 0.000000 0.000000 57.000000 -0.023109 0.007033 0.999708
1.73000002 12.48999977 -1.16999996 64 194 126 0.000000 0.000000 0.000000 0.000000 0.000000 0.000000 57.000000 -0.487412 0.048055 0.871849
1.75999999 12.51000023 -1.16999996 64 194 126 0.000000 0.000000 0.000000 0.000000 0.000000 0.000000 57.000000 -0.274807 -0.200236 0.940418
1.76999998 12.48999977 -1.19000006 64 194 126 0.000000 0.000000 0.000000 0.000000 0.000000 0.000000 57.000000 -0.462276 0.394626 0.794085
1.78999996 12.47000027 -1.14999998 64 194 126 0.000000 0.000000 0.000000 0.000000 0.000000 0.000000 57.000000 -0.403474 0.341162 0.849010
1.77999997 12.47999954 -1.16999996 64 194 126 0.000000 0.000000 0.000000 0.000000 0.000000 0.000000 57.000000 -0.368812 0.122937 0.921338
1.77999997 12.46000004 -1.14999998 64 194 126 0.000000 0.000000 0.000000 0.000000 0.000000 0.000000 57.000000 0.084209 -0.104973 0.990903
1.76999998 12.47999954 -1.16999996 64 194 126 0.000000 0.000000 0.000000 0.000000 0.000000 0.000000 57.000000 -0.154646 0.209227 0.965561
1.75000000 12.47999954 -1.16999996 64 194 126 0.000000 0.000000 0.000000 0.000000 0.000000 0.000000 57.000000 0.070412 0.357376 0.931303
1.75000000 12.47000027 -1.16999996 64 194 126 0.000000 0.000000 0.000000 0.000000 0.000000 0.000000 57.000000 -0.030452 0.414409 0.909581
1.67999995 12.55000019 -1.20000005 64 194 126 0.000000 0.000000 0.000000 0.000000 0.000000 0.000000 57.000000 -0.192390 -0.068970 0.978892
1.78999996 12.26000023 -1.00000000 64 194 126 0.000000 0.000000 0.000000 0.000000 0.000000 0.000000 82.000000 -0.141951 0.501950 0.853168
1.78999996 12.26000023 -1.00000000 64 194 126 0.000000 0.000000 0.000000 0.000000 0.000000 0.000000 82.000000 -0.141951 0.501950 0.853168
1.91999996 12.28999996 -1.24000001 64 194 126 0.000000 0.000000 0.000000 0.000000 0.000000 0.000000 57.000000 -0.378623 0.191471 0.905529
1.91999996 12.28999996 -1.24000001 64 194 126 0.000000 0.000000 0.000000 0.000000 0.000000 0.000000 57.000000 -0.378623 0.191471 0.905529
1.88999999 12.31999969 -1.23000002 64 194 126 0.000000 0.000000 0.000000 0.000000 0.000000 0.000000 57.000000 -0.070490 0.042294 0.996616
1.87000000 12.31000042 -1.24000001 64 194 126 0.000000 0.000000 0.000000 0.000000 0.000000 0.000000 57.000000 -0.489946 0.339930 0.802746
1.87000000 12.26000023 -1.25000000 64 194 126 0.000000 0.000000 0.000000 0.000000 0.000000 0.000000 57.000000 -0.122970 0.623741 0.771898
1.88999999 12.26000023 -1.23000002 64 194 126 0.000000 0.000000 0.000000 0.000000 0.000000 0.000000 57.000000 -0.266127 0.205456 0.941788
1.88999999 12.22999954 -1.25000000 64 194 126 0.000000 0.000000 0.000000 0.000000 0.000000 0.000000 57.000000 0.215214 0.385042 0.897455
1.86000001 12.25000000 -1.23000002 64 194 126 0.000000 0.000000 0.000000 0.000000 0.000000 0.000000 57.000000 -0.182101 0.423932 0.887198
1.87000000 12.26000023 -1.25000000 64 194 126 0.000000 0.000000 0.000000 0.000000 0.000000 0.000000 57.000000 -0.122970 0.623741 0.771898
1.76999998 12.53999996 -1.23000002 64 194 126 0.000000 0.000000 0.000000 0.000000 0.000000 0.000000 57.000000 -0.488442 -0.303116 0.818257
1.73000002 12.55000019 -1.23000002 64 194 126 0.000000 0.000000 0.000000 0.000000 0.000000 0.000000 57.000000 -0.351690 -0.064542 0.933889
1.91999996 12.14999962 -0.97000003 64 194 126 0.000000 0.000000 0.000000 0.000000 0.000000 0.000000 82.000000 -0.387172 0.798442 0.461072
1.97000003 12.13000011 -0.91000003 64 194 126 0.000000 0.000000 0.000000 0.000000 0.000000 0.000000 58.000000 -0.018580 0.954996 0.296036
1.86000001 12.19999981 -0.95999998 64 194 126 0.000000 0.000000 0.000000 0.000000 0.000000 0.000000 82.000000 0.026616 0.648597 0.760666
1.86000001 12.17000008 -0.94999999 64 194 126 0.000000 0.000000 0.000000 0.000000 0.000000 0.000000 82.000000 -0.310938 0.786114 0.534175
1.84000003 12.19999981 -0.95999998 64 194 126 0.000000 0.000000 0.000000 0.000000 0.000000 0.000000 82.000000 0.343476 0.765967 0.543433
1.85000002 12.18000031 -0.95999998 64 194 126 0.000000 0.000000 0.000000 0.000000 0.000000 0.000000 82.000000 -0.262050 0.643215 0.719447
1.85000002 12.18000031 -0.98000002 64 194 126 0.000000 0.000000 0.000000 0.000000 0.000000 0.000000 82.000000 -0.134606 0.899738 0.415155
1.86000001 12.03999996 -0.94000000 64 194 126 0.000000 0.000000 0.000000 0.000000 0.000000 0.000000 82.000000 -0.087003 0.932944 0.349352
1.79999995 12.15999985 -0.94999999 64 194 126 0.000000 0.000000 0.000000 0.000000 0.000000 0.000000 82.000000 -0.241055 0.916587 0.319001
1.78999996 12.15999985 -0.93000001 64 194 126 0.000000 0.000000 0.000000 0.000000 0.000000 0.000000 82.000000 -0.296904 0.840968 0.452351
1.79999995 12.17000008 -0.93000001 64 194 126 0.000000 0.000000 0.000000 0.000000 0.000000 0.000000 82.000000 -0.258791 0.935846 0.239207
1.74000001 12.18000031 -1.00000000 64 194 126 0.000000 0.000000 0.000000 0.000000 0.000000 0.000000 82.000000 -0.340264 0.921961 0.184957
1.78999996 12.11999989 -0.94999999 64 194 126 0.000000 0.000000 0.000000 0.000000 0.000000 0.000000 82.000000 -0.101276 0.862988 0.494970
1.79999995 12.07999992 -0.92000002 64 194 126 0.000000 0.000000 0.000000 0.000000 0.000000 0.000000 82.000000 0.058537 0.783829 0.618211
1.75999999 12.13000011 -0.92000002 64 194 126 0.000000 0.000000 0.000000 0.000000 0.000000 0.000000 82.000000 0.151625 0.958537 0.241282
1.75000000 12.11999989 -0.94000000 64 194 126 0.000000 0.000000 0.000000 0.000000 0.000000 0.000000 82.000000 -0.154417 0.975463 0.156928
1.76999998 12.06999969 -0.92000002 64 194 126 0.000000 0.000000 0.000000 0.000000 0.000000 0.000000 82.000000 -0.228259 0.878722 0.419220
1.74000001 12.11999989 -0.97000003 64 194 126 0.000000 0.000000 0.000000 0.000000 0.000000 0.000000 82.000000 -0.303143 0.915232 0.265432
1.78999996 12.06999969 -0.98000002 64 194 126 0.000000 0.000000 0.000000 0.000000 0.000000 0.000000 82.000000 0.018835 0.948012 0.317678
1.71000004 12.19999981 -0.97000003 64 194 126 0.000000 0.000000 0.000000 0.000000 0.000000 0.000000 82.000000 -0.008604 0.955077 0.296234
1.71000004 12.18000031 -0.99000001 64 194 126 0.000000 0.000000 0.000000 0.000000 0.000000 0.000000 82.000000 -0.120663 0.722486 0.680775
1.67999995 12.22000027 -1.00000000 64 194 126 0.000000 0.000000 0.000000 0.000000 0.000000 0.000000 82.000000 0.162753 0.658615 0.734668
1.66999996 12.22000027 -0.99000001 64 194 126 0.000000 0.000000 0.000000 0.000000 0.000000 0.000000 82.000000 0.225691 0.904220 0.362561
1.65999997 12.13000011 -0.97000003 64 194 126 0.000000 0.000000 0.000000 0.000000 0.000000 0.000000 82.000000 -0.342404 0.804251 0.485736
1.71000004 12.14999962 -1.22000003 64 194 126 0.000000 0.000000 0.000000 0.000000 0.000000 0.000000 57.000000 -0.052675 0.430857 0.900882
1.67999995 12.11999989 -1.22000003 64 194 126 0.000000 0.000000 0.000000 0.000000 0.000000 0.000000 57.000000 -0.236699 0.438721 0.866889
1.75999999 12.01000023 -0.95999998 64 194 126 0.000000 0.000000 0.000000 0.000000 0.000000 0.000000 82.000000 -0.307027 0.840038 0.447293
1.73000002 12.02000046 -1.00000000 64 194 126 0.000000 0.000000 0.000000 0.000000 0.000000 0.000000 82.000000 -0.381023 0.875898 0.296014
1.73000002 12.03999996 -0.97000003 64 194 126 0.000000 0.000000 0.000000 0.000000 0.000000 0.000000 82.000000 0.258791 0.935846 0.239207
1.75999999 12.01000023 -0.99000001 64 194 126 0.000000 0.000000 0.000000 0.000000 0.000000 0.000000 82.000000 0.290117 0.813897 0.503393
1.75000000 12.01000023 -0.98000002 64 194 126 0.000000 0.000000 0.000000 0.000000 0.000000 0.000000 82.000000 0.278793 0.957148 0.078371
1.74000001 11.94999981 -0.98000002 64 194 126 0.000000 0.000000 0.000000 0.000000 0.000000 0.000000 82.000000 0.229583 -0.843833 -0.485014
1.73000002 11.90999985 -1.00000000 64 194 126 0.000000 0.000000 0.000000 0.000000 0.000000 0.000000 82.000000 -0.023133 0.965510 0.259336
1.74000001 11.94999981 -0.98000002 64 194 126 0.000000 0.000000 0.000000 0.000000 0.000000 0.000000 82.000000 0.229583 -0.843833 -0.485014
1.72000003 11.97000027 -0.98000002 64 194 126 0.000000 0.000000 0.000000 0.000000 0.000000 0.000000 82.000000 0.288354 0.798883 0.527862
1.67999995 12.00000000 -0.98000002 64 194 126 0.000000 0.000000 0.000000 0.000000 0.000000 0.000000 82.000000 -0.014613 0.891390 0.453001
1.64999998 11.96000004 -0.97000003 64 194 126 0.000000 0.000000 0.000000 0.000000 0.000000 0.000000 82.000000 0.016181 0.995656 0.091691
1.70000005 12.15999985 -1.24000001 64 194 126 0.000000 0.000000 0.000000 0.000000 0.000000 0.000000 57.000000 -0.217918 0.378796 0.899458
1.55999994 12.50000000 -1.17999995 64 194 126 0.000000 0.000000 0.000000 0.000000 0.000000 0.000000 57.000000 -0.391688 0.265627 0.880922
1.55999994 12.48999977 -1.19000006 64 194 126 0.000000 0.000000 0.000000 0.000000 0.000000 0.000000 57.000000 -0.468618 0.323457 0.822054
1.52999997 12.55000019 -1.14999998 64 194 126 0.000000 0.000000 0.000000 0.000000 0.000000 0.000000 57.000000 -0.314667 0.018805 0.949016
1.53999996 12.53999996 -1.15999997 64 194 126 0.000000 0.000000 0.000000 0.000000 0.000000 0.000000 57.000000 -0.404246 -0.372788 0.835233
1.53999996 12.52000046 -1.15999997 64 194 126 0.000000 0.000000 0.000000 0.000000 0.000000 0.000000 57.000000 -0.267824 0.375552 0.887260
1.53999996 12.50000000 -1.15999997 64 194 126 0.000000 0.000000 0.000000 0.000000 0.000000 0.000000 57.000000 -0.416497 -0.220847 0.881905
1.50999999 12.56000042 -1.14999998 64 194 126 0.000000 0.000000 0.000000 0.000000 0.000000 0.000000 57.000000 -0.266915 0.289999 0.919052
1.50000000 12.28999996 -1.19000006 64 194 126 0.000000 0.000000 0.000000 0.000000 0.000000 0.000000 57.000000 -0.492030 0.555843 0.670034
1.47000003 12.53999996 -1.14999998 64 194 126 0.000000 0.000000 0.000000 0.000000 0.000000 0.000000 57.000000 -0.000991 0.014865 0.999889
1.47000003 12.55000019 -1.15999997 64 194 126 0.000000 0.000000 0.000000 0.000000 0.000000 0.000000 57.000000 -0.006035 0.264338 0.964411
1.59000003 12.56000042 -1.26999998 64 194 126 0.000000 0.000000 0.000000 0.000000 0.000000 0.000000 57.000000 -0.277660 -0.194776 0.940727
1.57000005 12.56000042 -1.26999998 64 194 126 0.000000 0.000000 0.000000 0.000000 0.000000 0.000000 57.000000 -0.430746 -0.358166 0.828357
1.52999997 12.52999973 -1.25999999 64 194 126 0.000000 0.000000 0.000000 0.000000 0.000000 0.000000 57.000000 0.003232 0.106647 0.994292
1.50999999 12.52999973 -1.25999999 64 194 126 0.000000 0.000000 0.000000 0.000000 0.000000 0.000000 57.000000 -0.392885 0.238696 0.888068
1.49000001 12.50000000 -1.35000002 64 194 126 0.000000 0.000000 0.000000 0.000000 0.000000 0.000000 57.000000 -0.106517 0.101835 0.989082
1.49000001 12.43999958 -1.28999996 64 194 126 0.000000 0.000000 0.000000 0.000000 0.000000 0.000000 57.000000 -0.155276 0.245522 0.956874
1.52999997 12.43000031 -1.27999997 64 194 126 0.000000 0.000000 0.000000 0.000000 0.000000 0.000000 57.000000 0.162739 0.132924 0.977674
1.49000001 12.47999954 -1.27999997 64 194 126 0.000000 0.000000 0.000000 0.000000 0.000000 0.000000 57.000000 -0.237112 0.162932 0.957722
1.51999998 12.36999989 -1.27999997 64 194 126 0.000000 0.000000 0.000000 0.000000 0.000000 0.000000 57.000000 0.003226 0.104292 0.994541
1.50999999 12.38000011 -1.28999996 64 194 126 0.000000 0.000000 0.000000 0.000000 0.000000 0.000000 57.000000 0.193517 0.447601 0.873043
1.52999997 12.28999996 -1.25999999 64 194 126 0.000000 0.000000 0.000000 0.000000 0.000000 0.000000 57.000000 -0.366632 0.465895 0.805309
1.48000002 12.28999996 -1.25000000 64 194 126 0.000000 0.000000 0.000000 0.000000 0.000000 0.000000 57.000000 -0.139497 0.393127 0.908841
1.48000002 12.23999977 -1.23000002 64 194 126 0.000000 0.000000 0.000000 0.000000 0.000000 0.000000 57.000000 -0.266260 0.469418 0.841874
1.50000000 12.26000023 -1.24000001 64 194 126 0.000000 0.000000 0.000000 0.000000 0.000000 0.000000 57.000000 -0.137610 0.566715 0.812341
1.50000000 12.22999954 -1.30999994 64 194 126 0.000000 0.000000 0.000000 0.000000 0.000000 0.000000 57.000000 -0.478826 0.363523 0.799110
1.42999995 12.56000042 -1.26999998 64 194 126 0.000000 0.000000 0.000000 0.000000 0.000000 0.000000 57.000000 -0.096637 -0.174926 0.979828
1.42999995 12.51000023 -1.28999996 64 194 126 0.000000 0.000000 0.000000 0.000000 0.000000 0.000000 57.000000 -0.013350 -0.037996 0.999189
1.46000004 12.51000023 -1.26999998 64 194 126 0.000000 0.000000 0.000000 0.000000 0.000000 0.000000 57.000000 -0.159650 0.334572 0.928748
1.46000004 12.52000046 -1.27999997 64 194 126 0.000000 0.000000 0.000000 0.000000 0.000000 0.000000 57.000000 0.139120 -0.068976 0.987870
1.44000006 12.52000046 -1.27999997 64 194 126 0.000000 0.000000 0.000000 0.000000 0.000000 0.000000 57.000000 -0.104467 -0.256654 0.960841
1.45000005 12.50000000 -1.26999998 64 194 126 0.000000 0.000000 0.000000 0.000000 0.000000 0.000000 57.000000 -0.207048 0.106661 0.972499
1.46000004 12.51000023 -1.27999997 64 194 126 0.000000 0.000000 0.000000 0.000000 0.000000 0.000000 57.000000 -0.089937 0.193426 0.976984
1.47000003 12.50000000 -1.26999998 64 194 126 0.000000 0.000000 0.000000 0.000000 0.000000 0.000000 57.000000 -0.119616 -0.313151 0.942140
1.47000003 12.51000023 -1.26999998 64 194 126 0.000000 0.000000 0.000000 0.000000 0.000000 0.000000 57.000000 -0.266602 0.244032 0.932401
1.39999998 12.56000042 -1.27999997 64 194 126 0.000000 0.000000 0.000000 0.000000 0.000000 0.000000 57.000000 -0.093237 0.009645 0.995597
1.41999996 12.48999977 -1.32000005 64 194 126 0.000000 0.000000 0.000000 0.000000 0.000000 0.000000 57.000000 -0.009061 -0.023155 0.999691
1.47000003 12.47000027 -1.27999997 64 194 126 0.000000 0.000000 0.000000 0.000000 0.000000 0.000000 57.000000 -0.379826 0.355021 0.854221
1.44000006 12.46000004 -1.29999995 64 194 126 0.000000 0.000000 0.000000 0.000000 0.000000 0.000000 57.000000 -0.573212 0.023481 0.819071
1.42999995 12.39999962 -1.25000000 64 194 126 0.000000 0.000000 0.000000 0.000000 0.000000 0.000000 57.000000 -0.159720 0.479160 0.863073
1.46000004 12.40999985 -1.29999995 64 194 126 0.000000 0.000000 0.000000 0.000000 0.000000 0.000000 57.000000 -0.146349 0.066735 0.986979
1.46000004 12.39999962 -1.30999994 64 194 126 0.000000 0.000000 0.000000 0.000000 0.000000 0.000000 57.000000 0.022742 0.456171 0.889601
1.39999998 12.39999962 -1.25999999 64 194 126 0.000000 0.000000 0.000000 0.000000 0.000000 0.000000 57.000000 -0.364430 0.064935 0.928964
1.39999998 12.43999958 -1.29999995 64 194 126 0.000000 0.000000 0.000000 0.000000 0.000000 0.000000 57.000000 -0.090389 -0.056912 0.994279
1.41999996 12.40999985 -1.28999996 64 194 126 0.000000 0.000000 0.000000 0.000000 0.000000 0.000000 57.000000 -0.013042 0.228822 0.973381
1.41999996 12.39999962 -1.28999996 64 194 126 0.000000 0.000000 0.000000 0.000000 0.000000 0.000000 57.000000 0.182912 0.180318 0.966452
1.38999999 12.43000031 -1.28999996 64 194 126 0.000000 0.000000 0.000000 0.000000 0.000000 0.000000 57.000000 0.022663 0.085257 0.996101
1.40999997 12.39999962 -1.28999996 64 194 126 0.000000 0.000000 0.000000 0.000000 0.000000 0.000000 57.000000 -0.069447 0.258848 0.963418
1.38000000 12.56000042 -1.27999997 64 194 126 0.000000 0.000000 0.000000 0.000000 0.000000 0.000000 57.000000 -0.328237 -0.171801 0.928841
1.36000001 12.52000046 -1.30999994 64 194 126 0.000000 0.000000 0.000000 0.000000 0.000000 0.000000 57.000000 -0.030073 -0.119179 0.992417
1.33000004 12.53999996 -1.25000000 64 194 126 0.000000 0.000000 0.000000 0.000000 0.000000 0.000000 57.000000 -0.050111 0.230999 0.971663
1.34000003 12.55000019 -1.29999995 64 194 126 0.000000 0.000000 0.000000 0.000000 0.000000 0.000000 57.000000 -0.023108 -0.254186 0.966879
1.34000003 12.55000019 -1.29999995 64 194 126 0.000000 0.000000 0.000000 0.000000 0.000000 0.000000 57.000000 -0.023108 -0.254186 0.966879
1.32000005 12.52999973 -1.29999995 64 194 126 0.000000 0.000000 0.000000 0.000000 0.000000 0.000000 57.000000 -0.511587 0.305685 0.803017
1.32000005 12.52999973 -1.29999995 64 194 126 0.000000 0.000000 0.000000 0.000000 0.000000 0.000000 57.000000 -0.511587 0.305685 0.803017
1.35000002 12.50000000 -1.32000005 64 194 126 0.000000 0.000000 0.000000 0.000000 0.000000 0.000000 57.000000 -0.407932 -0.006475 0.912990
1.30999994 12.55000019 -1.34000003 64 194 126 0.000000 0.000000 0.000000 0.000000 0.000000 0.000000 57.000000 -0.235209 -0.297932 0.925156
1.37000000 12.47999954 -1.26999998 64 194 126 0.000000 0.000000 0.000000 0.000000 0.000000 0.000000 57.000000 -0.411795 0.043978 0.910215
1.37000000 12.46000004 -1.27999997 64 194 126 0.000000 0.000000 0.000000 0.000000 0.000000 0.000000 57.000000 -0.421606 0.001297 0.906778
1.37000000 12.47999954 -1.26999998 64 194 126 0.000000 0.000000 0.000000 0.000000 0.000000 0.000000 57.000000 -0.411795 0.043978 0.910215
1.35000002 12.42000008 -1.28999996 64 194 126 0.000000 0.000000 0.000000 0.000000 0.000000 0.000000 57.000000 0.064776 0.064776 0.995795
1.34000003 12.46000004 -1.28999996 64 194 126 0.000000 0.000000 0.000000 0.000000 0.000000 0.000000 57.000000 -0.401370 0.274143 0.873927
1.34000003 12.47999954 -1.30999994 64 194 126 0.000000 0.000000 0.000000 0.000000 0.000000 0.000000 57.000000 0.044094 0.418227 0.907272
1.34000003 12.46000004 -1.28999996 64 194 126 0.000000 0.000000 0.000000 0.000000 0.000000 0.000000 57.000000 -0.401370 0.274143 0.873927
1.34000003 12.44999981 -1.28999996 64 194 126 0.000000 0.000000 0.000000 0.000000 0.000000 0.000000 57.000000 -0.112186 0.339260 0.933979
