//X Y Z R G B PointSourceId ScanDirectionFlag NumberOfReturns ReturnNumber GpsTime Intensity Classification Nx Ny Nz
19.52000046 -0.87000000 -1.37000000 118 53 170 0.000000 0.000000 0.000000 0.000000 132.978989 0.000000 137.000000 -0.286389 0.840590 0.459770
19.53000069 -0.87000000 -1.38000000 118 53 170 0.000000 0.000000 0.000000 0.000000 132.978989 0.000000 137.000000 -0.073790 0.878517 0.471977
19.54999924 -0.83999997 -1.38000000 118 53 170 0.000000 0.000000 0.000000 0.000000 132.978989 0.000000 137.000000 -0.390105 0.706140 0.590919
19.53000069 -0.86000001 -1.38999999 118 53 170 0.000000 0.000000 0.000000 0.000000 132.978989 0.000000 137.000000 0.023849 0.747738 0.663565
19.53000069 -0.87000000 -1.38999999 118 53 170 0.000000 0.000000 0.000000 0.000000 132.978989 0.000000 137.000000 -0.064779 0.686659 0.724087
19.52000046 -0.87000000 -1.38999999 118 53 170 0.000000 0.000000 0.000000 0.000000 132.978989 0.000000 137.000000 -0.244236 0.794933 0.555364
19.59000015 -0.94000000 -1.30999994 118 53 170 0.000000 0.000000 0.000000 0.000000 132.978989 0.000000 137.000000 0.169004 0.735397 0.656224
19.57999992 -0.93000001 -1.32000005 118 53 170 0.000000 0.000000 0.000000 0.000000 132.978989 0.000000 137.000000 -0.213234 0.869337 0.445852
19.55999947 -0.93000001 -1.36000001 118 53 170 0.000000 0.000000 0.000000 0.000000 132.978989 0.000000 137.000000 0.182246 0.469690 0.863816
19.55999947 -0.92000002 -1.37000000 118 53 170 0.000000 0.000000 0.000000 0.000000 132.978989 0.000000 137.000000 -0.138113 0.916566 0.375276
19.61000061 -0.89999998 -1.39999998 118 53 170 0.000000 0.000000 0.000000 0.000000 132.978989 0.000000 137.000000 -0.316692 0.353058 0.880373
19.61000061 -0.91000003 -1.39999998 118 53 170 0.000000 0.000000 0.000000 0.000000 132.978989 0.000000 137.000000 -0.355037 0.652809 0.669170
19.61000061 -0.88000000 -1.39999998 118 53 170 0.000000 0.000000 0.000000 0.000000 132.978989 0.000000 137.000000 -0.126230 0.243350 0.961689
19.65999985 -0.87000000 -1.50999999 118 53 170 0.000000 0.000000 0.000000 0.000000 132.978989 0.000000 137.000000 -0.110079 0.484633 0.867764
19.64999962 -0.87000000 -1.50999999 118 53 170 0.000000 0.000000 0.000000 0.000000 132.978989 0.000000 137.000000 -0.320438 0.267763 0.908638
19.64999962 -0.87000000 -1.50000000 118 53 170 0.000000 0.000000 0.000000 0.000000 132.978989 0.000000 137.000000 -0.024699 0.198770 0.979735
19.67000008 -0.86000001 -1.50000000 118 53 170 0.000000 0.000000 0.000000 0.000000 132.978989 0.000000 137.000000 0.019224 0.362688 0.931712
19.65999985 -0.85000002 -1.53999996 118 53 170 0.000000 0.000000 0.000000 0.000000 132.978989 0.000000 137.000000 -0.154140 0.028544 0.987637
19.65999985 -0.88000000 -1.50000000 118 53 170 0.000000 0.000000 0.000000 0.000000 132.978989 0.000000 137.000000 -0.227443 0.380050 0.896566
19.67000008 -0.88999999 -1.50000000 118 53 170 0.000000 0.000000 0.000000 0.000000 132.978989 0.000000 137.000000 0.013026 0.223803 0.974548
19.65999985 -0.89999998 -1.49000001 118 53 170 0.000000 0.000000 0.000000 0.000000 132.978989 0.000000 137.000000 -0.233548 0.310919 0.921295
19.65999985 -0.89999998 -1.49000001 118 53 170 0.000000 0.000000 0.000000 0.000000 132.978989 0.000000 137.000000 -0.233548 0.310919 0.921295
19.64999962 -0.88999999 -1.50000000 118 53 170 0.000000 0.000000 0.000000 0.000000 132.978989 0.000000 137.000000 -0.433076 0.388330 0.813416
19.61000061 -0.88999999 -1.49000001 118 53 170 0.000000 0.000000 0.000000 0.000000 132.978989 0.000000 137.000000 0.084201 0.232497 0.968946
19.63999939 -0.89999998 -1.50000000 118 53 170 0.000000 0.000000 0.000000 0.000000 132.978989 0.000000 137.000000 0.140922 0.326993 0.934461
19.63999939 -0.89999998 -1.50000000 118 53 170 0.000000 0.000000 0.000000 0.000000 132.978989 0.000000 137.000000 0.140922 0.326993 0.934461
19.63999939 -0.91000003 -1.50000000 118 53 170 0.000000 0.000000 0.000000 0.000000 132.978989 0.000000 137.000000 -0.011616 0.391087 0.920280
19.67000008 -0.95999998 -1.46000004 118 53 170 0.000000 0.000000 0.000000 0.000000 132.978989 0.000000 137.000000 0.095068 0.753231 0.650850
19.65999985 -0.94000000 -1.48000002 118 53 170 0.000000 0.000000 0.000000 0.000000 132.978989 0.000000 137.000000 -0.371025 0.447460 0.813708
19.67000008 -0.93000001 -1.47000003 118 53 170 0.000000 0.000000 0.000000 0.000000 132.978989 0.000000 137.000000 -0.105615 0.324868 0.939844
19.67000008 -0.94000000 -1.47000003 118 53 170 0.000000 0.000000 0.000000 0.000000 132.978989 0.000000 137.000000 -0.049048 0.385752 0.921298
19.67000008 -0.95999998 -1.47000003 118 53 170 0.000000 0.000000 0.000000 0.000000 132.978989 0.000000 137.000000 0.046107 0.180880 0.982424
19.68000031 -0.98000002 -1.48000002 118 53 170 0.000000 0.000000 0.000000 0.000000 132.978989 0.000000 137.000000 -0.237929 0.348866 0.906467
19.64999962 -0.97000003 -1.48000002 118 53 170 0.000000 0.000000 0.000000 0.000000 132.978989 0.000000 137.000000 -0.020735 0.262235 0.964781
19.68000031 -1.00000000 -1.46000004 118 53 170 0.000000 0.000000 0.000000 0.000000 132.978989 0.000000 137.000000 0.331684 -0.577616 -0.745885
19.68000031 -0.98000002 -1.48000002 118 53 170 0.000000 0.000000 0.000000 0.000000 132.978989 0.000000 137.000000 -0.237929 0.348866 0.906467
19.63999939 -0.95999998 -1.48000002 118 53 170 0.000000 0.000000 0.000000 0.000000 132.978989 0.000000 137.000000 0.064702 0.352557 0.933551
19.63999939 -0.93000001 -1.48000002 118 53 170 0.000000 0.000000 0.000000 0.000000 132.978989 0.000000 137.000000 0.094031 0.216898 0.971655
19.62000084 -0.94000000 -1.48000002 118 53 170 0.000000 0.000000 0.000000 0.000000 132.978989 0.000000 137.000000 -0.072729 0.571848 0.817129
19.61000061 -0.94000000 -1.48000002 118 53 170 0.000000 0.000000 0.000000 0.000000 132.978989 0.000000 137.000000 0.298254 0.437335 0.848400
19.63999939 -0.95999998 -1.48000002 118 53 170 0.000000 0.000000 0.000000 0.000000 132.978989 0.000000 137.000000 0.064702 0.352557 0.933551
19.62000084 -0.94000000 -1.48000002 118 53 170 0.000000 0.000000 0.000000 0.000000 132.978989 0.000000 137.000000 -0.072729 0.571848 0.817129
19.63999939 -1.00000000 -1.46000004 118 53 170 0.000000 0.000000 0.000000 0.000000 132.978989 0.000000 137.000000 -0.268922 0.682648 0.679465
19.63999939 -0.98000002 -1.47000003 118 53 170 0.000000 0.000000 0.000000 0.000000 132.978989 0.000000 137.000000 -0.037531 0.231239 0.972173
19.63999939 -0.97000003 -1.47000003 118 53 170 0.000000 0.000000 0.000000 0.000000 132.978989 0.000000 137.000000 -0.141454 0.427218 0.893015
19.64999962 -0.94000000 -1.51999998 118 53 170 0.000000 0.000000 0.000000 0.000000 132.978989 0.000000 137.000000 -0.422335 0.198659 0.884402
19.61000061 -0.94000000 -1.49000001 118 53 170 0.000000 0.000000 0.000000 0.000000 132.978989 0.000000 137.000000 0.077026 0.690323 0.719389
19.63999939 -0.92000002 -1.49000001 118 53 170 0.000000 0.000000 0.000000 0.000000 132.978989 0.000000 137.000000 -0.071535 0.500748 0.862632
19.60000038 -0.91000003 -1.39999998 118 53 170 0.000000 0.000000 0.000000 0.000000 132.978989 0.000000 137.000000 -0.270122 0.810365 0.519945
19.53000069 -0.83999997 -1.47000003 118 53 170 0.000000 0.000000 0.000000 0.000000 132.978989 0.000000 137.000000 -0.469675 0.512826 0.718620
19.54999924 -0.88000000 -1.39999998 118 53 170 0.000000 0.000000 0.000000 0.000000 132.978989 0.000000 137.000000 -0.100959 0.405218 0.908629
19.54999924 -0.88000000 -1.48000002 118 53 170 0.000000 0.000000 0.000000 0.000000 132.978989 0.000000 137.000000 -0.066692 0.821586 0.566171
19.59000015 -0.86000001 -1.51999998 118 53 170 0.000000 0.000000 0.000000 0.000000 132.978989 0.000000 137.000000 -0.152694 0.360021 0.920364
19.60000038 -0.86000001 -1.51999998 118 53 170 0.000000 0.000000 0.000000 0.000000 132.978989 0.000000 137.000000 0.133840 0.306886 0.942289
19.57999992 -0.86000001 -1.51999998 118 53 170 0.000000 0.000000 0.000000 0.000000 132.978989 0.000000 137.000000 -0.231035 0.094686 0.968327
19.55999947 -0.91000003 -1.49000001 118 53 170 0.000000 0.000000 0.000000 0.000000 132.978989 0.000000 137.000000 -0.020994 0.720809 0.692816
19.59000015 -0.88999999 -1.50000000 118 53 170 0.000000 0.000000 0.000000 0.000000 132.978989 0.000000 137.000000 -0.417443 0.324333 0.848852
19.56999969 -0.89999998 -1.50000000 118 53 170 0.000000 0.000000 0.000000 0.000000 132.978989 0.000000 137.000000 0.229666 0.479105 0.847179
19.60000038 -0.88000000 -1.50999999 118 53 170 0.000000 0.000000 0.000000 0.000000 132.978989 0.000000 137.000000 -0.283711 0.671610 0.684433
19.56999969 -0.88000000 -1.50999999 118 53 170 0.000000 0.000000 0.000000 0.000000 132.978989 0.000000 137.000000 0.170297 0.387820 0.905867
19.57999992 -0.88000000 -1.50999999 118 53 170 0.000000 0.000000 0.000000 0.000000 132.978989 0.000000 137.000000 -0.124225 0.392215 0.911447
19.59000015 -0.88999999 -1.51999998 118 53 170 0.000000 0.000000 0.000000 0.000000 132.978989 0.000000 137.000000 -0.198747 0.535555 0.820780
19.54999924 -0.89999998 -1.51999998 118 53 170 0.000000 0.000000 0.000000 0.000000 132.978989 0.000000 137.000000 0.133145 0.262336 0.955747
19.54999924 -0.91000003 -1.51999998 118 53 170 0.000000 0.000000 0.000000 0.000000 132.978989 0.000000 137.000000 -0.061652 0.199461 0.977964
19.54000092 -0.91000003 -1.51999998 118 53 170 0.000000 0.000000 0.000000 0.000000 132.978989 0.000000 137.000000 -0.139709 0.459456 0.877144
19.55999947 -0.92000002 -1.42999995 118 53 170 0.000000 0.000000 0.000000 0.000000 132.978989 0.000000 137.000000 -0.119154 0.901368 0.416339
19.60000038 -0.94000000 -1.48000002 118 53 170 0.000000 0.000000 0.000000 0.000000 132.978989 0.000000 137.000000 0.103449 0.802819 0.587180
19.60000038 -0.94000000 -1.48000002 118 53 170 0.000000 0.000000 0.000000 0.000000 132.978989 0.000000 137.000000 0.103449 0.802819 0.587180
19.54999924 -0.92000002 -1.42999995 118 53 170 0.000000 0.000000 0.000000 0.000000 132.978989 0.000000 137.000000 0.108011 0.717610 0.688018
19.53000069 -0.94999999 -1.47000003 118 53 170 0.000000 0.000000 0.000000 0.000000 132.978989 0.000000 137.000000 -0.281137 0.802576 0.526150
19.53000069 -0.93000001 -1.48000002 118 53 170 0.000000 0.000000 0.000000 0.000000 132.978989 0.000000 137.000000 -0.105166 0.372861 0.921908
19.60000038 -0.92000002 -1.50000000 118 53 170 0.000000 0.000000 0.000000 0.000000 132.978989 0.000000 137.000000 -0.195750 0.316862 0.928052
19.53000069 -0.95999998 -1.50999999 118 53 170 0.000000 0.000000 0.000000 0.000000 132.978989 0.000000 137.000000 0.260550 0.809733 0.525781
19.54999924 -0.93000001 -1.49000001 118 53 170 0.000000 0.000000 0.000000 0.000000 132.978989 0.000000 137.000000 -0.101259 0.417520 0.903008
19.68000031 -1.00999999 -1.45000005 118 53 170 0.000000 0.000000 0.000000 0.000000 132.978989 0.000000 137.000000 -0.098958 0.364654 0.925870
19.67000008 -1.03999996 -1.47000003 118 53 170 0.000000 0.000000 0.000000 0.000000 132.978989 0.000000 137.000000 -0.142380 0.846938 0.512273
19.51000023 -0.82999998 -1.45000005 118 53 170 0.000000 0.000000 0.000000 0.000000 132.978989 0.000000 137.000000 -0.276262 0.643547 0.713811
19.51000023 -0.86000001 -1.42999995 118 53 170 0.000000 0.000000 0.000000 0.000000 132.978989 0.000000 137.000000 -0.205356 0.858899 0.469172
19.48999977 -0.89999998 -1.40999997 118 53 170 0.000000 0.000000 0.000000 0.000000 132.978989 0.000000 137.000000 0.230222 -0.659344 -0.715725
19.50000000 -0.88000000 -1.40999997 118 53 170 0.000000 0.000000 0.000000 0.000000 132.978989 0.000000 137.000000 0.313996 0.732657 0.603838
19.48999977 -0.89999998 -1.40999997 118 53 170 0.000000 0.000000 0.000000 0.000000 132.978989 0.000000 137.000000 0.230222 -0.659344 -0.715725
19.48999977 -0.89999998 -1.40999997 118 53 170 0.000000 0.000000 0.000000 0.000000 132.978989 0.000000 137.000000 0.230222 -0.659344 -0.715725
19.79999924 -1.22000003 -1.38000000 118 53 170 0.000000 0.000000 0.000000 0.000000 132.978989 0.000000 145.000000 0.006877 0.601086 0.799155
19.76000023 -1.17999995 -1.37000000 118 53 170 0.000000 0.000000 0.000000 0.000000 132.978989 0.000000 145.000000 -0.014760 0.481712 0.876205
19.70999908 -1.24000001 -1.36000001 118 53 170 0.000000 0.000000 0.000000 0.000000 132.978989 0.000000 145.000000 0.057672 0.552803 0.831314
19.69000053 -1.32000005 -1.38000000 118 53 170 0.000000 0.000000 0.000000 0.000000 132.978989 0.000000 145.000000 0.097943 0.615432 0.782081
19.70999908 -1.30999994 -1.38999999 118 53 170 0.000000 0.000000 0.000000 0.000000 132.978989 0.000000 145.000000 0.212249 0.894374 0.393759
19.84000015 -1.21000004 -1.42999995 118 53 170 0.000000 0.000000 0.000000 0.000000 132.978989 0.000000 145.000000 0.191400 0.592576 0.782445
19.84000015 -1.23000002 -1.46000004 118 53 170 0.000000 0.000000 0.000000 0.000000 132.978989 0.000000 145.000000 0.153260 0.471455 0.868471
19.78000069 -1.22000003 -1.40999997 118 53 170 0.000000 0.000000 0.000000 0.000000 132.978989 0.000000 145.000000 0.244283 0.698176 0.672960
19.80999947 -1.23000002 -1.41999996 118 53 170 0.000000 0.000000 0.000000 0.000000 132.978989 0.000000 145.000000 -0.222440 0.617542 0.754428
19.80999947 -1.23000002 -1.44000006 118 53 170 0.000000 0.000000 0.000000 0.000000 132.978989 0.000000 145.000000 0.237031 0.807145 0.540679
19.78000069 -1.25000000 -1.45000005 118 53 170 0.000000 0.000000 0.000000 0.000000 132.978989 0.000000 145.000000 0.146088 0.875079 0.461405
19.85000038 -1.28999996 -1.46000004 118 53 170 0.000000 0.000000 0.000000 0.000000 132.978989 0.000000 145.000000 0.108698 0.830450 0.546387
19.85000038 -1.27999997 -1.47000003 118 53 170 0.000000 0.000000 0.000000 0.000000 132.978989 0.000000 145.000000 0.151595 0.510712 0.846281
19.80999947 -1.29999995 -1.45000005 118 53 170 0.000000 0.000000 0.000000 0.000000 132.978989 0.000000 145.000000 -0.149169 0.902117 0.404887
19.76000023 -1.21000004 -1.41999996 118 53 170 0.000000 0.000000 0.000000 0.000000 132.978989 0.000000 145.000000 0.068126 0.485223 0.871733
19.72999954 -1.19000006 -1.41999996 118 53 170 0.000000 0.000000 0.000000 0.000000 132.978989 0.000000 145.000000 0.138734 0.500904 0.854311
19.73999977 -1.24000001 -1.40999997 118 53 170 0.000000 0.000000 0.000000 0.000000 132.978989 0.000000 145.000000 0.155891 -0.752213 -0.640214
19.76000023 -1.25000000 -1.46000004 118 53 170 0.000000 0.000000 0.000000 0.000000 132.978989 0.000000 145.000000 0.230174 0.842954 0.486261
19.76000023 -1.24000001 -1.46000004 118 53 170 0.000000 0.000000 0.000000 0.000000 132.978989 0.000000 145.000000 -0.129998 0.912785 0.387200
19.70000076 -1.25000000 -1.39999998 118 53 170 0.000000 0.000000 0.000000 0.000000 132.978989 0.000000 145.000000 0.177730 -0.596989 -0.782314
19.69000053 -1.24000001 -1.44000006 118 53 170 0.000000 0.000000 0.000000 0.000000 132.978989 0.000000 145.000000 -0.189351 0.700445 0.688130
19.70000076 -1.25000000 -1.39999998 118 53 170 0.000000 0.000000 0.000000 0.000000 132.978989 0.000000 145.000000 0.177730 -0.596989 -0.782314
19.73999977 -1.25999999 -1.50000000 118 53 170 0.000000 0.000000 0.000000 0.000000 132.978989 0.000000 145.000000 0.006717 0.503776 0.863808
19.72999954 -1.30999994 -1.40999997 118 53 170 0.000000 0.000000 0.000000 0.000000 132.978989 0.000000 145.000000 -0.089315 0.701346 0.707203
19.72999954 -1.30999994 -1.39999998 118 53 170 0.000000 0.000000 0.000000 0.000000 132.978989 0.000000 145.000000 -0.057672 0.831314 0.552803
19.70000076 -1.36000001 -1.39999998 118 53 170 0.000000 0.000000 0.000000 0.000000 132.978989 0.000000 145.000000 0.544127 0.719439 0.431663
19.70999908 -1.36000001 -1.40999997 118 53 170 0.000000 0.000000 0.000000 0.000000 132.978989 0.000000 145.000000 0.004126 0.790824 0.612029
19.70999908 -1.36000001 -1.40999997 118 53 170 0.000000 0.000000 0.000000 0.000000 132.978989 0.000000 145.000000 0.004126 0.790824 0.612029
19.69000053 -1.39999998 -1.42999995 118 53 170 0.000000 0.000000 0.000000 0.000000 132.978989 0.000000 145.000000 0.315047 0.832289 0.456113
19.65999985 -1.19000006 -1.36000001 118 53 170 0.000000 0.000000 0.000000 0.000000 132.978989 0.000000 145.000000 0.099240 0.971042 0.217322
19.65999985 -1.23000002 -1.33000004 118 53 170 0.000000 0.000000 0.000000 0.000000 132.978989 0.000000 145.000000 0.001374 0.773712 0.633537
19.63999939 -1.19000006 -1.38000000 118 53 170 0.000000 0.000000 0.000000 0.000000 132.978989 0.000000 145.000000 0.387701 0.664865 0.638469
19.63999939 -1.19000006 -1.36000001 118 53 170 0.000000 0.000000 0.000000 0.000000 132.978989 0.000000 145.000000 0.316917 0.744836 0.587182
19.62000084 -1.19000006 -1.36000001 118 53 170 0.000000 0.000000 0.000000 0.000000 132.978989 0.000000 145.000000 0.132482 0.605846 0.784474
19.64999962 -1.29999995 -1.37000000 118 53 170 0.000000 0.000000 0.000000 0.000000 132.978989 0.000000 145.000000 0.135750 0.965762 0.221078
19.63999939 -1.29999995 -1.37000000 118 53 170 0.000000 0.000000 0.000000 0.000000 132.978989 0.000000 145.000000 0.513842 0.618295 0.594709
19.62000084 -1.30999994 -1.38999999 118 53 170 0.000000 0.000000 0.000000 0.000000 132.978989 0.000000 145.000000 0.087671 -0.826406 -0.556207
19.68000031 -1.25000000 -1.39999998 118 53 170 0.000000 0.000000 0.000000 0.000000 132.978989 0.000000 145.000000 0.133204 0.677996 0.722896
19.65999985 -1.35000002 -1.42999995 118 53 170 0.000000 0.000000 0.000000 0.000000 132.978989 0.000000 145.000000 0.452707 0.599712 0.659850
20.54000092 -1.53999996 -1.57000005 118 53 170 0.000000 0.000000 0.000000 0.000000 132.978989 0.000000 143.000000 -0.265122 0.649312 0.712814
20.54000092 -1.53999996 -1.57000005 118 53 170 0.000000 0.000000 0.000000 0.000000 132.978989 0.000000 143.000000 -0.265122 0.649312 0.712814
20.69000053 -0.31999999 -0.89999998 118 53 170 116.000000 1.000000 4.000000 4.000000 0.000000 95.000000 137.000000 0.152283 0.985710 -0.072010
20.68000031 -0.31999999 -1.00000000 118 53 170 116.000000 1.000000 4.000000 4.000000 0.000000 95.000000 137.000000 0.690086 0.716571 0.101526
20.69000053 -0.33000001 -0.99000001 118 53 170 116.000000 1.000000 4.000000 4.000000 0.000000 95.000000 137.000000 0.322473 0.940658 0.105707
20.69000053 -0.33000001 -0.99000001 118 53 170 116.000000 1.000000 4.000000 4.000000 0.000000 95.000000 137.000000 0.322473 0.940658 0.105707
20.64999962 -0.34999999 -1.01999998 118 53 170 116.000000 1.000000 4.000000 4.000000 0.000000 95.000000 137.000000 0.397545 0.864161 -0.308519
20.64999962 -0.34000000 -1.01999998 118 53 170 116.000000 1.000000 4.000000 4.000000 0.000000 95.000000 137.000000 0.664267 0.674011 -0.323201
20.55999947 -0.40000001 -1.03999996 118 53 170 116.000000 1.000000 4.000000 4.000000 0.000000 95.000000 137.000000 0.549973 0.725040 -0.414544
20.55999947 -0.40000001 -1.03999996 118 53 170 116.000000 1.000000 4.000000 4.000000 0.000000 95.000000 137.000000 0.549973 0.725040 -0.414544
20.60000038 -0.34999999 -1.07000005 118 53 170 116.000000 1.000000 4.000000 4.000000 0.000000 95.000000 137.000000 0.548075 0.741128 -0.387742
20.60000038 -0.36000001 -1.07000005 118 53 170 116.000000 1.000000 4.000000 4.000000 0.000000 95.000000 137.000000 0.702468 0.702468 -0.114355
20.55999947 -0.38000000 -1.07000005 118 53 170 116.000000 1.000000 4.000000 4.000000 0.000000 95.000000 137.000000 0.500586 0.814434 -0.293447
20.54999924 -0.40000001 -1.09000003 118 53 170 116.000000 1.000000 4.000000 4.000000 0.000000 95.000000 137.000000 0.701679 0.525009 -0.481675
20.55999947 -0.38000000 -1.10000002 118 53 170 116.000000 1.000000 4.000000 4.000000 0.000000 95.000000 137.000000 0.141910 0.970361 -0.195606
20.60000038 -0.41000000 -1.09000003 118 53 170 116.000000 1.000000 4.000000 4.000000 0.000000 95.000000 137.000000 0.338204 0.938285 0.072378
20.54000092 -0.38999999 -1.03999996 118 53 170 116.000000 1.000000 4.000000 4.000000 0.000000 95.000000 137.000000 0.707238 0.639575 -0.301261
20.45999908 -0.40000001 -1.10000002 118 53 170 116.000000 1.000000 4.000000 4.000000 0.000000 95.000000 137.000000 0.543815 0.644833 -0.537080
20.48999977 -0.44000000 -1.08000004 118 53 170 116.000000 1.000000 4.000000 4.000000 0.000000 95.000000 137.000000 0.687877 0.658880 -0.304470
20.48999977 -0.44000000 -1.08000004 118 53 170 116.000000 1.000000 4.000000 4.000000 0.000000 95.000000 137.000000 0.687877 0.658880 -0.304470
20.48999977 -0.41999999 -1.12000000 118 53 170 116.000000 1.000000 4.000000 4.000000 0.000000 95.000000 137.000000 0.466802 0.764901 -0.443872
20.48999977 -0.41999999 -1.11000001 118 53 170 116.000000 1.000000 4.000000 4.000000 0.000000 95.000000 137.000000 0.833509 0.537606 -0.127443
20.48999977 -0.41000000 -1.11000001 118 53 170 116.000000 1.000000 4.000000 4.000000 0.000000 95.000000 137.000000 0.756781 0.602592 -0.253309
20.50000000 -0.41999999 -1.10000002 118 53 170 116.000000 1.000000 4.000000 4.000000 0.000000 95.000000 137.000000 0.142762 0.939508 -0.311357
20.52000046 -0.43000001 -1.14999998 118 53 170 116.000000 1.000000 4.000000 4.000000 0.000000 95.000000 137.000000 0.174780 0.939959 -0.293135
21.86000061 -1.49000001 -0.06000000 118 53 170 0.000000 0.000000 0.000000 0.000000 132.978989 0.000000 137.000000 0.090344 0.995906 0.003189
21.87000084 -1.49000001 -0.10000000 118 53 170 0.000000 0.000000 0.000000 0.000000 132.978989 0.000000 137.000000 0.309332 0.941504 -0.133729
21.87999916 -1.54999995 -0.11000000 118 53 170 0.000000 0.000000 0.000000 0.000000 132.978989 0.000000 137.000000 0.569915 0.792321 -0.217772
21.88999939 -1.54999995 -0.18000001 118 53 170 0.000000 0.000000 0.000000 0.000000 132.978989 0.000000 137.000000 0.686778 0.726264 0.029615
21.87999916 -1.58000004 -0.15000001 118 53 170 0.000000 0.000000 0.000000 0.000000 132.978989 0.000000 137.000000 0.213888 0.953754 0.211198
21.86000061 -1.54999995 -0.17000000 118 53 170 0.000000 0.000000 0.000000 0.000000 132.978989 0.000000 137.000000 0.652521 0.742939 0.149191
21.89999962 -1.50000000 -0.27000001 118 53 170 0.000000 0.000000 0.000000 0.000000 132.978989 0.000000 137.000000 0.678474 0.531052 -0.507599
21.82999992 -1.45000005 -0.34000000 118 53 170 0.000000 0.000000 0.000000 0.000000 132.978989 0.000000 137.000000 0.676155 0.653345 -0.340521
21.82999992 -1.51999998 -0.50000000 118 53 170 0.000000 0.000000 0.000000 0.000000 132.978989 0.000000 137.000000 0.543883 0.658384 -0.520309
21.81999969 -1.49000001 -0.58999997 118 53 170 0.000000 0.000000 0.000000 0.000000 132.978989 0.000000 137.000000 0.817789 0.425633 -0.387374
21.80999947 -1.50999999 -0.60000002 118 53 170 0.000000 0.000000 0.000000 0.000000 132.978989 0.000000 137.000000 -0.209079 -0.614847 0.760427
21.79999924 -1.49000001 -0.70999998 118 53 170 0.000000 0.000000 0.000000 0.000000 132.978989 0.000000 137.000000 0.784615 0.035090 -0.618990
21.80999947 -1.49000001 -0.68000001 118 53 170 0.000000 0.000000 0.000000 0.000000 132.978989 0.000000 137.000000 -0.748906 -0.189149 0.635109
21.79999924 -1.50999999 -0.72000003 118 53 170 0.000000 0.000000 0.000000 0.000000 132.978989 0.000000 137.000000 -0.548528 -0.429211 0.717561
21.89999962 -1.52999997 -0.27000001 118 53 170 0.000000 0.000000 0.000000 0.000000 132.978989 0.000000 137.000000 0.744080 0.632235 -0.215923
21.89999962 -1.52999997 -0.27000001 118 53 170 0.000000 0.000000 0.000000 0.000000 132.978989 0.000000 137.000000 0.744080 0.632235 -0.215923
21.84000015 -1.55999994 -0.28000000 118 53 170 0.000000 0.000000 0.000000 0.000000 132.978989 0.000000 137.000000 0.540913 0.835169 -0.099528
21.84000015 -1.54999995 -0.25000000 118 53 170 0.000000 0.000000 0.000000 0.000000 132.978989 0.000000 137.000000 0.235235 0.963034 -0.131264
21.84000015 -1.54999995 -0.23999999 118 53 170 0.000000 0.000000 0.000000 0.000000 132.978989 0.000000 137.000000 0.470158 0.854146 -0.222229
21.84000015 -1.55999994 -0.28000000 118 53 170 0.000000 0.000000 0.000000 0.000000 132.978989 0.000000 137.000000 0.540913 0.835169 -0.099528
21.86000061 -1.57000005 -0.20000000 118 53 170 0.000000 0.000000 0.000000 0.000000 132.978989 0.000000 137.000000 0.274125 0.927479 -0.254240
21.84000015 -1.57000005 -0.27000001 118 53 170 0.000000 0.000000 0.000000 0.000000 132.978989 0.000000 137.000000 0.777918 0.619697 -0.104015
21.87999916 -1.55999994 -0.31999999 118 53 170 0.000000 0.000000 0.000000 0.000000 132.978989 0.000000 137.000000 -0.275415 -0.632022 0.724358
21.80999947 -1.52999997 -0.30000001 118 53 170 0.000000 0.000000 0.000000 0.000000 132.978989 0.000000 137.000000 0.520026 0.801378 -0.295577
21.80999947 -1.55999994 -0.31000000 118 53 170 0.000000 0.000000 0.000000 0.000000 132.978989 0.000000 137.000000 0.699421 0.573160 -0.426963
21.79999924 -1.52999997 -0.30000001 118 53 170 0.000000 0.000000 0.000000 0.000000 132.978989 0.000000 137.000000 0.633342 0.545519 -0.548896
21.82999992 -1.52999997 -0.34000000 118 53 170 0.000000 0.000000 0.000000 0.000000 132.978989 0.000000 137.000000 -0.538064 -0.568425 0.622400
21.81999969 -1.55999994 -0.33000001 118 53 170 0.000000 0.000000 0.000000 0.000000 132.978989 0.000000 137.000000 0.641578 0.677677 -0.359349
21.79999924 -1.53999996 -0.34999999 118 53 170 0.000000 0.000000 0.000000 0.000000 132.978989 0.000000 137.000000 0.581604 0.799892 -0.148017
21.78000069 -1.52999997 -0.34999999 118 53 170 0.000000 0.000000 0.000000 0.000000 132.978989 0.000000 137.000000 0.527188 0.560874 -0.638352
21.84000015 -1.52999997 -0.47999999 118 53 170 0.000000 0.000000 0.000000 0.000000 132.978989 0.000000 137.000000 -0.259238 -0.359971 0.896224
21.84000015 -1.52999997 -0.47999999 118 53 170 0.000000 0.000000 0.000000 0.000000 132.978989 0.000000 137.000000 -0.259238 -0.359971 0.896224
21.81999969 -1.55999994 -0.43000001 118 53 170 0.000000 0.000000 0.000000 0.000000 132.978989 0.000000 137.000000 0.771276 0.454939 -0.445155
21.80999947 -1.60000002 -0.44999999 118 53 170 0.000000 0.000000 0.000000 0.000000 132.978989 0.000000 137.000000 0.770285 0.148651 -0.620132
21.76000023 -1.54999995 -0.37000000 118 53 170 0.000000 0.000000 0.000000 0.000000 132.978989 0.000000 137.000000 0.647281 0.746863 -0.152390
21.77000046 -1.59000003 -0.44999999 118 53 170 0.000000 0.000000 0.000000 0.000000 132.978989 0.000000 137.000000 0.787878 0.393130 -0.474021
21.77000046 -1.57000005 -0.44999999 118 53 170 0.000000 0.000000 0.000000 0.000000 132.978989 0.000000 137.000000 -0.244278 -0.546126 0.801296
21.79000092 -1.59000003 -0.47999999 118 53 170 0.000000 0.000000 0.000000 0.000000 132.978989 0.000000 137.000000 0.823457 0.169491 -0.541472
21.80999947 -1.62000000 -0.47000000 118 53 170 0.000000 0.000000 0.000000 0.000000 132.978989 0.000000 137.000000 -0.655374 -0.185715 0.732116
21.79999924 -1.65999997 -0.52999997 118 53 170 0.000000 0.000000 0.000000 0.000000 132.978989 0.000000 137.000000 -0.211930 -0.467448 0.858241
21.73999977 -1.55999994 -0.41000000 118 53 170 0.000000 0.000000 0.000000 0.000000 132.978989 0.000000 137.000000 -0.358286 -0.600415 0.714936
21.68000031 -1.54999995 -0.43000001 118 53 170 0.000000 0.000000 0.000000 0.000000 132.978989 0.000000 137.000000 0.555234 0.531607 -0.639616
21.68000031 -1.57000005 -0.44999999 118 53 170 0.000000 0.000000 0.000000 0.000000 132.978989 0.000000 137.000000 0.668063 0.477187 -0.570951
21.72999954 -1.65999997 -0.49000001 118 53 170 0.000000 0.000000 0.000000 0.000000 132.978989 0.000000 137.000000 0.707807 0.153080 -0.689620
21.62000084 -1.54999995 -0.40000001 118 53 170 0.000000 0.000000 0.000000 0.000000 132.978989 0.000000 137.000000 -0.350980 -0.625234 0.697062
21.64999962 -1.55999994 -0.43000001 118 53 170 0.000000 0.000000 0.000000 0.000000 132.978989 0.000000 137.000000 0.598411 0.441724 -0.668420
21.63999939 -1.55999994 -0.44999999 118 53 170 0.000000 0.000000 0.000000 0.000000 132.978989 0.000000 137.000000 -0.268352 -0.633564 0.725661
21.62999916 -1.55999994 -0.44999999 118 53 170 0.000000 0.000000 0.000000 0.000000 132.978989 0.000000 137.000000 -0.307467 -0.546431 0.779023
21.63999939 -1.59000003 -0.43000001 118 53 170 0.000000 0.000000 0.000000 0.000000 132.978989 0.000000 137.000000 -0.300701 -0.542535 0.784369
21.65999985 -1.57000005 -0.43000001 118 53 170 0.000000 0.000000 0.000000 0.000000 132.978989 0.000000 137.000000 0.520785 0.514086 -0.681541
21.63999939 -1.58000004 -0.41999999 118 53 170 0.000000 0.000000 0.000000 0.000000 132.978989 0.000000 137.000000 0.669717 0.562293 -0.485083
21.61000061 -1.52999997 -0.44999999 118 53 170 0.000000 0.000000 0.000000 0.000000 132.978989 0.000000 137.000000 0.746216 0.523171 -0.411649
21.57999992 -1.54999995 -0.44000000 118 53 170 0.000000 0.000000 0.000000 0.000000 132.978989 0.000000 137.000000 0.471711 0.751122 -0.461849
21.64999962 -1.59000003 -0.47000000 118 53 170 0.000000 0.000000 0.000000 0.000000 132.978989 0.000000 137.000000 -0.466065 -0.088175 0.880346
21.60000038 -1.52999997 -0.46000001 118 53 170 0.000000 0.000000 0.000000 0.000000 132.978989 0.000000 137.000000 -0.542527 -0.420500 0.727217
21.59000015 -1.54999995 -0.47999999 118 53 170 0.000000 0.000000 0.000000 0.000000 132.978989 0.000000 137.000000 -0.512118 0.004032 0.858906
21.57999992 -1.53999996 -0.47999999 118 53 170 0.000000 0.000000 0.000000 0.000000 132.978989 0.000000 137.000000 -0.520504 -0.074761 0.850580
21.57999992 -1.53999996 -0.47999999 118 53 170 0.000000 0.000000 0.000000 0.000000 132.978989 0.000000 137.000000 -0.520504 -0.074761 0.850580
21.61000061 -1.52999997 -0.46000001 118 53 170 0.000000 0.000000 0.000000 0.000000 132.978989 0.000000 137.000000 0.503407 0.510097 -0.697411
21.59000015 -1.54999995 -0.47999999 118 53 170 0.000000 0.000000 0.000000 0.000000 132.978989 0.000000 137.000000 -0.512118 0.004032 0.858906
21.61000061 -1.52999997 -0.46000001 118 53 170 0.000000 0.000000 0.000000 0.000000 132.978989 0.000000 137.000000 0.503407 0.510097 -0.697411
21.63999939 -1.84000003 -0.50999999 118 53 170 0.000000 0.000000 0.000000 0.000000 132.978989 0.000000 137.000000 -0.214034 0.408879 0.887134
21.64999962 -1.85000002 -0.50000000 118 53 170 0.000000 0.000000 0.000000 0.000000 132.978989 0.000000 137.000000 -0.171511 0.114752 0.978476
21.57999992 -1.82000005 -0.50999999 118 53 170 0.000000 0.000000 0.000000 0.000000 132.978989 0.000000 137.000000 -0.085784 0.479548 0.873312
21.60000038 -1.80999994 -0.51999998 118 53 170 0.000000 0.000000 0.000000 0.000000 132.978989 0.000000 137.000000 -0.379355 0.482668 0.789380
21.61000061 -1.79999995 -0.52999997 118 53 170 0.000000 0.000000 0.000000 0.000000 132.978989 0.000000 137.000000 -0.228424 0.519702 0.823245
21.61000061 -1.86000001 -0.49000001 118 53 170 0.000000 0.000000 0.000000 0.000000 132.978989 0.000000 137.000000 -0.173387 0.556347 0.812659
21.59000015 -1.84000003 -0.50999999 118 53 170 0.000000 0.000000 0.000000 0.000000 132.978989 0.000000 137.000000 0.111950 0.205032 0.972332
21.60000038 -1.84000003 -0.50000000 118 53 170 0.000000 0.000000 0.000000 0.000000 132.978989 0.000000 137.000000 -0.378995 0.285379 0.880296
21.77000046 -1.52999997 -0.62000000 118 53 170 0.000000 0.000000 0.000000 0.000000 132.978989 0.000000 137.000000 0.634997 0.236752 -0.735342
21.79000092 -1.58000004 -0.63999999 118 53 170 0.000000 0.000000 0.000000 0.000000 132.978989 0.000000 137.000000 -0.354175 0.092920 0.930551
21.80999947 -1.66999996 -0.57999998 118 53 170 0.000000 0.000000 0.000000 0.000000 132.978989 0.000000 137.000000 -0.362954 0.116419 0.924506
21.79999924 -1.65999997 -0.54000002 118 53 170 0.000000 0.000000 0.000000 0.000000 132.978989 0.000000 137.000000 0.580151 0.031999 -0.813880
21.77000046 -1.63000000 -0.54000002 118 53 170 0.000000 0.000000 0.000000 0.000000 132.978989 0.000000 137.000000 0.750049 -0.067663 -0.657912
21.77000046 -1.63000000 -0.54000002 118 53 170 0.000000 0.000000 0.000000 0.000000 132.978989 0.000000 137.000000 0.750049 -0.067663 -0.657912
21.85000038 -1.55999994 -0.81000000 118 53 170 0.000000 0.000000 0.000000 0.000000 132.978989 0.000000 137.000000 0.701680 0.123651 -0.701680
21.62000084 -1.82000005 -0.57999998 118 53 170 0.000000 0.000000 0.000000 0.000000 132.978989 0.000000 137.000000 0.022179 0.397912 0.917155
21.55999947 -1.50999999 -0.41000000 118 53 170 0.000000 0.000000 0.000000 0.000000 132.978989 0.000000 137.000000 0.464785 0.796084 -0.387589
21.34000015 -1.50999999 -0.50999999 118 53 170 0.000000 0.000000 0.000000 0.000000 132.978989 0.000000 137.000000 0.605293 0.431876 -0.668658
21.55999947 -1.54999995 -0.50000000 118 53 170 0.000000 0.000000 0.000000 0.000000 132.978989 0.000000 137.000000 -0.354578 0.001262 0.935026
21.56999969 -1.59000003 -0.47000000 118 53 170 0.000000 0.000000 0.000000 0.000000 132.978989 0.000000 137.000000 0.727235 0.349789 -0.590573
21.54000092 -1.57000005 -0.52999997 118 53 170 0.000000 0.000000 0.000000 0.000000 132.978989 0.000000 137.000000 0.695661 0.420053 -0.582761
21.52000046 -1.55999994 -0.50999999 118 53 170 0.000000 0.000000 0.000000 0.000000 132.978989 0.000000 137.000000 -0.488035 -0.250945 0.835971
21.52000046 -1.55999994 -0.52999997 118 53 170 0.000000 0.000000 0.000000 0.000000 132.978989 0.000000 137.000000 -0.614056 -0.383579 0.689784
21.50000000 -1.59000003 -0.50000000 118 53 170 0.000000 0.000000 0.000000 0.000000 132.978989 0.000000 137.000000 -0.451175 -0.206975 0.868103
21.50000000 -1.58000004 -0.50999999 118 53 170 0.000000 0.000000 0.000000 0.000000 132.978989 0.000000 137.000000 -0.449352 0.114819 0.885946
21.54999924 -1.63000000 -0.43000001 118 53 170 0.000000 0.000000 0.000000 0.000000 132.978989 0.000000 137.000000 -0.211432 -0.319277 0.923774
21.54999924 -1.63000000 -0.49000001 118 53 170 0.000000 0.000000 0.000000 0.000000 132.978989 0.000000 137.000000 -0.269169 0.136573 0.953360
21.54999924 -1.63000000 -0.50000000 118 53 170 0.000000 0.000000 0.000000 0.000000 132.978989 0.000000 137.000000 -0.239060 -0.106107 0.965190
21.55999947 -1.61000001 -0.49000001 118 53 170 0.000000 0.000000 0.000000 0.000000 132.978989 0.000000 137.000000 -0.464670 -0.011983 0.885403
21.53000069 -1.64999998 -0.50000000 118 53 170 0.000000 0.000000 0.000000 0.000000 132.978989 0.000000 137.000000 -0.451349 -0.230958 0.861941
21.55999947 -1.61000001 -0.49000001 118 53 170 0.000000 0.000000 0.000000 0.000000 132.978989 0.000000 137.000000 -0.464670 -0.011983 0.885403
21.43000031 -1.64999998 -0.47999999 118 53 170 0.000000 0.000000 0.000000 0.000000 132.978989 0.000000 137.000000 0.596076 -0.141923 -0.790286
21.56999969 -1.79999995 -0.52999997 118 53 170 0.000000 0.000000 0.000000 0.000000 132.978989 0.000000 137.000000 -0.116742 0.505882 0.854666
21.55999947 -1.80999994 -0.52999997 118 53 170 0.000000 0.000000 0.000000 0.000000 132.978989 0.000000 137.000000 -0.112650 0.343379 0.932417
21.55999947 -1.83000004 -0.52999997 118 53 170 0.000000 0.000000 0.000000 0.000000 132.978989 0.000000 137.000000 -0.055559 0.112252 0.992125
21.54999924 -1.84000003 -0.51999998 118 53 170 0.000000 0.000000 0.000000 0.000000 132.978989 0.000000 137.000000 -0.106304 0.242065 0.964419
21.54999924 -1.83000004 -0.52999997 118 53 170 0.000000 0.000000 0.000000 0.000000 132.978989 0.000000 137.000000 -0.301171 0.321942 0.897580
21.54000092 -1.83000004 -0.52999997 118 53 170 0.000000 0.000000 0.000000 0.000000 132.978989 0.000000 137.000000 -0.378668 0.288149 0.879534
21.48999977 -1.74000001 -0.50000000 118 53 170 0.000000 0.000000 0.000000 0.000000 132.978989 0.000000 137.000000 0.047489 0.087247 0.995054
21.45000076 -1.73000002 -0.50000000 118 53 170 0.000000 0.000000 0.000000 0.000000 132.978989 0.000000 137.000000 -0.291536 0.259941 0.920564
21.37000084 -1.53999996 -0.50000000 118 53 170 0.000000 0.000000 0.000000 0.000000 132.978989 0.000000 137.000000 0.738787 0.331403 -0.586827
21.37999916 -1.53999996 -0.49000001 118 53 170 0.000000 0.000000 0.000000 0.000000 132.978989 0.000000 137.000000 0.653474 0.358674 -0.666577
21.54999924 -1.67999995 -0.56999999 118 53 170 0.000000 0.000000 0.000000 0.000000 132.978989 0.000000 137.000000 -0.336183 -0.181454 0.924151
21.50000000 -1.63999999 -0.57999998 118 53 170 0.000000 0.000000 0.000000 0.000000 132.978989 0.000000 137.000000 -0.243463 0.098150 0.964931
21.50000000 -1.67999995 -0.54000002 118 53 170 0.000000 0.000000 0.000000 0.000000 132.978989 0.000000 137.000000 -0.310947 -0.063221 0.948322
21.45999908 -1.55999994 -0.55000001 118 53 170 0.000000 0.000000 0.000000 0.000000 132.978989 0.000000 137.000000 -0.447290 0.167552 0.878554
21.45999908 -1.57000005 -0.54000002 118 53 170 0.000000 0.000000 0.000000 0.000000 132.978989 0.000000 137.000000 0.750371 0.052883 -0.658898
21.45999908 -1.60000002 -0.55000001 118 53 170 0.000000 0.000000 0.000000 0.000000 132.978989 0.000000 137.000000 -0.304043 -0.389603 0.869349
21.45999908 -1.57000005 -0.54000002 118 53 170 0.000000 0.000000 0.000000 0.000000 132.978989 0.000000 137.000000 0.750371 0.052883 -0.658898
21.43000031 -1.55999994 -0.57999998 118 53 170 0.000000 0.000000 0.000000 0.000000 132.978989 0.000000 137.000000 -0.685731 0.018156 0.727629
21.44000053 -1.57000005 -0.56000000 118 53 170 0.000000 0.000000 0.000000 0.000000 132.978989 0.000000 137.000000 0.593107 0.012385 -0.805029
21.40999985 -1.57000005 -0.56999999 118 53 170 0.000000 0.000000 0.000000 0.000000 132.978989 0.000000 137.000000 -0.354415 -0.215542 0.909907
21.42000008 -1.63999999 -0.57999998 118 53 170 0.000000 0.000000 0.000000 0.000000 132.978989 0.000000 137.000000 -0.418544 0.083709 0.904330
21.55999947 -1.73000002 -0.55000001 118 53 170 0.000000 0.000000 0.000000 0.000000 132.978989 0.000000 137.000000 -0.313330 0.198114 0.928749
21.50000000 -1.76999998 -0.55000001 118 53 170 0.000000 0.000000 0.000000 0.000000 132.978989 0.000000 137.000000 -0.108521 0.157295 0.981571
21.56999969 -1.78999996 -0.54000002 118 53 170 0.000000 0.000000 0.000000 0.000000 132.978989 0.000000 137.000000 -0.150446 0.291405 0.944695
21.56999969 -1.77999997 -0.54000002 118 53 170 0.000000 0.000000 0.000000 0.000000 132.978989 0.000000 137.000000 -0.286225 -0.046653 0.957026
21.56999969 -1.84000003 -0.56999999 118 53 170 0.000000 0.000000 0.000000 0.000000 132.978989 0.000000 137.000000 -0.311692 0.663758 0.679907
21.54999924 -1.85000002 -0.56000000 118 53 170 0.000000 0.000000 0.000000 0.000000 132.978989 0.000000 137.000000 0.018188 0.731725 0.681357
21.55999947 -1.85000002 -0.56000000 118 53 170 0.000000 0.000000 0.000000 0.000000 132.978989 0.000000 137.000000 0.086210 0.720364 0.688218
21.54000092 -1.83000004 -0.60000002 118 53 170 0.000000 0.000000 0.000000 0.000000 132.978989 0.000000 137.000000 -0.233710 0.122665 0.964538
21.52000046 -1.80999994 -0.57999998 118 53 170 0.000000 0.000000 0.000000 0.000000 132.978989 0.000000 137.000000 0.071384 0.391939 0.917218
21.50000000 -1.77999997 -0.54000002 118 53 170 0.000000 0.000000 0.000000 0.000000 132.978989 0.000000 137.000000 -0.365556 0.110899 0.924159
21.50000000 -1.82000005 -0.57999998 118 53 170 0.000000 0.000000 0.000000 0.000000 132.978989 0.000000 137.000000 -0.038571 0.416299 0.908409
21.51000023 -1.79999995 -0.57999998 118 53 170 0.000000 0.000000 0.000000 0.000000 132.978989 0.000000 137.000000 -0.091267 0.595408 0.798223
21.45999908 -1.72000003 -0.54000002 118 53 170 0.000000 0.000000 0.000000 0.000000 132.978989 0.000000 137.000000 -0.539891 0.114963 0.833847
21.47999954 -1.73000002 -0.57999998 118 53 170 0.000000 0.000000 0.000000 0.000000 132.978989 0.000000 137.000000 -0.159200 0.462994 0.871947
21.44000053 -1.76999998 -0.61000001 118 53 170 0.000000 0.000000 0.000000 0.000000 132.978989 0.000000 137.000000 0.155338 0.354059 0.922232
21.47999954 -1.82000005 -0.57999998 118 53 170 0.000000 0.000000 0.000000 0.000000 132.978989 0.000000 137.000000 0.456353 -0.456353 -0.763861
21.48999977 -1.80999994 -0.57999998 118 53 170 0.000000 0.000000 0.000000 0.000000 132.978989 0.000000 137.000000 -0.036109 0.277665 0.959999
21.47999954 -1.82000005 -0.57999998 118 53 170 0.000000 0.000000 0.000000 0.000000 132.978989 0.000000 137.000000 0.456353 -0.456353 -0.763861
21.43000031 -1.78999996 -0.55000001 118 53 170 0.000000 0.000000 0.000000 0.000000 132.978989 0.000000 137.000000 0.009743 0.713998 0.700080
21.44000053 -1.78999996 -0.56000000 118 53 170 0.000000 0.000000 0.000000 0.000000 132.978989 0.000000 137.000000 -0.209227 0.739270 0.640081
21.31999969 -1.58000004 -0.62000000 118 53 170 0.000000 0.000000 0.000000 0.000000 132.978989 0.000000 137.000000 -0.657101 0.282985 0.698669
21.36000061 -1.59000003 -0.61000001 118 53 170 0.000000 0.000000 0.000000 0.000000 132.978989 0.000000 137.000000 -0.614656 -0.201804 0.762543
21.31999969 -1.57000005 -0.63000000 118 53 170 0.000000 0.000000 0.000000 0.000000 132.978989 0.000000 137.000000 -0.214540 0.134890 0.967356
21.37999916 -1.69000006 -0.60000002 118 53 170 0.000000 0.000000 0.000000 0.000000 132.978989 0.000000 137.000000 -0.235614 0.154005 0.959567
21.39999962 -1.69000006 -0.58999997 118 53 170 0.000000 0.000000 0.000000 0.000000 132.978989 0.000000 137.000000 0.164526 0.319374 0.933237
21.37999916 -1.64999998 -0.62000000 118 53 170 0.000000 0.000000 0.000000 0.000000 132.978989 0.000000 137.000000 -0.170287 -0.083332 0.981865
21.34000015 -1.61000001 -0.62000000 118 53 170 0.000000 0.000000 0.000000 0.000000 132.978989 0.000000 137.000000 -0.381171 -0.135434 0.914531
21.31999969 -1.63000000 -0.62000000 118 53 170 0.000000 0.000000 0.000000 0.000000 132.978989 0.000000 137.000000 -0.172578 0.302356 0.937442
21.34000015 -1.66999996 -0.63999999 118 53 170 0.000000 0.000000 0.000000 0.000000 132.978989 0.000000 137.000000 0.026384 0.307813 0.951081
21.34000015 -1.66999996 -0.63999999 118 53 170 0.000000 0.000000 0.000000 0.000000 132.978989 0.000000 137.000000 0.026384 0.307813 0.951081
21.29999924 -1.60000002 -0.63999999 118 53 170 0.000000 0.000000 0.000000 0.000000 132.978989 0.000000 137.000000 -0.464941 -0.121600 0.876951
21.30999947 -1.57000005 -0.63000000 118 53 170 0.000000 0.000000 0.000000 0.000000 132.978989 0.000000 137.000000 0.692971 0.012549 -0.720857
21.29999924 -1.60000002 -0.63999999 118 53 170 0.000000 0.000000 0.000000 0.000000 132.978989 0.000000 137.000000 -0.464941 -0.121600 0.876951
21.30999947 -1.58000004 -0.63000000 118 53 170 0.000000 0.000000 0.000000 0.000000 132.978989 0.000000 137.000000 -0.582808 0.075894 0.809058
21.28000069 -1.57000005 -0.69999999 118 53 170 0.000000 0.000000 0.000000 0.000000 132.978989 0.000000 137.000000 -0.064124 -0.051082 0.996634
21.23999977 -1.60000002 -0.63000000 118 53 170 0.000000 0.000000 0.000000 0.000000 132.978989 0.000000 137.000000 -0.040046 -0.013349 0.999109
21.25000000 -1.58000004 -0.64999998 118 53 170 0.000000 0.000000 0.000000 0.000000 132.978989 0.000000 137.000000 -0.184672 0.462418 0.867218
21.29000092 -1.63999999 -0.63999999 118 53 170 0.000000 0.000000 0.000000 0.000000 132.978989 0.000000 137.000000 -0.555273 0.170043 0.814099
21.23999977 -1.63000000 -0.68000001 118 53 170 0.000000 0.000000 0.000000 0.000000 132.978989 0.000000 137.000000 -0.256477 0.061304 0.964604
21.27000046 -1.64999998 -0.70999998 118 53 170 0.000000 0.000000 0.000000 0.000000 132.978989 0.000000 137.000000 0.041584 0.115762 0.992406
21.28000069 -1.66999996 -0.75000000 118 53 170 0.000000 0.000000 0.000000 0.000000 132.978989 0.000000 137.000000 -0.281264 0.408974 0.868119
21.29000092 -1.67999995 -0.75000000 118 53 170 0.000000 0.000000 0.000000 0.000000 132.978989 0.000000 137.000000 -0.243352 -0.015584 0.969813
21.29000092 -1.65999997 -0.75000000 118 53 170 0.000000 0.000000 0.000000 0.000000 132.978989 0.000000 137.000000 -0.280439 0.146258 0.948663
21.29999924 -1.65999997 -0.75000000 118 53 170 0.000000 0.000000 0.000000 0.000000 132.978989 0.000000 137.000000 0.527697 -0.547928 -0.649084
21.29000092 -1.66999996 -0.75000000 118 53 170 0.000000 0.000000 0.000000 0.000000 132.978989 0.000000 137.000000 -0.268813 -0.035924 0.962522
21.25000000 -1.66999996 -0.75999999 118 53 170 0.000000 0.000000 0.000000 0.000000 132.978989 0.000000 137.000000 0.179677 0.488544 0.853839
21.26000023 -1.65999997 -0.75999999 118 53 170 0.000000 0.000000 0.000000 0.000000 132.978989 0.000000 137.000000 -0.094728 0.276398 0.956363
21.38999939 -1.70000005 -0.55000001 118 53 170 0.000000 0.000000 0.000000 0.000000 132.978989 0.000000 137.000000 -0.510854 0.444724 0.735696
21.35000038 -1.71000004 -0.66000003 118 53 170 0.000000 0.000000 0.000000 0.000000 132.978989 0.000000 137.000000 -0.278303 0.742672 0.609086
21.57999992 -1.63999999 -1.20000005 118 53 170 0.000000 0.000000 0.000000 0.000000 132.978989 0.000000 101.000000 -0.566211 -0.099920 0.818182
21.57999992 -1.62000000 -1.20000005 118 53 170 0.000000 0.000000 0.000000 0.000000 132.978989 0.000000 101.000000 -0.362010 -0.174617 0.915673
21.60000038 -1.64999998 -1.19000006 118 53 170 0.000000 0.000000 0.000000 0.000000 132.978989 0.000000 101.000000 -0.134261 0.012206 0.990871
21.54000092 -1.59000003 -1.17999995 118 53 170 0.000000 0.000000 0.000000 0.000000 132.978989 0.000000 101.000000 -0.132413 -0.253027 0.958355
21.18000031 -0.75999999 -1.19000006 118 53 170 0.000000 0.000000 0.000000 0.000000 132.978989 0.000000 137.000000 -0.549517 -0.199409 0.811337
21.11000061 -0.77999997 -1.17999995 118 53 170 0.000000 0.000000 0.000000 0.000000 132.978989 0.000000 137.000000 0.430375 0.446615 -0.784419
21.05999947 -0.77999997 -1.19000006 118 53 170 0.000000 0.000000 0.000000 0.000000 132.978989 0.000000 137.000000 -0.436469 -0.246174 0.865386
21.04000092 -0.81000000 -1.22000003 118 53 170 0.000000 0.000000 0.000000 0.000000 132.978989 0.000000 137.000000 -0.272565 -0.496847 0.823925
21.00000000 -0.81999999 -1.22000003 118 53 170 0.000000 0.000000 0.000000 0.000000 132.978989 0.000000 137.000000 0.570488 0.641168 -0.513271
21.00000000 -0.81999999 -1.21000004 118 53 170 0.000000 0.000000 0.000000 0.000000 132.978989 0.000000 137.000000 -0.232182 -0.584351 0.777577
21.01000023 -0.80000001 -1.21000004 118 53 170 0.000000 0.000000 0.000000 0.000000 132.978989 0.000000 137.000000 -0.462026 -0.350886 0.814500
21.12000084 -0.76999998 -1.24000001 118 53 170 0.000000 0.000000 0.000000 0.000000 132.978989 0.000000 137.000000 0.784611 0.335345 -0.521469
21.12000084 -0.77999997 -1.25000000 118 53 170 0.000000 0.000000 0.000000 0.000000 132.978989 0.000000 137.000000 -0.467753 -0.301927 0.830691
21.04000092 -0.79000002 -1.27999997 118 53 170 0.000000 0.000000 0.000000 0.000000 132.978989 0.000000 137.000000 -0.174570 -0.508788 0.843007
21.00000000 -0.82999998 -1.23000002 118 53 170 0.000000 0.000000 0.000000 0.000000 132.978989 0.000000 137.000000 0.358501 0.636789 -0.682625
20.97999954 -0.81999999 -1.25000000 118 53 170 0.000000 0.000000 0.000000 0.000000 132.978989 0.000000 137.000000 0.696231 0.398555 -0.597006
20.95000076 -0.79000002 -1.26999998 118 53 170 0.000000 0.000000 0.000000 0.000000 132.978989 0.000000 137.000000 0.332475 0.778987 -0.531639
20.94000053 -0.81999999 -1.23000002 118 53 170 0.000000 0.000000 0.000000 0.000000 132.978989 0.000000 137.000000 0.649211 0.625846 -0.432251
20.95999908 -0.81000000 -1.24000001 118 53 170 0.000000 0.000000 0.000000 0.000000 132.978989 0.000000 137.000000 -0.522217 -0.339040 0.782522
20.94000053 -0.80000001 -1.25000000 118 53 170 0.000000 0.000000 0.000000 0.000000 132.978989 0.000000 137.000000 -0.437753 -0.486938 0.755820
20.95000076 -0.81999999 -1.27999997 118 53 170 0.000000 0.000000 0.000000 0.000000 132.978989 0.000000 137.000000 -0.449859 -0.127103 0.884009
20.92000008 -0.80000001 -1.29999995 118 53 170 0.000000 0.000000 0.000000 0.000000 132.978989 0.000000 137.000000 -0.351193 -0.687685 0.635415
20.89999962 -0.86000001 -1.25999999 118 53 170 0.000000 0.000000 0.000000 0.000000 132.978989 0.000000 137.000000 0.711569 0.481600 -0.511596
20.89999962 -0.85000002 -1.25000000 118 53 170 0.000000 0.000000 0.000000 0.000000 132.978989 0.000000 137.000000 -0.246101 -0.597226 0.763384
20.89999962 -0.88999999 -1.29999995 118 53 170 0.000000 0.000000 0.000000 0.000000 132.978989 0.000000 137.000000 -0.259178 -0.513701 0.817886
20.90999985 -0.88999999 -1.28999996 118 53 170 0.000000 0.000000 0.000000 0.000000 132.978989 0.000000 137.000000 -0.403656 -0.369102 0.837154
20.79000092 -0.82999998 -1.30999994 118 53 170 0.000000 0.000000 0.000000 0.000000 132.978989 0.000000 137.000000 0.681518 0.524116 -0.510720
20.85000038 -0.86000001 -1.25999999 118 53 170 0.000000 0.000000 0.000000 0.000000 132.978989 0.000000 137.000000 -0.301875 -0.431914 0.849895
