//X Y Z R G B PointSourceId ScanDirectionFlag NumberOfReturns ReturnNumber GpsTime Intensity Classification Nx Ny Nz
7.09000015 7.50000000 -0.23000000 199 109 101 97.000000 1.000000 4.000000 1.000000 176.000000 114.000000 254.000000 0.962680 0.166341 0.213492
7.09000015 7.50000000 -0.25999999 199 109 101 97.000000 1.000000 4.000000 1.000000 176.000000 114.000000 254.000000 0.981315 0.017420 -0.191618
7.07000017 7.48999977 -0.31000000 199 109 101 97.000000 1.000000 4.000000 1.000000 176.000000 114.000000 254.000000 0.828209 0.378474 -0.413313
7.05999994 7.46000004 -0.36000001 199 109 101 97.000000 1.000000 4.000000 1.000000 176.000000 114.000000 254.000000 0.850591 -0.334327 -0.405858
7.09000015 7.44000006 -0.31999999 199 109 101 97.000000 1.000000 4.000000 1.000000 176.000000 114.000000 254.000000 0.834234 0.304066 -0.459998
7.05999994 7.44000006 -0.31000000 199 109 101 97.000000 1.000000 4.000000 1.000000 176.000000 114.000000 254.000000 0.999020 -0.043969 -0.005113
7.01999998 7.51000023 -0.23000000 199 109 101 97.000000 1.000000 4.000000 1.000000 176.000000 114.000000 254.000000 0.973721 0.042336 -0.223774
7.03000021 7.53000021 -0.34000000 199 109 101 97.000000 1.000000 4.000000 1.000000 176.000000 114.000000 254.000000 0.698176 0.244283 -0.672960
7.01999998 7.53999996 -0.34999999 199 109 101 97.000000 1.000000 4.000000 1.000000 176.000000 114.000000 254.000000 0.933824 0.262594 -0.242935
6.98999977 7.48999977 -0.28000000 199 109 101 97.000000 1.000000 4.000000 1.000000 176.000000 114.000000 254.000000 0.962361 -0.216630 -0.164113
6.98999977 7.46000004 -0.28999999 199 109 101 97.000000 1.000000 4.000000 1.000000 176.000000 114.000000 254.000000 0.960155 0.186734 -0.207923
7.03999996 7.44000006 -0.30000001 199 109 101 97.000000 1.000000 4.000000 1.000000 176.000000 114.000000 254.000000 0.931683 0.323520 -0.165231
7.09999990 7.51999998 -0.51999998 199 109 101 97.000000 1.000000 4.000000 1.000000 176.000000 114.000000 254.000000 0.813130 -0.215916 -0.540555
7.09999990 7.51999998 -0.51999998 199 109 101 97.000000 1.000000 4.000000 1.000000 176.000000 114.000000 254.000000 0.813130 -0.215916 -0.540555
7.07000017 7.51000023 -0.52999997 199 109 101 97.000000 1.000000 4.000000 1.000000 176.000000 114.000000 254.000000 -0.412911 -0.231051 0.880976
7.09000015 7.53000021 -0.50000000 199 109 101 97.000000 1.000000 4.000000 1.000000 176.000000 114.000000 254.000000 -0.510938 0.148717 0.846655
7.11999989 7.46999979 -0.50999999 199 109 101 97.000000 1.000000 4.000000 1.000000 176.000000 114.000000 254.000000 -0.616214 0.261376 0.742942
7.11000013 7.46000004 -0.50999999 199 109 101 97.000000 1.000000 4.000000 1.000000 176.000000 114.000000 254.000000 0.725010 -0.104839 -0.680712
7.09999990 7.46000004 -0.51999998 199 109 101 97.000000 1.000000 4.000000 1.000000 176.000000 114.000000 254.000000 -0.531944 -0.285703 0.797126
7.13999987 7.44999981 -0.47000000 199 109 101 97.000000 1.000000 4.000000 1.000000 176.000000 114.000000 254.000000 0.882881 -0.327496 -0.336551
7.05999994 7.42999983 -0.49000001 199 109 101 97.000000 1.000000 4.000000 1.000000 176.000000 114.000000 254.000000 -0.511603 0.057155 0.857319
7.03000021 7.57999992 -0.49000001 199 109 101 97.000000 1.000000 4.000000 1.000000 176.000000 114.000000 254.000000 0.706225 0.049935 -0.706225
7.03000021 7.55000019 -0.50999999 199 109 101 97.000000 1.000000 4.000000 1.000000 176.000000 114.000000 254.000000 -0.549613 -0.099536 0.829469
7.01999998 7.51999998 -0.46000001 199 109 101 97.000000 1.000000 4.000000 1.000000 176.000000 114.000000 254.000000 0.874333 -0.094637 -0.476010
7.05000019 7.46000004 -0.37000000 199 109 101 97.000000 1.000000 4.000000 1.000000 176.000000 114.000000 254.000000 0.821648 -0.096749 -0.561724
7.03999996 7.46000004 -0.41000000 199 109 101 97.000000 1.000000 4.000000 1.000000 176.000000 114.000000 254.000000 0.916739 0.022232 -0.398867
7.01999998 7.46999979 -0.43000001 199 109 101 97.000000 1.000000 4.000000 1.000000 176.000000 114.000000 254.000000 0.806436 -0.109769 -0.581044
7.03999996 7.46999979 -0.49000001 199 109 101 97.000000 1.000000 4.000000 1.000000 176.000000 114.000000 254.000000 0.692670 0.361891 -0.623894
7.05000019 7.42000008 -0.49000001 199 109 101 97.000000 1.000000 4.000000 1.000000 176.000000 114.000000 254.000000 -0.583662 -0.316753 0.747667
7.05000019 7.42999983 -0.50000000 199 109 101 97.000000 1.000000 4.000000 1.000000 176.000000 114.000000 254.000000 0.723300 -0.336456 -0.603021
7.01000023 7.50000000 -0.46000001 199 109 101 97.000000 1.000000 4.000000 1.000000 176.000000 114.000000 254.000000 0.662963 -0.308092 -0.682319
6.96999979 7.69000006 -0.20999999 199 109 101 97.000000 1.000000 4.000000 1.000000 176.000000 114.000000 254.000000 0.964796 -0.249757 0.082407
6.94999981 7.69999981 -0.27000001 199 109 101 97.000000 1.000000 4.000000 1.000000 176.000000 114.000000 254.000000 0.996558 -0.011724 -0.082069
6.80000019 7.67000008 -0.36000001 199 109 101 97.000000 1.000000 4.000000 1.000000 176.000000 114.000000 254.000000 -0.116959 0.077587 0.990101
6.96000004 7.69000006 -0.38999999 199 109 101 97.000000 1.000000 4.000000 1.000000 176.000000 114.000000 254.000000 0.765849 0.256331 -0.589720
6.92000008 7.71000004 -0.44999999 199 109 101 97.000000 1.000000 4.000000 1.000000 176.000000 114.000000 254.000000 0.762317 -0.215809 -0.610164
6.94999981 7.71000004 -0.50000000 199 109 101 97.000000 1.000000 4.000000 1.000000 176.000000 114.000000 254.000000 -0.632623 -0.073494 0.770965
6.94999981 7.67000008 -0.47999999 199 109 101 97.000000 1.000000 4.000000 1.000000 176.000000 114.000000 254.000000 0.562090 -0.103122 -0.820622
6.82999992 7.71000004 -0.37000000 199 109 101 97.000000 1.000000 4.000000 1.000000 176.000000 114.000000 254.000000 0.747104 0.110956 -0.655381
6.82999992 7.71000004 -0.37000000 199 109 101 97.000000 1.000000 4.000000 1.000000 176.000000 114.000000 254.000000 0.747104 0.110956 -0.655381
6.82000017 7.71000004 -0.38000000 199 109 101 97.000000 1.000000 4.000000 1.000000 176.000000 114.000000 254.000000 -0.268028 0.020806 0.963187
6.84000015 7.71000004 -0.47999999 199 109 101 97.000000 1.000000 4.000000 1.000000 176.000000 114.000000 254.000000 -0.128739 -0.068429 0.989315
6.88000011 7.67000008 -0.44000000 199 109 101 97.000000 1.000000 4.000000 1.000000 176.000000 114.000000 254.000000 0.704179 0.064802 -0.707059
7.03000021 7.53000021 -0.66000003 199 109 101 97.000000 1.000000 4.000000 1.000000 176.000000 114.000000 254.000000 -0.245847 0.336039 0.909196
7.03999996 7.48000002 -0.61000001 199 109 101 97.000000 1.000000 4.000000 1.000000 176.000000 114.000000 254.000000 0.735154 0.067883 -0.674493
7.03000021 7.50000000 -0.62000000 199 109 101 97.000000 1.000000 4.000000 1.000000 176.000000 114.000000 254.000000 0.775208 -0.286938 -0.562779
7.01000023 7.50000000 -0.60000002 199 109 101 97.000000 1.000000 4.000000 1.000000 176.000000 114.000000 254.000000 -0.713228 -0.052885 0.698934
6.98999977 7.48000002 -0.58999997 199 109 101 97.000000 1.000000 4.000000 1.000000 176.000000 114.000000 254.000000 -0.601441 -0.151485 0.784424
7.01000023 7.46999979 -0.69000000 199 109 101 97.000000 1.000000 4.000000 1.000000 176.000000 114.000000 254.000000 -0.308204 0.296406 0.903966
7.11000013 7.53000021 -0.77999997 199 109 101 97.000000 1.000000 4.000000 1.000000 176.000000 114.000000 254.000000 -0.498492 -0.210609 0.840922
7.11999989 7.53000021 -0.77999997 199 109 101 97.000000 1.000000 4.000000 1.000000 176.000000 114.000000 254.000000 -0.506719 -0.135807 0.851347
6.96999979 7.69000006 -0.62000000 199 109 101 97.000000 1.000000 4.000000 1.000000 176.000000 114.000000 254.000000 -0.426811 -0.336133 0.839551
6.88000011 7.67999983 -0.69999999 199 109 101 97.000000 1.000000 4.000000 1.000000 176.000000 114.000000 254.000000 0.033291 0.267559 0.962966
6.88999987 7.71999979 -0.72000003 199 109 101 97.000000 1.000000 4.000000 1.000000 176.000000 114.000000 254.000000 -0.029847 -0.218477 0.975386
6.94999981 7.71000004 -0.88000000 199 109 101 97.000000 1.000000 4.000000 1.000000 176.000000 114.000000 254.000000 -0.199398 0.147940 0.968687
6.90999985 7.61999989 -0.82999998 199 109 101 97.000000 1.000000 4.000000 1.000000 176.000000 114.000000 254.000000 -0.457748 0.261789 0.849666
6.86999989 7.71000004 -0.75999999 199 109 101 97.000000 1.000000 4.000000 1.000000 176.000000 114.000000 254.000000 -0.148193 0.441700 0.884839
6.84000015 7.73000002 -0.75000000 199 109 101 97.000000 1.000000 4.000000 1.000000 176.000000 114.000000 254.000000 -0.249068 0.161162 0.954983
6.88000011 7.69000006 -0.82999998 199 109 101 97.000000 1.000000 4.000000 1.000000 176.000000 114.000000 254.000000 0.038389 0.166353 0.985319
6.90999985 7.51999998 -0.63999999 199 109 101 97.000000 1.000000 4.000000 1.000000 176.000000 114.000000 254.000000 -0.522716 -0.126675 0.843043
6.92000008 7.53999996 -0.63000000 199 109 101 97.000000 1.000000 4.000000 1.000000 176.000000 114.000000 254.000000 -0.527322 -0.092889 0.844573
6.92999983 7.53999996 -0.63000000 199 109 101 97.000000 1.000000 4.000000 1.000000 176.000000 114.000000 254.000000 -0.414293 -0.207883 0.886085
6.92999983 7.53999996 -0.63000000 199 109 101 97.000000 1.000000 4.000000 1.000000 176.000000 114.000000 254.000000 -0.414293 -0.207883 0.886085
6.94000006 7.50000000 -0.60000002 199 109 101 97.000000 1.000000 4.000000 1.000000 176.000000 114.000000 254.000000 -0.329663 0.262265 0.906940
6.90999985 7.48999977 -0.62000000 199 109 101 97.000000 1.000000 4.000000 1.000000 176.000000 114.000000 254.000000 -0.096941 0.322695 0.941526
6.94999981 7.50000000 -0.60000002 199 109 101 97.000000 1.000000 4.000000 1.000000 176.000000 114.000000 254.000000 -0.302851 0.305805 0.902643
6.94000006 7.46999979 -0.60000002 199 109 101 97.000000 1.000000 4.000000 1.000000 176.000000 114.000000 254.000000 -0.485207 -0.042370 0.873372
6.92000008 7.48000002 -0.62000000 199 109 101 97.000000 1.000000 4.000000 1.000000 176.000000 114.000000 254.000000 -0.386968 -0.255488 0.885992
6.94000006 7.48999977 -0.63000000 199 109 101 97.000000 1.000000 4.000000 1.000000 176.000000 114.000000 254.000000 -0.115063 0.334360 0.935395
6.94999981 7.48999977 -0.63000000 199 109 101 97.000000 1.000000 4.000000 1.000000 176.000000 114.000000 254.000000 -0.088837 0.136217 0.986688
7.11999989 7.40000010 -0.23000000 199 109 101 97.000000 1.000000 4.000000 1.000000 176.000000 114.000000 254.000000 0.961533 0.174944 0.211774
7.13000011 7.40000010 -0.22000000 199 109 101 97.000000 1.000000 4.000000 1.000000 176.000000 114.000000 254.000000 0.948664 0.023874 0.315384
7.11999989 7.36999989 -0.22000000 199 109 101 97.000000 1.000000 4.000000 1.000000 176.000000 114.000000 254.000000 0.855724 0.504805 -0.113617
7.01000023 7.40000010 -0.50999999 199 109 101 97.000000 1.000000 4.000000 1.000000 176.000000 114.000000 254.000000 0.838472 0.191178 -0.510309
6.88999987 7.09999990 -0.20000000 199 109 101 97.000000 1.000000 4.000000 1.000000 176.000000 114.000000 1.000000 0.983285 -0.033906 -0.178885
6.96000004 7.40999985 -0.54000002 199 109 101 97.000000 1.000000 4.000000 1.000000 176.000000 114.000000 254.000000 0.741240 -0.278961 -0.610527
7.32000017 7.50000000 -0.92000002 199 109 101 97.000000 1.000000 4.000000 1.000000 176.000000 114.000000 254.000000 -0.489392 0.219696 0.843937
7.26000023 7.71999979 -1.11000001 199 109 101 97.000000 1.000000 4.000000 1.000000 176.000000 114.000000 254.000000 -0.486938 0.437753 0.755820
7.17999983 7.59000015 -1.07000005 199 109 101 97.000000 1.000000 4.000000 1.000000 176.000000 114.000000 254.000000 -0.599453 -0.267302 0.754457
7.30000019 7.51000023 -0.97000003 199 109 101 97.000000 1.000000 4.000000 1.000000 176.000000 114.000000 254.000000 -0.391869 0.297332 0.870650
7.23999977 7.55000019 -0.97000003 199 109 101 97.000000 1.000000 4.000000 1.000000 176.000000 114.000000 254.000000 -0.567913 -0.167211 0.805925
7.15999985 7.53999996 -0.88999999 199 109 101 97.000000 1.000000 4.000000 1.000000 176.000000 114.000000 254.000000 -0.244716 0.060868 0.967682
7.17000008 7.53000021 -0.94000000 199 109 101 97.000000 1.000000 4.000000 1.000000 176.000000 114.000000 254.000000 -0.654660 -0.209926 0.726190
7.19999981 7.53999996 -1.01999998 199 109 101 97.000000 1.000000 4.000000 1.000000 176.000000 114.000000 254.000000 -0.229404 -0.068201 0.970939
7.17000008 7.57000017 -1.04999995 199 109 101 97.000000 1.000000 4.000000 1.000000 176.000000 114.000000 254.000000 -0.143037 0.102169 0.984430
7.19000006 7.46999979 -1.00999999 199 109 101 97.000000 1.000000 4.000000 1.000000 176.000000 114.000000 254.000000 -0.215963 -0.072810 0.973683
7.05000019 7.75000000 -0.88999999 199 109 101 97.000000 1.000000 4.000000 1.000000 176.000000 114.000000 254.000000 -0.421810 0.444436 0.790287
7.00000000 7.75000000 -0.91000003 199 109 101 97.000000 1.000000 4.000000 1.000000 176.000000 114.000000 254.000000 -0.613809 -0.232716 0.754375
6.98000002 7.69000006 -0.91000003 199 109 101 97.000000 1.000000 4.000000 1.000000 176.000000 114.000000 254.000000 -0.451583 -0.293296 0.842645
6.98000002 7.63999987 -1.00999999 199 109 101 97.000000 1.000000 4.000000 1.000000 176.000000 114.000000 254.000000 -0.386064 0.105790 0.916386
7.01000023 7.75000000 -1.16999996 199 109 101 97.000000 1.000000 4.000000 1.000000 176.000000 114.000000 254.000000 -0.414837 -0.089583 0.905475
7.03000021 7.59999990 -1.05999994 199 109 101 97.000000 1.000000 4.000000 1.000000 176.000000 114.000000 254.000000 -0.514082 0.098807 0.852031
7.11999989 7.55999994 -0.92000002 199 109 101 97.000000 1.000000 4.000000 1.000000 176.000000 114.000000 254.000000 0.637882 0.294036 -0.711793
7.11000013 7.55999994 -0.94000000 199 109 101 97.000000 1.000000 4.000000 1.000000 176.000000 114.000000 254.000000 0.759462 0.058640 -0.647903
7.09999990 7.57999992 -1.00999999 199 109 101 97.000000 1.000000 4.000000 1.000000 176.000000 114.000000 254.000000 -0.531594 -0.274422 0.801312
7.13999987 7.51000023 -0.98000002 199 109 101 97.000000 1.000000 4.000000 1.000000 176.000000 114.000000 254.000000 -0.450982 -0.180686 0.874053
7.13000011 7.51999998 -1.01999998 199 109 101 97.000000 1.000000 4.000000 1.000000 176.000000 114.000000 254.000000 -0.031001 0.065210 0.997390
7.13000011 7.46999979 -0.95999998 199 109 101 97.000000 1.000000 4.000000 1.000000 176.000000 114.000000 254.000000 -0.202674 0.173907 0.963680
7.13999987 7.50000000 -1.13000000 199 109 101 97.000000 1.000000 4.000000 1.000000 176.000000 114.000000 254.000000 -0.490375 -0.250568 0.834714
6.94000006 7.67999983 -0.92000002 199 109 101 97.000000 1.000000 4.000000 1.000000 176.000000 114.000000 254.000000 -0.576396 0.020734 0.816907
6.92999983 7.71000004 -0.94999999 199 109 101 97.000000 1.000000 4.000000 1.000000 176.000000 114.000000 254.000000 -0.189363 -0.102726 0.976519
6.90999985 7.73999977 -0.88999999 199 109 101 97.000000 1.000000 4.000000 1.000000 176.000000 114.000000 254.000000 0.055643 -0.438359 -0.897076
6.90999985 7.75000000 -0.95999998 199 109 101 97.000000 1.000000 4.000000 1.000000 176.000000 114.000000 254.000000 -0.286111 -0.224097 0.931623
6.92000008 7.71000004 -0.89999998 199 109 101 97.000000 1.000000 4.000000 1.000000 176.000000 114.000000 254.000000 -0.369619 -0.259772 0.892132
6.90000010 7.69999981 -0.94000000 199 109 101 97.000000 1.000000 4.000000 1.000000 176.000000 114.000000 254.000000 0.107354 0.254805 0.961015
6.92999983 7.67999983 -1.00000000 199 109 101 97.000000 1.000000 4.000000 1.000000 176.000000 114.000000 254.000000 -0.491882 0.375766 0.785399
6.92000008 7.73999977 -0.98000002 199 109 101 97.000000 1.000000 4.000000 1.000000 176.000000 114.000000 254.000000 -0.273860 0.099939 0.956563
6.90999985 7.75000000 -1.04999995 199 109 101 97.000000 1.000000 4.000000 1.000000 176.000000 114.000000 254.000000 -0.070466 -0.079414 0.994348
6.92999983 7.67000008 -0.89999998 199 109 101 97.000000 1.000000 4.000000 1.000000 176.000000 114.000000 254.000000 -0.404555 0.200087 0.892357
6.96999979 7.59000015 -0.98000002 199 109 101 97.000000 1.000000 4.000000 1.000000 176.000000 114.000000 254.000000 -0.556264 0.099694 0.825004
6.96000004 7.61000013 -1.04999995 199 109 101 97.000000 1.000000 4.000000 1.000000 176.000000 114.000000 254.000000 -0.578745 -0.055186 0.813639
6.86000013 7.73999977 -1.03999996 199 109 101 97.000000 1.000000 4.000000 1.000000 176.000000 114.000000 254.000000 -0.468866 0.329942 0.819331
6.86000013 7.75000000 -1.03999996 199 109 101 97.000000 1.000000 4.000000 1.000000 176.000000 114.000000 254.000000 -0.420842 0.235132 0.876131
6.82999992 7.69000006 -0.98000002 199 109 101 97.000000 1.000000 4.000000 1.000000 176.000000 114.000000 254.000000 0.244729 0.120422 0.962084
6.94000006 7.71000004 -1.07000005 199 109 101 97.000000 1.000000 4.000000 1.000000 176.000000 114.000000 254.000000 -0.211884 -0.290464 0.933132
6.96000004 7.69000006 -1.05999994 199 109 101 97.000000 1.000000 4.000000 1.000000 176.000000 114.000000 254.000000 -0.183271 -0.115947 0.976201
6.92999983 7.75000000 -1.20000005 199 109 101 97.000000 1.000000 4.000000 1.000000 176.000000 114.000000 254.000000 -0.393281 -0.009026 0.919374
6.90999985 7.73000002 -1.15999997 199 109 101 97.000000 1.000000 4.000000 1.000000 176.000000 114.000000 254.000000 -0.066981 0.060392 0.995925
6.90000010 7.73000002 -1.15999997 199 109 101 97.000000 1.000000 4.000000 1.000000 176.000000 114.000000 254.000000 -0.300177 0.033911 0.953281
6.90999985 7.67000008 -1.05999994 199 109 101 97.000000 1.000000 4.000000 1.000000 176.000000 114.000000 254.000000 -0.420858 -0.224556 0.878893
6.94000006 7.65999985 -1.19000006 199 109 101 97.000000 1.000000 4.000000 1.000000 176.000000 114.000000 254.000000 -0.204508 -0.162825 0.965228
6.80000019 7.73999977 -1.19000006 199 109 101 97.000000 1.000000 4.000000 1.000000 176.000000 114.000000 254.000000 0.024290 -0.174658 0.984330
6.84000015 7.75000000 -1.21000004 199 109 101 97.000000 1.000000 4.000000 1.000000 176.000000 114.000000 254.000000 -0.153466 -0.023872 0.987866
6.90999985 7.65000010 -1.24000001 199 109 101 97.000000 1.000000 4.000000 1.000000 176.000000 114.000000 254.000000 -0.138508 -0.189336 0.972094
6.80999994 7.71999979 -1.25999999 199 109 101 97.000000 1.000000 4.000000 1.000000 176.000000 114.000000 254.000000 -0.086055 -0.268439 0.959445
6.88000011 7.57000017 -1.24000001 199 109 101 97.000000 1.000000 4.000000 1.000000 176.000000 114.000000 254.000000 -0.346601 0.151725 0.925661
6.73999977 7.73000002 -0.34999999 199 109 101 97.000000 1.000000 4.000000 1.000000 176.000000 114.000000 254.000000 -0.207911 0.059577 0.976332
6.78000021 7.69000006 -0.37000000 199 109 101 97.000000 1.000000 4.000000 1.000000 176.000000 114.000000 254.000000 -0.020967 0.284908 0.958326
6.73999977 7.73000002 -0.37000000 199 109 101 97.000000 1.000000 4.000000 1.000000 176.000000 114.000000 254.000000 0.035654 -0.007131 0.999339
6.75000000 7.75000000 -0.50999999 199 109 101 97.000000 1.000000 4.000000 1.000000 176.000000 114.000000 254.000000 0.047730 -0.039245 0.998089
6.75000000 7.75000000 -0.50999999 199 109 101 97.000000 1.000000 4.000000 1.000000 176.000000 114.000000 254.000000 0.047730 -0.039245 0.998089
6.76999998 7.69999981 -0.57999998 199 109 101 97.000000 1.000000 4.000000 1.000000 176.000000 114.000000 254.000000 0.096279 0.436744 0.894419
6.78000021 7.71000004 -1.24000001 199 109 101 97.000000 1.000000 4.000000 1.000000 176.000000 114.000000 254.000000 -0.263309 -0.227087 0.937603
7.21000004 8.47000027 0.09000000 199 109 101 97.000000 1.000000 4.000000 1.000000 176.000000 114.000000 254.000000 0.583933 0.040609 0.810785
7.15999985 8.40999985 0.09000000 199 109 101 97.000000 1.000000 4.000000 1.000000 176.000000 114.000000 254.000000 0.664215 0.421169 0.617604
7.19000006 8.38000011 -0.02000000 199 109 101 97.000000 1.000000 4.000000 1.000000 176.000000 114.000000 254.000000 0.814884 0.256107 0.519974
7.17000008 8.43000031 0.04000000 199 109 101 97.000000 1.000000 4.000000 1.000000 176.000000 114.000000 254.000000 0.764809 0.049848 0.642326
7.19999981 8.38000011 -0.04000000 199 109 101 97.000000 1.000000 4.000000 1.000000 176.000000 114.000000 254.000000 0.850238 -0.209174 0.483055
7.15999985 8.35999966 -0.07000000 199 109 101 97.000000 1.000000 4.000000 1.000000 176.000000 114.000000 254.000000 0.871128 0.293416 0.393756
7.17000008 8.35999966 -0.08000000 199 109 101 97.000000 1.000000 4.000000 1.000000 176.000000 114.000000 254.000000 0.704676 0.518095 0.484777
7.15999985 8.35999966 -0.07000000 199 109 101 97.000000 1.000000 4.000000 1.000000 176.000000 114.000000 254.000000 0.871128 0.293416 0.393756
7.21999979 8.31000042 -0.10000000 199 109 101 97.000000 1.000000 4.000000 1.000000 176.000000 114.000000 254.000000 0.703381 0.297770 0.645437
7.21000004 8.31000042 -0.14000000 199 109 101 97.000000 1.000000 4.000000 1.000000 176.000000 114.000000 254.000000 0.981327 0.138439 0.133539
7.25000000 8.26000023 -0.14000000 199 109 101 97.000000 1.000000 4.000000 1.000000 176.000000 114.000000 254.000000 0.834630 -0.184972 0.518824
7.19999981 8.27000046 -0.18000001 199 109 101 97.000000 1.000000 4.000000 1.000000 176.000000 114.000000 254.000000 0.974811 -0.222780 0.010609
7.11999989 8.36999989 -0.14000000 199 109 101 97.000000 1.000000 4.000000 1.000000 176.000000 114.000000 254.000000 0.803658 0.441130 0.399423
7.11999989 8.36999989 -0.14000000 199 109 101 97.000000 1.000000 4.000000 1.000000 176.000000 114.000000 254.000000 0.803658 0.441130 0.399423
6.82999992 8.10999966 0.07000000 199 109 101 97.000000 1.000000 4.000000 1.000000 176.000000 114.000000 254.000000 0.548853 0.140542 0.824019
6.84000015 8.07999992 0.09000000 199 109 101 97.000000 1.000000 4.000000 1.000000 176.000000 114.000000 254.000000 0.387038 0.106057 0.915944
6.80999994 8.05000019 0.03000000 199 109 101 97.000000 1.000000 4.000000 1.000000 176.000000 114.000000 254.000000 0.054533 0.041702 0.997641
6.80000019 8.05000019 0.00000000 199 109 101 97.000000 1.000000 4.000000 1.000000 176.000000 114.000000 254.000000 0.136325 -0.025913 0.990325
6.82000017 7.96999979 0.10000000 199 109 101 97.000000 1.000000 4.000000 1.000000 176.000000 114.000000 254.000000 0.124651 0.034812 0.991590
6.84000015 8.06999969 -0.05000000 199 109 101 97.000000 1.000000 4.000000 1.000000 176.000000 114.000000 254.000000 0.598872 0.339199 0.725463
6.84000015 8.09000015 -0.10000000 199 109 101 97.000000 1.000000 4.000000 1.000000 176.000000 114.000000 254.000000 0.530230 0.066103 0.845273
6.82999992 8.07999992 -0.10000000 199 109 101 97.000000 1.000000 4.000000 1.000000 176.000000 114.000000 254.000000 0.488648 -0.125405 0.863422
6.84999990 8.02000046 -0.13000000 199 109 101 97.000000 1.000000 4.000000 1.000000 176.000000 114.000000 254.000000 0.661536 0.473961 0.581147
6.84000015 8.05000019 -0.14000000 199 109 101 97.000000 1.000000 4.000000 1.000000 176.000000 114.000000 254.000000 0.421364 -0.110591 0.900123
6.88000011 7.98000002 -0.08000000 199 109 101 97.000000 1.000000 4.000000 1.000000 176.000000 114.000000 254.000000 0.594423 -0.012413 0.804057
6.84999990 7.96000004 -0.09000000 199 109 101 97.000000 1.000000 4.000000 1.000000 176.000000 114.000000 254.000000 0.836568 0.211040 0.505585
6.80999994 7.96000004 -0.04000000 199 109 101 97.000000 1.000000 4.000000 1.000000 176.000000 114.000000 254.000000 0.308616 -0.090615 0.946861
6.80000019 7.94000006 -0.05000000 199 109 101 97.000000 1.000000 4.000000 1.000000 176.000000 114.000000 254.000000 0.453955 0.437684 0.776117
6.82999992 7.94999981 -0.04000000 199 109 101 97.000000 1.000000 4.000000 1.000000 176.000000 114.000000 254.000000 0.485658 0.456025 0.745773
6.80999994 8.01000023 -0.14000000 199 109 101 97.000000 1.000000 4.000000 1.000000 176.000000 114.000000 254.000000 0.807304 0.012378 0.590006
6.92000008 7.88000011 0.11000000 199 109 101 97.000000 1.000000 4.000000 1.000000 176.000000 114.000000 254.000000 0.519635 0.006749 0.854361
6.90000010 7.82000017 0.05000000 199 109 101 97.000000 1.000000 4.000000 1.000000 176.000000 114.000000 254.000000 0.756518 0.195678 0.624012
6.92000008 7.78000021 0.02000000 199 109 101 97.000000 1.000000 4.000000 1.000000 176.000000 114.000000 254.000000 0.398168 0.404514 0.823305
6.80000019 7.84999990 0.10000000 199 109 101 97.000000 1.000000 4.000000 1.000000 176.000000 114.000000 254.000000 0.005512 0.133389 0.991048
6.96000004 7.78999996 -0.05000000 199 109 101 97.000000 1.000000 4.000000 1.000000 176.000000 114.000000 254.000000 0.611399 -0.151723 0.776641
6.82000017 7.90999985 -0.09000000 199 109 101 97.000000 1.000000 4.000000 1.000000 176.000000 114.000000 254.000000 0.460401 0.011941 0.887631
6.80000019 7.78999996 -0.09000000 199 109 101 97.000000 1.000000 4.000000 1.000000 176.000000 114.000000 254.000000 0.152301 0.359094 0.920791
6.76999998 8.10999966 0.07000000 199 109 101 97.000000 1.000000 4.000000 1.000000 176.000000 114.000000 254.000000 0.382864 -0.195044 0.902980
6.78000021 8.03999996 -0.02000000 199 109 101 97.000000 1.000000 4.000000 1.000000 176.000000 114.000000 254.000000 0.555559 -0.112278 0.823861
6.78000021 8.01000023 0.09000000 199 109 101 97.000000 1.000000 4.000000 1.000000 176.000000 114.000000 254.000000 -0.069451 0.065041 0.995463
6.76000023 8.01000023 0.01000000 199 109 101 97.000000 1.000000 4.000000 1.000000 176.000000 114.000000 254.000000 -0.084554 0.110036 0.990325
6.78999996 8.01000023 0.02000000 199 109 101 97.000000 1.000000 4.000000 1.000000 176.000000 114.000000 254.000000 0.140347 0.362678 0.921286
6.76999998 8.01000023 -0.02000000 199 109 101 97.000000 1.000000 4.000000 1.000000 176.000000 114.000000 254.000000 0.573210 0.176954 0.800074
6.78999996 8.01000023 0.01000000 199 109 101 97.000000 1.000000 4.000000 1.000000 176.000000 114.000000 254.000000 0.394216 0.329286 0.858000
6.78000021 8.01000023 -0.09000000 199 109 101 97.000000 1.000000 4.000000 1.000000 176.000000 114.000000 254.000000 0.404118 -0.066227 0.912306
6.78999996 8.00000000 -0.09000000 199 109 101 97.000000 1.000000 4.000000 1.000000 176.000000 114.000000 254.000000 0.511423 0.422623 0.748223
6.78999996 7.94000006 -0.05000000 199 109 101 97.000000 1.000000 4.000000 1.000000 176.000000 114.000000 254.000000 0.215992 0.271731 0.937822
6.78000021 7.98999977 -0.14000000 199 109 101 97.000000 1.000000 4.000000 1.000000 176.000000 114.000000 254.000000 0.712821 0.092213 0.695257
6.78999996 7.98000002 -0.14000000 199 109 101 97.000000 1.000000 4.000000 1.000000 176.000000 114.000000 254.000000 0.590895 0.302653 0.747826
6.78000021 7.96000004 -0.15000001 199 109 101 97.000000 1.000000 4.000000 1.000000 176.000000 114.000000 254.000000 0.430626 0.420949 0.798351
6.78999996 7.90999985 0.09000000 199 109 101 97.000000 1.000000 4.000000 1.000000 176.000000 114.000000 254.000000 0.069382 0.420376 0.904693
6.76999998 7.88999987 0.09000000 199 109 101 97.000000 1.000000 4.000000 1.000000 176.000000 114.000000 254.000000 0.113448 -0.067611 0.991241
6.76999998 7.90999985 0.04000000 199 109 101 97.000000 1.000000 4.000000 1.000000 176.000000 114.000000 254.000000 0.244426 -0.030401 0.969191
6.76999998 7.92000008 0.04000000 199 109 101 97.000000 1.000000 4.000000 1.000000 176.000000 114.000000 254.000000 -0.063220 0.078748 0.994888
6.76000023 7.92000008 0.04000000 199 109 101 97.000000 1.000000 4.000000 1.000000 176.000000 114.000000 254.000000 0.189485 0.003445 0.981878
6.75000000 7.92000008 0.06000000 199 109 101 97.000000 1.000000 4.000000 1.000000 176.000000 114.000000 254.000000 -0.203293 0.036854 0.978424
6.73999977 7.88999987 -0.01000000 199 109 101 97.000000 1.000000 4.000000 1.000000 176.000000 114.000000 254.000000 0.127431 0.014405 0.991743
6.75000000 7.90000010 -0.01000000 199 109 101 97.000000 1.000000 4.000000 1.000000 176.000000 114.000000 254.000000 0.206524 0.051933 0.977062
6.76000023 7.92000008 -0.12000000 199 109 101 97.000000 1.000000 4.000000 1.000000 176.000000 114.000000 254.000000 0.010120 -0.151796 0.988360
6.75000000 7.90000010 -0.12000000 199 109 101 97.000000 1.000000 4.000000 1.000000 176.000000 114.000000 254.000000 0.561893 -0.012304 0.827118
7.73000002 7.26000023 -0.17000000 199 109 101 97.000000 1.000000 4.000000 1.000000 176.000000 114.000000 254.000000 0.992680 -0.089830 -0.080733
7.75000000 7.13000011 0.05000000 199 109 101 97.000000 1.000000 4.000000 1.000000 176.000000 114.000000 254.000000 0.937505 -0.163823 0.306995
7.71000004 7.15999985 0.02000000 199 109 101 97.000000 1.000000 4.000000 1.000000 176.000000 114.000000 254.000000 0.959600 -0.269608 0.080499
7.71000004 7.15999985 0.02000000 199 109 101 97.000000 1.000000 4.000000 1.000000 176.000000 114.000000 254.000000 0.959600 -0.269608 0.080499
7.69999981 7.19000006 -0.06000000 199 109 101 97.000000 1.000000 4.000000 1.000000 176.000000 114.000000 254.000000 0.985126 -0.169770 0.026563
7.69999981 7.19999981 -0.05000000 199 109 101 97.000000 1.000000 4.000000 1.000000 176.000000 114.000000 254.000000 0.980910 -0.039047 0.190502
7.69999981 7.21000004 -0.05000000 199 109 101 97.000000 1.000000 4.000000 1.000000 176.000000 114.000000 254.000000 0.944077 0.193200 -0.267192
7.69000006 7.19999981 -0.11000000 199 109 101 97.000000 1.000000 4.000000 1.000000 176.000000 114.000000 254.000000 0.982314 -0.180859 -0.048466
7.67999983 7.09000015 -0.04000000 199 109 101 97.000000 1.000000 4.000000 1.000000 176.000000 114.000000 254.000000 0.936337 -0.272110 0.221874
7.71999979 7.11000013 -0.14000000 199 109 101 97.000000 1.000000 4.000000 1.000000 176.000000 114.000000 254.000000 0.904944 0.154849 -0.396357
7.71000004 7.11000013 -0.12000000 199 109 101 97.000000 1.000000 4.000000 1.000000 176.000000 114.000000 254.000000 0.952620 -0.280648 -0.117266
7.65999985 7.11999989 -0.14000000 199 109 101 97.000000 1.000000 4.000000 1.000000 176.000000 114.000000 254.000000 0.958045 0.255566 -0.129749
7.59000015 7.09000015 0.00000000 199 109 101 97.000000 1.000000 4.000000 1.000000 176.000000 114.000000 254.000000 0.923326 0.344315 -0.170049
7.63000011 7.09000015 -0.06000000 199 109 101 97.000000 1.000000 4.000000 1.000000 176.000000 114.000000 254.000000 0.888024 -0.070434 0.454370
7.48999977 7.21999979 -0.03000000 199 109 101 97.000000 1.000000 4.000000 1.000000 176.000000 114.000000 196.000000 0.995386 -0.045095 -0.084690
7.57000017 7.11999989 -0.07000000 199 109 101 97.000000 1.000000 4.000000 1.000000 176.000000 114.000000 254.000000 0.876954 0.042279 0.478711
7.71000004 7.07000017 0.00000000 199 109 101 97.000000 1.000000 4.000000 1.000000 176.000000 114.000000 254.000000 0.963362 0.268202 -0.001203
7.73999977 6.98999977 -0.01000000 199 109 101 97.000000 1.000000 4.000000 1.000000 176.000000 114.000000 254.000000 0.953007 0.026298 0.301806
7.73999977 7.03000021 -0.07000000 199 109 101 97.000000 1.000000 4.000000 1.000000 176.000000 114.000000 254.000000 0.998743 -0.026090 0.042788
7.17000008 7.48000002 0.34000000 199 109 101 97.000000 1.000000 4.000000 1.000000 176.000000 114.000000 254.000000 0.430026 -0.179299 0.884833
7.15000010 7.44000006 0.36000001 199 109 101 97.000000 1.000000 4.000000 1.000000 176.000000 114.000000 254.000000 0.522988 0.086927 0.847896
7.21999979 7.42999983 0.25000000 199 109 101 97.000000 1.000000 4.000000 1.000000 176.000000 114.000000 254.000000 0.856971 0.221397 0.465385
7.21000004 7.42000008 0.31999999 199 109 101 97.000000 1.000000 4.000000 1.000000 176.000000 114.000000 254.000000 0.392622 0.249307 0.885265
7.15999985 7.63999987 -0.19000000 199 109 101 97.000000 1.000000 4.000000 1.000000 176.000000 114.000000 254.000000 0.964004 0.210020 -0.163059
7.19000006 7.48000002 0.05000000 199 109 101 97.000000 1.000000 4.000000 1.000000 176.000000 114.000000 254.000000 0.647973 0.540258 0.536892
7.21000004 7.51000023 -0.07000000 199 109 101 97.000000 1.000000 4.000000 1.000000 176.000000 114.000000 254.000000 0.996489 0.080622 0.022574
7.21999979 7.46999979 -0.07000000 199 109 101 97.000000 1.000000 4.000000 1.000000 176.000000 114.000000 254.000000 0.972881 0.225826 -0.050048
7.21999979 7.42000008 -0.04000000 199 109 101 97.000000 1.000000 4.000000 1.000000 176.000000 114.000000 254.000000 0.974365 0.223566 0.025106
7.15000010 7.46999979 -0.09000000 199 109 101 97.000000 1.000000 4.000000 1.000000 176.000000 114.000000 254.000000 0.725176 0.155936 0.670674
7.21000004 7.38999987 0.31999999 199 109 101 97.000000 1.000000 4.000000 1.000000 176.000000 114.000000 254.000000 0.535839 -0.219556 0.815274
7.21000004 7.26000023 0.15000001 199 109 101 97.000000 1.000000 4.000000 1.000000 176.000000 114.000000 254.000000 0.604555 0.368631 0.706133
7.40000010 7.30999994 -0.08000000 199 109 101 97.000000 1.000000 4.000000 1.000000 176.000000 114.000000 196.000000 0.948752 -0.044692 0.312846
7.34999990 7.40999985 -0.13000000 199 109 101 97.000000 1.000000 4.000000 1.000000 176.000000 114.000000 196.000000 0.942282 -0.228306 0.244910
7.44000006 7.21999979 -0.05000000 199 109 101 97.000000 1.000000 4.000000 1.000000 176.000000 114.000000 196.000000 0.928913 -0.230461 0.289843
7.44000006 7.19999981 -0.05000000 199 109 101 97.000000 1.000000 4.000000 1.000000 176.000000 114.000000 196.000000 0.991705 0.128493 -0.003295
7.42000008 7.15000010 -0.05000000 199 109 101 97.000000 1.000000 4.000000 1.000000 176.000000 114.000000 196.000000 0.915781 0.022209 0.401063
7.23000002 7.25000000 0.13000000 199 109 101 97.000000 1.000000 4.000000 1.000000 176.000000 114.000000 254.000000 0.950675 0.065786 0.303132
7.21999979 7.25000000 0.13000000 199 109 101 97.000000 1.000000 4.000000 1.000000 176.000000 114.000000 254.000000 0.783360 0.148284 0.603622
7.21000004 7.26999998 0.13000000 199 109 101 97.000000 1.000000 4.000000 1.000000 176.000000 114.000000 254.000000 0.781702 0.514150 0.352975
7.17000008 7.32000017 0.13000000 199 109 101 97.000000 1.000000 4.000000 1.000000 176.000000 114.000000 254.000000 0.500699 0.141597 0.853962
7.21000004 7.30999994 -0.02000000 199 109 101 97.000000 1.000000 4.000000 1.000000 176.000000 114.000000 254.000000 0.888891 -0.138844 0.436573
7.17000008 7.28000021 0.01000000 199 109 101 97.000000 1.000000 4.000000 1.000000 176.000000 114.000000 254.000000 0.935078 0.296828 0.193705
7.17000008 7.28000021 0.01000000 199 109 101 97.000000 1.000000 4.000000 1.000000 176.000000 114.000000 254.000000 0.935078 0.296828 0.193705
7.25000000 7.32999992 -0.09000000 199 109 101 97.000000 1.000000 4.000000 1.000000 176.000000 114.000000 254.000000 0.908047 -0.273438 0.317305
7.25000000 7.40999985 -0.13000000 199 109 101 97.000000 1.000000 4.000000 1.000000 176.000000 114.000000 254.000000 0.868793 0.262306 0.419993
7.17000008 7.36000013 -0.10000000 199 109 101 97.000000 1.000000 4.000000 1.000000 176.000000 114.000000 254.000000 0.990561 -0.130486 0.041983
7.15000010 7.36000013 -0.05000000 199 109 101 97.000000 1.000000 4.000000 1.000000 176.000000 114.000000 254.000000 0.774867 0.448607 0.445345
7.15000010 7.32999992 -0.03000000 199 109 101 97.000000 1.000000 4.000000 1.000000 176.000000 114.000000 254.000000 0.992991 0.062133 0.100542
7.17000008 7.40999985 -0.14000000 199 109 101 97.000000 1.000000 4.000000 1.000000 176.000000 114.000000 254.000000 0.943051 -0.219539 0.249915
7.15000010 7.36999989 -0.19000000 199 109 101 97.000000 1.000000 4.000000 1.000000 176.000000 114.000000 254.000000 0.956372 -0.257231 -0.138509
7.15999985 7.32000017 -0.05000000 199 109 101 97.000000 1.000000 4.000000 1.000000 176.000000 114.000000 254.000000 0.962817 -0.015864 0.269687
7.21000004 7.32000017 -0.04000000 199 109 101 97.000000 1.000000 4.000000 1.000000 176.000000 114.000000 254.000000 0.987910 0.145110 0.054561
7.21999979 7.32000017 -0.05000000 199 109 101 97.000000 1.000000 4.000000 1.000000 176.000000 114.000000 254.000000 0.940650 0.094464 0.325968
7.17999983 7.28999996 -0.09000000 199 109 101 97.000000 1.000000 4.000000 1.000000 176.000000 114.000000 254.000000 0.828027 0.169199 0.534549
7.21999979 7.30999994 -0.05000000 199 109 101 97.000000 1.000000 4.000000 1.000000 176.000000 114.000000 254.000000 0.996676 -0.057605 -0.057605
7.21999979 7.32000017 -0.15000001 199 109 101 97.000000 1.000000 4.000000 1.000000 176.000000 114.000000 254.000000 0.981960 -0.003437 0.189059
7.15999985 7.23999977 0.00000000 199 109 101 97.000000 1.000000 4.000000 1.000000 176.000000 114.000000 254.000000 0.887982 0.380564 0.258186
7.15999985 7.23999977 0.11000000 199 109 101 97.000000 1.000000 4.000000 1.000000 176.000000 114.000000 254.000000 0.895679 0.011872 0.444542
6.98000002 7.71999979 -0.01000000 199 109 101 97.000000 1.000000 4.000000 1.000000 176.000000 114.000000 254.000000 0.822746 -0.069628 0.564128
7.09999990 7.61999989 -0.18000001 199 109 101 97.000000 1.000000 4.000000 1.000000 176.000000 114.000000 254.000000 0.812404 0.391039 0.432537
7.01000023 7.67999983 -0.19000000 199 109 101 97.000000 1.000000 4.000000 1.000000 176.000000 114.000000 254.000000 0.794769 0.207531 0.570327
6.98999977 7.73999977 -0.13000000 199 109 101 97.000000 1.000000 4.000000 1.000000 176.000000 114.000000 254.000000 0.962826 0.056342 0.264182
7.09000015 7.42999983 0.14000000 199 109 101 97.000000 1.000000 4.000000 1.000000 176.000000 114.000000 254.000000 0.492947 0.286379 0.821578
7.11000013 7.46000004 0.10000000 199 109 101 97.000000 1.000000 4.000000 1.000000 176.000000 114.000000 254.000000 0.775263 0.411198 0.479461
7.13999987 7.46999979 0.00000000 199 109 101 97.000000 1.000000 4.000000 1.000000 176.000000 114.000000 254.000000 0.903047 -0.128202 0.409964
6.98000002 7.55999994 0.10000000 199 109 101 97.000000 1.000000 4.000000 1.000000 176.000000 114.000000 254.000000 0.704910 0.120714 0.698949
6.98000002 7.46999979 0.13000000 199 109 101 97.000000 1.000000 4.000000 1.000000 176.000000 114.000000 254.000000 0.268184 0.116431 0.956306
7.09999990 7.57999992 -0.17000000 199 109 101 97.000000 1.000000 4.000000 1.000000 176.000000 114.000000 254.000000 0.975079 0.219483 0.032383
7.13999987 7.42999983 -0.16000000 199 109 101 97.000000 1.000000 4.000000 1.000000 176.000000 114.000000 254.000000 0.996926 -0.071899 0.031120
7.09999990 7.42999983 -0.19000000 199 109 101 97.000000 1.000000 4.000000 1.000000 176.000000 114.000000 254.000000 0.876246 0.146282 0.459124
7.01000023 7.46000004 -0.17000000 199 109 101 97.000000 1.000000 4.000000 1.000000 176.000000 114.000000 254.000000 0.991608 0.007721 -0.129052
7.03000021 7.48000002 -0.17000000 199 109 101 97.000000 1.000000 4.000000 1.000000 176.000000 114.000000 254.000000 0.846549 0.255649 0.466903
6.94000006 7.69999981 -0.08000000 199 109 101 97.000000 1.000000 4.000000 1.000000 176.000000 114.000000 254.000000 0.568492 -0.094025 0.817298
6.92999983 7.71000004 -0.11000000 199 109 101 97.000000 1.000000 4.000000 1.000000 176.000000 114.000000 254.000000 0.638573 -0.018086 0.769349
6.90000010 7.69999981 -0.16000000 199 109 101 97.000000 1.000000 4.000000 1.000000 176.000000 114.000000 254.000000 0.801573 0.380707 0.461025
6.94000006 7.59999990 -0.05000000 199 109 101 97.000000 1.000000 4.000000 1.000000 176.000000 114.000000 254.000000 0.756837 0.058658 0.650966
6.96000004 7.61999989 -0.08000000 199 109 101 97.000000 1.000000 4.000000 1.000000 176.000000 114.000000 254.000000 0.925805 0.226118 0.302913
6.94999981 7.59999990 -0.08000000 199 109 101 97.000000 1.000000 4.000000 1.000000 176.000000 114.000000 254.000000 0.730063 0.420239 0.538895
6.92000008 7.61000013 -0.09000000 199 109 101 97.000000 1.000000 4.000000 1.000000 176.000000 114.000000 254.000000 0.585637 0.353992 0.729191
6.94000006 7.67000008 -0.14000000 199 109 101 97.000000 1.000000 4.000000 1.000000 176.000000 114.000000 254.000000 0.668407 0.464032 0.581297
6.92000008 7.67000008 -0.13000000 199 109 101 97.000000 1.000000 4.000000 1.000000 176.000000 114.000000 254.000000 0.548703 0.391463 0.738702
6.96999979 7.65000010 -0.13000000 199 109 101 97.000000 1.000000 4.000000 1.000000 176.000000 114.000000 254.000000 0.831430 0.386528 0.399149
6.94000006 7.65000010 -0.13000000 199 109 101 97.000000 1.000000 4.000000 1.000000 176.000000 114.000000 254.000000 0.932723 0.089659 0.349269
6.80999994 7.75000000 -0.06000000 199 109 101 97.000000 1.000000 4.000000 1.000000 176.000000 114.000000 254.000000 0.519504 0.123691 0.845468
6.82000017 7.73000002 -0.08000000 199 109 101 97.000000 1.000000 4.000000 1.000000 176.000000 114.000000 254.000000 0.176570 0.088894 0.980266
6.86999989 7.71000004 -0.11000000 199 109 101 97.000000 1.000000 4.000000 1.000000 176.000000 114.000000 254.000000 0.783192 0.227979 0.578477
6.84000015 7.61000013 -0.04000000 199 109 101 97.000000 1.000000 4.000000 1.000000 176.000000 114.000000 254.000000 0.179747 0.281283 0.942640
6.86999989 7.65000010 -0.05000000 199 109 101 97.000000 1.000000 4.000000 1.000000 176.000000 114.000000 254.000000 0.274707 0.036047 0.960852
6.88000011 7.67000008 -0.06000000 199 109 101 97.000000 1.000000 4.000000 1.000000 176.000000 114.000000 254.000000 0.265453 0.279802 0.922630
6.82999992 7.65000010 -0.06000000 199 109 101 97.000000 1.000000 4.000000 1.000000 176.000000 114.000000 254.000000 0.180327 0.493293 0.850967
6.80000019 7.61999989 -0.03000000 199 109 101 97.000000 1.000000 4.000000 1.000000 176.000000 114.000000 254.000000 -0.071369 0.055997 0.995877
6.92999983 7.46999979 0.14000000 199 109 101 97.000000 1.000000 4.000000 1.000000 176.000000 114.000000 254.000000 0.709796 -0.067944 0.701123
6.96000004 7.46999979 0.12000000 199 109 101 97.000000 1.000000 4.000000 1.000000 176.000000 114.000000 254.000000 0.250127 -0.005984 0.968195
6.96000004 7.48000002 0.13000000 199 109 101 97.000000 1.000000 4.000000 1.000000 176.000000 114.000000 254.000000 0.414528 -0.257761 0.872769
6.98000002 7.34999990 0.11000000 199 109 101 97.000000 1.000000 4.000000 1.000000 176.000000 114.000000 255.000000 0.228891 -0.065574 0.971241
7.13000011 7.34999990 -0.17000000 199 109 101 97.000000 1.000000 4.000000 1.000000 176.000000 114.000000 254.000000 0.905594 0.411886 0.101238
6.90000010 7.30000019 0.06000000 199 109 101 97.000000 1.000000 4.000000 1.000000 176.000000 114.000000 255.000000 0.504147 0.457865 0.732253
6.96000004 7.21999979 0.08000000 199 109 101 97.000000 1.000000 4.000000 1.000000 176.000000 114.000000 255.000000 0.628274 0.209425 0.749275
6.92999983 7.21999979 0.09000000 199 109 101 97.000000 1.000000 4.000000 1.000000 176.000000 114.000000 255.000000 0.089573 0.235917 0.967636
6.94999981 7.23999977 0.04000000 199 109 101 97.000000 1.000000 4.000000 1.000000 176.000000 114.000000 255.000000 0.445289 0.253800 0.858664
6.88999987 7.23999977 0.08000000 199 109 101 97.000000 1.000000 4.000000 1.000000 176.000000 114.000000 255.000000 -0.070878 0.131299 0.988806
6.92999983 7.11000013 -0.17000000 199 109 101 97.000000 1.000000 4.000000 1.000000 176.000000 114.000000 1.000000 0.925796 0.283873 -0.249637
7.19000006 6.63000011 0.15000001 199 109 101 97.000000 1.000000 4.000000 1.000000 176.000000 114.000000 1.000000 0.672338 0.076963 0.736232
7.17000008 6.69000006 0.12000000 199 109 101 97.000000 1.000000 4.000000 1.000000 176.000000 114.000000 1.000000 0.475142 0.169168 0.863494
6.98999977 6.94000006 0.02000000 199 109 101 97.000000 1.000000 4.000000 1.000000 176.000000 114.000000 1.000000 0.734648 0.324537 0.595792
6.98000002 6.94000006 0.02000000 199 109 101 97.000000 1.000000 4.000000 1.000000 176.000000 114.000000 1.000000 0.576838 0.328006 0.748111
7.11999989 6.86000013 0.08000000 199 109 101 97.000000 1.000000 4.000000 1.000000 176.000000 114.000000 1.000000 0.843851 0.200057 0.497887
7.11999989 6.86000013 0.08000000 199 109 101 97.000000 1.000000 4.000000 1.000000 176.000000 114.000000 1.000000 0.843851 0.200057 0.497887
7.05999994 6.73999977 0.08000000 199 109 101 97.000000 1.000000 4.000000 1.000000 176.000000 114.000000 1.000000 0.476547 -0.045060 0.877993
7.07000017 6.78000021 0.06000000 199 109 101 97.000000 1.000000 4.000000 1.000000 176.000000 114.000000 1.000000 0.922009 -0.009001 0.387064
7.01999998 6.82999992 0.06000000 199 109 101 97.000000 1.000000 4.000000 1.000000 176.000000 114.000000 1.000000 0.700903 -0.038231 0.712231
6.98999977 6.80999994 -0.01000000 199 109 101 97.000000 1.000000 4.000000 1.000000 176.000000 114.000000 1.000000 0.851857 0.167409 0.496300
7.01000023 6.80000019 0.00000000 199 109 101 97.000000 1.000000 4.000000 1.000000 176.000000 114.000000 1.000000 0.545703 0.072288 0.834855
7.00000000 6.86999989 -0.06000000 199 109 101 97.000000 1.000000 4.000000 1.000000 176.000000 114.000000 1.000000 0.950961 0.299689 0.076544
7.03000021 6.80999994 -0.06000000 199 109 101 97.000000 1.000000 4.000000 1.000000 176.000000 114.000000 1.000000 0.981327 -0.133539 0.138439
6.82000017 6.90000010 0.08000000 199 109 101 97.000000 1.000000 4.000000 1.000000 176.000000 114.000000 1.000000 0.262235 -0.020735 0.964781
6.92999983 7.07000017 -0.17000000 199 109 101 97.000000 1.000000 4.000000 1.000000 176.000000 114.000000 1.000000 0.991590 0.124651 0.034812
6.94000006 7.03999996 -0.18000001 199 109 101 97.000000 1.000000 4.000000 1.000000 176.000000 114.000000 1.000000 0.855252 0.397468 -0.332512
6.90000010 7.03000021 -0.15000001 199 109 101 97.000000 1.000000 4.000000 1.000000 176.000000 114.000000 1.000000 0.852863 0.437956 0.284288
6.90000010 7.07000017 -0.18000001 199 109 101 97.000000 1.000000 4.000000 1.000000 176.000000 114.000000 1.000000 0.972930 0.228427 0.035050
6.94000006 6.96999979 -0.05000000 199 109 101 97.000000 1.000000 4.000000 1.000000 176.000000 114.000000 1.000000 0.706773 0.422077 0.567735
6.96999979 6.94000006 -0.06000000 199 109 101 97.000000 1.000000 4.000000 1.000000 176.000000 114.000000 1.000000 0.708687 0.386407 0.590298
6.94000006 6.92000008 -0.13000000 199 109 101 97.000000 1.000000 4.000000 1.000000 176.000000 114.000000 1.000000 0.966331 0.256473 -0.020664
6.92000008 6.98000002 -0.12000000 199 109 101 97.000000 1.000000 4.000000 1.000000 176.000000 114.000000 1.000000 0.932830 0.321999 0.161691
6.88999987 6.88999987 0.05000000 199 109 101 97.000000 1.000000 4.000000 1.000000 176.000000 114.000000 1.000000 -0.104657 0.259704 0.960000
6.96000004 6.82999992 0.02000000 199 109 101 97.000000 1.000000 4.000000 1.000000 176.000000 114.000000 1.000000 0.680357 0.153042 0.716723
6.96000004 6.82999992 0.00000000 199 109 101 97.000000 1.000000 4.000000 1.000000 176.000000 114.000000 1.000000 0.434696 -0.132547 0.890770
6.96999979 6.84000015 -0.01000000 199 109 101 97.000000 1.000000 4.000000 1.000000 176.000000 114.000000 1.000000 0.668950 0.169142 0.723807
6.86000013 6.86999989 0.04000000 199 109 101 97.000000 1.000000 4.000000 1.000000 176.000000 114.000000 1.000000 0.421960 0.225145 0.878214
6.84999990 6.88000011 0.04000000 199 109 101 97.000000 1.000000 4.000000 1.000000 176.000000 114.000000 1.000000 0.007089 -0.029369 0.999544
6.86000013 6.80999994 0.09000000 199 109 101 97.000000 1.000000 4.000000 1.000000 176.000000 114.000000 1.000000 -0.097407 0.027362 0.994868
6.82000017 6.80999994 0.09000000 199 109 101 97.000000 1.000000 4.000000 1.000000 176.000000 114.000000 1.000000 0.041983 0.130486 0.990561
6.90999985 6.88000011 -0.09000000 199 109 101 97.000000 1.000000 4.000000 1.000000 176.000000 114.000000 1.000000 0.870425 0.009388 0.492212
7.13999987 6.57000017 0.16000000 199 109 101 97.000000 1.000000 4.000000 1.000000 176.000000 114.000000 1.000000 0.736695 0.328679 0.590975
7.11000013 6.53999996 0.17000000 199 109 101 97.000000 1.000000 4.000000 1.000000 176.000000 114.000000 1.000000 0.742891 0.110769 0.660184
7.07999992 6.55999994 0.19000000 199 109 101 97.000000 1.000000 4.000000 1.000000 176.000000 114.000000 1.000000 0.545441 0.366341 0.753849
7.05999994 6.67000008 0.10000000 199 109 101 97.000000 1.000000 4.000000 1.000000 176.000000 114.000000 1.000000 0.594022 0.343394 0.727474
7.07000017 6.69000006 0.05000000 199 109 101 97.000000 1.000000 4.000000 1.000000 176.000000 114.000000 1.000000 0.811957 0.457823 0.362111
7.09999990 6.61999989 0.10000000 199 109 101 97.000000 1.000000 4.000000 1.000000 176.000000 114.000000 1.000000 0.607271 0.271131 0.746800
7.03000021 6.69999981 0.13000000 199 109 101 97.000000 1.000000 4.000000 1.000000 176.000000 114.000000 1.000000 0.503808 0.180892 0.844663
7.05000019 6.71999979 0.05000000 199 109 101 97.000000 1.000000 4.000000 1.000000 176.000000 114.000000 1.000000 0.502241 0.442960 0.742658
