//X Y Z R G B PointSourceId ScanDirectionFlag NumberOfReturns ReturnNumber GpsTime Intensity Classification Nx Ny Nz
16.25000000 3.99000001 -0.72000003 163 186 81 116.000000 1.000000 4.000000 4.000000 0.000000 95.000000 186.000000 0.656299 -0.219806 0.721773
16.27000046 4.00000000 -0.72000003 163 186 81 116.000000 1.000000 4.000000 4.000000 0.000000 95.000000 186.000000 -0.581442 0.638744 -0.503916
16.31999969 4.01999998 -0.80000001 163 186 81 116.000000 1.000000 4.000000 4.000000 0.000000 95.000000 186.000000 0.923403 -0.119726 0.364682
16.42000008 3.96000004 -0.75999999 163 186 81 116.000000 1.000000 4.000000 4.000000 0.000000 95.000000 186.000000 0.629815 -0.254136 0.733995
16.37999916 3.95000005 -0.75999999 163 186 81 116.000000 1.000000 4.000000 4.000000 0.000000 95.000000 186.000000 0.659294 -0.652718 0.373216
16.37000084 3.97000003 -0.75000000 163 186 81 116.000000 1.000000 4.000000 4.000000 0.000000 95.000000 186.000000 0.558553 -0.308885 0.769811
16.37000084 3.97000003 -0.75000000 163 186 81 116.000000 1.000000 4.000000 4.000000 0.000000 95.000000 186.000000 0.558553 -0.308885 0.769811
16.36000061 3.93000007 -0.75999999 163 186 81 116.000000 1.000000 4.000000 4.000000 0.000000 95.000000 186.000000 0.838754 -0.502039 0.210826
16.36000061 3.93000007 -0.76999998 163 186 81 116.000000 1.000000 4.000000 4.000000 0.000000 95.000000 186.000000 0.893482 -0.431873 0.123190
16.35000038 3.92000008 -0.76999998 163 186 81 116.000000 1.000000 4.000000 4.000000 0.000000 95.000000 186.000000 0.914203 -0.274697 0.297952
16.34000015 3.86999989 -0.74000001 163 186 81 116.000000 1.000000 4.000000 4.000000 0.000000 95.000000 186.000000 0.681326 -0.193120 0.706045
16.35000038 3.88000011 -0.75000000 163 186 81 116.000000 1.000000 4.000000 4.000000 0.000000 95.000000 186.000000 0.743583 -0.185512 0.642394
16.35000038 3.89000010 -0.76999998 163 186 81 116.000000 1.000000 4.000000 4.000000 0.000000 95.000000 186.000000 0.731408 -0.052959 0.679880
16.34000015 3.88000011 -0.75999999 163 186 81 116.000000 1.000000 4.000000 4.000000 0.000000 95.000000 186.000000 0.510854 -0.444724 0.735696
16.32999992 3.91000009 -0.73000002 163 186 81 116.000000 1.000000 4.000000 4.000000 0.000000 95.000000 186.000000 0.698557 -0.379686 0.606512
16.31999969 3.93000007 -0.79000002 163 186 81 116.000000 1.000000 4.000000 4.000000 0.000000 95.000000 186.000000 0.651856 -0.510368 0.560899
16.26000023 3.91000009 -0.72000003 163 186 81 116.000000 1.000000 4.000000 4.000000 0.000000 95.000000 186.000000 0.937960 -0.218811 0.268984
16.26000023 3.91000009 -0.72000003 163 186 81 116.000000 1.000000 4.000000 4.000000 0.000000 95.000000 186.000000 0.937960 -0.218811 0.268984
16.29000092 3.93000007 -0.75999999 163 186 81 116.000000 1.000000 4.000000 4.000000 0.000000 95.000000 186.000000 0.673735 -0.519162 0.525883
16.32999992 3.86999989 -0.75999999 163 186 81 116.000000 1.000000 4.000000 4.000000 0.000000 95.000000 186.000000 -0.577226 0.509911 -0.637810
16.29999924 3.88000011 -0.75999999 163 186 81 116.000000 1.000000 4.000000 4.000000 0.000000 95.000000 186.000000 0.749070 -0.317348 0.581536
16.31999969 3.89000010 -0.73000002 163 186 81 116.000000 1.000000 4.000000 4.000000 0.000000 95.000000 186.000000 0.833565 -0.117834 0.539708
16.31999969 3.86999989 -0.75000000 163 186 81 116.000000 1.000000 4.000000 4.000000 0.000000 95.000000 186.000000 0.530389 -0.349831 0.772208
16.42000008 4.05999994 -0.95999998 163 186 81 116.000000 1.000000 4.000000 4.000000 0.000000 95.000000 186.000000 0.725537 -0.378327 0.574861
16.42000008 4.09000015 -0.93000001 163 186 81 116.000000 1.000000 4.000000 4.000000 0.000000 95.000000 186.000000 0.597952 -0.671239 0.438054
16.37000084 4.05999994 -0.91000003 163 186 81 116.000000 1.000000 4.000000 4.000000 0.000000 95.000000 186.000000 -0.423066 0.705110 -0.569065
16.42000008 4.03999996 -1.10000002 163 186 81 116.000000 1.000000 4.000000 4.000000 0.000000 95.000000 186.000000 -0.482432 0.731108 -0.482432
16.38999939 4.03999996 -1.12000000 163 186 81 116.000000 1.000000 4.000000 4.000000 0.000000 95.000000 188.000000 0.375582 -0.350853 0.857811
16.38999939 4.03999996 -1.12000000 163 186 81 116.000000 1.000000 4.000000 4.000000 0.000000 95.000000 188.000000 0.375582 -0.350853 0.857811
16.38999939 4.03000021 -1.12000000 163 186 81 116.000000 1.000000 4.000000 4.000000 0.000000 95.000000 188.000000 -0.438468 0.615189 -0.655201
16.40999985 3.99000001 -1.07000005 163 186 81 116.000000 1.000000 4.000000 4.000000 0.000000 95.000000 188.000000 0.808412 -0.414611 0.417813
16.38999939 4.01999998 -1.13000000 163 186 81 116.000000 1.000000 4.000000 4.000000 0.000000 95.000000 188.000000 0.585068 -0.317516 0.746243
16.38999939 4.01999998 -1.13000000 163 186 81 116.000000 1.000000 4.000000 4.000000 0.000000 95.000000 188.000000 0.585068 -0.317516 0.746243
16.36000061 4.03000021 -1.12000000 163 186 81 116.000000 1.000000 4.000000 4.000000 0.000000 95.000000 188.000000 0.357004 -0.588486 0.725419
16.37000084 4.03000021 -1.12000000 163 186 81 116.000000 1.000000 4.000000 4.000000 0.000000 95.000000 188.000000 0.210987 -0.379777 0.900696
16.34000015 4.05000019 -1.13000000 163 186 81 116.000000 1.000000 4.000000 4.000000 0.000000 95.000000 188.000000 0.805674 -0.291682 0.515568
16.35000038 4.05000019 -1.13999999 163 186 81 116.000000 1.000000 4.000000 4.000000 0.000000 95.000000 188.000000 0.195677 -0.541524 0.817595
16.37000084 3.98000002 -1.12000000 163 186 81 116.000000 1.000000 4.000000 4.000000 0.000000 95.000000 188.000000 -0.393901 0.716933 -0.575195
16.37000084 3.98000002 -1.12000000 163 186 81 116.000000 1.000000 4.000000 4.000000 0.000000 95.000000 188.000000 -0.393901 0.716933 -0.575195
16.32999992 4.03999996 -1.12000000 163 186 81 116.000000 1.000000 4.000000 4.000000 0.000000 95.000000 188.000000 0.743559 -0.123678 0.657133
16.29999924 3.99000001 -1.11000001 163 186 81 116.000000 1.000000 4.000000 4.000000 0.000000 95.000000 188.000000 0.725356 -0.418030 0.546909
16.31999969 4.00000000 -1.12000000 163 186 81 116.000000 1.000000 4.000000 4.000000 0.000000 95.000000 188.000000 0.768502 -0.388313 0.508544
16.27000046 3.99000001 -1.12000000 163 186 81 116.000000 1.000000 4.000000 4.000000 0.000000 95.000000 188.000000 0.517635 -0.242593 0.820490
16.19000053 3.99000001 -1.03999996 163 186 81 116.000000 1.000000 4.000000 4.000000 0.000000 95.000000 188.000000 0.497250 -0.483945 0.720097
16.19000053 3.98000002 -1.05999994 163 186 81 116.000000 1.000000 4.000000 4.000000 0.000000 95.000000 188.000000 0.539354 -0.522552 0.660331
16.11000061 3.99000001 -1.05999994 163 186 81 116.000000 1.000000 4.000000 4.000000 0.000000 95.000000 188.000000 0.656277 -0.020990 0.754228
16.23999977 3.99000001 -1.09000003 163 186 81 116.000000 1.000000 4.000000 4.000000 0.000000 95.000000 188.000000 0.555657 -0.140766 0.819409
16.29000092 3.84999990 -1.03999996 163 186 81 116.000000 1.000000 4.000000 4.000000 0.000000 95.000000 188.000000 0.870545 -0.325880 0.368719
16.28000069 3.82999992 -1.04999995 163 186 81 116.000000 1.000000 4.000000 4.000000 0.000000 95.000000 188.000000 0.859578 -0.224303 0.459144
16.28000069 3.82999992 -1.02999997 163 186 81 116.000000 1.000000 4.000000 4.000000 0.000000 95.000000 188.000000 0.696391 -0.286561 0.657969
16.37000084 3.97000003 -1.13000000 163 186 81 116.000000 1.000000 4.000000 4.000000 0.000000 95.000000 188.000000 0.548352 -0.534854 0.642838
16.29999924 3.96000004 -1.13999999 163 186 81 116.000000 1.000000 4.000000 4.000000 0.000000 95.000000 188.000000 -0.673248 0.626931 -0.392039
16.31999969 3.97000003 -1.16999996 163 186 81 116.000000 1.000000 4.000000 4.000000 0.000000 95.000000 188.000000 -0.277184 0.765027 -0.581294
16.27000046 3.83999991 -1.05999994 163 186 81 116.000000 1.000000 4.000000 4.000000 0.000000 95.000000 188.000000 0.541808 -0.143203 0.828213
16.29999924 3.80999994 -1.07000005 163 186 81 116.000000 1.000000 4.000000 4.000000 0.000000 95.000000 188.000000 0.814215 -0.196325 0.546361
16.29000092 3.88000011 -1.10000002 163 186 81 116.000000 1.000000 4.000000 4.000000 0.000000 95.000000 188.000000 0.413027 -0.406648 0.814891
16.26000023 3.88000011 -1.07000005 163 186 81 116.000000 1.000000 4.000000 4.000000 0.000000 95.000000 188.000000 0.700615 -0.176303 0.691416
16.25000000 3.78999996 -1.02999997 163 186 81 116.000000 1.000000 4.000000 4.000000 0.000000 95.000000 188.000000 0.735567 -0.285611 0.614302
16.26000023 3.76999998 -1.02999997 163 186 81 116.000000 1.000000 4.000000 4.000000 0.000000 95.000000 188.000000 0.506233 -0.355166 0.785866
16.29999924 3.77999997 -1.05999994 163 186 81 116.000000 1.000000 4.000000 4.000000 0.000000 95.000000 188.000000 0.787109 -0.207945 0.580705
16.26000023 3.73000002 -1.05999994 163 186 81 116.000000 1.000000 4.000000 4.000000 0.000000 95.000000 188.000000 0.428803 -0.441748 0.788027
16.25000000 3.73000002 -1.05999994 163 186 81 116.000000 1.000000 4.000000 4.000000 0.000000 95.000000 188.000000 0.745183 -0.264216 0.612284
16.28000069 3.74000001 -1.07000005 163 186 81 116.000000 1.000000 4.000000 4.000000 0.000000 95.000000 188.000000 0.515646 -0.342158 0.785517
16.17000008 3.97000003 -1.02999997 163 186 81 116.000000 1.000000 4.000000 4.000000 0.000000 95.000000 188.000000 0.610605 -0.383480 0.692896
16.18000031 3.96000004 -1.04999995 163 186 81 116.000000 1.000000 4.000000 4.000000 0.000000 95.000000 188.000000 0.690734 -0.041132 0.721938
16.18000031 3.82999992 -1.04999995 163 186 81 116.000000 1.000000 4.000000 4.000000 0.000000 95.000000 188.000000 0.717343 -0.490989 0.494317
16.17000008 3.81999993 -1.04999995 163 186 81 116.000000 1.000000 4.000000 4.000000 0.000000 95.000000 188.000000 0.739647 -0.549406 0.388684
16.17000008 3.81999993 -1.04999995 163 186 81 116.000000 1.000000 4.000000 4.000000 0.000000 95.000000 188.000000 0.739647 -0.549406 0.388684
16.17000008 3.82999992 -1.03999996 163 186 81 116.000000 1.000000 4.000000 4.000000 0.000000 95.000000 188.000000 0.585837 -0.154325 0.795600
16.17000008 3.81999993 -1.04999995 163 186 81 116.000000 1.000000 4.000000 4.000000 0.000000 95.000000 188.000000 0.739647 -0.549406 0.388684
16.14999962 3.96000004 -1.03999996 163 186 81 116.000000 1.000000 4.000000 4.000000 0.000000 95.000000 188.000000 0.762653 0.001379 0.646807
16.15999985 3.96000004 -1.03999996 163 186 81 116.000000 1.000000 4.000000 4.000000 0.000000 95.000000 188.000000 0.768823 -0.245836 0.590318
16.13999939 3.93000007 -1.00999999 163 186 81 116.000000 1.000000 4.000000 4.000000 0.000000 95.000000 188.000000 0.536915 -0.253673 0.804594
16.15999985 3.80999994 -1.03999996 163 186 81 116.000000 1.000000 4.000000 4.000000 0.000000 95.000000 188.000000 0.729760 -0.388659 0.562489
16.15999985 3.81999993 -1.03999996 163 186 81 116.000000 1.000000 4.000000 4.000000 0.000000 95.000000 188.000000 0.586978 -0.343081 0.733316
16.15999985 3.80999994 -1.04999995 163 186 81 116.000000 1.000000 4.000000 4.000000 0.000000 95.000000 188.000000 0.775575 -0.473149 0.417867
16.12000084 3.85999990 -1.00999999 163 186 81 116.000000 1.000000 4.000000 4.000000 0.000000 95.000000 188.000000 0.823290 -0.523912 0.218424
16.09000015 3.86999989 -1.02999997 163 186 81 116.000000 1.000000 4.000000 4.000000 0.000000 95.000000 188.000000 0.666477 -0.186244 0.721888
16.09000015 3.86999989 -1.02999997 163 186 81 116.000000 1.000000 4.000000 4.000000 0.000000 95.000000 188.000000 0.666477 -0.186244 0.721888
16.12000084 3.86999989 -1.03999996 163 186 81 116.000000 1.000000 4.000000 4.000000 0.000000 95.000000 188.000000 0.930771 -0.073237 0.358194
16.12000084 3.85999990 -1.02999997 163 186 81 116.000000 1.000000 4.000000 4.000000 0.000000 95.000000 188.000000 -0.435008 0.631678 -0.641678
16.10000038 3.88000011 -1.01999998 163 186 81 116.000000 1.000000 4.000000 4.000000 0.000000 95.000000 188.000000 0.752542 -0.390146 0.530534
16.12000084 3.85999990 -1.04999995 163 186 81 116.000000 1.000000 4.000000 4.000000 0.000000 95.000000 188.000000 0.490567 -0.368328 0.789733
16.11000061 3.83999991 -1.02999997 163 186 81 116.000000 1.000000 4.000000 4.000000 0.000000 95.000000 188.000000 0.486447 -0.346095 0.802239
16.11000061 3.82999992 -1.03999996 163 186 81 116.000000 1.000000 4.000000 4.000000 0.000000 95.000000 188.000000 -0.516122 0.653979 -0.553108
16.21999931 3.95000005 -1.09000003 163 186 81 116.000000 1.000000 4.000000 4.000000 0.000000 95.000000 188.000000 0.856761 -0.170168 0.486830
16.21999931 3.95000005 -1.08000004 163 186 81 116.000000 1.000000 4.000000 4.000000 0.000000 95.000000 188.000000 0.754281 -0.369809 0.542496
16.20999908 3.92000008 -1.09000003 163 186 81 116.000000 1.000000 4.000000 4.000000 0.000000 95.000000 188.000000 0.899828 -0.199154 0.388133
16.18000031 3.90000010 -1.13999999 163 186 81 116.000000 1.000000 4.000000 4.000000 0.000000 95.000000 188.000000 0.417680 -0.389093 0.821066
16.23999977 3.95000005 -1.16999996 163 186 81 116.000000 1.000000 4.000000 4.000000 0.000000 95.000000 188.000000 -0.463859 0.737882 -0.490271
16.20999908 3.97000003 -1.14999998 163 186 81 116.000000 1.000000 4.000000 4.000000 0.000000 95.000000 188.000000 -0.391098 0.622127 -0.678234
16.22999954 3.94000006 -1.16999996 163 186 81 116.000000 1.000000 4.000000 4.000000 0.000000 95.000000 188.000000 -0.703189 0.502755 -0.502755
16.22999954 3.85999990 -1.08000004 163 186 81 116.000000 1.000000 4.000000 4.000000 0.000000 95.000000 188.000000 0.633255 -0.558953 0.535312
16.20000076 3.88000011 -1.05999994 163 186 81 116.000000 1.000000 4.000000 4.000000 0.000000 95.000000 188.000000 -0.658790 0.668598 -0.344925
16.19000053 3.81999993 -1.05999994 163 186 81 116.000000 1.000000 4.000000 4.000000 0.000000 95.000000 188.000000 -0.550899 0.638504 -0.537422
16.18000031 3.80999994 -1.08000004 163 186 81 116.000000 1.000000 4.000000 4.000000 0.000000 95.000000 188.000000 0.376488 -0.623097 0.685571
16.18000031 3.82999992 -1.05999994 163 186 81 116.000000 1.000000 4.000000 4.000000 0.000000 95.000000 188.000000 0.786678 -0.331655 0.520714
16.12999916 3.84999990 -1.09000003 163 186 81 116.000000 1.000000 4.000000 4.000000 0.000000 95.000000 188.000000 0.566015 -0.426586 0.705444
16.13999939 3.80999994 -1.05999994 163 186 81 116.000000 1.000000 4.000000 4.000000 0.000000 95.000000 188.000000 0.858356 -0.257659 0.443662
16.14999962 3.89000010 -1.05999994 163 186 81 116.000000 1.000000 4.000000 4.000000 0.000000 95.000000 188.000000 0.586626 -0.482412 0.650499
16.23999977 3.79999995 -1.00999999 163 186 81 116.000000 1.000000 4.000000 4.000000 0.000000 95.000000 188.000000 0.859119 -0.175964 0.480574
16.20999908 3.79999995 -1.04999995 163 186 81 116.000000 1.000000 4.000000 4.000000 0.000000 95.000000 188.000000 0.530380 -0.299229 0.793195
16.23999977 3.74000001 -1.03999996 163 186 81 116.000000 1.000000 4.000000 4.000000 0.000000 95.000000 188.000000 0.528504 -0.130296 0.838872
16.18000031 3.79999995 -1.01999998 163 186 81 116.000000 1.000000 4.000000 4.000000 0.000000 95.000000 188.000000 0.739496 -0.004147 0.673148
16.14999962 3.79999995 -1.03999996 163 186 81 116.000000 1.000000 4.000000 4.000000 0.000000 95.000000 188.000000 0.539344 -0.449730 0.711934
16.14999962 3.79999995 -1.03999996 163 186 81 116.000000 1.000000 4.000000 4.000000 0.000000 95.000000 188.000000 0.539344 -0.449730 0.711934
16.20999908 3.78999996 -1.05999994 163 186 81 116.000000 1.000000 4.000000 4.000000 0.000000 95.000000 188.000000 -0.666539 0.456053 -0.589695
16.21999931 3.77999997 -1.07000005 163 186 81 116.000000 1.000000 4.000000 4.000000 0.000000 95.000000 188.000000 0.651463 -0.104411 0.751462
16.18000031 3.77999997 -1.05999994 163 186 81 116.000000 1.000000 4.000000 4.000000 0.000000 95.000000 188.000000 0.898005 -0.261856 0.353580
16.18000031 3.77999997 -1.05999994 163 186 81 116.000000 1.000000 4.000000 4.000000 0.000000 95.000000 188.000000 0.898005 -0.261856 0.353580
16.23999977 3.71000004 -1.05999994 163 186 81 116.000000 1.000000 4.000000 4.000000 0.000000 95.000000 188.000000 0.499646 -0.424290 0.755203
16.04999924 4.01000023 -1.00000000 163 186 81 116.000000 1.000000 4.000000 4.000000 0.000000 95.000000 188.000000 0.686591 -0.634154 0.355585
16.35000038 3.51999998 -0.20000000 163 186 81 116.000000 1.000000 4.000000 4.000000 0.000000 95.000000 182.000000 0.905696 -0.225334 -0.359080
16.35000038 3.51999998 -0.20000000 163 186 81 116.000000 1.000000 4.000000 4.000000 0.000000 95.000000 182.000000 0.905696 -0.225334 -0.359080
16.35000038 3.48000002 -0.23000000 163 186 81 116.000000 1.000000 4.000000 4.000000 0.000000 95.000000 182.000000 0.993971 -0.079742 -0.075250
16.35000038 3.47000003 -0.20000000 163 186 81 116.000000 1.000000 4.000000 4.000000 0.000000 95.000000 182.000000 0.884314 0.317871 -0.341975
16.35000038 3.49000001 -0.20999999 163 186 81 116.000000 1.000000 4.000000 4.000000 0.000000 95.000000 182.000000 0.898288 -0.279698 -0.338893
16.35000038 3.50000000 -0.22000000 163 186 81 116.000000 1.000000 4.000000 4.000000 0.000000 95.000000 182.000000 0.933483 -0.135307 -0.332118
16.31999969 3.51999998 -0.20000000 163 186 81 116.000000 1.000000 4.000000 4.000000 0.000000 95.000000 182.000000 0.909116 -0.145177 -0.390426
16.35000038 3.42000008 -0.23000000 163 186 81 116.000000 1.000000 4.000000 4.000000 0.000000 95.000000 182.000000 0.973487 0.143048 -0.178494
16.36000061 3.44000006 -0.23999999 163 186 81 116.000000 1.000000 4.000000 4.000000 0.000000 95.000000 182.000000 0.857591 -0.195382 -0.475777
16.34000015 3.42000008 -0.23999999 163 186 81 116.000000 1.000000 4.000000 4.000000 0.000000 95.000000 182.000000 0.927135 0.165908 -0.335999
16.36000061 3.30999994 -0.31000000 163 186 81 116.000000 1.000000 4.000000 4.000000 0.000000 95.000000 182.000000 0.832768 -0.191251 -0.519539
16.31999969 3.44000006 -0.20999999 163 186 81 116.000000 1.000000 4.000000 4.000000 0.000000 95.000000 182.000000 0.909319 0.341904 -0.237150
16.30999947 3.39000010 -0.20000000 163 186 81 116.000000 1.000000 4.000000 4.000000 0.000000 95.000000 182.000000 0.927161 0.067841 -0.368470
16.27000046 3.44000006 -0.22000000 163 186 81 116.000000 1.000000 4.000000 4.000000 0.000000 95.000000 182.000000 0.948832 0.227338 -0.219171
16.27000046 3.44000006 -0.20999999 163 186 81 116.000000 1.000000 4.000000 4.000000 0.000000 95.000000 182.000000 0.931113 0.344907 -0.118604
16.29000092 3.42000008 -0.20000000 163 186 81 116.000000 1.000000 4.000000 4.000000 0.000000 95.000000 182.000000 0.865582 -0.088959 -0.492803
16.26000023 3.44000006 -0.23000000 163 186 81 116.000000 1.000000 4.000000 4.000000 0.000000 95.000000 182.000000 0.915325 -0.268360 -0.300273
16.14999962 3.50999999 -0.25999999 163 186 81 116.000000 1.000000 4.000000 4.000000 0.000000 95.000000 182.000000 0.972399 0.219814 -0.078239
16.14999962 3.48000002 -0.23999999 163 186 81 116.000000 1.000000 4.000000 4.000000 0.000000 95.000000 182.000000 0.987010 0.139993 -0.078820
16.17000008 3.44000006 -0.25000000 163 186 81 116.000000 1.000000 4.000000 4.000000 0.000000 95.000000 182.000000 0.920496 -0.060119 -0.386100
16.18000031 3.29999995 -0.23000000 163 186 81 116.000000 1.000000 4.000000 4.000000 0.000000 95.000000 182.000000 0.783681 -0.122959 -0.608872
16.15999985 3.43000007 -0.22000000 163 186 81 116.000000 1.000000 4.000000 4.000000 0.000000 95.000000 182.000000 0.994948 -0.097201 -0.025119
16.10000038 3.42000008 -0.22000000 163 186 81 116.000000 1.000000 4.000000 4.000000 0.000000 95.000000 182.000000 0.972020 0.216421 -0.091322
16.32999992 3.23000002 -0.34999999 163 186 81 116.000000 1.000000 4.000000 4.000000 0.000000 95.000000 182.000000 0.961746 0.217084 -0.167089
16.32999992 3.20000005 -0.31999999 163 186 81 116.000000 1.000000 4.000000 4.000000 0.000000 95.000000 182.000000 0.750631 -0.208939 -0.626816
16.31999969 3.11999989 -0.31000000 163 186 81 116.000000 1.000000 4.000000 4.000000 0.000000 95.000000 39.000000 0.949339 0.263330 -0.171502
16.30999947 3.11999989 -0.34000000 163 186 81 116.000000 1.000000 4.000000 4.000000 0.000000 95.000000 39.000000 0.878674 -0.053628 -0.474401
16.26000023 3.19000006 -0.28999999 163 186 81 116.000000 1.000000 4.000000 4.000000 0.000000 95.000000 182.000000 0.871016 0.455404 -0.184225
16.30999947 3.09999990 -0.34000000 163 186 81 116.000000 1.000000 4.000000 4.000000 0.000000 95.000000 39.000000 0.929837 0.302443 -0.209600
16.12999916 3.23000002 -0.23999999 163 186 81 116.000000 1.000000 4.000000 4.000000 0.000000 95.000000 182.000000 0.825784 -0.124674 -0.550034
16.21999931 3.06999993 -0.34000000 163 186 81 116.000000 1.000000 4.000000 4.000000 0.000000 95.000000 39.000000 0.970506 -0.102225 -0.218332
16.21999931 3.05999994 -0.34999999 163 186 81 116.000000 1.000000 4.000000 4.000000 0.000000 95.000000 39.000000 0.833509 -0.127443 -0.537606
16.04000092 3.25999999 -0.20000000 163 186 81 116.000000 1.000000 4.000000 4.000000 0.000000 95.000000 182.000000 0.982151 -0.085562 -0.167508
16.06999969 3.21000004 -0.22000000 163 186 81 116.000000 1.000000 4.000000 4.000000 0.000000 95.000000 182.000000 0.976255 0.198206 -0.087407
15.92000008 2.95000005 -0.28999999 163 186 81 116.000000 1.000000 4.000000 4.000000 0.000000 95.000000 200.000000 0.959505 -0.164977 -0.228328
15.85999966 3.02999997 -0.31000000 163 186 81 116.000000 1.000000 4.000000 4.000000 0.000000 95.000000 200.000000 0.697841 -0.044059 -0.714896
15.85000038 3.01999998 -0.28999999 163 186 81 116.000000 1.000000 4.000000 4.000000 0.000000 95.000000 200.000000 0.800009 0.203444 -0.564443
15.85000038 3.00999999 -0.28999999 163 186 81 116.000000 1.000000 4.000000 4.000000 0.000000 95.000000 200.000000 0.861772 -0.122698 -0.492235
15.81999969 3.00999999 -0.34999999 163 186 81 116.000000 1.000000 4.000000 4.000000 0.000000 95.000000 200.000000 0.938121 -0.003778 -0.346286
15.85999966 2.95000005 -0.30000001 163 186 81 116.000000 1.000000 4.000000 4.000000 0.000000 95.000000 200.000000 0.986704 0.074091 -0.144654
15.81000042 3.00000000 -0.38000000 163 186 81 116.000000 1.000000 4.000000 4.000000 0.000000 95.000000 200.000000 0.716571 0.101526 -0.690086
15.85999966 2.92000008 -0.31999999 163 186 81 116.000000 1.000000 4.000000 4.000000 0.000000 95.000000 200.000000 0.767999 0.500585 -0.399490
16.56999969 4.51999998 0.06000000 163 186 81 116.000000 1.000000 4.000000 4.000000 0.000000 95.000000 190.000000 0.960408 0.188911 0.204764
16.56999969 4.50000000 0.05000000 163 186 81 116.000000 1.000000 4.000000 4.000000 0.000000 95.000000 190.000000 0.992111 -0.099325 -0.076492
16.53000069 4.40999985 0.11000000 163 186 81 116.000000 1.000000 4.000000 4.000000 0.000000 95.000000 190.000000 0.989784 0.077744 0.119517
16.52000046 4.40999985 0.10000000 163 186 81 116.000000 1.000000 4.000000 4.000000 0.000000 95.000000 190.000000 0.985880 0.021756 0.166031
16.51000023 4.44000006 0.07000000 163 186 81 116.000000 1.000000 4.000000 4.000000 0.000000 95.000000 190.000000 0.977133 0.207926 -0.044470
16.51000023 4.44999981 0.08000000 163 186 81 116.000000 1.000000 4.000000 4.000000 0.000000 95.000000 190.000000 0.980191 0.197890 0.008101
16.56999969 4.48999977 0.02000000 163 186 81 116.000000 1.000000 4.000000 4.000000 0.000000 95.000000 190.000000 0.847553 -0.508532 0.151822
16.54000092 4.36999989 0.11000000 163 186 81 116.000000 1.000000 4.000000 4.000000 0.000000 95.000000 190.000000 0.945348 -0.039656 -0.323644
16.54000092 4.36999989 0.12000000 163 186 81 116.000000 1.000000 4.000000 4.000000 0.000000 95.000000 190.000000 0.841848 -0.048863 -0.537498
16.54999924 4.36999989 0.13000000 163 186 81 116.000000 1.000000 4.000000 4.000000 0.000000 95.000000 190.000000 0.882064 0.073621 -0.465341
16.53000069 4.34999990 0.10000000 163 186 81 116.000000 1.000000 4.000000 4.000000 0.000000 95.000000 190.000000 0.974084 -0.129794 -0.185240
16.50000000 4.46000004 0.11000000 163 186 81 116.000000 1.000000 4.000000 4.000000 0.000000 95.000000 190.000000 0.979090 -0.134919 -0.152248
16.47999954 4.40999985 0.07000000 163 186 81 116.000000 1.000000 4.000000 4.000000 0.000000 95.000000 190.000000 0.891455 0.219548 -0.396366
16.47999954 4.42000008 0.08000000 163 186 81 116.000000 1.000000 4.000000 4.000000 0.000000 95.000000 190.000000 0.963222 -0.130936 -0.234648
16.44000053 4.44999981 0.09000000 163 186 81 116.000000 1.000000 4.000000 4.000000 0.000000 95.000000 190.000000 0.992434 0.050807 -0.111776
16.48999977 4.36999989 0.07000000 163 186 81 116.000000 1.000000 4.000000 4.000000 0.000000 95.000000 190.000000 0.984402 0.099519 0.145082
16.47999954 4.40000010 0.09000000 163 186 81 116.000000 1.000000 4.000000 4.000000 0.000000 95.000000 190.000000 0.989124 0.120000 -0.085048
16.48999977 4.38000011 0.08000000 163 186 81 116.000000 1.000000 4.000000 4.000000 0.000000 95.000000 190.000000 0.989976 0.103292 -0.096328
16.48999977 4.34000015 0.10000000 163 186 81 116.000000 1.000000 4.000000 4.000000 0.000000 95.000000 190.000000 0.908371 -0.103695 -0.405103
16.78000069 3.76999998 -0.06000000 163 186 81 116.000000 1.000000 4.000000 4.000000 0.000000 95.000000 182.000000 0.732798 0.244266 -0.635092
16.64999962 4.25000000 -0.06000000 163 186 81 116.000000 1.000000 4.000000 4.000000 0.000000 95.000000 182.000000 0.953740 0.216576 0.208505
16.61000061 4.07999992 -0.04000000 163 186 81 116.000000 1.000000 4.000000 4.000000 0.000000 95.000000 182.000000 0.860857 -0.191797 -0.471316
16.55999947 4.28999996 -0.06000000 163 186 81 116.000000 1.000000 4.000000 4.000000 0.000000 95.000000 182.000000 0.977185 -0.160992 -0.138528
16.55999947 4.30999994 -0.06000000 163 186 81 116.000000 1.000000 4.000000 4.000000 0.000000 95.000000 182.000000 0.972628 -0.052608 0.226335
16.56999969 4.30000019 -0.04000000 163 186 81 116.000000 1.000000 4.000000 4.000000 0.000000 95.000000 182.000000 0.995916 -0.022659 0.087399
16.55999947 4.28999996 -0.05000000 163 186 81 116.000000 1.000000 4.000000 4.000000 0.000000 95.000000 182.000000 0.960090 -0.265339 -0.088446
16.55999947 4.25000000 -0.05000000 163 186 81 116.000000 1.000000 4.000000 4.000000 0.000000 95.000000 182.000000 0.901212 0.264021 -0.343670
16.54000092 4.25000000 -0.08000000 163 186 81 116.000000 1.000000 4.000000 4.000000 0.000000 95.000000 182.000000 0.922438 -0.328325 0.203249
16.56999969 4.23000002 -0.04000000 163 186 81 116.000000 1.000000 4.000000 4.000000 0.000000 95.000000 182.000000 0.958711 0.181665 -0.218793
16.56999969 4.17999983 -0.05000000 163 186 81 116.000000 1.000000 4.000000 4.000000 0.000000 95.000000 182.000000 0.925946 -0.024606 -0.376854
16.51000023 4.17999983 -0.04000000 163 186 81 116.000000 1.000000 4.000000 4.000000 0.000000 95.000000 182.000000 0.959130 0.272030 0.077905
16.50000000 4.15999985 -0.05000000 163 186 81 116.000000 1.000000 4.000000 4.000000 0.000000 95.000000 182.000000 0.937532 -0.345271 -0.042674
16.48999977 4.15000010 -0.03000000 163 186 81 116.000000 1.000000 4.000000 4.000000 0.000000 95.000000 182.000000 0.944445 0.271989 -0.184515
16.50000000 4.19999981 -0.05000000 163 186 81 116.000000 1.000000 4.000000 4.000000 0.000000 95.000000 182.000000 0.965367 0.015746 0.260419
16.52000046 4.11999989 -0.06000000 163 186 81 116.000000 1.000000 4.000000 4.000000 0.000000 95.000000 182.000000 0.960902 0.161684 -0.224780
16.51000023 4.09999990 -0.06000000 163 186 81 116.000000 1.000000 4.000000 4.000000 0.000000 95.000000 182.000000 0.836359 0.398491 -0.376441
16.52000046 4.07999992 -0.08000000 163 186 81 116.000000 1.000000 4.000000 4.000000 0.000000 95.000000 182.000000 0.971607 0.154082 -0.179550
16.57999992 4.03000021 -0.07000000 163 186 81 116.000000 1.000000 4.000000 4.000000 0.000000 95.000000 182.000000 0.939623 0.256765 -0.226231
16.57999992 4.01999998 -0.09000000 163 186 81 116.000000 1.000000 4.000000 4.000000 0.000000 95.000000 182.000000 0.902755 -0.022470 -0.429568
16.52000046 4.03999996 -0.09000000 163 186 81 116.000000 1.000000 4.000000 4.000000 0.000000 95.000000 182.000000 0.978185 0.003481 -0.207705
16.52000046 4.00000000 -0.07000000 163 186 81 116.000000 1.000000 4.000000 4.000000 0.000000 95.000000 182.000000 0.825308 0.446582 -0.345588
16.47999954 4.11999989 -0.03000000 163 186 81 116.000000 1.000000 4.000000 4.000000 0.000000 95.000000 182.000000 0.915489 0.399945 -0.043848
16.48999977 4.09000015 -0.03000000 163 186 81 116.000000 1.000000 4.000000 4.000000 0.000000 95.000000 182.000000 0.821454 0.447922 -0.352956
16.46999931 4.03999996 -0.04000000 163 186 81 116.000000 1.000000 4.000000 4.000000 0.000000 95.000000 182.000000 0.957903 -0.165613 -0.234507
16.50000000 4.03000021 -0.09000000 163 186 81 116.000000 1.000000 4.000000 4.000000 0.000000 95.000000 182.000000 0.905994 0.401568 -0.133856
16.50000000 4.01999998 -0.09000000 163 186 81 116.000000 1.000000 4.000000 4.000000 0.000000 95.000000 182.000000 0.823673 -0.143440 -0.548623
16.45000076 4.00000000 -0.06000000 163 186 81 116.000000 1.000000 4.000000 4.000000 0.000000 95.000000 182.000000 0.758448 0.161984 -0.631283
16.61000061 3.83999991 -0.08000000 163 186 81 116.000000 1.000000 4.000000 4.000000 0.000000 95.000000 182.000000 0.710292 0.450794 -0.540620
16.60000038 3.84999990 -0.13000000 163 186 81 116.000000 1.000000 4.000000 4.000000 0.000000 95.000000 182.000000 0.957959 0.190526 -0.214508
16.76000023 3.73000002 -0.06000000 163 186 81 116.000000 1.000000 4.000000 4.000000 0.000000 95.000000 182.000000 0.452159 0.452159 -0.768833
16.72999954 3.72000003 -0.09000000 163 186 81 116.000000 1.000000 4.000000 4.000000 0.000000 95.000000 182.000000 0.643124 0.307862 -0.701151
16.72999954 3.76999998 -0.13000000 163 186 81 116.000000 1.000000 4.000000 4.000000 0.000000 95.000000 182.000000 -0.343615 -0.454458 0.821825
16.75000000 3.78999996 -0.12000000 163 186 81 116.000000 1.000000 4.000000 4.000000 0.000000 95.000000 182.000000 0.716374 0.079920 -0.693124
16.71999931 3.72000003 -0.16000000 163 186 81 116.000000 1.000000 4.000000 4.000000 0.000000 95.000000 182.000000 -0.414740 -0.370585 0.831058
16.71999931 3.72000003 -0.16000000 163 186 81 116.000000 1.000000 4.000000 4.000000 0.000000 95.000000 182.000000 -0.414740 -0.370585 0.831058
16.75000000 3.68000007 -0.09000000 163 186 81 116.000000 1.000000 4.000000 4.000000 0.000000 95.000000 182.000000 -0.349352 -0.087003 0.932944
16.68000031 3.64000010 -0.19000000 163 186 81 116.000000 1.000000 4.000000 4.000000 0.000000 95.000000 39.000000 0.678985 0.484510 -0.551570
16.72999954 3.71000004 -0.15000001 163 186 81 116.000000 1.000000 4.000000 4.000000 0.000000 95.000000 182.000000 0.709508 0.073998 -0.700802
16.68000031 3.65000010 -0.19000000 163 186 81 116.000000 1.000000 4.000000 4.000000 0.000000 95.000000 39.000000 0.457177 0.594498 -0.661484
16.64999962 3.76999998 -0.08000000 163 186 81 116.000000 1.000000 4.000000 4.000000 0.000000 95.000000 182.000000 -0.549517 -0.199409 0.811337
16.60000038 3.76999998 -0.10000000 163 186 81 116.000000 1.000000 4.000000 4.000000 0.000000 95.000000 182.000000 0.732843 -0.049999 -0.678558
16.61000061 3.75999999 -0.09000000 163 186 81 116.000000 1.000000 4.000000 4.000000 0.000000 95.000000 182.000000 -0.615850 -0.155092 0.772448
16.61000061 3.72000003 -0.08000000 163 186 81 116.000000 1.000000 4.000000 4.000000 0.000000 95.000000 182.000000 -0.584796 -0.277342 0.762295
16.55999947 3.93000007 -0.09000000 163 186 81 116.000000 1.000000 4.000000 4.000000 0.000000 95.000000 182.000000 0.736548 0.364191 -0.569967
16.55999947 3.93000007 -0.10000000 163 186 81 116.000000 1.000000 4.000000 4.000000 0.000000 95.000000 182.000000 0.868749 0.309940 -0.386280
16.55999947 3.91000009 -0.14000000 163 186 81 116.000000 1.000000 4.000000 4.000000 0.000000 95.000000 182.000000 0.804229 -0.263912 -0.532509
16.56999969 3.93000007 -0.19000000 163 186 81 116.000000 1.000000 4.000000 4.000000 0.000000 95.000000 233.000000 0.910588 -0.397776 -0.112264
16.56999969 3.93000007 -0.19000000 163 186 81 116.000000 1.000000 4.000000 4.000000 0.000000 95.000000 233.000000 0.910588 -0.397776 -0.112264
16.59000015 3.81999993 -0.10000000 163 186 81 116.000000 1.000000 4.000000 4.000000 0.000000 95.000000 182.000000 0.938774 0.069587 -0.337433
16.55999947 3.82999992 -0.07000000 163 186 81 116.000000 1.000000 4.000000 4.000000 0.000000 95.000000 182.000000 0.872887 0.183998 -0.451899
16.54000092 3.82999992 -0.08000000 163 186 81 116.000000 1.000000 4.000000 4.000000 0.000000 95.000000 182.000000 0.795879 0.384273 -0.467880
16.54000092 3.82999992 -0.10000000 163 186 81 116.000000 1.000000 4.000000 4.000000 0.000000 95.000000 182.000000 0.795871 0.055328 -0.602933
16.56999969 3.84999990 -0.13000000 163 186 81 116.000000 1.000000 4.000000 4.000000 0.000000 95.000000 182.000000 0.854830 0.248373 -0.455605
16.54999924 3.84999990 -0.11000000 163 186 81 116.000000 1.000000 4.000000 4.000000 0.000000 95.000000 182.000000 0.860874 -0.214843 -0.461236
16.54999924 3.84999990 -0.11000000 163 186 81 116.000000 1.000000 4.000000 4.000000 0.000000 95.000000 182.000000 0.860874 -0.214843 -0.461236
16.54999924 3.82999992 -0.11000000 163 186 81 116.000000 1.000000 4.000000 4.000000 0.000000 95.000000 182.000000 0.859615 -0.001341 -0.510941
16.45000076 3.83999991 -0.10000000 163 186 81 116.000000 1.000000 4.000000 4.000000 0.000000 95.000000 182.000000 -0.689572 -0.107792 0.716151
16.45999908 3.82999992 -0.10000000 163 186 81 116.000000 1.000000 4.000000 4.000000 0.000000 95.000000 182.000000 0.878448 0.275739 -0.390254
16.57999992 3.77999997 -0.08000000 163 186 81 116.000000 1.000000 4.000000 4.000000 0.000000 95.000000 182.000000 0.802769 -0.043583 -0.594696
16.57999992 3.74000001 -0.10000000 163 186 81 116.000000 1.000000 4.000000 4.000000 0.000000 95.000000 182.000000 0.834731 -0.114685 -0.538583
16.57999992 3.74000001 -0.09000000 163 186 81 116.000000 1.000000 4.000000 4.000000 0.000000 95.000000 182.000000 0.789592 -0.167581 -0.590307
16.51000023 3.78999996 -0.12000000 163 186 81 116.000000 1.000000 4.000000 4.000000 0.000000 95.000000 182.000000 0.839431 0.105471 -0.533133
16.57999992 3.66000009 -0.07000000 163 186 81 116.000000 1.000000 4.000000 4.000000 0.000000 95.000000 182.000000 0.823019 0.137416 -0.551142
16.53000069 3.67000008 -0.08000000 163 186 81 116.000000 1.000000 4.000000 4.000000 0.000000 95.000000 182.000000 0.890077 0.342568 -0.300682
16.45000076 3.73000002 -0.11000000 163 186 81 116.000000 1.000000 4.000000 4.000000 0.000000 95.000000 182.000000 0.696587 0.038305 -0.716449
16.43000031 3.66000009 -0.14000000 163 186 81 116.000000 1.000000 4.000000 4.000000 0.000000 95.000000 182.000000 0.920223 -0.182348 -0.346321
16.69000053 3.63000011 -0.19000000 163 186 81 116.000000 1.000000 4.000000 4.000000 0.000000 95.000000 39.000000 0.617510 0.482903 -0.620875
16.60000038 3.61999989 -0.08000000 163 186 81 116.000000 1.000000 4.000000 4.000000 0.000000 95.000000 182.000000 0.848852 0.417443 -0.324333
16.60000038 3.60999990 -0.08000000 163 186 81 116.000000 1.000000 4.000000 4.000000 0.000000 95.000000 182.000000 0.840590 0.286389 -0.459770
16.67000008 3.60999990 -0.15000001 163 186 81 116.000000 1.000000 4.000000 4.000000 0.000000 95.000000 39.000000 0.731280 0.368094 -0.574227
16.60000038 3.47000003 -0.17000000 163 186 81 116.000000 1.000000 4.000000 4.000000 0.000000 95.000000 182.000000 0.870461 0.168808 -0.462387
16.61000061 3.46000004 -0.15000001 163 186 81 116.000000 1.000000 4.000000 4.000000 0.000000 95.000000 182.000000 0.624491 0.651136 -0.431315
16.56999969 3.56999993 -0.10000000 163 186 81 116.000000 1.000000 4.000000 4.000000 0.000000 95.000000 182.000000 -0.526503 -0.453424 0.719167
16.57999992 3.56999993 -0.12000000 163 186 81 116.000000 1.000000 4.000000 4.000000 0.000000 95.000000 182.000000 0.519313 0.485917 -0.702993
16.59000015 3.43000007 -0.13000000 163 186 81 116.000000 1.000000 4.000000 4.000000 0.000000 95.000000 182.000000 0.603665 0.536028 -0.590138
16.47999954 3.44000006 -0.13000000 163 186 81 116.000000 1.000000 4.000000 4.000000 0.000000 95.000000 182.000000 0.929330 0.256807 -0.265320
16.47999954 3.44000006 -0.13000000 163 186 81 116.000000 1.000000 4.000000 4.000000 0.000000 95.000000 182.000000 0.929330 0.256807 -0.265320
16.37000084 4.51000023 0.11000000 163 186 81 116.000000 1.000000 4.000000 4.000000 0.000000 95.000000 190.000000 0.953006 -0.001227 -0.302950
16.37000084 4.51000023 0.07000000 163 186 81 116.000000 1.000000 4.000000 4.000000 0.000000 95.000000 190.000000 0.983890 0.172798 -0.045844
16.38999939 4.48000002 0.12000000 163 186 81 116.000000 1.000000 4.000000 4.000000 0.000000 95.000000 190.000000 0.936195 0.302846 -0.178389
16.38999939 4.48999977 0.10000000 163 186 81 116.000000 1.000000 4.000000 4.000000 0.000000 95.000000 190.000000 0.938496 -0.131743 -0.319170
16.42000008 4.44999981 0.12000000 163 186 81 116.000000 1.000000 4.000000 4.000000 0.000000 95.000000 190.000000 0.940741 -0.151118 -0.303596
16.40999985 4.40999985 0.09000000 163 186 81 116.000000 1.000000 4.000000 4.000000 0.000000 95.000000 190.000000 0.962600 -0.169407 -0.211431
16.40999985 4.42000008 0.10000000 163 186 81 116.000000 1.000000 4.000000 4.000000 0.000000 95.000000 190.000000 0.996549 0.057598 -0.059771
16.38999939 4.38000011 0.12000000 163 186 81 116.000000 1.000000 4.000000 4.000000 0.000000 95.000000 190.000000 0.967419 0.219111 0.126854
16.38999939 4.38999987 0.14000000 163 186 81 116.000000 1.000000 4.000000 4.000000 0.000000 95.000000 190.000000 0.887294 -0.260969 -0.380269
16.39999962 4.36000013 0.11000000 163 186 81 116.000000 1.000000 4.000000 4.000000 0.000000 95.000000 190.000000 0.974241 0.168060 0.150369
16.36000061 4.38999987 0.04000000 163 186 81 116.000000 1.000000 4.000000 4.000000 0.000000 95.000000 190.000000 0.879080 -0.335538 -0.338575
16.22999954 4.34000015 0.10000000 163 186 81 116.000000 1.000000 4.000000 4.000000 0.000000 95.000000 186.000000 0.973802 -0.209647 0.088076
16.17000008 4.40000010 0.08000000 163 186 81 116.000000 1.000000 4.000000 4.000000 0.000000 95.000000 186.000000 0.954952 0.057221 0.291191
16.20000076 4.36000013 0.06000000 163 186 81 116.000000 1.000000 4.000000 4.000000 0.000000 95.000000 186.000000 0.926784 -0.375096 0.019335
16.15999985 4.34000015 0.11000000 163 186 81 116.000000 1.000000 4.000000 4.000000 0.000000 95.000000 186.000000 0.891760 -0.200609 -0.405611
16.15999985 4.34999990 0.11000000 163 186 81 116.000000 1.000000 4.000000 4.000000 0.000000 95.000000 186.000000 0.870511 -0.059510 -0.488538
16.09000015 4.34999990 0.11000000 163 186 81 116.000000 1.000000 4.000000 4.000000 0.000000 95.000000 186.000000 0.960301 -0.183606 -0.210025
16.04000092 4.32999992 0.11000000 163 186 81 116.000000 1.000000 4.000000 4.000000 0.000000 95.000000 186.000000 0.918380 0.377019 -0.120149
16.40999985 4.11000013 -0.02000000 163 186 81 116.000000 1.000000 4.000000 4.000000 0.000000 95.000000 182.000000 0.960745 0.254733 0.109910
16.37999916 4.07000017 0.02000000 163 186 81 116.000000 1.000000 4.000000 4.000000 0.000000 95.000000 182.000000 0.788518 0.369265 -0.491816
16.34000015 4.09999990 -0.01000000 163 186 81 116.000000 1.000000 4.000000 4.000000 0.000000 95.000000 182.000000 0.837081 -0.142701 -0.528140
16.34000015 4.01999998 0.03000000 163 186 81 116.000000 1.000000 4.000000 4.000000 0.000000 95.000000 182.000000 0.864565 -0.181780 -0.468491
16.36000061 3.99000001 0.03000000 163 186 81 116.000000 1.000000 4.000000 4.000000 0.000000 95.000000 182.000000 0.851285 0.186358 -0.490495
16.36000061 4.01000023 0.05000000 163 186 81 116.000000 1.000000 4.000000 4.000000 0.000000 95.000000 182.000000 0.949217 0.305152 -0.076613
16.34000015 4.00000000 0.01000000 163 186 81 116.000000 1.000000 4.000000 4.000000 0.000000 95.000000 182.000000 0.867774 0.278113 -0.411851
16.31999969 3.99000001 -0.01000000 163 186 81 116.000000 1.000000 4.000000 4.000000 0.000000 95.000000 182.000000 0.995877 -0.055997 -0.071369
16.31999969 3.98000002 -0.02000000 163 186 81 116.000000 1.000000 4.000000 4.000000 0.000000 95.000000 182.000000 0.986997 0.061906 -0.148342
16.39999962 4.13000011 -0.03000000 163 186 81 116.000000 1.000000 4.000000 4.000000 0.000000 95.000000 182.000000 0.938109 0.346282 0.006296
16.38999939 4.07000017 -0.04000000 163 186 81 116.000000 1.000000 4.000000 4.000000 0.000000 95.000000 182.000000 0.946804 -0.260201 -0.189361
16.39999962 4.11000013 -0.04000000 163 186 81 116.000000 1.000000 4.000000 4.000000 0.000000 95.000000 182.000000 0.999085 0.025829 -0.034095
16.38999939 4.05999994 -0.03000000 163 186 81 116.000000 1.000000 4.000000 4.000000 0.000000 95.000000 182.000000 0.927819 -0.153943 -0.339784
16.28000069 3.98000002 -0.03000000 163 186 81 116.000000 1.000000 4.000000 4.000000 0.000000 95.000000 182.000000 0.886597 -0.102570 -0.451026
16.20000076 4.32000017 0.07000000 163 186 81 116.000000 1.000000 4.000000 4.000000 0.000000 95.000000 186.000000 0.965983 0.203570 0.159485
16.23999977 4.32000017 0.03000000 163 186 81 116.000000 1.000000 4.000000 4.000000 0.000000 95.000000 186.000000 0.943484 -0.224508 0.243791
16.22999954 4.30999994 0.03000000 163 186 81 116.000000 1.000000 4.000000 4.000000 0.000000 95.000000 186.000000 0.869071 -0.031281 -0.493698
16.22999954 4.30000019 0.03000000 163 186 81 116.000000 1.000000 4.000000 4.000000 0.000000 95.000000 186.000000 0.973163 -0.222122 -0.060132
16.23999977 4.30999994 0.06000000 163 186 81 116.000000 1.000000 4.000000 4.000000 0.000000 95.000000 186.000000 0.974881 0.219979 -0.034860
16.23999977 4.28999996 0.02000000 163 186 81 116.000000 1.000000 4.000000 4.000000 0.000000 95.000000 186.000000 0.937605 0.347308 0.016538
16.23999977 4.30999994 0.05000000 163 186 81 116.000000 1.000000 4.000000 4.000000 0.000000 95.000000 186.000000 0.982579 -0.156292 0.100560
16.23999977 4.30999994 0.06000000 163 186 81 116.000000 1.000000 4.000000 4.000000 0.000000 95.000000 186.000000 0.974881 0.219979 -0.034860
16.14999962 4.28000021 0.12000000 163 186 81 116.000000 1.000000 4.000000 4.000000 0.000000 95.000000 186.000000 0.920473 -0.257043 -0.294379
16.15999985 4.32000017 0.10000000 163 186 81 116.000000 1.000000 4.000000 4.000000 0.000000 95.000000 186.000000 0.981507 0.115830 0.152408
16.12999916 4.30000019 0.07000000 163 186 81 116.000000 1.000000 4.000000 4.000000 0.000000 95.000000 186.000000 0.961334 -0.156069 -0.226891
16.09000015 4.28000021 0.11000000 163 186 81 116.000000 1.000000 4.000000 4.000000 0.000000 95.000000 186.000000 0.986174 -0.003381 -0.165677
16.09000015 4.28000021 0.09000000 163 186 81 116.000000 1.000000 4.000000 4.000000 0.000000 95.000000 186.000000 0.943518 0.321505 0.080048
16.12000084 4.28999996 0.10000000 163 186 81 116.000000 1.000000 4.000000 4.000000 0.000000 95.000000 186.000000 0.977553 -0.024823 -0.209222
16.12999916 4.25000000 0.03000000 163 186 81 116.000000 1.000000 4.000000 4.000000 0.000000 95.000000 186.000000 0.986143 -0.129662 0.103491
16.15999985 4.25000000 0.02000000 163 186 81 116.000000 1.000000 4.000000 4.000000 0.000000 95.000000 186.000000 0.993423 -0.032189 0.109887
16.15999985 4.25000000 0.00000000 163 186 81 116.000000 1.000000 4.000000 4.000000 0.000000 95.000000 186.000000 0.966370 0.030543 -0.255337
16.15999985 4.26000023 0.00000000 163 186 81 116.000000 1.000000 4.000000 4.000000 0.000000 95.000000 186.000000 0.925885 -0.363012 0.104689
16.15999985 4.21999979 0.09000000 163 186 81 116.000000 1.000000 4.000000 4.000000 0.000000 95.000000 186.000000 0.990945 -0.131303 -0.028056
16.15999985 4.21999979 0.07000000 163 186 81 116.000000 1.000000 4.000000 4.000000 0.000000 95.000000 186.000000 0.997028 0.005264 -0.076856
16.15999985 4.23000002 0.09000000 163 186 81 116.000000 1.000000 4.000000 4.000000 0.000000 95.000000 186.000000 0.970875 0.239443 -0.008339
16.15999985 4.23000002 -0.02000000 163 186 81 116.000000 1.000000 4.000000 4.000000 0.000000 95.000000 186.000000 0.967967 0.076386 0.239174
16.15999985 4.21000004 0.00000000 163 186 81 116.000000 1.000000 4.000000 4.000000 0.000000 95.000000 186.000000 0.989986 -0.100972 -0.098650
16.13999939 4.23000002 -0.01000000 163 186 81 116.000000 1.000000 4.000000 4.000000 0.000000 95.000000 186.000000 0.928078 -0.277144 -0.248719
16.15999985 4.21999979 0.01000000 163 186 81 116.000000 1.000000 4.000000 4.000000 0.000000 95.000000 186.000000 0.996942 -0.050765 0.059406
16.17000008 4.23999977 -0.09000000 163 186 81 116.000000 1.000000 4.000000 4.000000 0.000000 95.000000 186.000000 0.935305 -0.351550 -0.040214
16.18000031 4.23999977 -0.06000000 163 186 81 116.000000 1.000000 4.000000 4.000000 0.000000 95.000000 186.000000 0.966370 -0.030543 0.255337
16.20000076 4.25000000 -0.15000001 163 186 81 116.000000 1.000000 4.000000 4.000000 0.000000 95.000000 186.000000 0.974241 0.034923 -0.222787
16.18000031 4.23000002 -0.05000000 163 186 81 116.000000 1.000000 4.000000 4.000000 0.000000 95.000000 186.000000 0.952386 -0.288721 0.097982
16.18000031 4.19999981 -0.08000000 163 186 81 116.000000 1.000000 4.000000 4.000000 0.000000 95.000000 186.000000 0.964721 -0.149318 0.216835
16.18000031 4.19999981 -0.08000000 163 186 81 116.000000 1.000000 4.000000 4.000000 0.000000 95.000000 186.000000 0.964721 -0.149318 0.216835
16.20000076 4.23000002 -0.10000000 163 186 81 116.000000 1.000000 4.000000 4.000000 0.000000 95.000000 186.000000 0.976475 0.118172 0.180368
16.20999908 4.21000004 -0.15000001 163 186 81 116.000000 1.000000 4.000000 4.000000 0.000000 95.000000 186.000000 0.892460 -0.446914 0.061502
16.21999931 4.19999981 -0.19000000 163 186 81 116.000000 1.000000 4.000000 4.000000 0.000000 95.000000 186.000000 0.987835 -0.001119 -0.155503
16.19000053 3.98000002 0.03000000 163 186 81 116.000000 1.000000 4.000000 4.000000 0.000000 95.000000 182.000000 0.968046 0.145271 -0.204408
16.19000053 3.98000002 0.03000000 163 186 81 116.000000 1.000000 4.000000 4.000000 0.000000 95.000000 182.000000 0.968046 0.145271 -0.204408
16.26000023 3.94000006 -0.01000000 163 186 81 116.000000 1.000000 4.000000 4.000000 0.000000 95.000000 182.000000 0.883337 -0.001320 -0.468736
16.25000000 3.97000003 -0.02000000 163 186 81 116.000000 1.000000 4.000000 4.000000 0.000000 95.000000 182.000000 0.946330 -0.187081 -0.263552
16.37999916 3.95000005 0.01000000 163 186 81 116.000000 1.000000 4.000000 4.000000 0.000000 95.000000 182.000000 0.965659 -0.170258 -0.196251
16.40999985 3.97000003 -0.09000000 163 186 81 116.000000 1.000000 4.000000 4.000000 0.000000 95.000000 182.000000 0.844442 -0.111149 -0.523987
16.34000015 3.80999994 -0.09000000 163 186 81 116.000000 1.000000 4.000000 4.000000 0.000000 95.000000 182.000000 0.934570 -0.196385 -0.296667
16.42000008 3.74000001 -0.09000000 163 186 81 116.000000 1.000000 4.000000 4.000000 0.000000 95.000000 182.000000 0.850119 0.057233 -0.523472
16.35000038 3.76999998 -0.09000000 163 186 81 116.000000 1.000000 4.000000 4.000000 0.000000 95.000000 182.000000 0.966567 -0.068951 -0.246970
16.37000084 3.72000003 -0.10000000 163 186 81 116.000000 1.000000 4.000000 4.000000 0.000000 95.000000 182.000000 0.914246 0.391820 -0.103110
16.35000038 3.74000001 -0.10000000 163 186 81 116.000000 1.000000 4.000000 4.000000 0.000000 95.000000 182.000000 0.937580 0.294985 -0.184192
16.36000061 3.74000001 -0.09000000 163 186 81 116.000000 1.000000 4.000000 4.000000 0.000000 95.000000 182.000000 0.886836 0.329740 -0.323718
16.42000008 3.78999996 -0.16000000 163 186 81 116.000000 1.000000 4.000000 4.000000 0.000000 95.000000 182.000000 0.961772 -0.069694 -0.264836
16.39999962 3.75999999 -0.14000000 163 186 81 116.000000 1.000000 4.000000 4.000000 0.000000 95.000000 182.000000 0.884258 0.363043 -0.293748
16.39999962 3.74000001 -0.15000001 163 186 81 116.000000 1.000000 4.000000 4.000000 0.000000 95.000000 182.000000 0.948074 0.279163 -0.152393
16.39999962 3.74000001 -0.14000000 163 186 81 116.000000 1.000000 4.000000 4.000000 0.000000 95.000000 182.000000 0.984856 -0.031321 -0.170523
16.39999962 3.75000000 -0.15000001 163 186 81 116.000000 1.000000 4.000000 4.000000 0.000000 95.000000 182.000000 0.834707 0.124256 -0.536493
16.36000061 3.75000000 -0.19000000 163 186 81 116.000000 1.000000 4.000000 4.000000 0.000000 95.000000 182.000000 0.931916 -0.135876 -0.336258
16.37999916 3.65000010 -0.07000000 163 186 81 116.000000 1.000000 4.000000 4.000000 0.000000 95.000000 182.000000 0.718292 -0.166229 -0.675591
16.35000038 3.70000005 -0.10000000 163 186 81 116.000000 1.000000 4.000000 4.000000 0.000000 95.000000 182.000000 0.941344 0.174018 -0.289117
