//X Y Z R G B PointSourceId ScanDirectionFlag NumberOfReturns ReturnNumber GpsTime Intensity Classification Nx Ny Nz
-9.96000004 -9.43999958 0.49000001 139 19 176 0.000000 0.000000 0.000000 0.000000 0.000000 0.000000 217.000000 0.725259 0.509507 -0.463037
-9.89000034 -9.48999977 0.20999999 139 19 176 0.000000 0.000000 0.000000 0.000000 0.000000 0.000000 197.000000 -0.338229 -0.338229 0.878181
-9.88000011 -9.51000023 0.18000001 139 19 176 0.000000 0.000000 0.000000 0.000000 0.000000 0.000000 197.000000 -0.486044 -0.303581 0.819512
-9.94999981 -9.44999981 0.22000000 139 19 176 0.000000 0.000000 0.000000 0.000000 0.000000 0.000000 197.000000 0.483303 0.787186 -0.383087
-9.93000031 -9.51000023 0.17000000 139 19 176 0.000000 0.000000 0.000000 0.000000 0.000000 0.000000 197.000000 -0.502416 -0.395104 0.769071
-9.93000031 -9.47000027 0.17000000 139 19 176 0.000000 0.000000 0.000000 0.000000 0.000000 0.000000 197.000000 0.543612 0.647958 -0.533514
-9.93999958 -9.47999954 0.16000000 139 19 176 0.000000 0.000000 0.000000 0.000000 0.000000 0.000000 197.000000 0.577837 0.444618 -0.684412
-9.93999958 -9.48999977 0.15000001 139 19 176 0.000000 0.000000 0.000000 0.000000 0.000000 0.000000 197.000000 0.620521 0.417562 -0.663774
-9.89999962 -9.53999996 0.16000000 139 19 176 0.000000 0.000000 0.000000 0.000000 0.000000 0.000000 197.000000 0.673178 0.650248 -0.352149
-9.90999985 -9.53999996 0.15000001 139 19 176 0.000000 0.000000 0.000000 0.000000 0.000000 0.000000 197.000000 0.598341 0.753878 -0.271396
-9.90999985 -9.53999996 0.15000001 139 19 176 0.000000 0.000000 0.000000 0.000000 0.000000 0.000000 197.000000 0.598341 0.753878 -0.271396
-9.89999962 -9.59000015 0.20000000 139 19 176 0.000000 0.000000 0.000000 0.000000 0.000000 0.000000 197.000000 0.599126 0.649472 -0.468224
-9.90999985 -9.59000015 0.16000000 139 19 176 0.000000 0.000000 0.000000 0.000000 0.000000 0.000000 197.000000 0.668638 0.391277 -0.632317
-9.90999985 -9.59000015 0.16000000 139 19 176 0.000000 0.000000 0.000000 0.000000 0.000000 0.000000 197.000000 0.668638 0.391277 -0.632317
-9.86999989 -9.56000042 0.19000000 139 19 176 0.000000 0.000000 0.000000 0.000000 0.000000 0.000000 197.000000 0.606225 0.439221 -0.663006
-9.92000008 -9.59000015 0.20000000 139 19 176 0.000000 0.000000 0.000000 0.000000 0.000000 0.000000 197.000000 -0.356203 -0.299091 0.885248
-9.92000008 -9.57999992 0.17000000 139 19 176 0.000000 0.000000 0.000000 0.000000 0.000000 0.000000 197.000000 0.509140 0.808634 -0.294765
-10.03999996 -9.47000027 0.23999999 139 19 176 0.000000 0.000000 0.000000 0.000000 0.000000 0.000000 197.000000 0.661550 0.526883 -0.533616
-9.97000027 -9.46000004 0.17000000 139 19 176 0.000000 0.000000 0.000000 0.000000 0.000000 0.000000 197.000000 0.544571 0.790812 -0.279389
-9.97999954 -9.47000027 0.17000000 139 19 176 0.000000 0.000000 0.000000 0.000000 0.000000 0.000000 197.000000 -0.490073 -0.402153 0.773371
-9.96000004 -9.47000027 0.19000000 139 19 176 0.000000 0.000000 0.000000 0.000000 0.000000 0.000000 197.000000 0.666202 0.572229 -0.478256
-10.00000000 -9.43999958 0.15000001 139 19 176 0.000000 0.000000 0.000000 0.000000 0.000000 0.000000 197.000000 0.310393 0.898506 -0.310393
-10.03999996 -9.47000027 0.23000000 139 19 176 0.000000 0.000000 0.000000 0.000000 0.000000 0.000000 197.000000 0.707945 0.461414 -0.534707
-10.01000023 -9.48999977 0.17000000 139 19 176 0.000000 0.000000 0.000000 0.000000 0.000000 0.000000 197.000000 0.769967 0.449556 -0.452825
-10.02999973 -9.55000019 0.23999999 139 19 176 0.000000 0.000000 0.000000 0.000000 0.000000 0.000000 197.000000 -0.562167 -0.252114 0.787659
-10.02999973 -9.55000019 0.23999999 139 19 176 0.000000 0.000000 0.000000 0.000000 0.000000 0.000000 197.000000 -0.562167 -0.252114 0.787659
-10.01000023 -9.56999969 0.23000000 139 19 176 0.000000 0.000000 0.000000 0.000000 0.000000 0.000000 197.000000 0.717909 0.452631 -0.528898
-9.89999962 -9.64999962 0.15000001 139 19 176 0.000000 0.000000 0.000000 0.000000 0.000000 0.000000 197.000000 0.713775 0.351171 -0.605974
-9.93000031 -9.60000038 0.18000001 139 19 176 0.000000 0.000000 0.000000 0.000000 0.000000 0.000000 197.000000 0.441130 0.803658 -0.399423
-9.93000031 -9.60000038 0.18000001 139 19 176 0.000000 0.000000 0.000000 0.000000 0.000000 0.000000 197.000000 0.441130 0.803658 -0.399423
-9.93999958 -9.60000038 0.19000000 139 19 176 0.000000 0.000000 0.000000 0.000000 0.000000 0.000000 197.000000 0.657651 0.617693 -0.431219
-9.69999981 -9.65999985 0.13000000 139 19 176 0.000000 0.000000 0.000000 0.000000 0.000000 0.000000 197.000000 -0.474483 -0.253365 0.843014
-9.81999969 -9.61999989 0.11000000 139 19 176 0.000000 0.000000 0.000000 0.000000 0.000000 0.000000 197.000000 -0.552752 -0.336808 0.762250
-9.85999966 -9.60999966 0.13000000 139 19 176 0.000000 0.000000 0.000000 0.000000 0.000000 0.000000 197.000000 0.724644 0.543071 -0.424222
-9.90999985 -9.59000015 0.13000000 139 19 176 0.000000 0.000000 0.000000 0.000000 0.000000 0.000000 197.000000 0.650031 0.679356 -0.340492
-9.94999981 -9.53999996 0.12000000 139 19 176 0.000000 0.000000 0.000000 0.000000 0.000000 0.000000 197.000000 0.647445 0.566724 -0.509547
-9.89999962 -9.56000042 0.06000000 139 19 176 0.000000 0.000000 0.000000 0.000000 0.000000 0.000000 197.000000 0.463185 0.715529 -0.522951
-10.01000023 -9.44999981 0.11000000 139 19 176 0.000000 0.000000 0.000000 0.000000 0.000000 0.000000 197.000000 0.590108 0.482510 -0.647269
-10.02999973 -9.43000031 0.12000000 139 19 176 0.000000 0.000000 0.000000 0.000000 0.000000 0.000000 197.000000 0.642749 0.373156 -0.669051
-10.03999996 -9.51000023 0.06000000 139 19 176 0.000000 0.000000 0.000000 0.000000 0.000000 0.000000 197.000000 0.517038 0.806202 -0.287593
-10.03999996 -9.51000023 0.06000000 139 19 176 0.000000 0.000000 0.000000 0.000000 0.000000 0.000000 197.000000 0.517038 0.806202 -0.287593
-9.98999977 -9.52999973 0.09000000 139 19 176 0.000000 0.000000 0.000000 0.000000 0.000000 0.000000 197.000000 0.603197 0.711085 -0.361264
-9.98999977 -9.57999992 0.08000000 139 19 176 0.000000 0.000000 0.000000 0.000000 0.000000 0.000000 197.000000 0.387053 0.829398 -0.402851
-9.96000004 -9.56000042 0.07000000 139 19 176 0.000000 0.000000 0.000000 0.000000 0.000000 0.000000 197.000000 -0.608483 -0.471029 0.638655
-9.97999954 -9.59000015 0.08000000 139 19 176 0.000000 0.000000 0.000000 0.000000 0.000000 0.000000 197.000000 0.678165 0.431559 -0.594852
-10.02999973 -9.52000046 0.05000000 139 19 176 0.000000 0.000000 0.000000 0.000000 0.000000 0.000000 197.000000 0.593852 0.733011 -0.331716
-10.02000046 -9.52999973 0.06000000 139 19 176 0.000000 0.000000 0.000000 0.000000 0.000000 0.000000 197.000000 0.455505 0.807122 -0.375592
-10.02000046 -9.53999996 0.05000000 139 19 176 0.000000 0.000000 0.000000 0.000000 0.000000 0.000000 197.000000 0.682995 0.663619 -0.305168
-9.89999962 -9.60999966 0.13000000 139 19 176 0.000000 0.000000 0.000000 0.000000 0.000000 0.000000 197.000000 0.655200 0.677961 -0.333290
-9.90999985 -9.64000034 0.14000000 139 19 176 0.000000 0.000000 0.000000 0.000000 0.000000 0.000000 197.000000 -0.588807 -0.235835 0.773103
-9.92000008 -9.60000038 0.11000000 139 19 176 0.000000 0.000000 0.000000 0.000000 0.000000 0.000000 197.000000 0.593662 0.597045 -0.539539
-9.93000031 -9.60999966 0.10000000 139 19 176 0.000000 0.000000 0.000000 0.000000 0.000000 0.000000 197.000000 -0.519655 -0.533109 0.667648
-9.94999981 -9.67000008 0.07000000 139 19 176 0.000000 0.000000 0.000000 0.000000 0.000000 0.000000 197.000000 0.621531 0.387427 -0.680882
-9.94999981 -9.65999985 0.09000000 139 19 176 0.000000 0.000000 0.000000 0.000000 0.000000 0.000000 197.000000 0.750895 0.448565 -0.484713
-9.94999981 -9.68000031 0.10000000 139 19 176 0.000000 0.000000 0.000000 0.000000 0.000000 0.000000 197.000000 0.756124 0.351347 -0.552116
-9.94999981 -9.65999985 0.09000000 139 19 176 0.000000 0.000000 0.000000 0.000000 0.000000 0.000000 197.000000 0.750895 0.448565 -0.484713
-9.96000004 -9.65999985 0.08000000 139 19 176 0.000000 0.000000 0.000000 0.000000 0.000000 0.000000 197.000000 0.526253 0.745935 -0.408215
-9.97999954 -9.61999989 0.06000000 139 19 176 0.000000 0.000000 0.000000 0.000000 0.000000 0.000000 197.000000 -0.363043 -0.293748 0.884258
-9.97999954 -9.61999989 0.05000000 139 19 176 0.000000 0.000000 0.000000 0.000000 0.000000 0.000000 197.000000 -0.458183 -0.279230 0.843859
-9.98999977 -9.69999981 0.09000000 139 19 176 0.000000 0.000000 0.000000 0.000000 0.000000 0.000000 197.000000 0.641647 0.454011 -0.618193
-9.98999977 -9.76000023 0.07000000 139 19 176 0.000000 0.000000 0.000000 0.000000 0.000000 0.000000 197.000000 -0.496066 -0.227427 0.837971
-10.01000023 -9.69999981 0.07000000 139 19 176 0.000000 0.000000 0.000000 0.000000 0.000000 0.000000 197.000000 -0.474400 -0.199039 0.857513
-9.97999954 -9.72999954 0.06000000 139 19 176 0.000000 0.000000 0.000000 0.000000 0.000000 0.000000 197.000000 0.411590 0.772748 -0.483171
-10.03999996 -9.68999958 0.03000000 139 19 176 0.000000 0.000000 0.000000 0.000000 0.000000 0.000000 197.000000 -0.708068 -0.297035 0.640633
-10.03999996 -9.68999958 0.03000000 139 19 176 0.000000 0.000000 0.000000 0.000000 0.000000 0.000000 197.000000 -0.708068 -0.297035 0.640633
-10.02000046 -9.69999981 0.06000000 139 19 176 0.000000 0.000000 0.000000 0.000000 0.000000 0.000000 197.000000 -0.564551 -0.227367 0.793465
-10.00000000 -9.76000023 0.06000000 139 19 176 0.000000 0.000000 0.000000 0.000000 0.000000 0.000000 197.000000 -0.494282 -0.160826 0.854296
-10.01000023 -9.72999954 0.06000000 139 19 176 0.000000 0.000000 0.000000 0.000000 0.000000 0.000000 197.000000 0.773241 0.329552 -0.541751
-10.00000000 -9.72999954 -0.01000000 139 19 176 0.000000 0.000000 0.000000 0.000000 0.000000 0.000000 197.000000 0.717363 0.354596 -0.599709
-9.77000046 -9.86999989 0.17000000 139 19 176 0.000000 0.000000 0.000000 0.000000 0.000000 0.000000 197.000000 0.723904 0.515181 -0.458859
-9.84000015 -9.81999969 0.16000000 139 19 176 0.000000 0.000000 0.000000 0.000000 0.000000 0.000000 197.000000 0.535019 0.551897 -0.639660
-9.82999992 -9.84000015 0.15000001 139 19 176 0.000000 0.000000 0.000000 0.000000 0.000000 0.000000 197.000000 0.626995 0.616910 -0.475710
-9.86999989 -9.80000019 0.15000001 139 19 176 0.000000 0.000000 0.000000 0.000000 0.000000 0.000000 197.000000 -0.589165 -0.191287 0.785044
-9.71000004 -9.77999973 0.14000000 139 19 176 0.000000 0.000000 0.000000 0.000000 0.000000 0.000000 197.000000 -0.431957 -0.209299 0.877273
-9.71000004 -9.80000019 0.10000000 139 19 176 0.000000 0.000000 0.000000 0.000000 0.000000 0.000000 197.000000 0.528028 0.514618 -0.675541
-9.77999973 -9.81000042 0.14000000 139 19 176 0.000000 0.000000 0.000000 0.000000 0.000000 0.000000 197.000000 -0.407507 -0.274196 0.871065
-9.77999973 -9.85000038 0.12000000 139 19 176 0.000000 0.000000 0.000000 0.000000 0.000000 0.000000 197.000000 -0.396634 -0.255941 0.881576
-9.77999973 -9.92000008 0.12000000 139 19 176 0.000000 0.000000 0.000000 0.000000 0.000000 0.000000 197.000000 0.321162 0.787726 -0.525683
-9.77000046 -9.93000031 0.13000000 139 19 176 0.000000 0.000000 0.000000 0.000000 0.000000 0.000000 197.000000 0.663977 0.647501 -0.374002
-9.69999981 -9.85999966 0.06000000 139 19 176 0.000000 0.000000 0.000000 0.000000 0.000000 0.000000 197.000000 0.711827 0.401332 -0.576398
-9.78999996 -9.77000046 0.12000000 139 19 176 0.000000 0.000000 0.000000 0.000000 0.000000 0.000000 197.000000 0.578216 0.507414 -0.638903
-9.84000015 -9.85000038 0.11000000 139 19 176 0.000000 0.000000 0.000000 0.000000 0.000000 0.000000 197.000000 -0.620875 -0.308018 0.720860
-9.81000042 -9.85999966 0.13000000 139 19 176 0.000000 0.000000 0.000000 0.000000 0.000000 0.000000 197.000000 -0.444917 -0.267562 0.854669
-9.78999996 -9.92000008 0.12000000 139 19 176 0.000000 0.000000 0.000000 0.000000 0.000000 0.000000 197.000000 0.388588 0.826344 -0.407621
-9.78999996 -9.93000031 0.10000000 139 19 176 0.000000 0.000000 0.000000 0.000000 0.000000 0.000000 197.000000 -0.620406 -0.145713 0.770626
-9.81999969 -9.93000031 0.09000000 139 19 176 0.000000 0.000000 0.000000 0.000000 0.000000 0.000000 197.000000 0.405539 0.700175 -0.587617
-9.84000015 -9.89000034 0.10000000 139 19 176 0.000000 0.000000 0.000000 0.000000 0.000000 0.000000 197.000000 0.670102 0.606916 -0.427336
-9.78999996 -9.89000034 0.04000000 139 19 176 0.000000 0.000000 0.000000 0.000000 0.000000 0.000000 197.000000 -0.443190 -0.189939 0.876074
-9.81999969 -9.89999962 0.06000000 139 19 176 0.000000 0.000000 0.000000 0.000000 0.000000 0.000000 197.000000 0.686002 0.596307 -0.416916
-9.81999969 -9.89999962 0.06000000 139 19 176 0.000000 0.000000 0.000000 0.000000 0.000000 0.000000 197.000000 0.686002 0.596307 -0.416916
-9.72999954 -9.88000011 -0.05000000 139 19 176 0.000000 0.000000 0.000000 0.000000 0.000000 0.000000 197.000000 0.449166 0.576068 -0.682932
-9.72000027 -9.88000011 -0.13000000 139 19 176 0.000000 0.000000 0.000000 0.000000 0.000000 0.000000 197.000000 -0.483194 -0.222663 0.846726
-9.71000004 -9.89000034 -0.14000000 139 19 176 0.000000 0.000000 0.000000 0.000000 0.000000 0.000000 197.000000 0.527547 0.571369 -0.628674
-9.71000004 -9.89000034 -0.14000000 139 19 176 0.000000 0.000000 0.000000 0.000000 0.000000 0.000000 197.000000 0.527547 0.571369 -0.628674
-9.69999981 -9.92000008 -0.14000000 139 19 176 0.000000 0.000000 0.000000 0.000000 0.000000 0.000000 197.000000 0.400007 0.719355 -0.567911
-9.76000023 -9.89000034 -0.19000000 139 19 176 0.000000 0.000000 0.000000 0.000000 0.000000 0.000000 197.000000 0.381288 0.661890 -0.645384
-9.75000000 -9.93000031 -0.14000000 139 19 176 0.000000 0.000000 0.000000 0.000000 0.000000 0.000000 197.000000 0.751368 0.299586 -0.587958
-9.75000000 -9.90999985 -0.18000001 139 19 176 0.000000 0.000000 0.000000 0.000000 0.000000 0.000000 197.000000 -0.684050 -0.196105 0.702580
-9.78999996 -9.93000031 -0.18000001 139 19 176 0.000000 0.000000 0.000000 0.000000 0.000000 0.000000 197.000000 -0.461929 -0.076295 0.883629
-9.77000046 -9.97000027 0.05000000 139 19 176 0.000000 0.000000 0.000000 0.000000 0.000000 0.000000 197.000000 0.352185 0.811140 -0.466924
-9.76000023 -10.01000023 0.03000000 139 19 176 0.000000 0.000000 0.000000 0.000000 0.000000 0.000000 197.000000 0.377654 0.661307 -0.648113
-9.77999973 -10.03999996 0.03000000 139 19 176 0.000000 0.000000 0.000000 0.000000 0.000000 0.000000 197.000000 0.723610 0.538154 -0.432179
-9.77000046 -10.05000019 0.04000000 139 19 176 0.000000 0.000000 0.000000 0.000000 0.000000 0.000000 197.000000 0.613033 0.518461 -0.596145
-9.77999973 -10.03999996 0.03000000 139 19 176 0.000000 0.000000 0.000000 0.000000 0.000000 0.000000 197.000000 0.723610 0.538154 -0.432179
-9.77999973 -10.05000019 0.03000000 139 19 176 0.000000 0.000000 0.000000 0.000000 0.000000 0.000000 197.000000 -0.548853 -0.140542 0.824019
-9.81000042 -9.97999954 0.06000000 139 19 176 0.000000 0.000000 0.000000 0.000000 0.000000 0.000000 197.000000 0.328679 0.736695 -0.590975
-9.85000038 -9.94999981 0.03000000 139 19 176 0.000000 0.000000 0.000000 0.000000 0.000000 0.000000 197.000000 0.670316 0.258301 -0.695670
-9.85999966 -10.02999973 -0.02000000 139 19 176 0.000000 0.000000 0.000000 0.000000 0.000000 0.000000 197.000000 0.700590 0.457630 -0.547492
-9.85999966 -10.10999966 0.02000000 139 19 176 0.000000 0.000000 0.000000 0.000000 0.000000 0.000000 197.000000 0.459751 0.743182 -0.486117
-9.69999981 -10.00000000 -0.15000001 139 19 176 0.000000 0.000000 0.000000 0.000000 0.000000 0.000000 197.000000 -0.431663 -0.544127 0.719439
-9.69999981 -10.00000000 -0.18000001 139 19 176 0.000000 0.000000 0.000000 0.000000 0.000000 0.000000 197.000000 0.425486 0.720180 -0.547999
-9.69999981 -10.01000023 -0.19000000 139 19 176 0.000000 0.000000 0.000000 0.000000 0.000000 0.000000 197.000000 0.684399 0.557225 -0.470211
-9.69999981 -10.01000023 -0.19000000 139 19 176 0.000000 0.000000 0.000000 0.000000 0.000000 0.000000 197.000000 0.684399 0.557225 -0.470211
-9.72000027 -10.02000046 -0.17000000 139 19 176 0.000000 0.000000 0.000000 0.000000 0.000000 0.000000 197.000000 0.593578 0.482597 -0.644023
-9.75000000 -10.02000046 -0.14000000 139 19 176 0.000000 0.000000 0.000000 0.000000 0.000000 0.000000 197.000000 -0.497221 -0.460879 0.735093
-9.76000023 -10.02999973 -0.14000000 139 19 176 0.000000 0.000000 0.000000 0.000000 0.000000 0.000000 197.000000 0.587939 0.677879 -0.441371
-9.78999996 -9.94999981 -0.18000001 139 19 176 0.000000 0.000000 0.000000 0.000000 0.000000 0.000000 197.000000 0.660293 0.485559 -0.572926
-9.89000034 -9.77999973 0.13000000 139 19 176 0.000000 0.000000 0.000000 0.000000 0.000000 0.000000 197.000000 0.685206 0.487518 -0.541128
-9.90999985 -9.77000046 0.11000000 139 19 176 0.000000 0.000000 0.000000 0.000000 0.000000 0.000000 197.000000 -0.456445 -0.251884 0.853354
-9.90999985 -9.77000046 0.11000000 139 19 176 0.000000 0.000000 0.000000 0.000000 0.000000 0.000000 197.000000 -0.456445 -0.251884 0.853354
-9.93000031 -9.77000046 0.06000000 139 19 176 0.000000 0.000000 0.000000 0.000000 0.000000 0.000000 197.000000 0.574296 0.687491 -0.444455
-9.92000008 -9.78999996 0.06000000 139 19 176 0.000000 0.000000 0.000000 0.000000 0.000000 0.000000 197.000000 0.648744 0.403184 -0.645426
-9.93000031 -9.77000046 0.06000000 139 19 176 0.000000 0.000000 0.000000 0.000000 0.000000 0.000000 197.000000 0.574296 0.687491 -0.444455
-9.86999989 -9.86999989 0.07000000 139 19 176 0.000000 0.000000 0.000000 0.000000 0.000000 0.000000 197.000000 0.698592 0.213156 -0.683033
-9.89000034 -9.85999966 0.10000000 139 19 176 0.000000 0.000000 0.000000 0.000000 0.000000 0.000000 197.000000 0.473961 0.661536 -0.581147
-9.90999985 -9.90999985 0.12000000 139 19 176 0.000000 0.000000 0.000000 0.000000 0.000000 0.000000 197.000000 -0.485539 -0.335897 0.807109
-9.88000011 -9.93000031 0.09000000 139 19 176 0.000000 0.000000 0.000000 0.000000 0.000000 0.000000 197.000000 -0.621463 -0.326146 0.712329
-9.88000011 -9.93000031 0.09000000 139 19 176 0.000000 0.000000 0.000000 0.000000 0.000000 0.000000 197.000000 -0.621463 -0.326146 0.712329
-9.88000011 -9.93999958 0.08000000 139 19 176 0.000000 0.000000 0.000000 0.000000 0.000000 0.000000 197.000000 0.285474 0.828343 -0.482030
-9.86999989 -9.93000031 0.02000000 139 19 176 0.000000 0.000000 0.000000 0.000000 0.000000 0.000000 197.000000 -0.433756 -0.129416 0.891688
-9.92000008 -9.92000008 0.01000000 139 19 176 0.000000 0.000000 0.000000 0.000000 0.000000 0.000000 197.000000 -0.509480 -0.301271 0.806019
-9.97000027 -9.77000046 0.07000000 139 19 176 0.000000 0.000000 0.000000 0.000000 0.000000 0.000000 197.000000 -0.544606 -0.403107 0.735465
-9.97999954 -9.77999973 0.07000000 139 19 176 0.000000 0.000000 0.000000 0.000000 0.000000 0.000000 197.000000 -0.491466 -0.189715 0.849982
-10.03999996 -9.82999992 0.06000000 139 19 176 0.000000 0.000000 0.000000 0.000000 0.000000 0.000000 197.000000 -0.550536 -0.226691 0.803443
-9.97000027 -9.85999966 0.07000000 139 19 176 0.000000 0.000000 0.000000 0.000000 0.000000 0.000000 197.000000 -0.443488 -0.200237 0.873627
-9.96000004 -9.88000011 0.06000000 139 19 176 0.000000 0.000000 0.000000 0.000000 0.000000 0.000000 197.000000 0.221887 0.821748 -0.524878
-9.97000027 -9.93000031 0.06000000 139 19 176 0.000000 0.000000 0.000000 0.000000 0.000000 0.000000 197.000000 0.661032 0.587398 -0.466906
-9.88000011 -9.98999977 0.00000000 139 19 176 0.000000 0.000000 0.000000 0.000000 0.000000 0.000000 197.000000 -0.686002 -0.416916 0.596307
-9.88000011 -10.05000019 0.02000000 139 19 176 0.000000 0.000000 0.000000 0.000000 0.000000 0.000000 197.000000 -0.467946 -0.484482 0.739124
-9.86999989 -10.10999966 0.01000000 139 19 176 0.000000 0.000000 0.000000 0.000000 0.000000 0.000000 197.000000 0.676306 0.370241 -0.636814
-9.86999989 -10.06999969 0.01000000 139 19 176 0.000000 0.000000 0.000000 0.000000 0.000000 0.000000 197.000000 0.672846 0.455799 -0.582688
-9.92000008 -10.06999969 -0.02000000 139 19 176 0.000000 0.000000 0.000000 0.000000 0.000000 0.000000 197.000000 0.471072 0.635360 -0.611890
-9.94999981 -10.07999992 0.00000000 139 19 176 0.000000 0.000000 0.000000 0.000000 0.000000 0.000000 197.000000 -0.479252 -0.134654 0.867287
-9.97000027 -9.97000027 0.04000000 139 19 176 0.000000 0.000000 0.000000 0.000000 0.000000 0.000000 197.000000 0.664707 0.624924 -0.409433
-9.97000027 -9.97999954 0.03000000 139 19 176 0.000000 0.000000 0.000000 0.000000 0.000000 0.000000 197.000000 -0.583923 -0.328356 0.742440
-9.98999977 -9.97000027 0.01000000 139 19 176 0.000000 0.000000 0.000000 0.000000 0.000000 0.000000 197.000000 0.663844 0.258249 -0.701868
-10.00000000 -10.01000023 0.02000000 139 19 176 0.000000 0.000000 0.000000 0.000000 0.000000 0.000000 197.000000 -0.462575 -0.439691 0.769868
-9.98999977 -10.02999973 0.03000000 139 19 176 0.000000 0.000000 0.000000 0.000000 0.000000 0.000000 197.000000 0.659393 0.568790 -0.491609
-9.97999954 -10.03999996 0.01000000 139 19 176 0.000000 0.000000 0.000000 0.000000 0.000000 0.000000 197.000000 0.652241 0.290063 -0.700318
-9.97000027 -10.06000042 0.00000000 139 19 176 0.000000 0.000000 0.000000 0.000000 0.000000 0.000000 197.000000 -0.498046 -0.438872 0.747891
-9.97000027 -10.06000042 0.00000000 139 19 176 0.000000 0.000000 0.000000 0.000000 0.000000 0.000000 197.000000 -0.498046 -0.438872 0.747891
-9.97999954 -10.03999996 0.01000000 139 19 176 0.000000 0.000000 0.000000 0.000000 0.000000 0.000000 197.000000 0.652241 0.290063 -0.700318
-9.96000004 -10.07999992 -0.01000000 139 19 176 0.000000 0.000000 0.000000 0.000000 0.000000 0.000000 197.000000 -0.217026 -0.704162 0.676058
-9.96000004 -10.09000015 -0.02000000 139 19 176 0.000000 0.000000 0.000000 0.000000 0.000000 0.000000 197.000000 -0.559743 -0.096906 0.822981
-10.02999973 -10.05000019 -0.01000000 139 19 176 0.000000 0.000000 0.000000 0.000000 0.000000 0.000000 197.000000 0.262167 0.713412 -0.649856
-10.02000046 -10.05000019 -0.01000000 139 19 176 0.000000 0.000000 0.000000 0.000000 0.000000 0.000000 197.000000 -0.379744 -0.586877 0.715102
-10.02999973 -10.05000019 -0.01000000 139 19 176 0.000000 0.000000 0.000000 0.000000 0.000000 0.000000 197.000000 0.262167 0.713412 -0.649856
-10.02999973 -10.03999996 -0.01000000 139 19 176 0.000000 0.000000 0.000000 0.000000 0.000000 0.000000 197.000000 0.699700 0.358863 -0.617768
-10.00000000 -10.09000015 -0.01000000 139 19 176 0.000000 0.000000 0.000000 0.000000 0.000000 0.000000 197.000000 -0.585689 -0.295238 0.754853
-9.93999958 -9.98999977 -0.04000000 139 19 176 0.000000 0.000000 0.000000 0.000000 0.000000 0.000000 197.000000 0.347934 0.704035 -0.619093
-9.92000008 -10.07999992 -0.03000000 139 19 176 0.000000 0.000000 0.000000 0.000000 0.000000 0.000000 197.000000 0.301788 0.771236 -0.560463
-9.93999958 -10.06999969 -0.03000000 139 19 176 0.000000 0.000000 0.000000 0.000000 0.000000 0.000000 197.000000 -0.620171 -0.250909 0.743258
-9.97999954 -10.02999973 -0.04000000 139 19 176 0.000000 0.000000 0.000000 0.000000 0.000000 0.000000 197.000000 -0.508218 -0.494888 0.704840
-9.98999977 -10.02999973 -0.05000000 139 19 176 0.000000 0.000000 0.000000 0.000000 0.000000 0.000000 197.000000 0.416494 0.612296 -0.672032
-9.96000004 -10.09000015 -0.04000000 139 19 176 0.000000 0.000000 0.000000 0.000000 0.000000 0.000000 197.000000 0.406757 0.659113 -0.632549
-10.00000000 -10.06000042 -0.03000000 139 19 176 0.000000 0.000000 0.000000 0.000000 0.000000 0.000000 197.000000 0.172938 0.708588 -0.684102
-10.02000046 -10.06999969 -0.06000000 139 19 176 0.000000 0.000000 0.000000 0.000000 0.000000 0.000000 197.000000 0.700590 0.457630 -0.547492
-10.07999992 -9.44999981 0.23999999 139 19 176 0.000000 0.000000 0.000000 0.000000 0.000000 0.000000 197.000000 0.690281 0.466316 -0.553228
-10.06000042 -9.47000027 0.20999999 139 19 176 0.000000 0.000000 0.000000 0.000000 0.000000 0.000000 197.000000 0.525781 0.809733 -0.260550
-10.06000042 -9.47000027 0.20999999 139 19 176 0.000000 0.000000 0.000000 0.000000 0.000000 0.000000 197.000000 0.525781 0.809733 -0.260550
-10.05000019 -9.53999996 0.22000000 139 19 176 0.000000 0.000000 0.000000 0.000000 0.000000 0.000000 197.000000 0.635588 0.709606 -0.304117
-10.15999985 -9.48999977 0.18000001 139 19 176 0.000000 0.000000 0.000000 0.000000 0.000000 0.000000 197.000000 0.709862 0.336250 -0.618896
-10.06000042 -9.43999958 0.11000000 139 19 176 0.000000 0.000000 0.000000 0.000000 0.000000 0.000000 197.000000 0.397225 0.857820 -0.326126
-10.09000015 -9.43999958 0.10000000 139 19 176 0.000000 0.000000 0.000000 0.000000 0.000000 0.000000 197.000000 0.525924 0.768658 -0.364101
-10.10000038 -9.48999977 0.08000000 139 19 176 0.000000 0.000000 0.000000 0.000000 0.000000 0.000000 197.000000 0.510581 0.731997 -0.451095
-10.05000019 -9.51000023 0.03000000 139 19 176 0.000000 0.000000 0.000000 0.000000 0.000000 0.000000 197.000000 0.664532 0.540038 -0.516485
-10.10000038 -9.46000004 0.06000000 139 19 176 0.000000 0.000000 0.000000 0.000000 0.000000 0.000000 197.000000 0.618665 0.628725 -0.471125
-10.10999966 -9.50000000 0.04000000 139 19 176 0.000000 0.000000 0.000000 0.000000 0.000000 0.000000 197.000000 0.459523 0.815694 -0.351400
-10.11999989 -9.48999977 0.03000000 139 19 176 0.000000 0.000000 0.000000 0.000000 0.000000 0.000000 197.000000 0.531351 0.675503 -0.511236
-10.05000019 -9.56999969 0.12000000 139 19 176 0.000000 0.000000 0.000000 0.000000 0.000000 0.000000 197.000000 0.610843 0.431086 -0.664105
-10.07999992 -9.53999996 0.13000000 139 19 176 0.000000 0.000000 0.000000 0.000000 0.000000 0.000000 197.000000 0.579250 0.738260 -0.345603
-10.05000019 -9.57999992 0.05000000 139 19 176 0.000000 0.000000 0.000000 0.000000 0.000000 0.000000 197.000000 0.440995 0.316332 -0.839915
-10.10000038 -9.57999992 0.06000000 139 19 176 0.000000 0.000000 0.000000 0.000000 0.000000 0.000000 197.000000 0.548334 0.679130 -0.487967
-10.14000034 -9.47000027 0.02000000 139 19 176 0.000000 0.000000 0.000000 0.000000 0.000000 0.000000 197.000000 0.572045 0.541671 -0.615919
-10.15999985 -9.47999954 0.00000000 139 19 176 0.000000 0.000000 0.000000 0.000000 0.000000 0.000000 197.000000 0.657787 0.647895 -0.384121
-10.17000008 -9.51000023 0.00000000 139 19 176 0.000000 0.000000 0.000000 0.000000 0.000000 0.000000 197.000000 -0.630265 -0.290275 0.720074
-10.21000004 -9.50000000 0.03000000 139 19 176 0.000000 0.000000 0.000000 0.000000 0.000000 0.000000 197.000000 0.750700 0.418881 -0.510870
-10.18999958 -9.47000027 0.02000000 139 19 176 0.000000 0.000000 0.000000 0.000000 0.000000 0.000000 197.000000 0.589667 0.711215 -0.382709
-10.21000004 -9.51000023 0.03000000 139 19 176 0.000000 0.000000 0.000000 0.000000 0.000000 0.000000 197.000000 0.628739 0.500631 -0.595026
-10.18999958 -9.48999977 0.00000000 139 19 176 0.000000 0.000000 0.000000 0.000000 0.000000 0.000000 197.000000 0.631678 0.648345 -0.425008
-10.19999981 -9.47000027 0.00000000 139 19 176 0.000000 0.000000 0.000000 0.000000 0.000000 0.000000 197.000000 0.685537 0.609549 -0.398107
-10.21000004 -9.47000027 -0.01000000 139 19 176 0.000000 0.000000 0.000000 0.000000 0.000000 0.000000 197.000000 0.387769 0.857418 -0.338333
-10.14000034 -9.52000046 0.03000000 139 19 176 0.000000 0.000000 0.000000 0.000000 0.000000 0.000000 197.000000 0.556435 0.751106 -0.355275
-10.17000008 -9.52000046 -0.01000000 139 19 176 0.000000 0.000000 0.000000 0.000000 0.000000 0.000000 197.000000 0.437966 0.806949 -0.396255
-10.14999962 -9.56999969 -0.02000000 139 19 176 0.000000 0.000000 0.000000 0.000000 0.000000 0.000000 197.000000 -0.449475 -0.237601 0.861115
-10.09000015 -9.60999966 0.06000000 139 19 176 0.000000 0.000000 0.000000 0.000000 0.000000 0.000000 197.000000 0.625652 0.537960 -0.564942
-10.09000015 -9.68000031 0.02000000 139 19 176 0.000000 0.000000 0.000000 0.000000 0.000000 0.000000 197.000000 0.346722 0.775690 -0.527340
-10.09000015 -9.68000031 0.02000000 139 19 176 0.000000 0.000000 0.000000 0.000000 0.000000 0.000000 197.000000 0.346722 0.775690 -0.527340
-10.11999989 -9.64999962 0.01000000 139 19 176 0.000000 0.000000 0.000000 0.000000 0.000000 0.000000 197.000000 -0.486155 -0.536274 0.689973
-10.05000019 -9.68999958 -0.02000000 139 19 176 0.000000 0.000000 0.000000 0.000000 0.000000 0.000000 197.000000 0.606638 0.525528 -0.596499
-10.05000019 -9.73999977 0.03000000 139 19 176 0.000000 0.000000 0.000000 0.000000 0.000000 0.000000 197.000000 0.585365 0.531383 -0.612356
-10.05000019 -9.73999977 0.02000000 139 19 176 0.000000 0.000000 0.000000 0.000000 0.000000 0.000000 197.000000 0.676068 0.619867 -0.398368
-10.05000019 -9.76000023 0.01000000 139 19 176 0.000000 0.000000 0.000000 0.000000 0.000000 0.000000 197.000000 0.655195 0.517082 -0.550768
-10.14999962 -9.64000034 -0.02000000 139 19 176 0.000000 0.000000 0.000000 0.000000 0.000000 0.000000 197.000000 0.690254 0.573826 -0.440765
-10.13000011 -9.60999966 -0.01000000 139 19 176 0.000000 0.000000 0.000000 0.000000 0.000000 0.000000 197.000000 0.475720 0.623647 -0.620285
-10.17000008 -9.61999989 0.00000000 139 19 176 0.000000 0.000000 0.000000 0.000000 0.000000 0.000000 197.000000 0.579597 0.747503 -0.324510
-10.14000034 -9.64999962 -0.02000000 139 19 176 0.000000 0.000000 0.000000 0.000000 0.000000 0.000000 197.000000 0.485163 0.780479 -0.394296
-10.17000008 -9.68000031 -0.02000000 139 19 176 0.000000 0.000000 0.000000 0.000000 0.000000 0.000000 197.000000 0.588824 0.649216 -0.481460
-10.21000004 -9.60999966 -0.01000000 139 19 176 0.000000 0.000000 0.000000 0.000000 0.000000 0.000000 197.000000 0.566709 0.696337 -0.440404
-10.18000031 -9.60000038 0.01000000 139 19 176 0.000000 0.000000 0.000000 0.000000 0.000000 0.000000 197.000000 -0.419128 -0.296307 0.858215
-10.13000011 -9.71000004 0.00000000 139 19 176 0.000000 0.000000 0.000000 0.000000 0.000000 0.000000 197.000000 0.538419 0.548546 -0.639689
-10.17000008 -9.76000023 -0.01000000 139 19 176 0.000000 0.000000 0.000000 0.000000 0.000000 0.000000 197.000000 -0.494800 -0.226847 0.838876
-10.14000034 -9.72999954 0.01000000 139 19 176 0.000000 0.000000 0.000000 0.000000 0.000000 0.000000 197.000000 0.399707 0.829431 -0.390228
-10.14000034 -9.72999954 0.01000000 139 19 176 0.000000 0.000000 0.000000 0.000000 0.000000 0.000000 197.000000 0.399707 0.829431 -0.390228
-10.11999989 -9.75000000 -0.04000000 139 19 176 0.000000 0.000000 0.000000 0.000000 0.000000 0.000000 197.000000 -0.386809 -0.179744 0.904472
-10.17000008 -9.65999985 -0.05000000 139 19 176 0.000000 0.000000 0.000000 0.000000 0.000000 0.000000 197.000000 -0.402092 -0.190159 0.895635
-10.15999985 -9.64999962 -0.04000000 139 19 176 0.000000 0.000000 0.000000 0.000000 0.000000 0.000000 197.000000 -0.572385 -0.238624 0.784496
-10.21000004 -9.61999989 -0.05000000 139 19 176 0.000000 0.000000 0.000000 0.000000 0.000000 0.000000 197.000000 0.549857 0.603997 -0.576927
-10.21000004 -9.63000011 -0.05000000 139 19 176 0.000000 0.000000 0.000000 0.000000 0.000000 0.000000 197.000000 0.716296 0.530159 -0.453709
-10.19999981 -9.65999985 -0.06000000 139 19 176 0.000000 0.000000 0.000000 0.000000 0.000000 0.000000 197.000000 0.336539 0.820018 -0.462939
-10.19999981 -9.64999962 -0.07000000 139 19 176 0.000000 0.000000 0.000000 0.000000 0.000000 0.000000 197.000000 0.656816 0.370385 -0.656816
-10.21000004 -9.60999966 -0.11000000 139 19 176 0.000000 0.000000 0.000000 0.000000 0.000000 0.000000 197.000000 0.653389 0.569405 -0.498860
-10.15999985 -9.68999958 -0.06000000 139 19 176 0.000000 0.000000 0.000000 0.000000 0.000000 0.000000 197.000000 0.724851 0.519173 -0.452825
-10.17000008 -9.72999954 -0.06000000 139 19 176 0.000000 0.000000 0.000000 0.000000 0.000000 0.000000 197.000000 0.673095 0.370285 -0.640181
-10.18000031 -9.72000027 -0.05000000 139 19 176 0.000000 0.000000 0.000000 0.000000 0.000000 0.000000 197.000000 0.511958 0.724031 -0.462253
-10.18000031 -9.72000027 -0.08000000 139 19 176 0.000000 0.000000 0.000000 0.000000 0.000000 0.000000 197.000000 0.734693 0.427608 -0.526667
-10.22000027 -9.47999954 0.03000000 139 19 176 0.000000 0.000000 0.000000 0.000000 0.000000 0.000000 197.000000 0.730451 0.545777 -0.410570
-10.27999973 -9.43000031 -0.01000000 139 19 176 0.000000 0.000000 0.000000 0.000000 0.000000 0.000000 197.000000 0.607080 0.744111 -0.278842
-10.27000046 -9.46000004 0.00000000 139 19 176 0.000000 0.000000 0.000000 0.000000 0.000000 0.000000 197.000000 0.592553 0.471692 -0.652983
-10.23999977 -9.53999996 -0.01000000 139 19 176 0.000000 0.000000 0.000000 0.000000 0.000000 0.000000 197.000000 0.583242 0.386090 -0.714677
-10.31999969 -9.44999981 0.00000000 139 19 176 0.000000 0.000000 0.000000 0.000000 0.000000 0.000000 197.000000 0.558558 0.707727 -0.432592
-10.31999969 -9.50000000 -0.02000000 139 19 176 0.000000 0.000000 0.000000 0.000000 0.000000 0.000000 197.000000 0.517441 0.681549 -0.517441
-10.30000019 -9.47000027 -0.02000000 139 19 176 0.000000 0.000000 0.000000 0.000000 0.000000 0.000000 197.000000 0.556759 0.573681 -0.600758
-10.25000000 -9.52999973 -0.08000000 139 19 176 0.000000 0.000000 0.000000 0.000000 0.000000 0.000000 197.000000 -0.375250 -0.270598 0.886546
-10.27999973 -9.59000015 -0.05000000 139 19 176 0.000000 0.000000 0.000000 0.000000 0.000000 0.000000 197.000000 0.690281 0.466316 -0.553228
-10.32999992 -9.43000031 -0.03000000 139 19 176 0.000000 0.000000 0.000000 0.000000 0.000000 0.000000 197.000000 0.485635 0.695910 -0.529025
-10.31999969 -9.44999981 -0.06000000 139 19 176 0.000000 0.000000 0.000000 0.000000 0.000000 0.000000 197.000000 -0.505631 -0.255135 0.824163
-10.32999992 -9.43000031 -0.04000000 139 19 176 0.000000 0.000000 0.000000 0.000000 0.000000 0.000000 197.000000 0.439456 0.766190 -0.468862
-10.38000011 -9.46000004 -0.07000000 139 19 176 0.000000 0.000000 0.000000 0.000000 0.000000 0.000000 197.000000 0.538870 0.714624 -0.446018
-10.38000011 -9.46000004 -0.08000000 139 19 176 0.000000 0.000000 0.000000 0.000000 0.000000 0.000000 197.000000 0.691464 0.524040 -0.497252
-10.36999989 -9.47000027 -0.03000000 139 19 176 0.000000 0.000000 0.000000 0.000000 0.000000 0.000000 197.000000 0.599910 0.732505 -0.321785
-10.35000038 -9.50000000 -0.05000000 139 19 176 0.000000 0.000000 0.000000 0.000000 0.000000 0.000000 197.000000 0.605283 0.365795 -0.706984
-10.35000038 -9.50000000 -0.05000000 139 19 176 0.000000 0.000000 0.000000 0.000000 0.000000 0.000000 197.000000 0.605283 0.365795 -0.706984
-10.35999966 -9.47000027 -0.04000000 139 19 176 0.000000 0.000000 0.000000 0.000000 0.000000 0.000000 197.000000 -0.470803 -0.334476 0.816376
-10.30000019 -9.52000046 -0.04000000 139 19 176 0.000000 0.000000 0.000000 0.000000 0.000000 0.000000 197.000000 0.665939 0.394937 -0.632890
-10.30000019 -9.52000046 -0.04000000 139 19 176 0.000000 0.000000 0.000000 0.000000 0.000000 0.000000 197.000000 0.665939 0.394937 -0.632890
-10.35000038 -9.53999996 -0.04000000 139 19 176 0.000000 0.000000 0.000000 0.000000 0.000000 0.000000 197.000000 -0.528924 -0.303377 0.792592
-10.38000011 -9.52000046 -0.07000000 139 19 176 0.000000 0.000000 0.000000 0.000000 0.000000 0.000000 197.000000 0.694354 0.523693 -0.493577
-10.23999977 -9.76000023 -0.01000000 139 19 176 0.000000 0.000000 0.000000 0.000000 0.000000 0.000000 197.000000 -0.458561 -0.155765 0.874905
-10.22999954 -9.64000034 -0.06000000 139 19 176 0.000000 0.000000 0.000000 0.000000 0.000000 0.000000 197.000000 0.665629 0.619151 -0.416641
-10.22999954 -9.64000034 -0.07000000 139 19 176 0.000000 0.000000 0.000000 0.000000 0.000000 0.000000 197.000000 0.573527 0.742499 -0.346066
-10.25000000 -9.68000031 -0.07000000 139 19 176 0.000000 0.000000 0.000000 0.000000 0.000000 0.000000 197.000000 0.706243 0.275801 -0.652039
-10.27000046 -9.60000038 -0.06000000 139 19 176 0.000000 0.000000 0.000000 0.000000 0.000000 0.000000 197.000000 0.330058 0.822775 -0.462712
-10.27000046 -9.60000038 -0.05000000 139 19 176 0.000000 0.000000 0.000000 0.000000 0.000000 0.000000 197.000000 0.721082 0.518847 -0.459172
-10.27000046 -9.60000038 -0.06000000 139 19 176 0.000000 0.000000 0.000000 0.000000 0.000000 0.000000 197.000000 0.330058 0.822775 -0.462712
-10.28999996 -9.64999962 -0.09000000 139 19 176 0.000000 0.000000 0.000000 0.000000 0.000000 0.000000 197.000000 0.650824 0.374018 -0.660710
-10.27999973 -9.64000034 -0.14000000 139 19 176 0.000000 0.000000 0.000000 0.000000 0.000000 0.000000 197.000000 0.701102 0.376001 -0.605870
-10.27999973 -9.65999985 -0.15000001 139 19 176 0.000000 0.000000 0.000000 0.000000 0.000000 0.000000 197.000000 0.555297 0.388216 -0.735482
-10.22000027 -9.63000011 -0.13000000 139 19 176 0.000000 0.000000 0.000000 0.000000 0.000000 0.000000 197.000000 0.720060 0.372332 -0.585562
-10.22999954 -9.63000011 -0.14000000 139 19 176 0.000000 0.000000 0.000000 0.000000 0.000000 0.000000 197.000000 -0.433513 -0.179536 0.883082
-10.27000046 -9.63000011 -0.11000000 139 19 176 0.000000 0.000000 0.000000 0.000000 0.000000 0.000000 197.000000 0.448583 0.819497 -0.356648
-10.27999973 -9.63000011 -0.11000000 139 19 176 0.000000 0.000000 0.000000 0.000000 0.000000 0.000000 197.000000 0.396431 0.765128 -0.507367
-10.28999996 -9.61999989 -0.14000000 139 19 176 0.000000 0.000000 0.000000 0.000000 0.000000 0.000000 197.000000 -0.525608 -0.382408 0.759934
-10.22999954 -9.69999981 -0.08000000 139 19 176 0.000000 0.000000 0.000000 0.000000 0.000000 0.000000 197.000000 0.410463 0.649761 -0.639790
-10.22000027 -9.72999954 -0.07000000 139 19 176 0.000000 0.000000 0.000000 0.000000 0.000000 0.000000 197.000000 0.741115 0.345421 -0.575702
-10.27999973 -9.72000027 -0.10000000 139 19 176 0.000000 0.000000 0.000000 0.000000 0.000000 0.000000 197.000000 -0.527340 -0.346722 0.775690
-10.28999996 -9.76000023 -0.13000000 139 19 176 0.000000 0.000000 0.000000 0.000000 0.000000 0.000000 197.000000 -0.496583 -0.286671 0.819283
-10.34000015 -9.60000038 -0.06000000 139 19 176 0.000000 0.000000 0.000000 0.000000 0.000000 0.000000 197.000000 0.596212 0.717088 -0.360994
-10.34000015 -9.60000038 -0.06000000 139 19 176 0.000000 0.000000 0.000000 0.000000 0.000000 0.000000 197.000000 0.596212 0.717088 -0.360994
-10.31000042 -9.64000034 -0.10000000 139 19 176 0.000000 0.000000 0.000000 0.000000 0.000000 0.000000 197.000000 0.633404 0.599802 -0.488914
-10.34000015 -9.60999966 -0.07000000 139 19 176 0.000000 0.000000 0.000000 0.000000 0.000000 0.000000 197.000000 0.688052 0.615452 -0.384451
-10.31000042 -9.67000008 -0.06000000 139 19 176 0.000000 0.000000 0.000000 0.000000 0.000000 0.000000 197.000000 0.762483 0.497981 -0.413080
-10.38000011 -9.60999966 -0.09000000 139 19 176 0.000000 0.000000 0.000000 0.000000 0.000000 0.000000 197.000000 0.422412 0.768170 -0.481126
-10.35000038 -9.64999962 -0.09000000 139 19 176 0.000000 0.000000 0.000000 0.000000 0.000000 0.000000 197.000000 0.609366 0.672462 -0.420081
-10.32999992 -9.68000031 -0.17000000 139 19 176 0.000000 0.000000 0.000000 0.000000 0.000000 0.000000 197.000000 0.548734 0.575748 -0.606140
-10.30000019 -9.68999958 -0.08000000 139 19 176 0.000000 0.000000 0.000000 0.000000 0.000000 0.000000 197.000000 0.500885 0.753790 -0.425341
-10.31999969 -9.68999958 -0.11000000 139 19 176 0.000000 0.000000 0.000000 0.000000 0.000000 0.000000 197.000000 -0.524415 -0.273948 0.806190
-10.32999992 -9.73999977 -0.11000000 139 19 176 0.000000 0.000000 0.000000 0.000000 0.000000 0.000000 197.000000 -0.522301 -0.208616 0.826850
-10.31999969 -9.75000000 -0.15000001 139 19 176 0.000000 0.000000 0.000000 0.000000 0.000000 0.000000 197.000000 0.763312 0.326215 -0.557619
-10.38000011 -9.73999977 -0.11000000 139 19 176 0.000000 0.000000 0.000000 0.000000 0.000000 0.000000 197.000000 -0.532132 -0.172381 0.828927
-10.38000011 -9.72999954 -0.14000000 139 19 176 0.000000 0.000000 0.000000 0.000000 0.000000 0.000000 197.000000 0.529937 0.651066 -0.543396
-10.35000038 -9.73999977 -0.16000000 139 19 176 0.000000 0.000000 0.000000 0.000000 0.000000 0.000000 197.000000 -0.566473 -0.352219 0.745017
-10.07999992 -9.85000038 0.04000000 139 19 176 0.000000 0.000000 0.000000 0.000000 0.000000 0.000000 197.000000 0.734097 0.286282 -0.615746
-10.06000042 -9.88000011 0.02000000 139 19 176 0.000000 0.000000 0.000000 0.000000 0.000000 0.000000 197.000000 0.298345 0.770592 -0.563186
-10.06000042 -9.85999966 0.05000000 139 19 176 0.000000 0.000000 0.000000 0.000000 0.000000 0.000000 197.000000 0.607167 0.496161 -0.620622
-10.05000019 -9.89000034 0.00000000 139 19 176 0.000000 0.000000 0.000000 0.000000 0.000000 0.000000 197.000000 0.579575 0.582954 -0.569436
-10.10000038 -9.89000034 0.01000000 139 19 176 0.000000 0.000000 0.000000 0.000000 0.000000 0.000000 197.000000 0.387316 0.801953 -0.454815
-10.11999989 -9.92000008 0.01000000 139 19 176 0.000000 0.000000 0.000000 0.000000 0.000000 0.000000 197.000000 0.550839 0.716256 -0.428431
-10.15999985 -9.77000046 -0.02000000 139 19 176 0.000000 0.000000 0.000000 0.000000 0.000000 0.000000 197.000000 -0.466593 -0.519728 0.715663
-10.13000011 -9.90999985 0.02000000 139 19 176 0.000000 0.000000 0.000000 0.000000 0.000000 0.000000 197.000000 0.637710 0.617624 -0.460289
-10.18000031 -9.89000034 -0.02000000 139 19 176 0.000000 0.000000 0.000000 0.000000 0.000000 0.000000 197.000000 -0.442303 -0.538384 0.717294
-10.18000031 -9.92000008 0.01000000 139 19 176 0.000000 0.000000 0.000000 0.000000 0.000000 0.000000 197.000000 -0.450811 -0.289696 0.844302
-10.21000004 -9.92000008 -0.02000000 139 19 176 0.000000 0.000000 0.000000 0.000000 0.000000 0.000000 197.000000 0.489334 0.576775 -0.654127
-10.19999981 -9.77000046 -0.04000000 139 19 176 0.000000 0.000000 0.000000 0.000000 0.000000 0.000000 197.000000 0.467746 0.784972 -0.406243
-10.18000031 -9.89999962 -0.03000000 139 19 176 0.000000 0.000000 0.000000 0.000000 0.000000 0.000000 197.000000 -0.515963 -0.456238 0.725003
-10.21000004 -9.92000008 -0.03000000 139 19 176 0.000000 0.000000 0.000000 0.000000 0.000000 0.000000 197.000000 -0.132947 -0.748389 0.649799
-10.09000015 -9.96000004 0.02000000 139 19 176 0.000000 0.000000 0.000000 0.000000 0.000000 0.000000 197.000000 0.593011 0.682710 -0.426901
-10.10000038 -10.00000000 0.01000000 139 19 176 0.000000 0.000000 0.000000 0.000000 0.000000 0.000000 197.000000 0.773371 0.402153 -0.490073
-10.10000038 -10.00000000 0.01000000 139 19 176 0.000000 0.000000 0.000000 0.000000 0.000000 0.000000 197.000000 0.773371 0.402153 -0.490073
-10.10000038 -10.05000019 0.03000000 139 19 176 0.000000 0.000000 0.000000 0.000000 0.000000 0.000000 197.000000 0.294707 0.772611 -0.562334
-10.10999966 -10.03999996 0.01000000 139 19 176 0.000000 0.000000 0.000000 0.000000 0.000000 0.000000 197.000000 0.424979 0.651635 -0.628303
-10.11999989 -10.06000042 -0.02000000 139 19 176 0.000000 0.000000 0.000000 0.000000 0.000000 0.000000 197.000000 0.585198 0.527859 -0.615555
-10.09000015 -10.10000038 0.01000000 139 19 176 0.000000 0.000000 0.000000 0.000000 0.000000 0.000000 197.000000 0.414454 0.714974 -0.563063
-10.10000038 -10.10000038 0.01000000 139 19 176 0.000000 0.000000 0.000000 0.000000 0.000000 0.000000 197.000000 0.567411 0.477027 -0.671185
-10.17000008 -9.94999981 0.04000000 139 19 176 0.000000 0.000000 0.000000 0.000000 0.000000 0.000000 197.000000 0.594070 0.556835 -0.580530
-10.21000004 -9.96000004 -0.02000000 139 19 176 0.000000 0.000000 0.000000 0.000000 0.000000 0.000000 197.000000 -0.511236 -0.531351 0.675503
-10.18999958 -9.96000004 -0.02000000 139 19 176 0.000000 0.000000 0.000000 0.000000 0.000000 0.000000 197.000000 -0.573233 -0.106478 0.812445
-10.18999958 -9.96000004 -0.02000000 139 19 176 0.000000 0.000000 0.000000 0.000000 0.000000 0.000000 197.000000 -0.573233 -0.106478 0.812445
-10.18999958 -9.97000027 0.00000000 139 19 176 0.000000 0.000000 0.000000 0.000000 0.000000 0.000000 197.000000 0.498237 0.704864 -0.504903
-10.17000008 -10.03999996 -0.01000000 139 19 176 0.000000 0.000000 0.000000 0.000000 0.000000 0.000000 197.000000 0.630564 0.596934 -0.496044
-10.15999985 -10.10000038 0.02000000 139 19 176 0.000000 0.000000 0.000000 0.000000 0.000000 0.000000 197.000000 -0.410708 -0.512158 0.754329
-10.14999962 -9.98999977 -0.04000000 139 19 176 0.000000 0.000000 0.000000 0.000000 0.000000 0.000000 197.000000 0.574446 0.396681 -0.716000
-10.19999981 -9.96000004 -0.05000000 139 19 176 0.000000 0.000000 0.000000 0.000000 0.000000 0.000000 197.000000 0.694757 0.254797 -0.672601
-10.21000004 -9.96000004 -0.07000000 139 19 176 0.000000 0.000000 0.000000 0.000000 0.000000 0.000000 197.000000 0.549933 0.597312 -0.583775
-10.19999981 -10.02000046 -0.05000000 139 19 176 0.000000 0.000000 0.000000 0.000000 0.000000 0.000000 197.000000 -0.634960 -0.110492 0.764603
-10.18000031 -10.02999973 -0.04000000 139 19 176 0.000000 0.000000 0.000000 0.000000 0.000000 0.000000 197.000000 -0.515191 -0.101890 0.850998
-10.25000000 -9.77000046 -0.02000000 139 19 176 0.000000 0.000000 0.000000 0.000000 0.000000 0.000000 197.000000 0.697884 0.387713 -0.602193
-10.22000027 -9.82999992 0.00000000 139 19 176 0.000000 0.000000 0.000000 0.000000 0.000000 0.000000 197.000000 -0.508301 -0.366299 0.779394
-10.23999977 -9.77000046 -0.08000000 139 19 176 0.000000 0.000000 0.000000 0.000000 0.000000 0.000000 197.000000 0.673971 0.280154 -0.683576
-10.23999977 -9.77000046 -0.08000000 139 19 176 0.000000 0.000000 0.000000 0.000000 0.000000 0.000000 197.000000 0.673971 0.280154 -0.683576
-10.27999973 -9.80000019 -0.06000000 139 19 176 0.000000 0.000000 0.000000 0.000000 0.000000 0.000000 197.000000 0.617221 0.660476 -0.427563
-10.27999973 -9.85000038 -0.13000000 139 19 176 0.000000 0.000000 0.000000 0.000000 0.000000 0.000000 197.000000 0.210173 0.799272 -0.563019
-10.25000000 -9.86999989 -0.06000000 139 19 176 0.000000 0.000000 0.000000 0.000000 0.000000 0.000000 197.000000 -0.648993 -0.223629 0.727185
-10.22000027 -9.89000034 -0.04000000 139 19 176 0.000000 0.000000 0.000000 0.000000 0.000000 0.000000 197.000000 0.491288 0.665670 -0.561711
-10.25000000 -9.88000011 -0.07000000 139 19 176 0.000000 0.000000 0.000000 0.000000 0.000000 0.000000 197.000000 0.701551 0.276465 -0.656805
-10.22999954 -9.85999966 -0.08000000 139 19 176 0.000000 0.000000 0.000000 0.000000 0.000000 0.000000 197.000000 0.318015 0.784650 -0.532156
-10.25000000 -9.88000011 -0.07000000 139 19 176 0.000000 0.000000 0.000000 0.000000 0.000000 0.000000 197.000000 0.701551 0.276465 -0.656805
-10.22000027 -9.93999958 -0.06000000 139 19 176 0.000000 0.000000 0.000000 0.000000 0.000000 0.000000 197.000000 0.603804 0.420833 -0.676993
-10.22000027 -9.93999958 -0.05000000 139 19 176 0.000000 0.000000 0.000000 0.000000 0.000000 0.000000 197.000000 -0.589144 -0.144676 0.794971
-10.22999954 -9.92000008 -0.05000000 139 19 176 0.000000 0.000000 0.000000 0.000000 0.000000 0.000000 197.000000 0.514590 0.578703 -0.632693
-10.27999973 -9.86999989 -0.08000000 139 19 176 0.000000 0.000000 0.000000 0.000000 0.000000 0.000000 197.000000 0.311191 0.813519 -0.491271
-10.26000023 -9.92000008 -0.07000000 139 19 176 0.000000 0.000000 0.000000 0.000000 0.000000 0.000000 197.000000 -0.646258 -0.230024 0.727627
-10.28999996 -9.93999958 -0.11000000 139 19 176 0.000000 0.000000 0.000000 0.000000 0.000000 0.000000 197.000000 0.664225 0.405823 -0.627784
-10.31000042 -9.77000046 -0.09000000 139 19 176 0.000000 0.000000 0.000000 0.000000 0.000000 0.000000 197.000000 0.653928 0.485823 -0.579961
-10.34000015 -9.77999973 -0.09000000 139 19 176 0.000000 0.000000 0.000000 0.000000 0.000000 0.000000 197.000000 -0.397215 -0.145598 0.906102
-10.34000015 -9.84000015 -0.10000000 139 19 176 0.000000 0.000000 0.000000 0.000000 0.000000 0.000000 197.000000 -0.457961 -0.145912 0.876916
-10.34000015 -9.81999969 -0.13000000 139 19 176 0.000000 0.000000 0.000000 0.000000 0.000000 0.000000 197.000000 -0.486045 -0.292252 0.823619
-10.30000019 -9.82999992 -0.16000000 139 19 176 0.000000 0.000000 0.000000 0.000000 0.000000 0.000000 197.000000 0.637485 0.600480 -0.482739
-10.35000038 -9.89999962 -0.10000000 139 19 176 0.000000 0.000000 0.000000 0.000000 0.000000 0.000000 197.000000 -0.451284 -0.547869 0.704402
-10.35999966 -9.92000008 -0.09000000 139 19 176 0.000000 0.000000 0.000000 0.000000 0.000000 0.000000 197.000000 0.600400 0.167870 -0.781882
