//X Y Z R G B PointSourceId ScanDirectionFlag NumberOfReturns ReturnNumber GpsTime Intensity Classification Nx Ny Nz
-0.27000001 3.58999991 -0.05000000 171 241 49 0.000000 0.000000 0.000000 0.000000 0.000000 0.000000 222.000000 0.231726 0.001176 0.972780
-0.25000000 3.58999991 -0.05000000 171 241 49 0.000000 0.000000 0.000000 0.000000 0.000000 0.000000 222.000000 -0.215267 0.155253 0.964135
-0.28999999 3.59999990 -0.03000000 171 241 49 0.000000 0.000000 0.000000 0.000000 0.000000 0.000000 222.000000 0.051847 0.284524 0.957266
-0.30000001 3.56999993 -0.04000000 171 241 49 0.000000 0.000000 0.000000 0.000000 0.000000 0.000000 222.000000 -0.167710 -0.065419 0.983663
-0.28999999 3.57999992 -0.04000000 171 241 49 0.000000 0.000000 0.000000 0.000000 0.000000 0.000000 222.000000 0.190063 -0.235894 0.953011
-0.28999999 3.58999991 -0.06000000 171 241 49 0.000000 0.000000 0.000000 0.000000 0.000000 0.000000 222.000000 -0.266525 0.093992 0.959234
-0.31000000 3.55999994 -0.07000000 171 241 49 0.000000 0.000000 0.000000 0.000000 0.000000 0.000000 222.000000 -0.038593 -0.176591 0.983527
-0.31000000 3.55999994 -0.07000000 171 241 49 0.000000 0.000000 0.000000 0.000000 0.000000 0.000000 222.000000 -0.038593 -0.176591 0.983527
-0.25999999 3.56999993 -0.13000000 171 241 49 0.000000 0.000000 0.000000 0.000000 0.000000 0.000000 222.000000 0.134860 -0.325572 0.935850
-0.25000000 3.56999993 -0.15000001 171 241 49 0.000000 0.000000 0.000000 0.000000 0.000000 0.000000 222.000000 0.064536 0.022217 0.997668
-0.28999999 3.59999990 -0.12000000 171 241 49 0.000000 0.000000 0.000000 0.000000 0.000000 0.000000 222.000000 0.313508 -0.149225 0.937787
-0.28999999 3.59999990 -0.13000000 171 241 49 0.000000 0.000000 0.000000 0.000000 0.000000 0.000000 222.000000 0.109042 -0.199283 0.973856
-0.28000000 3.53999996 -0.07000000 171 241 49 0.000000 0.000000 0.000000 0.000000 0.000000 0.000000 222.000000 0.005023 0.025117 0.999672
-0.31999999 3.53999996 -0.09000000 171 241 49 0.000000 0.000000 0.000000 0.000000 0.000000 0.000000 222.000000 -0.086980 0.146555 0.985371
-0.25999999 3.52999997 -0.12000000 171 241 49 0.000000 0.000000 0.000000 0.000000 0.000000 0.000000 222.000000 -0.154393 0.182464 0.971015
-0.25000000 3.52999997 -0.14000000 171 241 49 0.000000 0.000000 0.000000 0.000000 0.000000 0.000000 222.000000 -0.247624 -0.250422 0.935934
-0.25000000 3.51999998 -0.12000000 171 241 49 0.000000 0.000000 0.000000 0.000000 0.000000 0.000000 222.000000 -0.088506 -0.262953 0.960741
-0.25000000 3.52999997 -0.12000000 171 241 49 0.000000 0.000000 0.000000 0.000000 0.000000 0.000000 222.000000 0.156261 0.289423 0.944361
-0.28000000 3.53999996 -0.12000000 171 241 49 0.000000 0.000000 0.000000 0.000000 0.000000 0.000000 222.000000 0.143556 -0.186750 0.971862
-0.25000000 3.50999999 -0.12000000 171 241 49 0.000000 0.000000 0.000000 0.000000 0.000000 0.000000 222.000000 -0.091051 -0.262892 0.960519
-0.25000000 3.51999998 -0.16000000 171 241 49 0.000000 0.000000 0.000000 0.000000 0.000000 0.000000 222.000000 -0.407600 -0.181317 0.894979
-0.27000001 3.48000002 -0.16000000 171 241 49 0.000000 0.000000 0.000000 0.000000 0.000000 0.000000 222.000000 -0.392903 -0.177022 0.902381
-0.30000001 3.52999997 -0.17000000 171 241 49 0.000000 0.000000 0.000000 0.000000 0.000000 0.000000 222.000000 -0.069470 -0.105914 0.991946
-0.34000000 3.61999989 -0.04000000 171 241 49 0.000000 0.000000 0.000000 0.000000 0.000000 0.000000 222.000000 -0.171640 0.021887 0.984917
-0.34000000 3.61999989 -0.04000000 171 241 49 0.000000 0.000000 0.000000 0.000000 0.000000 0.000000 222.000000 -0.171640 0.021887 0.984917
-0.40000001 3.56999993 -0.04000000 171 241 49 0.000000 0.000000 0.000000 0.000000 0.000000 0.000000 222.000000 0.621746 -0.199020 0.757511
-0.40000001 3.56999993 -0.04000000 171 241 49 0.000000 0.000000 0.000000 0.000000 0.000000 0.000000 222.000000 0.621746 -0.199020 0.757511
-0.34999999 3.53999996 -0.04000000 171 241 49 0.000000 0.000000 0.000000 0.000000 0.000000 0.000000 222.000000 0.112482 -0.295101 0.948822
-0.40000001 3.51999998 -0.07000000 171 241 49 0.000000 0.000000 0.000000 0.000000 0.000000 0.000000 222.000000 -0.079355 -0.245622 0.966112
-0.27000001 3.45000005 -0.14000000 171 241 49 0.000000 0.000000 0.000000 0.000000 0.000000 0.000000 222.000000 0.025714 -0.126333 0.991655
-0.25000000 3.41000009 -0.16000000 171 241 49 0.000000 0.000000 0.000000 0.000000 0.000000 0.000000 222.000000 -0.012275 0.141723 0.989830
-0.28999999 3.45000005 -0.13000000 171 241 49 0.000000 0.000000 0.000000 0.000000 0.000000 0.000000 222.000000 -0.127194 -0.190162 0.973478
-0.25999999 3.42000008 -0.16000000 171 241 49 0.000000 0.000000 0.000000 0.000000 0.000000 0.000000 222.000000 0.003086 -0.050399 0.998724
-0.27000001 3.41000009 -0.15000001 171 241 49 0.000000 0.000000 0.000000 0.000000 0.000000 0.000000 222.000000 -0.088894 -0.176570 0.980266
-0.41999999 3.59999990 0.00000000 171 241 49 0.000000 0.000000 0.000000 0.000000 0.000000 0.000000 222.000000 0.344366 -0.311283 0.885728
-0.43000001 3.59999990 0.00000000 171 241 49 0.000000 0.000000 0.000000 0.000000 0.000000 0.000000 222.000000 0.404517 -0.452866 0.794530
-0.41999999 3.56999993 -0.02000000 171 241 49 0.000000 0.000000 0.000000 0.000000 0.000000 0.000000 222.000000 0.244540 -0.418568 0.874643
-0.43000001 3.56999993 -0.01000000 171 241 49 0.000000 0.000000 0.000000 0.000000 0.000000 0.000000 222.000000 0.594986 -0.285529 0.751309
-0.47000000 3.57999992 -0.02000000 171 241 49 0.000000 0.000000 0.000000 0.000000 0.000000 0.000000 222.000000 0.262413 -0.363227 0.893983
-0.47000000 3.58999991 -0.02000000 171 241 49 0.000000 0.000000 0.000000 0.000000 0.000000 0.000000 222.000000 0.086401 -0.181321 0.979621
-0.49000001 3.54999995 -0.01000000 171 241 49 0.000000 0.000000 0.000000 0.000000 0.000000 0.000000 222.000000 0.533743 -0.434596 0.725428
-0.51999998 3.63000011 0.02000000 171 241 49 0.000000 0.000000 0.000000 0.000000 0.000000 0.000000 222.000000 0.556422 -0.096832 0.825238
-0.54000002 3.63000011 -0.02000000 171 241 49 0.000000 0.000000 0.000000 0.000000 0.000000 0.000000 222.000000 0.616885 0.336927 0.711290
-0.43000001 3.60999990 -0.03000000 171 241 49 0.000000 0.000000 0.000000 0.000000 0.000000 0.000000 222.000000 0.599667 0.070128 0.797171
-0.41999999 3.61999989 -0.03000000 171 241 49 0.000000 0.000000 0.000000 0.000000 0.000000 0.000000 222.000000 0.326496 -0.378612 0.866056
-0.46000001 3.59999990 -0.07000000 171 241 49 0.000000 0.000000 0.000000 0.000000 0.000000 0.000000 222.000000 0.648325 -0.104379 0.754175
-0.44000000 3.55999994 -0.07000000 171 241 49 0.000000 0.000000 0.000000 0.000000 0.000000 0.000000 222.000000 0.594710 0.198237 0.779116
-0.47000000 3.63000011 -0.04000000 171 241 49 0.000000 0.000000 0.000000 0.000000 0.000000 0.000000 222.000000 0.624503 -0.377338 0.683822
-0.47999999 3.54999995 -0.06000000 171 241 49 0.000000 0.000000 0.000000 0.000000 0.000000 0.000000 222.000000 0.764620 0.035203 0.643520
-0.47000000 3.52999997 -0.10000000 171 241 49 0.000000 0.000000 0.000000 0.000000 0.000000 0.000000 222.000000 0.611474 -0.296910 0.733447
-0.50000000 3.48000002 -0.05000000 171 241 49 0.000000 0.000000 0.000000 0.000000 0.000000 0.000000 222.000000 0.655302 -0.234149 0.718160
-0.50000000 3.47000003 -0.05000000 171 241 49 0.000000 0.000000 0.000000 0.000000 0.000000 0.000000 222.000000 0.381692 -0.344604 0.857647
-0.47999999 3.50000000 -0.08000000 171 241 49 0.000000 0.000000 0.000000 0.000000 0.000000 0.000000 222.000000 0.761276 -0.123169 0.636623
-0.50999999 3.59999990 -0.03000000 171 241 49 0.000000 0.000000 0.000000 0.000000 0.000000 0.000000 222.000000 0.395496 0.336560 0.854582
-0.52999997 3.57999992 -0.06000000 171 241 49 0.000000 0.000000 0.000000 0.000000 0.000000 0.000000 222.000000 0.248523 -0.279765 0.927345
-0.54000002 3.51999998 -0.10000000 171 241 49 0.000000 0.000000 0.000000 0.000000 0.000000 0.000000 222.000000 0.277351 -0.321375 0.905425
-0.52999997 3.50000000 -0.07000000 171 241 49 0.000000 0.000000 0.000000 0.000000 0.000000 0.000000 222.000000 0.124395 -0.075567 0.989351
-0.13000000 4.28000021 -0.20000000 171 241 49 0.000000 0.000000 0.000000 0.000000 0.000000 0.000000 222.000000 0.204156 -0.056777 0.977291
-0.20000000 4.21000004 -0.23000000 171 241 49 0.000000 0.000000 0.000000 0.000000 0.000000 0.000000 222.000000 0.223492 0.001170 0.974705
-0.20000000 3.64000010 -0.27000001 171 241 49 0.000000 0.000000 0.000000 0.000000 0.000000 0.000000 222.000000 -0.255187 -0.331014 0.908465
-0.20000000 3.64000010 -0.27000001 171 241 49 0.000000 0.000000 0.000000 0.000000 0.000000 0.000000 222.000000 -0.255187 -0.331014 0.908465
-0.23000000 3.64000010 -0.25999999 171 241 49 0.000000 0.000000 0.000000 0.000000 0.000000 0.000000 222.000000 -0.111123 -0.374524 0.920534
-0.28000000 3.86999989 -0.23000000 171 241 49 0.000000 0.000000 0.000000 0.000000 0.000000 0.000000 222.000000 0.306601 0.079586 0.948505
-0.34000000 3.91000009 -0.28000000 171 241 49 0.000000 0.000000 0.000000 0.000000 0.000000 0.000000 222.000000 0.392018 0.011644 0.919884
-0.30000001 3.97000003 -0.50999999 171 241 49 0.000000 0.000000 0.000000 0.000000 0.000000 0.000000 222.000000 -0.194980 -0.283482 0.938947
-0.25999999 3.84999990 -0.40000001 171 241 49 0.000000 0.000000 0.000000 0.000000 0.000000 0.000000 222.000000 0.201530 -0.259111 0.944588
-0.27000001 3.85999990 -0.43000001 171 241 49 0.000000 0.000000 0.000000 0.000000 0.000000 0.000000 222.000000 0.154969 -0.314053 0.936673
-0.25999999 3.80999994 -0.49000001 171 241 49 0.000000 0.000000 0.000000 0.000000 0.000000 0.000000 222.000000 0.303066 -0.285497 0.909199
-0.31000000 3.73000002 -0.20000000 171 241 49 0.000000 0.000000 0.000000 0.000000 0.000000 0.000000 222.000000 0.470825 -0.073610 0.879151
-0.25000000 3.70000005 -0.20000000 171 241 49 0.000000 0.000000 0.000000 0.000000 0.000000 0.000000 222.000000 0.109478 -0.005420 0.993974
-0.28999999 3.69000006 -0.34999999 171 241 49 0.000000 0.000000 0.000000 0.000000 0.000000 0.000000 222.000000 -0.199498 -0.268290 0.942455
-0.37000000 3.71000004 -0.36000001 171 241 49 0.000000 0.000000 0.000000 0.000000 0.000000 0.000000 222.000000 0.371054 -0.249833 0.894373
-0.34000000 3.71000004 -0.34000000 171 241 49 0.000000 0.000000 0.000000 0.000000 0.000000 0.000000 222.000000 0.283453 -0.289268 0.914319
-0.36000001 3.71000004 -0.36000001 171 241 49 0.000000 0.000000 0.000000 0.000000 0.000000 0.000000 222.000000 0.366299 -0.011487 0.930426
-0.30000001 3.68000007 -0.40000001 171 241 49 0.000000 0.000000 0.000000 0.000000 0.000000 0.000000 222.000000 0.411797 -0.197839 0.889541
-0.28999999 3.67000008 -0.38000000 171 241 49 0.000000 0.000000 0.000000 0.000000 0.000000 0.000000 222.000000 0.360486 -0.248662 0.899009
-0.36000001 3.76999998 -0.38000000 171 241 49 0.000000 0.000000 0.000000 0.000000 0.000000 0.000000 222.000000 0.328049 -0.313070 0.891275
-0.34000000 3.73000002 -0.38000000 171 241 49 0.000000 0.000000 0.000000 0.000000 0.000000 0.000000 222.000000 0.279038 -0.329236 0.902076
-0.38000000 3.71000004 -0.38999999 171 241 49 0.000000 0.000000 0.000000 0.000000 0.000000 0.000000 222.000000 0.223206 -0.234161 0.946228
-0.38000000 3.64000010 -0.38000000 171 241 49 0.000000 0.000000 0.000000 0.000000 0.000000 0.000000 222.000000 0.459197 -0.047691 0.887054
-0.25000000 3.94000006 -0.56999999 171 241 49 0.000000 0.000000 0.000000 0.000000 0.000000 0.000000 222.000000 -0.023836 -0.312372 0.949661
-0.25000000 3.93000007 -0.57999998 171 241 49 0.000000 0.000000 0.000000 0.000000 0.000000 0.000000 222.000000 -0.090948 -0.257472 0.961996
-0.52999997 3.73000002 -0.31000000 171 241 49 0.000000 0.000000 0.000000 0.000000 0.000000 0.000000 222.000000 0.029754 -0.210655 0.977107
-0.52999997 3.73000002 -0.31000000 171 241 49 0.000000 0.000000 0.000000 0.000000 0.000000 0.000000 222.000000 0.029754 -0.210655 0.977107
-0.44000000 3.76999998 -0.41000000 171 241 49 0.000000 0.000000 0.000000 0.000000 0.000000 0.000000 222.000000 0.322281 -0.368103 0.872144
-0.44000000 3.76999998 -0.41000000 171 241 49 0.000000 0.000000 0.000000 0.000000 0.000000 0.000000 222.000000 0.322281 -0.368103 0.872144
-0.67000002 3.86999989 -0.40000001 171 241 49 0.000000 0.000000 0.000000 0.000000 0.000000 0.000000 222.000000 0.097607 -0.234511 0.967201
-0.68000001 3.84999990 -0.40000001 171 241 49 0.000000 0.000000 0.000000 0.000000 0.000000 0.000000 222.000000 0.116596 0.100108 0.988121
-0.66000003 3.75999999 -0.41999999 171 241 49 0.000000 0.000000 0.000000 0.000000 0.000000 0.000000 222.000000 0.044418 0.015495 0.998893
-0.11000000 3.60999990 -0.23999999 171 241 49 0.000000 0.000000 0.000000 0.000000 0.000000 0.000000 222.000000 -0.307617 -0.039243 0.950701
-0.09000000 3.56999993 -0.20999999 171 241 49 0.000000 0.000000 0.000000 0.000000 0.000000 0.000000 222.000000 -0.587694 -0.122252 0.799794
-0.08000000 3.55999994 -0.20999999 171 241 49 0.000000 0.000000 0.000000 0.000000 0.000000 0.000000 222.000000 -0.289545 0.038857 0.956375
-0.10000000 3.51999998 -0.23000000 171 241 49 0.000000 0.000000 0.000000 0.000000 0.000000 0.000000 222.000000 -0.273796 0.113973 0.955011
-0.17000000 3.57999992 -0.25999999 171 241 49 0.000000 0.000000 0.000000 0.000000 0.000000 0.000000 222.000000 -0.433177 -0.232327 0.870851
-0.17000000 3.52999997 -0.20000000 171 241 49 0.000000 0.000000 0.000000 0.000000 0.000000 0.000000 222.000000 -0.329907 -0.097503 0.938965
-0.17000000 3.52999997 -0.20000000 171 241 49 0.000000 0.000000 0.000000 0.000000 0.000000 0.000000 222.000000 -0.329907 -0.097503 0.938965
-0.23000000 3.52999997 -0.41000000 171 241 49 0.000000 0.000000 0.000000 0.000000 0.000000 0.000000 222.000000 -0.321942 -0.301171 0.897580
-0.25000000 3.60999990 -0.28000000 171 241 49 0.000000 0.000000 0.000000 0.000000 0.000000 0.000000 222.000000 -0.200132 -0.218937 0.954994
-0.27000001 3.51999998 -0.44999999 171 241 49 0.000000 0.000000 0.000000 0.000000 0.000000 0.000000 222.000000 -0.365136 -0.206381 0.907790
0.31999999 3.86999989 0.08000000 171 241 49 97.000000 1.000000 4.000000 1.000000 176.000000 114.000000 222.000000 0.794509 -0.278472 -0.539637
0.27000001 3.85999990 0.11000000 171 241 49 97.000000 1.000000 4.000000 1.000000 176.000000 114.000000 222.000000 0.943408 0.047621 -0.328198
0.31999999 3.84999990 0.06000000 171 241 49 97.000000 1.000000 4.000000 1.000000 176.000000 114.000000 222.000000 0.869650 -0.162237 -0.466249
0.28999999 3.77999997 0.14000000 171 241 49 97.000000 1.000000 4.000000 1.000000 176.000000 114.000000 222.000000 0.710643 -0.268677 -0.650230
0.30000001 3.79999995 0.13000000 171 241 49 97.000000 1.000000 4.000000 1.000000 176.000000 114.000000 222.000000 0.904769 -0.275109 -0.325128
0.30000001 3.79999995 0.08000000 171 241 49 97.000000 1.000000 4.000000 1.000000 176.000000 114.000000 222.000000 0.878393 -0.237929 -0.414506
0.28999999 3.76999998 0.08000000 171 241 49 97.000000 1.000000 4.000000 1.000000 176.000000 114.000000 222.000000 0.916219 -0.153407 -0.370147
0.28999999 3.76999998 0.10000000 171 241 49 97.000000 1.000000 4.000000 1.000000 176.000000 114.000000 222.000000 0.719447 -0.262050 -0.643215
0.05000000 4.26000023 -0.09000000 171 241 49 97.000000 1.000000 4.000000 1.000000 176.000000 114.000000 222.000000 0.813727 0.004103 -0.581233
0.09000000 4.17999983 -0.03000000 171 241 49 97.000000 1.000000 4.000000 1.000000 176.000000 114.000000 222.000000 -0.383564 -0.227787 0.894982
0.06000000 4.15000010 -0.05000000 171 241 49 97.000000 1.000000 4.000000 1.000000 176.000000 114.000000 222.000000 0.784297 0.248909 -0.568263
0.08000000 4.19000006 -0.07000000 171 241 49 97.000000 1.000000 4.000000 1.000000 176.000000 114.000000 222.000000 0.659560 0.237693 -0.713080
0.04000000 4.23000002 -0.09000000 171 241 49 97.000000 1.000000 4.000000 1.000000 176.000000 114.000000 222.000000 0.725628 0.179489 -0.664264
0.00000000 4.23999977 -0.07000000 171 241 49 97.000000 1.000000 4.000000 1.000000 176.000000 114.000000 222.000000 0.646302 0.322341 -0.691657
-0.02000000 4.28000021 -0.13000000 171 241 49 97.000000 1.000000 4.000000 1.000000 176.000000 114.000000 222.000000 -0.550578 -0.355683 0.755217
-0.01000000 4.19000006 -0.03000000 171 241 49 97.000000 1.000000 4.000000 1.000000 176.000000 114.000000 222.000000 0.768200 0.188600 -0.611800
0.04000000 4.11000013 -0.05000000 171 241 49 97.000000 1.000000 4.000000 1.000000 176.000000 114.000000 222.000000 -0.178286 -0.123428 0.976207
-0.07000000 4.11000013 -0.10000000 171 241 49 97.000000 1.000000 4.000000 1.000000 176.000000 114.000000 222.000000 -0.504816 -0.347762 0.790077
-0.07000000 4.09999990 -0.11000000 171 241 49 97.000000 1.000000 4.000000 1.000000 176.000000 114.000000 222.000000 -0.158727 -0.358190 0.920057
-0.07000000 3.98000002 -0.03000000 171 241 49 97.000000 1.000000 4.000000 1.000000 176.000000 114.000000 222.000000 -0.457757 -0.405996 0.790965
0.15000001 3.85999990 0.15000001 171 241 49 97.000000 1.000000 4.000000 1.000000 176.000000 114.000000 222.000000 0.681561 -0.095272 -0.725533
0.11000000 3.80999994 0.23000000 171 241 49 97.000000 1.000000 4.000000 1.000000 176.000000 114.000000 222.000000 0.978855 0.001156 -0.204554
0.10000000 3.82999992 0.15000001 171 241 49 97.000000 1.000000 4.000000 1.000000 176.000000 114.000000 222.000000 0.941856 -0.191121 -0.276369
0.13000000 3.81999993 0.16000000 171 241 49 97.000000 1.000000 4.000000 1.000000 176.000000 114.000000 222.000000 0.938156 -0.271023 -0.215428
0.10000000 3.82999992 0.15000001 171 241 49 97.000000 1.000000 4.000000 1.000000 176.000000 114.000000 222.000000 0.941856 -0.191121 -0.276369
0.20000000 3.75000000 0.19000000 171 241 49 97.000000 1.000000 4.000000 1.000000 176.000000 114.000000 222.000000 0.866487 -0.404972 -0.291886
0.22000000 3.71000004 0.19000000 171 241 49 97.000000 1.000000 4.000000 1.000000 176.000000 114.000000 222.000000 0.915151 -0.211189 -0.343361
0.16000000 3.74000001 0.25000000 171 241 49 97.000000 1.000000 4.000000 1.000000 176.000000 114.000000 222.000000 0.844619 -0.222907 -0.486755
0.18000001 3.76999998 0.20000000 171 241 49 97.000000 1.000000 4.000000 1.000000 176.000000 114.000000 222.000000 0.708662 -0.089131 -0.699895
0.15000001 3.79999995 0.15000001 171 241 49 97.000000 1.000000 4.000000 1.000000 176.000000 114.000000 222.000000 0.845010 -0.259177 -0.467746
0.06000000 3.84999990 0.23000000 171 241 49 97.000000 1.000000 4.000000 1.000000 176.000000 114.000000 222.000000 0.880446 0.278432 -0.383784
0.06000000 3.81999993 0.19000000 171 241 49 97.000000 1.000000 4.000000 1.000000 176.000000 114.000000 222.000000 0.800953 0.390043 -0.454248
0.06000000 3.81999993 0.19000000 171 241 49 97.000000 1.000000 4.000000 1.000000 176.000000 114.000000 222.000000 0.800953 0.390043 -0.454248
0.04000000 3.82999992 0.17000000 171 241 49 97.000000 1.000000 4.000000 1.000000 176.000000 114.000000 222.000000 0.887840 0.242408 -0.391125
0.04000000 3.82999992 0.17000000 171 241 49 97.000000 1.000000 4.000000 1.000000 176.000000 114.000000 222.000000 0.887840 0.242408 -0.391125
0.02000000 3.83999991 0.19000000 171 241 49 97.000000 1.000000 4.000000 1.000000 176.000000 114.000000 222.000000 0.857179 -0.059933 -0.511520
-0.01000000 3.84999990 0.16000000 171 241 49 97.000000 1.000000 4.000000 1.000000 176.000000 114.000000 222.000000 -0.620749 0.185458 0.761759
0.05000000 3.67000008 0.34000000 171 241 49 97.000000 1.000000 4.000000 1.000000 176.000000 114.000000 222.000000 0.900241 -0.355087 -0.251950
0.02000000 3.67000008 0.34000000 171 241 49 97.000000 1.000000 4.000000 1.000000 176.000000 114.000000 222.000000 0.950082 -0.250735 -0.185679
-0.01000000 3.70000005 0.33000001 171 241 49 97.000000 1.000000 4.000000 1.000000 176.000000 114.000000 222.000000 0.901826 -0.143440 -0.407597
0.04000000 3.79999995 0.25000000 171 241 49 97.000000 1.000000 4.000000 1.000000 176.000000 114.000000 222.000000 0.923770 -0.304116 -0.232727
0.05000000 3.76999998 0.23999999 171 241 49 97.000000 1.000000 4.000000 1.000000 176.000000 114.000000 222.000000 0.782932 -0.272530 -0.559237
0.07000000 3.77999997 0.20999999 171 241 49 97.000000 1.000000 4.000000 1.000000 176.000000 114.000000 222.000000 0.882899 0.158023 -0.442174
0.08000000 3.79999995 0.19000000 171 241 49 97.000000 1.000000 4.000000 1.000000 176.000000 114.000000 222.000000 0.832139 0.211458 -0.512670
0.08000000 3.74000001 0.18000001 171 241 49 97.000000 1.000000 4.000000 1.000000 176.000000 114.000000 222.000000 0.862319 -0.308959 -0.401186
0.03000000 3.79999995 0.20999999 171 241 49 97.000000 1.000000 4.000000 1.000000 176.000000 114.000000 222.000000 0.747503 -0.324510 -0.579597
0.02000000 3.78999996 0.19000000 171 241 49 97.000000 1.000000 4.000000 1.000000 176.000000 114.000000 222.000000 0.961495 -0.180692 -0.207071
0.05000000 3.77999997 0.18000001 171 241 49 97.000000 1.000000 4.000000 1.000000 176.000000 114.000000 222.000000 0.959928 -0.011006 -0.280030
0.02000000 3.76999998 0.18000001 171 241 49 97.000000 1.000000 4.000000 1.000000 176.000000 114.000000 222.000000 0.858731 0.283182 -0.427070
0.05000000 3.78999996 0.19000000 171 241 49 97.000000 1.000000 4.000000 1.000000 176.000000 114.000000 222.000000 0.943148 0.199644 -0.265734
0.06000000 3.69000006 0.31999999 171 241 49 97.000000 1.000000 4.000000 1.000000 176.000000 114.000000 222.000000 0.853543 -0.071714 -0.516063
0.02000000 3.66000009 0.31999999 171 241 49 97.000000 1.000000 4.000000 1.000000 176.000000 114.000000 222.000000 0.843545 -0.142302 -0.517863
-0.01000000 3.77999997 0.25000000 171 241 49 97.000000 1.000000 4.000000 1.000000 176.000000 114.000000 222.000000 0.947142 0.194880 -0.254842
-0.03000000 3.78999996 0.25000000 171 241 49 97.000000 1.000000 4.000000 1.000000 176.000000 114.000000 222.000000 0.980898 -0.141181 -0.133815
-0.03000000 3.72000003 0.31999999 171 241 49 97.000000 1.000000 4.000000 1.000000 176.000000 114.000000 222.000000 0.949190 0.284356 -0.134836
0.00000000 3.75000000 0.31000000 171 241 49 97.000000 1.000000 4.000000 1.000000 176.000000 114.000000 222.000000 0.955106 0.194236 -0.223706
-0.04000000 3.76999998 0.27000001 171 241 49 97.000000 1.000000 4.000000 1.000000 176.000000 114.000000 222.000000 0.799219 0.134933 -0.585698
-0.04000000 3.73000002 0.30000001 171 241 49 97.000000 1.000000 4.000000 1.000000 176.000000 114.000000 222.000000 0.984560 0.171279 -0.036120
-0.01000000 3.76999998 0.22000000 171 241 49 97.000000 1.000000 4.000000 1.000000 176.000000 114.000000 222.000000 0.761625 0.116832 -0.637399
0.00000000 3.77999997 0.22000000 171 241 49 97.000000 1.000000 4.000000 1.000000 176.000000 114.000000 222.000000 -0.638216 0.023741 0.769491
-0.02000000 3.78999996 0.20000000 171 241 49 97.000000 1.000000 4.000000 1.000000 176.000000 114.000000 222.000000 0.699008 -0.079928 -0.710633
0.00000000 3.79999995 0.16000000 171 241 49 97.000000 1.000000 4.000000 1.000000 176.000000 114.000000 222.000000 0.840251 0.149148 -0.521280
0.00000000 3.77999997 0.16000000 171 241 49 97.000000 1.000000 4.000000 1.000000 176.000000 114.000000 222.000000 -0.528140 -0.142701 0.837081
0.01000000 3.76999998 0.16000000 171 241 49 97.000000 1.000000 4.000000 1.000000 176.000000 114.000000 222.000000 0.751655 -0.267431 -0.602906
-0.06000000 3.78999996 0.22000000 171 241 49 97.000000 1.000000 4.000000 1.000000 176.000000 114.000000 222.000000 -0.576625 -0.177074 0.797589
-0.03000000 3.69000006 0.31000000 171 241 49 97.000000 1.000000 4.000000 1.000000 176.000000 114.000000 222.000000 0.928258 0.265826 -0.260140
-0.01000000 3.69000006 0.31999999 171 241 49 97.000000 1.000000 4.000000 1.000000 176.000000 114.000000 222.000000 0.904811 -0.362798 -0.222924
-0.01000000 3.68000007 0.31999999 171 241 49 97.000000 1.000000 4.000000 1.000000 176.000000 114.000000 222.000000 0.877810 -0.269516 -0.395993
-0.02000000 3.66000009 0.28999999 171 241 49 97.000000 1.000000 4.000000 1.000000 176.000000 114.000000 222.000000 0.764620 -0.035203 -0.643520
-0.05000000 3.69000006 0.16000000 171 241 49 97.000000 1.000000 4.000000 1.000000 176.000000 114.000000 222.000000 0.798373 -0.315857 -0.512673
0.25999999 3.86999989 0.09000000 171 241 49 97.000000 1.000000 4.000000 1.000000 176.000000 114.000000 222.000000 0.787144 -0.355744 -0.503836
0.14000000 3.85999990 0.13000000 171 241 49 97.000000 1.000000 4.000000 1.000000 176.000000 114.000000 222.000000 0.810214 0.100368 -0.577477
0.15000001 3.85999990 0.14000000 171 241 49 97.000000 1.000000 4.000000 1.000000 176.000000 114.000000 222.000000 0.919853 0.014231 -0.392005
0.12000000 3.88000011 0.11000000 171 241 49 97.000000 1.000000 4.000000 1.000000 176.000000 114.000000 222.000000 0.736673 0.098517 -0.669034
0.11000000 3.85999990 0.12000000 171 241 49 97.000000 1.000000 4.000000 1.000000 176.000000 114.000000 222.000000 0.965885 -0.074299 -0.248083
0.11000000 3.80999994 0.11000000 171 241 49 97.000000 1.000000 4.000000 1.000000 176.000000 114.000000 222.000000 0.941326 -0.228746 -0.248155
0.10000000 3.83999991 0.10000000 171 241 49 97.000000 1.000000 4.000000 1.000000 176.000000 114.000000 222.000000 0.908960 0.124266 -0.397932
0.02000000 3.93000007 0.05000000 171 241 49 97.000000 1.000000 4.000000 1.000000 176.000000 114.000000 222.000000 -0.727773 -0.264789 0.632640
0.08000000 3.89000010 0.07000000 171 241 49 97.000000 1.000000 4.000000 1.000000 176.000000 114.000000 222.000000 -0.589880 -0.313424 0.744182
0.08000000 3.83999991 0.11000000 171 241 49 97.000000 1.000000 4.000000 1.000000 176.000000 114.000000 222.000000 0.831715 0.093370 -0.547295
0.09000000 3.81999993 0.13000000 171 241 49 97.000000 1.000000 4.000000 1.000000 176.000000 114.000000 222.000000 0.716786 -0.223312 -0.660567
0.08000000 3.82999992 0.12000000 171 241 49 97.000000 1.000000 4.000000 1.000000 176.000000 114.000000 222.000000 0.803977 -0.213677 -0.554944
0.09000000 3.83999991 0.09000000 171 241 49 97.000000 1.000000 4.000000 1.000000 176.000000 114.000000 222.000000 -0.643509 0.089011 0.760245
0.02000000 3.84999990 0.08000000 171 241 49 97.000000 1.000000 4.000000 1.000000 176.000000 114.000000 222.000000 0.735083 0.172691 -0.655615
0.02000000 3.82999992 0.07000000 171 241 49 97.000000 1.000000 4.000000 1.000000 176.000000 114.000000 222.000000 0.635466 -0.233789 -0.735885
0.05000000 3.83999991 0.07000000 171 241 49 97.000000 1.000000 4.000000 1.000000 176.000000 114.000000 222.000000 0.711742 -0.226819 -0.664814
0.04000000 3.89000010 0.04000000 171 241 49 97.000000 1.000000 4.000000 1.000000 176.000000 114.000000 222.000000 0.687027 0.315224 -0.654696
-0.01000000 3.93000007 0.08000000 171 241 49 97.000000 1.000000 4.000000 1.000000 176.000000 114.000000 222.000000 0.813424 0.266978 -0.516782
0.01000000 3.94000006 0.04000000 171 241 49 97.000000 1.000000 4.000000 1.000000 176.000000 114.000000 222.000000 -0.558918 0.069687 0.826289
-0.02000000 3.91000009 0.06000000 171 241 49 97.000000 1.000000 4.000000 1.000000 176.000000 114.000000 222.000000 -0.401800 0.049391 0.914395
0.00000000 3.90000010 0.05000000 171 241 49 97.000000 1.000000 4.000000 1.000000 176.000000 114.000000 222.000000 0.721878 -0.247997 -0.646057
-0.07000000 3.95000005 0.01000000 171 241 49 97.000000 1.000000 4.000000 1.000000 176.000000 114.000000 222.000000 -0.410645 0.119129 0.903980
-0.07000000 3.90000010 0.04000000 171 241 49 97.000000 1.000000 4.000000 1.000000 176.000000 114.000000 222.000000 -0.783043 0.018081 0.621705
0.01000000 3.89000010 0.07000000 171 241 49 97.000000 1.000000 4.000000 1.000000 176.000000 114.000000 222.000000 0.674491 0.044019 -0.736970
0.00000000 3.80999994 0.11000000 171 241 49 97.000000 1.000000 4.000000 1.000000 176.000000 114.000000 222.000000 -0.425578 0.075263 0.901787
-0.01000000 3.81999993 0.13000000 171 241 49 97.000000 1.000000 4.000000 1.000000 176.000000 114.000000 222.000000 0.912005 -0.117991 -0.392842
-0.05000000 3.82999992 0.11000000 171 241 49 97.000000 1.000000 4.000000 1.000000 176.000000 114.000000 222.000000 -0.561875 0.269133 0.782218
-0.06000000 3.81999993 0.11000000 171 241 49 97.000000 1.000000 4.000000 1.000000 176.000000 114.000000 222.000000 0.665605 -0.085931 -0.741341
-0.01000000 3.88000011 0.06000000 171 241 49 97.000000 1.000000 4.000000 1.000000 176.000000 114.000000 222.000000 0.819402 0.072677 -0.568594
-0.03000000 3.85999990 0.06000000 171 241 49 97.000000 1.000000 4.000000 1.000000 176.000000 114.000000 222.000000 -0.499358 0.244301 0.831239
0.01000000 3.86999989 0.04000000 171 241 49 97.000000 1.000000 4.000000 1.000000 176.000000 114.000000 222.000000 -0.631693 -0.409523 0.658221
0.01000000 3.85999990 0.04000000 171 241 49 97.000000 1.000000 4.000000 1.000000 176.000000 114.000000 222.000000 -0.512825 0.080526 0.854708
-0.04000000 3.86999989 0.06000000 171 241 49 97.000000 1.000000 4.000000 1.000000 176.000000 114.000000 222.000000 -0.663518 -0.149632 0.733044
-0.07000000 3.94000006 -0.03000000 171 241 49 97.000000 1.000000 4.000000 1.000000 176.000000 114.000000 222.000000 -0.347102 -0.006311 0.937806
-0.07000000 3.93000007 -0.03000000 171 241 49 97.000000 1.000000 4.000000 1.000000 176.000000 114.000000 222.000000 -0.329819 0.100148 0.938717
0.09000000 3.79999995 0.14000000 171 241 49 97.000000 1.000000 4.000000 1.000000 176.000000 114.000000 222.000000 0.787556 0.067423 -0.612544
0.02000000 3.79999995 0.09000000 171 241 49 97.000000 1.000000 4.000000 1.000000 176.000000 114.000000 222.000000 0.474000 -0.319675 -0.820446
0.03000000 3.77999997 0.05000000 171 241 49 97.000000 1.000000 4.000000 1.000000 176.000000 114.000000 222.000000 0.858188 0.054245 -0.510462
-0.03000000 3.79999995 0.09000000 171 241 49 97.000000 1.000000 4.000000 1.000000 176.000000 114.000000 222.000000 0.772557 0.208174 -0.599850
0.01000000 3.79999995 0.09000000 171 241 49 97.000000 1.000000 4.000000 1.000000 176.000000 114.000000 222.000000 -0.393390 0.065789 0.917015
-0.03000000 3.79999995 0.09000000 171 241 49 97.000000 1.000000 4.000000 1.000000 176.000000 114.000000 222.000000 0.772557 0.208174 -0.599850
-0.03000000 3.77999997 0.09000000 171 241 49 97.000000 1.000000 4.000000 1.000000 176.000000 114.000000 222.000000 0.741044 0.041090 -0.670198
-0.04000000 3.79999995 0.08000000 171 241 49 97.000000 1.000000 4.000000 1.000000 176.000000 114.000000 222.000000 0.704720 -0.213127 -0.676718
-0.06000000 3.75000000 0.04000000 171 241 49 97.000000 1.000000 4.000000 1.000000 176.000000 114.000000 222.000000 -0.624185 -0.004134 0.781265
-0.06000000 3.71000004 0.03000000 171 241 49 97.000000 1.000000 4.000000 1.000000 176.000000 114.000000 222.000000 0.751597 -0.212307 -0.624523
-0.03000000 3.54999995 -0.23000000 171 241 49 97.000000 1.000000 4.000000 1.000000 176.000000 114.000000 222.000000 -0.239606 0.178031 0.954408
-0.03000000 3.50999999 -0.25000000 171 241 49 97.000000 1.000000 4.000000 1.000000 176.000000 114.000000 222.000000 -0.412365 -0.055072 0.909353
-0.07000000 3.46000004 -0.28999999 171 241 49 97.000000 1.000000 4.000000 1.000000 176.000000 114.000000 222.000000 -0.625173 -0.188934 0.757273
-0.18000001 4.38999987 0.23999999 171 241 49 0.000000 0.000000 0.000000 0.000000 0.000000 0.000000 224.000000 -0.135657 -0.291462 0.946915
-0.19000000 4.40000010 0.23999999 171 241 49 0.000000 0.000000 0.000000 0.000000 0.000000 0.000000 224.000000 -0.430646 0.141641 0.891337
-0.23000000 4.34999990 0.25999999 171 241 49 0.000000 0.000000 0.000000 0.000000 0.000000 0.000000 224.000000 -0.425518 -0.225450 0.876417
-0.18000001 4.36000013 0.23000000 171 241 49 0.000000 0.000000 0.000000 0.000000 0.000000 0.000000 224.000000 0.675021 0.117202 -0.728430
-0.09000000 4.34000015 -0.19000000 171 241 49 0.000000 0.000000 0.000000 0.000000 0.000000 0.000000 222.000000 -0.008266 0.225542 0.974198
-0.09000000 4.34000015 -0.19000000 171 241 49 0.000000 0.000000 0.000000 0.000000 0.000000 0.000000 222.000000 -0.008266 0.225542 0.974198
-0.20000000 4.32000017 0.25999999 171 241 49 0.000000 0.000000 0.000000 0.000000 0.000000 0.000000 224.000000 -0.199491 -0.194206 0.960462
-0.20000000 4.30999994 0.25000000 171 241 49 0.000000 0.000000 0.000000 0.000000 0.000000 0.000000 224.000000 -0.357424 -0.155584 0.920892
-0.23000000 4.30999994 0.28000000 171 241 49 0.000000 0.000000 0.000000 0.000000 0.000000 0.000000 224.000000 -0.059093 -0.353243 0.933664
-0.20000000 4.19000006 0.23999999 171 241 49 0.000000 0.000000 0.000000 0.000000 0.000000 0.000000 224.000000 0.654591 0.104440 -0.748734
-0.22000000 4.17000008 0.25000000 171 241 49 0.000000 0.000000 0.000000 0.000000 0.000000 0.000000 224.000000 -0.152694 -0.360021 0.920364
-0.20999999 4.19000006 0.23999999 171 241 49 0.000000 0.000000 0.000000 0.000000 0.000000 0.000000 224.000000 -0.046177 -0.268324 0.962221
-0.20999999 4.11000013 0.25999999 171 241 49 0.000000 0.000000 0.000000 0.000000 0.000000 0.000000 224.000000 -0.398785 -0.177078 0.899786
-0.23000000 4.13999987 0.23999999 171 241 49 0.000000 0.000000 0.000000 0.000000 0.000000 0.000000 224.000000 0.088664 -0.326867 0.940902
-0.23000000 4.13000011 0.30000001 171 241 49 0.000000 0.000000 0.000000 0.000000 0.000000 0.000000 224.000000 -0.297715 -0.124159 0.946547
-0.19000000 4.11000013 0.27000001 171 241 49 0.000000 0.000000 0.000000 0.000000 0.000000 0.000000 224.000000 -0.327046 -0.404545 0.854040
-0.23000000 4.07000017 0.27000001 171 241 49 0.000000 0.000000 0.000000 0.000000 0.000000 0.000000 224.000000 -0.429429 -0.086990 0.898901
-0.19000000 4.01000023 0.31000000 171 241 49 0.000000 0.000000 0.000000 0.000000 0.000000 0.000000 222.000000 -0.564169 -0.371207 0.737508
-0.09000000 4.28000021 -0.15000001 171 241 49 0.000000 0.000000 0.000000 0.000000 0.000000 0.000000 222.000000 -0.493454 0.244421 0.834722
-0.08000000 4.21999979 -0.08000000 171 241 49 97.000000 1.000000 4.000000 1.000000 176.000000 114.000000 222.000000 -0.085963 -0.329304 0.940303
-0.08000000 4.21999979 -0.08000000 171 241 49 0.000000 0.000000 0.000000 0.000000 0.000000 0.000000 222.000000 -0.085963 -0.329304 0.940303
-0.08000000 4.17000008 -0.09000000 171 241 49 0.000000 0.000000 0.000000 0.000000 0.000000 0.000000 222.000000 -0.552103 -0.286334 0.783068
-0.14000000 4.15000010 -0.12000000 171 241 49 0.000000 0.000000 0.000000 0.000000 0.000000 0.000000 222.000000 -0.420292 -0.360475 0.832714
-0.11000000 4.03999996 -0.02000000 171 241 49 0.000000 0.000000 0.000000 0.000000 0.000000 0.000000 222.000000 -0.371603 0.006385 0.928370
-0.12000000 3.98000002 -0.02000000 171 241 49 0.000000 0.000000 0.000000 0.000000 0.000000 0.000000 222.000000 -0.615595 0.070313 0.784920
-0.10000000 4.13000011 -0.06000000 171 241 49 0.000000 0.000000 0.000000 0.000000 0.000000 0.000000 222.000000 -0.516512 -0.181153 0.836899
-0.15000001 4.11999989 -0.18000001 171 241 49 0.000000 0.000000 0.000000 0.000000 0.000000 0.000000 222.000000 -0.260105 -0.398427 0.879546
-0.13000000 4.05000019 -0.03000000 171 241 49 0.000000 0.000000 0.000000 0.000000 0.000000 0.000000 222.000000 -0.420388 -0.194814 0.886184
-0.12000000 4.05000019 -0.03000000 171 241 49 0.000000 0.000000 0.000000 0.000000 0.000000 0.000000 222.000000 -0.331260 -0.016374 0.943398
-0.12000000 4.03999996 -0.03000000 171 241 49 0.000000 0.000000 0.000000 0.000000 0.000000 0.000000 222.000000 -0.457199 -0.001318 0.889364
-0.18000001 4.09999990 -0.08000000 171 241 49 0.000000 0.000000 0.000000 0.000000 0.000000 0.000000 222.000000 -0.455605 -0.248373 0.854830
-0.13000000 3.95000005 0.28000000 171 241 49 0.000000 0.000000 0.000000 0.000000 0.000000 0.000000 222.000000 0.830069 -0.130754 -0.542116
-0.15000001 3.95000005 0.28000000 171 241 49 0.000000 0.000000 0.000000 0.000000 0.000000 0.000000 222.000000 0.649522 -0.315852 -0.691635
-0.16000000 3.96000004 0.27000001 171 241 49 0.000000 0.000000 0.000000 0.000000 0.000000 0.000000 222.000000 0.858004 0.110664 -0.501580
-0.13000000 3.92000008 0.28999999 171 241 49 0.000000 0.000000 0.000000 0.000000 0.000000 0.000000 222.000000 -0.699924 0.156382 0.696887
-0.13000000 3.90000010 0.28000000 171 241 49 0.000000 0.000000 0.000000 0.000000 0.000000 0.000000 222.000000 0.930206 -0.188839 -0.314732
-0.13000000 3.91000009 0.28000000 171 241 49 0.000000 0.000000 0.000000 0.000000 0.000000 0.000000 222.000000 0.710769 0.276322 -0.646880
-0.13000000 3.91000009 0.28999999 171 241 49 0.000000 0.000000 0.000000 0.000000 0.000000 0.000000 222.000000 0.832895 0.214695 -0.510091
-0.15000001 3.90000010 0.28999999 171 241 49 0.000000 0.000000 0.000000 0.000000 0.000000 0.000000 222.000000 0.918306 -0.209939 -0.335617
-0.15000001 3.84999990 0.25999999 171 241 49 0.000000 0.000000 0.000000 0.000000 0.000000 0.000000 222.000000 -0.551929 -0.093669 0.828614
-0.17000000 3.92000008 0.27000001 171 241 49 0.000000 0.000000 0.000000 0.000000 0.000000 0.000000 222.000000 0.773748 0.249545 -0.582273
-0.20000000 3.84999990 0.23999999 171 241 49 0.000000 0.000000 0.000000 0.000000 0.000000 0.000000 222.000000 -0.625859 -0.165178 0.762245
-0.09000000 3.78999996 0.23999999 171 241 49 0.000000 0.000000 0.000000 0.000000 0.000000 0.000000 222.000000 0.799227 0.381120 -0.464741
-0.13000000 3.78999996 0.23000000 171 241 49 0.000000 0.000000 0.000000 0.000000 0.000000 0.000000 222.000000 0.893167 0.125978 -0.431721
-0.13000000 3.76999998 0.17000000 171 241 49 0.000000 0.000000 0.000000 0.000000 0.000000 0.000000 222.000000 -0.532461 -0.394841 0.748723
-0.12000000 3.75000000 0.18000001 171 241 49 0.000000 0.000000 0.000000 0.000000 0.000000 0.000000 222.000000 0.684271 0.098594 -0.722532
-0.12000000 3.74000001 0.19000000 171 241 49 0.000000 0.000000 0.000000 0.000000 0.000000 0.000000 222.000000 0.703271 -0.179265 -0.687949
-0.17000000 3.78999996 0.18000001 171 241 49 0.000000 0.000000 0.000000 0.000000 0.000000 0.000000 222.000000 0.681751 0.265390 -0.681751
-0.27000001 3.84999990 0.36000001 171 241 49 0.000000 0.000000 0.000000 0.000000 0.000000 0.000000 222.000000 0.950119 0.207966 0.232432
-0.27000001 3.84999990 0.36000001 171 241 49 0.000000 0.000000 0.000000 0.000000 0.000000 0.000000 222.000000 0.950119 0.207966 0.232432
-0.16000000 3.93000007 -0.02000000 171 241 49 0.000000 0.000000 0.000000 0.000000 0.000000 0.000000 222.000000 -0.405281 -0.263659 0.875347
-0.08000000 3.93000007 0.01000000 171 241 49 0.000000 0.000000 0.000000 0.000000 0.000000 0.000000 222.000000 0.694959 0.044057 -0.717698
-0.08000000 3.86999989 0.02000000 171 241 49 0.000000 0.000000 0.000000 0.000000 0.000000 0.000000 222.000000 0.686283 0.297336 -0.663782
-0.08000000 3.89000010 0.02000000 171 241 49 0.000000 0.000000 0.000000 0.000000 0.000000 0.000000 222.000000 -0.603401 -0.079205 0.793494
-0.09000000 3.83999991 0.00000000 171 241 49 0.000000 0.000000 0.000000 0.000000 0.000000 0.000000 222.000000 -0.642920 -0.020919 0.765647
-0.14000000 3.96000004 -0.05000000 171 241 49 0.000000 0.000000 0.000000 0.000000 0.000000 0.000000 222.000000 -0.418536 -0.035874 0.907492
-0.12000000 3.94000006 -0.03000000 171 241 49 0.000000 0.000000 0.000000 0.000000 0.000000 0.000000 222.000000 -0.580912 0.076021 0.810408
-0.11000000 3.89000010 -0.03000000 171 241 49 0.000000 0.000000 0.000000 0.000000 0.000000 0.000000 222.000000 0.628153 -0.181874 -0.756535
-0.19000000 3.80999994 -0.12000000 171 241 49 0.000000 0.000000 0.000000 0.000000 0.000000 0.000000 222.000000 0.134938 0.281899 0.949908
-0.10000000 3.74000001 -0.01000000 171 241 49 0.000000 0.000000 0.000000 0.000000 0.000000 0.000000 222.000000 0.729632 -0.120367 -0.673163
-0.18000001 3.67000008 0.05000000 171 241 49 0.000000 0.000000 0.000000 0.000000 0.000000 0.000000 222.000000 -0.007243 0.054838 0.998469
-0.23999999 3.75999999 -0.05000000 171 241 49 0.000000 0.000000 0.000000 0.000000 0.000000 0.000000 222.000000 -0.218872 0.221591 0.950259
-0.23000000 3.75999999 -0.05000000 171 241 49 0.000000 0.000000 0.000000 0.000000 0.000000 0.000000 222.000000 -0.012908 0.004965 0.999904
-0.20999999 3.75000000 -0.07000000 171 241 49 0.000000 0.000000 0.000000 0.000000 0.000000 0.000000 222.000000 0.089922 0.024918 0.995637
-0.22000000 3.75000000 -0.08000000 171 241 49 0.000000 0.000000 0.000000 0.000000 0.000000 0.000000 222.000000 0.234100 0.111293 0.965822
-0.20000000 3.73000002 -0.11000000 171 241 49 0.000000 0.000000 0.000000 0.000000 0.000000 0.000000 222.000000 -0.119696 0.105474 0.987192
-0.20000000 3.71000004 -0.10000000 171 241 49 0.000000 0.000000 0.000000 0.000000 0.000000 0.000000 222.000000 -0.173110 0.068050 0.982549
-0.23999999 3.69000006 -0.03000000 171 241 49 0.000000 0.000000 0.000000 0.000000 0.000000 0.000000 222.000000 0.272317 0.006051 0.962188
-0.23000000 3.71000004 -0.12000000 171 241 49 0.000000 0.000000 0.000000 0.000000 0.000000 0.000000 222.000000 0.133389 0.226632 0.964803
-0.22000000 3.69000006 -0.16000000 171 241 49 0.000000 0.000000 0.000000 0.000000 0.000000 0.000000 222.000000 0.295038 0.095723 0.950678
-0.27000001 3.83999991 -0.01000000 171 241 49 0.000000 0.000000 0.000000 0.000000 0.000000 0.000000 222.000000 -0.046979 0.208393 0.976916
-0.33000001 3.93000007 -0.08000000 171 241 49 0.000000 0.000000 0.000000 0.000000 0.000000 0.000000 222.000000 0.471915 -0.215603 0.854875
-0.25000000 3.82999992 -0.05000000 171 241 49 0.000000 0.000000 0.000000 0.000000 0.000000 0.000000 222.000000 0.148842 0.129160 0.980389
-0.25999999 3.72000003 0.00000000 171 241 49 0.000000 0.000000 0.000000 0.000000 0.000000 0.000000 222.000000 0.132447 0.287638 0.948537
-0.30000001 3.76999998 0.00000000 171 241 49 0.000000 0.000000 0.000000 0.000000 0.000000 0.000000 222.000000 -0.183842 0.143270 0.972459
-0.30000001 3.75999999 0.04000000 171 241 49 0.000000 0.000000 0.000000 0.000000 0.000000 0.000000 222.000000 -0.176776 0.252345 0.951353
-0.25999999 3.70000005 0.01000000 171 241 49 0.000000 0.000000 0.000000 0.000000 0.000000 0.000000 222.000000 -0.059943 -0.019981 0.998002
-0.28999999 3.69000006 0.03000000 171 241 49 0.000000 0.000000 0.000000 0.000000 0.000000 0.000000 222.000000 -0.178106 0.099494 0.978968
-0.33000001 3.68000007 0.00000000 171 241 49 0.000000 0.000000 0.000000 0.000000 0.000000 0.000000 222.000000 -0.126224 0.121415 0.984544
-0.31999999 3.71000004 0.01000000 171 241 49 0.000000 0.000000 0.000000 0.000000 0.000000 0.000000 222.000000 -0.177038 0.055844 0.982619
-0.33000001 3.68000007 0.00000000 171 241 49 0.000000 0.000000 0.000000 0.000000 0.000000 0.000000 222.000000 -0.126224 0.121415 0.984544
-0.38000000 3.73000002 0.04000000 171 241 49 0.000000 0.000000 0.000000 0.000000 0.000000 0.000000 222.000000 0.479472 0.012020 0.877475
-0.25999999 3.72000003 -0.03000000 171 241 49 0.000000 0.000000 0.000000 0.000000 0.000000 0.000000 222.000000 0.172716 0.165040 0.971046
-0.25999999 3.74000001 -0.08000000 171 241 49 0.000000 0.000000 0.000000 0.000000 0.000000 0.000000 222.000000 0.158922 0.062392 0.985318
-0.28999999 3.73000002 -0.05000000 171 241 49 0.000000 0.000000 0.000000 0.000000 0.000000 0.000000 222.000000 -0.296974 0.065566 0.952632
-0.25000000 3.77999997 -0.13000000 171 241 49 0.000000 0.000000 0.000000 0.000000 0.000000 0.000000 222.000000 0.352519 0.098597 0.930596
-0.27000001 3.74000001 -0.13000000 171 241 49 0.000000 0.000000 0.000000 0.000000 0.000000 0.000000 222.000000 -0.060354 0.227867 0.971820
-0.28000000 3.74000001 -0.13000000 171 241 49 0.000000 0.000000 0.000000 0.000000 0.000000 0.000000 222.000000 -0.093625 0.213466 0.972454
-0.27000001 3.74000001 -0.13000000 171 241 49 0.000000 0.000000 0.000000 0.000000 0.000000 0.000000 222.000000 -0.060354 0.227867 0.971820
-0.25000000 3.75000000 -0.14000000 171 241 49 0.000000 0.000000 0.000000 0.000000 0.000000 0.000000 222.000000 0.273602 -0.046225 0.960732
-0.28000000 3.75999999 -0.17000000 171 241 49 0.000000 0.000000 0.000000 0.000000 0.000000 0.000000 222.000000 0.325946 -0.006244 0.945368
-0.25999999 3.68000007 -0.05000000 171 241 49 0.000000 0.000000 0.000000 0.000000 0.000000 0.000000 222.000000 0.021150 -0.125788 0.991832
-0.27000001 3.67000008 -0.05000000 171 241 49 0.000000 0.000000 0.000000 0.000000 0.000000 0.000000 222.000000 0.093451 0.309310 0.946358
-0.31999999 3.67000008 -0.06000000 171 241 49 0.000000 0.000000 0.000000 0.000000 0.000000 0.000000 222.000000 0.187096 0.324956 0.927038
-0.28000000 3.70000005 -0.15000001 171 241 49 0.000000 0.000000 0.000000 0.000000 0.000000 0.000000 222.000000 0.268819 -0.221462 0.937385
-0.25000000 3.68000007 -0.18000001 171 241 49 0.000000 0.000000 0.000000 0.000000 0.000000 0.000000 222.000000 -0.005073 -0.033483 0.999426
-0.25000000 3.68000007 -0.16000000 171 241 49 0.000000 0.000000 0.000000 0.000000 0.000000 0.000000 222.000000 -0.052717 0.050566 0.997328
-0.27000001 3.64000010 -0.14000000 171 241 49 0.000000 0.000000 0.000000 0.000000 0.000000 0.000000 222.000000 0.232976 0.171737 0.957198
-0.31000000 3.71000004 -0.14000000 171 241 49 0.000000 0.000000 0.000000 0.000000 0.000000 0.000000 222.000000 -0.003282 -0.123630 0.992323
-0.31999999 3.71000004 -0.18000001 171 241 49 0.000000 0.000000 0.000000 0.000000 0.000000 0.000000 222.000000 0.220708 0.191280 0.956400
-0.31999999 3.71000004 -0.18000001 171 241 49 0.000000 0.000000 0.000000 0.000000 0.000000 0.000000 222.000000 0.220708 0.191280 0.956400
-0.30000001 3.69000006 -0.18000001 171 241 49 0.000000 0.000000 0.000000 0.000000 0.000000 0.000000 222.000000 0.044059 -0.005123 0.999016
-0.38999999 3.76999998 -0.15000001 171 241 49 0.000000 0.000000 0.000000 0.000000 0.000000 0.000000 222.000000 0.414688 -0.309860 0.855582
-0.38999999 3.75999999 -0.15000001 171 241 49 0.000000 0.000000 0.000000 0.000000 0.000000 0.000000 222.000000 0.485839 -0.166869 0.857971
-0.36000001 3.68000007 -0.17000000 171 241 49 0.000000 0.000000 0.000000 0.000000 0.000000 0.000000 222.000000 0.311318 -0.239586 0.919608
-0.41000000 3.68000007 -0.11000000 171 241 49 0.000000 0.000000 0.000000 0.000000 0.000000 0.000000 222.000000 0.130226 -0.261767 0.956305
-0.47999999 3.81999993 0.18000001 171 241 49 0.000000 0.000000 0.000000 0.000000 0.000000 0.000000 222.000000 0.801869 0.058189 0.594660
-0.55000001 3.80999994 0.27000001 171 241 49 0.000000 0.000000 0.000000 0.000000 0.000000 0.000000 222.000000 0.835671 0.340226 0.431162
-0.52999997 3.81999993 0.20999999 171 241 49 0.000000 0.000000 0.000000 0.000000 0.000000 0.000000 222.000000 0.860291 0.198299 0.469656
-0.44000000 3.76999998 0.18000001 171 241 49 0.000000 0.000000 0.000000 0.000000 0.000000 0.000000 222.000000 0.819370 0.137300 0.556581
-0.50999999 3.77999997 0.25999999 171 241 49 0.000000 0.000000 0.000000 0.000000 0.000000 0.000000 222.000000 0.811124 -0.020727 0.584507
-0.63999999 3.82999992 0.27000001 171 241 49 0.000000 0.000000 0.000000 0.000000 0.000000 0.000000 222.000000 0.903901 0.274845 0.327756
-0.64999998 3.76999998 0.28000000 171 241 49 0.000000 0.000000 0.000000 0.000000 0.000000 0.000000 222.000000 0.803309 -0.082206 0.589862
-0.46000001 3.81999993 0.08000000 171 241 49 0.000000 0.000000 0.000000 0.000000 0.000000 0.000000 222.000000 0.476799 -0.444029 0.758618
-0.46000001 3.81999993 0.08000000 171 241 49 0.000000 0.000000 0.000000 0.000000 0.000000 0.000000 222.000000 0.476799 -0.444029 0.758618
-0.43000001 3.76999998 0.06000000 171 241 49 0.000000 0.000000 0.000000 0.000000 0.000000 0.000000 222.000000 0.771471 0.132806 0.622250
-0.44000000 3.72000003 0.05000000 171 241 49 0.000000 0.000000 0.000000 0.000000 0.000000 0.000000 222.000000 0.377281 0.230479 0.896961
-0.44000000 3.75000000 0.04000000 171 241 49 0.000000 0.000000 0.000000 0.000000 0.000000 0.000000 222.000000 0.624523 0.254552 0.738360
-0.49000001 3.73000002 0.02000000 171 241 49 0.000000 0.000000 0.000000 0.000000 0.000000 0.000000 222.000000 0.261007 0.139116 0.955260
-0.56000000 3.76999998 0.00000000 171 241 49 0.000000 0.000000 0.000000 0.000000 0.000000 0.000000 222.000000 0.788966 0.161414 0.592856
-0.58999997 3.75000000 0.03000000 171 241 49 0.000000 0.000000 0.000000 0.000000 0.000000 0.000000 222.000000 0.701154 0.262336 0.662996
-0.56000000 3.75999999 0.00000000 171 241 49 0.000000 0.000000 0.000000 0.000000 0.000000 0.000000 222.000000 0.791128 0.194339 0.579956
-0.58999997 3.72000003 0.01000000 171 241 49 0.000000 0.000000 0.000000 0.000000 0.000000 0.000000 222.000000 0.373453 -0.070943 0.924932
-0.57999998 3.72000003 -0.02000000 171 241 49 0.000000 0.000000 0.000000 0.000000 0.000000 0.000000 222.000000 0.686801 0.323105 0.651081
