//X Y Z R G B PointSourceId ScanDirectionFlag NumberOfReturns ReturnNumber GpsTime Intensity Classification Nx Ny Nz
10.56999969 -1.38999999 -0.56999999 24 58 214 0.000000 0.000000 0.000000 0.000000 0.000000 0.000000 72.000000 0.411511 0.576776 -0.705683
10.51000023 -1.47000003 -0.69999999 24 58 214 0.000000 0.000000 0.000000 0.000000 0.000000 0.000000 18.000000 -0.365603 -0.193555 0.910424
10.46000004 -1.49000001 -0.69000000 24 58 214 0.000000 0.000000 0.000000 0.000000 0.000000 0.000000 18.000000 -0.022607 -0.440171 0.897629
10.46000004 -1.50999999 -0.69999999 24 58 214 0.000000 0.000000 0.000000 0.000000 0.000000 0.000000 18.000000 -0.075688 -0.569803 0.818288
10.48999977 -1.48000002 -0.68000001 24 58 214 0.000000 0.000000 0.000000 0.000000 0.000000 0.000000 18.000000 -0.186872 -0.401268 0.896696
10.40999985 -1.46000004 -0.70999998 24 58 214 0.000000 0.000000 0.000000 0.000000 0.000000 0.000000 18.000000 -0.498342 -0.101382 0.861032
10.43000031 -1.51999998 -0.70999998 24 58 214 0.000000 0.000000 0.000000 0.000000 0.000000 0.000000 18.000000 -0.255785 -0.008406 0.966697
10.50000000 -1.42999995 -0.72000003 24 58 214 0.000000 0.000000 0.000000 0.000000 0.000000 0.000000 18.000000 -0.380303 -0.224658 0.897162
10.52000046 -1.50000000 -0.72000003 24 58 214 0.000000 0.000000 0.000000 0.000000 0.000000 0.000000 18.000000 0.273046 0.675430 -0.685011
10.43000031 -1.44000006 -0.75000000 24 58 214 0.000000 0.000000 0.000000 0.000000 0.000000 0.000000 18.000000 -0.447614 -0.467289 0.762419
10.40999985 -1.48000002 -0.73000002 24 58 214 0.000000 0.000000 0.000000 0.000000 0.000000 0.000000 18.000000 -0.444282 -0.292576 0.846767
10.40999985 -1.50999999 -0.75000000 24 58 214 0.000000 0.000000 0.000000 0.000000 0.000000 0.000000 18.000000 -0.067126 -0.267236 0.961290
10.35000038 -1.51999998 -0.70999998 24 58 214 0.000000 0.000000 0.000000 0.000000 0.000000 0.000000 18.000000 -0.352362 -0.006315 0.935843
10.38000011 -1.45000005 -0.74000001 24 58 214 0.000000 0.000000 0.000000 0.000000 0.000000 0.000000 18.000000 -0.339893 -0.266323 0.901967
10.39000034 -1.49000001 -0.75000000 24 58 214 0.000000 0.000000 0.000000 0.000000 0.000000 0.000000 18.000000 -0.156928 -0.154417 0.975463
10.38000011 -1.48000002 -0.75000000 24 58 214 0.000000 0.000000 0.000000 0.000000 0.000000 0.000000 18.000000 -0.395470 0.003865 0.918471
10.25000000 -1.42999995 -0.75000000 24 58 214 0.000000 0.000000 0.000000 0.000000 0.000000 0.000000 18.000000 -0.012546 -0.687265 0.726298
10.28999996 -1.46000004 -0.76999998 24 58 214 0.000000 0.000000 0.000000 0.000000 0.000000 0.000000 18.000000 -0.261059 -0.624960 0.735713
10.27999973 -1.49000001 -0.75000000 24 58 214 0.000000 0.000000 0.000000 0.000000 0.000000 0.000000 18.000000 -0.206483 -0.653605 0.728125
10.31999969 -1.48000002 -0.75999999 24 58 214 0.000000 0.000000 0.000000 0.000000 0.000000 0.000000 18.000000 -0.270196 0.069769 0.960274
10.26000023 -1.44000006 -0.75000000 24 58 214 0.000000 0.000000 0.000000 0.000000 0.000000 0.000000 18.000000 -0.200059 -0.554363 0.807873
10.25000000 -1.47000003 -0.75999999 24 58 214 0.000000 0.000000 0.000000 0.000000 0.000000 0.000000 18.000000 -0.068009 -0.369381 0.926786
10.27000046 -1.50999999 -0.73000002 24 58 214 0.000000 0.000000 0.000000 0.000000 0.000000 0.000000 18.000000 0.077823 -0.524953 0.847566
10.27000046 -1.48000002 -0.73000002 24 58 214 0.000000 0.000000 0.000000 0.000000 0.000000 0.000000 18.000000 0.151743 -0.514160 0.844165
10.26000023 -1.50999999 -0.77999997 24 58 214 0.000000 0.000000 0.000000 0.000000 0.000000 0.000000 18.000000 0.550220 0.319224 -0.771592
10.26000023 -1.50999999 -0.77999997 24 58 214 0.000000 0.000000 0.000000 0.000000 0.000000 0.000000 18.000000 0.550220 0.319224 -0.771592
10.53999996 -1.53999996 -0.66000003 24 58 214 0.000000 0.000000 0.000000 0.000000 0.000000 0.000000 18.000000 0.193144 -0.356243 0.914214
10.53999996 -1.53999996 -0.67000002 24 58 214 0.000000 0.000000 0.000000 0.000000 0.000000 0.000000 18.000000 -0.271196 -0.321037 0.907407
10.51000023 -1.58000004 -0.68000001 24 58 214 0.000000 0.000000 0.000000 0.000000 0.000000 0.000000 18.000000 -0.244465 -0.352791 0.903203
10.47999954 -1.58000004 -0.69000000 24 58 214 0.000000 0.000000 0.000000 0.000000 0.000000 0.000000 18.000000 -0.260442 -0.476193 0.839887
10.43999958 -1.54999995 -0.69999999 24 58 214 0.000000 0.000000 0.000000 0.000000 0.000000 0.000000 18.000000 -0.391199 -0.160747 0.906159
10.43000031 -1.55999994 -0.70999998 24 58 214 0.000000 0.000000 0.000000 0.000000 0.000000 0.000000 18.000000 -0.377482 -0.201034 0.903932
10.47999954 -1.61000001 -0.67000002 24 58 214 0.000000 0.000000 0.000000 0.000000 0.000000 0.000000 18.000000 0.031632 -0.317587 0.947701
10.44999981 -1.64999998 -0.69999999 24 58 214 0.000000 0.000000 0.000000 0.000000 0.000000 0.000000 18.000000 -0.014308 -0.404527 0.914414
10.43999958 -1.61000001 -0.67000002 24 58 214 0.000000 0.000000 0.000000 0.000000 0.000000 0.000000 18.000000 -0.293277 0.132577 0.946790
10.43999958 -1.67999995 -0.67000002 24 58 214 0.000000 0.000000 0.000000 0.000000 0.000000 0.000000 18.000000 -0.388371 -0.060057 0.919544
10.43000031 -1.64999998 -0.69999999 24 58 214 0.000000 0.000000 0.000000 0.000000 0.000000 0.000000 18.000000 0.022262 -0.402024 0.915358
10.44999981 -1.53999996 -0.73000002 24 58 214 0.000000 0.000000 0.000000 0.000000 0.000000 0.000000 18.000000 -0.196367 -0.441457 0.875532
10.46000004 -1.69000006 -0.74000001 24 58 214 0.000000 0.000000 0.000000 0.000000 0.000000 0.000000 18.000000 -0.441440 0.001310 0.897290
10.40999985 -1.64999998 -0.75000000 24 58 214 0.000000 0.000000 0.000000 0.000000 0.000000 0.000000 18.000000 -0.193019 -0.325456 0.925647
10.43999958 -1.63000000 -0.75000000 24 58 214 0.000000 0.000000 0.000000 0.000000 0.000000 0.000000 18.000000 -0.238912 -0.522524 0.818468
10.38000011 -1.54999995 -0.70999998 24 58 214 0.000000 0.000000 0.000000 0.000000 0.000000 0.000000 18.000000 0.034857 -0.581412 0.812862
10.38000011 -1.66999996 -0.68000001 24 58 214 0.000000 0.000000 0.000000 0.000000 0.000000 0.000000 18.000000 -0.036353 -0.289572 0.956466
10.32999992 -1.64999998 -0.68000001 24 58 214 0.000000 0.000000 0.000000 0.000000 0.000000 0.000000 18.000000 -0.234303 0.220601 0.946804
10.35999966 -1.67999995 -0.69999999 24 58 214 0.000000 0.000000 0.000000 0.000000 0.000000 0.000000 18.000000 -0.332733 -0.011300 0.942953
10.31999969 -1.57000005 -0.70999998 24 58 214 0.000000 0.000000 0.000000 0.000000 0.000000 0.000000 18.000000 -0.203186 0.174346 0.963493
10.30000019 -1.60000002 -0.68000001 24 58 214 0.000000 0.000000 0.000000 0.000000 0.000000 0.000000 18.000000 -0.207524 -0.163148 0.964529
10.28999996 -1.60000002 -0.69000000 24 58 214 0.000000 0.000000 0.000000 0.000000 0.000000 0.000000 18.000000 -0.399048 0.136776 0.906671
10.30000019 -1.63999999 -0.66000003 24 58 214 0.000000 0.000000 0.000000 0.000000 0.000000 0.000000 18.000000 -0.214479 -0.169741 0.961866
10.31999969 -1.62000000 -0.69999999 24 58 214 0.000000 0.000000 0.000000 0.000000 0.000000 0.000000 18.000000 -0.398886 -0.164415 0.902140
10.31000042 -1.64999998 -0.69999999 24 58 214 0.000000 0.000000 0.000000 0.000000 0.000000 0.000000 18.000000 -0.360673 0.093208 0.928023
10.35999966 -1.53999996 -0.74000001 24 58 214 0.000000 0.000000 0.000000 0.000000 0.000000 0.000000 18.000000 -0.453590 -0.364464 0.813279
10.38000011 -1.59000003 -0.73000002 24 58 214 0.000000 0.000000 0.000000 0.000000 0.000000 0.000000 18.000000 -0.461512 -0.329202 0.823792
10.39999962 -1.58000004 -0.72000003 24 58 214 0.000000 0.000000 0.000000 0.000000 0.000000 0.000000 18.000000 -0.126317 -0.283216 0.950701
10.39999962 -1.53999996 -0.72000003 24 58 214 0.000000 0.000000 0.000000 0.000000 0.000000 0.000000 18.000000 -0.408426 -0.348961 0.843454
10.34000015 -1.52999997 -0.72000003 24 58 214 0.000000 0.000000 0.000000 0.000000 0.000000 0.000000 18.000000 -0.209570 -0.270636 0.939594
10.28999996 -1.53999996 -0.72000003 24 58 214 0.000000 0.000000 0.000000 0.000000 0.000000 0.000000 18.000000 -0.505090 -0.262647 0.822132
10.27000046 -1.52999997 -0.73000002 24 58 214 0.000000 0.000000 0.000000 0.000000 0.000000 0.000000 18.000000 -0.272953 -0.006066 0.962008
10.27000046 -1.52999997 -0.73000002 24 58 214 0.000000 0.000000 0.000000 0.000000 0.000000 0.000000 18.000000 -0.272953 -0.006066 0.962008
10.35999966 -1.71000004 -0.76999998 24 58 214 0.000000 0.000000 0.000000 0.000000 0.000000 0.000000 18.000000 -0.300369 0.079318 0.950519
10.35000038 -1.72000003 -0.76999998 24 58 214 0.000000 0.000000 0.000000 0.000000 0.000000 0.000000 18.000000 -0.384957 0.185990 0.904000
10.32999992 -1.75000000 -0.76999998 24 58 214 0.000000 0.000000 0.000000 0.000000 0.000000 0.000000 18.000000 -0.409205 -0.165118 0.897378
10.34000015 -1.74000001 -0.76999998 24 58 214 0.000000 0.000000 0.000000 0.000000 0.000000 0.000000 18.000000 -0.411974 0.159335 0.897156
10.22999954 -1.47000003 -0.72000003 24 58 214 0.000000 0.000000 0.000000 0.000000 0.000000 0.000000 18.000000 -0.236548 0.060685 0.969723
9.90999985 -1.85000002 -0.20000000 24 58 214 0.000000 0.000000 0.000000 0.000000 0.000000 0.000000 69.000000 0.324886 0.897516 0.298183
10.22000027 -1.65999997 -0.68000001 24 58 214 0.000000 0.000000 0.000000 0.000000 0.000000 0.000000 18.000000 -0.371987 0.267412 0.888885
9.81999969 -1.78999996 -0.20000000 24 58 214 0.000000 0.000000 0.000000 0.000000 0.000000 0.000000 69.000000 0.250035 0.881860 0.399757
9.77999973 -1.76999998 -0.20999999 24 58 214 0.000000 0.000000 0.000000 0.000000 0.000000 0.000000 69.000000 0.157970 0.924054 0.348093
10.85000038 -1.88000000 -0.36000001 24 58 214 0.000000 0.000000 0.000000 0.000000 0.000000 0.000000 149.000000 0.172732 -0.065519 0.982787
10.85999966 -1.94000006 -0.33000001 24 58 214 0.000000 0.000000 0.000000 0.000000 0.000000 0.000000 149.000000 0.339556 0.181754 0.922858
10.77999973 -1.92999995 -0.33000001 24 58 214 0.000000 0.000000 0.000000 0.000000 0.000000 0.000000 149.000000 0.173835 0.578947 0.796619
10.80000019 -1.91999996 -0.33000001 24 58 214 0.000000 0.000000 0.000000 0.000000 0.000000 0.000000 149.000000 0.008163 -0.206415 0.978430
10.90999985 -1.88000000 -0.38000000 24 58 214 0.000000 0.000000 0.000000 0.000000 0.000000 0.000000 149.000000 0.047317 -0.315874 0.947621
10.85000038 -1.98000002 -0.44000000 24 58 214 0.000000 0.000000 0.000000 0.000000 0.000000 0.000000 149.000000 0.107394 -0.146007 0.983437
10.85999966 -2.01999998 -0.50999999 24 58 214 0.000000 0.000000 0.000000 0.000000 0.000000 0.000000 149.000000 0.182863 0.060954 0.981247
10.85000038 -2.01999998 -0.50999999 24 58 214 0.000000 0.000000 0.000000 0.000000 0.000000 0.000000 149.000000 0.243919 0.015620 0.969670
10.80000019 -1.91999996 -0.38000000 24 58 214 0.000000 0.000000 0.000000 0.000000 0.000000 0.000000 149.000000 0.311201 0.127983 0.941687
10.77000046 -1.99000001 -0.41999999 24 58 214 0.000000 0.000000 0.000000 0.000000 0.000000 0.000000 149.000000 0.125878 -0.068136 0.989703
10.92000008 -2.20000005 -0.31000000 24 58 214 0.000000 0.000000 0.000000 0.000000 0.000000 0.000000 149.000000 0.456564 0.450018 0.767485
10.92000008 -2.18000007 -0.34000000 24 58 214 0.000000 0.000000 0.000000 0.000000 0.000000 0.000000 149.000000 0.178105 0.771788 0.610428
10.81000042 -2.20000005 -0.34999999 24 58 214 0.000000 0.000000 0.000000 0.000000 0.000000 0.000000 149.000000 -0.113843 0.851664 0.511575
10.81000042 -2.20000005 -0.34999999 24 58 214 0.000000 0.000000 0.000000 0.000000 0.000000 0.000000 149.000000 -0.113843 0.851664 0.511575
10.84000015 -2.19000006 -0.38999999 24 58 214 0.000000 0.000000 0.000000 0.000000 0.000000 0.000000 149.000000 0.178855 0.342219 0.922441
10.78999996 -2.20000005 -0.38999999 24 58 214 0.000000 0.000000 0.000000 0.000000 0.000000 0.000000 149.000000 0.115246 0.558723 0.821308
10.72000027 -1.91999996 -0.31999999 24 58 214 0.000000 0.000000 0.000000 0.000000 0.000000 0.000000 149.000000 0.272414 0.502799 0.820356
10.72999954 -1.95000005 -0.36000001 24 58 214 0.000000 0.000000 0.000000 0.000000 0.000000 0.000000 149.000000 0.309009 0.407400 0.859383
10.67000008 -1.97000003 -0.38999999 24 58 214 0.000000 0.000000 0.000000 0.000000 0.000000 0.000000 149.000000 -0.006934 0.664262 0.747468
10.65999985 -1.96000004 -0.41999999 24 58 214 0.000000 0.000000 0.000000 0.000000 0.000000 0.000000 149.000000 -0.046890 0.657881 0.751661
10.90999985 -2.26999998 -0.36000001 24 58 214 0.000000 0.000000 0.000000 0.000000 0.000000 0.000000 149.000000 0.212896 0.725713 0.654229
10.89000034 -2.22000003 -0.34999999 24 58 214 0.000000 0.000000 0.000000 0.000000 0.000000 0.000000 149.000000 0.380229 0.627131 0.679803
10.90999985 -2.28999996 -0.31000000 24 58 214 0.000000 0.000000 0.000000 0.000000 0.000000 0.000000 149.000000 0.143581 0.921429 0.361044
10.81999969 -2.25000000 -0.38999999 24 58 214 0.000000 0.000000 0.000000 0.000000 0.000000 0.000000 149.000000 0.469448 0.728225 0.499307
10.86999989 -2.22000003 -0.38000000 24 58 214 0.000000 0.000000 0.000000 0.000000 0.000000 0.000000 149.000000 0.298540 0.566746 0.767901
10.77999973 -2.22000003 -0.38000000 24 58 214 0.000000 0.000000 0.000000 0.000000 0.000000 0.000000 149.000000 0.460253 0.641007 0.614229
10.76000023 -2.48000002 -0.37000000 24 58 214 0.000000 0.000000 0.000000 0.000000 0.000000 0.000000 245.000000 0.481479 0.750976 0.451900
10.68999958 -2.48000002 -0.20000000 24 58 214 0.000000 0.000000 0.000000 0.000000 0.000000 0.000000 222.000000 0.527274 0.838645 -0.136592
10.73999977 -2.45000005 -0.36000001 24 58 214 0.000000 0.000000 0.000000 0.000000 0.000000 0.000000 245.000000 0.284111 0.833703 0.473519
10.72999954 -2.45000005 -0.38000000 24 58 214 0.000000 0.000000 0.000000 0.000000 0.000000 0.000000 245.000000 0.511395 0.823486 0.245655
10.71000004 -2.53999996 -0.41000000 24 58 214 0.000000 0.000000 0.000000 0.000000 0.000000 0.000000 245.000000 0.449441 0.643253 0.619862
10.67000008 -2.50000000 -0.41999999 24 58 214 0.000000 0.000000 0.000000 0.000000 0.000000 0.000000 245.000000 0.019805 0.901778 0.431745
10.67000008 -2.50000000 -0.41999999 24 58 214 0.000000 0.000000 0.000000 0.000000 0.000000 0.000000 245.000000 0.019805 0.901778 0.431745
10.67000008 -2.50000000 -0.41999999 24 58 214 0.000000 0.000000 0.000000 0.000000 0.000000 0.000000 245.000000 0.019805 0.901778 0.431745
10.68000031 -2.51999998 -0.40000001 24 58 214 0.000000 0.000000 0.000000 0.000000 0.000000 0.000000 245.000000 -0.058735 0.743505 0.666146
10.42000008 -2.09999990 -0.23000000 24 58 214 0.000000 0.000000 0.000000 0.000000 0.000000 0.000000 22.000000 0.571469 0.807219 0.147717
10.40999985 -2.13000011 -0.23000000 24 58 214 0.000000 0.000000 0.000000 0.000000 0.000000 0.000000 22.000000 0.491413 0.863912 -0.110317
10.43000031 -2.20000005 -0.25999999 24 58 214 0.000000 0.000000 0.000000 0.000000 0.000000 0.000000 22.000000 0.313130 0.842803 0.437759
10.39000034 -2.11999989 -0.23999999 24 58 214 0.000000 0.000000 0.000000 0.000000 0.000000 0.000000 22.000000 0.566867 0.819446 0.084671
10.35000038 -2.08999991 -0.25999999 24 58 214 0.000000 0.000000 0.000000 0.000000 0.000000 0.000000 22.000000 0.029605 0.935760 0.351393
10.39999962 -2.08999991 -0.23000000 24 58 214 0.000000 0.000000 0.000000 0.000000 0.000000 0.000000 22.000000 0.032128 0.936845 0.348265
10.39000034 -2.11999989 -0.31000000 24 58 214 0.000000 0.000000 0.000000 0.000000 0.000000 0.000000 22.000000 0.049909 0.683041 0.728673
10.35000038 -2.10999990 -0.30000001 24 58 214 0.000000 0.000000 0.000000 0.000000 0.000000 0.000000 22.000000 0.420363 0.797240 0.433248
10.39000034 -2.11999989 -0.30000001 24 58 214 0.000000 0.000000 0.000000 0.000000 0.000000 0.000000 22.000000 0.160444 0.811217 0.562304
10.39999962 -2.16000009 -0.23999999 24 58 214 0.000000 0.000000 0.000000 0.000000 0.000000 0.000000 22.000000 0.458313 0.888565 0.020043
10.34000015 -2.20000005 -0.27000001 24 58 214 0.000000 0.000000 0.000000 0.000000 0.000000 0.000000 22.000000 0.100385 0.878013 0.467991
10.35000038 -2.15000010 -0.28999999 24 58 214 0.000000 0.000000 0.000000 0.000000 0.000000 0.000000 22.000000 0.190264 0.805196 0.561658
10.28999996 -2.07999992 -0.25999999 24 58 214 0.000000 0.000000 0.000000 0.000000 0.000000 0.000000 22.000000 0.277232 0.933019 0.229385
10.31000042 -2.09999990 -0.30000001 24 58 214 0.000000 0.000000 0.000000 0.000000 0.000000 0.000000 22.000000 0.282323 0.796499 0.534680
10.28999996 -2.08999991 -0.28999999 24 58 214 0.000000 0.000000 0.000000 0.000000 0.000000 0.000000 22.000000 0.370096 0.833110 0.411043
10.28999996 -2.11999989 -0.30000001 24 58 214 0.000000 0.000000 0.000000 0.000000 0.000000 0.000000 22.000000 0.232006 0.875636 0.423598
10.23999977 -2.10999990 -0.36000001 24 58 214 0.000000 0.000000 0.000000 0.000000 0.000000 0.000000 22.000000 0.303822 0.781029 0.545607
10.31000042 -2.19000006 -0.28000000 24 58 214 0.000000 0.000000 0.000000 0.000000 0.000000 0.000000 22.000000 0.398565 0.911597 0.100676
10.30000019 -2.19000006 -0.28000000 24 58 214 0.000000 0.000000 0.000000 0.000000 0.000000 0.000000 22.000000 0.163837 0.922811 0.348680
10.28999996 -2.13000011 -0.30000001 24 58 214 0.000000 0.000000 0.000000 0.000000 0.000000 0.000000 22.000000 0.332442 0.858164 0.391199
10.30000019 -2.18000007 -0.30000001 24 58 214 0.000000 0.000000 0.000000 0.000000 0.000000 0.000000 22.000000 0.174065 0.918439 0.355205
10.28999996 -2.18000007 -0.28999999 24 58 214 0.000000 0.000000 0.000000 0.000000 0.000000 0.000000 22.000000 0.055200 0.805355 0.590217
10.27999973 -2.18000007 -0.30000001 24 58 214 0.000000 0.000000 0.000000 0.000000 0.000000 0.000000 22.000000 0.366881 0.836111 0.407820
10.27000046 -2.18000007 -0.28999999 24 58 214 0.000000 0.000000 0.000000 0.000000 0.000000 0.000000 22.000000 0.200287 0.931403 0.303931
10.26000023 -2.17000008 -0.38999999 24 58 214 0.000000 0.000000 0.000000 0.000000 0.000000 0.000000 22.000000 0.570882 0.718949 0.396492
10.23999977 -2.08999991 -0.37000000 24 58 214 0.000000 0.000000 0.000000 0.000000 0.000000 0.000000 22.000000 -0.049788 0.905609 0.421182
10.31999969 -2.10999990 -0.37000000 24 58 214 0.000000 0.000000 0.000000 0.000000 0.000000 0.000000 22.000000 0.482150 0.855332 0.189576
10.50000000 -2.26999998 -0.31999999 24 58 214 0.000000 0.000000 0.000000 0.000000 0.000000 0.000000 22.000000 0.251849 0.692188 0.676349
10.47999954 -2.25000000 -0.25000000 24 58 214 0.000000 0.000000 0.000000 0.000000 0.000000 0.000000 22.000000 0.413971 0.910214 0.011753
10.47999954 -2.23000002 -0.28000000 24 58 214 0.000000 0.000000 0.000000 0.000000 0.000000 0.000000 22.000000 -0.020534 0.839173 0.543477
10.46000004 -2.25000000 -0.23999999 24 58 214 0.000000 0.000000 0.000000 0.000000 0.000000 0.000000 22.000000 0.363639 0.922233 0.131352
10.36999989 -2.24000001 -0.22000000 24 58 214 0.000000 0.000000 0.000000 0.000000 0.000000 0.000000 22.000000 0.339796 0.897714 0.280443
10.38000011 -2.24000001 -0.20999999 24 58 214 0.000000 0.000000 0.000000 0.000000 0.000000 0.000000 22.000000 0.535555 0.820780 0.198747
10.36999989 -2.27999997 -0.23999999 24 58 214 0.000000 0.000000 0.000000 0.000000 0.000000 0.000000 22.000000 0.472187 0.826719 0.305902
10.36999989 -2.26999998 -0.23999999 24 58 214 0.000000 0.000000 0.000000 0.000000 0.000000 0.000000 22.000000 0.239178 0.963176 -0.122821
10.32999992 -2.24000001 -0.25000000 24 58 214 0.000000 0.000000 0.000000 0.000000 0.000000 0.000000 22.000000 0.364132 0.818899 0.443636
10.35000038 -2.28999996 -0.27000001 24 58 214 0.000000 0.000000 0.000000 0.000000 0.000000 0.000000 22.000000 0.278728 0.950877 -0.134696
10.32999992 -2.24000001 -0.31999999 24 58 214 0.000000 0.000000 0.000000 0.000000 0.000000 0.000000 22.000000 0.280801 0.904151 0.321966
10.34000015 -2.34999990 -0.28000000 24 58 214 0.000000 0.000000 0.000000 0.000000 0.000000 0.000000 22.000000 0.231267 0.793139 0.563424
10.39999962 -2.35999990 -0.31000000 24 58 214 0.000000 0.000000 0.000000 0.000000 0.000000 0.000000 22.000000 0.578136 0.814454 0.049233
10.35000038 -2.29999995 -0.28999999 24 58 214 0.000000 0.000000 0.000000 0.000000 0.000000 0.000000 22.000000 0.119108 0.974175 0.191826
10.23999977 -2.21000004 -0.28000000 24 58 214 0.000000 0.000000 0.000000 0.000000 0.000000 0.000000 22.000000 0.175743 0.750345 0.637258
10.27000046 -2.25999999 -0.28999999 24 58 214 0.000000 0.000000 0.000000 0.000000 0.000000 0.000000 22.000000 0.263311 0.919430 0.292088
10.23999977 -2.34999990 -0.25999999 24 58 214 0.000000 0.000000 0.000000 0.000000 0.000000 0.000000 22.000000 0.059148 0.994348 0.088163
10.26000023 -2.34999990 -0.25999999 24 58 214 0.000000 0.000000 0.000000 0.000000 0.000000 0.000000 22.000000 0.247145 0.930677 0.269741
10.30000019 -2.29999995 -0.28999999 24 58 214 0.000000 0.000000 0.000000 0.000000 0.000000 0.000000 22.000000 0.071031 0.951816 0.298330
10.31000042 -2.35999990 -0.33000001 24 58 214 0.000000 0.000000 0.000000 0.000000 0.000000 0.000000 22.000000 0.506166 0.801298 0.318932
10.23999977 -2.33999991 -0.33000001 24 58 214 0.000000 0.000000 0.000000 0.000000 0.000000 0.000000 22.000000 0.438810 0.675733 0.592309
10.25000000 -2.36999989 -0.36000001 24 58 214 0.000000 0.000000 0.000000 0.000000 0.000000 0.000000 22.000000 0.231980 0.972393 0.025241
10.23999977 -2.32999992 -0.38999999 24 58 214 0.000000 0.000000 0.000000 0.000000 0.000000 0.000000 22.000000 0.619302 0.763041 0.185026
10.25000000 -2.28999996 -0.38000000 24 58 214 0.000000 0.000000 0.000000 0.000000 0.000000 0.000000 22.000000 0.057481 0.996691 0.057481
10.34000015 -2.41000009 -0.31000000 24 58 214 0.000000 0.000000 0.000000 0.000000 0.000000 0.000000 22.000000 0.421279 0.853360 0.307086
10.34000015 -2.40000010 -0.33000001 24 58 214 0.000000 0.000000 0.000000 0.000000 0.000000 0.000000 22.000000 0.590950 0.799176 0.109978
10.35999966 -2.40000010 -0.34000000 24 58 214 0.000000 0.000000 0.000000 0.000000 0.000000 0.000000 22.000000 0.114498 0.938883 0.324635
10.34000015 -2.41000009 -0.34999999 24 58 214 0.000000 0.000000 0.000000 0.000000 0.000000 0.000000 22.000000 0.151980 0.986100 -0.067154
10.23999977 -2.46000004 -0.28000000 24 58 214 0.000000 0.000000 0.000000 0.000000 0.000000 0.000000 22.000000 0.296931 0.954860 0.008625
10.27000046 -2.39000010 -0.34000000 24 58 214 0.000000 0.000000 0.000000 0.000000 0.000000 0.000000 22.000000 0.057847 0.998125 -0.019984
10.27000046 -2.46000004 -0.28999999 24 58 214 0.000000 0.000000 0.000000 0.000000 0.000000 0.000000 22.000000 0.229087 0.964234 0.133310
10.25000000 -2.46000004 -0.31000000 24 58 214 0.000000 0.000000 0.000000 0.000000 0.000000 0.000000 22.000000 0.403240 0.759136 0.510989
10.27999973 -2.39000010 -0.38000000 24 58 214 0.000000 0.000000 0.000000 0.000000 0.000000 0.000000 22.000000 0.342372 0.744782 0.572784
10.76000023 -2.58999991 -0.34000000 24 58 214 0.000000 0.000000 0.000000 0.000000 0.000000 0.000000 245.000000 0.270072 0.859044 0.434862
10.81999969 -2.56999993 -0.36000001 24 58 214 0.000000 0.000000 0.000000 0.000000 0.000000 0.000000 245.000000 0.269366 0.817441 0.509149
10.77000046 -2.60999990 -0.36000001 24 58 214 0.000000 0.000000 0.000000 0.000000 0.000000 0.000000 245.000000 0.593128 0.796233 0.119214
10.78999996 -2.61999989 -0.38000000 24 58 214 0.000000 0.000000 0.000000 0.000000 0.000000 0.000000 245.000000 0.550642 0.752057 0.362222
10.75000000 -2.63000011 -0.20000000 24 58 214 0.000000 0.000000 0.000000 0.000000 0.000000 0.000000 222.000000 0.337174 0.874212 0.349380
10.72000027 -2.59999990 -0.41999999 24 58 214 0.000000 0.000000 0.000000 0.000000 0.000000 0.000000 245.000000 0.319340 0.859287 0.399561
10.67000008 -2.55999994 -0.40000001 24 58 214 0.000000 0.000000 0.000000 0.000000 0.000000 0.000000 245.000000 0.271288 0.961386 0.046257
10.68000031 -2.55999994 -0.41000000 24 58 214 0.000000 0.000000 0.000000 0.000000 0.000000 0.000000 245.000000 0.259893 0.810804 0.524455
10.07999992 -2.17000008 -0.34999999 24 58 214 0.000000 0.000000 0.000000 0.000000 0.000000 0.000000 22.000000 -0.141421 0.914337 0.379457
10.06999969 -2.19000006 -0.34999999 24 58 214 0.000000 0.000000 0.000000 0.000000 0.000000 0.000000 22.000000 0.565963 0.819423 0.090727
10.06999969 -2.18000007 -0.33000001 24 58 214 0.000000 0.000000 0.000000 0.000000 0.000000 0.000000 22.000000 0.358605 0.932373 0.045641
10.11999989 -2.19000006 -0.41999999 24 58 214 0.000000 0.000000 0.000000 0.000000 0.000000 0.000000 22.000000 0.238917 0.591827 0.769844
10.06999969 -2.16000009 -0.46000001 24 58 214 0.000000 0.000000 0.000000 0.000000 0.000000 0.000000 22.000000 0.328734 0.540406 0.774529
10.03999996 -2.17000008 -0.34000000 24 58 214 0.000000 0.000000 0.000000 0.000000 0.000000 0.000000 22.000000 0.110738 0.898522 0.424730
10.03999996 -2.17000008 -0.34000000 24 58 214 0.000000 0.000000 0.000000 0.000000 0.000000 0.000000 22.000000 0.110738 0.898522 0.424730
10.05000019 -2.09999990 -0.47999999 24 58 214 0.000000 0.000000 0.000000 0.000000 0.000000 0.000000 22.000000 0.428728 0.497718 0.753969
10.05000019 -2.18000007 -0.44000000 24 58 214 0.000000 0.000000 0.000000 0.000000 0.000000 0.000000 22.000000 0.340413 0.643364 0.685712
10.05000019 -2.17000008 -0.37000000 24 58 214 0.000000 0.000000 0.000000 0.000000 0.000000 0.000000 22.000000 0.193474 0.956695 0.217491
10.06000042 -2.16000009 -0.44999999 24 58 214 0.000000 0.000000 0.000000 0.000000 0.000000 0.000000 22.000000 -0.086029 0.686771 0.721765
10.22000027 -2.25000000 -0.23999999 24 58 214 0.000000 0.000000 0.000000 0.000000 0.000000 0.000000 22.000000 0.323173 0.888350 0.326179
10.17000008 -2.22000003 -0.25999999 24 58 214 0.000000 0.000000 0.000000 0.000000 0.000000 0.000000 22.000000 0.387575 0.889493 0.242049
10.18000031 -2.23000002 -0.25999999 24 58 214 0.000000 0.000000 0.000000 0.000000 0.000000 0.000000 22.000000 0.480324 0.744420 0.463818
10.17000008 -2.22000003 -0.23999999 24 58 214 0.000000 0.000000 0.000000 0.000000 0.000000 0.000000 22.000000 0.230461 0.928913 0.289843
10.15999985 -2.22000003 -0.23999999 24 58 214 0.000000 0.000000 0.000000 0.000000 0.000000 0.000000 22.000000 0.257001 0.862245 0.436445
10.22999954 -2.22000003 -0.34000000 24 58 214 0.000000 0.000000 0.000000 0.000000 0.000000 0.000000 22.000000 0.023824 0.758150 0.651645
10.14999962 -2.26999998 -0.31000000 24 58 214 0.000000 0.000000 0.000000 0.000000 0.000000 0.000000 22.000000 0.094209 0.970981 0.219821
10.21000004 -2.29999995 -0.23999999 24 58 214 0.000000 0.000000 0.000000 0.000000 0.000000 0.000000 22.000000 0.264048 0.859300 0.438044
10.21000004 -2.35999990 -0.25999999 24 58 214 0.000000 0.000000 0.000000 0.000000 0.000000 0.000000 22.000000 0.011588 0.997586 -0.068472
10.22000027 -2.29999995 -0.33000001 24 58 214 0.000000 0.000000 0.000000 0.000000 0.000000 0.000000 22.000000 0.376167 0.917515 0.129091
10.14999962 -2.32999992 -0.28999999 24 58 214 0.000000 0.000000 0.000000 0.000000 0.000000 0.000000 22.000000 0.231674 0.954818 -0.186143
10.17000008 -2.30999994 -0.36000001 24 58 214 0.000000 0.000000 0.000000 0.000000 0.000000 0.000000 22.000000 0.085441 0.962807 0.256324
10.06999969 -2.23000002 -0.28999999 24 58 214 0.000000 0.000000 0.000000 0.000000 0.000000 0.000000 22.000000 0.580330 0.786602 0.210889
10.07999992 -2.25000000 -0.30000001 24 58 214 0.000000 0.000000 0.000000 0.000000 0.000000 0.000000 22.000000 -0.052323 0.910948 0.409189
10.09000015 -2.27999997 -0.31999999 24 58 214 0.000000 0.000000 0.000000 0.000000 0.000000 0.000000 22.000000 0.313909 0.897096 0.310934
10.07999992 -2.35999990 -0.25999999 24 58 214 0.000000 0.000000 0.000000 0.000000 0.000000 0.000000 22.000000 0.161149 0.962964 -0.216176
10.06999969 -2.35999990 -0.25000000 24 58 214 0.000000 0.000000 0.000000 0.000000 0.000000 0.000000 22.000000 0.174287 0.900241 0.398987
10.14000034 -2.31999993 -0.31000000 24 58 214 0.000000 0.000000 0.000000 0.000000 0.000000 0.000000 22.000000 0.377049 0.901132 0.214001
10.10000038 -2.29999995 -0.34000000 24 58 214 0.000000 0.000000 0.000000 0.000000 0.000000 0.000000 22.000000 0.503954 0.681427 0.530743
10.22999954 -2.35999990 -0.40000001 24 58 214 0.000000 0.000000 0.000000 0.000000 0.000000 0.000000 22.000000 0.049418 0.954144 0.295240
10.18999958 -2.30999994 -0.43000001 24 58 214 0.000000 0.000000 0.000000 0.000000 0.000000 0.000000 22.000000 0.309893 0.796186 0.519667
10.10999966 -2.28999996 -0.37000000 24 58 214 0.000000 0.000000 0.000000 0.000000 0.000000 0.000000 22.000000 0.097864 0.866595 0.489321
10.10999966 -2.27999997 -0.38999999 24 58 214 0.000000 0.000000 0.000000 0.000000 0.000000 0.000000 22.000000 0.279072 0.719209 0.636284
10.06999969 -2.21000004 -0.47000000 24 58 214 0.000000 0.000000 0.000000 0.000000 0.000000 0.000000 22.000000 -0.073142 0.795960 0.600914
10.14000034 -2.32999992 -0.44999999 24 58 214 0.000000 0.000000 0.000000 0.000000 0.000000 0.000000 22.000000 0.067582 0.760658 0.645625
10.10999966 -2.33999991 -0.37000000 24 58 214 0.000000 0.000000 0.000000 0.000000 0.000000 0.000000 22.000000 0.222963 0.753083 0.618994
10.10999966 -2.35999990 -0.41999999 24 58 214 0.000000 0.000000 0.000000 0.000000 0.000000 0.000000 22.000000 0.371347 0.861339 0.346693
10.10000038 -2.35999990 -0.40000001 24 58 214 0.000000 0.000000 0.000000 0.000000 0.000000 0.000000 22.000000 0.428111 0.866811 0.255656
10.19999981 -2.43000007 -0.23000000 24 58 214 0.000000 0.000000 0.000000 0.000000 0.000000 0.000000 22.000000 0.307953 0.897080 0.316879
10.22999954 -2.46000004 -0.28000000 24 58 214 0.000000 0.000000 0.000000 0.000000 0.000000 0.000000 22.000000 0.088532 0.994023 -0.063877
10.18999958 -2.42000008 -0.27000001 24 58 214 0.000000 0.000000 0.000000 0.000000 0.000000 0.000000 22.000000 0.472411 0.809620 0.348343
10.14999962 -2.39000010 -0.25000000 24 58 214 0.000000 0.000000 0.000000 0.000000 0.000000 0.000000 22.000000 0.469694 0.799923 0.373511
10.19999981 -2.42000008 -0.30000001 24 58 214 0.000000 0.000000 0.000000 0.000000 0.000000 0.000000 22.000000 0.558908 0.720480 0.410525
10.21000004 -2.42000008 -0.31000000 24 58 214 0.000000 0.000000 0.000000 0.000000 0.000000 0.000000 22.000000 0.268857 0.956081 -0.116723
10.22000027 -2.44000006 -0.31999999 24 58 214 0.000000 0.000000 0.000000 0.000000 0.000000 0.000000 22.000000 0.371359 0.869560 0.325512
10.22999954 -2.45000005 -0.30000001 24 58 214 0.000000 0.000000 0.000000 0.000000 0.000000 0.000000 22.000000 0.516036 0.834985 0.191069
10.14999962 -2.48000002 -0.25999999 24 58 214 0.000000 0.000000 0.000000 0.000000 0.000000 0.000000 22.000000 0.218569 0.826893 0.518146
10.03999996 -2.32999992 -0.31000000 24 58 214 0.000000 0.000000 0.000000 0.000000 0.000000 0.000000 22.000000 -0.018986 0.990645 0.135139
10.06000042 -2.35999990 -0.28999999 24 58 214 0.000000 0.000000 0.000000 0.000000 0.000000 0.000000 22.000000 0.003414 0.984316 0.176380
10.03999996 -2.38000011 -0.36000001 24 58 214 0.000000 0.000000 0.000000 0.000000 0.000000 0.000000 22.000000 0.306199 0.951359 -0.034022
9.97999954 -2.30999994 -0.31000000 24 58 214 0.000000 0.000000 0.000000 0.000000 0.000000 0.000000 22.000000 0.415243 0.905861 -0.083597
9.97000027 -2.34999990 -0.31999999 24 58 214 0.000000 0.000000 0.000000 0.000000 0.000000 0.000000 22.000000 0.221986 0.958395 0.179450
10.03999996 -2.24000001 -0.38999999 24 58 214 0.000000 0.000000 0.000000 0.000000 0.000000 0.000000 22.000000 0.004023 0.859609 0.510937
10.02999973 -2.25000000 -0.37000000 24 58 214 0.000000 0.000000 0.000000 0.000000 0.000000 0.000000 22.000000 0.159790 0.987072 0.012466
10.02999973 -2.25999999 -0.44999999 24 58 214 0.000000 0.000000 0.000000 0.000000 0.000000 0.000000 22.000000 0.420053 0.695661 0.582761
9.98999977 -2.25000000 -0.43000001 24 58 214 0.000000 0.000000 0.000000 0.000000 0.000000 0.000000 22.000000 -0.058252 0.967983 0.244165
10.01000023 -2.22000003 -0.44999999 24 58 214 0.000000 0.000000 0.000000 0.000000 0.000000 0.000000 22.000000 0.438113 0.889069 0.132718
9.97999954 -2.24000001 -0.50999999 24 58 214 0.000000 0.000000 0.000000 0.000000 0.000000 0.000000 22.000000 0.539416 0.610436 0.579999
9.96000004 -2.33999991 -0.43000001 24 58 214 0.000000 0.000000 0.000000 0.000000 0.000000 0.000000 22.000000 -0.069367 0.941033 0.331128
9.93000031 -2.35999990 -0.44000000 24 58 214 0.000000 0.000000 0.000000 0.000000 0.000000 0.000000 22.000000 0.484330 0.665326 0.568125
9.97000027 -2.32999992 -0.46000001 24 58 214 0.000000 0.000000 0.000000 0.000000 0.000000 0.000000 22.000000 -0.120753 0.842365 0.525205
9.93999958 -2.35999990 -0.47000000 24 58 214 0.000000 0.000000 0.000000 0.000000 0.000000 0.000000 22.000000 0.315840 0.761544 0.565947
10.01000023 -2.39000010 -0.40000001 24 58 214 0.000000 0.000000 0.000000 0.000000 0.000000 0.000000 22.000000 0.056226 0.990261 0.127368
10.01000023 -2.40000010 -0.38000000 24 58 214 0.000000 0.000000 0.000000 0.000000 0.000000 0.000000 22.000000 0.639110 0.743832 0.195583
9.81999969 -1.87000000 -0.25000000 24 58 214 0.000000 0.000000 0.000000 0.000000 0.000000 0.000000 69.000000 0.442258 0.785696 0.432538
9.81000042 -2.00000000 -0.23999999 24 58 214 0.000000 0.000000 0.000000 0.000000 0.000000 0.000000 69.000000 -0.061620 0.993758 -0.092990
9.80000019 -1.88999999 -0.22000000 24 58 214 0.000000 0.000000 0.000000 0.000000 0.000000 0.000000 69.000000 0.208815 0.977255 -0.036990
9.77000046 -1.88999999 -0.27000001 24 58 214 0.000000 0.000000 0.000000 0.000000 0.000000 0.000000 69.000000 -0.119825 0.954646 0.272568
9.77999973 -1.92999995 -0.20999999 24 58 214 0.000000 0.000000 0.000000 0.000000 0.000000 0.000000 69.000000 0.383312 0.868943 0.313064
9.77999973 -1.96000004 -0.20999999 24 58 214 0.000000 0.000000 0.000000 0.000000 0.000000 0.000000 69.000000 0.124807 0.966293 -0.225168
9.71000004 -1.99000001 -0.22000000 24 58 214 0.000000 0.000000 0.000000 0.000000 0.000000 0.000000 69.000000 0.151768 0.939322 0.307638
9.68999958 -2.02999997 -0.28000000 24 58 214 0.000000 0.000000 0.000000 0.000000 0.000000 0.000000 69.000000 -0.012840 0.979315 0.201933
11.05000019 -1.15999997 -0.17000000 24 58 214 0.000000 0.000000 0.000000 0.000000 132.978989 0.000000 54.000000 0.525254 0.845845 -0.093029
11.03999996 -1.14999998 -0.19000000 24 58 214 0.000000 0.000000 0.000000 0.000000 132.978989 0.000000 54.000000 0.168577 0.913716 -0.369736
11.03999996 -1.14999998 -0.19000000 24 58 214 0.000000 0.000000 0.000000 0.000000 132.978989 0.000000 54.000000 0.168577 0.913716 -0.369736
11.28999996 -1.38999999 0.28000000 24 58 214 0.000000 0.000000 0.000000 0.000000 132.978989 0.000000 54.000000 -0.020861 0.783000 0.621671
11.27000046 -1.38999999 0.18000001 24 58 214 0.000000 0.000000 0.000000 0.000000 132.978989 0.000000 54.000000 0.029592 0.739807 0.672168
11.27000046 -1.46000004 0.20999999 24 58 214 0.000000 0.000000 0.000000 0.000000 132.978989 0.000000 54.000000 -0.070654 0.768542 0.635886
11.22000027 -1.25000000 0.16000000 24 58 214 0.000000 0.000000 0.000000 0.000000 132.978989 0.000000 54.000000 0.052208 0.816986 0.574289
11.19999981 -1.30999994 0.18000001 24 58 214 0.000000 0.000000 0.000000 0.000000 132.978989 0.000000 54.000000 -0.153436 0.866549 0.474921
11.15999985 -1.34000003 0.17000000 24 58 214 0.000000 0.000000 0.000000 0.000000 132.978989 0.000000 54.000000 0.463528 0.876829 0.127721
11.10999966 -1.30999994 0.17000000 24 58 214 0.000000 0.000000 0.000000 0.000000 132.978989 0.000000 54.000000 0.216392 0.936768 0.275027
11.17000008 -1.26999998 0.08000000 24 58 214 0.000000 0.000000 0.000000 0.000000 132.978989 0.000000 54.000000 0.147612 0.978704 -0.142650
11.17000008 -1.38000000 0.00000000 24 58 214 0.000000 0.000000 0.000000 0.000000 132.978989 0.000000 54.000000 0.015174 0.979283 0.201926
11.19999981 -1.35000002 0.12000000 24 58 214 0.000000 0.000000 0.000000 0.000000 132.978989 0.000000 54.000000 0.009349 0.877500 0.479486
11.06000042 -1.20000005 0.08000000 24 58 214 0.000000 0.000000 0.000000 0.000000 132.978989 0.000000 54.000000 0.445479 0.886688 -0.123823
11.02999973 -1.24000001 0.02000000 24 58 214 0.000000 0.000000 0.000000 0.000000 132.978989 0.000000 54.000000 0.187785 0.976233 0.108194
11.02000046 -1.32000005 0.00000000 24 58 214 0.000000 0.000000 0.000000 0.000000 132.978989 0.000000 54.000000 0.007329 0.997795 -0.065961
11.06999969 -1.32000005 0.02000000 24 58 214 0.000000 0.000000 0.000000 0.000000 132.978989 0.000000 54.000000 0.415421 0.895526 0.159556
11.03999996 -1.38999999 -0.07000000 24 58 214 0.000000 0.000000 0.000000 0.000000 132.978989 0.000000 54.000000 0.426315 0.860270 -0.279626
11.05000019 -1.57000005 0.28000000 24 58 214 0.000000 0.000000 0.000000 0.000000 132.978989 0.000000 69.000000 -0.098341 0.732422 0.673711
10.94999981 -1.55999994 0.28999999 24 58 214 0.000000 0.000000 0.000000 0.000000 132.978989 0.000000 69.000000 -0.095486 0.686027 0.721283
10.97000027 -1.62000000 0.25999999 24 58 214 0.000000 0.000000 0.000000 0.000000 132.978989 0.000000 69.000000 0.052838 0.758297 0.649765
10.93999958 -1.70000005 0.28000000 24 58 214 0.000000 0.000000 0.000000 0.000000 132.978989 0.000000 69.000000 0.363523 0.478826 0.799110
10.96000004 -1.72000003 0.27000001 24 58 214 0.000000 0.000000 0.000000 0.000000 132.978989 0.000000 69.000000 0.379911 0.529919 0.758191
10.94999981 -2.32999992 -0.04000000 24 58 214 0.000000 0.000000 0.000000 0.000000 132.978989 0.000000 222.000000 0.240355 0.925865 -0.291555
10.94999981 -2.29999995 -0.03000000 24 58 214 0.000000 0.000000 0.000000 0.000000 132.978989 0.000000 222.000000 0.096419 0.924805 -0.368021
10.96000004 -2.36999989 -0.04000000 24 58 214 0.000000 0.000000 0.000000 0.000000 132.978989 0.000000 222.000000 0.243392 0.932768 -0.265902
10.96000004 -2.36999989 -0.04000000 24 58 214 0.000000 0.000000 0.000000 0.000000 132.978989 0.000000 222.000000 0.243392 0.932768 -0.265902
10.93000031 -2.35999990 -0.10000000 24 58 214 0.000000 0.000000 0.000000 0.000000 132.978989 0.000000 222.000000 0.410764 0.826286 0.385389
11.01000023 -2.39000010 -0.04000000 24 58 214 0.000000 0.000000 0.000000 0.000000 132.978989 0.000000 222.000000 0.563126 0.826370 -0.001357
11.02000046 -2.67000008 0.00000000 24 58 214 0.000000 0.000000 0.000000 0.000000 132.978989 0.000000 222.000000 0.046289 0.921813 -0.384860
10.97000027 -2.69000006 -0.02000000 24 58 214 0.000000 0.000000 0.000000 0.000000 132.978989 0.000000 222.000000 0.035565 0.996909 0.070053
11.01000023 -2.69000006 -0.04000000 24 58 214 0.000000 0.000000 0.000000 0.000000 132.978989 0.000000 222.000000 0.585402 0.777947 0.228260
11.01000023 -2.69000006 -0.04000000 24 58 214 0.000000 0.000000 0.000000 0.000000 132.978989 0.000000 222.000000 0.585402 0.777947 0.228260
10.89000034 -1.34000003 0.00000000 24 58 214 0.000000 0.000000 0.000000 0.000000 0.000000 0.000000 54.000000 0.537932 0.842161 -0.037337
10.88000011 -1.28999996 -0.03000000 24 58 214 0.000000 0.000000 0.000000 0.000000 0.000000 0.000000 54.000000 0.444735 0.879264 0.170603
10.89000034 -1.36000001 0.10000000 24 58 214 0.000000 0.000000 0.000000 0.000000 0.000000 0.000000 54.000000 0.531117 0.831636 0.162162
10.88000011 -1.41999996 0.12000000 24 58 214 0.000000 0.000000 0.000000 0.000000 0.000000 0.000000 54.000000 0.555026 0.642750 0.528033
10.88000011 -1.39999998 0.05000000 24 58 214 0.000000 0.000000 0.000000 0.000000 0.000000 0.000000 54.000000 0.100820 0.951894 0.289365
10.84000015 -1.41999996 -0.04000000 24 58 214 0.000000 0.000000 0.000000 0.000000 0.000000 0.000000 54.000000 -0.037328 0.938347 0.343674
10.90999985 -1.65999997 0.23000000 24 58 214 0.000000 0.000000 0.000000 0.000000 0.000000 0.000000 69.000000 0.261384 0.723954 0.638411
10.84000015 -1.61000001 0.22000000 24 58 214 0.000000 0.000000 0.000000 0.000000 0.000000 0.000000 69.000000 0.127022 0.673964 0.727762
10.90999985 -1.63000000 0.20999999 24 58 214 0.000000 0.000000 0.000000 0.000000 0.000000 0.000000 69.000000 0.499075 0.502413 0.706049
10.76000023 -1.69000006 0.23000000 24 58 214 0.000000 0.000000 0.000000 0.000000 0.000000 0.000000 69.000000 0.329851 0.498760 0.801522
10.88000011 -1.75000000 0.28000000 24 58 214 0.000000 0.000000 0.000000 0.000000 0.000000 0.000000 69.000000 0.029076 0.557975 0.829348
10.89000034 -1.73000002 0.22000000 24 58 214 0.000000 0.000000 0.000000 0.000000 0.000000 0.000000 69.000000 0.058616 0.627623 0.776308
10.88000011 -1.74000001 0.23000000 24 58 214 0.000000 0.000000 0.000000 0.000000 0.000000 0.000000 69.000000 0.145713 0.620406 0.770626
10.85000038 -1.78999996 0.28999999 24 58 214 0.000000 0.000000 0.000000 0.000000 0.000000 0.000000 69.000000 0.367860 0.415224 0.832027
10.71000004 -1.58000004 0.20000000 24 58 214 0.000000 0.000000 0.000000 0.000000 0.000000 0.000000 69.000000 0.400554 0.372280 0.837236
10.68999958 -1.58000004 0.22000000 24 58 214 0.000000 0.000000 0.000000 0.000000 0.000000 0.000000 69.000000 -0.168358 0.605177 0.778085
10.71000004 -1.63000000 0.15000001 24 58 214 0.000000 0.000000 0.000000 0.000000 0.000000 0.000000 69.000000 0.315224 0.654696 0.687027
10.72000027 -1.66999996 0.15000001 24 58 214 0.000000 0.000000 0.000000 0.000000 0.000000 0.000000 69.000000 0.034160 0.495997 0.867652
10.71000004 -1.65999997 0.15000001 24 58 214 0.000000 0.000000 0.000000 0.000000 0.000000 0.000000 69.000000 0.289081 0.482844 0.826616
10.72000027 -1.73000002 0.17000000 24 58 214 0.000000 0.000000 0.000000 0.000000 0.000000 0.000000 69.000000 0.212844 0.303055 0.928900
10.73999977 -1.75000000 0.17000000 24 58 214 0.000000 0.000000 0.000000 0.000000 0.000000 0.000000 69.000000 0.359172 0.206271 0.910191
10.73999977 -1.76999998 0.18000001 24 58 214 0.000000 0.000000 0.000000 0.000000 0.000000 0.000000 69.000000 0.280989 0.371146 0.885040
10.75000000 -1.78999996 0.18000001 24 58 214 0.000000 0.000000 0.000000 0.000000 0.000000 0.000000 69.000000 0.138345 0.251657 0.957877
10.73999977 -1.65999997 0.12000000 24 58 214 0.000000 0.000000 0.000000 0.000000 0.000000 0.000000 69.000000 0.111174 0.434846 0.893616
10.64999962 -1.60000002 0.13000000 24 58 214 0.000000 0.000000 0.000000 0.000000 0.000000 0.000000 69.000000 0.368078 0.590561 0.718162
10.71000004 -1.71000004 0.11000000 24 58 214 0.000000 0.000000 0.000000 0.000000 0.000000 0.000000 69.000000 0.336391 0.265881 0.903409
10.57999992 -1.75000000 0.10000000 24 58 214 0.000000 0.000000 0.000000 0.000000 0.000000 0.000000 69.000000 0.218728 0.327377 0.919229
10.57999992 -1.74000001 0.10000000 24 58 214 0.000000 0.000000 0.000000 0.000000 0.000000 0.000000 69.000000 0.242217 0.190797 0.951277
10.48999977 -1.45000005 0.02000000 24 58 214 0.000000 0.000000 0.000000 0.000000 0.000000 0.000000 69.000000 -0.148714 0.924251 0.351632
10.27999973 -1.48000002 -0.08000000 24 58 214 0.000000 0.000000 0.000000 0.000000 0.000000 0.000000 69.000000 0.070642 0.753991 0.653075
10.56000042 -1.60000002 0.07000000 24 58 214 0.000000 0.000000 0.000000 0.000000 0.000000 0.000000 69.000000 -0.025723 0.870527 0.491448
10.53999996 -1.67999995 0.09000000 24 58 214 0.000000 0.000000 0.000000 0.000000 0.000000 0.000000 69.000000 0.176125 0.727472 0.663148
10.43999958 -1.58000004 0.03000000 24 58 214 0.000000 0.000000 0.000000 0.000000 0.000000 0.000000 69.000000 -0.109585 0.471075 0.875260
10.43000031 -1.69000006 0.07000000 24 58 214 0.000000 0.000000 0.000000 0.000000 0.000000 0.000000 69.000000 0.183805 0.003425 0.982957
10.44999981 -1.63000000 0.06000000 24 58 214 0.000000 0.000000 0.000000 0.000000 0.000000 0.000000 69.000000 -0.120468 0.281974 0.951829
10.51000023 -1.73000002 0.07000000 24 58 214 0.000000 0.000000 0.000000 0.000000 0.000000 0.000000 69.000000 0.300227 0.535326 0.789487
10.47999954 -1.72000003 0.03000000 24 58 214 0.000000 0.000000 0.000000 0.000000 0.000000 0.000000 69.000000 -0.004132 0.621156 0.783676
10.46000004 -1.80999994 0.08000000 24 58 214 0.000000 0.000000 0.000000 0.000000 0.000000 0.000000 69.000000 0.139809 -0.206508 0.968405
10.48999977 -1.80999994 0.04000000 24 58 214 0.000000 0.000000 0.000000 0.000000 0.000000 0.000000 69.000000 0.232129 0.015475 0.972562
10.35000038 -1.60000002 0.03000000 24 58 214 0.000000 0.000000 0.000000 0.000000 0.000000 0.000000 69.000000 -0.184375 0.583601 0.790832
10.36999989 -1.63999999 0.03000000 24 58 214 0.000000 0.000000 0.000000 0.000000 0.000000 0.000000 69.000000 -0.126567 0.632837 0.763871
10.36999989 -1.59000003 -0.06000000 24 58 214 0.000000 0.000000 0.000000 0.000000 0.000000 0.000000 69.000000 0.133025 0.635230 0.760781
10.32999992 -1.75999999 0.02000000 24 58 214 0.000000 0.000000 0.000000 0.000000 0.000000 0.000000 69.000000 -0.214867 0.214867 0.952714
10.27000046 -1.78999996 -0.01000000 24 58 214 0.000000 0.000000 0.000000 0.000000 0.000000 0.000000 69.000000 -0.452022 -0.197111 0.869956
10.31000042 -1.77999997 0.02000000 24 58 214 0.000000 0.000000 0.000000 0.000000 0.000000 0.000000 69.000000 -0.286296 0.114782 0.951241
10.27999973 -1.80999994 -0.06000000 24 58 214 0.000000 0.000000 0.000000 0.000000 0.000000 0.000000 69.000000 0.158080 0.781369 -0.603716
10.25000000 -1.80999994 -0.06000000 24 58 214 0.000000 0.000000 0.000000 0.000000 0.000000 0.000000 69.000000 0.189274 0.743247 -0.641685
9.93999958 -1.34000003 0.08000000 24 58 214 0.000000 0.000000 0.000000 0.000000 0.000000 0.000000 69.000000 -0.143323 0.825952 0.545217
10.05000019 -1.50000000 0.06000000 24 58 214 0.000000 0.000000 0.000000 0.000000 0.000000 0.000000 69.000000 -0.082760 0.386665 0.918499
9.97999954 -1.47000003 0.06000000 24 58 214 0.000000 0.000000 0.000000 0.000000 0.000000 0.000000 69.000000 0.018745 0.308664 0.950986
10.19999981 -1.84000003 -0.02000000 24 58 214 0.000000 0.000000 0.000000 0.000000 0.000000 0.000000 69.000000 -0.161163 -0.392210 0.905648
9.97999954 -1.52999997 0.07000000 24 58 214 0.000000 0.000000 0.000000 0.000000 0.000000 0.000000 69.000000 0.021964 0.375974 0.926370
10.00000000 -1.58000004 0.02000000 24 58 214 0.000000 0.000000 0.000000 0.000000 0.000000 0.000000 69.000000 -0.155365 -0.137964 0.978176
10.02999973 -1.55999994 0.04000000 24 58 214 0.000000 0.000000 0.000000 0.000000 0.000000 0.000000 69.000000 -0.284586 0.031068 0.958147
10.06000042 -1.52999997 0.02000000 24 58 214 0.000000 0.000000 0.000000 0.000000 0.000000 0.000000 69.000000 0.230174 0.486261 0.842954
9.97999954 -1.54999995 -0.01000000 24 58 214 0.000000 0.000000 0.000000 0.000000 0.000000 0.000000 69.000000 -0.327828 0.333871 0.883776
10.00000000 -1.58000004 0.02000000 24 58 214 0.000000 0.000000 0.000000 0.000000 0.000000 0.000000 69.000000 -0.155365 -0.137964 0.978176
10.06000042 -1.61000001 0.02000000 24 58 214 0.000000 0.000000 0.000000 0.000000 0.000000 0.000000 69.000000 0.124701 -0.014346 0.992091
9.89999962 -1.58000004 0.00000000 24 58 214 0.000000 0.000000 0.000000 0.000000 0.000000 0.000000 69.000000 -0.075368 -0.339815 0.937467
9.89999962 -1.55999994 0.00000000 24 58 214 0.000000 0.000000 0.000000 0.000000 0.000000 0.000000 69.000000 0.107083 0.300096 0.947880
9.96000004 -1.53999996 0.05000000 24 58 214 0.000000 0.000000 0.000000 0.000000 0.000000 0.000000 69.000000 0.127103 0.527406 0.840052
9.94999981 -1.53999996 0.04000000 24 58 214 0.000000 0.000000 0.000000 0.000000 0.000000 0.000000 69.000000 -0.255350 0.463299 0.848617
9.93000031 -1.53999996 0.03000000 24 58 214 0.000000 0.000000 0.000000 0.000000 0.000000 0.000000 69.000000 -0.212997 -0.090929 0.972812
9.90999985 -1.69000006 -0.04000000 24 58 214 0.000000 0.000000 0.000000 0.000000 0.000000 0.000000 69.000000 -0.103449 -0.587180 0.802819
10.00000000 -1.83000004 -0.09000000 24 58 214 0.000000 0.000000 0.000000 0.000000 0.000000 0.000000 69.000000 0.167581 0.789592 -0.590307
9.96000004 -1.72000003 -0.04000000 24 58 214 0.000000 0.000000 0.000000 0.000000 0.000000 0.000000 69.000000 -0.152316 -0.527929 0.835518
9.96000004 -1.74000001 -0.06000000 24 58 214 0.000000 0.000000 0.000000 0.000000 0.000000 0.000000 69.000000 -0.220541 -0.412959 0.883644
9.96000004 -1.72000003 -0.06000000 24 58 214 0.000000 0.000000 0.000000 0.000000 0.000000 0.000000 69.000000 0.094244 -0.590114 0.801800
9.93999958 -1.75999999 -0.18000001 24 58 214 0.000000 0.000000 0.000000 0.000000 0.000000 0.000000 69.000000 0.482999 0.872739 0.070988
9.96000004 -1.82000005 -0.14000000 24 58 214 0.000000 0.000000 0.000000 0.000000 0.000000 0.000000 69.000000 0.354258 0.877282 -0.323849
