//X Y Z R G B PointSourceId ScanDirectionFlag NumberOfReturns ReturnNumber GpsTime Intensity Classification Nx Ny Nz
1.70000005 3.27999997 -1.11000001 241 232 19 97.000000 1.000000 4.000000 1.000000 176.000000 114.000000 227.000000 0.435900 -0.646334 -0.626293
1.72000003 3.28999996 -1.12000000 241 232 19 97.000000 1.000000 4.000000 1.000000 176.000000 114.000000 227.000000 -0.500039 0.820937 0.275723
1.70000005 3.23000002 -1.13000000 241 232 19 97.000000 1.000000 4.000000 1.000000 176.000000 114.000000 227.000000 -0.333568 0.758988 0.559169
1.69000006 3.22000003 -1.12000000 241 232 19 97.000000 1.000000 4.000000 1.000000 176.000000 114.000000 227.000000 -0.101062 0.768950 0.631271
1.71000004 3.24000001 -1.13999999 241 232 19 97.000000 1.000000 4.000000 1.000000 176.000000 114.000000 227.000000 0.379900 -0.590407 -0.712107
1.71000004 3.25000000 -1.14999998 241 232 19 97.000000 1.000000 4.000000 1.000000 176.000000 114.000000 227.000000 -0.065952 0.947903 0.311657
1.65999997 3.27999997 -1.15999997 241 232 19 97.000000 1.000000 4.000000 1.000000 176.000000 114.000000 227.000000 -0.250298 0.860115 0.444469
1.78999996 3.04999995 -0.94000000 241 232 19 97.000000 1.000000 4.000000 1.000000 176.000000 114.000000 227.000000 0.619501 -0.388221 -0.682278
1.78999996 3.04999995 -0.94000000 241 232 19 97.000000 1.000000 4.000000 1.000000 176.000000 114.000000 227.000000 0.619501 -0.388221 -0.682278
1.79999995 3.06999993 -0.94000000 241 232 19 97.000000 1.000000 4.000000 1.000000 176.000000 114.000000 227.000000 -0.630275 0.757849 0.168580
1.76999998 3.05999994 -0.94999999 241 232 19 97.000000 1.000000 4.000000 1.000000 176.000000 114.000000 227.000000 -0.384634 0.874168 0.296457
1.73000002 3.06999993 -0.93000001 241 232 19 97.000000 1.000000 4.000000 1.000000 176.000000 114.000000 227.000000 0.534595 -0.685421 -0.494375
1.66999996 3.09999990 -0.94999999 241 232 19 97.000000 1.000000 4.000000 1.000000 176.000000 114.000000 227.000000 -0.143440 0.548623 0.823673
1.66999996 3.09999990 -1.21000004 241 232 19 97.000000 1.000000 4.000000 1.000000 176.000000 114.000000 170.000000 0.158423 0.879321 0.449107
1.63000000 3.11999989 -0.88999999 241 232 19 97.000000 1.000000 4.000000 1.000000 176.000000 114.000000 227.000000 -0.322233 0.697902 0.639608
1.58000004 3.13000011 -0.92000002 241 232 19 97.000000 1.000000 4.000000 1.000000 176.000000 114.000000 227.000000 -0.236824 0.638327 0.732429
1.63000000 3.13000011 -0.99000001 241 232 19 97.000000 1.000000 4.000000 1.000000 176.000000 114.000000 227.000000 -0.395027 0.656175 0.642952
1.63999999 3.14000010 -0.98000002 241 232 19 97.000000 1.000000 4.000000 1.000000 176.000000 114.000000 227.000000 -0.165755 0.539076 0.825786
1.58000004 3.19000006 -1.02999997 241 232 19 97.000000 1.000000 4.000000 1.000000 176.000000 114.000000 227.000000 -0.218222 0.468049 0.856335
1.58000004 3.14000010 -1.00999999 241 232 19 97.000000 1.000000 4.000000 1.000000 176.000000 114.000000 227.000000 0.006611 0.456172 0.889867
1.60000002 3.16000009 -1.04999995 241 232 19 97.000000 1.000000 4.000000 1.000000 176.000000 114.000000 227.000000 -0.354699 0.815966 0.456496
1.60000002 3.16000009 -1.01999998 241 232 19 97.000000 1.000000 4.000000 1.000000 176.000000 114.000000 227.000000 -0.451514 0.551481 0.701430
1.52999997 3.15000010 -1.02999997 241 232 19 97.000000 1.000000 4.000000 1.000000 176.000000 114.000000 227.000000 -0.042288 0.473350 0.879859
1.55999994 3.26999998 -1.15999997 241 232 19 97.000000 1.000000 4.000000 1.000000 176.000000 114.000000 170.000000 -0.186133 0.730687 0.656849
1.61000001 3.05999994 -0.97000003 241 232 19 97.000000 1.000000 4.000000 1.000000 176.000000 114.000000 227.000000 -0.386910 0.861683 0.328334
1.62000000 3.10999990 -1.19000006 241 232 19 97.000000 1.000000 4.000000 1.000000 176.000000 114.000000 170.000000 -0.398906 0.733790 0.549932
1.94000006 2.78999996 -0.41000000 241 232 19 97.000000 1.000000 4.000000 1.000000 176.000000 114.000000 227.000000 0.984533 -0.158335 0.075001
1.91999996 2.69000006 -0.20999999 241 232 19 97.000000 1.000000 4.000000 1.000000 176.000000 114.000000 227.000000 0.951830 -0.306605 -0.003694
1.92999995 2.66000009 -0.20000000 241 232 19 97.000000 1.000000 4.000000 1.000000 176.000000 114.000000 227.000000 0.893891 -0.269208 0.358449
1.94000006 2.74000001 -0.38000000 241 232 19 97.000000 1.000000 4.000000 1.000000 176.000000 114.000000 227.000000 0.874152 -0.372465 0.311654
1.94000006 2.70000005 -0.37000000 241 232 19 97.000000 1.000000 4.000000 1.000000 176.000000 114.000000 227.000000 0.849614 -0.521643 -0.077752
1.66999996 2.80999994 -0.30000001 241 232 19 97.000000 1.000000 4.000000 1.000000 176.000000 114.000000 227.000000 0.908180 -0.342572 -0.240529
1.73000002 2.66000009 -0.36000001 241 232 19 97.000000 1.000000 4.000000 1.000000 176.000000 114.000000 227.000000 -0.670996 0.683808 0.286655
1.74000001 2.71000004 -0.40000001 241 232 19 97.000000 1.000000 4.000000 1.000000 176.000000 114.000000 227.000000 -0.564985 0.688315 0.454988
1.75999999 2.70000005 -0.37000000 241 232 19 97.000000 1.000000 4.000000 1.000000 176.000000 114.000000 227.000000 -0.712957 0.676000 0.186323
1.92999995 2.55999994 -0.31000000 241 232 19 97.000000 1.000000 4.000000 1.000000 176.000000 114.000000 227.000000 0.779912 -0.621919 -0.070379
1.88000000 2.52999997 -0.20000000 241 232 19 97.000000 1.000000 4.000000 1.000000 176.000000 114.000000 227.000000 0.844473 -0.493994 0.206964
1.83000004 2.49000001 -0.33000001 241 232 19 97.000000 1.000000 4.000000 1.000000 176.000000 114.000000 227.000000 -0.597750 0.775999 0.201299
1.91999996 2.59999990 -0.37000000 241 232 19 97.000000 1.000000 4.000000 1.000000 176.000000 114.000000 227.000000 0.832037 -0.516803 -0.201568
1.79999995 2.48000002 -0.30000001 241 232 19 97.000000 1.000000 4.000000 1.000000 176.000000 114.000000 227.000000 -0.677089 0.727463 0.111120
1.80999994 2.49000001 -0.30000001 241 232 19 97.000000 1.000000 4.000000 1.000000 176.000000 114.000000 227.000000 -0.610430 0.774019 0.168133
1.69000006 2.58999991 -0.38000000 241 232 19 97.000000 1.000000 4.000000 1.000000 176.000000 114.000000 227.000000 0.843066 -0.392597 -0.367570
1.75000000 2.41000009 -0.44999999 241 232 19 97.000000 1.000000 4.000000 1.000000 176.000000 114.000000 227.000000 -0.303360 0.907150 0.291636
1.61000001 2.83999991 -0.23999999 241 232 19 97.000000 1.000000 4.000000 1.000000 176.000000 114.000000 227.000000 0.773429 -0.609322 -0.174743
1.62000000 2.80999994 -0.25000000 241 232 19 97.000000 1.000000 4.000000 1.000000 176.000000 114.000000 227.000000 0.832095 -0.442001 -0.335040
1.55999994 2.81999993 -0.28000000 241 232 19 97.000000 1.000000 4.000000 1.000000 176.000000 114.000000 227.000000 0.803017 -0.511587 -0.305685
1.58000004 2.84999990 -0.25999999 241 232 19 97.000000 1.000000 4.000000 1.000000 176.000000 114.000000 227.000000 -0.698608 0.715341 -0.015339
1.63999999 2.79999995 -0.31000000 241 232 19 97.000000 1.000000 4.000000 1.000000 176.000000 114.000000 227.000000 -0.723829 0.614207 0.314358
1.62000000 2.78999996 -0.31999999 241 232 19 97.000000 1.000000 4.000000 1.000000 176.000000 114.000000 227.000000 0.704686 -0.707545 -0.052887
1.63000000 2.79999995 -0.30000001 241 232 19 97.000000 1.000000 4.000000 1.000000 176.000000 114.000000 227.000000 0.708891 -0.617632 -0.340594
1.57000005 2.75999999 -0.34000000 241 232 19 97.000000 1.000000 4.000000 1.000000 176.000000 114.000000 227.000000 -0.631126 0.763048 0.139417
1.60000002 2.76999998 -0.31000000 241 232 19 97.000000 1.000000 4.000000 1.000000 176.000000 114.000000 227.000000 -0.510336 0.829104 0.228349
1.50000000 2.74000001 -0.30000001 241 232 19 97.000000 1.000000 4.000000 1.000000 176.000000 114.000000 227.000000 0.799801 -0.504050 -0.325963
1.63999999 2.61999989 -0.40000001 241 232 19 97.000000 1.000000 4.000000 1.000000 176.000000 114.000000 227.000000 -0.476472 0.540002 0.693810
1.61000001 2.63000011 -0.40000001 241 232 19 97.000000 1.000000 4.000000 1.000000 176.000000 114.000000 227.000000 0.714974 -0.414454 -0.563063
1.63999999 2.52999997 -0.28999999 241 232 19 97.000000 1.000000 4.000000 1.000000 176.000000 114.000000 227.000000 -0.477639 0.866720 0.143727
1.63999999 2.52999997 -0.28999999 241 232 19 97.000000 1.000000 4.000000 1.000000 176.000000 114.000000 227.000000 -0.477639 0.866720 0.143727
1.63000000 2.57999992 -0.36000001 241 232 19 97.000000 1.000000 4.000000 1.000000 176.000000 114.000000 227.000000 0.714677 -0.386090 -0.583242
1.84000003 2.91000009 -0.94000000 241 232 19 97.000000 1.000000 4.000000 1.000000 176.000000 114.000000 227.000000 -0.515007 0.816855 0.259838
1.84000003 2.92000008 -1.01999998 241 232 19 97.000000 1.000000 4.000000 1.000000 176.000000 114.000000 227.000000 -0.363680 0.858904 0.360585
1.98000002 2.86999989 -1.15999997 241 232 19 97.000000 1.000000 4.000000 1.000000 176.000000 114.000000 227.000000 -0.670628 0.719736 0.179550
1.97000003 2.84999990 -1.13000000 241 232 19 97.000000 1.000000 4.000000 1.000000 176.000000 114.000000 227.000000 -0.709525 0.697773 0.098423
1.98000002 2.83999991 -1.10000002 241 232 19 97.000000 1.000000 4.000000 1.000000 176.000000 114.000000 227.000000 -0.490161 0.849913 0.193366
1.96000004 2.81999993 -1.17999995 241 232 19 97.000000 1.000000 4.000000 1.000000 176.000000 114.000000 227.000000 -0.247213 0.806941 0.536406
1.94000006 2.83999991 -1.19000006 241 232 19 97.000000 1.000000 4.000000 1.000000 176.000000 114.000000 227.000000 0.294485 -0.811014 -0.505506
1.89999998 2.92000008 -1.16999996 241 232 19 97.000000 1.000000 4.000000 1.000000 176.000000 114.000000 227.000000 -0.449393 0.870607 0.200225
1.88999999 2.80999994 -1.21000004 241 232 19 97.000000 1.000000 4.000000 1.000000 176.000000 114.000000 227.000000 -0.712345 0.645413 0.275695
1.79999995 2.88000011 -0.94999999 241 232 19 97.000000 1.000000 4.000000 1.000000 176.000000 114.000000 227.000000 -0.393502 0.898811 0.193121
1.87000000 2.81999993 -1.25000000 241 232 19 97.000000 1.000000 4.000000 1.000000 176.000000 114.000000 227.000000 -0.522782 0.792912 0.313033
1.88999999 2.78999996 -1.27999997 241 232 19 97.000000 1.000000 4.000000 1.000000 176.000000 114.000000 227.000000 -0.443190 0.876074 0.189939
1.87000000 2.69000006 -1.33000004 241 232 19 97.000000 1.000000 4.000000 1.000000 176.000000 114.000000 227.000000 0.089049 0.734286 0.672974
1.83000004 2.74000001 -1.38000000 241 232 19 97.000000 1.000000 4.000000 1.000000 176.000000 114.000000 227.000000 -0.228124 0.831350 0.506771
1.74000001 2.86999989 -1.35000002 241 232 19 97.000000 1.000000 4.000000 1.000000 176.000000 114.000000 227.000000 -0.527643 0.625417 0.574844
1.71000004 2.85999990 -1.36000001 241 232 19 97.000000 1.000000 4.000000 1.000000 176.000000 114.000000 227.000000 -0.269344 0.891366 0.364582
1.75000000 2.76999998 -1.38000000 241 232 19 97.000000 1.000000 4.000000 1.000000 176.000000 114.000000 227.000000 0.113023 0.905582 0.408837
1.80999994 2.66000009 -1.38999999 241 232 19 97.000000 1.000000 4.000000 1.000000 176.000000 114.000000 227.000000 -0.464860 0.831114 0.305211
1.80999994 2.65000010 -1.37000000 241 232 19 97.000000 1.000000 4.000000 1.000000 176.000000 114.000000 227.000000 -0.399991 0.782169 0.477722
1.75999999 2.60999990 -1.36000001 241 232 19 97.000000 1.000000 4.000000 1.000000 176.000000 114.000000 227.000000 -0.027364 0.923845 0.381787
1.69000006 2.75999999 -1.36000001 241 232 19 97.000000 1.000000 4.000000 1.000000 176.000000 114.000000 227.000000 -0.438054 0.671239 0.597952
1.69000006 2.76999998 -1.37000000 241 232 19 97.000000 1.000000 4.000000 1.000000 176.000000 114.000000 227.000000 -0.473828 0.664699 0.577635
1.71000004 2.69000006 -1.39999998 241 232 19 97.000000 1.000000 4.000000 1.000000 176.000000 114.000000 227.000000 0.074325 0.917578 0.390545
1.79999995 2.75000000 -1.44000006 241 232 19 97.000000 1.000000 4.000000 1.000000 176.000000 114.000000 227.000000 -0.443048 0.708545 0.549247
1.82000005 2.57999992 -1.37000000 241 232 19 97.000000 1.000000 4.000000 1.000000 176.000000 114.000000 227.000000 -0.144362 0.858879 0.491413
1.86000001 2.57999992 -1.38000000 241 232 19 97.000000 1.000000 4.000000 1.000000 176.000000 114.000000 227.000000 -0.349079 0.804954 0.479784
1.88999999 2.54999995 -1.35000002 241 232 19 97.000000 1.000000 4.000000 1.000000 176.000000 114.000000 227.000000 -0.317162 0.838994 0.442151
1.80999994 2.57999992 -1.37000000 241 232 19 97.000000 1.000000 4.000000 1.000000 176.000000 114.000000 227.000000 0.152979 0.725515 0.670988
1.79999995 2.59999990 -1.34000003 241 232 19 97.000000 1.000000 4.000000 1.000000 176.000000 114.000000 227.000000 0.356065 -0.784632 -0.507514
1.58000004 2.61999989 -1.30999994 241 232 19 97.000000 1.000000 4.000000 1.000000 176.000000 114.000000 163.000000 0.016524 0.936775 0.349543
1.55999994 2.60999990 -1.28999996 241 232 19 97.000000 1.000000 4.000000 1.000000 176.000000 114.000000 163.000000 -0.148711 0.608361 0.779604
1.58000004 2.60999990 -1.30999994 241 232 19 97.000000 1.000000 4.000000 1.000000 176.000000 114.000000 163.000000 0.027402 0.922537 0.384934
1.62000000 2.61999989 -1.32000005 241 232 19 97.000000 1.000000 4.000000 1.000000 176.000000 114.000000 163.000000 -0.156158 0.659501 0.735305
1.50000000 2.72000003 -1.23000002 241 232 19 97.000000 1.000000 4.000000 1.000000 176.000000 114.000000 163.000000 -0.114579 0.379630 0.918015
1.50000000 2.73000002 -1.23000002 241 232 19 97.000000 1.000000 4.000000 1.000000 176.000000 114.000000 163.000000 0.082341 0.611055 0.787294
1.53999996 2.60999990 -1.25000000 241 232 19 97.000000 1.000000 4.000000 1.000000 176.000000 114.000000 163.000000 -0.342095 0.582048 0.737693
1.50000000 2.63000011 -1.23000002 241 232 19 97.000000 1.000000 4.000000 1.000000 176.000000 114.000000 163.000000 0.047057 0.680189 0.731524
1.51999998 2.60999990 -1.32000005 241 232 19 97.000000 1.000000 4.000000 1.000000 176.000000 114.000000 163.000000 0.161853 0.763887 0.624724
1.48000002 2.61999989 -1.34000003 241 232 19 97.000000 1.000000 4.000000 1.000000 176.000000 114.000000 163.000000 0.205328 0.603634 0.770367
1.62000000 2.59999990 -1.28999996 241 232 19 97.000000 1.000000 4.000000 1.000000 176.000000 114.000000 163.000000 0.110788 0.923232 0.367925
1.61000001 2.58999991 -1.27999997 241 232 19 97.000000 1.000000 4.000000 1.000000 176.000000 114.000000 163.000000 -0.104274 0.638859 0.762225
1.62000000 2.58999991 -1.26999998 241 232 19 97.000000 1.000000 4.000000 1.000000 176.000000 114.000000 163.000000 0.144724 0.492646 0.858111
1.62000000 2.58999991 -1.34000003 241 232 19 97.000000 1.000000 4.000000 1.000000 176.000000 114.000000 163.000000 -0.196939 0.804548 0.560283
1.59000003 2.58999991 -1.35000002 241 232 19 97.000000 1.000000 4.000000 1.000000 176.000000 114.000000 163.000000 -0.025265 0.897572 0.440143
1.62000000 2.54999995 -1.32000005 241 232 19 97.000000 1.000000 4.000000 1.000000 176.000000 114.000000 163.000000 -0.487858 0.732614 0.474628
1.57000005 2.57999992 -1.34000003 241 232 19 97.000000 1.000000 4.000000 1.000000 176.000000 114.000000 163.000000 0.061803 0.697079 0.714326
1.50999999 2.59999990 -1.30999994 241 232 19 97.000000 1.000000 4.000000 1.000000 176.000000 114.000000 163.000000 0.092718 0.520645 0.848724
1.52999997 2.56999993 -1.28999996 241 232 19 97.000000 1.000000 4.000000 1.000000 176.000000 114.000000 163.000000 -0.262055 0.550786 0.792441
1.50000000 2.59999990 -1.30999994 241 232 19 97.000000 1.000000 4.000000 1.000000 176.000000 114.000000 163.000000 -0.159335 0.411974 0.897156
1.50999999 2.58999991 -1.29999995 241 232 19 97.000000 1.000000 4.000000 1.000000 176.000000 114.000000 163.000000 0.098369 0.650412 0.753185
1.42999995 2.54999995 -1.37000000 241 232 19 97.000000 1.000000 4.000000 1.000000 176.000000 114.000000 163.000000 -0.004095 0.820314 0.571899
1.87000000 3.24000001 0.17000000 241 232 19 97.000000 1.000000 4.000000 1.000000 176.000000 114.000000 227.000000 0.869289 0.239544 0.432384
1.85000002 3.13000011 0.19000000 241 232 19 97.000000 1.000000 4.000000 1.000000 176.000000 114.000000 227.000000 0.609512 0.152002 0.778068
1.87000000 3.07999992 0.25000000 241 232 19 97.000000 1.000000 4.000000 1.000000 176.000000 114.000000 227.000000 0.565648 -0.006815 0.824619
1.80999994 3.26999998 0.20000000 241 232 19 97.000000 1.000000 4.000000 1.000000 176.000000 114.000000 227.000000 0.718937 0.496448 0.486486
1.65999997 3.18000007 0.20000000 241 232 19 97.000000 1.000000 4.000000 1.000000 176.000000 114.000000 227.000000 0.551699 0.265633 0.790612
1.66999996 3.11999989 0.17000000 241 232 19 97.000000 1.000000 4.000000 1.000000 176.000000 114.000000 227.000000 0.747754 0.517676 0.415784
1.66999996 3.14000010 0.17000000 241 232 19 97.000000 1.000000 4.000000 1.000000 176.000000 114.000000 227.000000 0.615975 0.568722 0.545096
1.78999996 3.10999990 0.23000000 241 232 19 97.000000 1.000000 4.000000 1.000000 176.000000 114.000000 227.000000 0.737759 0.070744 0.671347
1.70000005 3.09999990 0.28999999 241 232 19 97.000000 1.000000 4.000000 1.000000 176.000000 114.000000 227.000000 0.658057 0.365952 0.658057
1.70000005 3.07999992 0.17000000 241 232 19 97.000000 1.000000 4.000000 1.000000 176.000000 114.000000 227.000000 0.535241 0.375808 0.756496
1.64999998 3.00999999 0.25999999 241 232 19 97.000000 1.000000 4.000000 1.000000 176.000000 114.000000 227.000000 0.636362 0.612855 0.468457
1.67999995 2.99000001 0.18000001 241 232 19 97.000000 1.000000 4.000000 1.000000 176.000000 114.000000 227.000000 0.763691 0.165492 0.624010
1.67999995 2.98000002 0.23000000 241 232 19 97.000000 1.000000 4.000000 1.000000 176.000000 114.000000 227.000000 0.594655 0.405823 0.694041
1.66999996 2.98000002 0.20999999 241 232 19 97.000000 1.000000 4.000000 1.000000 176.000000 114.000000 227.000000 0.652228 0.012516 0.757919
1.82000005 3.14000010 0.13000000 241 232 19 97.000000 1.000000 4.000000 1.000000 176.000000 114.000000 227.000000 0.781964 0.480835 0.396648
1.75999999 3.25000000 0.01000000 241 232 19 97.000000 1.000000 4.000000 1.000000 176.000000 114.000000 227.000000 0.422295 0.113641 0.899307
1.78999996 3.16000009 0.09000000 241 232 19 97.000000 1.000000 4.000000 1.000000 176.000000 114.000000 227.000000 0.759866 0.413432 0.501675
1.73000002 3.19000006 0.08000000 241 232 19 97.000000 1.000000 4.000000 1.000000 176.000000 114.000000 227.000000 0.718479 0.283231 0.635270
1.73000002 3.18000007 0.05000000 241 232 19 97.000000 1.000000 4.000000 1.000000 176.000000 114.000000 227.000000 0.477807 0.215541 0.851612
1.73000002 3.14000010 0.04000000 241 232 19 97.000000 1.000000 4.000000 1.000000 176.000000 114.000000 227.000000 0.726903 0.379040 0.572662
1.72000003 3.15000010 0.10000000 241 232 19 97.000000 1.000000 4.000000 1.000000 176.000000 114.000000 227.000000 0.505894 0.042732 0.861536
1.66999996 3.13000011 0.12000000 241 232 19 97.000000 1.000000 4.000000 1.000000 176.000000 114.000000 227.000000 0.525758 0.489038 0.696003
1.78999996 3.27999997 -0.05000000 241 232 19 97.000000 1.000000 4.000000 1.000000 176.000000 114.000000 227.000000 0.704976 0.189742 0.683379
1.77999997 3.23000002 -0.03000000 241 232 19 97.000000 1.000000 4.000000 1.000000 176.000000 114.000000 227.000000 0.666108 0.209614 0.715795
1.73000002 3.13000011 -0.08000000 241 232 19 97.000000 1.000000 4.000000 1.000000 176.000000 114.000000 227.000000 0.753866 0.355047 0.552835
1.72000003 3.10999990 0.10000000 241 232 19 97.000000 1.000000 4.000000 1.000000 176.000000 114.000000 227.000000 0.532669 0.529309 0.660375
1.72000003 3.06999993 -0.01000000 241 232 19 97.000000 1.000000 4.000000 1.000000 176.000000 114.000000 227.000000 0.626373 0.468520 0.623014
1.69000006 3.00999999 0.13000000 241 232 19 97.000000 1.000000 4.000000 1.000000 176.000000 114.000000 227.000000 0.585837 0.154325 0.795600
1.71000004 3.01999998 0.07000000 241 232 19 97.000000 1.000000 4.000000 1.000000 176.000000 114.000000 227.000000 0.535323 0.175442 0.826226
1.67999995 2.99000001 0.08000000 241 232 19 97.000000 1.000000 4.000000 1.000000 176.000000 114.000000 227.000000 0.830636 0.360941 0.423987
1.65999997 3.02999997 0.03000000 241 232 19 97.000000 1.000000 4.000000 1.000000 176.000000 114.000000 227.000000 0.571954 0.517964 0.636067
1.67999995 3.05999994 -0.12000000 241 232 19 97.000000 1.000000 4.000000 1.000000 176.000000 114.000000 227.000000 0.854663 0.406467 0.323010
1.66999996 3.02999997 -0.06000000 241 232 19 97.000000 1.000000 4.000000 1.000000 176.000000 114.000000 227.000000 0.907896 0.357656 0.218648
1.63000000 3.07999992 0.25999999 241 232 19 97.000000 1.000000 4.000000 1.000000 176.000000 114.000000 227.000000 0.561646 0.642604 0.521167
1.63000000 3.04999995 0.28000000 241 232 19 97.000000 1.000000 4.000000 1.000000 176.000000 114.000000 227.000000 0.491641 0.445601 0.748150
1.63000000 3.01999998 0.27000001 241 232 19 97.000000 1.000000 4.000000 1.000000 176.000000 114.000000 227.000000 0.671618 0.635314 0.381189
1.61000001 2.99000001 0.20999999 241 232 19 97.000000 1.000000 4.000000 1.000000 176.000000 114.000000 227.000000 0.879101 0.142908 0.454707
1.57000005 2.55999994 0.50000000 241 232 19 97.000000 1.000000 4.000000 1.000000 176.000000 114.000000 227.000000 0.812404 0.391039 0.432537
1.55999994 2.33999991 0.52999997 241 232 19 97.000000 1.000000 4.000000 1.000000 176.000000 114.000000 227.000000 0.999544 0.007089 -0.029369
1.64999998 2.92000008 0.18000001 241 232 19 97.000000 1.000000 4.000000 1.000000 176.000000 114.000000 227.000000 0.651115 0.463647 0.600900
1.66999996 2.91000009 0.18000001 241 232 19 97.000000 1.000000 4.000000 1.000000 176.000000 114.000000 227.000000 0.640271 -0.012500 0.768047
1.65999997 2.90000010 0.16000000 241 232 19 97.000000 1.000000 4.000000 1.000000 176.000000 114.000000 227.000000 0.671244 0.359419 0.648267
1.78999996 2.74000001 0.18000001 241 232 19 97.000000 1.000000 4.000000 1.000000 176.000000 114.000000 227.000000 0.805029 0.379308 0.456130
1.69000006 2.76999998 0.25999999 241 232 19 97.000000 1.000000 4.000000 1.000000 176.000000 114.000000 227.000000 0.794096 0.029308 0.607086
1.70000005 2.74000001 0.25999999 241 232 19 97.000000 1.000000 4.000000 1.000000 176.000000 114.000000 227.000000 0.844966 0.132801 0.518070
1.69000006 2.73000002 0.23999999 241 232 19 97.000000 1.000000 4.000000 1.000000 176.000000 114.000000 227.000000 0.836949 0.168583 0.520669
1.64999998 2.67000008 0.20000000 241 232 19 97.000000 1.000000 4.000000 1.000000 176.000000 114.000000 227.000000 0.912546 0.253888 0.320624
1.64999998 2.60999990 0.22000000 241 232 19 97.000000 1.000000 4.000000 1.000000 176.000000 114.000000 227.000000 0.880714 0.103198 0.462269
1.90999997 2.71000004 0.10000000 241 232 19 97.000000 1.000000 4.000000 1.000000 176.000000 114.000000 227.000000 0.853084 0.034343 0.520642
1.88000000 2.72000003 0.11000000 241 232 19 97.000000 1.000000 4.000000 1.000000 176.000000 114.000000 227.000000 0.836281 0.191365 0.513823
1.83000004 2.75000000 -0.03000000 241 232 19 97.000000 1.000000 4.000000 1.000000 176.000000 114.000000 227.000000 0.940731 -0.316269 -0.122470
1.86000001 2.68000007 -0.10000000 241 232 19 97.000000 1.000000 4.000000 1.000000 176.000000 114.000000 227.000000 0.882242 -0.227627 0.412110
1.79999995 2.80999994 0.06000000 241 232 19 97.000000 1.000000 4.000000 1.000000 176.000000 114.000000 227.000000 0.917300 0.213226 0.336296
1.76999998 2.83999991 0.05000000 241 232 19 97.000000 1.000000 4.000000 1.000000 176.000000 114.000000 227.000000 0.906539 0.188204 0.377844
1.69000006 2.60999990 -0.13000000 241 232 19 97.000000 1.000000 4.000000 1.000000 176.000000 114.000000 227.000000 0.761638 -0.624817 -0.171787
1.69000006 2.66000009 -0.12000000 241 232 19 97.000000 1.000000 4.000000 1.000000 176.000000 114.000000 227.000000 0.939695 -0.229025 -0.254009
1.72000003 2.56999993 0.25000000 241 232 19 97.000000 1.000000 4.000000 1.000000 176.000000 114.000000 227.000000 0.896139 0.052874 0.440613
1.71000004 2.52999997 0.25999999 241 232 19 97.000000 1.000000 4.000000 1.000000 176.000000 114.000000 227.000000 0.935015 0.132404 0.328962
1.71000004 2.51999998 0.25999999 241 232 19 97.000000 1.000000 4.000000 1.000000 176.000000 114.000000 227.000000 0.958009 -0.171405 0.229869
1.72000003 2.54999995 0.22000000 241 232 19 97.000000 1.000000 4.000000 1.000000 176.000000 114.000000 227.000000 0.954069 0.145040 0.262136
1.66999996 2.48000002 0.28000000 241 232 19 97.000000 1.000000 4.000000 1.000000 176.000000 114.000000 227.000000 0.895824 -0.430388 0.110751
1.67999995 2.45000005 0.23999999 241 232 19 97.000000 1.000000 4.000000 1.000000 176.000000 114.000000 227.000000 0.972812 0.090929 0.212997
1.66999996 2.39000010 0.28000000 241 232 19 97.000000 1.000000 4.000000 1.000000 176.000000 114.000000 227.000000 0.920487 -0.357267 -0.158318
1.65999997 2.39000010 0.25999999 241 232 19 97.000000 1.000000 4.000000 1.000000 176.000000 114.000000 227.000000 0.990388 0.032749 0.134386
1.48000002 2.77999997 0.34000000 241 232 19 97.000000 1.000000 4.000000 1.000000 176.000000 114.000000 227.000000 0.725631 0.602258 0.332784
1.50999999 2.83999991 0.33000001 241 232 19 97.000000 1.000000 4.000000 1.000000 176.000000 114.000000 227.000000 0.626484 -0.015280 0.779285
1.48000002 2.77999997 0.33000001 241 232 19 97.000000 1.000000 4.000000 1.000000 176.000000 114.000000 227.000000 0.669616 -0.073759 0.739036
1.61000001 2.88000011 0.25000000 241 232 19 97.000000 1.000000 4.000000 1.000000 176.000000 114.000000 227.000000 0.713247 -0.107799 0.692573
1.60000002 2.91000009 0.28999999 241 232 19 97.000000 1.000000 4.000000 1.000000 176.000000 114.000000 227.000000 0.539877 0.054689 0.839965
1.63999999 2.88000011 0.20999999 241 232 19 97.000000 1.000000 4.000000 1.000000 176.000000 114.000000 227.000000 0.561808 0.448446 0.695175
1.62000000 2.92000008 0.22000000 241 232 19 97.000000 1.000000 4.000000 1.000000 176.000000 114.000000 227.000000 0.808331 0.308463 0.501450
1.59000003 2.86999989 0.22000000 241 232 19 97.000000 1.000000 4.000000 1.000000 176.000000 114.000000 227.000000 0.663205 0.340565 0.666464
1.63999999 2.85999990 0.23999999 241 232 19 97.000000 1.000000 4.000000 1.000000 176.000000 114.000000 227.000000 0.640183 0.178762 0.747135
1.55999994 2.77999997 0.30000001 241 232 19 97.000000 1.000000 4.000000 1.000000 176.000000 114.000000 227.000000 0.739701 0.237144 0.629766
1.55999994 2.77999997 0.25000000 241 232 19 97.000000 1.000000 4.000000 1.000000 176.000000 114.000000 227.000000 0.601878 0.500722 0.622109
1.57000005 2.81999993 0.17000000 241 232 19 97.000000 1.000000 4.000000 1.000000 176.000000 114.000000 227.000000 0.538262 0.254309 0.803493
1.54999995 2.78999996 0.27000001 241 232 19 97.000000 1.000000 4.000000 1.000000 176.000000 114.000000 227.000000 0.654144 0.172304 0.736483
1.53999996 2.77999997 0.28000000 241 232 19 97.000000 1.000000 4.000000 1.000000 176.000000 114.000000 227.000000 0.544855 0.226894 0.807250
1.54999995 2.81999993 0.27000001 241 232 19 97.000000 1.000000 4.000000 1.000000 176.000000 114.000000 227.000000 0.566074 0.388868 0.726871
1.48000002 2.76999998 0.34999999 241 232 19 97.000000 1.000000 4.000000 1.000000 176.000000 114.000000 227.000000 0.817774 0.205586 0.537569
1.51999998 2.68000007 0.41000000 241 232 19 97.000000 1.000000 4.000000 1.000000 176.000000 114.000000 227.000000 0.850403 0.433690 0.297873
1.57000005 2.66000009 0.27000001 241 232 19 97.000000 1.000000 4.000000 1.000000 176.000000 114.000000 227.000000 0.705475 0.329222 0.627629
1.50999999 2.76999998 0.31000000 241 232 19 97.000000 1.000000 4.000000 1.000000 176.000000 114.000000 227.000000 0.496300 0.453431 0.740329
1.52999997 2.74000001 0.30000001 241 232 19 97.000000 1.000000 4.000000 1.000000 176.000000 114.000000 227.000000 0.768115 0.211734 0.604292
1.50999999 2.65000010 0.31000000 241 232 19 97.000000 1.000000 4.000000 1.000000 176.000000 114.000000 227.000000 0.884833 0.179299 0.430026
1.47000003 2.78999996 0.34000000 241 232 19 97.000000 1.000000 4.000000 1.000000 176.000000 114.000000 227.000000 0.467437 0.162650 0.868935
1.57000005 2.69000006 0.14000000 241 232 19 97.000000 1.000000 4.000000 1.000000 176.000000 114.000000 227.000000 0.835896 -0.017785 0.548600
1.38999999 2.66000009 0.13000000 241 232 19 97.000000 1.000000 4.000000 1.000000 176.000000 114.000000 227.000000 0.690339 -0.206326 0.693442
1.57000005 2.50000000 0.47000000 241 232 19 97.000000 1.000000 4.000000 1.000000 176.000000 114.000000 227.000000 0.996484 0.016021 0.082239
1.59000003 2.46000004 0.44000000 241 232 19 97.000000 1.000000 4.000000 1.000000 176.000000 114.000000 227.000000 0.950986 -0.018745 0.308664
1.55999994 2.46000004 0.40000001 241 232 19 97.000000 1.000000 4.000000 1.000000 176.000000 114.000000 227.000000 0.925565 0.234590 0.297148
1.58000004 2.45000005 0.34999999 241 232 19 97.000000 1.000000 4.000000 1.000000 176.000000 114.000000 227.000000 0.947132 -0.121222 0.297061
1.54999995 2.52999997 0.49000001 241 232 19 97.000000 1.000000 4.000000 1.000000 176.000000 114.000000 227.000000 0.791869 0.489899 0.364613
1.52999997 2.56999993 0.47999999 241 232 19 97.000000 1.000000 4.000000 1.000000 176.000000 114.000000 227.000000 0.929082 0.003813 0.369854
1.54999995 2.53999996 0.43000001 241 232 19 97.000000 1.000000 4.000000 1.000000 176.000000 114.000000 227.000000 0.820075 0.118407 0.559873
1.54999995 2.53999996 0.43000001 241 232 19 97.000000 1.000000 4.000000 1.000000 176.000000 114.000000 227.000000 0.820075 0.118407 0.559873
1.53999996 2.55999994 0.34999999 241 232 19 97.000000 1.000000 4.000000 1.000000 176.000000 114.000000 227.000000 0.879525 0.319414 0.352718
1.52999997 2.57999992 0.34999999 241 232 19 97.000000 1.000000 4.000000 1.000000 176.000000 114.000000 227.000000 0.806219 0.418336 0.418336
1.52999997 2.46000004 0.44999999 241 232 19 97.000000 1.000000 4.000000 1.000000 176.000000 114.000000 227.000000 0.916739 -0.022232 0.398867
1.55999994 2.59999990 0.31999999 241 232 19 97.000000 1.000000 4.000000 1.000000 176.000000 114.000000 227.000000 0.871620 -0.028467 0.489354
1.58000004 2.58999991 0.23999999 241 232 19 97.000000 1.000000 4.000000 1.000000 176.000000 114.000000 227.000000 0.939594 0.209570 0.270636
1.49000001 2.47000003 0.25000000 241 232 19 97.000000 1.000000 4.000000 1.000000 176.000000 114.000000 227.000000 0.963851 0.030774 0.264659
1.55999994 2.36999989 0.46000001 241 232 19 97.000000 1.000000 4.000000 1.000000 176.000000 114.000000 227.000000 0.970813 0.091444 0.221721
1.55999994 2.39000010 0.44999999 241 232 19 97.000000 1.000000 4.000000 1.000000 176.000000 114.000000 227.000000 0.979891 -0.114341 0.163520
1.61000001 2.32999992 0.41000000 241 232 19 97.000000 1.000000 4.000000 1.000000 176.000000 114.000000 227.000000 0.856989 -0.514193 0.034280
1.61000001 2.28999996 0.41000000 241 232 19 97.000000 1.000000 4.000000 1.000000 176.000000 114.000000 227.000000 0.969985 -0.065657 0.234134
1.61000001 2.26999998 0.41999999 241 232 19 97.000000 1.000000 4.000000 1.000000 176.000000 114.000000 227.000000 0.995622 0.051592 0.077937
1.61000001 2.25999999 0.44000000 241 232 19 97.000000 1.000000 4.000000 1.000000 176.000000 114.000000 227.000000 0.967043 -0.210451 0.143313
1.58000004 2.25999999 0.46000001 241 232 19 97.000000 1.000000 4.000000 1.000000 176.000000 114.000000 227.000000 0.948664 -0.023874 0.315384
1.61000001 2.30999994 0.33000001 241 232 19 97.000000 1.000000 4.000000 1.000000 176.000000 114.000000 227.000000 0.999395 -0.033550 0.009150
1.61000001 2.29999995 0.34000000 241 232 19 97.000000 1.000000 4.000000 1.000000 176.000000 114.000000 227.000000 0.998291 -0.036896 0.045329
1.60000002 2.32999992 0.40000001 241 232 19 97.000000 1.000000 4.000000 1.000000 176.000000 114.000000 227.000000 0.880853 -0.421921 0.214662
1.60000002 2.32999992 0.40000001 241 232 19 97.000000 1.000000 4.000000 1.000000 176.000000 114.000000 227.000000 0.880853 -0.421921 0.214662
1.50000000 2.40000010 0.44999999 241 232 19 97.000000 1.000000 4.000000 1.000000 176.000000 114.000000 227.000000 0.915545 0.222778 0.334885
1.54999995 2.40000010 0.37000000 241 232 19 97.000000 1.000000 4.000000 1.000000 176.000000 114.000000 227.000000 0.958773 0.256977 0.121314
1.45000005 2.53999996 0.25000000 241 232 19 97.000000 1.000000 4.000000 1.000000 176.000000 114.000000 227.000000 0.916671 -0.030249 0.398496
1.40999997 2.59999990 0.31000000 241 232 19 97.000000 1.000000 4.000000 1.000000 176.000000 114.000000 227.000000 0.757849 -0.168580 0.630275
1.38999999 2.53999996 0.23999999 241 232 19 97.000000 1.000000 4.000000 1.000000 176.000000 114.000000 227.000000 0.801968 0.128492 0.583384
1.38000000 2.59999990 0.22000000 241 232 19 97.000000 1.000000 4.000000 1.000000 176.000000 114.000000 227.000000 0.703908 -0.032445 0.709550
1.47000003 2.36999989 0.47999999 241 232 19 97.000000 1.000000 4.000000 1.000000 176.000000 114.000000 227.000000 0.880296 0.285379 0.378995
1.60000002 2.24000001 0.52999997 241 232 19 97.000000 1.000000 4.000000 1.000000 176.000000 114.000000 227.000000 0.995513 -0.086519 0.038331
1.55999994 2.23000002 0.51999998 241 232 19 97.000000 1.000000 4.000000 1.000000 176.000000 114.000000 227.000000 0.925867 0.110449 0.361347
2.00999999 3.64000010 -0.88999999 241 232 19 97.000000 1.000000 4.000000 1.000000 176.000000 114.000000 227.000000 0.945210 0.181404 0.271424
2.58999991 3.30999994 -0.60000002 241 232 19 97.000000 1.000000 4.000000 1.000000 176.000000 114.000000 227.000000 0.962977 -0.205697 -0.174253
2.50999999 3.32999992 -0.60000002 241 232 19 97.000000 1.000000 4.000000 1.000000 176.000000 114.000000 227.000000 0.998061 -0.009386 0.061531
2.51999998 3.18000007 -0.62000000 241 232 19 97.000000 1.000000 4.000000 1.000000 176.000000 114.000000 227.000000 0.977643 -0.102326 -0.183693
2.53999996 3.15000010 -0.58999997 241 232 19 97.000000 1.000000 4.000000 1.000000 176.000000 114.000000 227.000000 0.901442 -0.420858 -0.101395
2.42000008 3.22000003 -0.68000001 241 232 19 97.000000 1.000000 4.000000 1.000000 176.000000 114.000000 227.000000 0.874826 -0.482047 0.048067
2.47000003 3.24000001 -0.67000002 241 232 19 97.000000 1.000000 4.000000 1.000000 176.000000 114.000000 227.000000 0.991423 0.003294 -0.130653
2.42000008 3.22000003 -0.68000001 241 232 19 97.000000 1.000000 4.000000 1.000000 176.000000 114.000000 227.000000 0.874826 -0.482047 0.048067
2.40000010 3.25999999 -0.56999999 241 232 19 97.000000 1.000000 4.000000 1.000000 176.000000 114.000000 227.000000 0.772356 -0.489430 0.404877
2.34999990 3.18000007 -0.56000000 241 232 19 97.000000 1.000000 4.000000 1.000000 176.000000 114.000000 227.000000 0.994299 0.102403 0.029730
2.43000007 3.02999997 -0.63000000 241 232 19 97.000000 1.000000 4.000000 1.000000 176.000000 114.000000 227.000000 0.860852 -0.505976 -0.054063
2.45000005 2.95000005 -0.64999998 241 232 19 97.000000 1.000000 4.000000 1.000000 176.000000 114.000000 227.000000 0.801613 -0.509540 0.312708
2.17000008 3.51999998 -0.44999999 241 232 19 97.000000 1.000000 4.000000 1.000000 176.000000 114.000000 227.000000 0.773786 -0.273752 0.571240
2.18000007 3.47000003 -0.47000000 241 232 19 97.000000 1.000000 4.000000 1.000000 176.000000 114.000000 227.000000 0.860600 -0.273619 0.429536
2.18000007 3.48000002 -0.46000001 241 232 19 97.000000 1.000000 4.000000 1.000000 176.000000 114.000000 227.000000 0.881180 -0.050706 0.470054
2.17000008 3.47000003 -0.50999999 241 232 19 97.000000 1.000000 4.000000 1.000000 176.000000 114.000000 227.000000 0.990558 -0.021266 0.135432
2.20000005 3.44000006 -0.49000001 241 232 19 97.000000 1.000000 4.000000 1.000000 176.000000 114.000000 227.000000 0.958844 -0.038754 0.281277
2.22000003 3.42000008 -0.50000000 241 232 19 97.000000 1.000000 4.000000 1.000000 176.000000 114.000000 227.000000 0.772040 -0.259443 0.580209
2.19000006 3.38000011 -0.47000000 241 232 19 97.000000 1.000000 4.000000 1.000000 176.000000 114.000000 227.000000 0.868152 -0.159576 0.469944
2.32999992 3.47000003 -0.60000002 241 232 19 97.000000 1.000000 4.000000 1.000000 176.000000 114.000000 227.000000 0.927524 -0.257093 0.271297
2.25000000 3.41000009 -0.62000000 241 232 19 97.000000 1.000000 4.000000 1.000000 176.000000 114.000000 227.000000 0.811497 -0.398546 0.427356
2.21000004 3.46000004 -0.67000002 241 232 19 97.000000 1.000000 4.000000 1.000000 176.000000 114.000000 227.000000 0.972825 -0.119868 0.198098
2.16000009 3.40000010 -0.79000002 241 232 19 97.000000 1.000000 4.000000 1.000000 176.000000 114.000000 227.000000 0.961154 -0.191176 0.199087
2.16000009 3.38000011 -0.86000001 241 232 19 97.000000 1.000000 4.000000 1.000000 176.000000 114.000000 227.000000 0.893776 -0.412846 0.175279
2.17000008 3.43000007 -0.81000000 241 232 19 97.000000 1.000000 4.000000 1.000000 176.000000 114.000000 227.000000 0.874602 -0.429078 0.225752
2.13000011 3.48000002 -0.75999999 241 232 19 97.000000 1.000000 4.000000 1.000000 176.000000 114.000000 227.000000 0.954510 -0.297429 -0.021156
1.99000001 3.54999995 -0.88000000 241 232 19 97.000000 1.000000 4.000000 1.000000 176.000000 114.000000 227.000000 0.800911 -0.593107 0.082256
2.11999989 3.31999993 -0.69000000 241 232 19 97.000000 1.000000 4.000000 1.000000 176.000000 114.000000 227.000000 0.901007 -0.430916 -0.049981
2.11999989 3.43000007 -0.79000002 241 232 19 97.000000 1.000000 4.000000 1.000000 176.000000 114.000000 227.000000 -0.741406 0.603693 -0.293039
2.11999989 3.41000009 -0.86000001 241 232 19 97.000000 1.000000 4.000000 1.000000 176.000000 114.000000 227.000000 0.975284 -0.205907 -0.080143
2.08999991 3.38000011 -0.88000000 241 232 19 97.000000 1.000000 4.000000 1.000000 176.000000 114.000000 227.000000 0.844940 -0.534721 0.012246
2.13000011 3.34999990 -0.75999999 241 232 19 97.000000 1.000000 4.000000 1.000000 176.000000 114.000000 227.000000 0.992849 0.064383 0.100527
2.14000010 3.30999994 -0.76999998 241 232 19 97.000000 1.000000 4.000000 1.000000 176.000000 114.000000 227.000000 0.862751 -0.379857 -0.333720
2.11999989 3.35999990 -0.75999999 241 232 19 97.000000 1.000000 4.000000 1.000000 176.000000 114.000000 227.000000 0.952074 -0.206620 -0.225527
2.11999989 3.29999995 -0.80000001 241 232 19 97.000000 1.000000 4.000000 1.000000 176.000000 114.000000 227.000000 0.970397 -0.209301 -0.120507
2.11999989 3.32999992 -0.83999997 241 232 19 97.000000 1.000000 4.000000 1.000000 176.000000 114.000000 227.000000 0.990209 -0.139231 -0.010025
2.17000008 3.26999998 -0.51999998 241 232 19 97.000000 1.000000 4.000000 1.000000 176.000000 114.000000 227.000000 0.938766 0.254510 0.232258
2.16000009 3.19000006 -0.49000001 241 232 19 97.000000 1.000000 4.000000 1.000000 176.000000 114.000000 227.000000 0.923038 -0.073897 0.377545
2.27999997 3.22000003 -0.69999999 241 232 19 97.000000 1.000000 4.000000 1.000000 176.000000 114.000000 227.000000 0.757222 -0.477986 0.445135
2.32999992 3.17000008 -0.63000000 241 232 19 97.000000 1.000000 4.000000 1.000000 176.000000 114.000000 227.000000 0.994570 0.052229 -0.090011
2.18000007 3.21000004 -0.54000002 241 232 19 97.000000 1.000000 4.000000 1.000000 176.000000 114.000000 227.000000 0.946804 -0.189361 0.260201
2.16000009 3.13000011 -0.56999999 241 232 19 97.000000 1.000000 4.000000 1.000000 176.000000 114.000000 227.000000 0.846434 -0.519436 -0.117199
2.19000006 3.17000008 -0.67000002 241 232 19 97.000000 1.000000 4.000000 1.000000 176.000000 114.000000 227.000000 0.965391 -0.253525 0.061196
2.19000006 3.17000008 -0.68000001 241 232 19 97.000000 1.000000 4.000000 1.000000 176.000000 114.000000 227.000000 0.836758 -0.453439 -0.306967
2.25000000 3.25999999 -0.87000000 241 232 19 97.000000 1.000000 4.000000 1.000000 176.000000 114.000000 227.000000 0.720615 -0.665064 0.195970
2.25999999 3.26999998 -0.88000000 241 232 19 97.000000 1.000000 4.000000 1.000000 176.000000 114.000000 227.000000 -0.682525 0.730373 0.026738
2.27999997 2.95000005 -0.77999997 241 232 19 97.000000 1.000000 4.000000 1.000000 176.000000 114.000000 227.000000 0.814678 -0.579542 0.020747
2.15000010 3.16000009 -0.57999998 241 232 19 97.000000 1.000000 4.000000 1.000000 176.000000 114.000000 227.000000 0.992605 -0.096425 0.073736
2.15000010 3.17000008 -0.60000002 241 232 19 97.000000 1.000000 4.000000 1.000000 176.000000 114.000000 227.000000 0.839602 -0.524935 0.139689
2.15000010 3.14000010 -0.67000002 241 232 19 97.000000 1.000000 4.000000 1.000000 176.000000 114.000000 227.000000 0.948305 -0.306536 -0.082178
2.15000010 3.26999998 -0.72000003 241 232 19 97.000000 1.000000 4.000000 1.000000 176.000000 114.000000 227.000000 0.815417 -0.541071 -0.205759
2.11999989 3.26999998 -0.83999997 241 232 19 97.000000 1.000000 4.000000 1.000000 176.000000 114.000000 227.000000 0.865386 -0.436469 -0.246174
2.11999989 3.14000010 -0.86000001 241 232 19 97.000000 1.000000 4.000000 1.000000 176.000000 114.000000 227.000000 0.907136 -0.212678 -0.363144
2.08999991 2.99000001 -0.70999998 241 232 19 97.000000 1.000000 4.000000 1.000000 176.000000 114.000000 227.000000 0.960686 -0.172634 -0.217439
2.15000010 3.08999991 -0.69000000 241 232 19 97.000000 1.000000 4.000000 1.000000 176.000000 114.000000 227.000000 0.989588 -0.142654 0.019095
2.13000011 3.08999991 -0.74000001 241 232 19 97.000000 1.000000 4.000000 1.000000 176.000000 114.000000 227.000000 -0.714041 0.637021 0.290430
2.00000000 3.00000000 -0.81000000 241 232 19 97.000000 1.000000 4.000000 1.000000 176.000000 114.000000 227.000000 -0.568025 0.812940 0.128359
2.44000006 3.50000000 -0.89999998 241 232 19 97.000000 1.000000 4.000000 1.000000 176.000000 114.000000 227.000000 0.942012 -0.323693 -0.088520
2.34999990 3.48000002 -0.89999998 241 232 19 97.000000 1.000000 4.000000 1.000000 176.000000 114.000000 227.000000 0.848599 -0.420421 0.321133
2.36999989 3.29999995 -0.99000001 241 232 19 97.000000 1.000000 4.000000 1.000000 176.000000 114.000000 227.000000 0.790572 -0.592554 -0.154514
2.41000009 3.44000006 -0.92000002 241 232 19 97.000000 1.000000 4.000000 1.000000 176.000000 114.000000 227.000000 0.962250 -0.246698 -0.114953
2.30999994 3.50999999 -0.94000000 241 232 19 97.000000 1.000000 4.000000 1.000000 176.000000 114.000000 227.000000 0.985978 -0.035833 -0.162981
2.31999993 3.32999992 -0.99000001 241 232 19 97.000000 1.000000 4.000000 1.000000 176.000000 114.000000 227.000000 0.760990 -0.640291 0.104507
2.20000005 3.41000009 -1.00999999 241 232 19 97.000000 1.000000 4.000000 1.000000 176.000000 114.000000 227.000000 -0.693261 0.651246 0.308655
2.21000004 3.33999991 -0.99000001 241 232 19 97.000000 1.000000 4.000000 1.000000 176.000000 114.000000 227.000000 0.781248 -0.619511 -0.076536
2.19000006 3.36999989 -0.98000002 241 232 19 97.000000 1.000000 4.000000 1.000000 176.000000 114.000000 227.000000 0.974084 -0.129794 -0.185240
2.22000003 3.24000001 -0.91000003 241 232 19 97.000000 1.000000 4.000000 1.000000 176.000000 114.000000 227.000000 0.797516 -0.500246 -0.337226
2.19000006 3.28999996 -1.00999999 241 232 19 97.000000 1.000000 4.000000 1.000000 176.000000 114.000000 227.000000 -0.666205 0.685469 0.293773
2.07999992 3.14000010 -0.94999999 241 232 19 97.000000 1.000000 4.000000 1.000000 176.000000 114.000000 227.000000 0.597482 -0.674039 -0.434381
2.10999990 3.11999989 -0.94000000 241 232 19 97.000000 1.000000 4.000000 1.000000 176.000000 114.000000 227.000000 -0.544515 0.675199 0.497603
2.09999990 3.11999989 -1.00999999 241 232 19 97.000000 1.000000 4.000000 1.000000 176.000000 114.000000 227.000000 -0.690808 0.714476 0.110943
2.10999990 3.08999991 -0.89999998 241 232 19 97.000000 1.000000 4.000000 1.000000 176.000000 114.000000 227.000000 0.884861 -0.412147 -0.217153
2.04999995 3.09999990 -0.94000000 241 232 19 97.000000 1.000000 4.000000 1.000000 176.000000 114.000000 227.000000 0.707003 -0.691928 -0.146225
2.05999994 3.10999990 -0.94000000 241 232 19 97.000000 1.000000 4.000000 1.000000 176.000000 114.000000 227.000000 -0.490583 0.767656 0.412350
2.06999993 3.09999990 -0.98000002 241 232 19 97.000000 1.000000 4.000000 1.000000 176.000000 114.000000 227.000000 -0.685820 0.589507 0.426770
2.03999996 3.06999993 -1.00999999 241 232 19 97.000000 1.000000 4.000000 1.000000 176.000000 114.000000 227.000000 -0.615485 0.758116 0.215497
2.04999995 3.05999994 -1.03999996 241 232 19 97.000000 1.000000 4.000000 1.000000 176.000000 114.000000 227.000000 -0.575880 0.781886 0.238780
2.03999996 3.01999998 -1.05999994 241 232 19 97.000000 1.000000 4.000000 1.000000 176.000000 114.000000 227.000000 -0.633056 0.716395 0.293289
2.01999998 3.02999997 -1.05999994 241 232 19 97.000000 1.000000 4.000000 1.000000 176.000000 114.000000 227.000000 -0.460451 0.821216 0.337031
2.35999990 2.93000007 -0.55000001 241 232 19 97.000000 1.000000 4.000000 1.000000 176.000000 114.000000 227.000000 0.832011 -0.474324 0.287705
2.39000010 2.86999989 -0.73000002 241 232 19 97.000000 1.000000 4.000000 1.000000 176.000000 114.000000 227.000000 0.723455 -0.689609 -0.032436
2.26999998 2.89000010 -0.52999997 241 232 19 97.000000 1.000000 4.000000 1.000000 176.000000 114.000000 227.000000 0.892592 -0.432815 0.126297
2.25000000 2.85999990 -0.51999998 241 232 19 97.000000 1.000000 4.000000 1.000000 176.000000 114.000000 227.000000 0.916595 -0.398462 0.032876
2.02999997 2.82999992 -0.46000001 241 232 19 97.000000 1.000000 4.000000 1.000000 176.000000 114.000000 227.000000 0.949363 -0.273363 -0.154861
2.03999996 2.71000004 -0.31999999 241 232 19 97.000000 1.000000 4.000000 1.000000 176.000000 114.000000 227.000000 0.953692 -0.300580 0.011133
2.03999996 2.72000003 -0.33000001 241 232 19 97.000000 1.000000 4.000000 1.000000 176.000000 114.000000 227.000000 0.923095 -0.364561 0.122437
1.99000001 2.64000010 -0.25999999 241 232 19 97.000000 1.000000 4.000000 1.000000 176.000000 114.000000 227.000000 0.845045 -0.385816 0.370195
2.02999997 2.66000009 -0.33000001 241 232 19 97.000000 1.000000 4.000000 1.000000 176.000000 114.000000 227.000000 0.963599 -0.258219 0.069278
2.00999999 2.63000011 -0.31999999 241 232 19 97.000000 1.000000 4.000000 1.000000 176.000000 114.000000 227.000000 0.934590 -0.349318 -0.067227
2.07999992 2.75000000 -0.46000001 241 232 19 97.000000 1.000000 4.000000 1.000000 176.000000 114.000000 227.000000 0.938340 -0.345034 0.021644
2.25000000 2.93000007 -0.69999999 241 232 19 97.000000 1.000000 4.000000 1.000000 176.000000 114.000000 227.000000 0.953174 -0.276302 -0.122948
2.21000004 2.91000009 -0.63999999 241 232 19 97.000000 1.000000 4.000000 1.000000 176.000000 114.000000 227.000000 -0.678214 0.734380 0.026679
2.24000001 2.92000008 -0.69000000 241 232 19 97.000000 1.000000 4.000000 1.000000 176.000000 114.000000 227.000000 -0.754500 0.628494 -0.189009
2.16000009 2.88000011 -0.66000003 241 232 19 97.000000 1.000000 4.000000 1.000000 176.000000 114.000000 227.000000 0.807825 -0.568026 0.157369
2.16000009 2.88000011 -0.66000003 241 232 19 97.000000 1.000000 4.000000 1.000000 176.000000 114.000000 227.000000 0.807825 -0.568026 0.157369
2.10999990 2.86999989 -0.70999998 241 232 19 97.000000 1.000000 4.000000 1.000000 176.000000 114.000000 227.000000 0.738915 -0.653947 0.162349
2.01999998 2.94000006 -0.69999999 241 232 19 97.000000 1.000000 4.000000 1.000000 176.000000 114.000000 227.000000 0.799170 -0.550884 0.240527
2.00999999 2.81999993 -0.72000003 241 232 19 97.000000 1.000000 4.000000 1.000000 176.000000 114.000000 227.000000 -0.647854 0.754108 0.107730
2.02999997 2.56999993 -0.34999999 241 232 19 97.000000 1.000000 4.000000 1.000000 176.000000 114.000000 227.000000 0.910116 -0.314085 0.270259
2.00999999 2.51999998 -0.34000000 241 232 19 97.000000 1.000000 4.000000 1.000000 176.000000 114.000000 227.000000 0.851786 -0.492044 0.179871
2.04999995 2.57999992 -0.41000000 241 232 19 97.000000 1.000000 4.000000 1.000000 176.000000 114.000000 227.000000 0.904113 -0.395639 0.161398
2.01999998 2.72000003 -1.00000000 241 232 19 97.000000 1.000000 4.000000 1.000000 176.000000 114.000000 227.000000 -0.519226 0.852314 0.062979
2.05999994 2.70000005 -1.13000000 241 232 19 97.000000 1.000000 4.000000 1.000000 176.000000 114.000000 227.000000 -0.351356 0.917509 0.186347
1.89999998 3.30999994 -0.28000000 241 232 19 97.000000 1.000000 4.000000 1.000000 176.000000 114.000000 227.000000 0.772885 0.318435 0.548860
