//X Y Z R G B PointSourceId ScanDirectionFlag NumberOfReturns ReturnNumber GpsTime Intensity Classification Nx Ny Nz
-1.13000000 11.65999985 0.38999999 222 166 61 0.000000 0.000000 0.000000 0.000000 0.000000 0.000000 34.000000 0.655908 0.703784 0.272896
-1.16999996 11.68999958 0.37000000 222 166 61 0.000000 0.000000 0.000000 0.000000 0.000000 0.000000 34.000000 0.764418 0.239174 0.598716
-1.16999996 11.68999958 0.34999999 222 166 61 0.000000 0.000000 0.000000 0.000000 0.000000 0.000000 34.000000 0.843918 0.031664 0.535537
-1.19000006 11.71000004 0.36000001 222 166 61 0.000000 0.000000 0.000000 0.000000 0.000000 0.000000 34.000000 0.703405 0.344358 0.621803
-1.16999996 11.69999981 0.33000001 222 166 61 0.000000 0.000000 0.000000 0.000000 0.000000 0.000000 34.000000 0.739433 0.542688 0.398408
-1.16999996 11.68999958 0.34999999 222 166 61 0.000000 0.000000 0.000000 0.000000 0.000000 0.000000 34.000000 0.843918 0.031664 0.535537
-1.19000006 11.71000004 0.36000001 222 166 61 0.000000 0.000000 0.000000 0.000000 0.000000 0.000000 34.000000 0.703405 0.344358 0.621803
-1.19000006 11.65999985 0.38000000 222 166 61 0.000000 0.000000 0.000000 0.000000 0.000000 0.000000 34.000000 0.854283 0.245169 0.458359
-1.17999995 11.64000034 0.38999999 222 166 61 0.000000 0.000000 0.000000 0.000000 0.000000 0.000000 34.000000 0.798149 0.601075 0.040822
-1.25999999 11.71000004 0.36000001 222 166 61 0.000000 0.000000 0.000000 0.000000 0.000000 0.000000 34.000000 0.699747 0.475961 0.532743
-1.11000001 11.68000031 0.31000000 222 166 61 0.000000 0.000000 0.000000 0.000000 0.000000 0.000000 152.000000 0.670996 0.286655 0.683808
-1.11000001 11.71000004 0.31000000 222 166 61 0.000000 0.000000 0.000000 0.000000 0.000000 0.000000 152.000000 0.878384 0.020177 0.477529
-1.11000001 11.68000031 0.25999999 222 166 61 0.000000 0.000000 0.000000 0.000000 0.000000 0.000000 152.000000 0.703405 0.621803 0.344358
-1.13000000 11.68999958 0.27000001 222 166 61 0.000000 0.000000 0.000000 0.000000 0.000000 0.000000 152.000000 0.770552 0.611864 0.178524
-1.11000001 11.64999962 0.27000001 222 166 61 0.000000 0.000000 0.000000 0.000000 0.000000 0.000000 152.000000 0.667367 0.580392 0.466655
-1.11000001 11.65999985 0.25999999 222 166 61 0.000000 0.000000 0.000000 0.000000 0.000000 0.000000 152.000000 0.892518 0.169246 0.418052
-1.12000000 11.65999985 0.23999999 222 166 61 0.000000 0.000000 0.000000 0.000000 0.000000 0.000000 152.000000 0.627563 0.482870 0.610738
-1.13000000 11.65999985 0.25000000 222 166 61 0.000000 0.000000 0.000000 0.000000 0.000000 0.000000 152.000000 0.869727 -0.042459 0.491704
-1.14999998 11.68000031 0.28000000 222 166 61 0.000000 0.000000 0.000000 0.000000 0.000000 0.000000 152.000000 0.808661 0.382713 0.446765
-1.15999997 11.67000008 0.25000000 222 166 61 0.000000 0.000000 0.000000 0.000000 0.000000 0.000000 152.000000 0.679518 0.276604 0.679518
-1.13999999 11.68000031 0.22000000 222 166 61 0.000000 0.000000 0.000000 0.000000 0.000000 0.000000 152.000000 0.822055 0.494481 0.282338
-1.27999997 11.67000008 0.40000001 222 166 61 0.000000 0.000000 0.000000 0.000000 0.000000 0.000000 34.000000 0.712559 0.611464 0.344050
-1.28999996 11.63000011 0.38999999 222 166 61 0.000000 0.000000 0.000000 0.000000 0.000000 0.000000 34.000000 0.791089 0.454593 0.409296
-1.41999996 11.63000011 0.20000000 222 166 61 0.000000 0.000000 0.000000 0.000000 0.000000 0.000000 226.000000 0.741758 0.464218 0.484042
-1.42999995 11.64000034 0.18000001 222 166 61 0.000000 0.000000 0.000000 0.000000 0.000000 0.000000 226.000000 0.600509 0.299454 0.741429
-1.41999996 11.65999985 0.17000000 222 166 61 0.000000 0.000000 0.000000 0.000000 0.000000 0.000000 226.000000 0.779888 0.478310 0.403726
-1.44000006 11.64999962 0.19000000 222 166 61 0.000000 0.000000 0.000000 0.000000 0.000000 0.000000 226.000000 0.896743 0.162131 0.411784
-1.42999995 11.65999985 0.15000001 222 166 61 0.000000 0.000000 0.000000 0.000000 0.000000 0.000000 226.000000 0.549406 0.388684 0.739647
-1.44000006 11.61999989 0.22000000 222 166 61 0.000000 0.000000 0.000000 0.000000 0.000000 0.000000 226.000000 0.748225 0.136450 0.649261
-1.36000001 11.72999954 0.03000000 222 166 61 0.000000 0.000000 0.000000 0.000000 0.000000 0.000000 226.000000 0.814355 0.236426 0.530026
-1.36000001 11.72999954 0.03000000 222 166 61 0.000000 0.000000 0.000000 0.000000 0.000000 0.000000 226.000000 0.814355 0.236426 0.530026
-1.35000002 11.72000027 0.03000000 222 166 61 0.000000 0.000000 0.000000 0.000000 0.000000 0.000000 226.000000 0.788730 0.499582 0.358221
-1.35000002 11.72000027 0.05000000 222 166 61 0.000000 0.000000 0.000000 0.000000 0.000000 0.000000 226.000000 0.823510 0.124774 0.553410
-1.33000004 11.72999954 -0.01000000 222 166 61 0.000000 0.000000 0.000000 0.000000 0.000000 0.000000 226.000000 0.830278 0.377974 0.409604
-1.40999997 11.72000027 0.11000000 222 166 61 0.000000 0.000000 0.000000 0.000000 0.000000 0.000000 226.000000 0.584409 0.696986 0.415543
-1.41999996 11.72000027 0.11000000 222 166 61 0.000000 0.000000 0.000000 0.000000 0.000000 0.000000 226.000000 0.510009 0.580704 0.634566
-1.40999997 11.73999977 0.10000000 222 166 61 0.000000 0.000000 0.000000 0.000000 0.000000 0.000000 226.000000 0.676751 0.522257 0.518898
-1.40999997 11.73999977 0.10000000 222 166 61 0.000000 0.000000 0.000000 0.000000 0.000000 0.000000 226.000000 0.676751 0.522257 0.518898
-1.38000000 11.77000046 0.02000000 222 166 61 0.000000 0.000000 0.000000 0.000000 0.000000 0.000000 226.000000 0.483469 0.802590 0.349438
-1.38999999 11.76000023 0.04000000 222 166 61 0.000000 0.000000 0.000000 0.000000 0.000000 0.000000 226.000000 0.668926 0.554923 0.494569
-1.38999999 11.76000023 0.04000000 222 166 61 0.000000 0.000000 0.000000 0.000000 0.000000 0.000000 226.000000 0.668926 0.554923 0.494569
-1.37000000 11.77999973 0.00000000 222 166 61 0.000000 0.000000 0.000000 0.000000 0.000000 0.000000 226.000000 0.609218 0.435633 0.662629
-1.38000000 11.77000046 0.01000000 222 166 61 0.000000 0.000000 0.000000 0.000000 0.000000 0.000000 226.000000 0.393966 0.756872 0.521474
-1.37000000 11.77000046 0.01000000 222 166 61 0.000000 0.000000 0.000000 0.000000 0.000000 0.000000 226.000000 0.575355 0.538235 0.615849
-1.39999998 11.73999977 0.04000000 222 166 61 0.000000 0.000000 0.000000 0.000000 0.000000 0.000000 226.000000 0.801104 0.309337 0.512389
-1.38000000 11.73999977 0.02000000 222 166 61 0.000000 0.000000 0.000000 0.000000 0.000000 0.000000 226.000000 0.687630 0.473478 0.550439
-1.39999998 11.72999954 0.05000000 222 166 61 0.000000 0.000000 0.000000 0.000000 0.000000 0.000000 226.000000 0.644607 0.607773 0.463782
-1.37000000 11.72999954 0.04000000 222 166 61 0.000000 0.000000 0.000000 0.000000 0.000000 0.000000 226.000000 0.702677 0.216568 0.677749
-1.38999999 11.73999977 0.03000000 222 166 61 0.000000 0.000000 0.000000 0.000000 0.000000 0.000000 226.000000 0.622665 0.321845 0.713235
-1.42999995 11.72000027 0.02000000 222 166 61 0.000000 0.000000 0.000000 0.000000 0.000000 0.000000 226.000000 0.443255 0.780973 0.440008
-1.42999995 11.72000027 0.02000000 222 166 61 0.000000 0.000000 0.000000 0.000000 0.000000 0.000000 226.000000 0.443255 0.780973 0.440008
-1.41999996 11.75000000 0.00000000 222 166 61 0.000000 0.000000 0.000000 0.000000 0.000000 0.000000 226.000000 0.621704 0.628407 0.467535
-1.36000001 11.80000019 -0.09000000 222 166 61 0.000000 0.000000 0.000000 0.000000 0.000000 0.000000 226.000000 0.672462 0.420081 0.609366
-1.35000002 11.80000019 -0.10000000 222 166 61 0.000000 0.000000 0.000000 0.000000 0.000000 0.000000 226.000000 0.787063 0.470298 0.399188
-1.30999994 11.86999989 -0.19000000 222 166 61 0.000000 0.000000 0.000000 0.000000 0.000000 0.000000 226.000000 0.728631 0.393099 0.560865
-1.36000001 11.86999989 -0.15000001 222 166 61 0.000000 0.000000 0.000000 0.000000 0.000000 0.000000 226.000000 0.809104 0.229631 0.540944
-1.35000002 11.85999966 -0.19000000 222 166 61 0.000000 0.000000 0.000000 0.000000 0.000000 0.000000 226.000000 0.835820 0.307769 0.454624
-1.36000001 11.80000019 -0.15000001 222 166 61 0.000000 0.000000 0.000000 0.000000 0.000000 0.000000 226.000000 0.546455 0.583674 0.600593
-1.36000001 11.81000042 -0.16000000 222 166 61 0.000000 0.000000 0.000000 0.000000 0.000000 0.000000 226.000000 0.629439 0.301036 0.716369
-1.36000001 11.81000042 -0.16000000 222 166 61 0.000000 0.000000 0.000000 0.000000 0.000000 0.000000 226.000000 0.629439 0.301036 0.716369
-1.36000001 11.81000042 -0.18000001 222 166 61 0.000000 0.000000 0.000000 0.000000 0.000000 0.000000 226.000000 0.457255 0.758814 0.463810
-1.36000001 11.81000042 -0.16000000 222 166 61 0.000000 0.000000 0.000000 0.000000 0.000000 0.000000 226.000000 0.629439 0.301036 0.716369
-1.35000002 11.76000023 -0.03000000 222 166 61 0.000000 0.000000 0.000000 0.000000 0.000000 0.000000 226.000000 0.808021 0.283984 0.516192
-1.36000001 11.76000023 -0.10000000 222 166 61 0.000000 0.000000 0.000000 0.000000 0.000000 0.000000 226.000000 0.538552 0.511708 0.669415
-1.36000001 11.76000023 -0.10000000 222 166 61 0.000000 0.000000 0.000000 0.000000 0.000000 0.000000 226.000000 0.538552 0.511708 0.669415
-1.33000004 11.73999977 -0.06000000 222 166 61 0.000000 0.000000 0.000000 0.000000 0.000000 0.000000 226.000000 0.822212 0.411901 0.392817
-1.35000002 11.75000000 -0.10000000 222 166 61 0.000000 0.000000 0.000000 0.000000 0.000000 0.000000 226.000000 0.688189 0.642635 0.336773
-1.35000002 11.75000000 -0.10000000 222 166 61 0.000000 0.000000 0.000000 0.000000 0.000000 0.000000 226.000000 0.688189 0.642635 0.336773
-1.36000001 11.75000000 -0.09000000 222 166 61 0.000000 0.000000 0.000000 0.000000 0.000000 0.000000 226.000000 0.700928 0.279413 0.656222
-1.35000002 11.75000000 -0.10000000 222 166 61 0.000000 0.000000 0.000000 0.000000 0.000000 0.000000 226.000000 0.688189 0.642635 0.336773
-1.36000001 11.75000000 -0.09000000 222 166 61 0.000000 0.000000 0.000000 0.000000 0.000000 0.000000 226.000000 0.700928 0.279413 0.656222
-1.35000002 11.77000046 -0.16000000 222 166 61 0.000000 0.000000 0.000000 0.000000 0.000000 0.000000 226.000000 0.760475 0.135959 0.634974
-1.35000002 11.77000046 -0.16000000 222 166 61 0.000000 0.000000 0.000000 0.000000 0.000000 0.000000 226.000000 0.760475 0.135959 0.634974
-1.37000000 11.80000019 -0.08000000 222 166 61 0.000000 0.000000 0.000000 0.000000 0.000000 0.000000 226.000000 0.603124 0.295963 0.740707
-1.37000000 11.81000042 -0.10000000 222 166 61 0.000000 0.000000 0.000000 0.000000 0.000000 0.000000 226.000000 0.429093 0.561632 0.707424
-1.42999995 11.85000038 -0.07000000 222 166 61 0.000000 0.000000 0.000000 0.000000 0.000000 0.000000 226.000000 0.400546 0.562083 0.723620
-1.40999997 11.81000042 -0.10000000 222 166 61 0.000000 0.000000 0.000000 0.000000 0.000000 0.000000 226.000000 0.439299 0.659784 0.609674
-1.42999995 11.81000042 -0.09000000 222 166 61 0.000000 0.000000 0.000000 0.000000 0.000000 0.000000 226.000000 0.748806 0.501947 0.432826
-1.37000000 11.85999966 -0.14000000 222 166 61 0.000000 0.000000 0.000000 0.000000 0.000000 0.000000 226.000000 0.613520 0.475688 0.630329
-1.37000000 11.84000015 -0.13000000 222 166 61 0.000000 0.000000 0.000000 0.000000 0.000000 0.000000 226.000000 0.832164 0.274289 0.481942
-1.38999999 11.85000038 -0.16000000 222 166 61 0.000000 0.000000 0.000000 0.000000 0.000000 0.000000 226.000000 0.704238 0.471157 0.531092
-1.37000000 11.81000042 -0.15000001 222 166 61 0.000000 0.000000 0.000000 0.000000 0.000000 0.000000 226.000000 0.591870 0.612105 0.524421
-1.37000000 11.81000042 -0.14000000 222 166 61 0.000000 0.000000 0.000000 0.000000 0.000000 0.000000 226.000000 0.924795 0.229418 0.303515
-1.37000000 11.80000019 -0.14000000 222 166 61 0.000000 0.000000 0.000000 0.000000 0.000000 0.000000 226.000000 0.678824 0.481044 0.554792
-1.37000000 11.80000019 -0.14000000 222 166 61 0.000000 0.000000 0.000000 0.000000 0.000000 0.000000 226.000000 0.678824 0.481044 0.554792
-1.37000000 11.80000019 -0.14000000 222 166 61 0.000000 0.000000 0.000000 0.000000 0.000000 0.000000 226.000000 0.678824 0.481044 0.554792
-1.38000000 11.82999992 -0.17000000 222 166 61 0.000000 0.000000 0.000000 0.000000 0.000000 0.000000 226.000000 0.540824 0.387237 0.746697
-1.37000000 11.77999973 -0.07000000 222 166 61 0.000000 0.000000 0.000000 0.000000 0.000000 0.000000 226.000000 0.674233 0.604313 0.424517
-1.37000000 11.73999977 -0.05000000 222 166 61 0.000000 0.000000 0.000000 0.000000 0.000000 0.000000 226.000000 0.760387 0.302554 0.574693
-1.38000000 11.76000023 -0.12000000 222 166 61 0.000000 0.000000 0.000000 0.000000 0.000000 0.000000 226.000000 0.699638 0.411844 0.583859
-1.40999997 11.77999973 -0.11000000 222 166 61 0.000000 0.000000 0.000000 0.000000 0.000000 0.000000 226.000000 0.765598 0.360948 0.532519
-1.35000002 11.68999958 0.07000000 222 166 61 0.000000 0.000000 0.000000 0.000000 0.000000 0.000000 226.000000 0.833327 0.184683 0.521017
-1.35000002 11.68000031 0.07000000 222 166 61 0.000000 0.000000 0.000000 0.000000 0.000000 0.000000 226.000000 0.838250 0.161716 0.520754
-1.36000001 11.68999958 0.07000000 222 166 61 0.000000 0.000000 0.000000 0.000000 0.000000 0.000000 226.000000 0.746075 0.146201 0.649613
-1.36000001 11.68999958 0.07000000 222 166 61 0.000000 0.000000 0.000000 0.000000 0.000000 0.000000 226.000000 0.746075 0.146201 0.649613
-1.34000003 11.64999962 0.08000000 222 166 61 0.000000 0.000000 0.000000 0.000000 0.000000 0.000000 226.000000 0.782901 0.248466 0.570377
-1.30999994 11.68999958 0.02000000 222 166 61 0.000000 0.000000 0.000000 0.000000 0.000000 0.000000 226.000000 0.695329 0.698386 0.169630
-1.30999994 11.67000008 0.03000000 222 166 61 0.000000 0.000000 0.000000 0.000000 0.000000 0.000000 226.000000 0.767288 0.469534 0.436814
-1.30999994 11.68999958 0.03000000 222 166 61 0.000000 0.000000 0.000000 0.000000 0.000000 0.000000 226.000000 0.717859 0.308115 0.624295
-1.27999997 11.68000031 0.01000000 222 166 61 0.000000 0.000000 0.000000 0.000000 0.000000 0.000000 226.000000 0.665582 0.445389 0.598857
-1.35000002 11.68999958 0.05000000 222 166 61 0.000000 0.000000 0.000000 0.000000 0.000000 0.000000 226.000000 0.687685 0.390843 0.611826
-1.34000003 11.68999958 0.02000000 222 166 61 0.000000 0.000000 0.000000 0.000000 0.000000 0.000000 226.000000 0.676246 0.576061 0.459179
-1.35000002 11.68999958 0.05000000 222 166 61 0.000000 0.000000 0.000000 0.000000 0.000000 0.000000 226.000000 0.687685 0.390843 0.611826
-1.34000003 11.71000004 0.02000000 222 166 61 0.000000 0.000000 0.000000 0.000000 0.000000 0.000000 226.000000 0.851398 0.199711 0.485012
-1.35000002 11.71000004 0.03000000 222 166 61 0.000000 0.000000 0.000000 0.000000 0.000000 0.000000 226.000000 0.724590 0.289516 0.625419
-1.34000003 11.67000008 0.04000000 222 166 61 0.000000 0.000000 0.000000 0.000000 0.000000 0.000000 226.000000 0.815029 0.134606 0.563568
-1.34000003 11.67000008 0.04000000 222 166 61 0.000000 0.000000 0.000000 0.000000 0.000000 0.000000 226.000000 0.815029 0.134606 0.563568
-1.35000002 11.71000004 0.03000000 222 166 61 0.000000 0.000000 0.000000 0.000000 0.000000 0.000000 226.000000 0.724590 0.289516 0.625419
-1.34000003 11.67000008 0.04000000 222 166 61 0.000000 0.000000 0.000000 0.000000 0.000000 0.000000 226.000000 0.815029 0.134606 0.563568
-1.33000004 11.68999958 -0.02000000 222 166 61 0.000000 0.000000 0.000000 0.000000 0.000000 0.000000 226.000000 0.566534 0.702767 0.430300
-1.34000003 11.69999981 -0.02000000 222 166 61 0.000000 0.000000 0.000000 0.000000 0.000000 0.000000 226.000000 0.637827 0.740252 0.212609
-1.38999999 11.71000004 0.09000000 222 166 61 0.000000 0.000000 0.000000 0.000000 0.000000 0.000000 226.000000 0.835783 0.227663 0.499636
-1.39999998 11.69999981 0.08000000 222 166 61 0.000000 0.000000 0.000000 0.000000 0.000000 0.000000 226.000000 0.803840 0.405931 0.434812
-1.39999998 11.68000031 0.10000000 222 166 61 0.000000 0.000000 0.000000 0.000000 0.000000 0.000000 226.000000 0.787656 0.457714 0.412428
-1.39999998 11.68999958 0.08000000 222 166 61 0.000000 0.000000 0.000000 0.000000 0.000000 0.000000 226.000000 0.838057 0.233557 0.493064
-1.39999998 11.69999981 0.08000000 222 166 61 0.000000 0.000000 0.000000 0.000000 0.000000 0.000000 226.000000 0.803840 0.405931 0.434812
-1.39999998 11.68000031 0.08000000 222 166 61 0.000000 0.000000 0.000000 0.000000 0.000000 0.000000 226.000000 0.827142 0.309197 0.469289
-1.39999998 11.64999962 0.11000000 222 166 61 0.000000 0.000000 0.000000 0.000000 0.000000 0.000000 226.000000 0.922844 0.185134 0.337764
-1.41999996 11.68000031 0.12000000 222 166 61 0.000000 0.000000 0.000000 0.000000 0.000000 0.000000 226.000000 0.915014 0.126737 0.382997
-1.40999997 11.68000031 0.10000000 222 166 61 0.000000 0.000000 0.000000 0.000000 0.000000 0.000000 226.000000 0.575760 0.478401 0.663048
-1.40999997 11.71000004 0.08000000 222 166 61 0.000000 0.000000 0.000000 0.000000 0.000000 0.000000 226.000000 0.752366 0.376999 0.540202
-1.44000006 11.67000008 0.07000000 222 166 61 0.000000 0.000000 0.000000 0.000000 0.000000 0.000000 226.000000 0.486122 0.492758 0.721717
-1.40999997 11.65999985 0.12000000 222 166 61 0.000000 0.000000 0.000000 0.000000 0.000000 0.000000 226.000000 0.738257 0.168962 0.653015
-1.40999997 11.63000011 0.14000000 222 166 61 0.000000 0.000000 0.000000 0.000000 0.000000 0.000000 226.000000 0.679803 0.380229 0.627131
-1.38999999 11.67000008 0.05000000 222 166 61 0.000000 0.000000 0.000000 0.000000 0.000000 0.000000 226.000000 0.863703 0.095022 0.494963
-1.39999998 11.68000031 0.06000000 222 166 61 0.000000 0.000000 0.000000 0.000000 0.000000 0.000000 226.000000 0.766108 0.436142 0.472079
-1.37000000 11.69999981 -0.01000000 222 166 61 0.000000 0.000000 0.000000 0.000000 0.000000 0.000000 226.000000 0.725979 0.282414 0.627054
-1.44000006 11.69999981 -0.01000000 222 166 61 0.000000 0.000000 0.000000 0.000000 0.000000 0.000000 226.000000 0.829959 0.255015 0.496121
-1.40999997 11.65999985 0.03000000 222 166 61 0.000000 0.000000 0.000000 0.000000 0.000000 0.000000 226.000000 0.708648 0.196075 0.677770
-1.44000006 11.64000034 0.02000000 222 166 61 0.000000 0.000000 0.000000 0.000000 0.000000 0.000000 226.000000 0.813041 0.205930 0.544570
-1.40999997 11.65999985 0.03000000 222 166 61 0.000000 0.000000 0.000000 0.000000 0.000000 0.000000 226.000000 0.708648 0.196075 0.677770
-1.40999997 11.61999989 0.03000000 222 166 61 0.000000 0.000000 0.000000 0.000000 0.000000 0.000000 226.000000 0.904998 0.052600 0.422152
-1.35000002 11.71000004 -0.05000000 222 166 61 0.000000 0.000000 0.000000 0.000000 0.000000 0.000000 226.000000 0.750171 0.359626 0.554899
-1.36000001 11.69999981 -0.03000000 222 166 61 0.000000 0.000000 0.000000 0.000000 0.000000 0.000000 226.000000 0.547999 0.425486 0.720180
-1.38999999 11.65999985 -0.05000000 222 166 61 0.000000 0.000000 0.000000 0.000000 0.000000 0.000000 226.000000 0.853051 0.303890 0.424212
-1.41999996 11.68999958 -0.10000000 222 166 61 0.000000 0.000000 0.000000 0.000000 0.000000 0.000000 226.000000 0.848598 0.356567 0.390822
-1.45000005 12.10000038 -0.10000000 222 166 61 0.000000 0.000000 0.000000 0.000000 0.000000 0.000000 178.000000 0.652271 0.537660 0.534289
-1.45000005 12.10000038 -0.08000000 222 166 61 0.000000 0.000000 0.000000 0.000000 0.000000 0.000000 178.000000 0.445642 0.655945 0.609211
-1.46000004 12.11999989 -0.10000000 222 166 61 0.000000 0.000000 0.000000 0.000000 0.000000 0.000000 178.000000 0.646641 0.582816 0.492119
-1.49000001 12.06999969 -0.07000000 222 166 61 0.000000 0.000000 0.000000 0.000000 0.000000 0.000000 178.000000 0.485306 0.836574 0.254208
-1.45000005 12.13000011 -0.14000000 222 166 61 0.000000 0.000000 0.000000 0.000000 0.000000 0.000000 178.000000 0.580716 0.580716 0.570558
-1.45000005 12.10999966 -0.11000000 222 166 61 0.000000 0.000000 0.000000 0.000000 0.000000 0.000000 178.000000 0.607012 0.586722 0.535997
-1.45000005 12.13000011 -0.13000000 222 166 61 0.000000 0.000000 0.000000 0.000000 0.000000 0.000000 178.000000 0.371772 0.591232 0.715702
-1.48000002 12.06000042 -0.11000000 222 166 61 0.000000 0.000000 0.000000 0.000000 0.000000 0.000000 178.000000 0.516469 0.734276 0.440566
-1.45000005 12.03999996 0.08000000 222 166 61 0.000000 0.000000 0.000000 0.000000 0.000000 0.000000 178.000000 0.634460 0.737854 0.230286
-1.47000003 12.03999996 0.05000000 222 166 61 0.000000 0.000000 0.000000 0.000000 0.000000 0.000000 178.000000 0.608750 0.665456 0.431963
-1.46000004 12.02000046 0.02000000 222 166 61 0.000000 0.000000 0.000000 0.000000 0.000000 0.000000 178.000000 0.498281 0.679474 0.538546
-1.47000003 12.03999996 0.05000000 222 166 61 0.000000 0.000000 0.000000 0.000000 0.000000 0.000000 178.000000 0.608750 0.665456 0.431963
-1.49000001 12.02999973 0.02000000 222 166 61 0.000000 0.000000 0.000000 0.000000 0.000000 0.000000 178.000000 0.523848 0.755581 0.393294
-1.47000003 12.02999973 0.01000000 222 166 61 0.000000 0.000000 0.000000 0.000000 0.000000 0.000000 178.000000 0.563411 0.560028 0.607402
-1.46000004 12.02999973 0.01000000 222 166 61 0.000000 0.000000 0.000000 0.000000 0.000000 0.000000 178.000000 0.449502 0.629971 0.633313
-1.47000003 12.02999973 0.00000000 222 166 61 0.000000 0.000000 0.000000 0.000000 0.000000 0.000000 178.000000 0.149375 0.948731 0.278563
-1.46000004 12.02000046 0.01000000 222 166 61 0.000000 0.000000 0.000000 0.000000 0.000000 0.000000 178.000000 0.610513 0.542866 0.576689
-1.46000004 11.97999954 -0.01000000 222 166 61 0.000000 0.000000 0.000000 0.000000 0.000000 0.000000 178.000000 0.659958 0.505464 0.555843
-1.47000003 12.05000019 -0.06000000 222 166 61 0.000000 0.000000 0.000000 0.000000 0.000000 0.000000 178.000000 0.312809 0.899882 0.303914
-1.46000004 12.05000019 -0.04000000 222 166 61 0.000000 0.000000 0.000000 0.000000 0.000000 0.000000 178.000000 0.539535 0.751437 0.379794
-1.46000004 11.98999977 -0.03000000 222 166 61 0.000000 0.000000 0.000000 0.000000 0.000000 0.000000 178.000000 0.366895 0.832994 0.414135
-1.45000005 12.00000000 -0.04000000 222 166 61 0.000000 0.000000 0.000000 0.000000 0.000000 0.000000 178.000000 0.531184 0.575027 0.622244
-1.50000000 12.02999973 -0.05000000 222 166 61 0.000000 0.000000 0.000000 0.000000 0.000000 0.000000 178.000000 0.446379 0.600188 0.663717
-1.50000000 12.05000019 -0.08000000 222 166 61 0.000000 0.000000 0.000000 0.000000 0.000000 0.000000 178.000000 0.210635 0.915617 0.342461
-1.50000000 12.01000023 -0.08000000 222 166 61 0.000000 0.000000 0.000000 0.000000 0.000000 0.000000 178.000000 0.015167 0.812147 0.583256
-1.52999997 12.00000000 -0.08000000 222 166 61 0.000000 0.000000 0.000000 0.000000 0.000000 0.000000 178.000000 0.076613 0.949217 0.305152
-1.52999997 11.97000027 -0.19000000 222 166 61 0.000000 0.000000 0.000000 0.000000 0.000000 0.000000 178.000000 -0.034936 0.811913 0.582732
-1.52999997 11.93000031 -0.18000001 222 166 61 0.000000 0.000000 0.000000 0.000000 0.000000 0.000000 178.000000 0.588771 0.767757 0.252779
-1.50999999 11.92000008 -0.17000000 222 166 61 0.000000 0.000000 0.000000 0.000000 0.000000 0.000000 178.000000 0.656299 0.721773 0.219806
-1.57000005 11.97000027 -0.04000000 222 166 61 0.000000 0.000000 0.000000 0.000000 0.000000 0.000000 178.000000 0.244549 0.829004 0.502939
-1.57000005 11.97999954 -0.08000000 222 166 61 0.000000 0.000000 0.000000 0.000000 0.000000 0.000000 178.000000 0.037666 0.931270 0.362377
-1.55999994 11.93999958 -0.06000000 222 166 61 0.000000 0.000000 0.000000 0.000000 0.000000 0.000000 178.000000 0.035039 0.930479 0.364665
-1.55999994 11.94999981 -0.10000000 222 166 61 0.000000 0.000000 0.000000 0.000000 0.000000 0.000000 178.000000 0.253432 0.813160 0.523968
-1.55999994 11.94999981 -0.10000000 222 166 61 0.000000 0.000000 0.000000 0.000000 0.000000 0.000000 178.000000 0.253432 0.813160 0.523968
-1.55999994 11.93000031 -0.15000001 222 166 61 0.000000 0.000000 0.000000 0.000000 0.000000 0.000000 178.000000 0.260148 0.842018 0.472577
-1.53999996 11.93000031 -0.17000000 222 166 61 0.000000 0.000000 0.000000 0.000000 0.000000 0.000000 178.000000 0.353065 0.908090 0.225206
-1.53999996 11.92000008 -0.12000000 222 166 61 0.000000 0.000000 0.000000 0.000000 0.000000 0.000000 178.000000 0.194178 0.841437 0.504260
-1.57000005 11.92000008 -0.17000000 222 166 61 0.000000 0.000000 0.000000 0.000000 0.000000 0.000000 178.000000 0.441898 0.812007 0.381276
-1.59000003 11.93000031 -0.12000000 222 166 61 0.000000 0.000000 0.000000 0.000000 0.000000 0.000000 178.000000 0.067067 0.976746 0.203641
-1.59000003 11.93000031 -0.16000000 222 166 61 0.000000 0.000000 0.000000 0.000000 0.000000 0.000000 178.000000 -0.036901 0.870580 0.490641
-1.60000002 11.90999985 -0.19000000 222 166 61 0.000000 0.000000 0.000000 0.000000 0.000000 0.000000 178.000000 0.524283 0.649033 0.551256
-1.87000000 11.89000034 -0.05000000 222 166 61 0.000000 0.000000 0.000000 0.000000 0.000000 0.000000 226.000000 -0.318739 0.906277 0.277611
-1.87000000 11.94999981 -0.17000000 222 166 61 0.000000 0.000000 0.000000 0.000000 0.000000 0.000000 226.000000 -0.357250 0.905518 0.228931
-1.85000002 11.92000008 -0.15000001 222 166 61 0.000000 0.000000 0.000000 0.000000 0.000000 0.000000 226.000000 0.533616 -0.661550 -0.526883
-1.86000001 11.90999985 -0.15000001 222 166 61 0.000000 0.000000 0.000000 0.000000 0.000000 0.000000 226.000000 -0.485938 0.650720 0.583462
-1.86000001 11.89000034 -0.15000001 222 166 61 0.000000 0.000000 0.000000 0.000000 0.000000 0.000000 226.000000 -0.199743 0.896655 0.395111
-1.86000001 11.89000034 -0.11000000 222 166 61 0.000000 0.000000 0.000000 0.000000 0.000000 0.000000 226.000000 0.488258 -0.656045 -0.575507
-1.84000003 11.92000008 -0.16000000 222 166 61 0.000000 0.000000 0.000000 0.000000 0.000000 0.000000 226.000000 -0.265401 0.726277 0.634102
-1.91999996 11.97999954 -0.12000000 222 166 61 0.000000 0.000000 0.000000 0.000000 0.000000 0.000000 226.000000 -0.084482 0.826201 0.557005
-1.91999996 11.96000004 -0.07000000 222 166 61 0.000000 0.000000 0.000000 0.000000 0.000000 0.000000 226.000000 -0.335760 0.904646 0.262450
-1.90999997 11.92000008 -0.09000000 222 166 61 0.000000 0.000000 0.000000 0.000000 0.000000 0.000000 226.000000 -0.528924 0.792592 0.303377
-1.89999998 11.89000034 -0.07000000 222 166 61 0.000000 0.000000 0.000000 0.000000 0.000000 0.000000 226.000000 -0.219558 0.809140 0.545056
-1.90999997 11.93999958 -0.14000000 222 166 61 0.000000 0.000000 0.000000 0.000000 0.000000 0.000000 226.000000 -0.490126 0.799847 0.346441
-1.90999997 11.92000008 -0.11000000 222 166 61 0.000000 0.000000 0.000000 0.000000 0.000000 0.000000 226.000000 -0.541853 0.669347 0.508301
-1.88999999 11.92000008 -0.17000000 222 166 61 0.000000 0.000000 0.000000 0.000000 0.000000 0.000000 226.000000 -0.172973 0.819740 0.545992
-1.60000002 11.63000011 0.50000000 222 166 61 0.000000 0.000000 0.000000 0.000000 0.000000 0.000000 226.000000 0.225699 0.770491 0.596157
-1.61000001 11.60000038 0.52999997 222 166 61 0.000000 0.000000 0.000000 0.000000 0.000000 0.000000 226.000000 0.583289 0.692967 0.423757
-1.53999996 11.72000027 0.43000001 222 166 61 0.000000 0.000000 0.000000 0.000000 0.000000 0.000000 226.000000 0.655632 0.481244 0.581852
-1.59000003 11.72999954 0.43000001 222 166 61 0.000000 0.000000 0.000000 0.000000 0.000000 0.000000 226.000000 0.245565 0.885524 0.394393
-1.58000004 11.72999954 0.43000001 222 166 61 0.000000 0.000000 0.000000 0.000000 0.000000 0.000000 226.000000 0.149334 0.922520 0.355889
-1.48000002 11.75000000 0.15000001 222 166 61 0.000000 0.000000 0.000000 0.000000 0.000000 0.000000 226.000000 0.548171 0.554918 0.625759
-1.49000001 11.73999977 0.18000001 222 166 61 0.000000 0.000000 0.000000 0.000000 0.000000 0.000000 226.000000 0.501896 0.798254 0.333004
-1.61000001 11.77000046 0.17000000 222 166 61 0.000000 0.000000 0.000000 0.000000 0.000000 0.000000 226.000000 0.270053 0.816404 0.510447
-1.53999996 11.72000027 0.16000000 222 166 61 0.000000 0.000000 0.000000 0.000000 0.000000 0.000000 226.000000 0.384385 0.907377 0.170044
-1.60000002 11.76000023 0.17000000 222 166 61 0.000000 0.000000 0.000000 0.000000 0.000000 0.000000 226.000000 0.384537 0.812156 0.438787
-1.60000002 11.75000000 0.19000000 222 166 61 0.000000 0.000000 0.000000 0.000000 0.000000 0.000000 226.000000 0.568976 0.682438 0.458852
-1.59000003 11.75000000 0.18000001 222 166 61 0.000000 0.000000 0.000000 0.000000 0.000000 0.000000 226.000000 0.325581 0.727293 0.604187
-1.60000002 11.76000023 0.17000000 222 166 61 0.000000 0.000000 0.000000 0.000000 0.000000 0.000000 226.000000 0.384537 0.812156 0.438787
-1.60000002 11.75000000 0.18000001 222 166 61 0.000000 0.000000 0.000000 0.000000 0.000000 0.000000 226.000000 0.424113 0.646981 0.633675
-1.60000002 11.75000000 0.19000000 222 166 61 0.000000 0.000000 0.000000 0.000000 0.000000 0.000000 226.000000 0.568976 0.682438 0.458852
-1.60000002 11.75000000 0.18000001 222 166 61 0.000000 0.000000 0.000000 0.000000 0.000000 0.000000 226.000000 0.424113 0.646981 0.633675
-1.62000000 11.77000046 0.17000000 222 166 61 0.000000 0.000000 0.000000 0.000000 0.000000 0.000000 226.000000 0.177447 0.939504 0.292993
-1.61000001 11.76000023 0.18000001 222 166 61 0.000000 0.000000 0.000000 0.000000 0.000000 0.000000 226.000000 0.265699 0.849316 0.456143
-1.46000004 11.65999985 0.40000001 222 166 61 0.000000 0.000000 0.000000 0.000000 0.000000 0.000000 226.000000 0.528346 0.813436 0.243256
-1.51999998 11.68999958 0.33000001 222 166 61 0.000000 0.000000 0.000000 0.000000 0.000000 0.000000 226.000000 0.532654 0.692951 0.485900
-1.51999998 11.67000008 0.34999999 222 166 61 0.000000 0.000000 0.000000 0.000000 0.000000 0.000000 226.000000 0.652711 0.595662 0.468140
-1.52999997 11.63000011 0.37000000 222 166 61 0.000000 0.000000 0.000000 0.000000 0.000000 0.000000 226.000000 0.542496 0.446273 0.711715
-1.50999999 11.65999985 0.38000000 222 166 61 0.000000 0.000000 0.000000 0.000000 0.000000 0.000000 226.000000 0.566493 0.796775 0.210324
-1.52999997 11.63000011 0.38000000 222 166 61 0.000000 0.000000 0.000000 0.000000 0.000000 0.000000 226.000000 0.506322 0.640892 0.576971
-1.52999997 11.64999962 0.34999999 222 166 61 0.000000 0.000000 0.000000 0.000000 0.000000 0.000000 226.000000 0.705592 0.443278 0.552852
-1.52999997 11.64999962 0.34999999 222 166 61 0.000000 0.000000 0.000000 0.000000 0.000000 0.000000 226.000000 0.705592 0.443278 0.552852
-1.52999997 11.64999962 0.34999999 222 166 61 0.000000 0.000000 0.000000 0.000000 0.000000 0.000000 226.000000 0.705592 0.443278 0.552852
-1.50999999 11.63000011 0.33000001 222 166 61 0.000000 0.000000 0.000000 0.000000 0.000000 0.000000 226.000000 0.753113 0.324145 0.572495
-1.51999998 11.60000038 0.38000000 222 166 61 0.000000 0.000000 0.000000 0.000000 0.000000 0.000000 226.000000 0.723904 0.515181 0.458859
-1.51999998 11.61999989 0.40000001 222 166 61 0.000000 0.000000 0.000000 0.000000 0.000000 0.000000 226.000000 0.590757 0.798915 0.112874
-1.50999999 11.61999989 0.34000000 222 166 61 0.000000 0.000000 0.000000 0.000000 0.000000 0.000000 226.000000 0.570238 0.604080 0.556701
-1.51999998 11.57999992 0.37000000 222 166 61 0.000000 0.000000 0.000000 0.000000 0.000000 0.000000 226.000000 0.665813 0.373184 0.646085
-1.54999995 11.67000008 0.43000001 222 166 61 0.000000 0.000000 0.000000 0.000000 0.000000 0.000000 226.000000 0.503960 0.738591 0.447781
-1.54999995 11.63000011 0.47000000 222 166 61 0.000000 0.000000 0.000000 0.000000 0.000000 0.000000 226.000000 0.306970 0.731263 0.609118
-1.57000005 11.63000011 0.44000000 222 166 61 0.000000 0.000000 0.000000 0.000000 0.000000 0.000000 226.000000 0.613327 0.589673 0.525468
-1.54999995 11.65999985 0.44000000 222 166 61 0.000000 0.000000 0.000000 0.000000 0.000000 0.000000 226.000000 0.325308 0.733157 0.597207
-1.60000002 11.71000004 0.44999999 222 166 61 0.000000 0.000000 0.000000 0.000000 0.000000 0.000000 226.000000 0.230629 0.921083 0.313713
-1.62000000 11.64999962 0.47000000 222 166 61 0.000000 0.000000 0.000000 0.000000 0.000000 0.000000 226.000000 0.282408 0.948945 0.140535
-1.58000004 11.64999962 0.47000000 222 166 61 0.000000 0.000000 0.000000 0.000000 0.000000 0.000000 226.000000 0.520965 0.467703 0.714038
-1.58000004 11.64999962 0.47000000 222 166 61 0.000000 0.000000 0.000000 0.000000 0.000000 0.000000 226.000000 0.520965 0.467703 0.714038
-1.60000002 11.64999962 0.44999999 222 166 61 0.000000 0.000000 0.000000 0.000000 0.000000 0.000000 226.000000 0.442368 0.589268 0.676072
-1.58000004 11.65999985 0.41999999 222 166 61 0.000000 0.000000 0.000000 0.000000 0.000000 0.000000 226.000000 0.282322 0.744883 0.604520
-1.60000002 11.65999985 0.44000000 222 166 61 0.000000 0.000000 0.000000 0.000000 0.000000 0.000000 226.000000 0.353276 0.517815 0.779143
-1.54999995 11.68000031 0.34999999 222 166 61 0.000000 0.000000 0.000000 0.000000 0.000000 0.000000 226.000000 0.572017 0.797773 0.190672
-1.53999996 11.64000034 0.38000000 222 166 61 0.000000 0.000000 0.000000 0.000000 0.000000 0.000000 226.000000 0.481787 0.842745 0.240129
-1.54999995 11.65999985 0.37000000 222 166 61 0.000000 0.000000 0.000000 0.000000 0.000000 0.000000 226.000000 0.657477 0.722758 0.212942
-1.54999995 11.64000034 0.38000000 222 166 61 0.000000 0.000000 0.000000 0.000000 0.000000 0.000000 226.000000 0.771279 0.536192 0.342969
-1.54999995 11.64999962 0.38000000 222 166 61 0.000000 0.000000 0.000000 0.000000 0.000000 0.000000 226.000000 0.783201 0.379489 0.492528
-1.54999995 11.65999985 0.37000000 222 166 61 0.000000 0.000000 0.000000 0.000000 0.000000 0.000000 226.000000 0.657477 0.722758 0.212942
-1.54999995 11.65999985 0.34999999 222 166 61 0.000000 0.000000 0.000000 0.000000 0.000000 0.000000 226.000000 0.596576 0.732382 0.328198
-1.54999995 11.65999985 0.34999999 222 166 61 0.000000 0.000000 0.000000 0.000000 0.000000 0.000000 226.000000 0.596576 0.732382 0.328198
-1.53999996 11.64999962 0.36000001 222 166 61 0.000000 0.000000 0.000000 0.000000 0.000000 0.000000 226.000000 0.530611 0.638417 0.557562
-1.58000004 11.65999985 0.37000000 222 166 61 0.000000 0.000000 0.000000 0.000000 0.000000 0.000000 226.000000 0.543844 0.490296 0.681060
-1.57000005 11.60999966 0.44999999 222 166 61 0.000000 0.000000 0.000000 0.000000 0.000000 0.000000 226.000000 0.591010 0.664677 0.457070
-1.53999996 11.60000038 0.41999999 222 166 61 0.000000 0.000000 0.000000 0.000000 0.000000 0.000000 226.000000 0.690113 0.617643 0.377174
-1.53999996 11.60000038 0.41999999 222 166 61 0.000000 0.000000 0.000000 0.000000 0.000000 0.000000 226.000000 0.690113 0.617643 0.377174
-1.53999996 11.60000038 0.43000001 222 166 61 0.000000 0.000000 0.000000 0.000000 0.000000 0.000000 226.000000 0.732718 0.678231 0.055922
-1.54999995 11.60999966 0.43000001 222 166 61 0.000000 0.000000 0.000000 0.000000 0.000000 0.000000 226.000000 0.781029 0.545607 0.303822
-1.53999996 11.59000015 0.43000001 222 166 61 0.000000 0.000000 0.000000 0.000000 0.000000 0.000000 226.000000 0.559697 0.811786 0.166559
-1.55999994 11.59000015 0.44000000 222 166 61 0.000000 0.000000 0.000000 0.000000 0.000000 0.000000 226.000000 0.693673 0.430842 0.577229
-1.53999996 11.60000038 0.41999999 222 166 61 0.000000 0.000000 0.000000 0.000000 0.000000 0.000000 226.000000 0.690113 0.617643 0.377174
-1.59000003 11.59000015 0.46000001 222 166 61 0.000000 0.000000 0.000000 0.000000 0.000000 0.000000 226.000000 0.810234 0.564617 0.157254
-1.61000001 11.60999966 0.47999999 222 166 61 0.000000 0.000000 0.000000 0.000000 0.000000 0.000000 226.000000 0.550899 0.537422 0.638504
-1.61000001 11.60999966 0.47999999 222 166 61 0.000000 0.000000 0.000000 0.000000 0.000000 0.000000 226.000000 0.550899 0.537422 0.638504
-1.54999995 11.60999966 0.40000001 222 166 61 0.000000 0.000000 0.000000 0.000000 0.000000 0.000000 226.000000 0.730715 0.458975 0.505369
-1.53999996 11.56000042 0.38999999 222 166 61 0.000000 0.000000 0.000000 0.000000 0.000000 0.000000 226.000000 0.704621 0.544707 0.454756
-1.53999996 11.56000042 0.38999999 222 166 61 0.000000 0.000000 0.000000 0.000000 0.000000 0.000000 226.000000 0.704621 0.544707 0.454756
-1.61000001 11.60999966 0.34000000 222 166 61 0.000000 0.000000 0.000000 0.000000 0.000000 0.000000 226.000000 0.530089 0.496645 0.687277
-1.60000002 11.60000038 0.34000000 222 166 61 0.000000 0.000000 0.000000 0.000000 0.000000 0.000000 226.000000 0.593852 0.733011 0.331716
-1.59000003 11.56999969 0.37000000 222 166 61 0.000000 0.000000 0.000000 0.000000 0.000000 0.000000 226.000000 0.763139 0.578328 0.288368
-1.58000004 11.55000019 0.37000000 222 166 61 0.000000 0.000000 0.000000 0.000000 0.000000 0.000000 226.000000 0.882610 0.431791 0.185890
-1.58000004 11.56999969 0.36000001 222 166 61 0.000000 0.000000 0.000000 0.000000 0.000000 0.000000 226.000000 0.787628 0.605075 0.116304
-1.49000001 11.68000031 0.30000001 222 166 61 0.000000 0.000000 0.000000 0.000000 0.000000 0.000000 226.000000 0.431382 0.826420 0.361855
-1.49000001 11.68000031 0.25999999 222 166 61 0.000000 0.000000 0.000000 0.000000 0.000000 0.000000 226.000000 0.402316 0.650660 0.644037
-1.49000001 11.68000031 0.25999999 222 166 61 0.000000 0.000000 0.000000 0.000000 0.000000 0.000000 226.000000 0.402316 0.650660 0.644037
-1.48000002 11.64999962 0.28000000 222 166 61 0.000000 0.000000 0.000000 0.000000 0.000000 0.000000 226.000000 0.498492 0.840922 0.210609
-1.48000002 11.63000011 0.30000001 222 166 61 0.000000 0.000000 0.000000 0.000000 0.000000 0.000000 226.000000 0.679600 0.569395 0.462529
-1.48000002 11.64999962 0.28999999 222 166 61 0.000000 0.000000 0.000000 0.000000 0.000000 0.000000 226.000000 0.505807 0.542776 0.670488
-1.48000002 11.64999962 0.28999999 222 166 61 0.000000 0.000000 0.000000 0.000000 0.000000 0.000000 226.000000 0.505807 0.542776 0.670488
-1.48000002 11.64999962 0.28000000 222 166 61 0.000000 0.000000 0.000000 0.000000 0.000000 0.000000 226.000000 0.498492 0.840922 0.210609
-1.46000004 11.63000011 0.25999999 222 166 61 0.000000 0.000000 0.000000 0.000000 0.000000 0.000000 226.000000 0.595421 0.478014 0.645738
-1.49000001 11.65999985 0.25000000 222 166 61 0.000000 0.000000 0.000000 0.000000 0.000000 0.000000 226.000000 0.582974 0.616770 0.528901
-1.48000002 11.65999985 0.23999999 222 166 61 0.000000 0.000000 0.000000 0.000000 0.000000 0.000000 226.000000 0.535954 0.610345 0.583294
-1.49000001 11.64999962 0.25000000 222 166 61 0.000000 0.000000 0.000000 0.000000 0.000000 0.000000 226.000000 0.430015 0.692341 0.579441
-1.46000004 11.65999985 0.23999999 222 166 61 0.000000 0.000000 0.000000 0.000000 0.000000 0.000000 226.000000 0.523576 0.769965 0.364720
-1.48000002 11.65999985 0.27000001 222 166 61 0.000000 0.000000 0.000000 0.000000 0.000000 0.000000 226.000000 0.785663 0.429280 0.445479
-1.47000003 11.64000034 0.23999999 222 166 61 0.000000 0.000000 0.000000 0.000000 0.000000 0.000000 226.000000 0.809456 0.335551 0.481857
-1.50000000 11.67000008 0.31999999 222 166 61 0.000000 0.000000 0.000000 0.000000 0.000000 0.000000 226.000000 0.888934 0.331289 0.316298
-1.50999999 11.68000031 0.31999999 222 166 61 0.000000 0.000000 0.000000 0.000000 0.000000 0.000000 226.000000 0.650360 0.569695 0.502474
-1.50000000 11.68000031 0.31999999 222 166 61 0.000000 0.000000 0.000000 0.000000 0.000000 0.000000 226.000000 0.731295 0.437456 0.523297
-1.52999997 11.67000008 0.31000000 222 166 61 0.000000 0.000000 0.000000 0.000000 0.000000 0.000000 226.000000 0.466423 0.725362 0.506260
-1.50999999 11.69999981 0.31000000 222 166 61 0.000000 0.000000 0.000000 0.000000 0.000000 0.000000 226.000000 0.479111 0.485742 0.731100
-1.51999998 11.68999958 0.31999999 222 166 61 0.000000 0.000000 0.000000 0.000000 0.000000 0.000000 226.000000 0.483136 0.746965 0.456753
-1.50999999 11.68000031 0.31999999 222 166 61 0.000000 0.000000 0.000000 0.000000 0.000000 0.000000 226.000000 0.650360 0.569695 0.502474
-1.52999997 11.67000008 0.30000001 222 166 61 0.000000 0.000000 0.000000 0.000000 0.000000 0.000000 226.000000 0.549947 0.683672 0.479741
-1.50999999 11.68000031 0.31999999 222 166 61 0.000000 0.000000 0.000000 0.000000 0.000000 0.000000 226.000000 0.650360 0.569695 0.502474
-1.50000000 11.68000031 0.31000000 222 166 61 0.000000 0.000000 0.000000 0.000000 0.000000 0.000000 226.000000 0.504231 0.773370 0.384253
-1.51999998 11.68000031 0.27000001 222 166 61 0.000000 0.000000 0.000000 0.000000 0.000000 0.000000 226.000000 0.312360 0.661945 0.681366
-1.51999998 11.68000031 0.27000001 222 166 61 0.000000 0.000000 0.000000 0.000000 0.000000 0.000000 226.000000 0.312360 0.661945 0.681366
-1.50000000 11.68000031 0.27000001 222 166 61 0.000000 0.000000 0.000000 0.000000 0.000000 0.000000 226.000000 0.418874 0.875282 0.241716
-1.51999998 11.64999962 0.31000000 222 166 61 0.000000 0.000000 0.000000 0.000000 0.000000 0.000000 226.000000 0.694041 0.405823 0.594655
-1.50999999 11.64000034 0.31999999 222 166 61 0.000000 0.000000 0.000000 0.000000 0.000000 0.000000 226.000000 0.854319 0.361264 0.373668
-1.49000001 11.68999958 0.22000000 222 166 61 0.000000 0.000000 0.000000 0.000000 0.000000 0.000000 226.000000 0.851056 0.245116 0.464351
-1.45000005 11.67000008 0.23000000 222 166 61 0.000000 0.000000 0.000000 0.000000 0.000000 0.000000 226.000000 0.745695 0.292210 0.598792
-1.49000001 11.68000031 0.23000000 222 166 61 0.000000 0.000000 0.000000 0.000000 0.000000 0.000000 226.000000 0.501191 0.528010 0.685575
-1.47000003 11.69999981 0.20999999 222 166 61 0.000000 0.000000 0.000000 0.000000 0.000000 0.000000 226.000000 0.813721 0.331516 0.477446
-1.47000003 11.67000008 0.16000000 222 166 61 0.000000 0.000000 0.000000 0.000000 0.000000 0.000000 226.000000 0.537319 0.681274 0.497146
-1.45000005 11.68999958 0.17000000 222 166 61 0.000000 0.000000 0.000000 0.000000 0.000000 0.000000 226.000000 0.425633 0.817789 0.387374
-1.45000005 11.64000034 0.22000000 222 166 61 0.000000 0.000000 0.000000 0.000000 0.000000 0.000000 226.000000 0.793706 0.481375 0.371899
-1.45000005 11.63000011 0.23000000 222 166 61 0.000000 0.000000 0.000000 0.000000 0.000000 0.000000 226.000000 0.678520 0.510984 0.527737
-1.45000005 11.64000034 0.22000000 222 166 61 0.000000 0.000000 0.000000 0.000000 0.000000 0.000000 226.000000 0.793706 0.481375 0.371899
-1.50000000 11.67000008 0.20999999 222 166 61 0.000000 0.000000 0.000000 0.000000 0.000000 0.000000 226.000000 0.343470 0.616944 0.708102
-1.50000000 11.67000008 0.15000001 222 166 61 0.000000 0.000000 0.000000 0.000000 0.000000 0.000000 226.000000 0.770808 0.211625 0.600891
-1.48000002 11.59000015 0.31000000 222 166 61 0.000000 0.000000 0.000000 0.000000 0.000000 0.000000 226.000000 0.547608 0.684929 0.480622
-1.48000002 11.60000038 0.30000001 222 166 61 0.000000 0.000000 0.000000 0.000000 0.000000 0.000000 226.000000 0.595808 0.391154 0.701436
-1.45000005 11.61999989 0.25999999 222 166 61 0.000000 0.000000 0.000000 0.000000 0.000000 0.000000 226.000000 0.650450 0.746591 0.139704
-1.46000004 11.60999966 0.23999999 222 166 61 0.000000 0.000000 0.000000 0.000000 0.000000 0.000000 226.000000 0.484495 0.790322 0.375041
-1.50999999 11.60000038 0.25000000 222 166 61 0.000000 0.000000 0.000000 0.000000 0.000000 0.000000 226.000000 0.658324 0.746297 0.098236
-1.50999999 11.60999966 0.22000000 222 166 61 0.000000 0.000000 0.000000 0.000000 0.000000 0.000000 226.000000 0.667587 0.738014 0.098304
-1.55999994 11.68999958 0.30000001 222 166 61 0.000000 0.000000 0.000000 0.000000 0.000000 0.000000 226.000000 0.211623 0.924609 0.316725
-1.54999995 11.65999985 0.23999999 222 166 61 0.000000 0.000000 0.000000 0.000000 0.000000 0.000000 226.000000 0.422400 0.889798 0.172734
-1.54999995 11.69999981 0.20999999 222 166 61 0.000000 0.000000 0.000000 0.000000 0.000000 0.000000 226.000000 0.431876 0.668658 0.605293
-1.53999996 11.68000031 0.22000000 222 166 61 0.000000 0.000000 0.000000 0.000000 0.000000 0.000000 226.000000 0.411042 0.857493 0.309436
-1.54999995 11.68000031 0.23000000 222 166 61 0.000000 0.000000 0.000000 0.000000 0.000000 0.000000 226.000000 0.846313 0.347565 0.403674
-1.53999996 11.69999981 0.20999999 222 166 61 0.000000 0.000000 0.000000 0.000000 0.000000 0.000000 226.000000 0.540791 0.655351 0.527314
-1.55999994 11.64000034 0.20999999 222 166 61 0.000000 0.000000 0.000000 0.000000 0.000000 0.000000 226.000000 0.626844 0.562639 0.538984
-1.60000002 11.68000031 0.19000000 222 166 61 0.000000 0.000000 0.000000 0.000000 0.000000 0.000000 226.000000 0.259798 0.933868 0.245755
-1.61000001 11.63000011 0.15000001 222 166 61 0.000000 0.000000 0.000000 0.000000 0.000000 0.000000 226.000000 0.666405 0.515331 0.538831
-1.58000004 11.65999985 0.17000000 222 166 61 0.000000 0.000000 0.000000 0.000000 0.000000 0.000000 226.000000 0.435245 0.595335 0.675380
-1.53999996 11.60000038 0.31000000 222 166 61 0.000000 0.000000 0.000000 0.000000 0.000000 0.000000 226.000000 0.814451 0.451056 0.364989
-1.61000001 11.53999996 0.31000000 222 166 61 0.000000 0.000000 0.000000 0.000000 0.000000 0.000000 226.000000 0.717931 0.596913 0.358148
-1.60000002 11.53999996 0.30000001 222 166 61 0.000000 0.000000 0.000000 0.000000 0.000000 0.000000 226.000000 0.780854 0.602632 0.164629
-1.62000000 11.56999969 0.27000001 222 166 61 0.000000 0.000000 0.000000 0.000000 0.000000 0.000000 226.000000 0.794827 0.414342 0.443362
-1.60000002 11.53999996 0.27000001 222 166 61 0.000000 0.000000 0.000000 0.000000 0.000000 0.000000 226.000000 0.609218 0.435633 0.662629
-1.54999995 11.60999966 0.20999999 222 166 61 0.000000 0.000000 0.000000 0.000000 0.000000 0.000000 226.000000 0.389797 0.567426 0.725318
-1.61000001 11.61999989 0.15000001 222 166 61 0.000000 0.000000 0.000000 0.000000 0.000000 0.000000 226.000000 0.406073 0.687838 0.601651
-1.61000001 11.60000038 0.17000000 222 166 61 0.000000 0.000000 0.000000 0.000000 0.000000 0.000000 226.000000 0.605293 0.431876 0.668658
-1.60000002 11.59000015 0.17000000 222 166 61 0.000000 0.000000 0.000000 0.000000 0.000000 0.000000 226.000000 0.716210 0.375314 0.588374
-1.62000000 11.56999969 0.20999999 222 166 61 0.000000 0.000000 0.000000 0.000000 0.000000 0.000000 226.000000 0.770877 0.360389 0.525231
-1.60000002 11.53999996 0.20999999 222 166 61 0.000000 0.000000 0.000000 0.000000 0.000000 0.000000 226.000000 0.650488 0.456512 0.607011
-1.62000000 11.57999992 0.20000000 222 166 61 0.000000 0.000000 0.000000 0.000000 0.000000 0.000000 226.000000 0.470451 0.744469 0.473753
-1.58000004 11.57999992 0.22000000 222 166 61 0.000000 0.000000 0.000000 0.000000 0.000000 0.000000 226.000000 0.715672 0.303959 0.628826
-1.64999998 11.68999958 0.40000001 222 166 61 0.000000 0.000000 0.000000 0.000000 0.000000 0.000000 226.000000 0.092485 0.934230 0.344472
-1.63000000 11.64999962 0.38999999 222 166 61 0.000000 0.000000 0.000000 0.000000 0.000000 0.000000 226.000000 0.192884 0.729873 0.655806
-1.63000000 11.63000011 0.34999999 222 166 61 0.000000 0.000000 0.000000 0.000000 0.000000 0.000000 226.000000 0.412521 0.601387 0.684222
-1.65999997 11.60000038 0.47999999 222 166 61 0.000000 0.000000 0.000000 0.000000 0.000000 0.000000 226.000000 0.212221 0.939044 0.270478
-1.66999996 11.59000015 0.49000001 222 166 61 0.000000 0.000000 0.000000 0.000000 0.000000 0.000000 226.000000 0.446185 0.817742 0.363617
-1.63000000 11.61999989 0.47999999 222 166 61 0.000000 0.000000 0.000000 0.000000 0.000000 0.000000 226.000000 0.440744 0.893924 0.081517
-1.64999998 11.59000015 0.36000001 222 166 61 0.000000 0.000000 0.000000 0.000000 0.000000 0.000000 226.000000 0.440765 0.573826 0.690254
-1.64999998 11.59000015 0.36000001 222 166 61 0.000000 0.000000 0.000000 0.000000 0.000000 0.000000 226.000000 0.440765 0.573826 0.690254
-1.66999996 11.60999966 0.33000001 222 166 61 0.000000 0.000000 0.000000 0.000000 0.000000 0.000000 226.000000 0.213144 0.679882 0.701663
-1.70000005 11.59000015 0.33000001 222 166 61 0.000000 0.000000 0.000000 0.000000 0.000000 0.000000 226.000000 0.370545 0.865631 0.336720
-1.69000006 11.60000038 0.36000001 222 166 61 0.000000 0.000000 0.000000 0.000000 0.000000 0.000000 226.000000 0.497900 0.501230 0.707717
-1.69000006 11.56999969 0.34000000 222 166 61 0.000000 0.000000 0.000000 0.000000 0.000000 0.000000 226.000000 0.515651 0.705892 0.485613
-1.67999995 11.56999969 0.34999999 222 166 61 0.000000 0.000000 0.000000 0.000000 0.000000 0.000000 226.000000 0.355769 0.673829 0.647598
