//X Y Z R G B PointSourceId ScanDirectionFlag NumberOfReturns ReturnNumber GpsTime Intensity Classification Nx Ny Nz
-2.24000001 12.89999962 -1.32000005 240 225 23 0.000000 0.000000 0.000000 0.000000 0.000000 0.000000 159.000000 0.219771 0.080707 0.972207
-2.23000002 12.89000034 -1.32000005 240 225 23 0.000000 0.000000 0.000000 0.000000 0.000000 0.000000 159.000000 0.222749 -0.164755 0.960853
-2.25999999 12.89000034 -1.32000005 240 225 23 0.000000 0.000000 0.000000 0.000000 0.000000 0.000000 159.000000 0.316141 0.516311 0.795913
-2.23000002 12.86999989 -1.32000005 240 225 23 0.000000 0.000000 0.000000 0.000000 0.000000 0.000000 159.000000 0.456773 0.300878 0.837157
-2.25999999 12.82999992 -1.33000004 240 225 23 0.000000 0.000000 0.000000 0.000000 0.000000 0.000000 159.000000 0.336312 -0.321231 0.885271
-2.28999996 12.88000011 -1.36000001 240 225 23 0.000000 0.000000 0.000000 0.000000 0.000000 0.000000 159.000000 0.400789 0.068822 0.913582
-2.23000002 12.81000042 -1.29999995 240 225 23 0.000000 0.000000 0.000000 0.000000 0.000000 0.000000 159.000000 0.485012 0.199711 0.851398
-2.25999999 12.81999969 -1.29999995 240 225 23 0.000000 0.000000 0.000000 0.000000 0.000000 0.000000 159.000000 0.243432 0.286139 0.926750
-2.25000000 12.80000019 -1.29999995 240 225 23 0.000000 0.000000 0.000000 0.000000 0.000000 0.000000 159.000000 0.062415 0.156626 0.985684
-2.24000001 12.81000042 -1.28999996 240 225 23 0.000000 0.000000 0.000000 0.000000 0.000000 0.000000 159.000000 0.419001 -0.075065 0.904878
-2.25000000 12.80000019 -1.29999995 240 225 23 0.000000 0.000000 0.000000 0.000000 0.000000 0.000000 159.000000 0.062415 0.156626 0.985684
-2.23000002 12.81000042 -1.29999995 240 225 23 0.000000 0.000000 0.000000 0.000000 0.000000 0.000000 159.000000 0.485012 0.199711 0.851398
-2.25999999 12.80000019 -1.29999995 240 225 23 0.000000 0.000000 0.000000 0.000000 0.000000 0.000000 159.000000 0.467796 0.191574 0.862824
-2.25999999 12.75000000 -1.29999995 240 225 23 0.000000 0.000000 0.000000 0.000000 0.000000 0.000000 159.000000 0.224810 -0.044962 0.973365
-2.25999999 12.77999973 -1.29999995 240 225 23 0.000000 0.000000 0.000000 0.000000 0.000000 0.000000 159.000000 0.332686 -0.347877 0.876528
-2.25999999 12.77999973 -1.29999995 240 225 23 0.000000 0.000000 0.000000 0.000000 0.000000 0.000000 159.000000 0.332686 -0.347877 0.876528
-2.25000000 12.77000046 -1.30999994 240 225 23 0.000000 0.000000 0.000000 0.000000 0.000000 0.000000 159.000000 -0.055434 -0.112000 0.992161
-2.25000000 12.76000023 -1.30999994 240 225 23 0.000000 0.000000 0.000000 0.000000 0.000000 0.000000 159.000000 0.205630 -0.134106 0.969398
-2.25999999 12.77999973 -1.30999994 240 225 23 0.000000 0.000000 0.000000 0.000000 0.000000 0.000000 159.000000 0.156316 -0.367554 0.916771
-2.27999997 12.81000042 -1.28999996 240 225 23 0.000000 0.000000 0.000000 0.000000 0.000000 0.000000 159.000000 0.216487 0.399102 0.890983
-2.27999997 12.80000019 -1.26999998 240 225 23 0.000000 0.000000 0.000000 0.000000 0.000000 0.000000 159.000000 0.371209 -0.085041 0.924647
-2.26999998 12.81999969 -1.26999998 240 225 23 0.000000 0.000000 0.000000 0.000000 0.000000 0.000000 159.000000 -0.060937 0.037417 0.997440
-2.26999998 12.77000046 -1.30999994 240 225 23 0.000000 0.000000 0.000000 0.000000 0.000000 0.000000 159.000000 0.256793 -0.288354 0.922447
-2.28999996 12.80000019 -1.32000005 240 225 23 0.000000 0.000000 0.000000 0.000000 0.000000 0.000000 159.000000 0.159193 0.292534 0.942911
-2.31999993 12.89000034 -1.24000001 240 225 23 0.000000 0.000000 0.000000 0.000000 0.000000 0.000000 159.000000 -0.028223 0.458289 0.888355
-2.32999992 12.89000034 -1.29999995 240 225 23 0.000000 0.000000 0.000000 0.000000 0.000000 0.000000 159.000000 0.076532 -0.065440 0.994917
-2.31999993 12.89000034 -1.29999995 240 225 23 0.000000 0.000000 0.000000 0.000000 0.000000 0.000000 159.000000 -0.015284 0.212795 0.976977
-2.30999994 12.88000011 -1.29999995 240 225 23 0.000000 0.000000 0.000000 0.000000 0.000000 0.000000 159.000000 0.411986 -0.172022 0.894805
-2.33999991 12.85999966 -1.24000001 240 225 23 0.000000 0.000000 0.000000 0.000000 0.000000 0.000000 159.000000 0.405986 0.383870 0.829349
-2.32999992 12.85000038 -1.24000001 240 225 23 0.000000 0.000000 0.000000 0.000000 0.000000 0.000000 159.000000 0.407162 0.285166 0.867698
-2.33999991 12.85000038 -1.23000002 240 225 23 0.000000 0.000000 0.000000 0.000000 0.000000 0.000000 159.000000 0.170549 0.391259 0.904339
-2.34999990 12.82999992 -1.25000000 240 225 23 0.000000 0.000000 0.000000 0.000000 0.000000 0.000000 159.000000 0.114192 -0.133425 0.984458
-2.33999991 12.84000015 -1.25999999 240 225 23 0.000000 0.000000 0.000000 0.000000 0.000000 0.000000 159.000000 0.359716 0.387746 0.848680
-2.34999990 12.85000038 -1.23000002 240 225 23 0.000000 0.000000 0.000000 0.000000 0.000000 0.000000 159.000000 0.486878 0.411974 0.770212
-2.31999993 12.86999989 -1.26999998 240 225 23 0.000000 0.000000 0.000000 0.000000 0.000000 0.000000 159.000000 0.149918 0.016908 0.988554
-2.31999993 12.82999992 -1.26999998 240 225 23 0.000000 0.000000 0.000000 0.000000 0.000000 0.000000 159.000000 0.097348 -0.113768 0.988727
-2.30999994 12.82999992 -1.26999998 240 225 23 0.000000 0.000000 0.000000 0.000000 0.000000 0.000000 159.000000 0.270992 -0.276727 0.921946
-2.31999993 12.82999992 -1.26999998 240 225 23 0.000000 0.000000 0.000000 0.000000 0.000000 0.000000 159.000000 0.097348 -0.113768 0.988727
-2.30999994 12.82999992 -1.26999998 240 225 23 0.000000 0.000000 0.000000 0.000000 0.000000 0.000000 159.000000 0.270992 -0.276727 0.921946
-2.38000011 12.86999989 -1.25999999 240 225 23 0.000000 0.000000 0.000000 0.000000 0.000000 0.000000 159.000000 0.025703 0.482953 0.875269
-2.36999989 12.82999992 -1.26999998 240 225 23 0.000000 0.000000 0.000000 0.000000 0.000000 0.000000 159.000000 0.543994 0.149709 0.825626
-2.35999990 12.85999966 -1.26999998 240 225 23 0.000000 0.000000 0.000000 0.000000 0.000000 0.000000 159.000000 -0.146316 0.110039 0.983099
-2.35999990 12.85999966 -1.26999998 240 225 23 0.000000 0.000000 0.000000 0.000000 0.000000 0.000000 159.000000 -0.146316 0.110039 0.983099
-2.34999990 12.88000011 -1.34000003 240 225 23 0.000000 0.000000 0.000000 0.000000 0.000000 0.000000 159.000000 0.427669 -0.049917 0.902556
-2.31999993 12.89999962 -1.33000004 240 225 23 0.000000 0.000000 0.000000 0.000000 0.000000 0.000000 159.000000 0.191380 -0.097542 0.976657
-2.34999990 12.85000038 -1.35000002 240 225 23 0.000000 0.000000 0.000000 0.000000 0.000000 0.000000 159.000000 0.271332 0.160639 0.948986
-2.31999993 12.82999992 -1.35000002 240 225 23 0.000000 0.000000 0.000000 0.000000 0.000000 0.000000 159.000000 0.373668 0.361264 0.854319
-2.30999994 12.85000038 -1.37000000 240 225 23 0.000000 0.000000 0.000000 0.000000 0.000000 0.000000 159.000000 0.292033 0.109678 0.950099
-2.30999994 12.85000038 -1.36000001 240 225 23 0.000000 0.000000 0.000000 0.000000 0.000000 0.000000 159.000000 -0.076180 -0.094373 0.992618
-2.35999990 12.84000015 -1.35000002 240 225 23 0.000000 0.000000 0.000000 0.000000 0.000000 0.000000 159.000000 0.407666 0.168540 0.897442
-2.30999994 12.80000019 -1.27999997 240 225 23 0.000000 0.000000 0.000000 0.000000 0.000000 0.000000 159.000000 0.268586 -0.133631 0.953942
-2.31999993 12.81000042 -1.28999996 240 225 23 0.000000 0.000000 0.000000 0.000000 0.000000 0.000000 159.000000 0.114875 0.331112 0.936573
-2.31999993 12.81999969 -1.26999998 240 225 23 0.000000 0.000000 0.000000 0.000000 0.000000 0.000000 159.000000 0.517465 0.031569 0.855122
-2.31999993 12.81999969 -1.26999998 240 225 23 0.000000 0.000000 0.000000 0.000000 0.000000 0.000000 159.000000 0.517465 0.031569 0.855122
-2.33999991 12.81000042 -1.30999994 240 225 23 0.000000 0.000000 0.000000 0.000000 0.000000 0.000000 159.000000 0.628965 -0.091937 0.771978
-2.34999990 12.81000042 -1.30999994 240 225 23 0.000000 0.000000 0.000000 0.000000 0.000000 0.000000 159.000000 0.163484 -0.003382 0.986540
-2.35999990 12.81000042 -1.25999999 240 225 23 0.000000 0.000000 0.000000 0.000000 0.000000 0.000000 159.000000 0.041138 -0.273006 0.961132
-2.34999990 12.80000019 -1.35000002 240 225 23 0.000000 0.000000 0.000000 0.000000 0.000000 0.000000 159.000000 0.290141 0.016050 0.956849
-2.40000010 12.82999992 -1.25999999 240 225 23 0.000000 0.000000 0.000000 0.000000 0.000000 0.000000 159.000000 0.066889 -0.261246 0.962952
-2.48000002 12.88000011 -1.30999994 240 225 23 0.000000 0.000000 0.000000 0.000000 0.000000 0.000000 159.000000 0.555026 0.230359 0.799300
-2.48000002 12.86999989 -1.30999994 240 225 23 0.000000 0.000000 0.000000 0.000000 0.000000 0.000000 159.000000 0.442428 0.117321 0.889097
-2.46000004 12.84000015 -1.28999996 240 225 23 0.000000 0.000000 0.000000 0.000000 0.000000 0.000000 159.000000 0.201759 0.520326 0.829791
-2.46000004 12.82999992 -1.28999996 240 225 23 0.000000 0.000000 0.000000 0.000000 0.000000 0.000000 159.000000 0.170612 -0.285263 0.943142
-2.43000007 12.89000034 -1.32000005 240 225 23 0.000000 0.000000 0.000000 0.000000 0.000000 0.000000 159.000000 0.061521 0.262407 0.962994
-2.43000007 12.89000034 -1.32000005 240 225 23 0.000000 0.000000 0.000000 0.000000 0.000000 0.000000 159.000000 0.061521 0.262407 0.962994
-2.43000007 12.85000038 -1.32000005 240 225 23 0.000000 0.000000 0.000000 0.000000 0.000000 0.000000 159.000000 0.336115 0.109339 0.935453
-2.40000010 12.82999992 -1.34000003 240 225 23 0.000000 0.000000 0.000000 0.000000 0.000000 0.000000 159.000000 0.216803 -0.005860 0.976198
-2.46000004 12.85999966 -1.32000005 240 225 23 0.000000 0.000000 0.000000 0.000000 0.000000 0.000000 159.000000 0.026033 0.524760 0.850852
-2.40000010 12.80000019 -1.25999999 240 225 23 0.000000 0.000000 0.000000 0.000000 0.000000 0.000000 159.000000 0.033754 0.015343 0.999312
-2.41000009 12.81999969 -1.25999999 240 225 23 0.000000 0.000000 0.000000 0.000000 0.000000 0.000000 159.000000 -0.037329 -0.222768 0.974157
-2.45000005 12.81000042 -1.28999996 240 225 23 0.000000 0.000000 0.000000 0.000000 0.000000 0.000000 159.000000 0.128033 -0.088096 0.987850
-2.47000003 12.81000042 -1.27999997 240 225 23 0.000000 0.000000 0.000000 0.000000 0.000000 0.000000 159.000000 0.099686 0.054884 0.993504
-2.47000003 12.81999969 -1.28999996 240 225 23 0.000000 0.000000 0.000000 0.000000 0.000000 0.000000 159.000000 0.170415 -0.106663 0.979582
-2.46000004 12.81000042 -1.28999996 240 225 23 0.000000 0.000000 0.000000 0.000000 0.000000 0.000000 159.000000 0.212342 0.359681 0.908593
-2.46000004 12.77999973 -1.30999994 240 225 23 0.000000 0.000000 0.000000 0.000000 0.000000 0.000000 159.000000 0.082854 0.258760 0.962382
-2.41000009 12.80000019 -1.32000005 240 225 23 0.000000 0.000000 0.000000 0.000000 0.000000 0.000000 159.000000 -0.085610 0.029259 0.995899
-2.47000003 12.81999969 -1.32000005 240 225 23 0.000000 0.000000 0.000000 0.000000 0.000000 0.000000 159.000000 0.380992 0.362331 0.850624
-2.42000008 12.80000019 -1.32000005 240 225 23 0.000000 0.000000 0.000000 0.000000 0.000000 0.000000 159.000000 0.204409 0.344493 0.916265
-2.72000003 12.78999996 -1.19000006 240 225 23 0.000000 0.000000 0.000000 0.000000 0.000000 0.000000 159.000000 0.638144 0.110533 0.761941
-2.74000001 12.77000046 -1.17999995 240 225 23 0.000000 0.000000 0.000000 0.000000 0.000000 0.000000 159.000000 0.103315 0.094028 0.990194
-2.50999999 12.85000038 -1.30999994 240 225 23 0.000000 0.000000 0.000000 0.000000 0.000000 0.000000 159.000000 0.155466 0.251137 0.955385
-2.50000000 12.84000015 -1.28999996 240 225 23 0.000000 0.000000 0.000000 0.000000 0.000000 0.000000 159.000000 0.160708 -0.095458 0.982375
-2.50000000 12.84000015 -1.28999996 240 225 23 0.000000 0.000000 0.000000 0.000000 0.000000 0.000000 159.000000 0.160708 -0.095458 0.982375
-2.50000000 12.82999992 -1.28999996 240 225 23 0.000000 0.000000 0.000000 0.000000 0.000000 0.000000 159.000000 0.393863 0.016898 0.919014
-2.51999998 12.86999989 -1.29999995 240 225 23 0.000000 0.000000 0.000000 0.000000 0.000000 0.000000 159.000000 -0.025325 0.441196 0.897054
-2.49000001 12.85000038 -1.30999994 240 225 23 0.000000 0.000000 0.000000 0.000000 0.000000 0.000000 159.000000 0.396313 0.283948 0.873103
-2.55999994 12.85000038 -1.27999997 240 225 23 0.000000 0.000000 0.000000 0.000000 0.000000 0.000000 159.000000 0.265437 0.332896 0.904833
-2.54999995 12.84000015 -1.26999998 240 225 23 0.000000 0.000000 0.000000 0.000000 0.000000 0.000000 159.000000 -0.049589 0.144153 0.988312
-2.52999997 12.86999989 -1.28999996 240 225 23 0.000000 0.000000 0.000000 0.000000 0.000000 0.000000 159.000000 0.049981 0.430916 0.901007
-2.54999995 12.82999992 -1.27999997 240 225 23 0.000000 0.000000 0.000000 0.000000 0.000000 0.000000 159.000000 0.345160 0.098042 0.933409
-2.52999997 12.86999989 -1.29999995 240 225 23 0.000000 0.000000 0.000000 0.000000 0.000000 0.000000 159.000000 0.171640 0.523876 0.834322
-2.54999995 12.82999992 -1.27999997 240 225 23 0.000000 0.000000 0.000000 0.000000 0.000000 0.000000 159.000000 0.345160 0.098042 0.933409
-2.53999996 12.82999992 -1.27999997 240 225 23 0.000000 0.000000 0.000000 0.000000 0.000000 0.000000 159.000000 0.082482 0.082482 0.993173
-2.49000001 12.85999966 -1.36000001 240 225 23 0.000000 0.000000 0.000000 0.000000 0.000000 0.000000 159.000000 0.429931 -0.075547 0.899696
-2.55999994 12.85999966 -1.35000002 240 225 23 0.000000 0.000000 0.000000 0.000000 0.000000 0.000000 159.000000 0.381183 0.510947 0.770476
-2.53999996 12.82999992 -1.35000002 240 225 23 0.000000 0.000000 0.000000 0.000000 0.000000 0.000000 159.000000 0.317552 0.445825 0.836899
-2.51999998 12.81999969 -1.27999997 240 225 23 0.000000 0.000000 0.000000 0.000000 0.000000 0.000000 159.000000 0.085796 0.029323 0.995881
-2.49000001 12.77000046 -1.30999994 240 225 23 0.000000 0.000000 0.000000 0.000000 0.000000 0.000000 159.000000 0.171359 -0.093579 0.980754
-2.55999994 12.80000019 -1.26999998 240 225 23 0.000000 0.000000 0.000000 0.000000 0.000000 0.000000 159.000000 0.556948 0.220619 0.800710
-2.53999996 12.81000042 -1.27999997 240 225 23 0.000000 0.000000 0.000000 0.000000 0.000000 0.000000 159.000000 0.134773 -0.076176 0.987944
-2.55999994 12.81999969 -1.26999998 240 225 23 0.000000 0.000000 0.000000 0.000000 0.000000 0.000000 159.000000 0.144864 -0.014599 0.989344
-2.53999996 12.81000042 -1.27999997 240 225 23 0.000000 0.000000 0.000000 0.000000 0.000000 0.000000 159.000000 0.134773 -0.076176 0.987944
-2.59999990 12.82999992 -1.26999998 240 225 23 0.000000 0.000000 0.000000 0.000000 0.000000 0.000000 159.000000 0.016721 0.132656 0.991021
-2.59999990 12.82999992 -1.26999998 240 225 23 0.000000 0.000000 0.000000 0.000000 0.000000 0.000000 159.000000 0.016721 0.132656 0.991021
-2.58999991 12.82999992 -1.26999998 240 225 23 0.000000 0.000000 0.000000 0.000000 0.000000 0.000000 159.000000 0.399945 0.063291 0.914351
-2.61999989 12.84000015 -1.26999998 240 225 23 0.000000 0.000000 0.000000 0.000000 0.000000 0.000000 159.000000 -0.020215 0.489201 0.871937
-2.60999990 12.82999992 -1.26999998 240 225 23 0.000000 0.000000 0.000000 0.000000 0.000000 0.000000 159.000000 -0.025763 0.128817 0.991334
-2.64000010 12.82999992 -1.28999996 240 225 23 0.000000 0.000000 0.000000 0.000000 0.000000 0.000000 159.000000 0.143232 0.467312 0.872413
-2.58999991 12.81000042 -1.27999997 240 225 23 0.000000 0.000000 0.000000 0.000000 0.000000 0.000000 159.000000 0.398744 0.339786 0.851792
-2.57999992 12.81000042 -1.28999996 240 225 23 0.000000 0.000000 0.000000 0.000000 0.000000 0.000000 159.000000 0.550845 0.057761 0.832607
-2.59999990 12.81000042 -1.26999998 240 225 23 0.000000 0.000000 0.000000 0.000000 0.000000 0.000000 159.000000 0.086304 -0.009589 0.996223
-2.58999991 12.81000042 -1.26999998 240 225 23 0.000000 0.000000 0.000000 0.000000 0.000000 0.000000 159.000000 0.264521 0.230931 0.936322
-2.57999992 12.81999969 -1.27999997 240 225 23 0.000000 0.000000 0.000000 0.000000 0.000000 0.000000 159.000000 0.314608 0.217806 0.923895
-2.58999991 12.81999969 -1.27999997 240 225 23 0.000000 0.000000 0.000000 0.000000 0.000000 0.000000 159.000000 0.490161 0.328360 0.807417
-2.59999990 12.81000042 -1.26999998 240 225 23 0.000000 0.000000 0.000000 0.000000 0.000000 0.000000 159.000000 0.086304 -0.009589 0.996223
-2.56999993 12.80000019 -1.26999998 240 225 23 0.000000 0.000000 0.000000 0.000000 0.000000 0.000000 159.000000 0.068637 -0.306922 0.949256
-2.56999993 12.80000019 -1.26999998 240 225 23 0.000000 0.000000 0.000000 0.000000 0.000000 0.000000 159.000000 0.068637 -0.306922 0.949256
-2.58999991 12.81999969 -1.27999997 240 225 23 0.000000 0.000000 0.000000 0.000000 0.000000 0.000000 159.000000 0.490161 0.328360 0.807417
-2.58999991 12.77000046 -1.29999995 240 225 23 0.000000 0.000000 0.000000 0.000000 0.000000 0.000000 159.000000 0.280243 -0.370161 0.885689
-2.58999991 12.77000046 -1.29999995 240 225 23 0.000000 0.000000 0.000000 0.000000 0.000000 0.000000 159.000000 0.280243 -0.370161 0.885689
-2.60999990 12.81000042 -1.30999994 240 225 23 0.000000 0.000000 0.000000 0.000000 0.000000 0.000000 159.000000 0.508448 -0.221396 0.832144
-2.63000011 12.80000019 -1.26999998 240 225 23 0.000000 0.000000 0.000000 0.000000 0.000000 0.000000 159.000000 0.192841 0.263960 0.945059
-2.63000011 12.80000019 -1.26999998 240 225 23 0.000000 0.000000 0.000000 0.000000 0.000000 0.000000 159.000000 0.192841 0.263960 0.945059
-2.61999989 12.77000046 -1.25999999 240 225 23 0.000000 0.000000 0.000000 0.000000 0.000000 0.000000 159.000000 0.101947 -0.003219 0.994785
-2.65000010 12.76000023 -1.26999998 240 225 23 0.000000 0.000000 0.000000 0.000000 0.000000 0.000000 159.000000 0.096540 -0.310780 0.945566
-2.65000010 12.76000023 -1.26999998 240 225 23 0.000000 0.000000 0.000000 0.000000 0.000000 0.000000 159.000000 0.096540 -0.310780 0.945566
-2.60999990 12.72999954 -1.32000005 240 225 23 0.000000 0.000000 0.000000 0.000000 0.000000 0.000000 159.000000 0.458122 -0.471258 0.753684
-2.61999989 12.73999977 -1.32000005 240 225 23 0.000000 0.000000 0.000000 0.000000 0.000000 0.000000 159.000000 0.423024 -0.215223 0.880187
-2.67000008 12.84000015 -1.27999997 240 225 23 0.000000 0.000000 0.000000 0.000000 0.000000 0.000000 159.000000 0.379826 0.355021 0.854221
-2.67000008 12.85999966 -1.26999998 240 225 23 0.000000 0.000000 0.000000 0.000000 0.000000 0.000000 159.000000 0.128033 -0.088096 0.987850
-2.67000008 12.82999992 -1.27999997 240 225 23 0.000000 0.000000 0.000000 0.000000 0.000000 0.000000 159.000000 0.163019 0.425582 0.890115
-2.69000006 12.85000038 -1.27999997 240 225 23 0.000000 0.000000 0.000000 0.000000 0.000000 0.000000 159.000000 -0.109063 0.335268 0.935789
-2.69000006 12.80000019 -1.25999999 240 225 23 0.000000 0.000000 0.000000 0.000000 0.000000 0.000000 159.000000 0.429909 0.229185 0.873300
-2.68000007 12.80000019 -1.26999998 240 225 23 0.000000 0.000000 0.000000 0.000000 0.000000 0.000000 159.000000 0.309796 -0.269072 0.911936
-2.66000009 12.77999973 -1.25999999 240 225 23 0.000000 0.000000 0.000000 0.000000 0.000000 0.000000 159.000000 0.051178 -0.068600 0.996331
-2.66000009 12.77999973 -1.28999996 240 225 23 0.000000 0.000000 0.000000 0.000000 0.000000 0.000000 159.000000 0.226772 0.171073 0.958806
-2.66000009 12.77999973 -1.28999996 240 225 23 0.000000 0.000000 0.000000 0.000000 0.000000 0.000000 159.000000 0.226772 0.171073 0.958806
-2.73000002 12.80000019 -1.30999994 240 225 23 0.000000 0.000000 0.000000 0.000000 0.000000 0.000000 159.000000 -0.094176 0.073752 0.992820
-2.72000003 12.77000046 -1.25000000 240 225 23 0.000000 0.000000 0.000000 0.000000 0.000000 0.000000 159.000000 0.303714 -0.268838 0.914048
-2.72000003 12.77000046 -1.25000000 240 225 23 0.000000 0.000000 0.000000 0.000000 0.000000 0.000000 159.000000 0.303714 -0.268838 0.914048
-2.72000003 12.77999973 -1.25000000 240 225 23 0.000000 0.000000 0.000000 0.000000 0.000000 0.000000 159.000000 0.331307 -0.026657 0.943146
-2.73000002 12.77000046 -1.26999998 240 225 23 0.000000 0.000000 0.000000 0.000000 0.000000 0.000000 159.000000 0.258795 0.419218 0.870219
-2.72000003 12.76000023 -1.32000005 240 225 23 0.000000 0.000000 0.000000 0.000000 0.000000 0.000000 159.000000 0.373184 0.062419 0.925655
-2.75000000 12.76000023 -1.25000000 240 225 23 0.000000 0.000000 0.000000 0.000000 0.000000 0.000000 159.000000 0.413877 -0.122059 0.902113
-2.76999998 12.77999973 -1.29999995 240 225 23 0.000000 0.000000 0.000000 0.000000 0.000000 0.000000 159.000000 0.151090 0.342379 0.927334
-2.76999998 12.77000046 -1.26999998 240 225 23 0.000000 0.000000 0.000000 0.000000 0.000000 0.000000 159.000000 0.422335 -0.198659 0.884402
-2.80999994 12.77999973 -1.23000002 240 225 23 0.000000 0.000000 0.000000 0.000000 0.000000 0.000000 159.000000 -0.044970 -0.146442 0.988197
-2.81999993 12.77000046 -1.24000001 240 225 23 0.000000 0.000000 0.000000 0.000000 0.000000 0.000000 159.000000 0.011250 -0.037842 0.999220
-2.80999994 12.77999973 -1.24000001 240 225 23 0.000000 0.000000 0.000000 0.000000 0.000000 0.000000 159.000000 0.052803 0.318104 0.946584
-2.72000003 12.72999954 -1.28999996 240 225 23 0.000000 0.000000 0.000000 0.000000 0.000000 0.000000 159.000000 0.140099 -0.403314 0.904273
-2.68000007 12.72000027 -1.28999996 240 225 23 0.000000 0.000000 0.000000 0.000000 0.000000 0.000000 159.000000 0.009760 -0.105188 0.994404
-2.76999998 12.72000027 -1.28999996 240 225 23 0.000000 0.000000 0.000000 0.000000 0.000000 0.000000 159.000000 0.175453 0.065646 0.982297
-2.75000000 12.72999954 -1.27999997 240 225 23 0.000000 0.000000 0.000000 0.000000 0.000000 0.000000 159.000000 0.348424 -0.173507 0.921138
-2.83999991 12.75000000 -1.21000004 240 225 23 0.000000 0.000000 0.000000 0.000000 0.000000 0.000000 159.000000 0.132681 0.290826 0.947531
-2.83999991 12.72000027 -1.17999995 240 225 23 0.000000 0.000000 0.000000 0.000000 0.000000 0.000000 159.000000 0.588365 -0.043531 0.807423
-2.84999990 12.73999977 -1.20000005 240 225 23 0.000000 0.000000 0.000000 0.000000 0.000000 0.000000 159.000000 0.235739 0.334085 0.912587
-2.95000005 12.71000004 -1.21000004 240 225 23 0.000000 0.000000 0.000000 0.000000 0.000000 0.000000 159.000000 0.368486 -0.187827 0.910461
-2.95000005 12.69999981 -1.22000003 240 225 23 0.000000 0.000000 0.000000 0.000000 0.000000 0.000000 159.000000 0.391901 -0.462863 0.795092
-2.99000001 12.72000027 -1.21000004 240 225 23 0.000000 0.000000 0.000000 0.000000 0.000000 0.000000 159.000000 0.276176 0.359776 0.891228
-2.98000002 12.68000031 -1.20000005 240 225 23 0.000000 0.000000 0.000000 0.000000 0.000000 0.000000 159.000000 0.265313 -0.354244 0.896727
-2.99000001 12.67000008 -1.22000003 240 225 23 0.000000 0.000000 0.000000 0.000000 0.000000 0.000000 159.000000 0.478486 -0.082788 0.874184
-2.98000002 12.68999958 -1.22000003 240 225 23 0.000000 0.000000 0.000000 0.000000 0.000000 0.000000 159.000000 0.114733 -0.057935 0.991706
-2.99000001 12.64999962 -1.22000003 240 225 23 0.000000 0.000000 0.000000 0.000000 0.000000 0.000000 159.000000 0.609944 -0.310605 0.729036
-3.06999993 12.75000000 -1.21000004 240 225 23 0.000000 0.000000 0.000000 0.000000 0.000000 0.000000 159.000000 0.366299 0.011487 0.930426
-3.00000000 12.69999981 -1.21000004 240 225 23 0.000000 0.000000 0.000000 0.000000 0.000000 0.000000 159.000000 0.064935 -0.364430 0.928964
-3.00000000 12.69999981 -1.21000004 240 225 23 0.000000 0.000000 0.000000 0.000000 0.000000 0.000000 159.000000 0.064935 -0.364430 0.928964
-3.01999998 12.69999981 -1.20000005 240 225 23 0.000000 0.000000 0.000000 0.000000 0.000000 0.000000 159.000000 0.353042 0.241709 0.903846
-3.00000000 12.69999981 -1.21000004 240 225 23 0.000000 0.000000 0.000000 0.000000 0.000000 0.000000 159.000000 0.064935 -0.364430 0.928964
-3.00000000 12.65999985 -1.21000004 240 225 23 0.000000 0.000000 0.000000 0.000000 0.000000 0.000000 159.000000 0.532753 -0.014988 0.846138
-3.02999997 12.68999958 -1.19000006 240 225 23 0.000000 0.000000 0.000000 0.000000 0.000000 0.000000 159.000000 -0.082842 0.051914 0.995210
-3.02999997 12.65999985 -1.20000005 240 225 23 0.000000 0.000000 0.000000 0.000000 0.000000 0.000000 159.000000 0.479845 -0.059462 0.875336
-3.05999994 12.71000004 -1.19000006 240 225 23 0.000000 0.000000 0.000000 0.000000 0.000000 0.000000 159.000000 0.216308 -0.005846 0.976308
-3.03999996 12.71000004 -1.19000006 240 225 23 0.000000 0.000000 0.000000 0.000000 0.000000 0.000000 159.000000 0.482113 0.169550 0.859546
-3.03999996 12.72999954 -1.22000003 240 225 23 0.000000 0.000000 0.000000 0.000000 0.000000 0.000000 159.000000 -0.021682 -0.158621 0.987101
-3.06999993 12.68999958 -1.17999995 240 225 23 0.000000 0.000000 0.000000 0.000000 0.000000 0.000000 159.000000 0.441045 0.157619 0.883536
-3.04999995 12.67000008 -1.17999995 240 225 23 0.000000 0.000000 0.000000 0.000000 0.000000 0.000000 159.000000 0.239719 -0.175437 0.954859
-3.04999995 12.68000031 -1.17999995 240 225 23 0.000000 0.000000 0.000000 0.000000 0.000000 0.000000 159.000000 0.171558 -0.179297 0.968721
-3.07999992 12.68999958 -1.16999996 240 225 23 0.000000 0.000000 0.000000 0.000000 0.000000 0.000000 159.000000 0.518443 -0.074870 0.851828
-3.03999996 12.65999985 -1.19000006 240 225 23 0.000000 0.000000 0.000000 0.000000 0.000000 0.000000 159.000000 0.483324 -0.389569 0.783986
-3.07999992 12.65999985 -1.20000005 240 225 23 0.000000 0.000000 0.000000 0.000000 0.000000 0.000000 159.000000 0.252341 -0.260800 0.931830
-3.03999996 12.68999958 -1.19000006 240 225 23 0.000000 0.000000 0.000000 0.000000 0.000000 0.000000 159.000000 0.550435 0.210055 0.808021
-3.06999993 12.68999958 -1.20000005 240 225 23 0.000000 0.000000 0.000000 0.000000 0.000000 0.000000 159.000000 0.446730 0.240780 0.861659
-3.03999996 12.65999985 -1.20000005 240 225 23 0.000000 0.000000 0.000000 0.000000 0.000000 0.000000 159.000000 0.480835 -0.396648 0.781964
-3.03999996 12.65999985 -1.19000006 240 225 23 0.000000 0.000000 0.000000 0.000000 0.000000 0.000000 159.000000 0.483324 -0.389569 0.783986
-3.06999993 12.64999962 -1.17999995 240 225 23 0.000000 0.000000 0.000000 0.000000 0.000000 0.000000 159.000000 0.291616 -0.584826 0.756927
-3.11999989 12.69999981 -1.13000000 240 225 23 0.000000 0.000000 0.000000 0.000000 0.000000 0.000000 159.000000 0.169785 -0.122691 0.977814
-3.13000011 12.65999985 -1.13000000 240 225 23 0.000000 0.000000 0.000000 0.000000 0.000000 0.000000 159.000000 0.414997 -0.244204 0.876437
-3.14000010 12.67000008 -1.12000000 240 225 23 0.000000 0.000000 0.000000 0.000000 0.000000 0.000000 159.000000 0.346913 -0.045475 0.936794
-3.14000010 12.67000008 -1.12000000 240 225 23 0.000000 0.000000 0.000000 0.000000 0.000000 0.000000 159.000000 0.346913 -0.045475 0.936794
-3.10999990 12.68000031 -1.13999999 240 225 23 0.000000 0.000000 0.000000 0.000000 0.000000 0.000000 159.000000 0.268398 -0.075050 0.960380
-3.08999991 12.72000027 -1.22000003 240 225 23 0.000000 0.000000 0.000000 0.000000 0.000000 0.000000 159.000000 0.121955 0.129200 0.984091
-3.10999990 12.72000027 -1.22000003 240 225 23 0.000000 0.000000 0.000000 0.000000 0.000000 0.000000 159.000000 0.559915 0.231101 0.795668
-3.10999990 12.65999985 -1.19000006 240 225 23 0.000000 0.000000 0.000000 0.000000 0.000000 0.000000 159.000000 0.210471 -0.569961 0.794258
-3.15000010 12.69999981 -1.20000005 240 225 23 0.000000 0.000000 0.000000 0.000000 0.000000 0.000000 159.000000 0.057718 0.107514 0.992527
-3.13000011 12.72000027 -1.22000003 240 225 23 0.000000 0.000000 0.000000 0.000000 0.000000 0.000000 159.000000 0.003717 0.318455 0.947931
-3.16000009 12.71000004 -1.19000006 240 225 23 0.000000 0.000000 0.000000 0.000000 0.000000 0.000000 159.000000 0.527665 -0.162015 0.833859
-3.15000010 12.65999985 -1.20000005 240 225 23 0.000000 0.000000 0.000000 0.000000 0.000000 0.000000 159.000000 0.609364 0.067388 0.790022
-3.11999989 12.63000011 -1.13000000 240 225 23 0.000000 0.000000 0.000000 0.000000 0.000000 0.000000 159.000000 0.305734 -0.521173 0.796809
-3.16000009 12.64999962 -1.12000000 240 225 23 0.000000 0.000000 0.000000 0.000000 0.000000 0.000000 159.000000 0.556773 0.144019 0.818085
-3.13000011 12.64000034 -1.13000000 240 225 23 0.000000 0.000000 0.000000 0.000000 0.000000 0.000000 159.000000 0.043880 0.001020 0.999036
-3.13000011 12.64000034 -1.13000000 240 225 23 0.000000 0.000000 0.000000 0.000000 0.000000 0.000000 159.000000 0.043880 0.001020 0.999036
-3.15000010 12.64000034 -1.13000000 240 225 23 0.000000 0.000000 0.000000 0.000000 0.000000 0.000000 159.000000 0.260274 -0.001199 0.965534
-3.16000009 12.63000011 -1.13000000 240 225 23 0.000000 0.000000 0.000000 0.000000 0.000000 0.000000 159.000000 0.052808 -0.437358 0.897735
-3.14000010 12.63000011 -1.13000000 240 225 23 0.000000 0.000000 0.000000 0.000000 0.000000 0.000000 159.000000 -0.052023 -0.290565 0.955440
-3.15000010 12.64000034 -1.13000000 240 225 23 0.000000 0.000000 0.000000 0.000000 0.000000 0.000000 159.000000 0.260274 -0.001199 0.965534
-3.09999990 12.64000034 -1.16999996 240 225 23 0.000000 0.000000 0.000000 0.000000 0.000000 0.000000 159.000000 0.434442 -0.358612 0.826231
-3.11999989 12.64999962 -1.14999998 240 225 23 0.000000 0.000000 0.000000 0.000000 0.000000 0.000000 159.000000 0.379613 -0.395365 0.836409
-3.11999989 12.64000034 -1.14999998 240 225 23 0.000000 0.000000 0.000000 0.000000 0.000000 0.000000 159.000000 0.358194 0.073237 0.930771
-3.15000010 12.63000011 -1.15999997 240 225 23 0.000000 0.000000 0.000000 0.000000 0.000000 0.000000 159.000000 0.206746 -0.222961 0.952651
-3.15000010 12.60999966 -1.14999998 240 225 23 0.000000 0.000000 0.000000 0.000000 0.000000 0.000000 159.000000 0.086065 -0.489580 0.867700
-3.15000010 12.60999966 -1.14999998 240 225 23 0.000000 0.000000 0.000000 0.000000 0.000000 0.000000 159.000000 0.086065 -0.489580 0.867700
-3.16000009 12.60999966 -1.14999998 240 225 23 0.000000 0.000000 0.000000 0.000000 0.000000 0.000000 159.000000 0.146419 -0.316102 0.937358
-2.83999991 12.81000042 -1.27999997 240 225 23 0.000000 0.000000 0.000000 0.000000 0.000000 0.000000 159.000000 -0.034044 0.491593 0.870160
-2.82999992 12.76000023 -1.24000001 240 225 23 0.000000 0.000000 0.000000 0.000000 0.000000 0.000000 159.000000 0.151311 -0.042737 0.987562
-2.83999991 12.75000000 -1.24000001 240 225 23 0.000000 0.000000 0.000000 0.000000 0.000000 0.000000 159.000000 0.086663 -0.280685 0.955880
-2.83999991 12.75000000 -1.24000001 240 225 23 0.000000 0.000000 0.000000 0.000000 0.000000 0.000000 159.000000 0.086663 -0.280685 0.955880
-2.88000011 12.77999973 -1.25999999 240 225 23 0.000000 0.000000 0.000000 0.000000 0.000000 0.000000 159.000000 -0.141172 0.221472 0.964894
-2.88000011 12.77000046 -1.25999999 240 225 23 0.000000 0.000000 0.000000 0.000000 0.000000 0.000000 159.000000 -0.024880 0.209707 0.977448
-2.90000010 12.77000046 -1.29999995 240 225 23 0.000000 0.000000 0.000000 0.000000 0.000000 0.000000 159.000000 0.285357 0.448859 0.846816
-2.91000009 12.69999981 -1.24000001 240 225 23 0.000000 0.000000 0.000000 0.000000 0.000000 0.000000 159.000000 0.130028 -0.338072 0.932094
-2.89000010 12.71000004 -1.24000001 240 225 23 0.000000 0.000000 0.000000 0.000000 0.000000 0.000000 159.000000 0.352163 -0.434282 0.829084
-2.88000011 12.73999977 -1.24000001 240 225 23 0.000000 0.000000 0.000000 0.000000 0.000000 0.000000 159.000000 0.230118 -0.122130 0.965469
-2.86999989 12.72999954 -1.24000001 240 225 23 0.000000 0.000000 0.000000 0.000000 0.000000 0.000000 159.000000 0.072211 -0.329546 0.941374
-2.89000010 12.72999954 -1.23000002 240 225 23 0.000000 0.000000 0.000000 0.000000 0.000000 0.000000 159.000000 0.333572 -0.064098 0.940543
-2.92000008 12.69999981 -1.25999999 240 225 23 0.000000 0.000000 0.000000 0.000000 0.000000 0.000000 159.000000 0.291412 -0.199387 0.935587
-2.95000005 12.71000004 -1.25000000 240 225 23 0.000000 0.000000 0.000000 0.000000 0.000000 0.000000 159.000000 0.217133 0.209041 0.953496
-2.92000008 12.71000004 -1.24000001 240 225 23 0.000000 0.000000 0.000000 0.000000 0.000000 0.000000 159.000000 0.430028 -0.259840 0.864615
-2.95000005 12.71000004 -1.25000000 240 225 23 0.000000 0.000000 0.000000 0.000000 0.000000 0.000000 159.000000 0.217133 0.209041 0.953496
-2.95000005 12.68000031 -1.24000001 240 225 23 0.000000 0.000000 0.000000 0.000000 0.000000 0.000000 159.000000 0.554928 -0.017813 0.831707
-2.96000004 12.72999954 -1.23000002 240 225 23 0.000000 0.000000 0.000000 0.000000 0.000000 0.000000 159.000000 0.047812 0.332101 0.942031
-2.97000003 12.72999954 -1.23000002 240 225 23 0.000000 0.000000 0.000000 0.000000 0.000000 0.000000 159.000000 0.129794 0.185240 0.974084
-3.06999993 12.72000027 -1.24000001 240 225 23 0.000000 0.000000 0.000000 0.000000 0.000000 0.000000 159.000000 0.120506 0.090087 0.988617
-3.05999994 12.68999958 -1.25000000 240 225 23 0.000000 0.000000 0.000000 0.000000 0.000000 0.000000 159.000000 0.190523 -0.296214 0.935926
-3.05999994 12.68000031 -1.25000000 240 225 23 0.000000 0.000000 0.000000 0.000000 0.000000 0.000000 159.000000 0.350635 -0.201794 0.914513
-3.06999993 12.68000031 -1.25000000 240 225 23 0.000000 0.000000 0.000000 0.000000 0.000000 0.000000 159.000000 0.484710 -0.103765 0.868498
-3.10999990 12.72000027 -1.23000002 240 225 23 0.000000 0.000000 0.000000 0.000000 0.000000 0.000000 159.000000 0.592158 0.091213 0.800643
-3.11999989 12.72000027 -1.23000002 240 225 23 0.000000 0.000000 0.000000 0.000000 0.000000 0.000000 159.000000 0.464278 0.191348 0.864773
-3.11999989 12.71000004 -1.27999997 240 225 23 0.000000 0.000000 0.000000 0.000000 0.000000 0.000000 159.000000 0.516807 0.045723 0.854880
-3.19000006 12.63000011 -1.13999999 240 225 23 0.000000 0.000000 0.000000 0.000000 0.000000 0.000000 159.000000 0.606609 -0.079248 0.791041
-3.17000008 12.63000011 -1.13000000 240 225 23 0.000000 0.000000 0.000000 0.000000 0.000000 0.000000 159.000000 0.371138 -0.473964 0.798508
-3.17000008 12.63000011 -1.13000000 240 225 23 0.000000 0.000000 0.000000 0.000000 0.000000 0.000000 159.000000 0.371138 -0.473964 0.798508
-3.19000006 12.63000011 -1.13999999 240 225 23 0.000000 0.000000 0.000000 0.000000 0.000000 0.000000 159.000000 0.606609 -0.079248 0.791041
-3.21000004 12.64000034 -1.13999999 240 225 23 0.000000 0.000000 0.000000 0.000000 0.000000 0.000000 159.000000 0.229689 0.116769 0.966234
-3.17000008 12.59000015 -1.13999999 240 225 23 0.000000 0.000000 0.000000 0.000000 0.000000 0.000000 159.000000 0.602751 -0.413458 0.682454
-3.21000004 12.60999966 -1.12000000 240 225 23 0.000000 0.000000 0.000000 0.000000 0.000000 0.000000 159.000000 0.362111 -0.457823 0.811957
-3.19000006 12.60000038 -1.13000000 240 225 23 0.000000 0.000000 0.000000 0.000000 0.000000 0.000000 159.000000 0.254097 -0.491254 0.833129
-3.21000004 12.59000015 -1.13000000 240 225 23 0.000000 0.000000 0.000000 0.000000 0.000000 0.000000 159.000000 0.165859 -0.643655 0.747127
-3.21000004 12.59000015 -1.13000000 240 225 23 0.000000 0.000000 0.000000 0.000000 0.000000 0.000000 159.000000 0.165859 -0.643655 0.747127
-3.20000005 12.60000038 -1.13000000 240 225 23 0.000000 0.000000 0.000000 0.000000 0.000000 0.000000 159.000000 0.378969 -0.417024 0.826120
-3.19000006 12.60999966 -1.13000000 240 225 23 0.000000 0.000000 0.000000 0.000000 0.000000 0.000000 159.000000 0.494823 -0.034079 0.868325
-3.24000001 12.63000011 -1.12000000 240 225 23 0.000000 0.000000 0.000000 0.000000 0.000000 0.000000 159.000000 0.133815 0.141181 0.980898
-3.23000002 12.61999989 -1.11000001 240 225 23 0.000000 0.000000 0.000000 0.000000 0.000000 0.000000 159.000000 0.312517 0.003706 0.949905
-3.25000000 12.64000034 -1.12000000 240 225 23 0.000000 0.000000 0.000000 0.000000 0.000000 0.000000 159.000000 0.390822 0.196137 0.899327
-3.25000000 12.59000015 -1.09000003 240 225 23 0.000000 0.000000 0.000000 0.000000 0.000000 0.000000 159.000000 0.219337 -0.091495 0.971350
-3.24000001 12.60999966 -1.11000001 240 225 23 0.000000 0.000000 0.000000 0.000000 0.000000 0.000000 159.000000 0.430188 0.132038 0.893031
-3.24000001 12.59000015 -1.11000001 240 225 23 0.000000 0.000000 0.000000 0.000000 0.000000 0.000000 159.000000 0.328812 -0.390561 0.859852
-3.24000001 12.60000038 -1.11000001 240 225 23 0.000000 0.000000 0.000000 0.000000 0.000000 0.000000 159.000000 0.330125 0.086177 0.939995
-3.25000000 12.60000038 -1.11000001 240 225 23 0.000000 0.000000 0.000000 0.000000 0.000000 0.000000 159.000000 0.429456 -0.350801 0.832169
-3.22000003 12.60000038 -1.12000000 240 225 23 0.000000 0.000000 0.000000 0.000000 0.000000 0.000000 159.000000 -0.434265 0.593995 -0.677188
-3.24000001 12.60000038 -1.11000001 240 225 23 0.000000 0.000000 0.000000 0.000000 0.000000 0.000000 159.000000 0.330125 0.086177 0.939995
-3.23000002 12.59000015 -1.11000001 240 225 23 0.000000 0.000000 0.000000 0.000000 0.000000 0.000000 159.000000 0.516312 -0.370644 0.772040
-3.18000007 12.61999989 -1.14999998 240 225 23 0.000000 0.000000 0.000000 0.000000 0.000000 0.000000 159.000000 0.340876 0.115436 0.932994
-3.18000007 12.64999962 -1.14999998 240 225 23 0.000000 0.000000 0.000000 0.000000 0.000000 0.000000 159.000000 0.517011 -0.054349 0.854252
-3.17000008 12.60000038 -1.14999998 240 225 23 0.000000 0.000000 0.000000 0.000000 0.000000 0.000000 159.000000 0.497042 -0.450805 0.741434
-3.17000008 12.60000038 -1.14999998 240 225 23 0.000000 0.000000 0.000000 0.000000 0.000000 0.000000 159.000000 0.497042 -0.450805 0.741434
-3.24000001 12.63000011 -1.19000006 240 225 23 0.000000 0.000000 0.000000 0.000000 0.000000 0.000000 159.000000 0.063729 -0.044286 0.996984
-3.22000003 12.60999966 -1.20000005 240 225 23 0.000000 0.000000 0.000000 0.000000 0.000000 0.000000 159.000000 0.458271 -0.497977 0.736211
-3.31999993 12.68000031 -1.10000002 240 225 23 0.000000 0.000000 0.000000 0.000000 0.000000 0.000000 159.000000 0.317711 -0.001236 0.948187
-3.32999992 12.69999981 -1.11000001 240 225 23 0.000000 0.000000 0.000000 0.000000 0.000000 0.000000 159.000000 0.355581 0.113077 0.927780
-3.31999993 12.67000008 -1.11000001 240 225 23 0.000000 0.000000 0.000000 0.000000 0.000000 0.000000 159.000000 0.178137 -0.329624 0.927154
-3.31999993 12.65999985 -1.15999997 240 225 23 0.000000 0.000000 0.000000 0.000000 0.000000 0.000000 159.000000 0.632595 -0.129496 0.763580
-3.26999998 12.61999989 -1.11000001 240 225 23 0.000000 0.000000 0.000000 0.000000 0.000000 0.000000 159.000000 -0.043645 -0.180479 0.982610
-3.28999996 12.61999989 -1.11000001 240 225 23 0.000000 0.000000 0.000000 0.000000 0.000000 0.000000 159.000000 0.036424 -0.098235 0.994496
-3.27999997 12.61999989 -1.11000001 240 225 23 0.000000 0.000000 0.000000 0.000000 0.000000 0.000000 159.000000 -0.082749 -0.208726 0.974467
-3.27999997 12.61999989 -1.11000001 240 225 23 0.000000 0.000000 0.000000 0.000000 0.000000 0.000000 159.000000 -0.082749 -0.208726 0.974467
-3.28999996 12.60999966 -1.08000004 240 225 23 0.000000 0.000000 0.000000 0.000000 0.000000 0.000000 159.000000 0.032832 -0.395291 0.917969
-3.28999996 12.60999966 -1.09000003 240 225 23 0.000000 0.000000 0.000000 0.000000 0.000000 0.000000 159.000000 0.257749 -0.486174 0.834985
-3.26999998 12.59000015 -1.10000002 240 225 23 0.000000 0.000000 0.000000 0.000000 0.000000 0.000000 159.000000 0.261504 -0.110586 0.958847
-3.31999993 12.63000011 -1.09000003 240 225 23 0.000000 0.000000 0.000000 0.000000 0.000000 0.000000 159.000000 0.448608 -0.030800 0.893198
-3.29999995 12.61999989 -1.11000001 240 225 23 0.000000 0.000000 0.000000 0.000000 0.000000 0.000000 159.000000 0.272900 -0.428408 0.861390
-3.32999992 12.59000015 -1.07000005 240 225 23 0.000000 0.000000 0.000000 0.000000 0.000000 0.000000 159.000000 0.484163 -0.056555 0.873148
-3.31999993 12.59000015 -1.08000004 240 225 23 0.000000 0.000000 0.000000 0.000000 0.000000 0.000000 159.000000 0.393707 -0.347023 0.851217
-3.30999994 12.59000015 -1.09000003 240 225 23 0.000000 0.000000 0.000000 0.000000 0.000000 0.000000 159.000000 -0.468045 0.592186 -0.655934
-3.29999995 12.60000038 -1.09000003 240 225 23 0.000000 0.000000 0.000000 0.000000 0.000000 0.000000 159.000000 0.536866 -0.431145 0.725182
-3.29999995 12.59000015 -1.09000003 240 225 23 0.000000 0.000000 0.000000 0.000000 0.000000 0.000000 159.000000 0.666150 -0.254751 0.700961
-3.29999995 12.57999992 -1.10000002 240 225 23 0.000000 0.000000 0.000000 0.000000 0.000000 0.000000 159.000000 0.335075 -0.587595 0.736517
-3.30999994 12.56999969 -1.10000002 240 225 23 0.000000 0.000000 0.000000 0.000000 0.000000 0.000000 159.000000 0.072228 -0.542419 0.836997
-3.41000009 12.59000015 -1.04999995 240 225 23 0.000000 0.000000 0.000000 0.000000 0.000000 0.000000 159.000000 0.230903 0.078632 0.969794
-3.39000010 12.60999966 -1.04999995 240 225 23 0.000000 0.000000 0.000000 0.000000 0.000000 0.000000 159.000000 0.555041 -0.206420 0.805804
-3.39000010 12.60999966 -1.04999995 240 225 23 0.000000 0.000000 0.000000 0.000000 0.000000 0.000000 159.000000 0.555041 -0.206420 0.805804
-3.43000007 12.57999992 -1.04999995 240 225 23 0.000000 0.000000 0.000000 0.000000 0.000000 0.000000 159.000000 0.527741 0.048736 0.848006
-3.48000002 12.56999969 -1.02999997 240 225 23 0.000000 0.000000 0.000000 0.000000 0.000000 0.000000 159.000000 0.638740 -0.275566 0.718383
-3.43000007 12.57999992 -1.04999995 240 225 23 0.000000 0.000000 0.000000 0.000000 0.000000 0.000000 159.000000 0.527741 0.048736 0.848006
-3.36999989 12.71000004 -1.12000000 240 225 23 0.000000 0.000000 0.000000 0.000000 0.000000 0.000000 159.000000 0.241047 0.227273 0.943527
-3.34999990 12.65999985 -1.09000003 240 225 23 0.000000 0.000000 0.000000 0.000000 0.000000 0.000000 159.000000 0.542951 0.189050 0.818208
-3.36999989 12.65999985 -1.09000003 240 225 23 0.000000 0.000000 0.000000 0.000000 0.000000 0.000000 159.000000 0.185989 -0.201818 0.961602
-3.35999990 12.68999958 -1.07000005 240 225 23 0.000000 0.000000 0.000000 0.000000 0.000000 0.000000 159.000000 0.480734 0.020199 0.876634
-3.34999990 12.65999985 -1.09000003 240 225 23 0.000000 0.000000 0.000000 0.000000 0.000000 0.000000 159.000000 0.542951 0.189050 0.818208
-3.33999991 12.68000031 -1.10000002 240 225 23 0.000000 0.000000 0.000000 0.000000 0.000000 0.000000 159.000000 0.410517 0.210408 0.887245
-3.40000010 12.72000027 -1.09000003 240 225 23 0.000000 0.000000 0.000000 0.000000 0.000000 0.000000 159.000000 0.059053 0.465556 0.883046
-3.39000010 12.72999954 -1.10000002 240 225 23 0.000000 0.000000 0.000000 0.000000 0.000000 0.000000 159.000000 0.523104 0.349273 0.777413
-3.38000011 12.64999962 -1.09000003 240 225 23 0.000000 0.000000 0.000000 0.000000 0.000000 0.000000 159.000000 0.397643 0.001287 0.917539
-3.34999990 12.64999962 -1.08000004 240 225 23 0.000000 0.000000 0.000000 0.000000 0.000000 0.000000 159.000000 0.288696 0.223915 0.930869
-3.33999991 12.64000034 -1.08000004 240 225 23 0.000000 0.000000 0.000000 0.000000 0.000000 0.000000 159.000000 0.170639 0.226196 0.959019
-3.34999990 12.64999962 -1.08000004 240 225 23 0.000000 0.000000 0.000000 0.000000 0.000000 0.000000 159.000000 0.288696 0.223915 0.930869
-3.34999990 12.60999966 -1.10000002 240 225 23 0.000000 0.000000 0.000000 0.000000 0.000000 0.000000 159.000000 0.492682 -0.097968 0.864677
-3.33999991 12.57999992 -1.11000001 240 225 23 0.000000 0.000000 0.000000 0.000000 0.000000 0.000000 159.000000 0.083534 -0.276306 0.957433
-3.33999991 12.59000015 -1.10000002 240 225 23 0.000000 0.000000 0.000000 0.000000 0.000000 0.000000 159.000000 -0.032966 -0.247858 0.968235
-3.33999991 12.57999992 -1.11000001 240 225 23 0.000000 0.000000 0.000000 0.000000 0.000000 0.000000 159.000000 0.083534 -0.276306 0.957433
-3.42000008 12.61999989 -1.10000002 240 225 23 0.000000 0.000000 0.000000 0.000000 0.000000 0.000000 159.000000 0.460774 0.079348 0.883963
-3.40000010 12.57999992 -1.05999994 240 225 23 0.000000 0.000000 0.000000 0.000000 0.000000 0.000000 159.000000 0.430439 -0.294673 0.853164
-3.39000010 12.59000015 -1.05999994 240 225 23 0.000000 0.000000 0.000000 0.000000 0.000000 0.000000 159.000000 0.242862 -0.175773 0.954003
-3.43000007 12.61999989 -1.09000003 240 225 23 0.000000 0.000000 0.000000 0.000000 0.000000 0.000000 159.000000 0.429568 0.104943 0.896916
-3.50000000 12.56999969 -1.08000004 240 225 23 0.000000 0.000000 0.000000 0.000000 0.000000 0.000000 159.000000 0.298254 -0.437335 0.848400
-3.17000008 12.68999958 -1.25000000 240 225 23 0.000000 0.000000 0.000000 0.000000 0.000000 0.000000 159.000000 0.347484 -0.106814 0.931582
-3.22000003 12.56000042 -1.17999995 240 225 23 0.000000 0.000000 0.000000 0.000000 0.000000 0.000000 159.000000 -0.221100 0.793176 -0.567438
-3.42000008 12.55000019 -1.04999995 240 225 23 0.000000 0.000000 0.000000 0.000000 0.000000 0.000000 159.000000 0.527362 -0.081023 0.845769
-3.38000011 12.56000042 -1.04999995 240 225 23 0.000000 0.000000 0.000000 0.000000 0.000000 0.000000 159.000000 0.401370 -0.274143 0.873927
-3.45000005 12.56000042 -1.03999996 240 225 23 0.000000 0.000000 0.000000 0.000000 0.000000 0.000000 159.000000 0.292619 -0.144287 0.945281
-3.43000007 12.53999996 -1.04999995 240 225 23 0.000000 0.000000 0.000000 0.000000 0.000000 0.000000 159.000000 0.663219 -0.334054 0.669737
-3.46000004 12.52999973 -1.02999997 240 225 23 0.000000 0.000000 0.000000 0.000000 0.000000 0.000000 159.000000 -0.335666 0.724845 -0.601605
-3.46000004 12.53999996 -1.01999998 240 225 23 0.000000 0.000000 0.000000 0.000000 0.000000 0.000000 159.000000 0.422581 -0.422581 0.801779
-3.46000004 12.52999973 -1.02999997 240 225 23 0.000000 0.000000 0.000000 0.000000 0.000000 0.000000 159.000000 -0.335666 0.724845 -0.601605
-3.45000005 12.55000019 -1.04999995 240 225 23 0.000000 0.000000 0.000000 0.000000 0.000000 0.000000 159.000000 0.157309 -0.343851 0.925754
-3.43000007 12.55000019 -1.04999995 240 225 23 0.000000 0.000000 0.000000 0.000000 0.000000 0.000000 159.000000 0.568735 -0.103274 0.816011
-3.50999999 12.55000019 -1.00000000 240 225 23 0.000000 0.000000 0.000000 0.000000 0.000000 0.000000 159.000000 0.129389 -0.328241 0.935690
-3.50000000 12.55000019 -1.00000000 240 225 23 0.000000 0.000000 0.000000 0.000000 0.000000 0.000000 159.000000 0.384944 -0.561855 0.732213
-3.50999999 12.52999973 -1.01999998 240 225 23 0.000000 0.000000 0.000000 0.000000 0.000000 0.000000 159.000000 0.662073 -0.344932 0.665343
-3.48000002 12.55000019 -1.01999998 240 225 23 0.000000 0.000000 0.000000 0.000000 0.000000 0.000000 159.000000 0.473843 -0.301821 0.827271
-3.48000002 12.55000019 -1.01999998 240 225 23 0.000000 0.000000 0.000000 0.000000 0.000000 0.000000 159.000000 0.473843 -0.301821 0.827271
-3.48000002 12.53999996 -1.02999997 240 225 23 0.000000 0.000000 0.000000 0.000000 0.000000 0.000000 159.000000 0.598786 -0.125671 0.790988
-3.49000001 12.53999996 -1.01999998 240 225 23 0.000000 0.000000 0.000000 0.000000 0.000000 0.000000 159.000000 0.615284 -0.471103 0.632050
-3.50000000 12.50000000 -1.04999995 240 225 23 0.000000 0.000000 0.000000 0.000000 0.000000 0.000000 159.000000 0.146158 -0.721750 0.676546
-3.36999989 12.53999996 -1.05999994 240 225 23 0.000000 0.000000 0.000000 0.000000 0.000000 0.000000 159.000000 0.243110 -0.336278 0.909843
-3.33999991 12.52000046 -1.10000002 240 225 23 0.000000 0.000000 0.000000 0.000000 0.000000 0.000000 159.000000 0.344547 -0.185743 0.920210
-3.42000008 12.56000042 -1.05999994 240 225 23 0.000000 0.000000 0.000000 0.000000 0.000000 0.000000 159.000000 0.506098 0.012146 0.862391
-3.42000008 12.56000042 -1.08000004 240 225 23 0.000000 0.000000 0.000000 0.000000 0.000000 0.000000 159.000000 0.275588 -0.616490 0.737558
-3.40000010 12.52999973 -1.07000005 240 225 23 0.000000 0.000000 0.000000 0.000000 0.000000 0.000000 159.000000 0.521588 -0.235407 0.820079
-3.40000010 12.56000042 -1.08000004 240 225 23 0.000000 0.000000 0.000000 0.000000 0.000000 0.000000 159.000000 0.315473 -0.499367 0.806913
-3.40000010 12.53999996 -1.10000002 240 225 23 0.000000 0.000000 0.000000 0.000000 0.000000 0.000000 159.000000 0.526360 -0.401739 0.749367
-3.46000004 12.50000000 -1.08000004 240 225 23 0.000000 0.000000 0.000000 0.000000 0.000000 0.000000 159.000000 0.358426 -0.177088 0.916608
-3.45000005 12.52000046 -1.07000005 240 225 23 0.000000 0.000000 0.000000 0.000000 0.000000 0.000000 159.000000 0.063024 -0.170047 0.983419
