//X Y Z R G B PointSourceId ScanDirectionFlag NumberOfReturns ReturnNumber GpsTime Intensity Classification Nx Ny Nz
-1.94000006 18.79999924 -1.16999996 72 167 136 0.000000 0.000000 0.000000 0.000000 0.000000 0.000000 153.000000 -0.013134 0.239985 0.970688
-2.00000000 19.00000000 -1.03999996 72 167 136 0.000000 0.000000 0.000000 0.000000 0.000000 0.000000 153.000000 -0.149882 0.368403 0.917505
-2.00999999 19.01000023 -1.04999995 72 167 136 0.000000 0.000000 0.000000 0.000000 0.000000 0.000000 153.000000 -0.131407 0.318358 0.938818
-1.97000003 19.06999969 -1.14999998 72 167 136 0.000000 0.000000 0.000000 0.000000 0.000000 0.000000 153.000000 -0.511431 0.123149 0.850454
-1.98000002 18.94000053 -1.07000005 72 167 136 0.000000 0.000000 0.000000 0.000000 0.000000 0.000000 153.000000 -0.074823 0.329483 0.941192
-2.02999997 18.95000076 -1.11000001 72 167 136 0.000000 0.000000 0.000000 0.000000 0.000000 0.000000 153.000000 0.100688 0.798205 0.593911
-2.00999999 18.88999939 -1.03999996 72 167 136 0.000000 0.000000 0.000000 0.000000 0.000000 0.000000 153.000000 -0.013949 0.348726 0.937121
-1.97000003 18.80999947 -1.09000003 72 167 136 0.000000 0.000000 0.000000 0.000000 0.000000 0.000000 153.000000 -0.058480 0.611902 0.788769
-1.99000001 18.80999947 -1.13999999 72 167 136 0.000000 0.000000 0.000000 0.000000 0.000000 0.000000 153.000000 0.076499 0.772204 0.630753
-2.02999997 18.84000015 -1.05999994 72 167 136 0.000000 0.000000 0.000000 0.000000 0.000000 0.000000 153.000000 0.237831 0.226833 0.944449
-2.05999994 18.76000023 -1.07000005 72 167 136 0.000000 0.000000 0.000000 0.000000 0.000000 0.000000 153.000000 0.230227 0.310306 0.922337
-2.05999994 18.76000023 -1.07000005 72 167 136 0.000000 0.000000 0.000000 0.000000 0.000000 0.000000 153.000000 0.230227 0.310306 0.922337
-2.05999994 18.77000046 -1.10000002 72 167 136 0.000000 0.000000 0.000000 0.000000 0.000000 0.000000 153.000000 0.192487 0.632896 0.749928
-2.14000010 19.46999931 -0.91000003 72 167 136 0.000000 0.000000 0.000000 0.000000 0.000000 0.000000 153.000000 -0.006934 0.664262 0.747468
-2.16000009 19.29000092 -0.95999998 72 167 136 0.000000 0.000000 0.000000 0.000000 0.000000 0.000000 153.000000 -0.518337 0.514983 0.682729
-2.14000010 19.28000069 -0.98000002 72 167 136 0.000000 0.000000 0.000000 0.000000 0.000000 0.000000 153.000000 0.895948 -0.256197 -0.362822
-2.17000008 19.28000069 -1.04999995 72 167 136 0.000000 0.000000 0.000000 0.000000 0.000000 0.000000 153.000000 0.812834 -0.504680 -0.290859
-2.14000010 19.21999931 -1.00999999 72 167 136 0.000000 0.000000 0.000000 0.000000 0.000000 0.000000 153.000000 0.622995 -0.585852 -0.518319
-2.20000005 19.27000046 -1.00999999 72 167 136 0.000000 0.000000 0.000000 0.000000 0.000000 0.000000 153.000000 0.800877 -0.481165 -0.356478
-2.21000004 19.26000023 -1.00000000 72 167 136 0.000000 0.000000 0.000000 0.000000 0.000000 0.000000 153.000000 0.988138 -0.066341 -0.138502
-2.22000003 19.22999954 -1.01999998 72 167 136 0.000000 0.000000 0.000000 0.000000 0.000000 0.000000 153.000000 -0.769352 0.583701 0.259597
-2.20000005 19.27000046 -1.01999998 72 167 136 0.000000 0.000000 0.000000 0.000000 0.000000 0.000000 153.000000 0.815295 -0.564662 -0.128265
-2.25000000 19.23999977 -1.04999995 72 167 136 0.000000 0.000000 0.000000 0.000000 0.000000 0.000000 153.000000 0.804468 -0.356653 -0.475004
-2.27999997 19.21999931 -1.04999995 72 167 136 0.000000 0.000000 0.000000 0.000000 0.000000 0.000000 153.000000 0.847896 -0.494980 -0.189917
-2.28999996 19.21999931 -1.07000005 72 167 136 0.000000 0.000000 0.000000 0.000000 0.000000 0.000000 153.000000 0.923480 -0.371296 -0.096564
-2.25999999 18.90999985 -1.16999996 72 167 136 0.000000 0.000000 0.000000 0.000000 0.000000 0.000000 65.000000 0.583924 0.634408 0.506517
-2.39000010 18.84000015 -1.27999997 72 167 136 0.000000 0.000000 0.000000 0.000000 0.000000 0.000000 65.000000 0.921145 0.203592 0.331726
-2.39000010 18.82999992 -1.27999997 72 167 136 0.000000 0.000000 0.000000 0.000000 0.000000 0.000000 65.000000 0.788682 0.245194 0.563791
-1.51999998 18.61000061 -1.16999996 72 167 136 0.000000 0.000000 0.000000 0.000000 0.000000 0.000000 153.000000 0.568495 -0.445127 -0.691864
-1.51999998 18.59000015 -1.17999995 72 167 136 0.000000 0.000000 0.000000 0.000000 0.000000 0.000000 153.000000 0.679803 -0.380229 -0.627131
-1.52999997 18.61000061 -1.19000006 72 167 136 0.000000 0.000000 0.000000 0.000000 0.000000 0.000000 153.000000 0.711490 -0.478214 -0.514872
-1.52999997 18.62000084 -1.19000006 72 167 136 0.000000 0.000000 0.000000 0.000000 0.000000 0.000000 153.000000 -0.653226 0.495377 0.572623
-1.53999996 18.59000015 -1.21000004 72 167 136 0.000000 0.000000 0.000000 0.000000 0.000000 0.000000 153.000000 0.780261 -0.565886 -0.266392
-1.53999996 18.59000015 -1.19000006 72 167 136 0.000000 0.000000 0.000000 0.000000 0.000000 0.000000 153.000000 0.865174 -0.421183 -0.272173
-1.53999996 18.59000015 -1.21000004 72 167 136 0.000000 0.000000 0.000000 0.000000 0.000000 0.000000 153.000000 0.780261 -0.565886 -0.266392
-1.54999995 18.59000015 -1.21000004 72 167 136 0.000000 0.000000 0.000000 0.000000 0.000000 0.000000 153.000000 0.821282 -0.366956 -0.436852
-1.53999996 18.62000084 -1.20000005 72 167 136 0.000000 0.000000 0.000000 0.000000 0.000000 0.000000 153.000000 0.932385 -0.313583 -0.179787
-1.50999999 18.57999992 -1.15999997 72 167 136 0.000000 0.000000 0.000000 0.000000 0.000000 0.000000 153.000000 0.549131 -0.348269 -0.759713
-1.52999997 18.51000023 -1.17999995 72 167 136 0.000000 0.000000 0.000000 0.000000 0.000000 0.000000 153.000000 0.899723 -0.407664 -0.155914
-1.53999996 18.54999924 -1.17999995 72 167 136 0.000000 0.000000 0.000000 0.000000 0.000000 0.000000 153.000000 -0.539965 0.247419 0.804501
-1.54999995 18.57999992 -1.21000004 72 167 136 0.000000 0.000000 0.000000 0.000000 0.000000 0.000000 153.000000 0.724429 -0.479085 -0.495662
-1.53999996 18.57999992 -1.20000005 72 167 136 0.000000 0.000000 0.000000 0.000000 0.000000 0.000000 153.000000 0.854390 -0.450885 -0.258304
-1.57000005 18.53000069 -1.15999997 72 167 136 0.000000 0.000000 0.000000 0.000000 0.000000 0.000000 153.000000 -0.541183 0.299952 0.785589
-1.57000005 18.54000092 -1.20000005 72 167 136 0.000000 0.000000 0.000000 0.000000 0.000000 0.000000 153.000000 -0.733470 0.608282 0.303339
-1.55999994 18.54000092 -1.19000006 72 167 136 0.000000 0.000000 0.000000 0.000000 0.000000 0.000000 153.000000 0.782493 -0.290459 -0.550761
-1.58000004 18.53000069 -1.17999995 72 167 136 0.000000 0.000000 0.000000 0.000000 0.000000 0.000000 153.000000 0.679135 -0.262429 -0.685497
-1.60000002 18.46999931 -1.17999995 72 167 136 0.000000 0.000000 0.000000 0.000000 0.000000 0.000000 153.000000 0.768976 -0.543281 -0.336931
-1.58000004 18.46999931 -1.16999996 72 167 136 0.000000 0.000000 0.000000 0.000000 0.000000 0.000000 153.000000 -0.556291 0.367054 0.745528
-1.60000002 18.46999931 -1.16999996 72 167 136 0.000000 0.000000 0.000000 0.000000 0.000000 0.000000 153.000000 -0.380138 0.399066 0.834411
-1.60000002 18.46999931 -1.16999996 72 167 136 0.000000 0.000000 0.000000 0.000000 0.000000 0.000000 153.000000 -0.380138 0.399066 0.834411
-1.61000001 18.47999954 -1.19000006 72 167 136 0.000000 0.000000 0.000000 0.000000 0.000000 0.000000 153.000000 0.688603 -0.521059 -0.504305
-1.60000002 18.48999977 -1.19000006 72 167 136 0.000000 0.000000 0.000000 0.000000 0.000000 0.000000 153.000000 0.847727 -0.321981 -0.421530
-1.62000000 18.44000053 -1.17999995 72 167 136 0.000000 0.000000 0.000000 0.000000 0.000000 0.000000 153.000000 0.731886 -0.530328 -0.427897
-1.62000000 18.44000053 -1.16999996 72 167 136 0.000000 0.000000 0.000000 0.000000 0.000000 0.000000 153.000000 0.681993 -0.123863 -0.720794
-1.63000000 18.43000031 -1.17999995 72 167 136 0.000000 0.000000 0.000000 0.000000 0.000000 0.000000 153.000000 -0.634370 0.139471 0.760344
-1.64999998 18.38999939 -1.20000005 72 167 136 0.000000 0.000000 0.000000 0.000000 0.000000 0.000000 153.000000 -0.333703 0.633222 0.698335
-1.65999997 18.37999916 -1.19000006 72 167 136 0.000000 0.000000 0.000000 0.000000 0.000000 0.000000 153.000000 -0.534574 0.372089 0.758802
-1.63999999 18.36000061 -1.22000003 72 167 136 0.000000 0.000000 0.000000 0.000000 0.000000 0.000000 153.000000 -0.539178 0.505584 0.673552
-1.63999999 18.35000038 -1.21000004 72 167 136 0.000000 0.000000 0.000000 0.000000 0.000000 0.000000 153.000000 -0.451946 0.695430 0.558679
-1.66999996 18.37000084 -1.20000005 72 167 136 0.000000 0.000000 0.000000 0.000000 0.000000 0.000000 153.000000 0.782227 -0.383825 -0.490714
-1.69000006 18.34000015 -1.21000004 72 167 136 0.000000 0.000000 0.000000 0.000000 0.000000 0.000000 153.000000 -0.466790 0.044910 0.883227
-1.69000006 18.30999947 -1.20000005 72 167 136 0.000000 0.000000 0.000000 0.000000 0.000000 0.000000 153.000000 -0.196120 0.696456 0.690279
-1.69000006 18.30999947 -1.19000006 72 167 136 0.000000 0.000000 0.000000 0.000000 0.000000 0.000000 153.000000 -0.339792 0.427480 0.837736
-1.72000003 18.31999969 -1.21000004 72 167 136 0.000000 0.000000 0.000000 0.000000 0.000000 0.000000 153.000000 -0.300518 0.453113 0.839272
-1.71000004 18.29999924 -1.20000005 72 167 136 0.000000 0.000000 0.000000 0.000000 0.000000 0.000000 153.000000 -0.528878 0.360672 0.768247
-1.72000003 18.30999947 -1.20000005 72 167 136 0.000000 0.000000 0.000000 0.000000 0.000000 0.000000 153.000000 -0.404292 0.213172 0.889441
-1.73000002 18.29000092 -1.21000004 72 167 136 0.000000 0.000000 0.000000 0.000000 0.000000 0.000000 153.000000 -0.597455 0.560220 0.573760
-1.71000004 18.29999924 -1.20000005 72 167 136 0.000000 0.000000 0.000000 0.000000 0.000000 0.000000 153.000000 -0.528878 0.360672 0.768247
-1.71000004 18.25000000 -1.19000006 72 167 136 0.000000 0.000000 0.000000 0.000000 0.000000 0.000000 153.000000 -0.328976 0.730878 0.597991
-1.74000001 18.27000046 -1.20000005 72 167 136 0.000000 0.000000 0.000000 0.000000 0.000000 0.000000 153.000000 -0.235811 0.364702 0.900770
-1.76999998 18.27000046 -1.20000005 72 167 136 0.000000 0.000000 0.000000 0.000000 0.000000 0.000000 153.000000 -0.244312 0.679345 0.691955
-1.77999997 18.22999954 -1.22000003 72 167 136 0.000000 0.000000 0.000000 0.000000 0.000000 0.000000 153.000000 -0.238643 0.584908 0.775198
-1.75999999 18.21999931 -1.20000005 72 167 136 0.000000 0.000000 0.000000 0.000000 0.000000 0.000000 153.000000 -0.358655 0.540417 0.761128
-1.76999998 18.21999931 -1.21000004 72 167 136 0.000000 0.000000 0.000000 0.000000 0.000000 0.000000 153.000000 0.651444 -0.347763 -0.674301
-1.88999999 18.67000008 -1.13999999 72 167 136 0.000000 0.000000 0.000000 0.000000 0.000000 0.000000 153.000000 -0.509370 0.062799 0.858253
-1.94000006 18.70999908 -1.13000000 72 167 136 0.000000 0.000000 0.000000 0.000000 0.000000 0.000000 153.000000 -0.084474 0.189761 0.978189
-1.91999996 18.48999977 -1.17999995 72 167 136 0.000000 0.000000 0.000000 0.000000 0.000000 0.000000 153.000000 0.078370 0.427597 0.900566
-2.02999997 18.75000000 -1.09000003 72 167 136 0.000000 0.000000 0.000000 0.000000 0.000000 0.000000 153.000000 -0.015357 0.735733 0.677098
-1.97000003 18.62999916 -1.13000000 72 167 136 0.000000 0.000000 0.000000 0.000000 0.000000 0.000000 153.000000 0.192875 0.488915 0.850742
-2.00000000 18.61000061 -1.17999995 72 167 136 0.000000 0.000000 0.000000 0.000000 0.000000 0.000000 153.000000 -0.093369 0.303778 0.948157
-2.00000000 18.59000015 -1.15999997 72 167 136 0.000000 0.000000 0.000000 0.000000 0.000000 0.000000 153.000000 0.312708 0.509540 0.801613
-2.03999996 18.56999969 -1.10000002 72 167 136 0.000000 0.000000 0.000000 0.000000 0.000000 0.000000 153.000000 0.020757 0.267397 0.963363
-2.00999999 18.55999947 -1.11000001 72 167 136 0.000000 0.000000 0.000000 0.000000 0.000000 0.000000 153.000000 -0.329740 0.323718 0.886836
-2.01999998 18.44000053 -1.13999999 72 167 136 0.000000 0.000000 0.000000 0.000000 0.000000 0.000000 153.000000 -0.197219 0.271693 0.941960
-2.03999996 18.42000008 -1.13999999 72 167 136 0.000000 0.000000 0.000000 0.000000 0.000000 0.000000 153.000000 0.332487 0.458549 0.824127
-2.01999998 18.44000053 -1.13999999 72 167 136 0.000000 0.000000 0.000000 0.000000 0.000000 0.000000 153.000000 -0.197219 0.271693 0.941960
-1.99000001 18.48999977 -1.15999997 72 167 136 0.000000 0.000000 0.000000 0.000000 0.000000 0.000000 153.000000 0.206261 0.640493 0.739747
-1.99000001 18.44000053 -1.14999998 72 167 136 0.000000 0.000000 0.000000 0.000000 0.000000 0.000000 153.000000 0.237858 -0.691522 -0.682071
-1.98000002 18.42000008 -1.19000006 72 167 136 0.000000 0.000000 0.000000 0.000000 0.000000 0.000000 153.000000 0.082407 0.249757 0.964796
-2.02999997 18.46999931 -1.14999998 72 167 136 0.000000 0.000000 0.000000 0.000000 0.000000 0.000000 153.000000 0.120891 -0.537454 -0.834583
-2.07999992 18.50000000 -1.13999999 72 167 136 0.000000 0.000000 0.000000 0.000000 0.000000 0.000000 153.000000 -0.028336 0.141682 0.989507
-2.07999992 18.48999977 -1.14999998 72 167 136 0.000000 0.000000 0.000000 0.000000 0.000000 0.000000 153.000000 -0.071270 0.304518 0.949837
-1.96000004 18.43000031 -1.25999999 72 167 136 0.000000 0.000000 0.000000 0.000000 0.000000 0.000000 153.000000 -0.344050 0.611464 0.712559
-1.84000003 18.25000000 -1.21000004 72 167 136 0.000000 0.000000 0.000000 0.000000 0.000000 0.000000 153.000000 -0.011487 0.366299 0.930426
-1.92999995 18.37000084 -1.20000005 72 167 136 0.000000 0.000000 0.000000 0.000000 0.000000 0.000000 153.000000 0.108607 0.543036 0.832656
-1.94000006 18.27000046 -1.17999995 72 167 136 0.000000 0.000000 0.000000 0.000000 0.000000 0.000000 153.000000 -0.015284 0.212795 0.976977
-1.95000005 18.28000069 -1.19000006 72 167 136 0.000000 0.000000 0.000000 0.000000 0.000000 0.000000 153.000000 0.133134 0.223613 0.965543
-1.96000004 18.26000023 -1.20000005 72 167 136 0.000000 0.000000 0.000000 0.000000 0.000000 0.000000 153.000000 -0.210614 0.791724 0.573424
-1.96000004 18.26000023 -1.20000005 72 167 136 0.000000 0.000000 0.000000 0.000000 0.000000 0.000000 153.000000 -0.210614 0.791724 0.573424
-1.80999994 18.20000076 -1.22000003 72 167 136 0.000000 0.000000 0.000000 0.000000 0.000000 0.000000 153.000000 -0.583805 0.427459 0.690254
-1.90999997 18.22999954 -1.22000003 72 167 136 0.000000 0.000000 0.000000 0.000000 0.000000 0.000000 153.000000 -0.162159 0.622874 0.765332
-1.90999997 18.21999931 -1.21000004 72 167 136 0.000000 0.000000 0.000000 0.000000 0.000000 0.000000 153.000000 0.018142 0.741017 0.671241
-1.91999996 18.17000008 -1.22000003 72 167 136 0.000000 0.000000 0.000000 0.000000 0.000000 0.000000 153.000000 -0.126092 0.280058 0.951666
-1.91999996 18.19000053 -1.19000006 72 167 136 0.000000 0.000000 0.000000 0.000000 0.000000 0.000000 153.000000 -0.251773 0.191892 0.948572
-1.88999999 18.15999985 -1.19000006 72 167 136 0.000000 0.000000 0.000000 0.000000 0.000000 0.000000 153.000000 -0.129155 0.497755 0.857647
-1.91999996 18.19000053 -1.19000006 72 167 136 0.000000 0.000000 0.000000 0.000000 0.000000 0.000000 153.000000 -0.251773 0.191892 0.948572
-1.89999998 18.17000008 -1.20000005 72 167 136 0.000000 0.000000 0.000000 0.000000 0.000000 0.000000 153.000000 0.014113 0.373344 0.927586
-1.94000006 18.18000031 -1.20000005 72 167 136 0.000000 0.000000 0.000000 0.000000 0.000000 0.000000 153.000000 -0.198040 0.206014 0.958300
-1.88000000 18.13999939 -1.17999995 72 167 136 0.000000 0.000000 0.000000 0.000000 0.000000 0.000000 153.000000 0.046968 0.298307 0.953314
-1.88999999 18.12000084 -1.19000006 72 167 136 0.000000 0.000000 0.000000 0.000000 0.000000 0.000000 153.000000 -0.228587 0.428787 0.874008
-1.89999998 18.12000084 -1.19000006 72 167 136 0.000000 0.000000 0.000000 0.000000 0.000000 0.000000 153.000000 -0.348982 0.414709 0.840374
-1.89999998 18.14999962 -1.20000005 72 167 136 0.000000 0.000000 0.000000 0.000000 0.000000 0.000000 153.000000 -0.398987 0.174287 0.900241
-1.90999997 18.11000061 -1.17999995 72 167 136 0.000000 0.000000 0.000000 0.000000 0.000000 0.000000 153.000000 -0.072919 0.123847 0.989618
-1.88000000 18.09000015 -1.17999995 72 167 136 0.000000 0.000000 0.000000 0.000000 0.000000 0.000000 153.000000 0.161810 0.515119 0.841707
-1.89999998 18.10000038 -1.17999995 72 167 136 0.000000 0.000000 0.000000 0.000000 0.000000 0.000000 153.000000 -0.126062 0.505696 0.853452
-1.88999999 18.09000015 -1.20000005 72 167 136 0.000000 0.000000 0.000000 0.000000 0.000000 0.000000 153.000000 -0.316692 0.353058 0.880373
-1.92999995 18.13999939 -1.20000005 72 167 136 0.000000 0.000000 0.000000 0.000000 0.000000 0.000000 153.000000 -0.184039 0.330146 0.925815
-1.92999995 18.12000084 -1.19000006 72 167 136 0.000000 0.000000 0.000000 0.000000 0.000000 0.000000 153.000000 -0.173072 0.217991 0.960482
-1.92999995 18.12000084 -1.19000006 72 167 136 0.000000 0.000000 0.000000 0.000000 0.000000 0.000000 153.000000 -0.173072 0.217991 0.960482
-1.99000001 18.39999962 -1.16999996 72 167 136 0.000000 0.000000 0.000000 0.000000 0.000000 0.000000 153.000000 0.034351 0.324426 0.945287
-1.99000001 18.39999962 -1.16999996 72 167 136 0.000000 0.000000 0.000000 0.000000 0.000000 0.000000 153.000000 0.034351 0.324426 0.945287
-1.99000001 18.36000061 -1.20000005 72 167 136 0.000000 0.000000 0.000000 0.000000 0.000000 0.000000 153.000000 0.067894 0.677495 0.732388
-2.01999998 18.38999939 -1.17999995 72 167 136 0.000000 0.000000 0.000000 0.000000 0.000000 0.000000 153.000000 0.130045 0.710013 0.692076
-2.01999998 18.37000084 -1.14999998 72 167 136 0.000000 0.000000 0.000000 0.000000 0.000000 0.000000 153.000000 0.243110 0.336278 0.909843
-2.03999996 18.37000084 -1.14999998 72 167 136 0.000000 0.000000 0.000000 0.000000 0.000000 0.000000 153.000000 -0.010424 0.193432 0.981058
-2.03999996 18.35000038 -1.20000005 72 167 136 0.000000 0.000000 0.000000 0.000000 0.000000 0.000000 153.000000 0.265628 0.262788 0.927569
-2.02999997 18.35000038 -1.19000006 72 167 136 0.000000 0.000000 0.000000 0.000000 0.000000 0.000000 153.000000 -0.227627 0.412110 0.882242
-1.98000002 18.29999924 -1.17999995 72 167 136 0.000000 0.000000 0.000000 0.000000 0.000000 0.000000 153.000000 -0.452389 0.589274 0.669402
-1.98000002 18.29999924 -1.17999995 72 167 136 0.000000 0.000000 0.000000 0.000000 0.000000 0.000000 153.000000 -0.452389 0.589274 0.669402
-1.97000003 18.30999947 -1.17999995 72 167 136 0.000000 0.000000 0.000000 0.000000 0.000000 0.000000 153.000000 -0.092677 0.511862 0.854054
-1.99000001 18.29999924 -1.21000004 72 167 136 0.000000 0.000000 0.000000 0.000000 0.000000 0.000000 153.000000 0.110885 0.428099 0.896903
-1.98000002 18.29999924 -1.20000005 72 167 136 0.000000 0.000000 0.000000 0.000000 0.000000 0.000000 153.000000 -0.266737 0.765488 0.585559
-1.97000003 18.25000000 -1.19000006 72 167 136 0.000000 0.000000 0.000000 0.000000 0.000000 0.000000 153.000000 -0.278718 0.746964 0.603623
-1.98000002 18.25000000 -1.19000006 72 167 136 0.000000 0.000000 0.000000 0.000000 0.000000 0.000000 153.000000 0.198114 0.313330 0.928749
-2.01999998 18.27000046 -1.17999995 72 167 136 0.000000 0.000000 0.000000 0.000000 0.000000 0.000000 153.000000 0.247148 0.247148 0.936929
-2.04999995 18.28000069 -1.17999995 72 167 136 0.000000 0.000000 0.000000 0.000000 0.000000 0.000000 153.000000 0.242871 0.338857 0.908950
-2.00999999 18.25000000 -1.17999995 72 167 136 0.000000 0.000000 0.000000 0.000000 0.000000 0.000000 153.000000 -0.442322 0.461909 0.768760
-2.01999998 18.27000046 -1.20000005 72 167 136 0.000000 0.000000 0.000000 0.000000 0.000000 0.000000 153.000000 0.284213 0.566839 0.773251
-1.97000003 18.19000053 -1.17999995 72 167 136 0.000000 0.000000 0.000000 0.000000 0.000000 0.000000 153.000000 0.302800 0.484794 0.820541
-1.98000002 18.17000008 -1.19000006 72 167 136 0.000000 0.000000 0.000000 0.000000 0.000000 0.000000 153.000000 -0.167154 0.576758 0.799631
-2.04999995 18.21999931 -1.20000005 72 167 136 0.000000 0.000000 0.000000 0.000000 0.000000 0.000000 153.000000 0.062415 0.156626 0.985684
-1.99000001 18.12999916 -1.20000005 72 167 136 0.000000 0.000000 0.000000 0.000000 0.000000 0.000000 153.000000 -0.206609 0.663323 0.719247
-1.83000004 18.25000000 -1.25000000 72 167 136 0.000000 0.000000 0.000000 0.000000 0.000000 0.000000 153.000000 0.042075 0.317477 0.947332
-1.92999995 18.22999954 -1.23000002 72 167 136 0.000000 0.000000 0.000000 0.000000 0.000000 0.000000 153.000000 -0.242987 0.369635 0.896843
-1.90999997 18.22999954 -1.23000002 72 167 136 0.000000 0.000000 0.000000 0.000000 0.000000 0.000000 153.000000 0.187727 0.331698 0.924519
-1.97000003 18.35000038 -1.25999999 72 167 136 0.000000 0.000000 0.000000 0.000000 0.000000 0.000000 153.000000 -0.266779 0.187430 0.945357
-2.02999997 18.28000069 -1.23000002 72 167 136 0.000000 0.000000 0.000000 0.000000 0.000000 0.000000 153.000000 -0.229819 0.535217 0.812851
-2.41000009 18.75000000 -1.35000002 72 167 136 0.000000 0.000000 0.000000 0.000000 0.000000 0.000000 65.000000 0.433769 0.202820 0.877900
-2.11999989 20.60000038 -1.25000000 72 167 136 0.000000 0.000000 0.000000 0.000000 0.000000 0.000000 1.000000 -0.092424 0.191009 0.977227
-2.11999989 20.60000038 -1.25000000 72 167 136 0.000000 0.000000 0.000000 0.000000 0.000000 0.000000 1.000000 -0.092424 0.191009 0.977227
-2.10999990 20.55999947 -1.28999996 72 167 136 0.000000 0.000000 0.000000 0.000000 0.000000 0.000000 1.000000 -0.477986 0.445135 0.757222
-1.98000002 20.18000031 -1.55999994 72 167 136 0.000000 0.000000 0.000000 0.000000 0.000000 0.000000 153.000000 0.095486 0.686027 0.721283
-1.98000002 20.17000008 -1.55999994 72 167 136 0.000000 0.000000 0.000000 0.000000 0.000000 0.000000 153.000000 0.209710 0.484294 0.849400
-2.20000005 20.53000069 -1.21000004 72 167 136 0.000000 0.000000 0.000000 0.000000 0.000000 0.000000 1.000000 -0.528471 0.114381 0.841210
-2.15000010 20.57999992 -1.25000000 72 167 136 0.000000 0.000000 0.000000 0.000000 0.000000 0.000000 1.000000 -0.387394 0.261752 0.883975
-2.14000010 20.59000015 -1.25999999 72 167 136 0.000000 0.000000 0.000000 0.000000 0.000000 0.000000 1.000000 -0.474196 0.143564 0.868635
-2.21000004 20.51000023 -1.29999995 72 167 136 0.000000 0.000000 0.000000 0.000000 0.000000 0.000000 1.000000 -0.537403 0.130324 0.833195
-2.16000009 20.54999924 -1.34000003 72 167 136 0.000000 0.000000 0.000000 0.000000 0.000000 0.000000 1.000000 -0.248054 0.649365 0.718884
-2.25000000 20.59000015 -1.34000003 72 167 136 0.000000 0.000000 0.000000 0.000000 0.000000 0.000000 1.000000 -0.502829 0.089235 0.859767
-2.23000002 20.59000015 -1.32000005 72 167 136 0.000000 0.000000 0.000000 0.000000 0.000000 0.000000 1.000000 -0.146103 0.274781 0.950342
-2.25000000 20.57999992 -1.32000005 72 167 136 0.000000 0.000000 0.000000 0.000000 0.000000 0.000000 1.000000 -0.146537 0.705490 0.693405
-2.25999999 20.51000023 -1.34000003 72 167 136 0.000000 0.000000 0.000000 0.000000 0.000000 0.000000 1.000000 -0.416861 0.639409 0.646052
-2.16000009 20.38999939 -1.20000005 72 167 136 0.000000 0.000000 0.000000 0.000000 0.000000 0.000000 1.000000 0.061347 0.434883 0.898395
-2.19000006 20.44000053 -1.28999996 72 167 136 0.000000 0.000000 0.000000 0.000000 0.000000 0.000000 1.000000 -0.440056 0.246492 0.863477
-2.14000010 20.44000053 -1.25999999 72 167 136 0.000000 0.000000 0.000000 0.000000 0.000000 0.000000 1.000000 -0.123466 0.739306 0.661954
-2.24000001 20.44000053 -1.24000001 72 167 136 0.000000 0.000000 0.000000 0.000000 0.000000 0.000000 1.000000 -0.034424 0.521865 0.852333
-1.97000003 20.18000031 -1.57000005 72 167 136 0.000000 0.000000 0.000000 0.000000 0.000000 0.000000 153.000000 0.165695 0.470691 0.866600
-1.91999996 19.62999916 -0.75000000 72 167 136 0.000000 0.000000 0.000000 0.000000 0.000000 0.000000 153.000000 0.186028 0.135408 0.973169
-1.87000000 19.62999916 -0.72000003 72 167 136 0.000000 0.000000 0.000000 0.000000 0.000000 0.000000 153.000000 0.063302 0.530326 0.845427
-1.89999998 19.61000061 -0.69999999 72 167 136 0.000000 0.000000 0.000000 0.000000 0.000000 0.000000 153.000000 -0.145851 0.354209 0.923722
-1.90999997 19.61000061 -0.75000000 72 167 136 0.000000 0.000000 0.000000 0.000000 0.000000 0.000000 153.000000 0.263330 0.171502 0.949339
-1.96000004 19.51000023 -0.82999998 72 167 136 0.000000 0.000000 0.000000 0.000000 0.000000 0.000000 153.000000 0.491147 0.365542 0.790666
-2.02999997 19.50000000 -0.77999997 72 167 136 0.000000 0.000000 0.000000 0.000000 0.000000 0.000000 153.000000 -0.172064 0.469132 0.866204
-2.00999999 19.45000076 -0.81999999 72 167 136 0.000000 0.000000 0.000000 0.000000 0.000000 0.000000 153.000000 -0.217427 0.233836 0.947653
-2.04999995 19.46999931 -0.86000001 72 167 136 0.000000 0.000000 0.000000 0.000000 0.000000 0.000000 153.000000 -0.214047 0.499443 0.839489
-1.91999996 20.07999992 -1.50999999 72 167 136 0.000000 0.000000 0.000000 0.000000 0.000000 0.000000 153.000000 0.700056 0.390384 0.597931
-1.96000004 20.06999969 -1.51999998 72 167 136 0.000000 0.000000 0.000000 0.000000 0.000000 0.000000 153.000000 0.271396 0.598341 0.753878
-1.91999996 20.04000092 -1.50999999 72 167 136 0.000000 0.000000 0.000000 0.000000 0.000000 0.000000 153.000000 0.918403 0.065696 0.390154
-1.91999996 19.97999954 -1.49000001 72 167 136 0.000000 0.000000 0.000000 0.000000 0.000000 0.000000 153.000000 0.935386 0.321838 0.146539
-1.90999997 20.02000046 -1.50000000 72 167 136 0.000000 0.000000 0.000000 0.000000 0.000000 0.000000 153.000000 0.531771 0.397601 0.747752
-1.96000004 19.88999939 -1.45000005 72 167 136 0.000000 0.000000 0.000000 0.000000 0.000000 0.000000 153.000000 0.299691 0.335475 0.893108
-1.95000005 19.88999939 -1.45000005 72 167 136 0.000000 0.000000 0.000000 0.000000 0.000000 0.000000 153.000000 0.526360 0.401739 0.749367
-1.95000005 19.95000076 -1.54999995 72 167 136 0.000000 0.000000 0.000000 0.000000 0.000000 0.000000 153.000000 0.947797 -0.252291 -0.195014
-1.94000006 19.88999939 -1.50999999 72 167 136 0.000000 0.000000 0.000000 0.000000 0.000000 0.000000 153.000000 0.982763 0.017363 -0.184051
-1.96000004 19.85000038 -1.47000003 72 167 136 0.000000 0.000000 0.000000 0.000000 0.000000 0.000000 153.000000 0.797152 0.064171 0.600359
-1.94000006 19.82999992 -1.46000004 72 167 136 0.000000 0.000000 0.000000 0.000000 0.000000 0.000000 153.000000 0.998316 -0.009369 -0.057255
-1.95000005 19.80999947 -1.40999997 72 167 136 0.000000 0.000000 0.000000 0.000000 0.000000 0.000000 153.000000 0.762600 0.382113 0.521950
-1.92999995 19.84000015 -1.49000001 72 167 136 0.000000 0.000000 0.000000 0.000000 0.000000 0.000000 153.000000 0.862743 -0.169599 -0.476352
-1.94000006 19.85000038 -1.49000001 72 167 136 0.000000 0.000000 0.000000 0.000000 0.000000 0.000000 153.000000 0.964330 0.244604 -0.101171
-1.94000006 19.87000084 -1.49000001 72 167 136 0.000000 0.000000 0.000000 0.000000 0.000000 0.000000 153.000000 0.964851 -0.260005 -0.038200
-1.95000005 19.79000092 -1.49000001 72 167 136 0.000000 0.000000 0.000000 0.000000 0.000000 0.000000 153.000000 0.907120 -0.408550 -0.101099
-1.95000005 19.84000015 -1.50999999 72 167 136 0.000000 0.000000 0.000000 0.000000 0.000000 0.000000 153.000000 0.920483 -0.116952 -0.372871
-1.95000005 19.81999969 -1.50000000 72 167 136 0.000000 0.000000 0.000000 0.000000 0.000000 0.000000 153.000000 0.941644 -0.116866 -0.315672
-1.99000001 20.09000015 -1.51999998 72 167 136 0.000000 0.000000 0.000000 0.000000 0.000000 0.000000 153.000000 -0.162585 0.541454 0.824860
-1.98000002 20.10000038 -1.53999996 72 167 136 0.000000 0.000000 0.000000 0.000000 0.000000 0.000000 153.000000 0.192271 0.430041 0.882098
-1.98000002 20.04999924 -1.50999999 72 167 136 0.000000 0.000000 0.000000 0.000000 0.000000 0.000000 153.000000 0.316093 0.179630 0.931568
-1.99000001 20.05999947 -1.50999999 72 167 136 0.000000 0.000000 0.000000 0.000000 0.000000 0.000000 153.000000 0.200773 0.502687 0.840831
-1.99000001 20.07999992 -1.50999999 72 167 136 0.000000 0.000000 0.000000 0.000000 0.000000 0.000000 153.000000 -0.185458 0.620749 0.761759
-2.00000000 20.07999992 -1.51999998 72 167 136 0.000000 0.000000 0.000000 0.000000 0.000000 0.000000 153.000000 -0.350687 0.488399 0.799053
-2.01999998 20.09000015 -1.53999996 72 167 136 0.000000 0.000000 0.000000 0.000000 0.000000 0.000000 153.000000 -0.383119 0.718553 0.580433
-2.00999999 20.07999992 -1.52999997 72 167 136 0.000000 0.000000 0.000000 0.000000 0.000000 0.000000 153.000000 0.356841 -0.584958 -0.728346
-2.00999999 20.01000023 -1.48000002 72 167 136 0.000000 0.000000 0.000000 0.000000 0.000000 0.000000 153.000000 -0.234100 0.652023 0.721154
-1.97000003 20.04000092 -1.50999999 72 167 136 0.000000 0.000000 0.000000 0.000000 0.000000 0.000000 153.000000 0.089573 0.235917 0.967636
-1.99000001 20.00000000 -1.49000001 72 167 136 0.000000 0.000000 0.000000 0.000000 0.000000 0.000000 153.000000 -0.211319 0.211319 0.954300
-1.98000002 20.00000000 -1.50000000 72 167 136 0.000000 0.000000 0.000000 0.000000 0.000000 0.000000 153.000000 0.223221 0.540349 0.811293
-2.02999997 19.79000092 -1.30999994 72 167 136 0.000000 0.000000 0.000000 0.000000 0.000000 0.000000 153.000000 -0.259942 0.268465 0.927554
-2.04999995 19.90999985 -1.49000001 72 167 136 0.000000 0.000000 0.000000 0.000000 0.000000 0.000000 153.000000 0.970652 0.101975 -0.217799
-2.04999995 19.94000053 -1.49000001 72 167 136 0.000000 0.000000 0.000000 0.000000 0.000000 0.000000 153.000000 0.890401 -0.421311 -0.172289
-2.01999998 19.87000084 -1.45000005 72 167 136 0.000000 0.000000 0.000000 0.000000 0.000000 0.000000 153.000000 -0.638021 0.182073 0.748183
-2.01999998 19.87000084 -1.45000005 72 167 136 0.000000 0.000000 0.000000 0.000000 0.000000 0.000000 153.000000 -0.638021 0.182073 0.748183
-2.02999997 19.81999969 -1.41999996 72 167 136 0.000000 0.000000 0.000000 0.000000 0.000000 0.000000 153.000000 0.713884 -0.023843 -0.699858
-2.03999996 19.80999947 -1.41999996 72 167 136 0.000000 0.000000 0.000000 0.000000 0.000000 0.000000 153.000000 0.470311 -0.580775 -0.664461
-1.97000003 19.45999908 -1.07000005 72 167 136 0.000000 0.000000 0.000000 0.000000 0.000000 0.000000 153.000000 0.151037 0.491237 0.857831
-2.00000000 19.45999908 -1.07000005 72 167 136 0.000000 0.000000 0.000000 0.000000 0.000000 0.000000 153.000000 0.205328 0.603634 0.770367
-1.97000003 19.45000076 -1.13000000 72 167 136 0.000000 0.000000 0.000000 0.000000 0.000000 0.000000 153.000000 0.612544 0.155017 0.775087
-2.00000000 19.47999954 -1.11000001 72 167 136 0.000000 0.000000 0.000000 0.000000 0.000000 0.000000 153.000000 0.285604 0.285604 0.914801
-2.04999995 19.48999977 -1.13999999 72 167 136 0.000000 0.000000 0.000000 0.000000 0.000000 0.000000 153.000000 -0.303878 0.418025 0.856103
-2.03999996 19.45000076 -1.11000001 72 167 136 0.000000 0.000000 0.000000 0.000000 0.000000 0.000000 153.000000 -0.451264 0.142732 0.880902
-2.00999999 19.46999931 -1.10000002 72 167 136 0.000000 0.000000 0.000000 0.000000 0.000000 0.000000 153.000000 0.264946 0.617150 0.740898
-1.99000001 19.45999908 -1.16999996 72 167 136 0.000000 0.000000 0.000000 0.000000 0.000000 0.000000 153.000000 0.299935 0.231704 0.925393
-2.00000000 19.45999908 -1.16999996 72 167 136 0.000000 0.000000 0.000000 0.000000 0.000000 0.000000 153.000000 0.325263 0.224962 0.918475
-1.98000002 19.45999908 -1.21000004 72 167 136 0.000000 0.000000 0.000000 0.000000 0.000000 0.000000 153.000000 0.669753 0.596264 0.442605
-2.03999996 19.50000000 -1.14999998 72 167 136 0.000000 0.000000 0.000000 0.000000 0.000000 0.000000 153.000000 0.072632 0.556845 0.827435
-2.10999990 19.54999924 -1.22000003 72 167 136 0.000000 0.000000 0.000000 0.000000 0.000000 0.000000 153.000000 0.822682 -0.309882 -0.476621
-2.08999991 19.48999977 -1.20000005 72 167 136 0.000000 0.000000 0.000000 0.000000 0.000000 0.000000 153.000000 0.721693 -0.482788 -0.496060
-2.08999991 19.47999954 -1.17999995 72 167 136 0.000000 0.000000 0.000000 0.000000 0.000000 0.000000 153.000000 0.829962 -0.020646 -0.557437
-2.05999994 19.46999931 -1.14999998 72 167 136 0.000000 0.000000 0.000000 0.000000 0.000000 0.000000 153.000000 0.709319 -0.436887 -0.553169
-2.07999992 19.46999931 -1.14999998 72 167 136 0.000000 0.000000 0.000000 0.000000 0.000000 0.000000 153.000000 0.581574 -0.524260 -0.622032
-2.08999991 19.45999908 -1.20000005 72 167 136 0.000000 0.000000 0.000000 0.000000 0.000000 0.000000 153.000000 0.823042 -0.084746 -0.561622
-2.10999990 19.48999977 -1.22000003 72 167 136 0.000000 0.000000 0.000000 0.000000 0.000000 0.000000 153.000000 0.965561 -0.209227 -0.154646
-2.10999990 19.47999954 -1.19000006 72 167 136 0.000000 0.000000 0.000000 0.000000 0.000000 0.000000 153.000000 0.790824 -0.460910 -0.402690
-1.95000005 19.73999977 -1.38000000 72 167 136 0.000000 0.000000 0.000000 0.000000 0.000000 0.000000 153.000000 0.826384 0.093743 0.555249
-1.95000005 19.65999985 -1.36000001 72 167 136 0.000000 0.000000 0.000000 0.000000 0.000000 0.000000 153.000000 0.866811 -0.255656 0.428111
-1.96000004 19.62000084 -1.35000002 72 167 136 0.000000 0.000000 0.000000 0.000000 0.000000 0.000000 153.000000 0.954189 0.287935 -0.081345
-1.96000004 19.64999962 -1.34000003 72 167 136 0.000000 0.000000 0.000000 0.000000 0.000000 0.000000 153.000000 0.962327 -0.077545 0.260604
-1.95000005 19.76000023 -1.48000002 72 167 136 0.000000 0.000000 0.000000 0.000000 0.000000 0.000000 153.000000 0.676556 -0.617006 -0.401964
-1.94000006 19.77000046 -1.40999997 72 167 136 0.000000 0.000000 0.000000 0.000000 0.000000 0.000000 153.000000 0.841291 -0.006774 0.540540
-1.96000004 19.71999931 -1.39999998 72 167 136 0.000000 0.000000 0.000000 0.000000 0.000000 0.000000 153.000000 0.955933 0.235983 -0.174654
-1.94000006 19.77000046 -1.48000002 72 167 136 0.000000 0.000000 0.000000 0.000000 0.000000 0.000000 153.000000 0.890953 -0.058849 -0.450266
-1.94000006 19.70999908 -1.41999996 72 167 136 0.000000 0.000000 0.000000 0.000000 0.000000 0.000000 153.000000 0.823101 -0.238469 -0.515400
-1.94000006 19.73999977 -1.42999995 72 167 136 0.000000 0.000000 0.000000 0.000000 0.000000 0.000000 153.000000 0.902494 -0.418568 -0.101513
-1.96000004 19.54999924 -1.26999998 72 167 136 0.000000 0.000000 0.000000 0.000000 0.000000 0.000000 153.000000 0.592004 0.357160 0.722474
-1.95000005 19.61000061 -1.38999999 72 167 136 0.000000 0.000000 0.000000 0.000000 0.000000 0.000000 153.000000 0.736892 0.052942 -0.673934
-1.94000006 19.61000061 -1.38999999 72 167 136 0.000000 0.000000 0.000000 0.000000 0.000000 0.000000 153.000000 0.856207 -0.463590 -0.228020
-1.94000006 19.54999924 -1.32000005 72 167 136 0.000000 0.000000 0.000000 0.000000 0.000000 0.000000 153.000000 0.958990 -0.083446 -0.270879
-1.96000004 19.54999924 -1.37000000 72 167 136 0.000000 0.000000 0.000000 0.000000 0.000000 0.000000 153.000000 -0.418025 0.303878 0.856103
-1.95000005 19.60000038 -1.39999998 72 167 136 0.000000 0.000000 0.000000 0.000000 0.000000 0.000000 153.000000 0.723530 -0.271920 -0.634480
-1.99000001 19.78000069 -1.37000000 72 167 136 0.000000 0.000000 0.000000 0.000000 0.000000 0.000000 153.000000 -0.060747 0.175095 0.982676
-1.97000003 19.76000023 -1.37000000 72 167 136 0.000000 0.000000 0.000000 0.000000 0.000000 0.000000 153.000000 0.372228 0.394216 0.840262
-2.03999996 19.75000000 -1.33000004 72 167 136 0.000000 0.000000 0.000000 0.000000 0.000000 0.000000 153.000000 0.652946 -0.322423 -0.685350
-2.02999997 19.78000069 -1.33000004 72 167 136 0.000000 0.000000 0.000000 0.000000 0.000000 0.000000 153.000000 -0.015313 0.664027 0.747552
-2.02999997 19.71999931 -1.32000005 72 167 136 0.000000 0.000000 0.000000 0.000000 0.000000 0.000000 153.000000 -0.261220 0.409194 0.874256
-2.00000000 19.63999939 -1.30999994 72 167 136 0.000000 0.000000 0.000000 0.000000 0.000000 0.000000 153.000000 0.144317 0.376905 0.914940
-1.99000001 19.62000084 -1.27999997 72 167 136 0.000000 0.000000 0.000000 0.000000 0.000000 0.000000 153.000000 0.220075 0.801813 0.555575
-2.00999999 19.70000076 -1.30999994 72 167 136 0.000000 0.000000 0.000000 0.000000 0.000000 0.000000 153.000000 -0.212018 0.598911 0.772240
-2.02999997 19.65999985 -1.29999995 72 167 136 0.000000 0.000000 0.000000 0.000000 0.000000 0.000000 153.000000 -0.199058 0.739139 0.643467
-2.00999999 19.62999916 -1.26999998 72 167 136 0.000000 0.000000 0.000000 0.000000 0.000000 0.000000 153.000000 0.209572 0.441439 0.872474
-2.03999996 19.62999916 -1.27999997 72 167 136 0.000000 0.000000 0.000000 0.000000 0.000000 0.000000 153.000000 -0.219384 0.757730 0.614586
-1.97000003 19.62999916 -1.34000003 72 167 136 0.000000 0.000000 0.000000 0.000000 0.000000 0.000000 153.000000 0.991018 -0.088628 0.100138
-1.98000002 19.62999916 -1.35000002 72 167 136 0.000000 0.000000 0.000000 0.000000 0.000000 0.000000 153.000000 0.978436 0.086945 0.187360
-1.97000003 19.65999985 -1.38999999 72 167 136 0.000000 0.000000 0.000000 0.000000 0.000000 0.000000 153.000000 0.729337 -0.565441 -0.385155
-2.05999994 19.76000023 -1.35000002 72 167 136 0.000000 0.000000 0.000000 0.000000 0.000000 0.000000 153.000000 -0.453985 0.713406 0.533807
-2.06999993 19.67000008 -1.26999998 72 167 136 0.000000 0.000000 0.000000 0.000000 0.000000 0.000000 153.000000 0.431674 -0.598344 -0.675012
-2.05999994 19.67000008 -1.30999994 72 167 136 0.000000 0.000000 0.000000 0.000000 0.000000 0.000000 153.000000 -0.615422 0.608677 0.500768
-2.05999994 19.64999962 -1.29999995 72 167 136 0.000000 0.000000 0.000000 0.000000 0.000000 0.000000 153.000000 -0.506653 0.304623 0.806541
-2.06999993 19.64999962 -1.28999996 72 167 136 0.000000 0.000000 0.000000 0.000000 0.000000 0.000000 153.000000 -0.529321 0.404775 0.745638
-2.09999990 19.62999916 -1.33000004 72 167 136 0.000000 0.000000 0.000000 0.000000 0.000000 0.000000 153.000000 0.951152 -0.174041 -0.254990
-2.10999990 19.68000031 -1.36000001 72 167 136 0.000000 0.000000 0.000000 0.000000 0.000000 0.000000 153.000000 0.808255 -0.325525 -0.490670
-2.09999990 19.69000053 -1.37000000 72 167 136 0.000000 0.000000 0.000000 0.000000 0.000000 0.000000 153.000000 0.903997 -0.302316 -0.302316
-2.09999990 19.62000084 -1.33000004 72 167 136 0.000000 0.000000 0.000000 0.000000 0.000000 0.000000 153.000000 0.889538 -0.073094 -0.450975
-2.10999990 19.62000084 -1.36000001 72 167 136 0.000000 0.000000 0.000000 0.000000 0.000000 0.000000 153.000000 0.952402 -0.189942 0.238437
-2.06999993 19.70000076 -1.34000003 72 167 136 0.000000 0.000000 0.000000 0.000000 0.000000 0.000000 153.000000 0.541562 -0.406583 -0.735800
-1.97000003 19.65999985 -1.39999998 72 167 136 0.000000 0.000000 0.000000 0.000000 0.000000 0.000000 153.000000 0.905878 -0.327408 -0.268680
-1.97000003 19.68000031 -1.40999997 72 167 136 0.000000 0.000000 0.000000 0.000000 0.000000 0.000000 153.000000 0.953562 -0.277519 -0.117058
-2.00999999 19.63999939 -1.40999997 72 167 136 0.000000 0.000000 0.000000 0.000000 0.000000 0.000000 153.000000 0.334449 0.200669 0.920802
-2.08999991 19.73999977 -1.39999998 72 167 136 0.000000 0.000000 0.000000 0.000000 0.000000 0.000000 153.000000 0.923235 -0.335079 0.188040
-1.97000003 19.60000038 -1.27999997 72 167 136 0.000000 0.000000 0.000000 0.000000 0.000000 0.000000 153.000000 0.792316 0.070205 0.606058
-1.98000002 19.57999992 -1.28999996 72 167 136 0.000000 0.000000 0.000000 0.000000 0.000000 0.000000 153.000000 0.804239 0.230003 0.547994
-1.98000002 19.57999992 -1.28999996 72 167 136 0.000000 0.000000 0.000000 0.000000 0.000000 0.000000 153.000000 0.804239 0.230003 0.547994
-1.98000002 19.61000061 -1.27999997 72 167 136 0.000000 0.000000 0.000000 0.000000 0.000000 0.000000 153.000000 0.529529 0.078081 0.844691
-1.99000001 19.54000092 -1.24000001 72 167 136 0.000000 0.000000 0.000000 0.000000 0.000000 0.000000 153.000000 0.508903 0.552571 0.660062
-1.98000002 19.56999969 -1.25999999 72 167 136 0.000000 0.000000 0.000000 0.000000 0.000000 0.000000 153.000000 0.560574 0.421671 0.712706
-1.99000001 19.54999924 -1.25000000 72 167 136 0.000000 0.000000 0.000000 0.000000 0.000000 0.000000 153.000000 0.570197 0.469869 0.673869
-1.97000003 19.54000092 -1.25999999 72 167 136 0.000000 0.000000 0.000000 0.000000 0.000000 0.000000 153.000000 0.619365 0.595738 0.511355
-1.99000001 19.54000092 -1.24000001 72 167 136 0.000000 0.000000 0.000000 0.000000 0.000000 0.000000 153.000000 0.508903 0.552571 0.660062
-1.97000003 19.55999947 -1.30999994 72 167 136 0.000000 0.000000 0.000000 0.000000 0.000000 0.000000 153.000000 0.946733 0.247271 0.206287
-1.97000003 19.54999924 -1.30999994 72 167 136 0.000000 0.000000 0.000000 0.000000 0.000000 0.000000 153.000000 0.964331 0.025732 0.263445
-2.00999999 19.60000038 -1.25999999 72 167 136 0.000000 0.000000 0.000000 0.000000 0.000000 0.000000 153.000000 0.038192 0.649267 0.759601
-2.00999999 19.59000015 -1.28999996 72 167 136 0.000000 0.000000 0.000000 0.000000 0.000000 0.000000 153.000000 0.088188 0.594187 0.799478
-1.97000003 19.61000061 -1.34000003 72 167 136 0.000000 0.000000 0.000000 0.000000 0.000000 0.000000 153.000000 0.927780 0.113077 0.355581
-1.98000002 19.60000038 -1.38999999 72 167 136 0.000000 0.000000 0.000000 0.000000 0.000000 0.000000 153.000000 -0.126517 0.629607 0.766543
-1.99000001 19.60000038 -1.38999999 72 167 136 0.000000 0.000000 0.000000 0.000000 0.000000 0.000000 153.000000 0.595749 -0.481634 -0.642738
-1.97000003 19.54000092 -1.32000005 72 167 136 0.000000 0.000000 0.000000 0.000000 0.000000 0.000000 153.000000 0.984110 -0.116840 -0.133704
-1.97000003 19.55999947 -1.32000005 72 167 136 0.000000 0.000000 0.000000 0.000000 0.000000 0.000000 153.000000 0.996909 0.070053 0.035565
-1.98000002 19.50000000 -1.24000001 72 167 136 0.000000 0.000000 0.000000 0.000000 0.000000 0.000000 153.000000 0.744217 0.575593 0.338870
-1.97000003 19.48999977 -1.25999999 72 167 136 0.000000 0.000000 0.000000 0.000000 0.000000 0.000000 153.000000 0.909359 0.364608 0.200318
-1.97000003 19.52000046 -1.38000000 72 167 136 0.000000 0.000000 0.000000 0.000000 0.000000 0.000000 153.000000 -0.608420 0.257591 0.750648
-2.10999990 19.53000069 -1.26999998 72 167 136 0.000000 0.000000 0.000000 0.000000 0.000000 0.000000 153.000000 0.902483 -0.385541 -0.192048
-2.09999990 19.55999947 -1.26999998 72 167 136 0.000000 0.000000 0.000000 0.000000 0.000000 0.000000 153.000000 0.751309 -0.594986 -0.285529
-2.05999994 19.57999992 -1.25999999 72 167 136 0.000000 0.000000 0.000000 0.000000 0.000000 0.000000 153.000000 -0.533151 0.295843 0.792607
-2.08999991 19.60000038 -1.29999995 72 167 136 0.000000 0.000000 0.000000 0.000000 0.000000 0.000000 153.000000 0.907279 -0.340412 -0.246909
-2.10999990 19.59000015 -1.32000005 72 167 136 0.000000 0.000000 0.000000 0.000000 0.000000 0.000000 153.000000 0.934180 -0.291844 0.205268
-2.10999990 19.46999931 -1.25000000 72 167 136 0.000000 0.000000 0.000000 0.000000 0.000000 0.000000 153.000000 0.978521 0.162056 -0.127418
-2.10999990 19.51000023 -1.23000002 72 167 136 0.000000 0.000000 0.000000 0.000000 0.000000 0.000000 153.000000 0.709336 -0.350591 -0.611497
-2.10999990 19.50000000 -1.24000001 72 167 136 0.000000 0.000000 0.000000 0.000000 0.000000 0.000000 153.000000 0.933319 -0.014044 -0.358773
-2.09999990 19.52000046 -1.23000002 72 167 136 0.000000 0.000000 0.000000 0.000000 0.000000 0.000000 153.000000 -0.604214 0.486400 0.631142
-2.10999990 19.52000046 -1.28999996 72 167 136 0.000000 0.000000 0.000000 0.000000 0.000000 0.000000 153.000000 0.954896 -0.285564 -0.081405
-2.11999989 19.46999931 -1.27999997 72 167 136 0.000000 0.000000 0.000000 0.000000 0.000000 0.000000 153.000000 0.954159 0.270543 0.128013
-1.99000001 19.40999985 -0.82999998 72 167 136 0.000000 0.000000 0.000000 0.000000 0.000000 0.000000 153.000000 -0.165728 0.530031 0.831626
-1.96000004 19.43000031 -1.09000003 72 167 136 0.000000 0.000000 0.000000 0.000000 0.000000 0.000000 153.000000 0.372641 0.615596 0.694392
-1.96000004 19.43000031 -1.13999999 72 167 136 0.000000 0.000000 0.000000 0.000000 0.000000 0.000000 153.000000 0.338870 0.575593 0.744217
-1.95000005 19.42000008 -1.13999999 72 167 136 0.000000 0.000000 0.000000 0.000000 0.000000 0.000000 153.000000 0.738924 0.188956 0.646751
-1.92999995 19.40999985 -1.21000004 72 167 136 0.000000 0.000000 0.000000 0.000000 0.000000 0.000000 153.000000 0.871082 0.216650 0.440771
-1.96000004 19.37999916 -1.15999997 72 167 136 0.000000 0.000000 0.000000 0.000000 0.000000 0.000000 153.000000 0.654430 0.133282 0.744283
-1.94000006 19.37999916 -1.14999998 72 167 136 0.000000 0.000000 0.000000 0.000000 0.000000 0.000000 153.000000 0.885538 0.204808 0.416984
-1.96000004 19.39999962 -1.22000003 72 167 136 0.000000 0.000000 0.000000 0.000000 0.000000 0.000000 153.000000 0.980726 -0.034225 0.192369
-1.96000004 19.34000015 -1.09000003 72 167 136 0.000000 0.000000 0.000000 0.000000 0.000000 0.000000 153.000000 0.449097 0.727504 0.518699
-1.96000004 19.31999969 -1.10000002 72 167 136 0.000000 0.000000 0.000000 0.000000 0.000000 0.000000 153.000000 0.662238 0.432039 0.612195
-1.94000006 19.35000038 -1.13000000 72 167 136 0.000000 0.000000 0.000000 0.000000 0.000000 0.000000 153.000000 0.712600 0.580942 0.393329
-1.95000005 19.29999924 -1.12000000 72 167 136 0.000000 0.000000 0.000000 0.000000 0.000000 0.000000 153.000000 0.902232 0.210666 0.376293
-1.96000004 19.29999924 -1.11000001 72 167 136 0.000000 0.000000 0.000000 0.000000 0.000000 0.000000 153.000000 0.898769 0.159112 0.408531
-1.94000006 19.29000092 -1.11000001 72 167 136 0.000000 0.000000 0.000000 0.000000 0.000000 0.000000 153.000000 0.918449 0.150037 0.365978
-1.95000005 19.32999992 -1.15999997 72 167 136 0.000000 0.000000 0.000000 0.000000 0.000000 0.000000 153.000000 0.853526 0.209242 0.477192
-1.91999996 19.13999939 -1.12000000 72 167 136 0.000000 0.000000 0.000000 0.000000 0.000000 0.000000 153.000000 0.876477 0.140063 -0.460620
-1.92999995 19.15999985 -1.13999999 72 167 136 0.000000 0.000000 0.000000 0.000000 0.000000 0.000000 153.000000 0.904133 -0.350223 -0.244717
-1.94000006 19.17000008 -1.15999997 72 167 136 0.000000 0.000000 0.000000 0.000000 0.000000 0.000000 153.000000 0.783814 0.070471 -0.616984
-1.95000005 19.15999985 -1.15999997 72 167 136 0.000000 0.000000 0.000000 0.000000 0.000000 0.000000 153.000000 -0.664375 0.210048 0.717276
-2.02999997 19.42000008 -1.02999997 72 167 136 0.000000 0.000000 0.000000 0.000000 0.000000 0.000000 153.000000 -0.057472 0.531263 0.845255
-2.04999995 19.40999985 -1.04999995 72 167 136 0.000000 0.000000 0.000000 0.000000 0.000000 0.000000 153.000000 -0.457381 0.217444 0.862276
-2.02999997 19.39999962 -1.02999997 72 167 136 0.000000 0.000000 0.000000 0.000000 0.000000 0.000000 153.000000 0.058811 0.256516 0.964749
-2.00000000 19.34000015 -1.03999996 72 167 136 0.000000 0.000000 0.000000 0.000000 0.000000 0.000000 153.000000 -0.329851 0.498760 0.801522
-2.02999997 19.31999969 -1.00999999 72 167 136 0.000000 0.000000 0.000000 0.000000 0.000000 0.000000 153.000000 -0.203340 0.446753 0.871243
-2.05999994 19.37999916 -0.89999998 72 167 136 0.000000 0.000000 0.000000 0.000000 0.000000 0.000000 153.000000 -0.130746 0.165612 0.977486
-2.07999992 19.37999916 -0.94999999 72 167 136 0.000000 0.000000 0.000000 0.000000 0.000000 0.000000 153.000000 -0.063114 0.393458 0.917174
-2.10999990 19.42000008 -0.91000003 72 167 136 0.000000 0.000000 0.000000 0.000000 0.000000 0.000000 153.000000 -0.134953 0.486121 0.863409
-2.06999993 19.36000061 -1.03999996 72 167 136 0.000000 0.000000 0.000000 0.000000 0.000000 0.000000 153.000000 -0.542818 0.469328 0.696477
-2.09999990 19.29000092 -0.95999998 72 167 136 0.000000 0.000000 0.000000 0.000000 0.000000 0.000000 153.000000 -0.419665 0.201734 0.884977
-2.10999990 19.29000092 -0.97000003 72 167 136 0.000000 0.000000 0.000000 0.000000 0.000000 0.000000 153.000000 -0.685354 0.061782 0.725584
-2.09999990 19.29000092 -1.00000000 72 167 136 0.000000 0.000000 0.000000 0.000000 0.000000 0.000000 153.000000 -0.613539 0.088477 0.784692
-2.10999990 19.29999924 -1.03999996 72 167 136 0.000000 0.000000 0.000000 0.000000 0.000000 0.000000 153.000000 0.864423 -0.282043 -0.416203
-2.06999993 19.35000038 -0.97000003 72 167 136 0.000000 0.000000 0.000000 0.000000 0.000000 0.000000 153.000000 -0.258356 0.112950 0.959424
-2.04999995 19.42000008 -1.05999994 72 167 136 0.000000 0.000000 0.000000 0.000000 0.000000 0.000000 153.000000 -0.191119 0.460760 0.866703
