//X Y Z R G B PointSourceId ScanDirectionFlag NumberOfReturns ReturnNumber GpsTime Intensity Classification Nx Ny Nz
20.62000084 3.82999992 -0.25000000 173 196 71 116.000000 1.000000 4.000000 4.000000 0.000000 95.000000 175.000000 0.210787 -0.254873 0.943720
20.62000084 3.89000010 -0.34999999 173 196 71 116.000000 1.000000 4.000000 4.000000 0.000000 95.000000 175.000000 0.353821 0.040177 0.934450
20.62000084 3.89000010 -0.34999999 173 196 71 116.000000 1.000000 4.000000 4.000000 0.000000 95.000000 175.000000 0.353821 0.040177 0.934450
20.64999962 3.84999990 -0.41000000 173 196 71 116.000000 1.000000 4.000000 4.000000 0.000000 95.000000 175.000000 0.050833 -0.254164 0.965824
20.63999939 3.84999990 -0.38000000 173 196 71 116.000000 1.000000 4.000000 4.000000 0.000000 95.000000 175.000000 0.219123 0.047214 0.974554
20.65999985 3.83999991 -0.41999999 173 196 71 116.000000 1.000000 4.000000 4.000000 0.000000 95.000000 175.000000 0.214225 -0.261216 0.941209
20.70999908 3.78999996 -0.25000000 173 196 71 116.000000 1.000000 4.000000 4.000000 0.000000 95.000000 175.000000 -0.015162 -0.021226 0.999660
20.54999924 3.69000006 -0.23000000 173 196 71 116.000000 1.000000 4.000000 4.000000 0.000000 95.000000 175.000000 0.338781 -0.341819 0.876577
20.67000008 3.65000010 -0.47000000 173 196 71 116.000000 1.000000 4.000000 4.000000 0.000000 95.000000 175.000000 0.322326 -0.553246 0.768130
20.65999985 3.75000000 -0.44000000 173 196 71 116.000000 1.000000 4.000000 4.000000 0.000000 95.000000 175.000000 0.087325 -0.439396 0.894039
20.64999962 3.74000001 -0.44000000 173 196 71 116.000000 1.000000 4.000000 4.000000 0.000000 95.000000 175.000000 -0.258715 0.709482 -0.655517
20.89999962 3.59999990 -0.22000000 173 196 71 116.000000 1.000000 4.000000 4.000000 0.000000 95.000000 175.000000 -0.084573 -0.439501 0.894252
20.75000000 3.63000011 -0.47999999 173 196 71 116.000000 1.000000 4.000000 4.000000 0.000000 95.000000 175.000000 0.224741 -0.788918 0.571927
20.62999916 3.57999992 -0.28999999 173 196 71 116.000000 1.000000 4.000000 4.000000 0.000000 95.000000 175.000000 0.171223 -0.156004 0.972803
20.62999916 3.49000001 -0.28000000 173 196 71 116.000000 1.000000 4.000000 4.000000 0.000000 95.000000 175.000000 -0.014991 0.840863 -0.541041
20.69000053 3.59999990 -0.47999999 173 196 71 116.000000 1.000000 4.000000 4.000000 0.000000 95.000000 175.000000 0.120369 -0.753421 0.646427
20.61000061 3.61999989 -0.50999999 173 196 71 116.000000 1.000000 4.000000 4.000000 0.000000 95.000000 175.000000 0.067625 0.755382 -0.651786
20.60000038 3.48000002 -0.40000001 173 196 71 116.000000 1.000000 4.000000 4.000000 0.000000 95.000000 56.000000 0.040384 -0.550063 0.834146
20.63999939 3.34999990 -0.33000001 173 196 71 116.000000 1.000000 4.000000 4.000000 0.000000 95.000000 56.000000 0.037475 0.936887 -0.347617
20.56999969 3.40000010 -0.31000000 173 196 71 116.000000 1.000000 4.000000 4.000000 0.000000 95.000000 56.000000 0.098121 -0.645840 0.757141
20.55999947 3.36999989 -0.31999999 173 196 71 116.000000 1.000000 4.000000 4.000000 0.000000 95.000000 56.000000 -0.169981 -0.483337 0.858773
20.60000038 3.46000004 -0.25000000 173 196 71 116.000000 1.000000 4.000000 4.000000 0.000000 95.000000 175.000000 0.490874 -0.504186 0.710520
20.62000084 3.29999995 -0.34000000 173 196 71 116.000000 1.000000 4.000000 4.000000 0.000000 95.000000 56.000000 0.442887 -0.606672 0.660152
20.62999916 3.35999990 -0.38999999 173 196 71 116.000000 1.000000 4.000000 4.000000 0.000000 95.000000 56.000000 0.145744 -0.448776 0.881679
20.79999924 3.63000011 -0.56999999 173 196 71 116.000000 1.000000 4.000000 4.000000 0.000000 95.000000 175.000000 0.135807 -0.506719 0.851347
20.81999969 3.58999991 -0.55000001 173 196 71 116.000000 1.000000 4.000000 4.000000 0.000000 95.000000 175.000000 0.220067 -0.441631 0.869789
20.80999947 3.54999995 -0.60000002 173 196 71 116.000000 1.000000 4.000000 4.000000 0.000000 95.000000 175.000000 0.203868 -0.574816 0.792480
20.61000061 3.28999996 -0.34000000 173 196 71 116.000000 1.000000 4.000000 4.000000 0.000000 95.000000 56.000000 0.226597 -0.648536 0.726673
20.52000046 4.36000013 -0.37000000 173 196 71 116.000000 1.000000 4.000000 4.000000 0.000000 95.000000 200.000000 0.392142 0.633714 0.666807
20.51000023 4.36999989 -0.33000001 173 196 71 116.000000 1.000000 4.000000 4.000000 0.000000 95.000000 200.000000 0.628536 0.678027 0.381081
19.90999985 4.36999989 -0.28999999 173 196 71 116.000000 1.000000 4.000000 4.000000 0.000000 95.000000 200.000000 0.009512 0.544916 0.838437
19.92000008 4.36999989 -0.28999999 173 196 71 116.000000 1.000000 4.000000 4.000000 0.000000 95.000000 200.000000 0.088393 0.595563 0.798431
19.90999985 4.36000013 -0.28000000 173 196 71 116.000000 1.000000 4.000000 4.000000 0.000000 95.000000 200.000000 0.146193 0.682735 0.715892
20.53000069 4.26999998 -0.34999999 173 196 71 116.000000 1.000000 4.000000 4.000000 0.000000 95.000000 200.000000 0.302371 0.763128 0.571146
20.54000092 4.17000008 -0.28999999 173 196 71 116.000000 1.000000 4.000000 4.000000 0.000000 95.000000 200.000000 0.688330 0.104650 0.717809
20.50000000 4.05000019 -0.51999998 173 196 71 116.000000 1.000000 4.000000 4.000000 0.000000 95.000000 200.000000 0.369573 -0.105008 0.923249
20.37999916 3.93000007 -0.50999999 173 196 71 116.000000 1.000000 4.000000 4.000000 0.000000 95.000000 200.000000 0.267635 -0.250642 0.930350
20.39999962 3.93000007 -0.50999999 173 196 71 116.000000 1.000000 4.000000 4.000000 0.000000 95.000000 200.000000 0.072704 0.077178 0.994363
20.37999916 3.90000010 -0.52999997 173 196 71 116.000000 1.000000 4.000000 4.000000 0.000000 95.000000 200.000000 0.304371 0.003697 0.952546
20.48999977 3.76999998 -0.20999999 173 196 71 116.000000 1.000000 4.000000 4.000000 0.000000 95.000000 175.000000 0.112793 -0.117542 0.986642
20.37999916 3.71000004 -0.51999998 173 196 71 116.000000 1.000000 4.000000 4.000000 0.000000 95.000000 200.000000 -0.339442 0.822554 -0.456273
20.36000061 3.72000003 -0.49000001 173 196 71 116.000000 1.000000 4.000000 4.000000 0.000000 95.000000 200.000000 0.038307 -0.699458 0.713646
20.36000061 3.71000004 -0.50999999 173 196 71 116.000000 1.000000 4.000000 4.000000 0.000000 95.000000 200.000000 0.085640 -0.782371 0.616897
20.37000084 3.71000004 -0.52999997 173 196 71 116.000000 1.000000 4.000000 4.000000 0.000000 95.000000 200.000000 0.103558 -0.875281 0.472396
19.90999985 4.26000023 -0.22000000 173 196 71 116.000000 1.000000 4.000000 4.000000 0.000000 95.000000 200.000000 0.446769 0.644217 0.620791
19.86000061 4.07000017 -0.36000001 173 196 71 116.000000 1.000000 4.000000 4.000000 0.000000 95.000000 197.000000 0.668456 -0.104769 0.736335
20.13999939 3.66000009 -0.22000000 173 196 71 116.000000 1.000000 4.000000 4.000000 0.000000 95.000000 200.000000 -0.080319 -0.497417 0.863786
20.12000084 3.70000005 -0.22000000 173 196 71 116.000000 1.000000 4.000000 4.000000 0.000000 95.000000 200.000000 0.196294 -0.656889 0.727987
19.97999954 3.91000009 -0.20999999 173 196 71 116.000000 1.000000 4.000000 4.000000 0.000000 95.000000 200.000000 0.568426 -0.375128 0.732237
19.95999908 3.80999994 -0.25999999 173 196 71 116.000000 1.000000 4.000000 4.000000 0.000000 95.000000 200.000000 -0.122137 -0.572424 0.810811
20.02000046 3.72000003 -0.20999999 173 196 71 116.000000 1.000000 4.000000 4.000000 0.000000 95.000000 200.000000 0.075078 0.845685 -0.528376
20.00000000 3.72000003 -0.20999999 173 196 71 116.000000 1.000000 4.000000 4.000000 0.000000 95.000000 200.000000 -0.132377 -0.614287 0.777899
19.97999954 3.68000007 -0.27000001 173 196 71 116.000000 1.000000 4.000000 4.000000 0.000000 95.000000 200.000000 0.207945 -0.580705 0.787109
19.88999939 3.73000002 -0.25000000 173 196 71 116.000000 1.000000 4.000000 4.000000 0.000000 95.000000 200.000000 0.092366 0.725732 -0.681749
19.97999954 3.69000006 -0.44999999 173 196 71 116.000000 1.000000 4.000000 4.000000 0.000000 95.000000 200.000000 -0.274289 0.832164 -0.481942
19.95999908 3.69000006 -0.56000000 173 196 71 116.000000 1.000000 4.000000 4.000000 0.000000 95.000000 200.000000 -0.140425 0.820379 -0.554310
19.72999954 4.03999996 -0.30000001 173 196 71 116.000000 1.000000 4.000000 4.000000 0.000000 95.000000 197.000000 0.006880 -0.615069 0.788444
19.70999908 4.11999989 -0.31000000 173 196 71 116.000000 1.000000 4.000000 4.000000 0.000000 95.000000 197.000000 0.411705 0.187668 0.891785
19.70000076 4.11000013 -0.30000001 173 196 71 116.000000 1.000000 4.000000 4.000000 0.000000 95.000000 197.000000 0.479784 0.068143 0.874736
19.82999992 4.11000013 -0.37000000 173 196 71 116.000000 1.000000 4.000000 4.000000 0.000000 95.000000 197.000000 0.272011 0.306921 0.912036
19.67000008 4.09000015 -0.31999999 173 196 71 116.000000 1.000000 4.000000 4.000000 0.000000 95.000000 197.000000 0.682943 -0.130013 0.718809
20.54000092 3.30999994 -0.34000000 173 196 71 116.000000 1.000000 4.000000 4.000000 0.000000 95.000000 56.000000 0.276702 -0.504942 0.817600
20.52000046 3.33999991 -0.36000001 173 196 71 116.000000 1.000000 4.000000 4.000000 0.000000 95.000000 56.000000 -0.044253 0.954596 -0.294597
20.29999924 3.55999994 -0.56999999 173 196 71 116.000000 1.000000 4.000000 4.000000 0.000000 95.000000 200.000000 0.217068 0.691807 -0.688683
20.48999977 3.23000002 -0.37000000 173 196 71 116.000000 1.000000 4.000000 4.000000 0.000000 95.000000 56.000000 -0.384539 0.618894 -0.684909
20.52000046 3.16000009 -0.40000001 173 196 71 116.000000 1.000000 4.000000 4.000000 0.000000 95.000000 56.000000 0.321558 0.846613 -0.424083
20.51000023 3.16000009 -0.37000000 173 196 71 116.000000 1.000000 4.000000 4.000000 0.000000 95.000000 56.000000 -0.248909 0.784297 -0.568263
20.44000053 3.25000000 -0.38000000 173 196 71 116.000000 1.000000 4.000000 4.000000 0.000000 95.000000 56.000000 0.128714 0.803350 -0.581430
20.18000031 3.54999995 -0.34999999 173 196 71 116.000000 1.000000 4.000000 4.000000 0.000000 95.000000 200.000000 0.041539 0.901809 -0.430135
20.06999969 3.60999990 -0.20999999 173 196 71 116.000000 1.000000 4.000000 4.000000 0.000000 95.000000 200.000000 0.113730 -0.772477 0.624776
20.05999947 3.57999992 -0.28000000 173 196 71 116.000000 1.000000 4.000000 4.000000 0.000000 95.000000 200.000000 0.207290 -0.506876 0.836724
20.06999969 3.54999995 -0.34000000 173 196 71 116.000000 1.000000 4.000000 4.000000 0.000000 95.000000 200.000000 0.173835 0.578947 -0.796619
20.10000038 3.56999993 -0.34000000 173 196 71 116.000000 1.000000 4.000000 4.000000 0.000000 95.000000 200.000000 0.325851 0.805885 -0.494339
20.07999992 3.48000002 -0.22000000 173 196 71 116.000000 1.000000 4.000000 4.000000 0.000000 95.000000 200.000000 0.032131 -0.590937 0.806077
20.04999924 3.47000003 -0.20000000 173 196 71 116.000000 1.000000 4.000000 4.000000 0.000000 95.000000 200.000000 -0.176563 0.902913 -0.391884
20.09000015 3.52999997 -0.28999999 173 196 71 116.000000 1.000000 4.000000 4.000000 0.000000 95.000000 200.000000 0.316407 -0.576599 0.753273
20.09000015 3.52999997 -0.28999999 173 196 71 116.000000 1.000000 4.000000 4.000000 0.000000 95.000000 200.000000 0.316407 -0.576599 0.753273
20.13999939 3.54999995 -0.52999997 173 196 71 116.000000 1.000000 4.000000 4.000000 0.000000 95.000000 200.000000 0.148266 0.852898 -0.500582
20.18000031 3.50999999 -0.46000001 173 196 71 116.000000 1.000000 4.000000 4.000000 0.000000 95.000000 200.000000 0.104063 -0.622911 0.775341
20.04999924 3.61999989 -0.49000001 173 196 71 116.000000 1.000000 4.000000 4.000000 0.000000 95.000000 200.000000 -0.131445 0.807869 -0.574517
20.07999992 3.53999996 -0.44000000 173 196 71 116.000000 1.000000 4.000000 4.000000 0.000000 95.000000 200.000000 0.303428 0.815954 -0.492088
20.04999924 3.53999996 -0.44000000 173 196 71 116.000000 1.000000 4.000000 4.000000 0.000000 95.000000 200.000000 -0.140135 0.901674 -0.409080
20.04999924 3.53999996 -0.41999999 173 196 71 116.000000 1.000000 4.000000 4.000000 0.000000 95.000000 200.000000 -0.153942 0.910942 -0.382737
20.04999924 3.53999996 -0.44999999 173 196 71 116.000000 1.000000 4.000000 4.000000 0.000000 95.000000 200.000000 0.278565 0.903494 -0.325730
20.06999969 3.50000000 -0.52999997 173 196 71 116.000000 1.000000 4.000000 4.000000 0.000000 95.000000 200.000000 -0.300836 0.914133 -0.271769
20.04999924 3.53999996 -0.49000001 173 196 71 116.000000 1.000000 4.000000 4.000000 0.000000 95.000000 200.000000 -0.057851 0.828261 -0.557348
20.05999947 3.43000007 -0.27000001 173 196 71 116.000000 1.000000 4.000000 4.000000 0.000000 95.000000 200.000000 0.162852 -0.668150 0.725985
19.96999931 3.56999993 -0.23999999 173 196 71 116.000000 1.000000 4.000000 4.000000 0.000000 95.000000 200.000000 -0.232912 0.748757 -0.620577
19.97999954 3.60999990 -0.31000000 173 196 71 116.000000 1.000000 4.000000 4.000000 0.000000 95.000000 200.000000 0.082422 0.782286 -0.617442
20.00000000 3.60999990 -0.37000000 173 196 71 116.000000 1.000000 4.000000 4.000000 0.000000 95.000000 200.000000 -0.301855 0.846742 -0.438077
20.00000000 3.57999992 -0.43000001 173 196 71 116.000000 1.000000 4.000000 4.000000 0.000000 95.000000 200.000000 -0.308493 0.831522 -0.461957
19.96999931 3.59999990 -0.43000001 173 196 71 116.000000 1.000000 4.000000 4.000000 0.000000 95.000000 200.000000 -0.325161 0.736062 -0.593703
19.96999931 3.54999995 -0.41999999 173 196 71 116.000000 1.000000 4.000000 4.000000 0.000000 95.000000 200.000000 0.206752 -0.682438 0.701093
19.94000053 3.50000000 -0.38999999 173 196 71 116.000000 1.000000 4.000000 4.000000 0.000000 95.000000 200.000000 -0.230014 0.810453 -0.538758
19.93000031 3.52999997 -0.38000000 173 196 71 116.000000 1.000000 4.000000 4.000000 0.000000 95.000000 200.000000 0.127041 0.677056 -0.724883
19.87999916 3.38000011 -0.31999999 173 196 71 116.000000 1.000000 4.000000 4.000000 0.000000 95.000000 200.000000 0.004086 0.826768 -0.562529
19.89999962 3.44000006 -0.37000000 173 196 71 116.000000 1.000000 4.000000 4.000000 0.000000 95.000000 200.000000 -0.359815 0.801188 -0.478154
19.89999962 3.41000009 -0.49000001 173 196 71 116.000000 1.000000 4.000000 4.000000 0.000000 95.000000 200.000000 0.352032 0.789259 -0.503133
19.93000031 3.41000009 -0.47999999 173 196 71 116.000000 1.000000 4.000000 4.000000 0.000000 95.000000 200.000000 0.162094 0.899405 -0.405951
20.07999992 3.51999998 -0.61000001 173 196 71 116.000000 1.000000 4.000000 4.000000 0.000000 95.000000 200.000000 -0.189940 0.879026 -0.437305
20.04000092 3.46000004 -0.57999998 173 196 71 116.000000 1.000000 4.000000 4.000000 0.000000 95.000000 200.000000 0.347514 0.849306 -0.397382
20.00000000 3.60999990 -0.70999998 173 196 71 116.000000 1.000000 4.000000 4.000000 0.000000 95.000000 200.000000 0.398437 0.887226 0.232545
19.95999908 3.52999997 -0.81999999 173 196 71 116.000000 1.000000 4.000000 4.000000 0.000000 95.000000 200.000000 0.587928 0.808912 -0.001364
19.93000031 3.55999994 -0.81999999 173 196 71 116.000000 1.000000 4.000000 4.000000 0.000000 95.000000 200.000000 0.054321 0.851022 0.522313
20.04000092 3.02999997 -0.64999998 173 196 71 116.000000 1.000000 4.000000 4.000000 0.000000 95.000000 209.000000 -0.068917 0.912140 -0.404044
19.87000084 3.07999992 -0.61000001 173 196 71 116.000000 1.000000 4.000000 4.000000 0.000000 95.000000 209.000000 0.078823 0.969645 -0.231464
19.86000061 3.07999992 -0.62000000 173 196 71 116.000000 1.000000 4.000000 4.000000 0.000000 95.000000 209.000000 0.133994 0.924143 -0.357777
19.95000076 3.55999994 -0.92000002 173 196 71 116.000000 1.000000 4.000000 4.000000 0.000000 95.000000 200.000000 0.543559 0.814577 0.202502
19.84000015 3.49000001 -0.23999999 173 196 71 116.000000 1.000000 4.000000 4.000000 0.000000 95.000000 200.000000 -0.024500 0.929702 -0.367497
19.79000092 3.50000000 -0.20000000 173 196 71 116.000000 1.000000 4.000000 4.000000 0.000000 95.000000 200.000000 0.082819 0.748279 -0.658195
19.81999969 3.49000001 -0.25999999 173 196 71 116.000000 1.000000 4.000000 4.000000 0.000000 95.000000 200.000000 -0.328862 0.887476 -0.322855
19.77000046 3.55999994 -0.28999999 173 196 71 116.000000 1.000000 4.000000 4.000000 0.000000 95.000000 200.000000 0.299093 0.903172 -0.307933
19.85000038 3.50999999 -0.37000000 173 196 71 116.000000 1.000000 4.000000 4.000000 0.000000 95.000000 200.000000 -0.097315 0.914214 -0.393373
19.84000015 3.48000002 -0.44999999 173 196 71 116.000000 1.000000 4.000000 4.000000 0.000000 95.000000 200.000000 0.304265 0.775797 -0.552776
19.85000038 3.49000001 -0.43000001 173 196 71 116.000000 1.000000 4.000000 4.000000 0.000000 95.000000 200.000000 -0.076783 0.740307 -0.667870
19.81999969 3.49000001 -0.50000000 173 196 71 116.000000 1.000000 4.000000 4.000000 0.000000 95.000000 200.000000 0.372130 0.927039 -0.046023
19.78000069 3.52999997 -0.46000001 173 196 71 116.000000 1.000000 4.000000 4.000000 0.000000 95.000000 200.000000 -0.234151 0.940762 -0.245235
19.79999924 3.32999992 -0.20000000 173 196 71 116.000000 1.000000 4.000000 4.000000 0.000000 95.000000 200.000000 -0.283119 0.876610 -0.389100
19.70999908 3.39000010 -0.23999999 173 196 71 116.000000 1.000000 4.000000 4.000000 0.000000 95.000000 200.000000 -0.076115 0.928068 -0.364550
19.70000076 3.39000010 -0.33000001 173 196 71 116.000000 1.000000 4.000000 4.000000 0.000000 95.000000 200.000000 -0.011318 0.999046 0.042184
19.70000076 3.45000005 -0.34000000 173 196 71 116.000000 1.000000 4.000000 4.000000 0.000000 95.000000 200.000000 0.153876 0.913373 -0.376925
19.70000076 3.35999990 -0.23999999 173 196 71 116.000000 1.000000 4.000000 4.000000 0.000000 95.000000 200.000000 0.126498 0.975664 -0.179101
19.70000076 3.36999989 -0.28999999 173 196 71 116.000000 1.000000 4.000000 4.000000 0.000000 95.000000 200.000000 0.051745 0.922115 -0.383441
19.71999931 3.36999989 -0.34999999 173 196 71 116.000000 1.000000 4.000000 4.000000 0.000000 95.000000 200.000000 0.335345 0.784611 -0.521469
19.80999947 3.45000005 -0.50999999 173 196 71 116.000000 1.000000 4.000000 4.000000 0.000000 95.000000 200.000000 0.113604 0.974993 0.191004
19.81999969 3.49000001 -0.55000001 173 196 71 116.000000 1.000000 4.000000 4.000000 0.000000 95.000000 200.000000 0.236435 0.900215 -0.365666
19.70000076 3.53999996 -0.56000000 173 196 71 116.000000 1.000000 4.000000 4.000000 0.000000 95.000000 200.000000 -0.034165 0.999081 -0.025883
19.78000069 3.03999996 -0.62000000 173 196 71 116.000000 1.000000 4.000000 4.000000 0.000000 95.000000 209.000000 0.001246 0.943059 -0.332624
19.77000046 3.03999996 -0.61000001 173 196 71 116.000000 1.000000 4.000000 4.000000 0.000000 95.000000 209.000000 0.033598 0.959416 -0.279985
19.78000069 3.49000001 -1.11000001 173 196 71 116.000000 1.000000 4.000000 4.000000 0.000000 95.000000 200.000000 0.517604 0.770727 0.371572
19.61000061 3.35999990 -1.33000004 173 196 71 116.000000 1.000000 4.000000 4.000000 0.000000 95.000000 200.000000 0.589757 0.714608 0.376196
20.69000053 3.81999993 -0.16000000 173 196 71 116.000000 1.000000 4.000000 4.000000 0.000000 95.000000 175.000000 0.136781 -0.073651 0.987860
20.70999908 3.69000006 -0.15000001 173 196 71 116.000000 1.000000 4.000000 4.000000 0.000000 95.000000 175.000000 0.220153 -0.647967 0.729158
20.67000008 3.66000009 -0.14000000 173 196 71 116.000000 1.000000 4.000000 4.000000 0.000000 95.000000 175.000000 0.017918 0.571982 -0.820071
20.93000031 3.59999990 -0.19000000 173 196 71 116.000000 1.000000 4.000000 4.000000 0.000000 95.000000 175.000000 -0.014737 -0.157575 0.987397
20.87000084 3.47000003 -0.05000000 173 196 71 116.000000 1.000000 4.000000 4.000000 0.000000 95.000000 175.000000 0.015368 -0.694338 0.719485
20.79000092 3.59999990 -0.19000000 173 196 71 116.000000 1.000000 4.000000 4.000000 0.000000 95.000000 175.000000 0.139877 -0.177681 0.974096
20.63999939 3.38000011 -0.13000000 173 196 71 116.000000 1.000000 4.000000 4.000000 0.000000 95.000000 175.000000 0.416825 -0.632710 0.652638
20.60000038 3.39000010 -0.07000000 173 196 71 116.000000 1.000000 4.000000 4.000000 0.000000 95.000000 175.000000 0.275606 -0.281378 0.919167
20.03000069 4.09999990 -0.18000001 173 196 71 116.000000 1.000000 4.000000 4.000000 0.000000 95.000000 200.000000 -0.003414 0.176380 0.984316
19.89999962 4.19000006 -0.18000001 173 196 71 116.000000 1.000000 4.000000 4.000000 0.000000 95.000000 200.000000 0.453274 0.289291 0.843121
20.02000046 4.00000000 -0.11000000 173 196 71 116.000000 1.000000 4.000000 4.000000 0.000000 95.000000 200.000000 -0.024305 -0.346670 0.937672
20.04000092 3.71000004 0.09000000 173 196 71 116.000000 1.000000 4.000000 4.000000 0.000000 95.000000 200.000000 0.212675 -0.737376 0.641129
20.04000092 3.72000003 -0.03000000 173 196 71 116.000000 1.000000 4.000000 4.000000 0.000000 95.000000 200.000000 -0.001383 -0.687475 0.726206
20.04000092 3.64000010 -0.04000000 173 196 71 116.000000 1.000000 4.000000 4.000000 0.000000 95.000000 200.000000 0.067684 0.764686 -0.640839
19.98999977 3.83999991 -0.15000001 173 196 71 116.000000 1.000000 4.000000 4.000000 0.000000 95.000000 200.000000 0.210959 -0.411591 0.886617
20.02000046 3.65000010 0.00000000 173 196 71 116.000000 1.000000 4.000000 4.000000 0.000000 95.000000 200.000000 -0.009439 -0.516454 0.856263
19.61000061 4.36000013 -0.14000000 173 196 71 116.000000 1.000000 4.000000 4.000000 0.000000 95.000000 171.000000 0.260732 0.479809 0.837737
19.79999924 4.36000013 0.05000000 173 196 71 116.000000 1.000000 4.000000 4.000000 0.000000 95.000000 184.000000 0.699671 0.340865 0.627910
19.48999977 4.59000015 -0.14000000 173 196 71 116.000000 1.000000 4.000000 4.000000 0.000000 95.000000 171.000000 0.107730 0.754108 0.647854
19.38999939 4.36999989 0.06000000 173 196 71 116.000000 1.000000 4.000000 4.000000 0.000000 95.000000 171.000000 0.106526 0.135252 0.985068
19.32999992 4.36999989 0.07000000 173 196 71 116.000000 1.000000 4.000000 4.000000 0.000000 95.000000 171.000000 0.573984 0.513387 0.637947
19.73999977 4.05999994 0.04000000 173 196 71 116.000000 1.000000 4.000000 4.000000 0.000000 95.000000 184.000000 0.083374 -0.220258 0.971872
19.55999947 4.25000000 -0.04000000 173 196 71 116.000000 1.000000 4.000000 4.000000 0.000000 95.000000 184.000000 0.178196 0.372073 0.910938
19.40999985 4.28999996 0.00000000 173 196 71 116.000000 1.000000 4.000000 4.000000 0.000000 95.000000 171.000000 0.414254 0.131487 0.900614
19.44000053 4.17999983 -0.01000000 173 196 71 116.000000 1.000000 4.000000 4.000000 0.000000 95.000000 171.000000 0.473764 0.331160 0.816015
19.35000038 4.23999977 0.02000000 173 196 71 116.000000 1.000000 4.000000 4.000000 0.000000 95.000000 171.000000 0.464199 0.290318 0.836800
19.37999916 4.01999998 0.03000000 173 196 71 116.000000 1.000000 4.000000 4.000000 0.000000 95.000000 171.000000 0.386577 -0.085454 0.918290
19.26000023 4.17999983 0.01000000 173 196 71 116.000000 1.000000 4.000000 4.000000 0.000000 95.000000 171.000000 0.293913 -0.162677 0.941887
19.26000023 4.03000021 -0.13000000 173 196 71 116.000000 1.000000 4.000000 4.000000 0.000000 95.000000 171.000000 -0.268427 0.722689 -0.636920
19.29000092 4.01999998 -0.14000000 173 196 71 116.000000 1.000000 4.000000 4.000000 0.000000 95.000000 171.000000 0.454766 -0.365409 0.812197
19.27000046 4.13999987 -0.05000000 173 196 71 116.000000 1.000000 4.000000 4.000000 0.000000 95.000000 171.000000 0.142973 0.001108 0.989726
19.32999992 3.95000005 0.08000000 173 196 71 116.000000 1.000000 4.000000 4.000000 0.000000 95.000000 171.000000 0.549287 -0.512332 0.660152
19.22999954 3.86999989 0.04000000 173 196 71 116.000000 1.000000 4.000000 4.000000 0.000000 95.000000 171.000000 0.262714 -0.468584 0.843451
20.29999924 3.53999996 -0.09000000 173 196 71 116.000000 1.000000 4.000000 4.000000 0.000000 95.000000 200.000000 0.160867 -0.312109 0.936328
20.18000031 3.50999999 -0.02000000 173 196 71 116.000000 1.000000 4.000000 4.000000 0.000000 95.000000 200.000000 0.008895 -0.357091 0.934027
20.13999939 3.50000000 -0.05000000 173 196 71 116.000000 1.000000 4.000000 4.000000 0.000000 95.000000 200.000000 0.214151 0.565420 -0.796517
20.05999947 3.52999997 -0.09000000 173 196 71 116.000000 1.000000 4.000000 4.000000 0.000000 95.000000 200.000000 -0.283676 0.665116 -0.690759
19.95000076 3.52999997 -0.01000000 173 196 71 116.000000 1.000000 4.000000 4.000000 0.000000 95.000000 200.000000 0.031355 0.868403 -0.494867
19.87999916 3.54999995 0.04000000 173 196 71 116.000000 1.000000 4.000000 4.000000 0.000000 95.000000 200.000000 0.265006 -0.497468 0.826013
19.95000076 3.48000002 -0.09000000 173 196 71 116.000000 1.000000 4.000000 4.000000 0.000000 95.000000 200.000000 0.095475 -0.724140 0.683012
19.96999931 3.50000000 -0.04000000 173 196 71 116.000000 1.000000 4.000000 4.000000 0.000000 95.000000 200.000000 -0.239950 0.896501 -0.372438
20.02000046 3.50999999 -0.17000000 173 196 71 116.000000 1.000000 4.000000 4.000000 0.000000 95.000000 200.000000 0.295091 0.767237 -0.569446
20.00000000 3.39000010 -0.11000000 173 196 71 116.000000 1.000000 4.000000 4.000000 0.000000 95.000000 200.000000 -0.323332 0.878918 -0.350656
19.95999908 3.39000010 -0.12000000 173 196 71 116.000000 1.000000 4.000000 4.000000 0.000000 95.000000 200.000000 -0.102463 0.922170 -0.372966
19.69000053 3.48000002 0.05000000 173 196 71 116.000000 1.000000 4.000000 4.000000 0.000000 95.000000 200.000000 0.126463 0.754315 -0.644218
19.84000015 3.44000006 -0.17000000 173 196 71 116.000000 1.000000 4.000000 4.000000 0.000000 95.000000 200.000000 0.231214 0.917676 -0.323125
19.71999931 3.45000005 -0.05000000 173 196 71 116.000000 1.000000 4.000000 4.000000 0.000000 95.000000 200.000000 0.183209 0.850506 -0.493025
19.77000046 3.44000006 -0.19000000 173 196 71 116.000000 1.000000 4.000000 4.000000 0.000000 95.000000 200.000000 0.127651 0.944617 -0.302331
19.17000008 3.88000011 0.04000000 173 196 71 116.000000 1.000000 4.000000 4.000000 0.000000 95.000000 171.000000 -0.261156 -0.609364 0.748647
19.12999916 3.77999997 0.05000000 173 196 71 116.000000 1.000000 4.000000 4.000000 0.000000 95.000000 171.000000 0.014678 0.881999 -0.471022
19.06999969 3.48000002 0.04000000 173 196 71 116.000000 1.000000 4.000000 4.000000 0.000000 95.000000 188.000000 -0.034787 0.819585 -0.571901
19.07999992 3.48000002 0.03000000 173 196 71 116.000000 1.000000 4.000000 4.000000 0.000000 95.000000 188.000000 -0.290210 0.873667 -0.390491
20.63999939 4.38000011 -0.47000000 173 196 71 116.000000 1.000000 4.000000 4.000000 0.000000 95.000000 200.000000 0.092287 0.739758 0.666515
20.71999931 4.21999979 -0.50999999 173 196 71 116.000000 1.000000 4.000000 4.000000 0.000000 95.000000 200.000000 0.038281 0.679136 0.733013
20.64999962 4.21999979 -0.34000000 173 196 71 116.000000 1.000000 4.000000 4.000000 0.000000 95.000000 200.000000 0.294507 0.558768 0.775270
20.61000061 4.21999979 -0.22000000 173 196 71 116.000000 1.000000 4.000000 4.000000 0.000000 95.000000 200.000000 0.239940 0.095214 0.966107
20.68000031 4.17999983 -0.23999999 173 196 71 116.000000 1.000000 4.000000 4.000000 0.000000 95.000000 200.000000 0.464539 0.188487 0.865260
20.68000031 4.25000000 -0.40000001 173 196 71 116.000000 1.000000 4.000000 4.000000 0.000000 95.000000 200.000000 0.664573 0.237235 0.708564
20.64999962 4.30999994 -0.43000001 173 196 71 116.000000 1.000000 4.000000 4.000000 0.000000 95.000000 200.000000 0.162527 0.642514 0.748840
20.86000061 3.88000011 -0.23000000 173 196 71 116.000000 1.000000 4.000000 4.000000 0.000000 95.000000 175.000000 0.085749 -0.262365 0.961151
20.71999931 3.71000004 -0.34000000 173 196 71 116.000000 1.000000 4.000000 4.000000 0.000000 95.000000 175.000000 0.192369 -0.034225 0.980726
20.71999931 3.64000010 -0.20999999 173 196 71 116.000000 1.000000 4.000000 4.000000 0.000000 95.000000 175.000000 -0.139739 -0.310682 0.940186
20.77000046 3.64000010 -0.47999999 173 196 71 116.000000 1.000000 4.000000 4.000000 0.000000 95.000000 175.000000 -0.202686 0.747307 -0.632812
20.70999908 3.96000004 -0.23000000 173 196 71 116.000000 1.000000 4.000000 4.000000 0.000000 95.000000 175.000000 0.360572 -0.116535 0.925423
20.67000008 3.95000005 -0.23000000 173 196 71 116.000000 1.000000 4.000000 4.000000 0.000000 95.000000 175.000000 0.183297 -0.099645 0.977994
20.67000008 3.82999992 -0.28999999 173 196 71 116.000000 1.000000 4.000000 4.000000 0.000000 95.000000 175.000000 0.042233 -0.475463 0.878721
20.59000015 3.84999990 -0.23000000 173 196 71 116.000000 1.000000 4.000000 4.000000 0.000000 95.000000 175.000000 0.332420 -0.323395 0.885953
20.62000084 3.83999991 -0.25000000 173 196 71 116.000000 1.000000 4.000000 4.000000 0.000000 95.000000 175.000000 0.183152 -0.259126 0.948319
20.56999969 3.86999989 -0.23000000 173 196 71 116.000000 1.000000 4.000000 4.000000 0.000000 95.000000 175.000000 0.345854 0.148620 0.926443
20.62999916 3.86999989 -0.31999999 173 196 71 116.000000 1.000000 4.000000 4.000000 0.000000 95.000000 175.000000 0.086375 -0.226578 0.970155
20.64999962 3.88000011 -0.37000000 173 196 71 116.000000 1.000000 4.000000 4.000000 0.000000 95.000000 175.000000 0.487653 -0.278881 0.827296
20.63999939 3.73000002 -0.25999999 173 196 71 116.000000 1.000000 4.000000 4.000000 0.000000 95.000000 175.000000 0.068749 -0.051289 0.996315
20.65999985 3.67000008 -0.25000000 173 196 71 116.000000 1.000000 4.000000 4.000000 0.000000 95.000000 175.000000 0.267760 -0.059083 0.961672
20.79999924 3.58999991 -0.51999998 173 196 71 116.000000 1.000000 4.000000 4.000000 0.000000 95.000000 175.000000 0.212875 -0.226434 0.950480
20.60000038 3.48000002 -0.22000000 173 196 71 116.000000 1.000000 4.000000 4.000000 0.000000 95.000000 175.000000 -0.205328 0.770367 -0.603634
20.54999924 3.56999993 -0.25000000 173 196 71 116.000000 1.000000 4.000000 4.000000 0.000000 95.000000 175.000000 0.098536 -0.672103 0.733872
20.59000015 3.46000004 -0.23999999 173 196 71 116.000000 1.000000 4.000000 4.000000 0.000000 95.000000 175.000000 -0.025784 0.869869 -0.492609
20.63999939 3.46000004 -0.38000000 173 196 71 116.000000 1.000000 4.000000 4.000000 0.000000 95.000000 56.000000 0.104792 -0.360648 0.926797
20.82999992 3.57999992 -0.55000001 173 196 71 116.000000 1.000000 4.000000 4.000000 0.000000 95.000000 175.000000 0.116070 -0.409741 0.904787
20.84000015 3.59999990 -0.57999998 173 196 71 116.000000 1.000000 4.000000 4.000000 0.000000 95.000000 175.000000 0.193851 -0.329688 0.923974
20.47999954 4.36999989 -0.31000000 173 196 71 116.000000 1.000000 4.000000 4.000000 0.000000 95.000000 200.000000 0.532158 0.423420 0.733159
20.47999954 4.36999989 -0.31000000 173 196 71 116.000000 1.000000 4.000000 4.000000 0.000000 95.000000 200.000000 0.532158 0.423420 0.733159
20.52000046 4.34999990 -0.33000001 173 196 71 116.000000 1.000000 4.000000 4.000000 0.000000 95.000000 200.000000 0.234984 0.580457 0.779649
20.47999954 4.36000013 -0.31000000 173 196 71 116.000000 1.000000 4.000000 4.000000 0.000000 95.000000 200.000000 0.527550 0.387088 0.756210
20.45999908 4.01000023 -0.52999997 173 196 71 116.000000 1.000000 4.000000 4.000000 0.000000 95.000000 200.000000 0.081053 -0.223209 0.971395
20.54000092 3.80999994 -0.20999999 173 196 71 116.000000 1.000000 4.000000 4.000000 0.000000 95.000000 175.000000 0.181348 -0.066054 0.981198
20.44000053 3.95000005 -0.51999998 173 196 71 116.000000 1.000000 4.000000 4.000000 0.000000 95.000000 200.000000 0.399166 -0.322107 0.858437
20.48999977 3.75999999 -0.20999999 173 196 71 116.000000 1.000000 4.000000 4.000000 0.000000 95.000000 175.000000 -0.075394 -0.124110 0.989400
20.53000069 3.77999997 -0.20000000 173 196 71 116.000000 1.000000 4.000000 4.000000 0.000000 95.000000 175.000000 0.301396 -0.275188 0.912925
20.38999939 3.77999997 -0.55000001 173 196 71 116.000000 1.000000 4.000000 4.000000 0.000000 95.000000 200.000000 0.035914 -0.416340 0.908499
19.95000076 4.26000023 -0.22000000 173 196 71 116.000000 1.000000 4.000000 4.000000 0.000000 95.000000 200.000000 0.259057 0.560504 0.786590
20.07999992 3.67000008 -0.44000000 173 196 71 116.000000 1.000000 4.000000 4.000000 0.000000 95.000000 200.000000 0.321023 -0.598491 0.733998
20.00000000 3.72000003 -0.20999999 173 196 71 116.000000 1.000000 4.000000 4.000000 0.000000 95.000000 200.000000 -0.132377 -0.614287 0.777899
19.95999908 3.78999996 -0.22000000 173 196 71 116.000000 1.000000 4.000000 4.000000 0.000000 95.000000 200.000000 -0.282322 0.728933 -0.623660
20.01000023 3.67000008 -0.23999999 173 196 71 116.000000 1.000000 4.000000 4.000000 0.000000 95.000000 200.000000 0.281874 -0.481211 0.830050
19.93000031 3.78999996 -0.25999999 173 196 71 116.000000 1.000000 4.000000 4.000000 0.000000 95.000000 200.000000 -0.295033 0.848027 -0.440233
19.85000038 4.05999994 -0.34000000 173 196 71 116.000000 1.000000 4.000000 4.000000 0.000000 95.000000 197.000000 0.334385 -0.560539 0.757616
19.77000046 4.11000013 -0.36000001 173 196 71 116.000000 1.000000 4.000000 4.000000 0.000000 95.000000 197.000000 0.222688 0.365325 0.903852
19.67000008 4.09999990 -0.31000000 173 196 71 116.000000 1.000000 4.000000 4.000000 0.000000 95.000000 197.000000 0.433203 0.243016 0.867916
20.53000069 3.30999994 -0.38999999 173 196 71 116.000000 1.000000 4.000000 4.000000 0.000000 95.000000 56.000000 0.058486 0.777440 -0.626232
20.29999924 3.60999990 -0.52999997 173 196 71 116.000000 1.000000 4.000000 4.000000 0.000000 95.000000 200.000000 -0.345550 0.882737 -0.318389
20.42000008 3.53999996 -0.52999997 173 196 71 116.000000 1.000000 4.000000 4.000000 0.000000 95.000000 200.000000 -0.053263 0.939253 -0.339067
20.50000000 3.33999991 -0.43000001 173 196 71 116.000000 1.000000 4.000000 4.000000 0.000000 95.000000 56.000000 0.024231 0.939926 -0.340516
20.40999985 3.61999989 -0.61000001 173 196 71 116.000000 1.000000 4.000000 4.000000 0.000000 95.000000 200.000000 -0.040926 0.963611 -0.264156
20.45000076 3.28999996 -0.41999999 173 196 71 116.000000 1.000000 4.000000 4.000000 0.000000 95.000000 56.000000 -0.104346 -0.645179 0.756873
20.19000053 3.53999996 -0.36000001 173 196 71 116.000000 1.000000 4.000000 4.000000 0.000000 95.000000 200.000000 0.319093 0.764860 -0.559615
20.05999947 3.53999996 -0.43000001 173 196 71 116.000000 1.000000 4.000000 4.000000 0.000000 95.000000 200.000000 0.223572 -0.645701 0.730127
19.95000076 3.55999994 -0.28000000 173 196 71 116.000000 1.000000 4.000000 4.000000 0.000000 95.000000 200.000000 0.268867 -0.666600 0.695237
20.00000000 3.63000011 -0.20000000 173 196 71 116.000000 1.000000 4.000000 4.000000 0.000000 95.000000 200.000000 -0.248466 0.782901 -0.570377
19.98999977 3.60999990 -0.27000001 173 196 71 116.000000 1.000000 4.000000 4.000000 0.000000 95.000000 200.000000 0.230909 -0.496989 0.836471
19.95000076 3.57999992 -0.47000000 173 196 71 116.000000 1.000000 4.000000 4.000000 0.000000 95.000000 200.000000 -0.077036 -0.696231 0.713673
19.98999977 3.63000011 -0.47000000 173 196 71 116.000000 1.000000 4.000000 4.000000 0.000000 95.000000 200.000000 -0.279268 0.710139 -0.646306
19.95000076 3.52999997 -0.51999998 173 196 71 116.000000 1.000000 4.000000 4.000000 0.000000 95.000000 200.000000 0.313002 0.858829 -0.405515
20.00000000 3.46000004 -0.25999999 173 196 71 116.000000 1.000000 4.000000 4.000000 0.000000 95.000000 200.000000 0.073125 0.932007 -0.354987
19.94000053 3.38000011 -0.34000000 173 196 71 116.000000 1.000000 4.000000 4.000000 0.000000 95.000000 200.000000 -0.104669 -0.697301 0.709095
19.90999985 3.43000007 -0.43000001 173 196 71 116.000000 1.000000 4.000000 4.000000 0.000000 95.000000 200.000000 0.284111 0.833703 -0.473519
19.90999985 3.45000005 -0.49000001 173 196 71 116.000000 1.000000 4.000000 4.000000 0.000000 95.000000 200.000000 0.260738 0.946027 -0.192482
19.96999931 3.52999997 -0.82999998 173 196 71 116.000000 1.000000 4.000000 4.000000 0.000000 95.000000 200.000000 0.459843 0.871205 0.171890
19.89999962 3.53999996 -1.09000003 173 196 71 116.000000 1.000000 4.000000 4.000000 0.000000 95.000000 200.000000 0.243934 0.859072 0.449990
19.84000015 3.42000008 -0.28999999 173 196 71 116.000000 1.000000 4.000000 4.000000 0.000000 95.000000 200.000000 -0.277620 0.914257 -0.295062
19.85000038 3.40000010 -0.46000001 173 196 71 116.000000 1.000000 4.000000 4.000000 0.000000 95.000000 200.000000 0.058706 0.891515 -0.449171
19.70000076 3.53999996 -0.56000000 173 196 71 116.000000 1.000000 4.000000 4.000000 0.000000 95.000000 200.000000 -0.034165 0.999081 -0.025883
19.77000046 3.43000007 -1.08000004 173 196 71 116.000000 1.000000 4.000000 4.000000 0.000000 95.000000 200.000000 0.344688 0.787171 0.511421
19.73999977 3.41000009 -1.12000000 173 196 71 116.000000 1.000000 4.000000 4.000000 0.000000 95.000000 200.000000 0.352792 0.920631 0.167260
19.70999908 3.43000007 -1.16999996 173 196 71 116.000000 1.000000 4.000000 4.000000 0.000000 95.000000 200.000000 0.388617 0.502438 0.772356
19.59000015 3.39000010 -1.27999997 173 196 71 116.000000 1.000000 4.000000 4.000000 0.000000 95.000000 200.000000 0.298399 0.806782 0.509962
20.82999992 3.63000011 -0.16000000 173 196 71 116.000000 1.000000 4.000000 4.000000 0.000000 95.000000 175.000000 0.560138 -0.395875 0.727687
20.80999947 3.45000005 -0.07000000 173 196 71 116.000000 1.000000 4.000000 4.000000 0.000000 95.000000 175.000000 0.017877 -0.570691 0.820970
19.89999962 4.00000000 -0.19000000 173 196 71 116.000000 1.000000 4.000000 4.000000 0.000000 95.000000 200.000000 0.394709 -0.121342 0.910759
19.45000076 4.36000013 0.06000000 173 196 71 116.000000 1.000000 4.000000 4.000000 0.000000 95.000000 171.000000 0.361906 0.238829 0.901102
19.52000046 4.36999989 -0.16000000 173 196 71 116.000000 1.000000 4.000000 4.000000 0.000000 95.000000 171.000000 0.342099 0.410832 0.845095
19.60000038 4.17000008 0.00000000 173 196 71 116.000000 1.000000 4.000000 4.000000 0.000000 95.000000 184.000000 0.162417 0.203995 0.965405
19.64999962 4.15999985 0.01000000 173 196 71 116.000000 1.000000 4.000000 4.000000 0.000000 95.000000 184.000000 0.686659 0.064779 0.724087
19.37000084 4.23000002 0.02000000 173 196 71 116.000000 1.000000 4.000000 4.000000 0.000000 95.000000 171.000000 -0.003164 0.081212 0.996692
19.36000061 4.03999996 -0.15000001 173 196 71 116.000000 1.000000 4.000000 4.000000 0.000000 95.000000 171.000000 0.199046 -0.350836 0.915038
19.26000023 4.15000010 0.05000000 173 196 71 116.000000 1.000000 4.000000 4.000000 0.000000 95.000000 171.000000 0.557844 -0.200212 0.805435
19.22999954 3.97000003 0.03000000 173 196 71 116.000000 1.000000 4.000000 4.000000 0.000000 95.000000 171.000000 0.289119 -0.208110 0.934399
20.17000008 3.42000008 -0.05000000 173 196 71 116.000000 1.000000 4.000000 4.000000 0.000000 95.000000 200.000000 0.195830 -0.535876 0.821272
19.71999931 3.50999999 0.02000000 173 196 71 116.000000 1.000000 4.000000 4.000000 0.000000 95.000000 200.000000 -0.045777 0.929919 -0.364905
19.79000092 3.48000002 -0.19000000 173 196 71 116.000000 1.000000 4.000000 4.000000 0.000000 95.000000 200.000000 0.150077 0.824678 -0.545328
19.64999962 3.28999996 -0.08000000 173 196 71 116.000000 1.000000 4.000000 4.000000 0.000000 95.000000 200.000000 0.216467 0.714808 -0.664974
19.75000000 3.28999996 -0.07000000 173 196 71 116.000000 1.000000 4.000000 4.000000 0.000000 95.000000 200.000000 0.001295 0.910632 -0.413217
19.15999985 3.97000003 -0.10000000 173 196 71 116.000000 1.000000 4.000000 4.000000 0.000000 95.000000 171.000000 0.352946 -0.474320 0.806504
19.13999939 3.83999991 0.04000000 173 196 71 116.000000 1.000000 4.000000 4.000000 0.000000 95.000000 171.000000 0.102718 -0.554101 0.826088
19.10000038 3.64000010 0.06000000 173 196 71 116.000000 1.000000 4.000000 4.000000 0.000000 95.000000 188.000000 -0.367335 0.857115 -0.361135
20.54999924 4.34999990 -0.37000000 173 196 71 116.000000 1.000000 4.000000 4.000000 0.000000 95.000000 200.000000 0.552601 0.283426 0.783774
20.70000076 4.26999998 -0.47000000 173 196 71 116.000000 1.000000 4.000000 4.000000 0.000000 95.000000 200.000000 0.166987 0.852667 0.495049
20.55999947 4.23000002 -0.51999998 173 196 71 116.000000 1.000000 4.000000 4.000000 0.000000 95.000000 200.000000 0.383310 0.349169 0.855076
20.64999962 4.21999979 -0.56000000 173 196 71 116.000000 1.000000 4.000000 4.000000 0.000000 95.000000 200.000000 -0.001381 0.719425 0.694569
20.84000015 3.85999990 -0.23000000 173 196 71 116.000000 1.000000 4.000000 4.000000 0.000000 95.000000 175.000000 -0.059576 0.011497 0.998158
20.71999931 3.76999998 -0.23999999 173 196 71 116.000000 1.000000 4.000000 4.000000 0.000000 95.000000 175.000000 0.158991 0.082484 0.983828
20.72999954 3.70000005 -0.46000001 173 196 71 116.000000 1.000000 4.000000 4.000000 0.000000 95.000000 175.000000 0.341302 -0.661374 0.667906
20.73999977 3.71000004 -0.44999999 173 196 71 116.000000 1.000000 4.000000 4.000000 0.000000 95.000000 175.000000 0.069759 -0.338267 0.938461
20.57999992 3.70000005 -0.33000001 173 196 71 116.000000 1.000000 4.000000 4.000000 0.000000 95.000000 175.000000 0.089461 -0.411521 0.906999
20.68000031 3.76999998 -0.41999999 173 196 71 116.000000 1.000000 4.000000 4.000000 0.000000 95.000000 175.000000 0.136454 -0.682268 0.718256
19.87000084 4.38000011 -0.28000000 173 196 71 116.000000 1.000000 4.000000 4.000000 0.000000 95.000000 200.000000 0.195596 0.620671 0.759282
19.92000008 4.34000015 -0.25999999 173 196 71 116.000000 1.000000 4.000000 4.000000 0.000000 95.000000 200.000000 0.128878 0.588100 0.798454
20.54000092 3.75000000 -0.20999999 173 196 71 116.000000 1.000000 4.000000 4.000000 0.000000 95.000000 175.000000 0.356339 -0.125200 0.925931
20.35000038 3.90000010 -0.52999997 173 196 71 116.000000 1.000000 4.000000 4.000000 0.000000 95.000000 200.000000 0.265383 -0.061629 0.962171
20.07999992 3.66000009 -0.23999999 173 196 71 116.000000 1.000000 4.000000 4.000000 0.000000 95.000000 200.000000 0.293289 -0.633056 0.716395
20.32999992 3.60999990 -0.54000002 173 196 71 116.000000 1.000000 4.000000 4.000000 0.000000 95.000000 200.000000 0.276423 -0.653509 0.704639
20.37999916 3.25000000 -0.44999999 173 196 71 116.000000 1.000000 4.000000 4.000000 0.000000 95.000000 56.000000 0.014454 0.905349 -0.424423
20.17000008 3.55999994 -0.33000001 173 196 71 116.000000 1.000000 4.000000 4.000000 0.000000 95.000000 200.000000 0.251257 0.668438 -0.700043
20.07999992 3.61999989 -0.28000000 173 196 71 116.000000 1.000000 4.000000 4.000000 0.000000 95.000000 200.000000 0.035386 -0.683654 0.728948
20.09000015 3.63000011 -0.27000001 173 196 71 116.000000 1.000000 4.000000 4.000000 0.000000 95.000000 200.000000 0.209344 0.752088 -0.624931
20.09000015 3.60999990 -0.28999999 173 196 71 116.000000 1.000000 4.000000 4.000000 0.000000 95.000000 200.000000 -0.251212 0.833778 -0.491636
20.09000015 3.61999989 -0.28999999 173 196 71 116.000000 1.000000 4.000000 4.000000 0.000000 95.000000 200.000000 -0.149971 0.898400 -0.412778
20.04000092 3.52999997 -0.27000001 173 196 71 116.000000 1.000000 4.000000 4.000000 0.000000 95.000000 200.000000 0.055773 0.742208 -0.667844
20.18000031 3.52999997 -0.43000001 173 196 71 116.000000 1.000000 4.000000 4.000000 0.000000 95.000000 200.000000 -0.032215 -0.617686 0.785764
19.97999954 3.63000011 -0.23000000 173 196 71 116.000000 1.000000 4.000000 4.000000 0.000000 95.000000 200.000000 -0.183209 0.850506 -0.493025
19.96999931 3.59999990 -0.37000000 173 196 71 116.000000 1.000000 4.000000 4.000000 0.000000 95.000000 200.000000 0.088595 0.876104 -0.473912
19.96999931 3.55999994 -0.52999997 173 196 71 116.000000 1.000000 4.000000 4.000000 0.000000 95.000000 200.000000 0.366944 0.929678 -0.032416
19.87000084 3.39000010 -0.23000000 173 196 71 116.000000 1.000000 4.000000 4.000000 0.000000 95.000000 200.000000 0.162493 -0.666675 0.727420
19.87999916 3.43000007 -0.43000001 173 196 71 116.000000 1.000000 4.000000 4.000000 0.000000 95.000000 200.000000 0.217161 0.975427 -0.037193
19.87000084 3.07999992 -0.61000001 173 196 71 116.000000 1.000000 4.000000 4.000000 0.000000 95.000000 209.000000 0.078823 0.969645 -0.231464
19.94000053 3.50000000 -0.95999998 173 196 71 116.000000 1.000000 4.000000 4.000000 0.000000 95.000000 200.000000 0.133876 0.876671 0.462088
19.80999947 3.50000000 -0.28999999 173 196 71 116.000000 1.000000 4.000000 4.000000 0.000000 95.000000 200.000000 0.053150 0.967819 -0.245972
19.79000092 3.39000010 -0.20999999 173 196 71 116.000000 1.000000 4.000000 4.000000 0.000000 95.000000 200.000000 -0.181495 0.832479 -0.523487
19.69000053 3.39000010 -0.31999999 173 196 71 116.000000 1.000000 4.000000 4.000000 0.000000 95.000000 200.000000 0.187551 0.869823 -0.456325
19.71999931 3.35999990 -0.31999999 173 196 71 116.000000 1.000000 4.000000 4.000000 0.000000 95.000000 200.000000 0.101739 0.849738 -0.517294
19.79999924 3.42000008 -0.38999999 173 196 71 116.000000 1.000000 4.000000 4.000000 0.000000 95.000000 200.000000 0.042355 0.998948 0.017562
19.62000084 3.36999989 -1.25000000 173 196 71 116.000000 1.000000 4.000000 4.000000 0.000000 95.000000 200.000000 0.285474 0.482030 0.828343
19.55999947 3.35999990 -1.27999997 173 196 71 116.000000 1.000000 4.000000 4.000000 0.000000 95.000000 200.000000 0.479871 0.725618 0.493155
20.78000069 3.54999995 -0.09000000 173 196 71 116.000000 1.000000 4.000000 4.000000 0.000000 95.000000 175.000000 0.045125 -0.230505 0.972024
20.09000015 4.03999996 -0.13000000 173 196 71 116.000000 1.000000 4.000000 4.000000 0.000000 95.000000 200.000000 0.149036 -0.110262 0.982665
19.52000046 4.38999987 -0.12000000 173 196 71 116.000000 1.000000 4.000000 4.000000 0.000000 95.000000 171.000000 0.654819 0.399522 0.641556
19.55999947 4.48999977 -0.15000001 173 196 71 116.000000 1.000000 4.000000 4.000000 0.000000 95.000000 171.000000 0.340860 0.374792 0.862175
19.73999977 4.15999985 0.06000000 173 196 71 116.000000 1.000000 4.000000 4.000000 0.000000 95.000000 184.000000 0.078349 0.132140 0.988130
19.67000008 4.07000017 0.05000000 173 196 71 116.000000 1.000000 4.000000 4.000000 0.000000 95.000000 184.000000 0.650591 -0.041105 0.758315
19.22999954 4.11999989 0.06000000 173 196 71 116.000000 1.000000 4.000000 4.000000 0.000000 95.000000 171.000000 -0.102376 -0.145735 0.984012
19.26000023 4.05999994 -0.10000000 173 196 71 116.000000 1.000000 4.000000 4.000000 0.000000 95.000000 171.000000 0.552716 -0.552716 0.623707
20.01000023 3.58999991 -0.02000000 173 196 71 116.000000 1.000000 4.000000 4.000000 0.000000 95.000000 200.000000 -0.134502 -0.475818 0.869199
19.94000053 3.60999990 -0.10000000 173 196 71 116.000000 1.000000 4.000000 4.000000 0.000000 95.000000 200.000000 -0.258429 0.724551 -0.638937
19.79999924 3.53999996 0.11000000 173 196 71 116.000000 1.000000 4.000000 4.000000 0.000000 95.000000 200.000000 0.030689 -0.438979 0.897973
19.13999939 4.05000019 -0.10000000 173 196 71 116.000000 1.000000 4.000000 4.000000 0.000000 95.000000 171.000000 0.085315 0.790969 -0.605879
19.13999939 3.67000008 0.11000000 173 196 71 116.000000 1.000000 4.000000 4.000000 0.000000 95.000000 188.000000 0.205067 0.857689 -0.471505
20.69000053 4.40000010 -0.46000001 173 196 71 116.000000 1.000000 4.000000 4.000000 0.000000 95.000000 200.000000 0.297336 0.663782 0.686283
20.62000084 4.34000015 -0.50999999 173 196 71 116.000000 1.000000 4.000000 4.000000 0.000000 95.000000 200.000000 0.049200 0.574936 0.816718
20.56999969 4.26000023 -0.38000000 173 196 71 116.000000 1.000000 4.000000 4.000000 0.000000 95.000000 200.000000 0.392274 0.136382 0.909682
20.57999992 4.13999987 -0.30000001 173 196 71 116.000000 1.000000 4.000000 4.000000 0.000000 95.000000 200.000000 0.516830 -0.014922 0.855958
20.62000084 3.88000011 -0.22000000 173 196 71 116.000000 1.000000 4.000000 4.000000 0.000000 95.000000 175.000000 0.260462 -0.370600 0.891524
20.59000015 3.82999992 -0.23000000 173 196 71 116.000000 1.000000 4.000000 4.000000 0.000000 95.000000 175.000000 0.193286 -0.495952 0.846565
20.95000076 3.60999990 -0.20000000 173 196 71 116.000000 1.000000 4.000000 4.000000 0.000000 95.000000 175.000000 0.162825 -0.204508 0.965228
20.54999924 3.60999990 -0.25999999 173 196 71 116.000000 1.000000 4.000000 4.000000 0.000000 95.000000 175.000000 -0.093294 -0.306163 0.947397
20.61000061 3.61999989 -0.50999999 173 196 71 116.000000 1.000000 4.000000 4.000000 0.000000 95.000000 175.000000 0.067625 0.755382 -0.651786
19.87999916 4.34999990 -0.27000001 173 196 71 116.000000 1.000000 4.000000 4.000000 0.000000 95.000000 200.000000 0.607227 0.405370 0.683338
