//X Y Z R G B PointSourceId ScanDirectionFlag NumberOfReturns ReturnNumber GpsTime Intensity Classification Nx Ny Nz
16.26000023 -14.59000015 0.02000000 109 228 87 97.000000 1.000000 4.000000 1.000000 0.000000 114.000000 212.000000 0.834268 0.136838 0.534108
16.26000023 -14.64000034 0.06000000 109 228 87 97.000000 1.000000 4.000000 1.000000 0.000000 114.000000 212.000000 0.997311 0.009478 -0.072666
16.26000023 -14.63000011 0.05000000 109 228 87 97.000000 1.000000 4.000000 1.000000 0.000000 114.000000 212.000000 0.826850 0.522301 -0.208616
16.25000000 -14.63000011 0.02000000 109 228 87 97.000000 1.000000 4.000000 1.000000 0.000000 114.000000 212.000000 0.982528 -0.183421 -0.031544
16.26000023 -14.63000011 0.04000000 109 228 87 97.000000 1.000000 4.000000 1.000000 0.000000 114.000000 212.000000 0.859151 0.453062 0.237895
16.32999992 -14.75000000 0.14000000 109 228 87 97.000000 1.000000 4.000000 1.000000 0.000000 114.000000 212.000000 0.594469 0.437942 -0.674398
16.25000000 -14.67000008 0.08000000 109 228 87 97.000000 1.000000 4.000000 1.000000 0.000000 114.000000 212.000000 0.954369 -0.013616 -0.298318
16.26000023 -14.69999981 0.07000000 109 228 87 97.000000 1.000000 4.000000 1.000000 0.000000 114.000000 212.000000 0.943402 0.324906 -0.066547
16.28000069 -14.73999977 0.12000000 109 228 87 97.000000 1.000000 4.000000 1.000000 0.000000 114.000000 212.000000 -0.375750 -0.598903 0.707197
16.28000069 -14.73999977 0.12000000 109 228 87 97.000000 1.000000 4.000000 1.000000 0.000000 114.000000 212.000000 -0.375750 -0.598903 0.707197
16.29000092 -14.72999954 0.14000000 109 228 87 97.000000 1.000000 4.000000 1.000000 0.000000 114.000000 212.000000 0.636224 0.006900 -0.771473
16.27000046 -14.72999954 0.12000000 109 228 87 97.000000 1.000000 4.000000 1.000000 0.000000 114.000000 212.000000 0.533884 0.464030 -0.706855
16.29000092 -14.72999954 0.14000000 109 228 87 97.000000 1.000000 4.000000 1.000000 0.000000 114.000000 212.000000 0.636224 0.006900 -0.771473
16.29000092 -14.72000027 0.10000000 109 228 87 97.000000 1.000000 4.000000 1.000000 0.000000 114.000000 212.000000 0.439544 0.626727 -0.643439
16.29000092 -14.73999977 0.09000000 109 228 87 97.000000 1.000000 4.000000 1.000000 0.000000 114.000000 212.000000 0.753846 0.076687 -0.652561
16.28000069 -14.73999977 0.08000000 109 228 87 97.000000 1.000000 4.000000 1.000000 0.000000 114.000000 212.000000 0.597476 0.563625 -0.570395
16.30999947 -14.68000031 0.02000000 109 228 87 97.000000 1.000000 4.000000 1.000000 0.000000 114.000000 212.000000 0.911608 0.410810 -0.014346
16.30999947 -14.68999958 0.06000000 109 228 87 97.000000 1.000000 4.000000 1.000000 0.000000 114.000000 212.000000 0.868498 0.416818 -0.268279
16.30999947 -14.69999981 0.01000000 109 228 87 97.000000 1.000000 4.000000 1.000000 0.000000 114.000000 212.000000 0.951821 0.207153 0.226108
16.30999947 -14.69999981 0.00000000 109 228 87 97.000000 1.000000 4.000000 1.000000 0.000000 114.000000 212.000000 0.893770 0.067273 0.443453
16.29999924 -14.72999954 0.02000000 109 228 87 97.000000 1.000000 4.000000 1.000000 0.000000 114.000000 212.000000 0.980367 -0.153374 -0.123926
16.29999924 -14.72999954 0.04000000 109 228 87 97.000000 1.000000 4.000000 1.000000 0.000000 114.000000 212.000000 0.944363 0.221314 -0.243308
16.27000046 -14.68999958 0.03000000 109 228 87 97.000000 1.000000 4.000000 1.000000 0.000000 114.000000 212.000000 0.948730 0.289556 -0.126764
16.26000023 -14.69999981 0.03000000 109 228 87 97.000000 1.000000 4.000000 1.000000 0.000000 114.000000 212.000000 0.927347 -0.073387 -0.366936
16.29000092 -14.71000004 0.03000000 109 228 87 97.000000 1.000000 4.000000 1.000000 0.000000 114.000000 212.000000 0.960194 0.036023 -0.277003
16.26000023 -14.71000004 0.02000000 109 228 87 97.000000 1.000000 4.000000 1.000000 0.000000 114.000000 212.000000 0.951352 0.006186 -0.308045
16.25000000 -14.65999985 -0.05000000 109 228 87 97.000000 1.000000 4.000000 1.000000 0.000000 114.000000 212.000000 0.808412 -0.414611 0.417813
16.27000046 -14.65999985 -0.08000000 109 228 87 97.000000 1.000000 4.000000 1.000000 0.000000 114.000000 212.000000 0.721170 -0.136438 0.679189
16.26000023 -14.63000011 -0.06000000 109 228 87 97.000000 1.000000 4.000000 1.000000 0.000000 114.000000 212.000000 0.599568 -0.026431 0.799887
16.26000023 -14.64999962 -0.13000000 109 228 87 97.000000 1.000000 4.000000 1.000000 0.000000 114.000000 212.000000 0.723518 -0.029618 0.689669
16.25000000 -14.64999962 -0.12000000 109 228 87 97.000000 1.000000 4.000000 1.000000 0.000000 114.000000 212.000000 0.681717 -0.046966 0.730107
16.27000046 -14.63000011 -0.13000000 109 228 87 97.000000 1.000000 4.000000 1.000000 0.000000 114.000000 212.000000 0.707763 -0.213107 0.673541
16.25000000 -14.64999962 -0.13000000 109 228 87 97.000000 1.000000 4.000000 1.000000 0.000000 114.000000 212.000000 0.689620 0.153080 0.707807
16.27000046 -14.69999981 -0.10000000 109 228 87 97.000000 1.000000 4.000000 1.000000 0.000000 114.000000 212.000000 0.766941 0.249373 0.591282
16.27000046 -14.68999958 -0.11000000 109 228 87 97.000000 1.000000 4.000000 1.000000 0.000000 114.000000 212.000000 0.829425 0.060759 0.555305
16.26000023 -14.68999958 -0.19000000 109 228 87 97.000000 1.000000 4.000000 1.000000 0.000000 114.000000 212.000000 0.783196 -0.217812 0.582376
16.27000046 -14.72000027 -0.17000000 109 228 87 97.000000 1.000000 4.000000 1.000000 0.000000 114.000000 212.000000 0.844940 -0.012246 0.534721
16.40999985 -14.78999996 0.08000000 109 228 87 97.000000 1.000000 4.000000 1.000000 0.000000 114.000000 212.000000 0.016195 -0.310200 0.950533
16.40999985 -14.77999973 0.08000000 109 228 87 97.000000 1.000000 4.000000 1.000000 0.000000 114.000000 212.000000 0.044015 -0.648874 0.759622
16.42000008 -14.81999969 0.11000000 109 228 87 97.000000 1.000000 4.000000 1.000000 0.000000 114.000000 212.000000 0.358796 -0.497166 0.789995
16.40999985 -14.82999992 0.11000000 109 228 87 97.000000 1.000000 4.000000 1.000000 0.000000 114.000000 212.000000 0.326347 -0.548198 0.770050
16.40999985 -14.81000042 0.12000000 109 228 87 97.000000 1.000000 4.000000 1.000000 0.000000 114.000000 212.000000 0.238316 -0.352356 0.905014
16.39999962 -14.81000042 0.08000000 109 228 87 97.000000 1.000000 4.000000 1.000000 0.000000 114.000000 212.000000 0.054640 0.046069 0.997443
16.38999939 -14.81999969 0.08000000 109 228 87 97.000000 1.000000 4.000000 1.000000 0.000000 114.000000 212.000000 0.024626 0.076018 0.996802
16.35000038 -14.81000042 0.13000000 109 228 87 97.000000 1.000000 4.000000 1.000000 0.000000 114.000000 212.000000 -0.615715 -0.205238 0.760771
16.34000015 -14.82999992 0.08000000 109 228 87 97.000000 1.000000 4.000000 1.000000 0.000000 114.000000 212.000000 -0.440147 -0.436898 0.784468
16.40999985 -14.85999966 0.10000000 109 228 87 97.000000 1.000000 4.000000 1.000000 0.000000 114.000000 212.000000 -0.250127 0.005984 0.968195
16.38999939 -14.84000015 0.08000000 109 228 87 97.000000 1.000000 4.000000 1.000000 0.000000 114.000000 212.000000 -0.304967 -0.319843 0.897048
16.42000008 -14.85000038 0.10000000 109 228 87 97.000000 1.000000 4.000000 1.000000 0.000000 114.000000 212.000000 0.030264 -0.040700 0.998713
16.42000008 -14.84000015 0.10000000 109 228 87 97.000000 1.000000 4.000000 1.000000 0.000000 114.000000 212.000000 0.281871 -0.182873 0.941863
16.40999985 -14.89999962 0.09000000 109 228 87 97.000000 1.000000 4.000000 1.000000 0.000000 114.000000 212.000000 0.236928 -0.242470 0.940783
16.35000038 -14.84000015 0.12000000 109 228 87 97.000000 1.000000 4.000000 1.000000 0.000000 114.000000 212.000000 -0.114170 -0.074960 0.990629
16.35000038 -14.84000015 0.07000000 109 228 87 97.000000 1.000000 4.000000 1.000000 0.000000 114.000000 212.000000 -0.460052 -0.252188 0.851325
16.31999969 -14.78999996 0.12000000 109 228 87 97.000000 1.000000 4.000000 1.000000 0.000000 114.000000 212.000000 -0.544494 -0.380982 0.747248
16.31999969 -14.78999996 0.12000000 109 228 87 97.000000 1.000000 4.000000 1.000000 0.000000 114.000000 212.000000 -0.544494 -0.380982 0.747248
16.30999947 -14.81000042 0.12000000 109 228 87 97.000000 1.000000 4.000000 1.000000 0.000000 114.000000 212.000000 -0.654323 -0.029550 0.755638
16.32999992 -14.80000019 0.10000000 109 228 87 97.000000 1.000000 4.000000 1.000000 0.000000 114.000000 212.000000 0.497146 0.537319 -0.681274
16.25000000 -14.76000023 0.07000000 109 228 87 97.000000 1.000000 4.000000 1.000000 0.000000 114.000000 212.000000 0.958055 0.209200 -0.195875
16.25000000 -14.80000019 0.11000000 109 228 87 97.000000 1.000000 4.000000 1.000000 0.000000 114.000000 212.000000 0.851688 0.242251 -0.464696
16.29999924 -14.78999996 0.03000000 109 228 87 97.000000 1.000000 4.000000 1.000000 0.000000 114.000000 212.000000 0.824419 0.169073 -0.540137
16.20999908 -14.60000038 0.04000000 109 228 87 97.000000 1.000000 4.000000 1.000000 0.000000 114.000000 212.000000 0.944766 -0.193341 0.264644
16.23999977 -14.60000038 0.05000000 109 228 87 97.000000 1.000000 4.000000 1.000000 0.000000 114.000000 212.000000 0.848499 0.393890 -0.353412
16.23999977 -14.60000038 0.05000000 109 228 87 97.000000 1.000000 4.000000 1.000000 0.000000 114.000000 212.000000 0.848499 0.393890 -0.353412
16.20999908 -14.64999962 -0.01000000 109 228 87 97.000000 1.000000 4.000000 1.000000 0.000000 114.000000 212.000000 0.839501 -0.087239 0.536308
16.22999954 -14.64000034 -0.02000000 109 228 87 97.000000 1.000000 4.000000 1.000000 0.000000 114.000000 212.000000 0.883239 -0.188952 0.429169
16.20999908 -14.64999962 -0.01000000 109 228 87 97.000000 1.000000 4.000000 1.000000 0.000000 114.000000 212.000000 0.839501 -0.087239 0.536308
16.20000076 -14.61999989 0.02000000 109 228 87 97.000000 1.000000 4.000000 1.000000 0.000000 114.000000 212.000000 0.934813 -0.239660 0.262084
16.17000008 -14.61999989 -0.01000000 109 228 87 97.000000 1.000000 4.000000 1.000000 0.000000 114.000000 212.000000 0.964414 0.250316 0.085133
16.20000076 -14.59000015 0.01000000 109 228 87 97.000000 1.000000 4.000000 1.000000 0.000000 114.000000 212.000000 0.996348 0.053473 -0.066569
16.19000053 -14.61999989 0.01000000 109 228 87 97.000000 1.000000 4.000000 1.000000 0.000000 114.000000 212.000000 0.910731 0.385472 -0.148259
16.17000008 -14.65999985 -0.01000000 109 228 87 97.000000 1.000000 4.000000 1.000000 0.000000 114.000000 212.000000 0.847525 0.453756 0.275330
16.17000008 -14.64000034 -0.02000000 109 228 87 97.000000 1.000000 4.000000 1.000000 0.000000 114.000000 212.000000 0.958544 0.033655 0.282951
16.17000008 -14.65999985 -0.01000000 109 228 87 97.000000 1.000000 4.000000 1.000000 0.000000 114.000000 212.000000 0.847525 0.453756 0.275330
16.19000053 -14.64999962 -0.01000000 109 228 87 97.000000 1.000000 4.000000 1.000000 0.000000 114.000000 212.000000 0.951875 0.302001 0.052245
16.17000008 -14.64000034 -0.01000000 109 228 87 97.000000 1.000000 4.000000 1.000000 0.000000 114.000000 212.000000 0.991753 -0.097231 -0.083504
16.17000008 -14.64999962 -0.02000000 109 228 87 97.000000 1.000000 4.000000 1.000000 0.000000 114.000000 212.000000 0.819931 0.229212 0.524571
16.17000008 -14.63000011 -0.02000000 109 228 87 97.000000 1.000000 4.000000 1.000000 0.000000 114.000000 212.000000 0.972132 0.232492 0.030116
16.19000053 -14.64999962 -0.01000000 109 228 87 97.000000 1.000000 4.000000 1.000000 0.000000 114.000000 212.000000 0.951875 0.302001 0.052245
16.22999954 -14.69999981 0.11000000 109 228 87 97.000000 1.000000 4.000000 1.000000 0.000000 114.000000 212.000000 0.886973 0.349686 -0.301661
16.23999977 -14.69999981 0.14000000 109 228 87 97.000000 1.000000 4.000000 1.000000 0.000000 114.000000 212.000000 0.642276 0.258496 -0.721569
16.22999954 -14.69999981 0.14000000 109 228 87 97.000000 1.000000 4.000000 1.000000 0.000000 114.000000 212.000000 0.552085 0.538579 -0.636502
16.23999977 -14.68999958 0.13000000 109 228 87 97.000000 1.000000 4.000000 1.000000 0.000000 114.000000 212.000000 0.901550 0.323141 -0.287729
16.21999931 -14.68999958 0.08000000 109 228 87 97.000000 1.000000 4.000000 1.000000 0.000000 114.000000 212.000000 0.887439 0.393922 -0.239326
16.21999931 -14.68999958 0.07000000 109 228 87 97.000000 1.000000 4.000000 1.000000 0.000000 114.000000 212.000000 0.971219 0.237088 -0.022866
16.21999931 -14.68999958 0.07000000 109 228 87 97.000000 1.000000 4.000000 1.000000 0.000000 114.000000 212.000000 0.971219 0.237088 -0.022866
16.21999931 -14.67000008 0.08000000 109 228 87 97.000000 1.000000 4.000000 1.000000 0.000000 114.000000 212.000000 0.970810 0.125634 -0.204314
16.21999931 -14.68999958 0.07000000 109 228 87 97.000000 1.000000 4.000000 1.000000 0.000000 114.000000 212.000000 0.971219 0.237088 -0.022866
16.21999931 -14.73999977 0.14000000 109 228 87 97.000000 1.000000 4.000000 1.000000 0.000000 114.000000 212.000000 -0.589259 -0.100392 0.801683
16.21999931 -14.73999977 0.13000000 109 228 87 97.000000 1.000000 4.000000 1.000000 0.000000 114.000000 212.000000 0.952546 -0.003697 -0.304371
16.21999931 -14.72000027 0.12000000 109 228 87 97.000000 1.000000 4.000000 1.000000 0.000000 114.000000 212.000000 0.890287 0.070177 -0.449960
16.22999954 -14.72999954 0.14000000 109 228 87 97.000000 1.000000 4.000000 1.000000 0.000000 114.000000 212.000000 -0.409852 -0.317055 0.855276
16.20999908 -14.72999954 0.07000000 109 228 87 97.000000 1.000000 4.000000 1.000000 0.000000 114.000000 212.000000 0.739766 0.420134 -0.525580
16.18000031 -14.69999981 0.09000000 109 228 87 97.000000 1.000000 4.000000 1.000000 0.000000 114.000000 212.000000 0.959071 0.064785 -0.275654
16.18000031 -14.72000027 0.11000000 109 228 87 97.000000 1.000000 4.000000 1.000000 0.000000 114.000000 212.000000 0.948593 -0.085046 -0.304858
16.18000031 -14.72999954 0.11000000 109 228 87 97.000000 1.000000 4.000000 1.000000 0.000000 114.000000 212.000000 0.962058 0.115240 -0.247312
16.20000076 -14.72000027 0.14000000 109 228 87 97.000000 1.000000 4.000000 1.000000 0.000000 114.000000 212.000000 -0.565116 -0.190403 0.802739
16.18000031 -14.71000004 0.09000000 109 228 87 97.000000 1.000000 4.000000 1.000000 0.000000 114.000000 212.000000 0.964095 -0.028247 -0.264051
16.18000031 -14.75000000 0.08000000 109 228 87 97.000000 1.000000 4.000000 1.000000 0.000000 114.000000 212.000000 0.751240 0.313687 -0.580723
16.19000053 -14.72000027 0.09000000 109 228 87 97.000000 1.000000 4.000000 1.000000 0.000000 114.000000 212.000000 0.971820 0.227867 -0.060354
16.18000031 -14.71000004 0.08000000 109 228 87 97.000000 1.000000 4.000000 1.000000 0.000000 114.000000 212.000000 0.987072 0.159790 -0.012466
16.17000008 -14.71000004 0.09000000 109 228 87 97.000000 1.000000 4.000000 1.000000 0.000000 114.000000 212.000000 0.872456 0.112805 -0.475495
16.22999954 -14.69999981 0.03000000 109 228 87 97.000000 1.000000 4.000000 1.000000 0.000000 114.000000 212.000000 0.850419 0.509085 -0.132741
16.23999977 -14.69999981 0.06000000 109 228 87 97.000000 1.000000 4.000000 1.000000 0.000000 114.000000 212.000000 0.867652 0.495997 0.034160
16.23999977 -14.68000031 0.02000000 109 228 87 97.000000 1.000000 4.000000 1.000000 0.000000 114.000000 212.000000 0.990382 -0.138321 0.003320
16.23999977 -14.68999958 -0.01000000 109 228 87 97.000000 1.000000 4.000000 1.000000 0.000000 114.000000 212.000000 0.907886 0.413909 0.066497
16.23999977 -14.68999958 -0.01000000 109 228 87 97.000000 1.000000 4.000000 1.000000 0.000000 114.000000 212.000000 0.907886 0.413909 0.066497
16.23999977 -14.68999958 0.00000000 109 228 87 97.000000 1.000000 4.000000 1.000000 0.000000 114.000000 212.000000 0.956466 0.036353 0.289572
16.23999977 -14.71000004 0.06000000 109 228 87 97.000000 1.000000 4.000000 1.000000 0.000000 114.000000 212.000000 0.948149 -0.121012 -0.293886
16.23999977 -14.75000000 0.02000000 109 228 87 97.000000 1.000000 4.000000 1.000000 0.000000 114.000000 212.000000 0.919835 0.335134 0.203932
16.20000076 -14.69999981 0.03000000 109 228 87 97.000000 1.000000 4.000000 1.000000 0.000000 114.000000 212.000000 0.994848 0.011908 0.100676
16.17000008 -14.68000031 0.06000000 109 228 87 97.000000 1.000000 4.000000 1.000000 0.000000 114.000000 212.000000 0.889870 0.384768 -0.245123
16.20000076 -14.69999981 0.03000000 109 228 87 97.000000 1.000000 4.000000 1.000000 0.000000 114.000000 212.000000 0.994848 0.011908 0.100676
16.18000031 -14.67000008 -0.01000000 109 228 87 97.000000 1.000000 4.000000 1.000000 0.000000 114.000000 212.000000 0.863949 0.320720 0.388240
16.18000031 -14.67000008 -0.01000000 109 228 87 97.000000 1.000000 4.000000 1.000000 0.000000 114.000000 212.000000 0.863949 0.320720 0.388240
16.18000031 -14.69999981 0.00000000 109 228 87 97.000000 1.000000 4.000000 1.000000 0.000000 114.000000 212.000000 0.916522 0.396226 -0.054698
16.20000076 -14.72000027 0.03000000 109 228 87 97.000000 1.000000 4.000000 1.000000 0.000000 114.000000 212.000000 0.979973 0.196938 -0.029482
16.20000076 -14.72000027 0.03000000 109 228 87 97.000000 1.000000 4.000000 1.000000 0.000000 114.000000 212.000000 0.979973 0.196938 -0.029482
16.13999939 -14.64000034 -0.02000000 109 228 87 97.000000 1.000000 4.000000 1.000000 0.000000 114.000000 212.000000 0.986444 -0.103523 -0.127322
16.12000084 -14.67000008 0.11000000 109 228 87 97.000000 1.000000 4.000000 1.000000 0.000000 114.000000 212.000000 0.766828 0.482333 -0.423472
16.14999962 -14.68000031 0.06000000 109 228 87 97.000000 1.000000 4.000000 1.000000 0.000000 114.000000 212.000000 0.965109 0.259411 -0.035654
16.14999962 -14.68999958 0.06000000 109 228 87 97.000000 1.000000 4.000000 1.000000 0.000000 114.000000 212.000000 0.990793 0.095734 -0.095734
16.23999977 -14.64000034 -0.04000000 109 228 87 97.000000 1.000000 4.000000 1.000000 0.000000 114.000000 212.000000 0.671441 -0.196030 0.714660
16.22999954 -14.63000011 -0.03000000 109 228 87 97.000000 1.000000 4.000000 1.000000 0.000000 114.000000 212.000000 0.882978 0.360738 0.300363
16.21999931 -14.63000011 -0.06000000 109 228 87 97.000000 1.000000 4.000000 1.000000 0.000000 114.000000 212.000000 0.861936 -0.318041 0.394862
16.21999931 -14.63000011 -0.06000000 109 228 87 97.000000 1.000000 4.000000 1.000000 0.000000 114.000000 212.000000 0.861936 -0.318041 0.394862
16.20999908 -14.65999985 -0.07000000 109 228 87 97.000000 1.000000 4.000000 1.000000 0.000000 114.000000 212.000000 -0.743040 0.349570 -0.570694
16.17000008 -14.61999989 -0.10000000 109 228 87 97.000000 1.000000 4.000000 1.000000 0.000000 114.000000 212.000000 0.719532 -0.339463 0.605837
16.18000031 -14.61999989 -0.10000000 109 228 87 97.000000 1.000000 4.000000 1.000000 0.000000 114.000000 212.000000 0.848510 -0.020495 0.528782
16.17000008 -14.64000034 -0.03000000 109 228 87 97.000000 1.000000 4.000000 1.000000 0.000000 114.000000 212.000000 0.911076 0.355507 0.208698
16.17000008 -14.64000034 -0.03000000 109 228 87 97.000000 1.000000 4.000000 1.000000 0.000000 114.000000 212.000000 0.911076 0.355507 0.208698
16.17000008 -14.63000011 -0.03000000 109 228 87 97.000000 1.000000 4.000000 1.000000 0.000000 114.000000 212.000000 0.919167 0.281378 0.275606
16.23999977 -14.65999985 -0.18000001 109 228 87 97.000000 1.000000 4.000000 1.000000 0.000000 114.000000 212.000000 0.550216 0.179386 0.815526
16.21999931 -14.68999958 -0.05000000 109 228 87 97.000000 1.000000 4.000000 1.000000 0.000000 114.000000 212.000000 0.921803 0.320565 0.217984
16.21999931 -14.68000031 -0.05000000 109 228 87 97.000000 1.000000 4.000000 1.000000 0.000000 114.000000 212.000000 0.956372 0.138509 0.257231
16.23999977 -14.68000031 -0.03000000 109 228 87 97.000000 1.000000 4.000000 1.000000 0.000000 114.000000 212.000000 0.909000 -0.188118 0.371929
16.21999931 -14.68000031 -0.08000000 109 228 87 97.000000 1.000000 4.000000 1.000000 0.000000 114.000000 212.000000 0.699488 -0.294267 0.651247
16.20999908 -14.67000008 -0.07000000 109 228 87 97.000000 1.000000 4.000000 1.000000 0.000000 114.000000 212.000000 0.940290 -0.254170 0.226392
16.21999931 -14.68999958 -0.09000000 109 228 87 97.000000 1.000000 4.000000 1.000000 0.000000 114.000000 212.000000 0.657555 -0.202682 0.725632
16.22999954 -14.68999958 -0.07000000 109 228 87 97.000000 1.000000 4.000000 1.000000 0.000000 114.000000 212.000000 0.705619 -0.159333 0.690445
16.18000031 -14.67000008 -0.08000000 109 228 87 97.000000 1.000000 4.000000 1.000000 0.000000 114.000000 212.000000 0.965488 0.116990 0.232694
16.18000031 -14.67000008 -0.07000000 109 228 87 97.000000 1.000000 4.000000 1.000000 0.000000 114.000000 212.000000 0.828590 -0.211328 0.518439
16.23999977 -14.69999981 -0.16000000 109 228 87 97.000000 1.000000 4.000000 1.000000 0.000000 114.000000 212.000000 0.869887 -0.210384 0.446134
16.23999977 -14.72000027 -0.15000001 109 228 87 97.000000 1.000000 4.000000 1.000000 0.000000 114.000000 212.000000 0.599802 -0.488914 0.633404
16.23999977 -14.71000004 -0.16000000 109 228 87 97.000000 1.000000 4.000000 1.000000 0.000000 114.000000 212.000000 0.788682 -0.245194 0.563791
16.18000031 -14.68000031 -0.15000001 109 228 87 97.000000 1.000000 4.000000 1.000000 0.000000 114.000000 212.000000 0.671719 0.312390 0.671719
16.20000076 -14.68999958 -0.18000001 109 228 87 97.000000 1.000000 4.000000 1.000000 0.000000 114.000000 212.000000 0.879231 -0.154988 0.450479
16.13999939 -14.63000011 -0.04000000 109 228 87 97.000000 1.000000 4.000000 1.000000 0.000000 114.000000 212.000000 0.951235 -0.228675 0.207026
16.14999962 -14.64000034 -0.05000000 109 228 87 97.000000 1.000000 4.000000 1.000000 0.000000 114.000000 212.000000 0.788731 -0.303114 0.534814
16.07999992 -14.61999989 -0.18000001 109 228 87 97.000000 1.000000 4.000000 1.000000 0.000000 114.000000 212.000000 0.546387 -0.108698 0.830450
16.13999939 -14.67000008 -0.05000000 109 228 87 97.000000 1.000000 4.000000 1.000000 0.000000 114.000000 212.000000 0.973392 -0.219719 0.065056
16.13999939 -14.68000031 -0.04000000 109 228 87 97.000000 1.000000 4.000000 1.000000 0.000000 114.000000 212.000000 0.798189 0.323418 0.508228
16.12999916 -14.73999977 -0.03000000 109 228 87 97.000000 1.000000 4.000000 1.000000 0.000000 114.000000 212.000000 0.936448 0.290814 -0.196195
16.09000015 -14.68999958 -0.05000000 109 228 87 97.000000 1.000000 4.000000 1.000000 0.000000 114.000000 212.000000 0.992959 0.069066 -0.096239
16.11000061 -14.68000031 -0.05000000 109 228 87 97.000000 1.000000 4.000000 1.000000 0.000000 114.000000 212.000000 0.946832 0.223348 0.231570
16.11000061 -14.68999958 -0.05000000 109 228 87 97.000000 1.000000 4.000000 1.000000 0.000000 114.000000 212.000000 0.951526 0.286382 0.112177
16.11000061 -14.69999981 -0.06000000 109 228 87 97.000000 1.000000 4.000000 1.000000 0.000000 114.000000 212.000000 0.998123 -0.051755 -0.032743
16.11000061 -14.68000031 -0.07000000 109 228 87 97.000000 1.000000 4.000000 1.000000 0.000000 114.000000 212.000000 0.928434 -0.032463 0.370075
16.12000084 -14.69999981 -0.12000000 109 228 87 97.000000 1.000000 4.000000 1.000000 0.000000 114.000000 212.000000 0.807456 -0.109510 0.579674
16.11000061 -14.72000027 -0.11000000 109 228 87 97.000000 1.000000 4.000000 1.000000 0.000000 114.000000 212.000000 0.825042 0.075522 0.560002
16.21999931 -14.78999996 0.11000000 109 228 87 97.000000 1.000000 4.000000 1.000000 0.000000 114.000000 212.000000 0.800877 0.356478 -0.481165
16.21999931 -14.78999996 0.14000000 109 228 87 97.000000 1.000000 4.000000 1.000000 0.000000 114.000000 212.000000 0.788696 -0.012431 -0.614658
16.21999931 -14.77999973 0.14000000 109 228 87 97.000000 1.000000 4.000000 1.000000 0.000000 114.000000 212.000000 0.688315 0.454988 -0.564985
16.23999977 -14.78999996 0.06000000 109 228 87 97.000000 1.000000 4.000000 1.000000 0.000000 114.000000 212.000000 0.944338 0.055549 -0.324253
16.23999977 -14.81999969 0.06000000 109 228 87 97.000000 1.000000 4.000000 1.000000 0.000000 114.000000 212.000000 0.983446 -0.014953 -0.180586
16.04000092 -14.63000011 -0.19000000 109 228 87 97.000000 1.000000 4.000000 1.000000 0.000000 114.000000 212.000000 0.804617 0.325338 0.496736
16.04000092 -14.64000034 -0.19000000 109 228 87 97.000000 1.000000 4.000000 1.000000 0.000000 114.000000 212.000000 0.864692 0.304555 0.399442
16.03000069 -14.61999989 -0.19000000 109 228 87 97.000000 1.000000 4.000000 1.000000 0.000000 114.000000 212.000000 0.900250 -0.019829 0.434922
16.03000069 -14.61999989 -0.19000000 109 228 87 97.000000 1.000000 4.000000 1.000000 0.000000 114.000000 212.000000 0.900250 -0.019829 0.434922
16.25000000 -14.38000011 -0.30000001 109 228 87 97.000000 1.000000 4.000000 1.000000 0.000000 114.000000 227.000000 0.509457 -0.060018 0.858400
16.25000000 -14.38000011 -0.30000001 109 228 87 97.000000 1.000000 4.000000 1.000000 0.000000 114.000000 227.000000 0.509457 -0.060018 0.858400
16.22999954 -14.38000011 -0.23000000 109 228 87 97.000000 1.000000 4.000000 1.000000 0.000000 114.000000 227.000000 0.394841 -0.532461 0.748723
16.21999931 -14.38000011 -0.22000000 109 228 87 97.000000 1.000000 4.000000 1.000000 0.000000 114.000000 227.000000 0.612011 -0.336038 0.715906
16.21999931 -14.36999989 -0.22000000 109 228 87 97.000000 1.000000 4.000000 1.000000 0.000000 114.000000 227.000000 0.373008 -0.535894 0.757418
16.21999931 -14.36999989 -0.27000001 109 228 87 97.000000 1.000000 4.000000 1.000000 0.000000 114.000000 227.000000 0.180943 -0.142983 0.973044
16.22999954 -14.35999966 -0.28999999 109 228 87 97.000000 1.000000 4.000000 1.000000 0.000000 114.000000 227.000000 0.519464 0.080680 0.850675
16.23999977 -14.36999989 -0.28999999 109 228 87 97.000000 1.000000 4.000000 1.000000 0.000000 114.000000 227.000000 0.406123 -0.103956 0.907886
16.22999954 -14.39000034 -0.33000001 109 228 87 97.000000 1.000000 4.000000 1.000000 0.000000 114.000000 227.000000 0.515728 -0.135872 0.845910
16.17000008 -14.31000042 -0.47999999 109 228 87 97.000000 1.000000 4.000000 1.000000 0.000000 114.000000 227.000000 0.278615 -0.301955 0.911700
16.17000008 -14.31999969 -0.49000001 109 228 87 97.000000 1.000000 4.000000 1.000000 0.000000 114.000000 227.000000 0.112177 -0.286382 0.951526
16.22999954 -14.32999992 -0.38999999 109 228 87 97.000000 1.000000 4.000000 1.000000 0.000000 114.000000 227.000000 0.224442 -0.263475 0.938193
16.19000053 -14.35000038 -0.38999999 109 228 87 97.000000 1.000000 4.000000 1.000000 0.000000 114.000000 227.000000 0.586836 -0.177416 0.790030
16.13999939 -14.35999966 -0.50000000 109 228 87 97.000000 1.000000 4.000000 1.000000 0.000000 114.000000 227.000000 0.263153 -0.121757 0.957040
16.26000023 -14.65999985 -0.25999999 109 228 87 97.000000 1.000000 4.000000 1.000000 0.000000 114.000000 212.000000 0.735996 -0.083073 0.671870
16.27000046 -14.68000031 -0.23000000 109 228 87 97.000000 1.000000 4.000000 1.000000 0.000000 114.000000 212.000000 0.675065 -0.290230 0.678272
16.29999924 -14.63000011 -0.43000001 109 228 87 97.000000 1.000000 4.000000 1.000000 0.000000 114.000000 212.000000 -0.068715 -0.506251 0.859644
16.28000069 -14.65999985 -0.38999999 109 228 87 97.000000 1.000000 4.000000 1.000000 0.000000 114.000000 212.000000 0.457835 -0.328823 0.825992
16.26000023 -14.65999985 -0.38000000 109 228 87 97.000000 1.000000 4.000000 1.000000 0.000000 114.000000 212.000000 0.561040 -0.150305 0.814029
16.26000023 -14.65999985 -0.41999999 109 228 87 97.000000 1.000000 4.000000 1.000000 0.000000 114.000000 212.000000 0.395638 -0.463461 0.792890
16.29000092 -14.67000008 -0.37000000 109 228 87 97.000000 1.000000 4.000000 1.000000 0.000000 114.000000 212.000000 0.355507 -0.189889 0.915181
16.29000092 -14.67000008 -0.37000000 109 228 87 97.000000 1.000000 4.000000 1.000000 0.000000 114.000000 212.000000 0.355507 -0.189889 0.915181
16.26000023 -14.68000031 -0.41000000 109 228 87 97.000000 1.000000 4.000000 1.000000 0.000000 114.000000 212.000000 0.399102 -0.216487 0.890983
16.28000069 -14.69999981 -0.44000000 109 228 87 97.000000 1.000000 4.000000 1.000000 0.000000 114.000000 212.000000 0.049828 -0.310464 0.949278
16.27000046 -14.68999958 -0.50999999 109 228 87 97.000000 1.000000 4.000000 1.000000 0.000000 114.000000 212.000000 0.478091 -0.253650 0.840887
16.22999954 -14.64999962 -0.22000000 109 228 87 97.000000 1.000000 4.000000 1.000000 0.000000 114.000000 212.000000 0.494888 -0.508218 0.704840
16.20000076 -14.63000011 -0.27000001 109 228 87 97.000000 1.000000 4.000000 1.000000 0.000000 114.000000 212.000000 0.164339 -0.222186 0.961055
16.17000008 -14.64000034 -0.30000001 109 228 87 97.000000 1.000000 4.000000 1.000000 0.000000 114.000000 212.000000 0.724916 -0.026744 0.688318
16.18000031 -14.60999966 -0.33000001 109 228 87 97.000000 1.000000 4.000000 1.000000 0.000000 114.000000 212.000000 0.402965 0.024939 0.914875
16.12999916 -14.64999962 -0.28000000 109 228 87 97.000000 1.000000 4.000000 1.000000 0.000000 114.000000 212.000000 0.617391 0.165345 0.769084
16.13999939 -14.64999962 -0.25999999 109 228 87 97.000000 1.000000 4.000000 1.000000 0.000000 114.000000 212.000000 0.594430 -0.390249 0.703107
16.14999962 -14.63000011 -0.27000001 109 228 87 97.000000 1.000000 4.000000 1.000000 0.000000 114.000000 212.000000 0.648473 -0.387764 0.655074
16.14999962 -14.65999985 -0.25999999 109 228 87 97.000000 1.000000 4.000000 1.000000 0.000000 114.000000 212.000000 0.393127 0.085699 0.915482
16.11000061 -14.64000034 -0.20999999 109 228 87 97.000000 1.000000 4.000000 1.000000 0.000000 114.000000 212.000000 0.657909 0.101556 0.746219
16.07999992 -14.64000034 -0.22000000 109 228 87 97.000000 1.000000 4.000000 1.000000 0.000000 114.000000 212.000000 0.714362 -0.354729 0.603203
16.12000084 -14.63000011 -0.22000000 109 228 87 97.000000 1.000000 4.000000 1.000000 0.000000 114.000000 212.000000 0.679552 0.117472 0.724161
16.07999992 -14.64999962 -0.27000001 109 228 87 97.000000 1.000000 4.000000 1.000000 0.000000 114.000000 212.000000 0.708307 0.023844 0.705502
16.12000084 -14.64999962 -0.28000000 109 228 87 97.000000 1.000000 4.000000 1.000000 0.000000 114.000000 212.000000 0.652763 -0.120441 0.747927
16.07999992 -14.64999962 -0.27000001 109 228 87 97.000000 1.000000 4.000000 1.000000 0.000000 114.000000 212.000000 0.708307 0.023844 0.705502
16.09000015 -14.61999989 -0.30000001 109 228 87 97.000000 1.000000 4.000000 1.000000 0.000000 114.000000 212.000000 0.774572 -0.161558 0.611504
16.07999992 -14.61999989 -0.30000001 109 228 87 97.000000 1.000000 4.000000 1.000000 0.000000 114.000000 212.000000 0.683240 -0.362101 0.634086
16.09000015 -14.63000011 -0.31999999 109 228 87 97.000000 1.000000 4.000000 1.000000 0.000000 114.000000 212.000000 0.833866 0.099373 0.542949
16.12000084 -14.65999985 -0.33000001 109 228 87 97.000000 1.000000 4.000000 1.000000 0.000000 114.000000 212.000000 0.816228 -0.297239 0.495399
16.15999985 -14.67000008 -0.28000000 109 228 87 97.000000 1.000000 4.000000 1.000000 0.000000 114.000000 212.000000 0.868141 0.006688 0.496272
16.09000015 -14.67000008 -0.27000001 109 228 87 97.000000 1.000000 4.000000 1.000000 0.000000 114.000000 212.000000 0.644536 0.202480 0.737275
16.25000000 -14.68000031 -0.54000002 109 228 87 97.000000 1.000000 4.000000 1.000000 0.000000 114.000000 212.000000 0.578465 -0.371988 0.725950
16.30999947 -14.68999958 -0.69999999 109 228 87 97.000000 1.000000 4.000000 1.000000 0.000000 114.000000 212.000000 0.168596 0.093395 0.981251
16.04000092 -14.60000038 -0.20000000 109 228 87 97.000000 1.000000 4.000000 1.000000 0.000000 114.000000 212.000000 0.906811 -0.009133 0.421439
16.04000092 -14.64000034 -0.20000000 109 228 87 97.000000 1.000000 4.000000 1.000000 0.000000 114.000000 212.000000 0.946657 0.178435 0.268333
16.51000023 -14.88000011 0.04000000 109 228 87 97.000000 1.000000 4.000000 1.000000 0.000000 114.000000 212.000000 0.881557 -0.271826 0.385963
16.51000023 -14.88000011 0.03000000 109 228 87 97.000000 1.000000 4.000000 1.000000 0.000000 114.000000 212.000000 0.955200 -0.144406 0.258341
16.52000046 -14.86999989 0.04000000 109 228 87 97.000000 1.000000 4.000000 1.000000 0.000000 114.000000 212.000000 0.874564 -0.320927 0.363515
16.51000023 -14.88000011 0.03000000 109 228 87 97.000000 1.000000 4.000000 1.000000 0.000000 114.000000 212.000000 0.955200 -0.144406 0.258341
16.52000046 -14.86999989 0.01000000 109 228 87 97.000000 1.000000 4.000000 1.000000 0.000000 114.000000 212.000000 0.705551 -0.376623 0.600294
16.51000023 -14.89999962 0.03000000 109 228 87 97.000000 1.000000 4.000000 1.000000 0.000000 114.000000 212.000000 0.801027 -0.180193 0.570864
16.51000023 -14.89000034 0.03000000 109 228 87 97.000000 1.000000 4.000000 1.000000 0.000000 114.000000 212.000000 0.813380 0.144237 0.563567
16.51000023 -14.89000034 0.03000000 109 228 87 97.000000 1.000000 4.000000 1.000000 0.000000 114.000000 212.000000 0.813380 0.144237 0.563567
16.43000031 -14.80000019 0.11000000 109 228 87 97.000000 1.000000 4.000000 1.000000 0.000000 114.000000 212.000000 0.490023 -0.278457 0.826038
16.46999931 -14.86999989 0.07000000 109 228 87 97.000000 1.000000 4.000000 1.000000 0.000000 114.000000 212.000000 0.402671 -0.106549 0.909123
16.48999977 -14.90999985 0.07000000 109 228 87 97.000000 1.000000 4.000000 1.000000 0.000000 114.000000 212.000000 0.713174 -0.347611 0.608728
16.45000076 -14.84000015 0.11000000 109 228 87 97.000000 1.000000 4.000000 1.000000 0.000000 114.000000 212.000000 0.108399 -0.446267 0.888310
16.45000076 -14.86999989 0.09000000 109 228 87 97.000000 1.000000 4.000000 1.000000 0.000000 114.000000 212.000000 0.284968 -0.217586 0.933515
16.45000076 -14.88000011 0.09000000 109 228 87 97.000000 1.000000 4.000000 1.000000 0.000000 114.000000 212.000000 -0.015102 -0.017115 0.999739
16.45000076 -14.85000038 0.10000000 109 228 87 97.000000 1.000000 4.000000 1.000000 0.000000 114.000000 212.000000 0.126706 -0.073233 0.989233
16.45000076 -14.88000011 0.09000000 109 228 87 97.000000 1.000000 4.000000 1.000000 0.000000 114.000000 212.000000 -0.015102 -0.017115 0.999739
16.45000076 -14.85000038 0.10000000 109 228 87 97.000000 1.000000 4.000000 1.000000 0.000000 114.000000 212.000000 0.126706 -0.073233 0.989233
16.45000076 -14.84000015 0.07000000 109 228 87 97.000000 1.000000 4.000000 1.000000 0.000000 114.000000 212.000000 0.165732 0.070346 0.983659
16.50000000 -14.89999962 0.06000000 109 228 87 97.000000 1.000000 4.000000 1.000000 0.000000 114.000000 212.000000 0.736255 -0.240185 0.632645
16.48999977 -14.90999985 0.06000000 109 228 87 97.000000 1.000000 4.000000 1.000000 0.000000 114.000000 212.000000 0.649211 -0.432251 0.625846
16.51000023 -14.93000031 0.05000000 109 228 87 97.000000 1.000000 4.000000 1.000000 0.000000 114.000000 212.000000 0.851022 -0.054321 0.522313
16.50000000 -14.93000031 0.05000000 109 228 87 97.000000 1.000000 4.000000 1.000000 0.000000 114.000000 212.000000 0.575851 0.207306 0.790835
16.52000046 -14.93000031 0.03000000 109 228 87 97.000000 1.000000 4.000000 1.000000 0.000000 114.000000 212.000000 0.754591 -0.250480 0.606508
16.47999954 -14.93000031 0.07000000 109 228 87 97.000000 1.000000 4.000000 1.000000 0.000000 114.000000 212.000000 0.409837 -0.403459 0.818080
16.51000023 -14.93000031 0.03000000 109 228 87 97.000000 1.000000 4.000000 1.000000 0.000000 114.000000 212.000000 0.873333 -0.012074 0.486974
16.30999947 -14.56999969 0.25999999 109 228 87 97.000000 1.000000 4.000000 1.000000 0.000000 114.000000 212.000000 -0.043531 -0.588365 0.807423
16.30999947 -14.56999969 0.28000000 109 228 87 97.000000 1.000000 4.000000 1.000000 0.000000 114.000000 212.000000 0.159356 -0.472221 0.866956
16.26000023 -14.57999992 0.02000000 109 228 87 97.000000 1.000000 4.000000 1.000000 0.000000 114.000000 212.000000 0.965202 0.261029 -0.015783
16.26000023 -14.51000023 0.00000000 109 228 87 97.000000 1.000000 4.000000 1.000000 0.000000 114.000000 212.000000 0.677491 -0.175872 0.714195
16.25000000 -14.44999981 -0.05000000 109 228 87 97.000000 1.000000 4.000000 1.000000 0.000000 114.000000 212.000000 0.245040 -0.020521 0.969296
16.28000069 -14.48999977 -0.05000000 109 228 87 97.000000 1.000000 4.000000 1.000000 0.000000 114.000000 212.000000 0.530230 -0.066103 0.845273
16.27000046 -14.47999954 -0.04000000 109 228 87 97.000000 1.000000 4.000000 1.000000 0.000000 114.000000 212.000000 0.633232 -0.004139 0.773951
16.29000092 -14.47000027 -0.09000000 109 228 87 97.000000 1.000000 4.000000 1.000000 0.000000 114.000000 212.000000 0.313299 -0.526406 0.790405
16.26000023 -14.46000004 -0.07000000 109 228 87 97.000000 1.000000 4.000000 1.000000 0.000000 114.000000 212.000000 0.634373 -0.052746 0.771226
16.29000092 -14.50000000 -0.05000000 109 228 87 97.000000 1.000000 4.000000 1.000000 0.000000 114.000000 212.000000 0.653561 0.064638 0.754109
16.23999977 -14.52999973 -0.01000000 109 228 87 97.000000 1.000000 4.000000 1.000000 0.000000 114.000000 212.000000 0.712287 0.251117 0.655430
16.21999931 -14.56000042 0.04000000 109 228 87 97.000000 1.000000 4.000000 1.000000 0.000000 114.000000 212.000000 0.984102 -0.126786 -0.124371
16.19000053 -14.56000042 0.02000000 109 228 87 97.000000 1.000000 4.000000 1.000000 0.000000 114.000000 212.000000 0.906038 0.380507 0.185228
16.19000053 -14.56000042 0.02000000 109 228 87 97.000000 1.000000 4.000000 1.000000 0.000000 114.000000 212.000000 0.906038 0.380507 0.185228
16.19000053 -14.56999969 0.04000000 109 228 87 97.000000 1.000000 4.000000 1.000000 0.000000 114.000000 212.000000 0.887226 0.398437 0.232545
16.19000053 -14.55000019 0.01000000 109 228 87 97.000000 1.000000 4.000000 1.000000 0.000000 114.000000 212.000000 0.871607 0.355665 0.337347
16.23999977 -14.44999981 -0.05000000 109 228 87 97.000000 1.000000 4.000000 1.000000 0.000000 114.000000 212.000000 0.314455 -0.314455 0.895676
16.23999977 -14.46000004 -0.06000000 109 228 87 97.000000 1.000000 4.000000 1.000000 0.000000 114.000000 212.000000 -0.496060 0.482788 -0.721693
16.19000053 -14.43999958 -0.06000000 109 228 87 97.000000 1.000000 4.000000 1.000000 0.000000 114.000000 212.000000 0.595092 0.168079 0.785885
16.19000053 -14.47000027 -0.03000000 109 228 87 97.000000 1.000000 4.000000 1.000000 0.000000 114.000000 212.000000 0.827603 -0.043264 0.559644
16.17000008 -14.48999977 -0.06000000 109 228 87 97.000000 1.000000 4.000000 1.000000 0.000000 114.000000 212.000000 0.672956 0.149714 0.724373
16.19000053 -14.47000027 -0.07000000 109 228 87 97.000000 1.000000 4.000000 1.000000 0.000000 114.000000 212.000000 0.718099 0.018197 0.695703
16.14999962 -14.43999958 -0.03000000 109 228 87 97.000000 1.000000 4.000000 1.000000 0.000000 114.000000 212.000000 0.667796 0.315303 0.674264
16.15999985 -14.43999958 -0.19000000 109 228 87 97.000000 1.000000 4.000000 1.000000 0.000000 114.000000 227.000000 0.476052 0.192510 0.858088
16.25000000 -14.64000034 0.25999999 109 228 87 97.000000 1.000000 4.000000 1.000000 0.000000 114.000000 212.000000 -0.130436 -0.540796 0.830979
16.28000069 -14.64000034 0.25000000 109 228 87 97.000000 1.000000 4.000000 1.000000 0.000000 114.000000 212.000000 -0.513536 -0.231475 0.826257
16.25000000 -14.64000034 0.25999999 109 228 87 97.000000 1.000000 4.000000 1.000000 0.000000 114.000000 212.000000 -0.130436 -0.540796 0.830979
16.29000092 -14.65999985 0.25999999 109 228 87 97.000000 1.000000 4.000000 1.000000 0.000000 114.000000 212.000000 -0.491293 -0.014806 0.870868
16.26000023 -14.64000034 0.20000000 109 228 87 97.000000 1.000000 4.000000 1.000000 0.000000 114.000000 212.000000 -0.571352 -0.023518 0.820368
16.29999924 -14.64000034 0.16000000 109 228 87 97.000000 1.000000 4.000000 1.000000 0.000000 114.000000 212.000000 -0.445367 -0.518215 0.730137
16.30999947 -14.71000004 0.22000000 109 228 87 97.000000 1.000000 4.000000 1.000000 0.000000 114.000000 212.000000 0.009255 -0.456163 0.889848
16.29999924 -14.73999977 0.20000000 109 228 87 97.000000 1.000000 4.000000 1.000000 0.000000 114.000000 212.000000 -0.441189 -0.355798 0.823869
16.26000023 -14.71000004 0.22000000 109 228 87 97.000000 1.000000 4.000000 1.000000 0.000000 114.000000 212.000000 -0.197583 -0.274958 0.940935
16.34000015 -14.78999996 0.16000000 109 228 87 97.000000 1.000000 4.000000 1.000000 0.000000 114.000000 212.000000 0.083453 -0.510619 0.855747
16.34000015 -14.78999996 0.16000000 109 228 87 97.000000 1.000000 4.000000 1.000000 0.000000 114.000000 212.000000 0.083453 -0.510619 0.855747
16.32999992 -14.77999973 0.15000001 109 228 87 97.000000 1.000000 4.000000 1.000000 0.000000 114.000000 212.000000 -0.531373 -0.435362 0.726707
16.21999931 -14.68999958 0.17000000 109 228 87 97.000000 1.000000 4.000000 1.000000 0.000000 114.000000 212.000000 0.759395 0.406644 -0.507897
16.21999931 -14.68999958 0.17000000 109 228 87 97.000000 1.000000 4.000000 1.000000 0.000000 114.000000 212.000000 0.759395 0.406644 -0.507897
16.22999954 -14.75000000 0.18000001 109 228 87 97.000000 1.000000 4.000000 1.000000 0.000000 114.000000 212.000000 0.638533 0.544185 -0.544185
16.21999931 -14.75000000 0.17000000 109 228 87 97.000000 1.000000 4.000000 1.000000 0.000000 114.000000 212.000000 -0.587665 0.017976 0.808904
16.22999954 -14.72999954 0.15000001 109 228 87 97.000000 1.000000 4.000000 1.000000 0.000000 114.000000 212.000000 0.851792 0.398744 -0.339786
16.20999908 -14.75000000 0.16000000 109 228 87 97.000000 1.000000 4.000000 1.000000 0.000000 114.000000 212.000000 -0.689567 -0.230903 0.686426
16.10000038 -14.69999981 0.16000000 109 228 87 97.000000 1.000000 4.000000 1.000000 0.000000 114.000000 212.000000 0.991663 0.039396 -0.122692
16.17000008 -14.81000042 0.23999999 109 228 87 97.000000 1.000000 4.000000 1.000000 0.000000 114.000000 212.000000 0.724386 0.392581 -0.566697
16.20000076 -14.76000023 0.15000001 109 228 87 97.000000 1.000000 4.000000 1.000000 0.000000 114.000000 212.000000 -0.518926 -0.407611 0.751378
16.17000008 -14.77999973 0.16000000 109 228 87 97.000000 1.000000 4.000000 1.000000 0.000000 114.000000 212.000000 0.894505 0.407384 -0.184120
16.19000053 -14.81999969 0.20999999 109 228 87 97.000000 1.000000 4.000000 1.000000 0.000000 114.000000 212.000000 -0.459354 -0.017309 0.888085
16.18000031 -14.80000019 0.20000000 109 228 87 97.000000 1.000000 4.000000 1.000000 0.000000 114.000000 212.000000 0.547087 0.486857 -0.680931
16.18000031 -14.80000019 0.20000000 109 228 87 97.000000 1.000000 4.000000 1.000000 0.000000 114.000000 212.000000 0.547087 0.486857 -0.680931
16.14999962 -14.77999973 0.23999999 109 228 87 97.000000 1.000000 4.000000 1.000000 0.000000 114.000000 212.000000 0.900215 0.236435 -0.365666
16.12999916 -14.82999992 0.27000001 109 228 87 97.000000 1.000000 4.000000 1.000000 0.000000 114.000000 212.000000 -0.546578 -0.212813 0.809915
16.11000061 -14.81999969 0.18000001 109 228 87 97.000000 1.000000 4.000000 1.000000 0.000000 114.000000 212.000000 0.888651 0.036409 -0.457136
16.30999947 -14.60999966 0.04000000 109 228 87 97.000000 1.000000 4.000000 1.000000 0.000000 114.000000 212.000000 0.993640 0.027570 -0.109179
16.26000023 -14.63000011 0.05000000 109 228 87 97.000000 1.000000 4.000000 1.000000 0.000000 114.000000 212.000000 0.826850 0.522301 -0.208616
16.27000046 -14.65999985 0.06000000 109 228 87 97.000000 1.000000 4.000000 1.000000 0.000000 114.000000 212.000000 0.862136 0.227195 -0.452885
16.27000046 -14.65999985 0.06000000 109 228 87 97.000000 1.000000 4.000000 1.000000 0.000000 114.000000 212.000000 0.862136 0.227195 -0.452885
16.26000023 -14.63000011 0.04000000 109 228 87 97.000000 1.000000 4.000000 1.000000 0.000000 114.000000 212.000000 0.859151 0.453062 0.237895
16.31999969 -14.73999977 0.14000000 109 228 87 97.000000 1.000000 4.000000 1.000000 0.000000 114.000000 212.000000 -0.164774 -0.085394 0.982628
16.29999924 -14.72999954 0.10000000 109 228 87 97.000000 1.000000 4.000000 1.000000 0.000000 114.000000 212.000000 0.689222 0.223489 -0.689222
16.28000069 -14.73999977 0.12000000 109 228 87 97.000000 1.000000 4.000000 1.000000 0.000000 114.000000 212.000000 -0.375750 -0.598903 0.707197
16.27000046 -14.72999954 0.11000000 109 228 87 97.000000 1.000000 4.000000 1.000000 0.000000 114.000000 212.000000 0.772356 0.388617 -0.502438
16.29000092 -14.72999954 0.13000000 109 228 87 97.000000 1.000000 4.000000 1.000000 0.000000 114.000000 212.000000 -0.556973 -0.370771 0.743175
16.28000069 -14.72000027 0.12000000 109 228 87 97.000000 1.000000 4.000000 1.000000 0.000000 114.000000 212.000000 -0.440487 -0.087542 0.893481
16.29000092 -14.73999977 0.09000000 109 228 87 97.000000 1.000000 4.000000 1.000000 0.000000 114.000000 212.000000 0.753846 0.076687 -0.652561
16.25000000 -14.73999977 0.09000000 109 228 87 97.000000 1.000000 4.000000 1.000000 0.000000 114.000000 212.000000 0.932941 0.220258 -0.284793
16.30999947 -14.69999981 0.05000000 109 228 87 97.000000 1.000000 4.000000 1.000000 0.000000 114.000000 212.000000 0.958226 0.229285 -0.170970
16.31999969 -14.71000004 -0.01000000 109 228 87 97.000000 1.000000 4.000000 1.000000 0.000000 114.000000 212.000000 0.928208 -0.081704 0.362979
16.25000000 -14.71000004 0.00000000 109 228 87 97.000000 1.000000 4.000000 1.000000 0.000000 114.000000 212.000000 0.924178 0.374232 -0.076456
16.25000000 -14.60000038 -0.06000000 109 228 87 97.000000 1.000000 4.000000 1.000000 0.000000 114.000000 212.000000 0.788662 0.310685 0.530554
16.27000046 -14.64999962 -0.14000000 109 228 87 97.000000 1.000000 4.000000 1.000000 0.000000 114.000000 212.000000 0.826712 -0.198714 0.526365
16.25000000 -14.68999958 -0.09000000 109 228 87 97.000000 1.000000 4.000000 1.000000 0.000000 114.000000 212.000000 -0.690606 0.431004 -0.580774
16.27000046 -14.69999981 -0.11000000 109 228 87 97.000000 1.000000 4.000000 1.000000 0.000000 114.000000 212.000000 0.701803 0.241294 0.670261
16.26000023 -14.72000027 -0.17000000 109 228 87 97.000000 1.000000 4.000000 1.000000 0.000000 114.000000 212.000000 0.740797 0.061853 0.668875
16.42000008 -14.82999992 0.10000000 109 228 87 97.000000 1.000000 4.000000 1.000000 0.000000 114.000000 212.000000 -0.158637 -0.119285 0.980105
16.40999985 -14.81000042 0.08000000 109 228 87 97.000000 1.000000 4.000000 1.000000 0.000000 114.000000 212.000000 0.032379 0.117233 0.992576
16.35000038 -14.81999969 0.12000000 109 228 87 97.000000 1.000000 4.000000 1.000000 0.000000 114.000000 212.000000 -0.119744 -0.136677 0.983352
16.36000061 -14.81999969 0.10000000 109 228 87 97.000000 1.000000 4.000000 1.000000 0.000000 114.000000 212.000000 -0.272061 -0.102836 0.956769
16.42000008 -14.84000015 0.10000000 109 228 87 97.000000 1.000000 4.000000 1.000000 0.000000 114.000000 212.000000 0.281871 -0.182873 0.941863
16.40999985 -14.84000015 0.10000000 109 228 87 97.000000 1.000000 4.000000 1.000000 0.000000 114.000000 212.000000 -0.219280 0.017779 0.975500
16.42000008 -14.84000015 0.10000000 109 228 87 97.000000 1.000000 4.000000 1.000000 0.000000 114.000000 212.000000 0.281871 -0.182873 0.941863
16.42000008 -14.86999989 0.10000000 109 228 87 97.000000 1.000000 4.000000 1.000000 0.000000 114.000000 212.000000 0.057767 -0.166227 0.984394
16.40999985 -14.85999966 0.10000000 109 228 87 97.000000 1.000000 4.000000 1.000000 0.000000 114.000000 212.000000 -0.250127 0.005984 0.968195
16.42000008 -14.89999962 0.09000000 109 228 87 97.000000 1.000000 4.000000 1.000000 0.000000 114.000000 212.000000 0.151288 -0.266427 0.951908
16.36000061 -14.85999966 0.12000000 109 228 87 97.000000 1.000000 4.000000 1.000000 0.000000 114.000000 212.000000 -0.170302 -0.562148 0.809312
16.35000038 -14.84000015 0.07000000 109 228 87 97.000000 1.000000 4.000000 1.000000 0.000000 114.000000 212.000000 -0.460052 -0.252188 0.851325
16.35000038 -14.84000015 0.08000000 109 228 87 97.000000 1.000000 4.000000 1.000000 0.000000 114.000000 212.000000 -0.498800 -0.020276 0.866480
16.37000084 -14.89000034 0.10000000 109 228 87 97.000000 1.000000 4.000000 1.000000 0.000000 114.000000 212.000000 -0.563613 -0.355709 0.745528
16.30999947 -14.81000042 0.11000000 109 228 87 97.000000 1.000000 4.000000 1.000000 0.000000 114.000000 212.000000 -0.344660 -0.130449 0.929620
16.27000046 -14.77000046 0.14000000 109 228 87 97.000000 1.000000 4.000000 1.000000 0.000000 114.000000 212.000000 -0.395104 -0.502416 0.769071
16.29000092 -14.76000023 0.11000000 109 228 87 97.000000 1.000000 4.000000 1.000000 0.000000 114.000000 212.000000 -0.659758 -0.166082 0.732895
16.27000046 -14.76000023 0.11000000 109 228 87 97.000000 1.000000 4.000000 1.000000 0.000000 114.000000 212.000000 -0.540913 -0.099528 0.835169
