//X Y Z R G B PointSourceId ScanDirectionFlag NumberOfReturns ReturnNumber GpsTime Intensity Classification Nx Ny Nz
-13.85000038 8.22999954 0.58999997 125 150 118 0.000000 0.000000 0.000000 0.000000 -0.000107 0.000000 121.000000 0.826904 0.023468 -0.561853
-13.88000011 8.23999977 0.64999998 125 150 118 0.000000 0.000000 0.000000 0.000000 -0.000107 0.000000 121.000000 0.830241 0.181662 -0.526971
-13.85999966 8.23999977 0.56000000 125 150 118 0.000000 0.000000 0.000000 0.000000 -0.000107 0.000000 121.000000 0.879204 0.266016 -0.395266
-13.84000015 8.22999954 0.50999999 125 150 118 0.000000 0.000000 0.000000 0.000000 -0.000107 0.000000 121.000000 0.832085 -0.020630 -0.554265
-13.88000011 8.25000000 0.54000002 125 150 118 0.000000 0.000000 0.000000 0.000000 -0.000107 0.000000 121.000000 0.818452 0.449751 -0.357576
-13.89000034 8.25000000 0.51999998 125 150 118 0.000000 0.000000 0.000000 0.000000 -0.000107 0.000000 121.000000 0.812698 0.026395 -0.582087
-13.94999981 8.23999977 0.66000003 125 150 118 0.000000 0.000000 0.000000 0.000000 -0.000107 0.000000 121.000000 0.966428 0.153956 -0.205706
-13.93000031 8.21000004 0.64999998 125 150 118 0.000000 0.000000 0.000000 0.000000 -0.000107 0.000000 121.000000 -0.684429 -0.114319 0.720061
-13.98999977 8.19999981 0.62000000 125 150 118 0.000000 0.000000 0.000000 0.000000 -0.000107 0.000000 121.000000 0.725734 0.393312 -0.564460
-13.90999985 8.22999954 0.54000002 125 150 118 0.000000 0.000000 0.000000 0.000000 -0.000107 0.000000 121.000000 0.808858 0.213342 -0.547936
-13.94999981 8.22000027 0.50999999 125 150 118 0.000000 0.000000 0.000000 0.000000 -0.000107 0.000000 121.000000 0.714446 0.089123 -0.693991
-13.93000031 8.22999954 0.50000000 125 150 118 0.000000 0.000000 0.000000 0.000000 -0.000107 0.000000 121.000000 0.890830 -0.263233 -0.370311
-14.02999973 8.17000008 0.80000001 125 150 118 0.000000 0.000000 0.000000 0.000000 -0.000107 0.000000 121.000000 -0.648817 -0.175562 0.740415
-14.03999996 8.18000031 0.69000000 125 150 118 0.000000 0.000000 0.000000 0.000000 -0.000107 0.000000 121.000000 0.698029 0.376115 -0.609338
-14.11999989 8.11999989 0.70999998 125 150 118 0.000000 0.000000 0.000000 0.000000 -0.000107 0.000000 121.000000 0.807057 -0.122014 -0.577729
-14.11999989 8.11999989 0.70999998 125 150 118 0.000000 0.000000 0.000000 0.000000 -0.000107 0.000000 121.000000 0.807057 -0.122014 -0.577729
-14.14999962 8.10999966 0.67000002 125 150 118 0.000000 0.000000 0.000000 0.000000 -0.000107 0.000000 121.000000 -0.611374 -0.380667 0.693769
-14.02000046 8.21000004 0.50000000 125 150 118 0.000000 0.000000 0.000000 0.000000 -0.000107 0.000000 121.000000 0.885729 -0.039336 -0.462532
-14.14999962 8.01000023 0.87000000 125 150 118 0.000000 0.000000 0.000000 0.000000 -0.000107 0.000000 121.000000 0.911682 -0.077445 -0.403531
-14.15999985 7.98999977 0.85000002 125 150 118 0.000000 0.000000 0.000000 0.000000 -0.000107 0.000000 121.000000 0.870237 0.131329 -0.474806
-14.14000034 8.09000015 0.80000001 125 150 118 0.000000 0.000000 0.000000 0.000000 -0.000107 0.000000 121.000000 0.702730 -0.021040 -0.711146
-14.14000034 8.09000015 0.80000001 125 150 118 0.000000 0.000000 0.000000 0.000000 -0.000107 0.000000 121.000000 0.702730 -0.021040 -0.711146
-14.14000034 8.09000015 0.80000001 125 150 118 0.000000 0.000000 0.000000 0.000000 -0.000107 0.000000 121.000000 0.702730 -0.021040 -0.711146
-14.14000034 8.07999992 0.81999999 125 150 118 0.000000 0.000000 0.000000 0.000000 -0.000107 0.000000 121.000000 0.923704 -0.125271 -0.362048
-14.15999985 8.02000046 0.80000001 125 150 118 0.000000 0.000000 0.000000 0.000000 -0.000107 0.000000 121.000000 0.980527 0.010443 -0.196105
-14.14000034 8.02000046 0.79000002 125 150 118 0.000000 0.000000 0.000000 0.000000 -0.000107 0.000000 121.000000 0.834710 0.012295 -0.550553
-14.14999962 8.02000046 0.77999997 125 150 118 0.000000 0.000000 0.000000 0.000000 -0.000107 0.000000 121.000000 0.777403 0.038094 -0.627848
-14.14000034 8.02000046 0.79000002 125 150 118 0.000000 0.000000 0.000000 0.000000 -0.000107 0.000000 121.000000 0.834710 0.012295 -0.550553
-14.15999985 8.05000019 0.68000001 125 150 118 0.000000 0.000000 0.000000 0.000000 -0.000107 0.000000 121.000000 0.698771 0.153093 -0.698771
-14.14999962 7.98000002 0.75999999 125 150 118 0.000000 0.000000 0.000000 0.000000 -0.000107 0.000000 121.000000 0.798145 0.131790 -0.587873
-14.14000034 8.07999992 0.58999997 125 150 118 0.000000 0.000000 0.000000 0.000000 -0.000107 0.000000 121.000000 0.814385 0.040649 -0.578900
-14.14999962 8.07999992 0.55000001 125 150 118 0.000000 0.000000 0.000000 0.000000 -0.000107 0.000000 121.000000 0.736235 0.282676 -0.614860
-14.15999985 7.94000006 0.66000003 125 150 118 0.000000 0.000000 0.000000 0.000000 -0.000107 0.000000 121.000000 0.878472 0.151960 -0.452985
-14.15999985 7.92999983 0.61000001 125 150 118 0.000000 0.000000 0.000000 0.000000 -0.000107 0.000000 121.000000 0.846611 0.104928 -0.521766
-14.15999985 7.86000013 0.76999998 125 150 118 0.000000 0.000000 0.000000 0.000000 -0.000107 0.000000 121.000000 0.880159 0.275332 -0.386668
-14.14000034 7.84999990 0.74000001 125 150 118 0.000000 0.000000 0.000000 0.000000 -0.000107 0.000000 121.000000 0.851598 0.205765 -0.482122
-14.13000011 7.84999990 0.75000000 125 150 118 0.000000 0.000000 0.000000 0.000000 -0.000107 0.000000 121.000000 0.827550 0.312490 -0.466380
-14.14999962 7.86999989 0.69999999 125 150 118 0.000000 0.000000 0.000000 0.000000 -0.000107 0.000000 121.000000 0.786484 0.174269 -0.592515
-14.11999989 7.78000021 0.76999998 125 150 118 0.000000 0.000000 0.000000 0.000000 -0.000107 0.000000 121.000000 0.724573 0.371282 -0.580640
-14.13000011 7.80999994 0.77999997 125 150 118 0.000000 0.000000 0.000000 0.000000 -0.000107 0.000000 121.000000 0.928776 0.323601 -0.180712
-14.14999962 7.80999994 0.75000000 125 150 118 0.000000 0.000000 0.000000 0.000000 -0.000107 0.000000 121.000000 0.889197 0.349381 -0.295399
-14.13000011 7.82999992 0.72000003 125 150 118 0.000000 0.000000 0.000000 0.000000 -0.000107 0.000000 121.000000 0.652181 0.344888 -0.675065
-14.14000034 7.78999996 0.69000000 125 150 118 0.000000 0.000000 0.000000 0.000000 -0.000107 0.000000 121.000000 0.912014 0.345438 -0.221138
-14.15999985 7.90999985 0.63000000 125 150 118 0.000000 0.000000 0.000000 0.000000 -0.000107 0.000000 121.000000 0.757988 0.182223 -0.626297
-14.14999962 7.88000011 0.57999998 125 150 118 0.000000 0.000000 0.000000 0.000000 -0.000107 0.000000 121.000000 0.893737 0.171817 -0.414382
-14.15999985 7.88999987 0.55000001 125 150 118 0.000000 0.000000 0.000000 0.000000 -0.000107 0.000000 121.000000 0.923153 0.157816 -0.350547
-14.10999966 7.78000021 0.57999998 125 150 118 0.000000 0.000000 0.000000 0.000000 -0.000107 0.000000 121.000000 0.914513 0.350635 -0.201794
-14.13000011 7.80999994 0.63000000 125 150 118 0.000000 0.000000 0.000000 0.000000 -0.000107 0.000000 121.000000 0.931780 0.296539 -0.209405
-14.11999989 7.82000017 0.54000002 125 150 118 0.000000 0.000000 0.000000 0.000000 -0.000107 0.000000 121.000000 0.742634 0.320573 -0.587986
-14.10999966 7.78000021 0.55000001 125 150 118 0.000000 0.000000 0.000000 0.000000 -0.000107 0.000000 121.000000 0.899143 0.383265 -0.211306
-14.14000034 7.78000021 0.52999997 125 150 118 0.000000 0.000000 0.000000 0.000000 -0.000107 0.000000 121.000000 0.651947 0.438522 -0.618599
-14.18000031 7.92999983 1.01999998 125 150 118 0.000000 0.000000 0.000000 0.000000 -0.000107 0.000000 121.000000 0.919393 0.393289 0.006447
-14.17000008 8.05000019 0.91000003 125 150 118 0.000000 0.000000 0.000000 0.000000 -0.000107 0.000000 121.000000 0.991227 0.009968 -0.131794
-14.17000008 8.00000000 0.85000002 125 150 118 0.000000 0.000000 0.000000 0.000000 -0.000107 0.000000 121.000000 0.794828 0.055453 -0.604296
-14.17000008 7.92999983 0.89999998 125 150 118 0.000000 0.000000 0.000000 0.000000 -0.000107 0.000000 121.000000 0.951732 0.044473 -0.303690
-14.18000031 7.92999983 0.86000001 125 150 118 0.000000 0.000000 0.000000 0.000000 -0.000107 0.000000 121.000000 0.873520 0.004001 -0.486771
-14.17000008 7.92000008 1.03999996 125 150 118 0.000000 0.000000 0.000000 0.000000 -0.000107 0.000000 121.000000 0.944678 0.179092 -0.274790
-14.17000008 7.88999987 0.94000000 125 150 118 0.000000 0.000000 0.000000 0.000000 -0.000107 0.000000 121.000000 0.935699 0.216791 -0.278332
-14.17000008 7.88999987 0.94000000 125 150 118 0.000000 0.000000 0.000000 0.000000 -0.000107 0.000000 121.000000 0.935699 0.216791 -0.278332
-14.18000031 7.88999987 0.86000001 125 150 118 0.000000 0.000000 0.000000 0.000000 -0.000107 0.000000 121.000000 0.931153 0.045709 -0.361752
-14.18000031 8.03999996 0.76999998 125 150 118 0.000000 0.000000 0.000000 0.000000 -0.000107 0.000000 121.000000 0.921035 -0.085206 -0.380045
-14.18000031 8.01000023 0.75999999 125 150 118 0.000000 0.000000 0.000000 0.000000 -0.000107 0.000000 121.000000 0.866480 -0.020276 -0.498800
-14.17000008 7.96000004 0.73000002 125 150 118 0.000000 0.000000 0.000000 0.000000 -0.000107 0.000000 121.000000 -0.668182 -0.185862 0.720408
-14.17000008 8.02999973 0.58999997 125 150 118 0.000000 0.000000 0.000000 0.000000 -0.000107 0.000000 121.000000 0.807902 0.020786 -0.588951
-14.17000008 8.03999996 0.60000002 125 150 118 0.000000 0.000000 0.000000 0.000000 -0.000107 0.000000 121.000000 0.823852 0.057938 -0.563837
-14.18999958 8.00000000 0.52999997 125 150 118 0.000000 0.000000 0.000000 0.000000 -0.000107 0.000000 121.000000 0.841714 0.009519 -0.539839
-14.17000008 7.96999979 0.50000000 125 150 118 0.000000 0.000000 0.000000 0.000000 -0.000107 0.000000 121.000000 0.809977 0.141189 -0.569213
-14.19999981 7.94000006 0.50000000 125 150 118 0.000000 0.000000 0.000000 0.000000 -0.000107 0.000000 121.000000 0.773429 0.174743 -0.609322
-14.18000031 7.88999987 0.69000000 125 150 118 0.000000 0.000000 0.000000 0.000000 -0.000107 0.000000 121.000000 0.814608 0.176172 -0.552609
-14.17000008 7.90999985 0.69999999 125 150 118 0.000000 0.000000 0.000000 0.000000 -0.000107 0.000000 121.000000 0.931397 0.133057 -0.338815
-14.18000031 7.88000011 0.75000000 125 150 118 0.000000 0.000000 0.000000 0.000000 -0.000107 0.000000 121.000000 0.728826 0.189525 -0.657946
-14.17000008 7.82000017 0.67000002 125 150 118 0.000000 0.000000 0.000000 0.000000 -0.000107 0.000000 121.000000 0.611549 0.362338 -0.703363
-14.18999958 7.90999985 0.55000001 125 150 118 0.000000 0.000000 0.000000 0.000000 -0.000107 0.000000 121.000000 0.721480 0.283153 -0.631895
-13.85000038 8.25000000 0.43000001 125 150 118 0.000000 0.000000 0.000000 0.000000 -0.000107 0.000000 121.000000 0.884174 -0.059128 -0.463401
-13.82999992 8.22000027 0.47999999 125 150 118 0.000000 0.000000 0.000000 0.000000 -0.000107 0.000000 121.000000 -0.693547 -0.130321 0.708526
-13.82999992 8.22000027 0.41000000 125 150 118 0.000000 0.000000 0.000000 0.000000 -0.000107 0.000000 121.000000 0.805308 0.017957 -0.592585
-13.85000038 8.23999977 0.38000000 125 150 118 0.000000 0.000000 0.000000 0.000000 -0.000107 0.000000 121.000000 0.801090 0.538745 -0.260784
-13.84000015 8.23999977 0.40000001 125 150 118 0.000000 0.000000 0.000000 0.000000 -0.000107 0.000000 121.000000 0.837029 0.471893 -0.276947
-13.82999992 8.23999977 0.34000000 125 150 118 0.000000 0.000000 0.000000 0.000000 -0.000107 0.000000 121.000000 0.659971 0.398629 -0.636814
-13.85000038 8.25000000 0.36000001 125 150 118 0.000000 0.000000 0.000000 0.000000 -0.000107 0.000000 121.000000 0.984973 0.079606 -0.153271
-13.96000004 8.23999977 0.49000001 125 150 118 0.000000 0.000000 0.000000 0.000000 -0.000107 0.000000 121.000000 -0.638028 -0.192177 0.745647
-13.96000004 8.23999977 0.43000001 125 150 118 0.000000 0.000000 0.000000 0.000000 -0.000107 0.000000 121.000000 0.967372 0.055882 -0.247121
-13.96000004 8.22999954 0.41000000 125 150 118 0.000000 0.000000 0.000000 0.000000 -0.000107 0.000000 121.000000 0.942827 -0.042447 -0.330568
-13.97999954 8.22999954 0.44000000 125 150 118 0.000000 0.000000 0.000000 0.000000 -0.000107 0.000000 121.000000 0.738011 0.477148 -0.477148
-13.97999954 8.22999954 0.44000000 125 150 118 0.000000 0.000000 0.000000 0.000000 -0.000107 0.000000 121.000000 0.738011 0.477148 -0.477148
-13.96000004 8.22999954 0.41000000 125 150 118 0.000000 0.000000 0.000000 0.000000 -0.000107 0.000000 121.000000 0.942827 -0.042447 -0.330568
-13.90999985 8.21000004 0.40000001 125 150 118 0.000000 0.000000 0.000000 0.000000 -0.000107 0.000000 121.000000 0.666972 0.120322 -0.735303
-13.90999985 8.22000027 0.40000001 125 150 118 0.000000 0.000000 0.000000 0.000000 -0.000107 0.000000 121.000000 -0.637217 -0.088948 0.765535
-13.94999981 8.22999954 0.34000000 125 150 118 0.000000 0.000000 0.000000 0.000000 -0.000107 0.000000 121.000000 0.935486 0.149733 -0.320071
-13.94999981 8.22999954 0.34000000 125 150 118 0.000000 0.000000 0.000000 0.000000 -0.000107 0.000000 121.000000 0.935486 0.149733 -0.320071
-13.97999954 8.22999954 0.38999999 125 150 118 0.000000 0.000000 0.000000 0.000000 -0.000107 0.000000 121.000000 -0.624544 -0.285917 0.726771
-13.97999954 8.22999954 0.38999999 125 150 118 0.000000 0.000000 0.000000 0.000000 -0.000107 0.000000 121.000000 -0.624544 -0.285917 0.726771
-13.96000004 8.22999954 0.33000001 125 150 118 0.000000 0.000000 0.000000 0.000000 -0.000107 0.000000 121.000000 0.622851 0.307402 -0.719417
-13.85000038 8.23999977 0.28999999 125 150 118 0.000000 0.000000 0.000000 0.000000 -0.000107 0.000000 121.000000 0.781798 0.459977 -0.420968
-13.85999966 8.25000000 0.27000001 125 150 118 0.000000 0.000000 0.000000 0.000000 -0.000107 0.000000 121.000000 0.970851 0.020401 -0.238813
-13.86999989 8.23999977 0.23999999 125 150 118 0.000000 0.000000 0.000000 0.000000 -0.000107 0.000000 121.000000 0.734414 0.018185 -0.678458
-13.86999989 8.23999977 0.23999999 125 150 118 0.000000 0.000000 0.000000 0.000000 -0.000107 0.000000 121.000000 0.734414 0.018185 -0.678458
-13.86999989 8.23999977 0.23999999 125 150 118 0.000000 0.000000 0.000000 0.000000 -0.000107 0.000000 121.000000 0.734414 0.018185 -0.678458
-13.89999962 8.22999954 0.30000001 125 150 118 0.000000 0.000000 0.000000 0.000000 -0.000107 0.000000 121.000000 0.718521 0.149755 -0.679191
-13.88000011 8.23999977 0.20000000 125 150 118 0.000000 0.000000 0.000000 0.000000 -0.000107 0.000000 121.000000 0.588123 0.500495 -0.635308
-13.88000011 8.26000023 0.16000000 125 150 118 0.000000 0.000000 0.000000 0.000000 -0.000107 0.000000 121.000000 0.867774 0.411851 -0.278113
-13.90999985 8.22999954 0.23999999 125 150 118 0.000000 0.000000 0.000000 0.000000 -0.000107 0.000000 121.000000 0.881545 -0.142370 -0.450120
-13.97999954 8.21000004 0.31999999 125 150 118 0.000000 0.000000 0.000000 0.000000 -0.000107 0.000000 121.000000 0.949893 0.106715 -0.293795
-13.90999985 8.25000000 0.18000001 125 150 118 0.000000 0.000000 0.000000 0.000000 -0.000107 0.000000 121.000000 0.964721 0.149318 -0.216835
-13.93999958 8.23999977 0.18000001 125 150 118 0.000000 0.000000 0.000000 0.000000 -0.000107 0.000000 121.000000 0.871007 0.281215 -0.402822
-13.92000008 8.19999981 0.22000000 125 150 118 0.000000 0.000000 0.000000 0.000000 -0.000107 0.000000 121.000000 0.738611 0.260965 -0.621572
-13.98999977 8.22999954 0.16000000 125 150 118 0.000000 0.000000 0.000000 0.000000 -0.000107 0.000000 121.000000 0.992171 0.034754 -0.119957
-13.98999977 8.22999954 0.16000000 125 150 118 0.000000 0.000000 0.000000 0.000000 -0.000107 0.000000 121.000000 0.992171 0.034754 -0.119957
-14.05000019 8.21000004 0.44000000 125 150 118 0.000000 0.000000 0.000000 0.000000 -0.000107 0.000000 121.000000 0.927996 0.279962 -0.245855
-14.06999969 8.18999958 0.41999999 125 150 118 0.000000 0.000000 0.000000 0.000000 -0.000107 0.000000 121.000000 0.947397 0.306163 -0.093294
-14.02000046 8.25000000 0.40000001 125 150 118 0.000000 0.000000 0.000000 0.000000 -0.000107 0.000000 121.000000 0.919543 0.079667 -0.384831
-14.02000046 8.25000000 0.40000001 125 150 118 0.000000 0.000000 0.000000 0.000000 -0.000107 0.000000 121.000000 0.919543 0.079667 -0.384831
-14.05000019 8.17000008 0.46000001 125 150 118 0.000000 0.000000 0.000000 0.000000 -0.000107 0.000000 121.000000 0.872872 0.382358 -0.303144
-14.11999989 8.18000031 0.44000000 125 150 118 0.000000 0.000000 0.000000 0.000000 -0.000107 0.000000 121.000000 0.810590 -0.034879 -0.584574
-14.13000011 8.13000011 0.41999999 125 150 118 0.000000 0.000000 0.000000 0.000000 -0.000107 0.000000 121.000000 0.889752 0.423898 -0.169270
-14.03999996 8.19999981 0.31000000 125 150 118 0.000000 0.000000 0.000000 0.000000 -0.000107 0.000000 121.000000 0.909199 -0.019680 -0.415896
-14.03999996 8.19999981 0.31000000 125 150 118 0.000000 0.000000 0.000000 0.000000 -0.000107 0.000000 121.000000 0.909199 -0.019680 -0.415896
-14.02000046 8.22000027 0.17000000 125 150 118 0.000000 0.000000 0.000000 0.000000 -0.000107 0.000000 121.000000 0.958032 -0.054276 -0.281477
-14.02999973 8.18999958 0.16000000 125 150 118 0.000000 0.000000 0.000000 0.000000 -0.000107 0.000000 121.000000 0.900582 0.214563 -0.378040
-14.05000019 8.19999981 0.20999999 125 150 118 0.000000 0.000000 0.000000 0.000000 -0.000107 0.000000 121.000000 0.869212 0.222913 -0.441338
-14.05000019 8.18999958 0.20999999 125 150 118 0.000000 0.000000 0.000000 0.000000 -0.000107 0.000000 121.000000 0.794827 0.414342 -0.443362
-14.00000000 8.15999985 0.23000000 125 150 118 0.000000 0.000000 0.000000 0.000000 -0.000107 0.000000 121.000000 0.795523 0.584988 -0.157902
-14.10000038 8.14999962 0.20000000 125 150 118 0.000000 0.000000 0.000000 0.000000 -0.000107 0.000000 121.000000 0.848675 0.145110 -0.508619
-14.07999992 8.15999985 0.20000000 125 150 118 0.000000 0.000000 0.000000 0.000000 -0.000107 0.000000 121.000000 0.735815 0.085966 -0.671704
-14.10999966 8.15999985 0.15000001 125 150 118 0.000000 0.000000 0.000000 0.000000 -0.000107 0.000000 121.000000 0.829628 0.015084 -0.558113
-14.09000015 8.14999962 0.17000000 125 150 118 0.000000 0.000000 0.000000 0.000000 -0.000107 0.000000 121.000000 0.789202 0.331369 -0.517063
-14.10999966 8.11999989 0.23000000 125 150 118 0.000000 0.000000 0.000000 0.000000 -0.000107 0.000000 121.000000 0.852811 0.501739 -0.144817
-14.10999966 8.14000034 0.19000000 125 150 118 0.000000 0.000000 0.000000 0.000000 -0.000107 0.000000 121.000000 0.667748 0.126977 -0.733477
-14.14000034 8.10999966 0.20000000 125 150 118 0.000000 0.000000 0.000000 0.000000 -0.000107 0.000000 121.000000 0.781203 0.061411 -0.621249
-14.13000011 8.11999989 0.19000000 125 150 118 0.000000 0.000000 0.000000 0.000000 -0.000107 0.000000 121.000000 0.813063 0.040583 -0.580759
-13.89000034 8.28999996 -0.03000000 125 150 118 0.000000 0.000000 0.000000 0.000000 -0.000107 0.000000 121.000000 0.765465 0.340028 -0.546300
-13.90999985 8.27999973 -0.12000000 125 150 118 0.000000 0.000000 0.000000 0.000000 -0.000107 0.000000 121.000000 0.856608 0.186219 -0.481191
-13.90999985 8.27999973 -0.12000000 125 150 118 0.000000 0.000000 0.000000 0.000000 -0.000107 0.000000 121.000000 0.856608 0.186219 -0.481191
-13.85000038 8.23999977 0.14000000 125 150 118 0.000000 0.000000 0.000000 0.000000 -0.000107 0.000000 121.000000 0.963517 0.035777 -0.265245
-13.84000015 8.23999977 0.14000000 125 150 118 0.000000 0.000000 0.000000 0.000000 -0.000107 0.000000 121.000000 0.971565 0.174907 -0.159587
-13.85999966 8.26000023 0.13000000 125 150 118 0.000000 0.000000 0.000000 0.000000 -0.000107 0.000000 121.000000 0.952308 0.256546 -0.165210
-13.85000038 8.23999977 0.11000000 125 150 118 0.000000 0.000000 0.000000 0.000000 -0.000107 0.000000 121.000000 0.963221 0.253882 -0.088029
-13.82999992 8.26000023 0.13000000 125 150 118 0.000000 0.000000 0.000000 0.000000 -0.000107 0.000000 121.000000 0.901212 0.264021 -0.343670
-13.85999966 8.25000000 0.14000000 125 150 118 0.000000 0.000000 0.000000 0.000000 -0.000107 0.000000 121.000000 0.844770 -0.102178 -0.525283
-13.89999962 8.25000000 0.02000000 125 150 118 0.000000 0.000000 0.000000 0.000000 -0.000107 0.000000 121.000000 0.805196 0.190264 -0.561658
-13.97999954 8.22000027 0.11000000 125 150 118 0.000000 0.000000 0.000000 0.000000 -0.000107 0.000000 121.000000 0.823245 0.228424 -0.519702
-13.97999954 8.22999954 0.11000000 125 150 118 0.000000 0.000000 0.000000 0.000000 -0.000107 0.000000 121.000000 0.728957 -0.006942 -0.684525
-13.97999954 8.22000027 0.11000000 125 150 118 0.000000 0.000000 0.000000 0.000000 -0.000107 0.000000 121.000000 0.823245 0.228424 -0.519702
-13.93999958 8.23999977 0.00000000 125 150 118 0.000000 0.000000 0.000000 0.000000 -0.000107 0.000000 121.000000 0.833965 0.108778 -0.540989
-13.93999958 8.23999977 0.00000000 125 150 118 0.000000 0.000000 0.000000 0.000000 -0.000107 0.000000 121.000000 0.833965 0.108778 -0.540989
-13.94999981 8.23999977 -0.01000000 125 150 118 0.000000 0.000000 0.000000 0.000000 -0.000107 0.000000 121.000000 0.725632 0.202682 -0.657555
-13.94999981 8.25000000 -0.06000000 125 150 118 0.000000 0.000000 0.000000 0.000000 -0.000107 0.000000 121.000000 0.795008 0.268139 -0.544118
-13.90999985 8.25000000 -0.04000000 125 150 118 0.000000 0.000000 0.000000 0.000000 -0.000107 0.000000 121.000000 0.695778 0.165951 -0.698823
-13.94999981 8.25000000 -0.06000000 125 150 118 0.000000 0.000000 0.000000 0.000000 -0.000107 0.000000 121.000000 0.795008 0.268139 -0.544118
-13.96000004 8.25000000 -0.07000000 125 150 118 0.000000 0.000000 0.000000 0.000000 -0.000107 0.000000 121.000000 0.670845 0.095416 -0.735434
-13.98999977 8.23999977 -0.11000000 125 150 118 0.000000 0.000000 0.000000 0.000000 -0.000107 0.000000 121.000000 0.886967 0.264744 -0.378419
-13.97000027 8.23999977 -0.12000000 125 150 118 0.000000 0.000000 0.000000 0.000000 -0.000107 0.000000 121.000000 0.799764 0.237600 -0.551293
-14.01000023 8.23999977 0.00000000 125 150 118 0.000000 0.000000 0.000000 0.000000 -0.000107 0.000000 121.000000 0.825025 0.029119 -0.564345
-14.01000023 8.23999977 0.00000000 125 150 118 0.000000 0.000000 0.000000 0.000000 -0.000107 0.000000 121.000000 0.825025 0.029119 -0.564345
-14.06000042 8.19999981 0.04000000 125 150 118 0.000000 0.000000 0.000000 0.000000 -0.000107 0.000000 121.000000 0.970077 0.045262 -0.238543
-14.06999969 8.18999958 0.02000000 125 150 118 0.000000 0.000000 0.000000 0.000000 -0.000107 0.000000 121.000000 0.917915 0.167791 -0.359552
-14.06999969 8.18999958 0.03000000 125 150 118 0.000000 0.000000 0.000000 0.000000 -0.000107 0.000000 121.000000 0.806962 0.479084 -0.345386
-14.05000019 8.19999981 0.00000000 125 150 118 0.000000 0.000000 0.000000 0.000000 -0.000107 0.000000 121.000000 0.959533 0.107478 -0.260278
-14.06999969 8.18000031 0.08000000 125 150 118 0.000000 0.000000 0.000000 0.000000 -0.000107 0.000000 121.000000 0.689441 0.297311 -0.660513
-14.06999969 8.18000031 0.08000000 125 150 118 0.000000 0.000000 0.000000 0.000000 -0.000107 0.000000 121.000000 0.689441 0.297311 -0.660513
-14.05000019 8.18000031 -0.02000000 125 150 118 0.000000 0.000000 0.000000 0.000000 -0.000107 0.000000 121.000000 0.736255 0.240185 -0.632645
-14.09000015 8.18999958 0.05000000 125 150 118 0.000000 0.000000 0.000000 0.000000 -0.000107 0.000000 121.000000 0.805885 0.325851 -0.494339
-14.09000015 8.18000031 0.05000000 125 150 118 0.000000 0.000000 0.000000 0.000000 -0.000107 0.000000 121.000000 0.963362 -0.001203 -0.268202
-14.02999973 8.22000027 -0.03000000 125 150 118 0.000000 0.000000 0.000000 0.000000 -0.000107 0.000000 121.000000 0.924948 0.270193 -0.267334
-14.07999992 8.18999958 -0.11000000 125 150 118 0.000000 0.000000 0.000000 0.000000 -0.000107 0.000000 121.000000 0.922398 0.146081 -0.357551
-14.10999966 8.15999985 -0.03000000 125 150 118 0.000000 0.000000 0.000000 0.000000 -0.000107 0.000000 121.000000 -0.717046 -0.149447 0.680816
-14.11999989 8.15999985 -0.04000000 125 150 118 0.000000 0.000000 0.000000 0.000000 -0.000107 0.000000 121.000000 0.918458 0.006441 -0.395465
-14.11999989 8.15999985 -0.04000000 125 150 118 0.000000 0.000000 0.000000 0.000000 -0.000107 0.000000 121.000000 0.918458 0.006441 -0.395465
-14.10999966 8.15999985 -0.03000000 125 150 118 0.000000 0.000000 0.000000 0.000000 -0.000107 0.000000 121.000000 -0.717046 -0.149447 0.680816
-14.13000011 8.11999989 -0.10000000 125 150 118 0.000000 0.000000 0.000000 0.000000 -0.000107 0.000000 121.000000 0.748816 0.358977 -0.557145
-14.13000011 8.11999989 -0.10000000 125 150 118 0.000000 0.000000 0.000000 0.000000 -0.000107 0.000000 121.000000 0.748816 0.358977 -0.557145
-14.14000034 8.01000023 0.41999999 125 150 118 0.000000 0.000000 0.000000 0.000000 -0.000107 0.000000 121.000000 0.760584 0.168513 -0.626989
-14.15999985 7.98999977 0.40000001 125 150 118 0.000000 0.000000 0.000000 0.000000 -0.000107 0.000000 121.000000 0.498938 0.549336 -0.670291
-14.14999962 8.10000038 0.23999999 125 150 118 0.000000 0.000000 0.000000 0.000000 -0.000107 0.000000 121.000000 0.700285 0.297822 -0.648770
-14.14999962 8.10000038 0.23999999 125 150 118 0.000000 0.000000 0.000000 0.000000 -0.000107 0.000000 121.000000 0.700285 0.297822 -0.648770
-14.14999962 8.09000015 0.23000000 125 150 118 0.000000 0.000000 0.000000 0.000000 -0.000107 0.000000 121.000000 0.784743 0.262630 -0.561430
-14.14999962 8.10000038 0.20000000 125 150 118 0.000000 0.000000 0.000000 0.000000 -0.000107 0.000000 121.000000 0.858999 0.470582 -0.201678
-14.14999962 8.06999969 0.15000001 125 150 118 0.000000 0.000000 0.000000 0.000000 -0.000107 0.000000 121.000000 0.810292 0.199903 -0.550877
-14.14999962 8.09000015 0.19000000 125 150 118 0.000000 0.000000 0.000000 0.000000 -0.000107 0.000000 121.000000 0.764412 0.309291 -0.565697
-14.15999985 7.98999977 0.25000000 125 150 118 0.000000 0.000000 0.000000 0.000000 -0.000107 0.000000 121.000000 0.604488 0.506827 -0.614590
-14.14000034 7.92999983 0.20000000 125 150 118 0.000000 0.000000 0.000000 0.000000 -0.000107 0.000000 121.000000 0.473149 0.775575 -0.417867
-14.15999985 7.88999987 0.43000001 125 150 118 0.000000 0.000000 0.000000 0.000000 -0.000107 0.000000 121.000000 -0.544006 -0.540638 0.641692
-14.11999989 7.80000019 0.47000000 125 150 118 0.000000 0.000000 0.000000 0.000000 -0.000107 0.000000 121.000000 0.621195 0.450408 -0.641287
-14.10999966 7.78000021 0.41999999 125 150 118 0.000000 0.000000 0.000000 0.000000 -0.000107 0.000000 121.000000 0.902980 0.385753 -0.189265
-14.10000038 7.76000023 0.41000000 125 150 118 0.000000 0.000000 0.000000 0.000000 -0.000107 0.000000 121.000000 0.846157 0.406716 -0.344384
-14.13000011 7.78999996 0.47999999 125 150 118 0.000000 0.000000 0.000000 0.000000 -0.000107 0.000000 121.000000 0.876318 0.302231 -0.375131
-14.07999992 7.76000023 0.37000000 125 150 118 0.000000 0.000000 0.000000 0.000000 -0.000107 0.000000 121.000000 0.846120 0.516993 -0.129612
-14.07999992 7.76000023 0.38000000 125 150 118 0.000000 0.000000 0.000000 0.000000 -0.000107 0.000000 121.000000 0.842065 0.507034 -0.183968
-14.15999985 7.84999990 0.17000000 125 150 118 0.000000 0.000000 0.000000 0.000000 -0.000107 0.000000 121.000000 0.327214 0.749529 -0.575445
-14.15999985 8.10000038 0.11000000 125 150 118 0.000000 0.000000 0.000000 0.000000 -0.000107 0.000000 121.000000 0.722525 0.663984 -0.192571
-14.15999985 8.10000038 0.11000000 125 150 118 0.000000 0.000000 0.000000 0.000000 -0.000107 0.000000 121.000000 0.722525 0.663984 -0.192571
-14.14999962 8.07999992 0.04000000 125 150 118 0.000000 0.000000 0.000000 0.000000 -0.000107 0.000000 121.000000 0.838658 0.313911 -0.445098
-14.14999962 8.07999992 0.01000000 125 150 118 0.000000 0.000000 0.000000 0.000000 -0.000107 0.000000 121.000000 0.867168 0.313526 -0.386937
-14.14999962 8.07999992 0.01000000 125 150 118 0.000000 0.000000 0.000000 0.000000 -0.000107 0.000000 121.000000 0.867168 0.313526 -0.386937
-14.15999985 8.01000023 0.14000000 125 150 118 0.000000 0.000000 0.000000 0.000000 -0.000107 0.000000 121.000000 0.730465 0.653249 -0.199218
-14.14999962 7.94000006 -0.01000000 125 150 118 0.000000 0.000000 0.000000 0.000000 -0.000107 0.000000 121.000000 0.369362 0.681267 -0.632019
-14.14999962 8.06999969 -0.07000000 125 150 118 0.000000 0.000000 0.000000 0.000000 -0.000107 0.000000 121.000000 0.845217 0.196667 -0.496921
-14.14999962 8.06999969 -0.07000000 125 150 118 0.000000 0.000000 0.000000 0.000000 -0.000107 0.000000 121.000000 0.845217 0.196667 -0.496921
-14.14999962 7.90000010 0.02000000 125 150 118 0.000000 0.000000 0.000000 0.000000 -0.000107 0.000000 121.000000 0.503573 0.570941 -0.648414
-14.14000034 7.86000013 0.06000000 125 150 118 0.000000 0.000000 0.000000 0.000000 -0.000107 0.000000 121.000000 0.463928 0.631411 -0.621362
-14.14999962 7.86000013 -0.11000000 125 150 118 0.000000 0.000000 0.000000 0.000000 -0.000107 0.000000 121.000000 0.344050 0.712559 -0.611464
-14.14999962 7.84000015 -0.05000000 125 150 118 0.000000 0.000000 0.000000 0.000000 -0.000107 0.000000 121.000000 0.314961 0.828927 -0.462256
-14.18000031 8.02999973 0.44999999 125 150 118 0.000000 0.000000 0.000000 0.000000 -0.000107 0.000000 121.000000 0.527122 0.503695 -0.684422
-14.17000008 8.05000019 0.37000000 125 150 118 0.000000 0.000000 0.000000 0.000000 -0.000107 0.000000 121.000000 0.555468 0.436084 -0.708015
-14.18000031 7.94999981 0.43000001 125 150 118 0.000000 0.000000 0.000000 0.000000 -0.000107 0.000000 121.000000 0.505635 0.559391 -0.656822
-14.17000008 8.02999973 0.18000001 125 150 118 0.000000 0.000000 0.000000 0.000000 -0.000107 0.000000 121.000000 0.689742 0.355520 -0.630762
-14.18999958 8.03999996 0.18000001 125 150 118 0.000000 0.000000 0.000000 0.000000 -0.000107 0.000000 121.000000 0.792510 0.388992 -0.469695
-14.18000031 8.03999996 0.18000001 125 150 118 0.000000 0.000000 0.000000 0.000000 -0.000107 0.000000 121.000000 0.767091 0.430160 -0.475956
-14.18999958 7.98000002 0.22000000 125 150 118 0.000000 0.000000 0.000000 0.000000 -0.000107 0.000000 121.000000 0.730563 0.642958 -0.229963
-14.18000031 7.98000002 0.16000000 125 150 118 0.000000 0.000000 0.000000 0.000000 -0.000107 0.000000 121.000000 0.657957 0.453706 -0.601035
-14.17000008 8.00000000 0.19000000 125 150 118 0.000000 0.000000 0.000000 0.000000 -0.000107 0.000000 121.000000 0.494408 0.732518 -0.467951
-14.18000031 7.98999977 0.17000000 125 150 118 0.000000 0.000000 0.000000 0.000000 -0.000107 0.000000 121.000000 0.607304 0.729732 -0.314123
-14.19999981 7.98999977 0.17000000 125 150 118 0.000000 0.000000 0.000000 0.000000 -0.000107 0.000000 121.000000 0.777195 0.599375 -0.191616
-14.18999958 7.98000002 0.16000000 125 150 118 0.000000 0.000000 0.000000 0.000000 -0.000107 0.000000 121.000000 -0.539665 -0.443356 0.715679
-14.17000008 7.94999981 0.19000000 125 150 118 0.000000 0.000000 0.000000 0.000000 -0.000107 0.000000 121.000000 0.634235 0.503014 -0.587130
-14.17000008 7.94999981 0.19000000 125 150 118 0.000000 0.000000 0.000000 0.000000 -0.000107 0.000000 121.000000 0.634235 0.503014 -0.587130
-14.17000008 7.92000008 0.49000001 125 150 118 0.000000 0.000000 0.000000 0.000000 -0.000107 0.000000 121.000000 0.655910 0.384955 -0.649301
-14.17000008 7.84000015 0.44999999 125 150 118 0.000000 0.000000 0.000000 0.000000 -0.000107 0.000000 121.000000 0.658057 0.365952 -0.658057
-14.17000008 7.84000015 0.44999999 125 150 118 0.000000 0.000000 0.000000 0.000000 -0.000107 0.000000 121.000000 0.658057 0.365952 -0.658057
-14.17000008 7.90999985 0.27000001 125 150 118 0.000000 0.000000 0.000000 0.000000 -0.000107 0.000000 121.000000 0.446829 0.630916 -0.634263
-14.17000008 7.90999985 0.27000001 125 150 118 0.000000 0.000000 0.000000 0.000000 -0.000107 0.000000 121.000000 0.446829 0.630916 -0.634263
-14.18000031 7.88999987 0.16000000 125 150 118 0.000000 0.000000 0.000000 0.000000 -0.000107 0.000000 121.000000 0.632107 0.438639 -0.638778
-14.18000031 8.07999992 0.13000000 125 150 118 0.000000 0.000000 0.000000 0.000000 -0.000107 0.000000 121.000000 0.617930 0.506804 -0.601093
-14.17000008 8.02999973 0.09000000 125 150 118 0.000000 0.000000 0.000000 0.000000 -0.000107 0.000000 121.000000 0.472163 0.545574 -0.692395
-14.18999958 8.05000019 0.07000000 125 150 118 0.000000 0.000000 0.000000 0.000000 -0.000107 0.000000 121.000000 0.758691 0.473568 -0.447349
-14.17000008 8.02999973 0.09000000 125 150 118 0.000000 0.000000 0.000000 0.000000 -0.000107 0.000000 121.000000 0.472163 0.545574 -0.692395
-14.18000031 8.06000042 0.00000000 125 150 118 0.000000 0.000000 0.000000 0.000000 -0.000107 0.000000 121.000000 0.818008 0.498938 -0.286224
-14.19999981 8.00000000 0.12000000 125 150 118 0.000000 0.000000 0.000000 0.000000 -0.000107 0.000000 121.000000 0.757730 0.219384 -0.614586
-14.17000008 7.94999981 0.12000000 125 150 118 0.000000 0.000000 0.000000 0.000000 -0.000107 0.000000 121.000000 0.592158 0.800643 -0.091213
-14.17000008 7.94999981 0.12000000 125 150 118 0.000000 0.000000 0.000000 0.000000 -0.000107 0.000000 121.000000 0.592158 0.800643 -0.091213
-14.18000031 7.94000006 0.10000000 125 150 118 0.000000 0.000000 0.000000 0.000000 -0.000107 0.000000 121.000000 0.606074 0.728905 -0.318391
-14.18000031 7.94000006 0.10000000 125 150 118 0.000000 0.000000 0.000000 0.000000 -0.000107 0.000000 121.000000 0.606074 0.728905 -0.318391
-14.18000031 7.92999983 0.08000000 125 150 118 0.000000 0.000000 0.000000 0.000000 -0.000107 0.000000 121.000000 0.672973 0.721585 -0.162547
-14.17000008 7.94999981 0.08000000 125 150 118 0.000000 0.000000 0.000000 0.000000 -0.000107 0.000000 121.000000 0.677961 0.655200 -0.333290
-14.18000031 8.06000042 -0.09000000 125 150 118 0.000000 0.000000 0.000000 0.000000 -0.000107 0.000000 121.000000 0.837880 0.197770 -0.508767
-14.17000008 8.05000019 -0.04000000 125 150 118 0.000000 0.000000 0.000000 0.000000 -0.000107 0.000000 121.000000 0.850732 0.232018 -0.471618
-14.18999958 8.05000019 -0.07000000 125 150 118 0.000000 0.000000 0.000000 0.000000 -0.000107 0.000000 121.000000 0.445781 0.582688 -0.679524
-14.17000008 7.98000002 -0.11000000 125 150 118 0.000000 0.000000 0.000000 0.000000 -0.000107 0.000000 121.000000 0.661516 0.708880 -0.244714
-14.17000008 8.01000023 -0.17000000 125 150 118 0.000000 0.000000 0.000000 0.000000 -0.000107 0.000000 121.000000 0.534848 0.582090 -0.612460
-14.18999958 7.98999977 -0.18000001 125 150 118 0.000000 0.000000 0.000000 0.000000 -0.000107 0.000000 121.000000 0.461025 0.801573 -0.380707
-14.19999981 7.90999985 0.03000000 125 150 118 0.000000 0.000000 0.000000 0.000000 -0.000107 0.000000 121.000000 0.536254 0.657290 -0.529530
-14.17000008 7.90000010 0.00000000 125 150 118 0.000000 0.000000 0.000000 0.000000 -0.000107 0.000000 121.000000 0.503014 0.587130 -0.634235
-14.18000031 7.88000011 0.05000000 125 150 118 0.000000 0.000000 0.000000 0.000000 -0.000107 0.000000 121.000000 0.431876 0.605293 -0.668658
-14.17000008 7.90999985 -0.07000000 125 150 118 0.000000 0.000000 0.000000 0.000000 -0.000107 0.000000 121.000000 0.624991 0.493591 -0.604776
-14.18000031 7.86999989 -0.09000000 125 150 118 0.000000 0.000000 0.000000 0.000000 -0.000107 0.000000 121.000000 0.589296 0.596050 -0.545394
-14.18000031 7.86999989 -0.09000000 125 150 118 0.000000 0.000000 0.000000 0.000000 -0.000107 0.000000 121.000000 0.589296 0.596050 -0.545394
-13.85999966 7.67999983 0.77999997 125 150 118 0.000000 0.000000 0.000000 0.000000 -0.000107 0.000000 121.000000 0.569077 0.818496 -0.078839
-13.85999966 7.67999983 0.69000000 125 150 118 0.000000 0.000000 0.000000 0.000000 -0.000107 0.000000 121.000000 0.742366 0.669667 0.020971
-13.85999966 7.67999983 0.69000000 125 150 118 0.000000 0.000000 0.000000 0.000000 -0.000107 0.000000 121.000000 0.742366 0.669667 0.020971
-13.97000027 7.69000006 0.54000002 125 150 118 0.000000 0.000000 0.000000 0.000000 -0.000107 0.000000 121.000000 0.832787 0.489784 -0.258025
-14.02000046 7.71000004 0.79000002 125 150 118 0.000000 0.000000 0.000000 0.000000 -0.000107 0.000000 121.000000 0.757414 0.641801 -0.120060
-14.02000046 7.71000004 0.79000002 125 150 118 0.000000 0.000000 0.000000 0.000000 -0.000107 0.000000 121.000000 0.757414 0.641801 -0.120060
-14.05000019 7.73000002 0.77999997 125 150 118 0.000000 0.000000 0.000000 0.000000 -0.000107 0.000000 121.000000 0.823820 0.562920 -0.066643
-14.10999966 7.73999977 0.76999998 125 150 118 0.000000 0.000000 0.000000 0.000000 -0.000107 0.000000 121.000000 0.835376 0.280525 -0.472708
-14.10000038 7.75000000 0.66000003 125 150 118 0.000000 0.000000 0.000000 0.000000 -0.000107 0.000000 121.000000 0.745528 0.367054 -0.556291
-14.09000015 7.73999977 0.51999998 125 150 118 0.000000 0.000000 0.000000 0.000000 -0.000107 0.000000 121.000000 0.806610 0.482057 -0.342054
-14.07999992 7.69999981 0.54000002 125 150 118 0.000000 0.000000 0.000000 0.000000 -0.000107 0.000000 121.000000 0.824921 0.495574 -0.271867
-13.85000038 7.67999983 0.47000000 125 150 118 0.000000 0.000000 0.000000 0.000000 -0.000107 0.000000 121.000000 0.261238 0.948848 0.177317
-13.82999992 7.69000006 0.38999999 125 150 118 0.000000 0.000000 0.000000 0.000000 -0.000107 0.000000 121.000000 0.156928 0.975463 0.154417
-13.89000034 7.69000006 0.20000000 125 150 118 0.000000 0.000000 0.000000 0.000000 -0.000107 0.000000 121.000000 0.407296 0.754071 -0.515254
-13.97999954 7.67000008 0.28999999 125 150 118 0.000000 0.000000 0.000000 0.000000 -0.000107 0.000000 121.000000 0.448591 0.675388 -0.585336
-14.02999973 7.73000002 0.37000000 125 150 118 0.000000 0.000000 0.000000 0.000000 -0.000107 0.000000 121.000000 0.822243 0.479511 -0.306572
-14.01000023 7.69999981 0.31000000 125 150 118 0.000000 0.000000 0.000000 0.000000 -0.000107 0.000000 121.000000 0.719549 0.588424 -0.368790
-14.03999996 7.71999979 0.30000001 125 150 118 0.000000 0.000000 0.000000 0.000000 -0.000107 0.000000 121.000000 0.711480 0.545634 -0.442809
-14.03999996 7.71999979 0.30000001 125 150 118 0.000000 0.000000 0.000000 0.000000 -0.000107 0.000000 121.000000 0.711480 0.545634 -0.442809
-13.64000034 8.14999962 -0.22000000 125 150 118 0.000000 0.000000 0.000000 0.000000 -0.000107 0.000000 121.000000 0.844322 -0.318759 -0.430713
-13.64000034 8.17000008 -0.25000000 125 150 118 0.000000 0.000000 0.000000 0.000000 -0.000107 0.000000 121.000000 0.901958 -0.220025 -0.371566
-13.56999969 8.10999966 -0.34999999 125 150 118 0.000000 0.000000 0.000000 0.000000 -0.000107 0.000000 121.000000 0.519858 -0.690358 -0.503143
-13.60000038 8.11999989 -0.33000001 125 150 118 0.000000 0.000000 0.000000 0.000000 -0.000107 0.000000 121.000000 0.591446 -0.690849 -0.415835
-13.64000034 8.18999958 -0.37000000 125 150 118 0.000000 0.000000 0.000000 0.000000 -0.000107 0.000000 121.000000 0.636415 -0.558762 -0.531753
-13.64999962 8.18999958 -0.37000000 125 150 118 0.000000 0.000000 0.000000 0.000000 -0.000107 0.000000 121.000000 -0.506827 0.614590 0.604488
-13.61999989 8.26000023 -0.46000001 125 150 118 0.000000 0.000000 0.000000 0.000000 -0.000107 0.000000 121.000000 0.853642 -0.458015 -0.248028
-13.64000034 8.22000027 -0.51999998 125 150 118 0.000000 0.000000 0.000000 0.000000 -0.000107 0.000000 121.000000 0.961553 -0.083003 -0.261777
-13.59000015 8.14000034 -0.38000000 125 150 118 0.000000 0.000000 0.000000 0.000000 -0.000107 0.000000 121.000000 0.803248 -0.291947 -0.519192
-13.81999969 8.27999973 -0.27000001 125 150 118 0.000000 0.000000 0.000000 0.000000 -0.000107 0.000000 121.000000 0.646223 -0.348470 -0.678943
-13.81999969 8.28999996 -0.23000000 125 150 118 0.000000 0.000000 0.000000 0.000000 -0.000107 0.000000 121.000000 0.774620 -0.464772 -0.428895
-13.81999969 8.27999973 -0.31000000 125 150 118 0.000000 0.000000 0.000000 0.000000 -0.000107 0.000000 121.000000 0.963559 -0.200578 -0.176980
-13.72999954 8.28999996 -0.46000001 125 150 118 0.000000 0.000000 0.000000 0.000000 -0.000107 0.000000 121.000000 0.792171 -0.456588 -0.404959
-13.73999977 8.27999973 -0.47000000 125 150 118 0.000000 0.000000 0.000000 0.000000 -0.000107 0.000000 121.000000 -0.622458 0.372818 0.688152
-13.73999977 8.28999996 -0.47999999 125 150 118 0.000000 0.000000 0.000000 0.000000 -0.000107 0.000000 121.000000 0.811314 -0.433661 -0.392055
-13.76000023 8.31000042 -0.52999997 125 150 118 0.000000 0.000000 0.000000 0.000000 -0.000107 0.000000 121.000000 0.704983 -0.311354 -0.637227
-13.68000031 8.18999958 -0.23999999 125 150 118 0.000000 0.000000 0.000000 0.000000 -0.000107 0.000000 121.000000 -0.582927 0.582927 0.566031
-13.68000031 8.19999981 -0.31999999 125 150 118 0.000000 0.000000 0.000000 0.000000 -0.000107 0.000000 121.000000 -0.573733 0.670750 0.470026
-13.68000031 8.19999981 -0.31999999 125 150 118 0.000000 0.000000 0.000000 0.000000 -0.000107 0.000000 121.000000 -0.573733 0.670750 0.470026
-13.68000031 8.19999981 -0.31999999 125 150 118 0.000000 0.000000 0.000000 0.000000 -0.000107 0.000000 121.000000 -0.573733 0.670750 0.470026
-13.68999958 8.19999981 -0.33000001 125 150 118 0.000000 0.000000 0.000000 0.000000 -0.000107 0.000000 121.000000 -0.493290 0.697294 0.520044
-13.78999996 8.27000046 -0.38999999 125 150 118 0.000000 0.000000 0.000000 0.000000 -0.000107 0.000000 121.000000 0.741358 -0.366606 -0.562129
-13.76000023 8.27000046 -0.46000001 125 150 118 0.000000 0.000000 0.000000 0.000000 -0.000107 0.000000 121.000000 -0.682396 0.061775 0.728368
-13.77000046 8.23999977 -0.49000001 125 150 118 0.000000 0.000000 0.000000 0.000000 -0.000107 0.000000 121.000000 0.790841 -0.498888 -0.354515
-13.64000034 8.30000019 -0.81000000 125 150 118 0.000000 0.000000 0.000000 0.000000 -0.000107 0.000000 121.000000 -0.628377 0.082719 0.773499
-13.63000011 8.31000042 -0.81000000 125 150 118 0.000000 0.000000 0.000000 0.000000 -0.000107 0.000000 121.000000 0.714390 -0.397617 -0.575802
-13.64000034 8.30000019 -0.81000000 125 150 118 0.000000 0.000000 0.000000 0.000000 -0.000107 0.000000 121.000000 -0.628377 0.082719 0.773499
-13.64000034 8.27999973 -0.85000002 125 150 118 0.000000 0.000000 0.000000 0.000000 -0.000107 0.000000 121.000000 0.974319 -0.170159 -0.147471
-13.63000011 8.31000042 -0.85000002 125 150 118 0.000000 0.000000 0.000000 0.000000 -0.000107 0.000000 121.000000 0.969343 0.215268 -0.118461
-13.60999966 8.21000004 -0.60000002 125 150 118 0.000000 0.000000 0.000000 0.000000 -0.000107 0.000000 121.000000 0.737082 -0.602192 -0.306716
-13.56999969 8.21000004 -0.70999998 125 150 118 0.000000 0.000000 0.000000 0.000000 -0.000107 0.000000 121.000000 0.985368 -0.001129 -0.170436
-13.60999966 8.21000004 -0.70999998 125 150 118 0.000000 0.000000 0.000000 0.000000 -0.000107 0.000000 121.000000 0.702929 0.004159 -0.711248
-13.57999992 8.15999985 -0.60000002 125 150 118 0.000000 0.000000 0.000000 0.000000 -0.000107 0.000000 121.000000 0.917053 -0.035627 -0.397170
-13.60999966 8.10999966 -0.56999999 125 150 118 0.000000 0.000000 0.000000 0.000000 -0.000107 0.000000 121.000000 -0.564798 0.731782 0.381443
-13.60999966 8.17000008 -0.63000000 125 150 118 0.000000 0.000000 0.000000 0.000000 -0.000107 0.000000 121.000000 0.791462 -0.438622 -0.425674
-13.56000042 8.19999981 -0.79000002 125 150 118 0.000000 0.000000 0.000000 0.000000 -0.000107 0.000000 121.000000 0.920144 -0.355415 -0.164362
-13.56000042 8.21000004 -0.80000001 125 150 118 0.000000 0.000000 0.000000 0.000000 -0.000107 0.000000 121.000000 0.711989 -0.552663 -0.433168
-13.55000019 8.10999966 -0.80000001 125 150 118 0.000000 0.000000 0.000000 0.000000 -0.000107 0.000000 121.000000 0.553359 -0.519720 -0.650911
-13.56999969 8.18999958 -0.77999997 125 150 118 0.000000 0.000000 0.000000 0.000000 -0.000107 0.000000 121.000000 0.938269 0.064301 -0.339877
-13.61999989 8.23999977 -0.76999998 125 150 118 0.000000 0.000000 0.000000 0.000000 -0.000107 0.000000 121.000000 0.917790 0.105635 -0.382756
-13.60999966 8.25000000 -0.76999998 125 150 118 0.000000 0.000000 0.000000 0.000000 -0.000107 0.000000 121.000000 0.943077 0.018937 -0.332034
-13.61999989 8.22999954 -0.76999998 125 150 118 0.000000 0.000000 0.000000 0.000000 -0.000107 0.000000 121.000000 0.978773 -0.046608 -0.199579
-13.57999992 8.19999981 -0.80000001 125 150 118 0.000000 0.000000 0.000000 0.000000 -0.000107 0.000000 121.000000 0.940891 -0.330299 -0.075008
-13.56999969 8.19999981 -0.80000001 125 150 118 0.000000 0.000000 0.000000 0.000000 -0.000107 0.000000 121.000000 0.819280 -0.437480 -0.370664
-13.60000038 8.21000004 -0.83999997 125 150 118 0.000000 0.000000 0.000000 0.000000 -0.000107 0.000000 121.000000 0.824137 -0.093816 -0.558566
-13.60999966 8.26000023 -0.81000000 125 150 118 0.000000 0.000000 0.000000 0.000000 -0.000107 0.000000 121.000000 0.785874 -0.317219 -0.530824
-13.60999966 8.25000000 -0.81000000 125 150 118 0.000000 0.000000 0.000000 0.000000 -0.000107 0.000000 121.000000 0.930643 0.001266 -0.365926
-13.64999962 8.27000046 -0.85000002 125 150 118 0.000000 0.000000 0.000000 0.000000 -0.000107 0.000000 121.000000 0.929322 -0.307899 -0.203860
-13.57999992 8.15999985 -0.75000000 125 150 118 0.000000 0.000000 0.000000 0.000000 -0.000107 0.000000 121.000000 -0.600668 0.246227 0.760638
-13.60000038 8.15999985 -0.79000002 125 150 118 0.000000 0.000000 0.000000 0.000000 -0.000107 0.000000 121.000000 0.699488 -0.294267 -0.651247
-13.63000011 8.17000008 -0.85000002 125 150 118 0.000000 0.000000 0.000000 0.000000 -0.000107 0.000000 121.000000 0.634154 -0.355585 -0.686591
-13.72999954 8.30000019 -0.70999998 125 150 118 0.000000 0.000000 0.000000 0.000000 -0.000107 0.000000 121.000000 0.739555 -0.095190 -0.666331
-13.72999954 8.35999966 -0.75000000 125 150 118 0.000000 0.000000 0.000000 0.000000 -0.000107 0.000000 121.000000 0.909747 -0.077745 -0.407818
-13.68999958 8.35000038 -0.87000000 125 150 118 0.000000 0.000000 0.000000 0.000000 -0.000107 0.000000 121.000000 0.975118 -0.095648 -0.199992
-13.73999977 8.36999989 -0.79000002 125 150 118 0.000000 0.000000 0.000000 0.000000 -0.000107 0.000000 121.000000 0.975089 -0.082593 -0.205866
-13.65999985 8.26000023 -0.56000000 125 150 118 0.000000 0.000000 0.000000 0.000000 -0.000107 0.000000 121.000000 0.859701 -0.083288 -0.503962
-13.68000031 8.27000046 -0.58999997 125 150 118 0.000000 0.000000 0.000000 0.000000 -0.000107 0.000000 121.000000 0.937837 -0.209798 -0.276488
-13.55000019 8.06999969 -0.25999999 125 150 118 0.000000 0.000000 0.000000 0.000000 -0.000107 0.000000 121.000000 -0.504305 0.688603 0.521059
-13.56000042 8.05000019 -0.31999999 125 150 118 0.000000 0.000000 0.000000 0.000000 -0.000107 0.000000 121.000000 0.788461 -0.509047 -0.345253
-13.56000042 7.98999977 -0.27000001 125 150 118 0.000000 0.000000 0.000000 0.000000 -0.000107 0.000000 121.000000 0.615610 -0.474707 -0.629029
-13.59000015 8.03999996 -0.20000000 125 150 118 0.000000 0.000000 0.000000 0.000000 -0.000107 0.000000 121.000000 0.780252 -0.615679 -0.110205
-13.60000038 8.06000042 -0.30000001 125 150 118 0.000000 0.000000 0.000000 0.000000 -0.000107 0.000000 121.000000 0.779744 -0.369692 -0.505300
-13.57999992 8.07999992 -0.30000001 125 150 118 0.000000 0.000000 0.000000 0.000000 -0.000107 0.000000 121.000000 0.828109 -0.416430 -0.375262
-13.57999992 8.06000042 -0.33000001 125 150 118 0.000000 0.000000 0.000000 0.000000 -0.000107 0.000000 121.000000 0.562144 -0.432801 -0.704753
-13.56999969 7.98999977 -0.27000001 125 150 118 0.000000 0.000000 0.000000 0.000000 -0.000107 0.000000 121.000000 0.517082 -0.550768 -0.655195
-13.60000038 7.94999981 -0.28000000 125 150 118 0.000000 0.000000 0.000000 0.000000 -0.000107 0.000000 121.000000 -0.587381 0.583995 0.560297
-13.57999992 7.94999981 -0.23999999 125 150 118 0.000000 0.000000 0.000000 0.000000 -0.000107 0.000000 121.000000 0.707401 -0.571553 -0.415826
-13.56000042 8.03999996 -0.44000000 125 150 118 0.000000 0.000000 0.000000 0.000000 -0.000107 0.000000 121.000000 0.789109 -0.375997 -0.485730
-13.56000042 8.03999996 -0.47000000 125 150 118 0.000000 0.000000 0.000000 0.000000 -0.000107 0.000000 121.000000 -0.587903 0.800079 0.119349
-13.56000042 8.02999973 -0.51999998 125 150 118 0.000000 0.000000 0.000000 0.000000 -0.000107 0.000000 121.000000 -0.701305 0.534725 0.471424
-13.60000038 8.10000038 -0.44999999 125 150 118 0.000000 0.000000 0.000000 0.000000 -0.000107 0.000000 121.000000 0.646168 -0.354983 -0.675614
-13.59000015 8.06000042 -0.41999999 125 150 118 0.000000 0.000000 0.000000 0.000000 -0.000107 0.000000 121.000000 0.550039 -0.469790 -0.690474
-13.57999992 8.02000046 -0.41999999 125 150 118 0.000000 0.000000 0.000000 0.000000 -0.000107 0.000000 121.000000 -0.406857 0.786159 0.465211
