//X Y Z R G B PointSourceId ScanDirectionFlag NumberOfReturns ReturnNumber GpsTime Intensity Classification Nx Ny Nz
-3.00999999 -5.90999985 0.14000000 133 179 99 0.000000 0.000000 0.000000 0.000000 0.000000 0.000000 248.000000 0.842507 0.533824 0.072215
-3.00999999 -5.92000008 0.11000000 133 179 99 0.000000 0.000000 0.000000 0.000000 0.000000 0.000000 248.000000 0.804610 0.345744 0.482766
-3.01999998 -5.94000006 0.07000000 133 179 99 0.000000 0.000000 0.000000 0.000000 0.000000 0.000000 248.000000 0.810397 0.523088 0.263886
-3.00999999 -5.92999983 0.01000000 133 179 99 0.000000 0.000000 0.000000 0.000000 0.000000 0.000000 248.000000 0.582048 0.737693 0.342095
-3.00000000 -5.98000002 0.03000000 133 179 99 0.000000 0.000000 0.000000 0.000000 0.000000 0.000000 248.000000 0.577837 0.444618 0.684412
-3.01999998 -5.88000011 -0.09000000 133 179 99 0.000000 0.000000 0.000000 0.000000 0.000000 0.000000 248.000000 0.653842 0.756569 0.009717
-3.00000000 -5.90000010 -0.09000000 133 179 99 0.000000 0.000000 0.000000 0.000000 0.000000 0.000000 248.000000 0.277906 0.884792 0.374046
-3.01999998 -5.92999983 -0.04000000 133 179 99 0.000000 0.000000 0.000000 0.000000 0.000000 0.000000 248.000000 0.551551 0.551551 0.625766
-3.01999998 -5.92999983 -0.04000000 133 179 99 0.000000 0.000000 0.000000 0.000000 0.000000 0.000000 248.000000 0.551551 0.551551 0.625766
-3.04999995 -5.94000006 -0.08000000 133 179 99 0.000000 0.000000 0.000000 0.000000 0.000000 0.000000 248.000000 0.573444 0.804019 0.157210
-3.00000000 -5.90999985 -0.14000000 133 179 99 0.000000 0.000000 0.000000 0.000000 0.000000 0.000000 248.000000 0.123823 0.886688 0.445479
-3.02999997 -5.98000002 -0.16000000 133 179 99 0.000000 0.000000 0.000000 0.000000 0.000000 0.000000 248.000000 0.347877 0.876528 0.332686
-3.04999995 -5.90999985 -0.14000000 133 179 99 0.000000 0.000000 0.000000 0.000000 0.000000 0.000000 248.000000 0.492319 0.808922 0.321353
-2.80999994 -5.98999977 0.56000000 133 179 99 0.000000 0.000000 0.000000 0.000000 0.000000 0.000000 248.000000 0.836233 -0.023343 0.547877
-2.81999993 -6.01000023 0.25999999 133 179 99 0.000000 0.000000 0.000000 0.000000 0.000000 0.000000 248.000000 0.960040 0.175633 0.217891
-2.86999989 -6.00000000 0.69999999 133 179 99 0.000000 0.000000 0.000000 0.000000 0.000000 0.000000 248.000000 0.891978 0.235198 0.386080
-2.84999990 -6.00000000 0.72000003 133 179 99 0.000000 0.000000 0.000000 0.000000 0.000000 0.000000 248.000000 0.494917 0.372397 0.785097
-2.85999990 -5.98999977 0.61000001 133 179 99 0.000000 0.000000 0.000000 0.000000 0.000000 0.000000 248.000000 0.941107 0.008795 0.337994
-2.83999991 -5.98999977 0.60000002 133 179 99 0.000000 0.000000 0.000000 0.000000 0.000000 0.000000 248.000000 0.887460 0.105483 0.448652
-2.85999990 -5.98999977 0.61000001 133 179 99 0.000000 0.000000 0.000000 0.000000 0.000000 0.000000 248.000000 0.941107 0.008795 0.337994
-2.86999989 -6.00000000 0.63000000 133 179 99 0.000000 0.000000 0.000000 0.000000 0.000000 0.000000 248.000000 0.962266 0.201405 0.182975
-2.91000009 -6.01999998 0.54000002 133 179 99 0.000000 0.000000 0.000000 0.000000 0.000000 0.000000 248.000000 0.963599 0.069278 0.258219
-2.86999989 -6.00000000 0.56999999 133 179 99 0.000000 0.000000 0.000000 0.000000 0.000000 0.000000 248.000000 0.696589 0.587385 0.411997
-2.86999989 -6.01999998 0.55000001 133 179 99 0.000000 0.000000 0.000000 0.000000 0.000000 0.000000 248.000000 0.840012 0.168002 0.515901
-2.89000010 -6.01000023 0.51999998 133 179 99 0.000000 0.000000 0.000000 0.000000 0.000000 0.000000 248.000000 0.758770 0.001377 0.651358
-2.86999989 -6.03999996 0.56000000 133 179 99 0.000000 0.000000 0.000000 0.000000 0.000000 0.000000 248.000000 0.883629 0.076295 0.461929
-2.91000009 -6.07999992 0.52999997 133 179 99 0.000000 0.000000 0.000000 0.000000 0.000000 0.000000 248.000000 0.949165 0.253925 0.186031
-2.98000002 -6.03000021 0.51999998 133 179 99 0.000000 0.000000 0.000000 0.000000 0.000000 0.000000 248.000000 0.630343 0.600086 0.492508
-2.98000002 -6.03999996 0.51999998 133 179 99 0.000000 0.000000 0.000000 0.000000 0.000000 0.000000 248.000000 0.766700 0.594231 0.243023
-3.00000000 -6.05000019 0.50999999 133 179 99 0.000000 0.000000 0.000000 0.000000 0.000000 0.000000 248.000000 0.845319 0.120346 0.520531
-3.05999994 -6.03000021 0.52999997 133 179 99 0.000000 0.000000 0.000000 0.000000 0.000000 0.000000 248.000000 0.954272 0.205929 0.216697
-3.04999995 -6.05999994 0.51999998 133 179 99 0.000000 0.000000 0.000000 0.000000 0.000000 0.000000 248.000000 0.879310 0.136718 0.456205
-2.83999991 -6.01000023 0.47999999 133 179 99 0.000000 0.000000 0.000000 0.000000 0.000000 0.000000 248.000000 0.935364 0.234192 0.265043
-2.84999990 -5.98999977 0.47999999 133 179 99 0.000000 0.000000 0.000000 0.000000 0.000000 0.000000 248.000000 0.958721 0.116090 0.259572
-2.86999989 -6.01999998 0.46000001 133 179 99 0.000000 0.000000 0.000000 0.000000 0.000000 0.000000 248.000000 0.579854 0.187197 0.792923
-2.89000010 -6.03000021 0.47999999 133 179 99 0.000000 0.000000 0.000000 0.000000 0.000000 0.000000 248.000000 0.936526 0.324862 0.131848
-2.90000010 -6.00000000 0.41000000 133 179 99 0.000000 0.000000 0.000000 0.000000 0.000000 0.000000 248.000000 0.971046 0.165040 0.172716
-2.90000010 -6.03999996 0.49000001 133 179 99 0.000000 0.000000 0.000000 0.000000 0.000000 0.000000 248.000000 0.750640 0.363108 0.551989
-2.91000009 -6.05000019 0.41000000 133 179 99 0.000000 0.000000 0.000000 0.000000 0.000000 0.000000 248.000000 0.942839 0.285999 0.171052
-2.83999991 -5.98999977 0.37000000 133 179 99 0.000000 0.000000 0.000000 0.000000 0.000000 0.000000 248.000000 0.806451 0.223586 0.547400
-2.85999990 -5.98999977 0.38999999 133 179 99 0.000000 0.000000 0.000000 0.000000 0.000000 0.000000 248.000000 0.793175 0.247770 0.556313
-2.95000005 -6.05000019 0.43000001 133 179 99 0.000000 0.000000 0.000000 0.000000 0.000000 0.000000 248.000000 0.740662 0.289546 0.606287
-2.94000006 -6.03999996 0.34000000 133 179 99 0.000000 0.000000 0.000000 0.000000 0.000000 0.000000 248.000000 0.739217 0.258014 0.622082
-2.94000006 -6.05000019 0.34999999 133 179 99 0.000000 0.000000 0.000000 0.000000 0.000000 0.000000 248.000000 0.742825 0.133021 0.656137
-2.98000002 -6.03999996 0.37000000 133 179 99 0.000000 0.000000 0.000000 0.000000 0.000000 0.000000 248.000000 0.568125 0.665326 0.484330
-2.96000004 -6.05999994 0.36000001 133 179 99 0.000000 0.000000 0.000000 0.000000 0.000000 0.000000 248.000000 0.551802 0.558552 0.619301
-2.90000010 -6.01000023 0.28000000 133 179 99 0.000000 0.000000 0.000000 0.000000 0.000000 0.000000 248.000000 0.679925 0.670280 0.297367
-2.88000011 -6.00000000 0.28999999 133 179 99 0.000000 0.000000 0.000000 0.000000 0.000000 0.000000 248.000000 0.943228 0.309937 0.119413
-2.84999990 -5.98999977 0.15000001 133 179 99 0.000000 0.000000 0.000000 0.000000 0.000000 0.000000 248.000000 0.487644 0.561377 0.668625
-2.89000010 -5.98999977 0.22000000 133 179 99 0.000000 0.000000 0.000000 0.000000 0.000000 0.000000 248.000000 0.832034 0.531371 0.159262
-2.91000009 -5.98999977 0.16000000 133 179 99 0.000000 0.000000 0.000000 0.000000 0.000000 0.000000 248.000000 0.752766 0.292476 0.589747
-2.90000010 -6.00000000 0.15000001 133 179 99 0.000000 0.000000 0.000000 0.000000 0.000000 0.000000 248.000000 0.849492 0.513747 0.120116
-2.91000009 -5.98999977 0.16000000 133 179 99 0.000000 0.000000 0.000000 0.000000 0.000000 0.000000 248.000000 0.752766 0.292476 0.589747
-2.94000006 -6.01999998 0.27000001 133 179 99 0.000000 0.000000 0.000000 0.000000 0.000000 0.000000 248.000000 0.843257 0.148637 0.516550
-2.98000002 -6.01000023 0.23999999 133 179 99 0.000000 0.000000 0.000000 0.000000 0.000000 0.000000 248.000000 0.758574 0.644128 0.098307
-2.93000007 -6.00000000 0.22000000 133 179 99 0.000000 0.000000 0.000000 0.000000 0.000000 0.000000 248.000000 0.657839 0.467016 0.590884
-2.99000001 -6.01999998 0.19000000 133 179 99 0.000000 0.000000 0.000000 0.000000 0.000000 0.000000 248.000000 0.824476 0.510097 0.245031
-2.96000004 -6.05000019 0.17000000 133 179 99 0.000000 0.000000 0.000000 0.000000 0.000000 0.000000 248.000000 0.771266 0.567715 0.287833
-2.97000003 -6.03999996 0.16000000 133 179 99 0.000000 0.000000 0.000000 0.000000 0.000000 0.000000 248.000000 0.642977 0.485171 0.592613
-2.97000003 -6.03999996 0.17000000 133 179 99 0.000000 0.000000 0.000000 0.000000 0.000000 0.000000 248.000000 0.772296 0.435947 0.462071
-2.97000003 -6.03999996 0.16000000 133 179 99 0.000000 0.000000 0.000000 0.000000 0.000000 0.000000 248.000000 0.642977 0.485171 0.592613
-2.97000003 -6.05000019 0.17000000 133 179 99 0.000000 0.000000 0.000000 0.000000 0.000000 0.000000 248.000000 0.663964 0.654127 0.362311
-2.96000004 -6.05999994 0.17000000 133 179 99 0.000000 0.000000 0.000000 0.000000 0.000000 0.000000 248.000000 0.785926 0.600297 0.148203
-3.02999997 -6.01000023 0.44999999 133 179 99 0.000000 0.000000 0.000000 0.000000 0.000000 0.000000 248.000000 0.893997 0.401059 0.199800
-3.00999999 -6.03999996 0.44999999 133 179 99 0.000000 0.000000 0.000000 0.000000 0.000000 0.000000 248.000000 0.742855 0.598455 0.300030
-3.00999999 -6.07000017 0.41000000 133 179 99 0.000000 0.000000 0.000000 0.000000 0.000000 0.000000 248.000000 0.792861 -0.109916 0.599409
-3.00000000 -6.03999996 0.44000000 133 179 99 0.000000 0.000000 0.000000 0.000000 0.000000 0.000000 248.000000 0.711481 -0.061805 0.699982
-3.03999996 -6.05999994 0.47999999 133 179 99 0.000000 0.000000 0.000000 0.000000 0.000000 0.000000 248.000000 0.971022 0.035156 0.236391
-3.01999998 -6.01999998 0.40000001 133 179 99 0.000000 0.000000 0.000000 0.000000 0.000000 0.000000 248.000000 0.828123 0.060663 0.557255
-3.01999998 -6.03000021 0.40000001 133 179 99 0.000000 0.000000 0.000000 0.000000 0.000000 0.000000 248.000000 0.549655 0.322101 0.770799
-3.01999998 -6.03000021 0.40000001 133 179 99 0.000000 0.000000 0.000000 0.000000 0.000000 0.000000 248.000000 0.549655 0.322101 0.770799
-3.02999997 -6.00000000 0.36000001 133 179 99 0.000000 0.000000 0.000000 0.000000 0.000000 0.000000 248.000000 0.700982 0.070821 0.709654
-3.00999999 -6.03000021 0.34999999 133 179 99 0.000000 0.000000 0.000000 0.000000 0.000000 0.000000 248.000000 0.878626 0.314120 0.359645
-3.00999999 -6.03999996 0.34999999 133 179 99 0.000000 0.000000 0.000000 0.000000 0.000000 0.000000 248.000000 0.882515 0.047740 0.467856
-3.02999997 -6.03999996 0.28999999 133 179 99 0.000000 0.000000 0.000000 0.000000 0.000000 0.000000 248.000000 0.848125 0.265326 0.458570
-3.03999996 -6.01999998 0.28999999 133 179 99 0.000000 0.000000 0.000000 0.000000 0.000000 0.000000 248.000000 0.834411 0.380138 0.399066
-3.00999999 -6.01000023 0.22000000 133 179 99 0.000000 0.000000 0.000000 0.000000 0.000000 0.000000 248.000000 0.810054 0.189975 0.554727
-3.00999999 -6.00000000 0.23000000 133 179 99 0.000000 0.000000 0.000000 0.000000 0.000000 0.000000 248.000000 0.635944 0.514490 0.575217
-2.85999990 -6.01000023 0.14000000 133 179 99 0.000000 0.000000 0.000000 0.000000 0.000000 0.000000 248.000000 0.769625 0.076529 0.633894
-2.88000011 -6.01999998 0.08000000 133 179 99 0.000000 0.000000 0.000000 0.000000 0.000000 0.000000 248.000000 0.869838 0.059654 0.489717
-2.88000011 -6.00000000 0.08000000 133 179 99 0.000000 0.000000 0.000000 0.000000 0.000000 0.000000 248.000000 0.848007 0.135740 0.512307
-2.96000004 -6.01000023 0.14000000 133 179 99 0.000000 0.000000 0.000000 0.000000 0.000000 0.000000 248.000000 0.738509 0.339227 0.582692
-2.98000002 -6.01999998 0.07000000 133 179 99 0.000000 0.000000 0.000000 0.000000 0.000000 0.000000 248.000000 0.521590 0.723602 0.452044
-2.97000003 -6.00000000 0.06000000 133 179 99 0.000000 0.000000 0.000000 0.000000 0.000000 0.000000 248.000000 0.845078 0.373334 0.382706
-2.96000004 -6.01999998 0.05000000 133 179 99 0.000000 0.000000 0.000000 0.000000 0.000000 0.000000 248.000000 0.660886 0.614274 0.431157
-2.99000001 -6.03000021 0.04000000 133 179 99 0.000000 0.000000 0.000000 0.000000 0.000000 0.000000 248.000000 0.587263 0.644475 0.489667
-2.97000003 -6.03000021 -0.02000000 133 179 99 0.000000 0.000000 0.000000 0.000000 0.000000 0.000000 248.000000 0.774887 0.404501 0.485726
-2.98000002 -6.03999996 0.00000000 133 179 99 0.000000 0.000000 0.000000 0.000000 0.000000 0.000000 248.000000 0.472780 0.696640 0.539604
-2.90000010 -5.98999977 -0.13000000 133 179 99 0.000000 0.000000 0.000000 0.000000 0.000000 0.000000 248.000000 0.625957 0.659164 0.416751
-2.97000003 -6.05000019 -0.09000000 133 179 99 0.000000 0.000000 0.000000 0.000000 0.000000 0.000000 248.000000 0.651738 0.564166 0.506907
-2.97000003 -6.05000019 -0.08000000 133 179 99 0.000000 0.000000 0.000000 0.000000 0.000000 0.000000 248.000000 0.708787 0.546115 0.446519
-2.98000002 -6.03999996 -0.07000000 133 179 99 0.000000 0.000000 0.000000 0.000000 0.000000 0.000000 248.000000 0.513080 0.496368 0.700263
-2.95000005 -6.03000021 -0.14000000 133 179 99 0.000000 0.000000 0.000000 0.000000 0.000000 0.000000 248.000000 0.458859 0.515181 0.723904
-2.92000008 -6.01000023 -0.15000001 133 179 99 0.000000 0.000000 0.000000 0.000000 0.000000 0.000000 248.000000 0.394984 0.695767 0.599913
-3.00000000 -6.01000023 0.13000000 133 179 99 0.000000 0.000000 0.000000 0.000000 0.000000 0.000000 248.000000 0.735959 0.423135 0.528508
-3.02999997 -6.05999994 0.09000000 133 179 99 0.000000 0.000000 0.000000 0.000000 0.000000 0.000000 248.000000 0.886849 0.451155 0.099788
-3.00999999 -5.98999977 -0.04000000 133 179 99 0.000000 0.000000 0.000000 0.000000 0.000000 0.000000 248.000000 0.418448 0.902236 0.104265
-3.01999998 -5.98999977 -0.07000000 133 179 99 0.000000 0.000000 0.000000 0.000000 0.000000 0.000000 248.000000 0.356308 0.906041 0.228328
-3.02999997 -6.01000023 -0.08000000 133 179 99 0.000000 0.000000 0.000000 0.000000 0.000000 0.000000 248.000000 0.376078 0.880537 0.288478
-3.01999998 -6.03999996 -0.04000000 133 179 99 0.000000 0.000000 0.000000 0.000000 0.000000 0.000000 248.000000 0.574577 0.719456 0.390185
-3.02999997 -6.03000021 -0.16000000 133 179 99 0.000000 0.000000 0.000000 0.000000 0.000000 0.000000 248.000000 0.388399 0.878053 0.279587
-3.04999995 -6.00000000 -0.13000000 133 179 99 0.000000 0.000000 0.000000 0.000000 0.000000 0.000000 248.000000 0.237301 0.906986 0.347945
-3.04999995 -6.05000019 -0.17000000 133 179 99 0.000000 0.000000 0.000000 0.000000 0.000000 0.000000 248.000000 0.323939 0.894190 0.309011
-2.81999993 -5.92000008 -0.60000002 133 179 99 0.000000 0.000000 0.000000 0.000000 0.000000 0.000000 248.000000 0.207903 0.977026 0.046868
-2.80999994 -5.94000006 -0.69000000 133 179 99 0.000000 0.000000 0.000000 0.000000 0.000000 0.000000 248.000000 0.039628 0.990695 -0.130206
-2.81999993 -5.94000006 -0.70999998 133 179 99 0.000000 0.000000 0.000000 0.000000 0.000000 0.000000 248.000000 0.234195 0.878605 0.416181
-2.79999995 -5.90000010 -0.88000000 133 179 99 0.000000 0.000000 0.000000 0.000000 0.000000 0.000000 248.000000 0.112744 0.960268 -0.255294
-2.80999994 -5.88000011 -1.03999996 133 179 99 0.000000 0.000000 0.000000 0.000000 0.000000 0.000000 248.000000 0.019707 0.998811 0.044599
-2.81999993 -5.88000011 -1.00999999 133 179 99 0.000000 0.000000 0.000000 0.000000 0.000000 0.000000 248.000000 0.126227 0.916879 -0.378681
-2.75999999 -5.90999985 -0.94000000 133 179 99 0.000000 0.000000 0.000000 0.000000 0.000000 0.000000 248.000000 0.162925 0.928812 -0.332813
-2.80999994 -5.90999985 -0.88999999 133 179 99 0.000000 0.000000 0.000000 0.000000 0.000000 0.000000 248.000000 0.003806 0.932355 -0.361525
-2.81999993 -5.96000004 -0.89999998 133 179 99 0.000000 0.000000 0.000000 0.000000 0.000000 0.000000 248.000000 -0.442477 0.896771 0.003939
-2.80999994 -5.96999979 -0.91000003 133 179 99 0.000000 0.000000 0.000000 0.000000 0.000000 0.000000 248.000000 0.261987 0.930409 -0.256323
-2.80999994 -5.94999981 -0.91000003 133 179 99 0.000000 0.000000 0.000000 0.000000 0.000000 0.000000 248.000000 -0.294678 0.865711 -0.404609
-2.81999993 -5.94999981 -0.95999998 133 179 99 0.000000 0.000000 0.000000 0.000000 0.000000 0.000000 248.000000 -0.432254 0.898814 -0.072728
-2.80999994 -5.92000008 -1.00000000 133 179 99 0.000000 0.000000 0.000000 0.000000 0.000000 0.000000 248.000000 -0.171369 0.964116 -0.202765
-2.81999993 -5.92000008 -0.98000002 133 179 99 0.000000 0.000000 0.000000 0.000000 0.000000 0.000000 248.000000 -0.090284 0.975808 0.199119
-2.80999994 -5.92000008 -1.02999997 133 179 99 0.000000 0.000000 0.000000 0.000000 0.000000 0.000000 248.000000 -0.346810 0.937289 -0.034810
-2.81999993 -5.92000008 -1.02999997 133 179 99 0.000000 0.000000 0.000000 0.000000 0.000000 0.000000 248.000000 -0.161491 0.845976 -0.508178
-2.81999993 -5.92000008 -1.02999997 133 179 99 0.000000 0.000000 0.000000 0.000000 0.000000 0.000000 248.000000 -0.161491 0.845976 -0.508178
-2.80999994 -5.94000006 -1.01999998 133 179 99 0.000000 0.000000 0.000000 0.000000 0.000000 0.000000 248.000000 -0.017666 0.998650 0.048841
-2.80999994 -5.94000006 -1.01999998 133 179 99 0.000000 0.000000 0.000000 0.000000 0.000000 0.000000 248.000000 -0.017666 0.998650 0.048841
-2.79999995 -5.96000004 -1.03999996 133 179 99 0.000000 0.000000 0.000000 0.000000 0.000000 0.000000 248.000000 -0.438562 0.892536 0.105087
-2.79999995 -5.88999987 -1.19000006 133 179 99 0.000000 0.000000 0.000000 0.000000 0.000000 0.000000 248.000000 -0.269318 0.944664 -0.187292
-2.75999999 -5.88000011 -1.14999998 133 179 99 0.000000 0.000000 0.000000 0.000000 0.000000 0.000000 248.000000 -0.287935 0.954189 0.081345
-2.77999997 -5.88999987 -1.17999995 133 179 99 0.000000 0.000000 0.000000 0.000000 0.000000 0.000000 248.000000 -0.005123 0.999016 0.044059
-2.75999999 -5.88999987 -1.17999995 133 179 99 0.000000 0.000000 0.000000 0.000000 0.000000 0.000000 248.000000 -0.332808 0.940997 -0.061341
-2.75999999 -5.88000011 -1.15999997 133 179 99 0.000000 0.000000 0.000000 0.000000 0.000000 0.000000 248.000000 -0.242065 0.964419 0.106304
-2.79999995 -5.90999985 -1.05999994 133 179 99 0.000000 0.000000 0.000000 0.000000 0.000000 0.000000 248.000000 0.045295 0.938261 -0.342950
-2.81999993 -5.92000008 -1.13999999 133 179 99 0.000000 0.000000 0.000000 0.000000 0.000000 0.000000 248.000000 -0.552321 0.833302 -0.023415
-2.77999997 -5.94000006 -1.15999997 133 179 99 0.000000 0.000000 0.000000 0.000000 0.000000 0.000000 248.000000 -0.461298 0.885638 0.053385
-2.77999997 -5.94000006 -1.19000006 133 179 99 0.000000 0.000000 0.000000 0.000000 0.000000 0.000000 248.000000 -0.476420 0.847815 -0.232883
-2.77999997 -5.96999979 -1.17999995 133 179 99 0.000000 0.000000 0.000000 0.000000 0.000000 0.000000 248.000000 -0.486916 0.722896 -0.490240
-2.78999996 -5.94000006 -1.14999998 133 179 99 0.000000 0.000000 0.000000 0.000000 0.000000 0.000000 248.000000 -0.065174 0.995287 -0.071802
-2.80999994 -5.92000008 -1.20000005 133 179 99 0.000000 0.000000 0.000000 0.000000 0.000000 0.000000 248.000000 -0.642232 0.764697 -0.052689
-2.78999996 -5.92000008 -1.19000006 133 179 99 0.000000 0.000000 0.000000 0.000000 0.000000 0.000000 248.000000 -0.352362 0.935843 0.006315
-2.79999995 -5.96000004 -1.17999995 133 179 99 0.000000 0.000000 0.000000 0.000000 0.000000 0.000000 248.000000 -0.359776 0.891228 -0.276176
-2.81999993 -5.96999979 -1.22000003 133 179 99 0.000000 0.000000 0.000000 0.000000 0.000000 0.000000 248.000000 -0.220364 0.900429 -0.375057
-2.81999993 -5.96999979 -1.23000002 133 179 99 0.000000 0.000000 0.000000 0.000000 0.000000 0.000000 248.000000 -0.449089 0.820421 -0.353876
-2.90000010 -5.90000010 -0.25000000 133 179 99 0.000000 0.000000 0.000000 0.000000 0.000000 0.000000 248.000000 0.600799 0.563566 0.566951
-2.84999990 -5.94999981 -0.22000000 133 179 99 0.000000 0.000000 0.000000 0.000000 0.000000 0.000000 248.000000 0.782966 0.481451 0.393915
-2.83999991 -5.94999981 -0.23000000 133 179 99 0.000000 0.000000 0.000000 0.000000 0.000000 0.000000 248.000000 0.511355 0.619365 0.595738
-2.84999990 -5.96999979 -0.20999999 133 179 99 0.000000 0.000000 0.000000 0.000000 0.000000 0.000000 248.000000 0.666267 0.388518 0.636508
-2.84999990 -5.94999981 -0.25999999 133 179 99 0.000000 0.000000 0.000000 0.000000 0.000000 0.000000 248.000000 0.829100 0.415340 0.374280
-2.86999989 -5.92999983 -0.20999999 133 179 99 0.000000 0.000000 0.000000 0.000000 0.000000 0.000000 248.000000 0.632031 0.500569 0.591581
-2.88000011 -5.94000006 -0.28000000 133 179 99 0.000000 0.000000 0.000000 0.000000 0.000000 0.000000 248.000000 0.836568 0.505585 0.211040
-2.91000009 -5.92000008 -0.23999999 133 179 99 0.000000 0.000000 0.000000 0.000000 0.000000 0.000000 248.000000 0.192279 0.819078 0.540500
-2.86999989 -5.92999983 -0.25000000 133 179 99 0.000000 0.000000 0.000000 0.000000 0.000000 0.000000 248.000000 0.787783 0.559122 0.258418
-2.88000011 -5.94000006 -0.28000000 133 179 99 0.000000 0.000000 0.000000 0.000000 0.000000 0.000000 248.000000 0.836568 0.505585 0.211040
-2.91000009 -5.92000008 -0.23999999 133 179 99 0.000000 0.000000 0.000000 0.000000 0.000000 0.000000 248.000000 0.192279 0.819078 0.540500
-2.86999989 -5.92999983 -0.25000000 133 179 99 0.000000 0.000000 0.000000 0.000000 0.000000 0.000000 248.000000 0.787783 0.559122 0.258418
-2.84999990 -5.94999981 -0.31000000 133 179 99 0.000000 0.000000 0.000000 0.000000 0.000000 0.000000 248.000000 0.613033 0.596145 0.518461
-2.85999990 -5.96000004 -0.30000001 133 179 99 0.000000 0.000000 0.000000 0.000000 0.000000 0.000000 248.000000 0.602914 0.572515 0.555627
-2.91000009 -5.92000008 -0.31000000 133 179 99 0.000000 0.000000 0.000000 0.000000 0.000000 0.000000 248.000000 0.432641 0.872767 0.226051
-2.86999989 -5.94000006 -0.34999999 133 179 99 0.000000 0.000000 0.000000 0.000000 0.000000 0.000000 248.000000 0.668639 0.648925 0.363069
-2.86999989 -5.94000006 -0.34999999 133 179 99 0.000000 0.000000 0.000000 0.000000 0.000000 0.000000 248.000000 0.668639 0.648925 0.363069
-2.93000007 -5.88999987 -0.23000000 133 179 99 0.000000 0.000000 0.000000 0.000000 0.000000 0.000000 248.000000 0.621488 0.735931 0.268623
-2.95000005 -5.90000010 -0.23999999 133 179 99 0.000000 0.000000 0.000000 0.000000 0.000000 0.000000 248.000000 0.442581 0.751894 0.488649
-2.93000007 -5.90000010 -0.25999999 133 179 99 0.000000 0.000000 0.000000 0.000000 0.000000 0.000000 248.000000 0.724286 0.642232 0.250896
-2.93000007 -5.88000011 -0.23999999 133 179 99 0.000000 0.000000 0.000000 0.000000 0.000000 0.000000 248.000000 0.587707 0.807569 -0.049328
-2.93000007 -5.90000010 -0.25999999 133 179 99 0.000000 0.000000 0.000000 0.000000 0.000000 0.000000 248.000000 0.724286 0.642232 0.250896
-2.94000006 -5.88999987 -0.28000000 133 179 99 0.000000 0.000000 0.000000 0.000000 0.000000 0.000000 248.000000 0.393010 0.917911 0.054622
-2.93000007 -5.90000010 -0.25999999 133 179 99 0.000000 0.000000 0.000000 0.000000 0.000000 0.000000 248.000000 0.724286 0.642232 0.250896
-2.94000006 -5.90000010 -0.25000000 133 179 99 0.000000 0.000000 0.000000 0.000000 0.000000 0.000000 248.000000 0.302310 0.926799 0.222829
-2.95000005 -5.88999987 -0.27000001 133 179 99 0.000000 0.000000 0.000000 0.000000 0.000000 0.000000 248.000000 0.759211 0.636419 0.136269
-2.95000005 -5.88000011 -0.23999999 133 179 99 0.000000 0.000000 0.000000 0.000000 0.000000 0.000000 248.000000 0.379900 0.712107 0.590407
-2.97000003 -5.88000011 -0.23000000 133 179 99 0.000000 0.000000 0.000000 0.000000 0.000000 0.000000 248.000000 0.223706 0.955106 0.194236
-2.97000003 -5.88999987 -0.27000001 133 179 99 0.000000 0.000000 0.000000 0.000000 0.000000 0.000000 248.000000 0.692989 0.667500 0.272416
-2.99000001 -5.86999989 -0.27000001 133 179 99 0.000000 0.000000 0.000000 0.000000 0.000000 0.000000 248.000000 0.322407 0.869430 0.374359
-2.99000001 -5.86999989 -0.27000001 133 179 99 0.000000 0.000000 0.000000 0.000000 0.000000 0.000000 248.000000 0.322407 0.869430 0.374359
-2.95000005 -5.88999987 -0.31999999 133 179 99 0.000000 0.000000 0.000000 0.000000 0.000000 0.000000 248.000000 0.158316 0.982524 0.097890
-2.94000006 -5.88000011 -0.28999999 133 179 99 0.000000 0.000000 0.000000 0.000000 0.000000 0.000000 248.000000 0.376802 0.777862 0.502942
-2.95000005 -5.88999987 -0.34000000 133 179 99 0.000000 0.000000 0.000000 0.000000 0.000000 0.000000 248.000000 0.569004 0.804454 0.170550
-2.95000005 -5.88999987 -0.34000000 133 179 99 0.000000 0.000000 0.000000 0.000000 0.000000 0.000000 248.000000 0.569004 0.804454 0.170550
-2.95000005 -5.88999987 -0.34000000 133 179 99 0.000000 0.000000 0.000000 0.000000 0.000000 0.000000 248.000000 0.569004 0.804454 0.170550
-2.99000001 -5.88999987 -0.31000000 133 179 99 0.000000 0.000000 0.000000 0.000000 0.000000 0.000000 248.000000 0.060464 0.971132 0.230752
-2.99000001 -5.86000013 -0.31000000 133 179 99 0.000000 0.000000 0.000000 0.000000 0.000000 0.000000 248.000000 0.232563 0.970860 0.057833
-2.96000004 -5.88999987 -0.30000001 133 179 99 0.000000 0.000000 0.000000 0.000000 0.000000 0.000000 248.000000 0.695507 0.686171 0.213164
-2.97000003 -5.86000013 -0.34999999 133 179 99 0.000000 0.000000 0.000000 0.000000 0.000000 0.000000 248.000000 0.065705 0.990187 0.123341
-2.98000002 -5.88999987 -0.36000001 133 179 99 0.000000 0.000000 0.000000 0.000000 0.000000 0.000000 248.000000 0.247312 0.962058 0.115240
-2.97000003 -5.88999987 -0.33000001 133 179 99 0.000000 0.000000 0.000000 0.000000 0.000000 0.000000 248.000000 0.272486 0.947601 -0.166745
-2.97000003 -5.86999989 -0.34000000 133 179 99 0.000000 0.000000 0.000000 0.000000 0.000000 0.000000 248.000000 0.563728 0.724793 0.396089
-2.97000003 -5.86999989 -0.34000000 133 179 99 0.000000 0.000000 0.000000 0.000000 0.000000 0.000000 248.000000 0.563728 0.724793 0.396089
-2.96000004 -5.88999987 -0.33000001 133 179 99 0.000000 0.000000 0.000000 0.000000 0.000000 0.000000 248.000000 0.043047 0.998472 0.034647
-2.98000002 -5.88999987 -0.36000001 133 179 99 0.000000 0.000000 0.000000 0.000000 0.000000 0.000000 248.000000 0.247312 0.962058 0.115240
-2.94000006 -5.90999985 -0.20000000 133 179 99 0.000000 0.000000 0.000000 0.000000 0.000000 0.000000 248.000000 0.453796 0.744225 0.490100
-2.92000008 -5.90999985 -0.22000000 133 179 99 0.000000 0.000000 0.000000 0.000000 0.000000 0.000000 248.000000 0.699950 0.604427 0.380443
-2.98000002 -5.90999985 -0.25000000 133 179 99 0.000000 0.000000 0.000000 0.000000 0.000000 0.000000 248.000000 0.291181 0.927517 0.234365
-2.93000007 -5.90999985 -0.31000000 133 179 99 0.000000 0.000000 0.000000 0.000000 0.000000 0.000000 248.000000 0.268329 0.882937 0.385255
-2.92000008 -5.92000008 -0.30000001 133 179 99 0.000000 0.000000 0.000000 0.000000 0.000000 0.000000 248.000000 0.272187 0.794533 0.542800
-2.93000007 -5.90999985 -0.31000000 133 179 99 0.000000 0.000000 0.000000 0.000000 0.000000 0.000000 248.000000 0.268329 0.882937 0.385255
-2.88000011 -5.92999983 -0.40000001 133 179 99 0.000000 0.000000 0.000000 0.000000 0.000000 0.000000 248.000000 0.698956 0.701962 0.136785
-2.88000011 -5.92999983 -0.38000000 133 179 99 0.000000 0.000000 0.000000 0.000000 0.000000 0.000000 248.000000 0.617587 0.782470 -0.079549
-2.88000011 -5.92999983 -0.38000000 133 179 99 0.000000 0.000000 0.000000 0.000000 0.000000 0.000000 248.000000 0.617587 0.782470 -0.079549
-2.89000010 -5.92000008 -0.41999999 133 179 99 0.000000 0.000000 0.000000 0.000000 0.000000 0.000000 248.000000 0.457144 0.706496 0.540262
-2.86999989 -5.92000008 -0.44999999 133 179 99 0.000000 0.000000 0.000000 0.000000 0.000000 0.000000 248.000000 0.582141 0.707475 0.400738
-2.89000010 -5.90999985 -0.50999999 133 179 99 0.000000 0.000000 0.000000 0.000000 0.000000 0.000000 248.000000 0.382259 0.877837 -0.288583
-2.95000005 -5.86999989 -0.37000000 133 179 99 0.000000 0.000000 0.000000 0.000000 0.000000 0.000000 248.000000 0.504147 0.732253 0.457865
-2.93000007 -5.88999987 -0.40000001 133 179 99 0.000000 0.000000 0.000000 0.000000 0.000000 0.000000 248.000000 0.523873 0.803901 0.281601
-2.95000005 -5.90000010 -0.41999999 133 179 99 0.000000 0.000000 0.000000 0.000000 0.000000 0.000000 248.000000 0.600444 0.793288 0.100805
-2.95000005 -5.90000010 -0.43000001 133 179 99 0.000000 0.000000 0.000000 0.000000 0.000000 0.000000 248.000000 0.003655 0.958853 0.283879
-2.94000006 -5.86000013 -0.44999999 133 179 99 0.000000 0.000000 0.000000 0.000000 0.000000 0.000000 248.000000 0.580268 0.804697 0.125503
-2.96000004 -5.88999987 -0.38999999 133 179 99 0.000000 0.000000 0.000000 0.000000 0.000000 0.000000 248.000000 0.488510 0.871655 0.039683
-2.98000002 -5.88999987 -0.37000000 133 179 99 0.000000 0.000000 0.000000 0.000000 0.000000 0.000000 248.000000 0.052331 0.950897 0.305053
-2.98000002 -5.88000011 -0.38999999 133 179 99 0.000000 0.000000 0.000000 0.000000 0.000000 0.000000 248.000000 -0.008884 0.999956 -0.002961
-2.97000003 -5.88000011 -0.38999999 133 179 99 0.000000 0.000000 0.000000 0.000000 0.000000 0.000000 248.000000 0.189442 0.882592 0.430282
-2.97000003 -5.88999987 -0.38999999 133 179 99 0.000000 0.000000 0.000000 0.000000 0.000000 0.000000 248.000000 0.290636 0.923448 0.250548
-2.97000003 -5.88999987 -0.38000000 133 179 99 0.000000 0.000000 0.000000 0.000000 0.000000 0.000000 248.000000 0.480387 0.831738 0.278282
-2.96000004 -5.88999987 -0.38999999 133 179 99 0.000000 0.000000 0.000000 0.000000 0.000000 0.000000 248.000000 0.488510 0.871655 0.039683
-2.98000002 -5.88000011 -0.38999999 133 179 99 0.000000 0.000000 0.000000 0.000000 0.000000 0.000000 248.000000 -0.008884 0.999956 -0.002961
-2.99000001 -5.88000011 -0.44999999 133 179 99 0.000000 0.000000 0.000000 0.000000 0.000000 0.000000 248.000000 0.453258 0.888606 0.070262
-2.98000002 -5.90000010 -0.44000000 133 179 99 0.000000 0.000000 0.000000 0.000000 0.000000 0.000000 248.000000 -0.040454 0.998897 0.023857
-2.97000003 -5.90000010 -0.44999999 133 179 99 0.000000 0.000000 0.000000 0.000000 0.000000 0.000000 248.000000 0.207689 0.915263 0.345193
-2.98000002 -5.88000011 -0.43000001 133 179 99 0.000000 0.000000 0.000000 0.000000 0.000000 0.000000 248.000000 0.134198 0.988395 0.071183
-2.98000002 -5.88000011 -0.44000000 133 179 99 0.000000 0.000000 0.000000 0.000000 0.000000 0.000000 248.000000 -0.019101 0.989903 -0.140452
-2.98000002 -5.90000010 -0.41000000 133 179 99 0.000000 0.000000 0.000000 0.000000 0.000000 0.000000 248.000000 0.467779 0.869982 0.155926
-2.99000001 -5.88000011 -0.44000000 133 179 99 0.000000 0.000000 0.000000 0.000000 0.000000 0.000000 248.000000 -0.110217 0.977094 -0.182044
-2.97000003 -5.88000011 -0.44000000 133 179 99 0.000000 0.000000 0.000000 0.000000 0.000000 0.000000 248.000000 0.117950 0.989149 0.087587
-2.95000005 -5.88999987 -0.47999999 133 179 99 0.000000 0.000000 0.000000 0.000000 0.000000 0.000000 248.000000 0.059799 0.955515 0.288817
-2.95000005 -5.88999987 -0.47999999 133 179 99 0.000000 0.000000 0.000000 0.000000 0.000000 0.000000 248.000000 0.059799 0.955515 0.288817
-2.93000007 -5.88999987 -0.50000000 133 179 99 0.000000 0.000000 0.000000 0.000000 0.000000 0.000000 248.000000 0.317920 0.851406 0.417174
-2.92000008 -5.88999987 -0.50000000 133 179 99 0.000000 0.000000 0.000000 0.000000 0.000000 0.000000 248.000000 0.162322 0.897800 0.409397
-2.99000001 -5.88999987 -0.46000001 133 179 99 0.000000 0.000000 0.000000 0.000000 0.000000 0.000000 248.000000 -0.157268 0.958148 0.239207
-2.97000003 -5.88000011 -0.46000001 133 179 99 0.000000 0.000000 0.000000 0.000000 0.000000 0.000000 248.000000 0.097858 0.991244 -0.088648
-2.97000003 -5.88999987 -0.46000001 133 179 99 0.000000 0.000000 0.000000 0.000000 0.000000 0.000000 248.000000 0.543819 0.804108 0.240148
-2.97000003 -5.88999987 -0.47999999 133 179 99 0.000000 0.000000 0.000000 0.000000 0.000000 0.000000 248.000000 0.290654 0.935934 0.198868
-2.96000004 -5.88999987 -0.50999999 133 179 99 0.000000 0.000000 0.000000 0.000000 0.000000 0.000000 248.000000 0.476650 0.837609 0.266863
-2.96000004 -5.90000010 -0.50000000 133 179 99 0.000000 0.000000 0.000000 0.000000 0.000000 0.000000 248.000000 0.292151 0.956016 -0.026107
-2.94000006 -5.90999985 -0.41999999 133 179 99 0.000000 0.000000 0.000000 0.000000 0.000000 0.000000 248.000000 0.273352 0.877444 0.394170
-2.97000003 -5.90999985 -0.41000000 133 179 99 0.000000 0.000000 0.000000 0.000000 0.000000 0.000000 248.000000 -0.011160 0.951075 0.308758
-2.92000008 -5.92999983 -0.37000000 133 179 99 0.000000 0.000000 0.000000 0.000000 0.000000 0.000000 248.000000 0.453442 0.830003 0.324784
-2.95000005 -5.90999985 -0.49000001 133 179 99 0.000000 0.000000 0.000000 0.000000 0.000000 0.000000 248.000000 0.338228 0.906333 -0.253305
-2.97000003 -5.96000004 -0.52999997 133 179 99 0.000000 0.000000 0.000000 0.000000 0.000000 0.000000 248.000000 -0.081975 0.995722 -0.042627
-3.00000000 -5.88999987 -0.31000000 133 179 99 0.000000 0.000000 0.000000 0.000000 0.000000 0.000000 248.000000 0.565537 0.791752 0.230863
-3.02999997 -5.90000010 -0.34999999 133 179 99 0.000000 0.000000 0.000000 0.000000 0.000000 0.000000 248.000000 -0.029251 0.981661 0.188376
-3.00999999 -5.90000010 -0.34000000 133 179 99 0.000000 0.000000 0.000000 0.000000 0.000000 0.000000 248.000000 0.447458 0.863278 0.233522
-3.00000000 -5.90000010 -0.34000000 133 179 99 0.000000 0.000000 0.000000 0.000000 0.000000 0.000000 248.000000 0.172452 0.946449 -0.272936
-3.02999997 -5.92000008 -0.20000000 133 179 99 0.000000 0.000000 0.000000 0.000000 0.000000 0.000000 248.000000 0.622544 0.778542 0.079443
-3.01999998 -5.96999979 -0.20999999 133 179 99 0.000000 0.000000 0.000000 0.000000 0.000000 0.000000 248.000000 0.278782 0.892997 0.353323
-3.02999997 -5.94999981 -0.25999999 133 179 99 0.000000 0.000000 0.000000 0.000000 0.000000 0.000000 248.000000 0.390256 0.895982 0.211937
-3.04999995 -5.94000006 -0.20999999 133 179 99 0.000000 0.000000 0.000000 0.000000 0.000000 0.000000 248.000000 0.510123 0.860075 0.006730
-3.04999995 -5.94000006 -0.28999999 133 179 99 0.000000 0.000000 0.000000 0.000000 0.000000 0.000000 248.000000 -0.032686 0.990728 0.131872
-3.01999998 -5.86999989 -0.37000000 133 179 99 0.000000 0.000000 0.000000 0.000000 0.000000 0.000000 248.000000 0.290796 0.954373 -0.067895
-3.02999997 -5.88000011 -0.38999999 133 179 99 0.000000 0.000000 0.000000 0.000000 0.000000 0.000000 248.000000 0.318739 0.906277 -0.277611
-3.00000000 -5.86000013 -0.44000000 133 179 99 0.000000 0.000000 0.000000 0.000000 0.000000 0.000000 248.000000 0.007285 0.998086 -0.061405
-3.00000000 -5.88999987 -0.41000000 133 179 99 0.000000 0.000000 0.000000 0.000000 0.000000 0.000000 248.000000 0.085970 0.991522 0.097433
-3.00000000 -5.88999987 -0.46000001 133 179 99 0.000000 0.000000 0.000000 0.000000 0.000000 0.000000 248.000000 0.181336 0.912393 0.366956
-3.00000000 -5.90000010 -0.52999997 133 179 99 0.000000 0.000000 0.000000 0.000000 0.000000 0.000000 248.000000 0.076701 0.994895 -0.065585
-3.02999997 -5.92000008 -0.38000000 133 179 99 0.000000 0.000000 0.000000 0.000000 0.000000 0.000000 248.000000 0.204703 0.950312 0.234528
-3.01999998 -5.92000008 -0.38000000 133 179 99 0.000000 0.000000 0.000000 0.000000 0.000000 0.000000 248.000000 0.423384 0.896328 0.131688
-3.02999997 -5.92999983 -0.44000000 133 179 99 0.000000 0.000000 0.000000 0.000000 0.000000 0.000000 248.000000 0.012559 0.985343 -0.170123
-3.03999996 -5.92000008 -0.41999999 133 179 99 0.000000 0.000000 0.000000 0.000000 0.000000 0.000000 248.000000 0.265874 0.892683 -0.363906
-3.01999998 -5.92000008 -0.47999999 133 179 99 0.000000 0.000000 0.000000 0.000000 0.000000 0.000000 248.000000 0.158815 0.917755 -0.364010
-3.00999999 -5.92000008 -0.47000000 133 179 99 0.000000 0.000000 0.000000 0.000000 0.000000 0.000000 248.000000 0.425067 0.903097 0.061112
-2.91000009 -5.90000010 -0.66000003 133 179 99 0.000000 0.000000 0.000000 0.000000 0.000000 0.000000 248.000000 0.118794 0.929867 0.348188
-2.88000011 -5.90000010 -0.69999999 133 179 99 0.000000 0.000000 0.000000 0.000000 0.000000 0.000000 248.000000 0.293966 0.916653 -0.270796
-2.83999991 -5.96999979 -0.57999998 133 179 99 0.000000 0.000000 0.000000 0.000000 0.000000 0.000000 248.000000 0.311914 0.802743 0.508246
-2.84999990 -5.96999979 -0.60000002 133 179 99 0.000000 0.000000 0.000000 0.000000 0.000000 0.000000 248.000000 0.103922 0.994368 0.020784
-2.83999991 -5.92999983 -0.64999998 133 179 99 0.000000 0.000000 0.000000 0.000000 0.000000 0.000000 248.000000 0.130052 0.973495 -0.188133
-2.83999991 -5.92999983 -0.64999998 133 179 99 0.000000 0.000000 0.000000 0.000000 0.000000 0.000000 248.000000 0.130052 0.973495 -0.188133
-2.84999990 -5.92999983 -0.69000000 133 179 99 0.000000 0.000000 0.000000 0.000000 0.000000 0.000000 248.000000 -0.028988 0.949038 -0.313825
-2.86999989 -5.92000008 -0.63999999 133 179 99 0.000000 0.000000 0.000000 0.000000 0.000000 0.000000 248.000000 0.260473 0.912383 -0.315769
-2.88000011 -5.94000006 -0.69999999 133 179 99 0.000000 0.000000 0.000000 0.000000 0.000000 0.000000 248.000000 0.161142 0.935177 -0.315399
-2.88000011 -5.90999985 -0.70999998 133 179 99 0.000000 0.000000 0.000000 0.000000 0.000000 0.000000 248.000000 0.301238 0.906652 -0.295360
-2.88000011 -5.90999985 -0.70999998 133 179 99 0.000000 0.000000 0.000000 0.000000 0.000000 0.000000 248.000000 0.301238 0.906652 -0.295360
-2.94000006 -5.86999989 -0.56999999 133 179 99 0.000000 0.000000 0.000000 0.000000 0.000000 0.000000 248.000000 0.454580 0.888559 0.061801
-2.93000007 -5.88000011 -0.56999999 133 179 99 0.000000 0.000000 0.000000 0.000000 0.000000 0.000000 248.000000 0.514026 0.850950 -0.107989
-2.94000006 -5.86999989 -0.54000002 133 179 99 0.000000 0.000000 0.000000 0.000000 0.000000 0.000000 248.000000 0.347205 0.892600 -0.287599
-2.93000007 -5.88999987 -0.61000001 133 179 99 0.000000 0.000000 0.000000 0.000000 0.000000 0.000000 248.000000 0.451629 0.878571 0.155384
-2.93000007 -5.88999987 -0.61000001 133 179 99 0.000000 0.000000 0.000000 0.000000 0.000000 0.000000 248.000000 0.451629 0.878571 0.155384
-2.99000001 -5.90000010 -0.56999999 133 179 99 0.000000 0.000000 0.000000 0.000000 0.000000 0.000000 248.000000 -0.036804 0.979457 -0.198266
-2.99000001 -5.88000011 -0.56000000 133 179 99 0.000000 0.000000 0.000000 0.000000 0.000000 0.000000 248.000000 0.062171 0.997905 -0.017914
-2.98000002 -5.90000010 -0.56000000 133 179 99 0.000000 0.000000 0.000000 0.000000 0.000000 0.000000 248.000000 -0.160867 0.936328 -0.312109
-2.98000002 -5.86000013 -0.56000000 133 179 99 0.000000 0.000000 0.000000 0.000000 0.000000 0.000000 248.000000 0.183977 0.981605 0.051039
-2.96000004 -5.88000011 -0.61000001 133 179 99 0.000000 0.000000 0.000000 0.000000 0.000000 0.000000 248.000000 0.400991 0.910843 -0.097836
-2.98000002 -5.88000011 -0.60000002 133 179 99 0.000000 0.000000 0.000000 0.000000 0.000000 0.000000 248.000000 0.037058 0.976656 -0.211589
-2.99000001 -5.90000010 -0.60000002 133 179 99 0.000000 0.000000 0.000000 0.000000 0.000000 0.000000 248.000000 0.069879 0.994947 0.072098
-2.95000005 -5.88000011 -0.66000003 133 179 99 0.000000 0.000000 0.000000 0.000000 0.000000 0.000000 248.000000 0.129246 0.893362 -0.430348
-2.95000005 -5.88999987 -0.69999999 133 179 99 0.000000 0.000000 0.000000 0.000000 0.000000 0.000000 248.000000 0.359177 0.915688 -0.180298
-2.98000002 -5.90000010 -0.66000003 133 179 99 0.000000 0.000000 0.000000 0.000000 0.000000 0.000000 248.000000 0.124983 0.978826 -0.162106
-2.99000001 -5.86999989 -0.66000003 133 179 99 0.000000 0.000000 0.000000 0.000000 0.000000 0.000000 248.000000 -0.087053 0.990082 -0.110267
-2.99000001 -5.86999989 -0.63999999 133 179 99 0.000000 0.000000 0.000000 0.000000 0.000000 0.000000 248.000000 0.141799 0.963972 -0.225057
-2.98000002 -5.90000010 -0.63000000 133 179 99 0.000000 0.000000 0.000000 0.000000 0.000000 0.000000 248.000000 -0.223117 0.959799 0.170308
-2.98000002 -5.90000010 -0.66000003 133 179 99 0.000000 0.000000 0.000000 0.000000 0.000000 0.000000 248.000000 0.124983 0.978826 -0.162106
-2.99000001 -5.90000010 -0.64999998 133 179 99 0.000000 0.000000 0.000000 0.000000 0.000000 0.000000 248.000000 -0.015958 0.996852 -0.077663
-2.96000004 -5.88999987 -0.70999998 133 179 99 0.000000 0.000000 0.000000 0.000000 0.000000 0.000000 248.000000 0.073788 0.924364 -0.374307
-2.96000004 -5.90999985 -0.63999999 133 179 99 0.000000 0.000000 0.000000 0.000000 0.000000 0.000000 248.000000 -0.001131 0.985302 -0.170816
-2.98000002 -5.96999979 -0.63999999 133 179 99 0.000000 0.000000 0.000000 0.000000 0.000000 0.000000 248.000000 -0.288496 0.900995 -0.324003
-2.91000009 -5.90000010 -0.73000002 133 179 99 0.000000 0.000000 0.000000 0.000000 0.000000 0.000000 248.000000 -0.033515 0.896855 -0.441054
-2.91000009 -5.90000010 -0.73000002 133 179 99 0.000000 0.000000 0.000000 0.000000 0.000000 0.000000 248.000000 -0.033515 0.896855 -0.441054
-2.91000009 -5.90000010 -0.73000002 133 179 99 0.000000 0.000000 0.000000 0.000000 0.000000 0.000000 248.000000 -0.033515 0.896855 -0.441054
-2.88000011 -5.88000011 -0.73000002 133 179 99 0.000000 0.000000 0.000000 0.000000 0.000000 0.000000 248.000000 0.153712 0.912399 -0.379343
-2.82999992 -5.90000010 -0.81999999 133 179 99 0.000000 0.000000 0.000000 0.000000 0.000000 0.000000 248.000000 -0.158938 0.972698 -0.169110
-2.82999992 -5.90000010 -0.81999999 133 179 99 0.000000 0.000000 0.000000 0.000000 0.000000 0.000000 248.000000 -0.158938 0.972698 -0.169110
-2.85999990 -5.90000010 -0.86000001 133 179 99 0.000000 0.000000 0.000000 0.000000 0.000000 0.000000 248.000000 -0.329840 0.900774 -0.282509
-2.83999991 -5.92000008 -0.77999997 133 179 99 0.000000 0.000000 0.000000 0.000000 0.000000 0.000000 248.000000 0.097728 0.909834 -0.403300
-2.83999991 -5.92000008 -0.77999997 133 179 99 0.000000 0.000000 0.000000 0.000000 0.000000 0.000000 248.000000 0.097728 0.909834 -0.403300
-2.85999990 -5.92999983 -0.79000002 133 179 99 0.000000 0.000000 0.000000 0.000000 0.000000 0.000000 248.000000 0.023028 0.968370 -0.248455
-2.85999990 -5.92999983 -0.79000002 133 179 99 0.000000 0.000000 0.000000 0.000000 0.000000 0.000000 248.000000 0.023028 0.968370 -0.248455
-2.83999991 -5.92000008 -0.79000002 133 179 99 0.000000 0.000000 0.000000 0.000000 0.000000 0.000000 248.000000 -0.012485 0.986286 0.164570
-2.83999991 -5.92000008 -0.77999997 133 179 99 0.000000 0.000000 0.000000 0.000000 0.000000 0.000000 248.000000 0.097728 0.909834 -0.403300
-2.90000010 -5.92999983 -0.75999999 133 179 99 0.000000 0.000000 0.000000 0.000000 0.000000 0.000000 248.000000 0.220847 0.881905 -0.416497
-2.83999991 -5.92000008 -0.82999998 133 179 99 0.000000 0.000000 0.000000 0.000000 0.000000 0.000000 248.000000 0.137165 0.903593 -0.405839
-2.83999991 -5.92000008 -0.80000001 133 179 99 0.000000 0.000000 0.000000 0.000000 0.000000 0.000000 248.000000 0.146275 0.976419 0.158777
-2.84999990 -5.94999981 -0.81000000 133 179 99 0.000000 0.000000 0.000000 0.000000 0.000000 0.000000 248.000000 0.154331 0.987942 0.012392
-2.83999991 -5.96999979 -0.88000000 133 179 99 0.000000 0.000000 0.000000 0.000000 0.000000 0.000000 248.000000 -0.336653 0.904112 -0.263148
-2.90000010 -5.90999985 -0.86000001 133 179 99 0.000000 0.000000 0.000000 0.000000 0.000000 0.000000 248.000000 -0.134302 0.983674 -0.119783
-2.96000004 -5.88999987 -0.75000000 133 179 99 0.000000 0.000000 0.000000 0.000000 0.000000 0.000000 248.000000 0.059800 0.923573 -0.378731
-2.98000002 -5.88999987 -0.72000003 133 179 99 0.000000 0.000000 0.000000 0.000000 0.000000 0.000000 248.000000 -0.005679 0.984768 -0.173783
-2.97000003 -5.88999987 -0.75000000 133 179 99 0.000000 0.000000 0.000000 0.000000 0.000000 0.000000 248.000000 0.052712 0.997218 -0.052712
-2.99000001 -5.90000010 -0.74000001 133 179 99 0.000000 0.000000 0.000000 0.000000 0.000000 0.000000 248.000000 -0.351660 0.809932 -0.469410
-2.98000002 -5.88999987 -0.75999999 133 179 99 0.000000 0.000000 0.000000 0.000000 0.000000 0.000000 248.000000 0.049205 0.957599 -0.283873
-2.94000006 -5.90000010 -0.82999998 133 179 99 0.000000 0.000000 0.000000 0.000000 0.000000 0.000000 248.000000 -0.389606 0.803261 -0.450532
-2.94000006 -5.90000010 -0.82999998 133 179 99 0.000000 0.000000 0.000000 0.000000 0.000000 0.000000 248.000000 -0.389606 0.803261 -0.450532
-2.92000008 -5.88999987 -0.85000002 133 179 99 0.000000 0.000000 0.000000 0.000000 0.000000 0.000000 248.000000 0.056907 0.861926 -0.503831
-2.92000008 -5.88000011 -0.83999997 133 179 99 0.000000 0.000000 0.000000 0.000000 0.000000 0.000000 248.000000 -0.211541 0.900145 -0.380774
-2.94000006 -5.88000011 -0.87000000 133 179 99 0.000000 0.000000 0.000000 0.000000 0.000000 0.000000 248.000000 0.082695 0.876011 -0.475148
-2.94000006 -5.88000011 -0.87000000 133 179 99 0.000000 0.000000 0.000000 0.000000 0.000000 0.000000 248.000000 0.082695 0.876011 -0.475148
-2.99000001 -5.90000010 -0.81000000 133 179 99 0.000000 0.000000 0.000000 0.000000 0.000000 0.000000 248.000000 0.041332 0.981344 -0.187766
-2.97000003 -5.90000010 -0.81000000 133 179 99 0.000000 0.000000 0.000000 0.000000 0.000000 0.000000 248.000000 0.097814 0.994621 0.034070
-2.97000003 -5.88000011 -0.82999998 133 179 99 0.000000 0.000000 0.000000 0.000000 0.000000 0.000000 248.000000 0.186752 0.913804 -0.360675
-2.99000001 -5.88999987 -0.86000001 133 179 99 0.000000 0.000000 0.000000 0.000000 0.000000 0.000000 248.000000 0.102314 0.892795 -0.438689
-2.96000004 -5.90999985 -0.73000002 133 179 99 0.000000 0.000000 0.000000 0.000000 0.000000 0.000000 248.000000 -0.196876 0.874840 -0.442601
-2.99000001 -5.92999983 -0.73000002 133 179 99 0.000000 0.000000 0.000000 0.000000 0.000000 0.000000 248.000000 -0.095976 0.963597 -0.249537
-2.96000004 -5.92999983 -0.79000002 133 179 99 0.000000 0.000000 0.000000 0.000000 0.000000 0.000000 248.000000 0.039196 0.887991 -0.458187
-2.92000008 -5.90999985 -0.81999999 133 179 99 0.000000 0.000000 0.000000 0.000000 0.000000 0.000000 248.000000 -0.412721 0.830186 -0.374770
-2.92000008 -5.90999985 -0.86000001 133 179 99 0.000000 0.000000 0.000000 0.000000 0.000000 0.000000 248.000000 -0.160351 0.958132 0.237214
-2.98000002 -5.94000006 -0.82999998 133 179 99 0.000000 0.000000 0.000000 0.000000 0.000000 0.000000 248.000000 -0.413833 0.907719 -0.069198
-2.97000003 -5.94000006 -0.82999998 133 179 99 0.000000 0.000000 0.000000 0.000000 0.000000 0.000000 248.000000 -0.190626 0.924888 -0.329006
-3.00000000 -5.90000010 -0.56000000 133 179 99 0.000000 0.000000 0.000000 0.000000 0.000000 0.000000 248.000000 0.206541 0.958082 -0.198545
-3.00999999 -5.90000010 -0.54000002 133 179 99 0.000000 0.000000 0.000000 0.000000 0.000000 0.000000 248.000000 -0.042543 0.939805 0.339052
-3.00000000 -5.90000010 -0.56000000 133 179 99 0.000000 0.000000 0.000000 0.000000 0.000000 0.000000 248.000000 0.206541 0.958082 -0.198545
-3.00000000 -5.88000011 -0.55000001 133 179 99 0.000000 0.000000 0.000000 0.000000 0.000000 0.000000 248.000000 -0.057397 0.919688 -0.388431
-3.01999998 -5.86999989 -0.54000002 133 179 99 0.000000 0.000000 0.000000 0.000000 0.000000 0.000000 248.000000 -0.182540 0.942896 -0.278614
-3.00000000 -5.90000010 -0.56999999 133 179 99 0.000000 0.000000 0.000000 0.000000 0.000000 0.000000 248.000000 0.202345 0.964726 -0.168403
-3.00000000 -5.88000011 -0.55000001 133 179 99 0.000000 0.000000 0.000000 0.000000 0.000000 0.000000 248.000000 -0.057397 0.919688 -0.388431
-3.01999998 -5.88999987 -0.56000000 133 179 99 0.000000 0.000000 0.000000 0.000000 0.000000 0.000000 248.000000 0.158991 0.983828 -0.082484
-3.00999999 -5.90000010 -0.54000002 133 179 99 0.000000 0.000000 0.000000 0.000000 0.000000 0.000000 248.000000 -0.042543 0.939805 0.339052
-3.03999996 -5.88000011 -0.60000002 133 179 99 0.000000 0.000000 0.000000 0.000000 0.000000 0.000000 248.000000 -0.393950 0.918338 0.038209
-3.03999996 -5.90000010 -0.66000003 133 179 99 0.000000 0.000000 0.000000 0.000000 0.000000 0.000000 248.000000 0.067950 0.972305 -0.223618
-3.00999999 -5.92000008 -0.55000001 133 179 99 0.000000 0.000000 0.000000 0.000000 0.000000 0.000000 248.000000 -0.274807 0.940418 -0.200236
-3.02999997 -5.94000006 -0.54000002 133 179 99 0.000000 0.000000 0.000000 0.000000 0.000000 0.000000 248.000000 -0.211108 0.968538 0.131783
-3.02999997 -5.92000008 -0.60000002 133 179 99 0.000000 0.000000 0.000000 0.000000 0.000000 0.000000 248.000000 -0.086375 0.970155 0.226578
