//X Y Z R G B PointSourceId ScanDirectionFlag NumberOfReturns ReturnNumber GpsTime Intensity Classification Nx Ny Nz
5.59000015 13.36999989 -0.05000000 246 64 100 0.000000 0.000000 0.000000 0.000000 0.000000 0.000000 33.000000 -0.690440 0.594407 -0.412277
5.59000015 13.36999989 -0.05000000 246 64 100 0.000000 0.000000 0.000000 0.000000 0.000000 0.000000 33.000000 -0.690440 0.594407 -0.412277
5.51000023 13.38000011 -0.03000000 246 64 100 0.000000 0.000000 0.000000 0.000000 0.000000 0.000000 33.000000 -0.559715 0.783601 -0.269609
5.57999992 13.32999992 -0.08000000 246 64 100 0.000000 0.000000 0.000000 0.000000 0.000000 0.000000 33.000000 0.446983 -0.702876 0.553328
6.88000011 13.11999989 0.08000000 246 64 100 0.000000 0.000000 0.000000 0.000000 0.000000 0.000000 33.000000 0.807590 0.017946 0.589472
6.88000011 13.14000034 -0.01000000 246 64 100 0.000000 0.000000 0.000000 0.000000 0.000000 0.000000 33.000000 0.754091 -0.018120 0.656519
6.88000011 13.14000034 -0.01000000 246 64 100 0.000000 0.000000 0.000000 0.000000 0.000000 0.000000 33.000000 0.754091 -0.018120 0.656519
6.86999989 13.14999962 -0.01000000 246 64 100 0.000000 0.000000 0.000000 0.000000 0.000000 0.000000 33.000000 0.752960 -0.058803 0.655434
6.86000013 13.18000031 -0.05000000 246 64 100 0.000000 0.000000 0.000000 0.000000 0.000000 0.000000 33.000000 0.775042 0.055666 0.629454
6.82999992 13.18999958 -0.12000000 246 64 100 0.000000 0.000000 0.000000 0.000000 0.000000 0.000000 33.000000 0.592618 0.342582 0.729001
6.88000011 13.14999962 -0.04000000 246 64 100 0.000000 0.000000 0.000000 0.000000 0.000000 0.000000 33.000000 0.582095 0.353823 0.732103
6.88000011 13.14000034 -0.04000000 246 64 100 0.000000 0.000000 0.000000 0.000000 0.000000 0.000000 33.000000 0.762455 0.101367 0.639052
6.84999990 13.13000011 -0.10000000 246 64 100 0.000000 0.000000 0.000000 0.000000 0.000000 0.000000 33.000000 0.660894 0.046902 0.749013
6.84999990 13.17000008 -0.15000001 246 64 100 0.000000 0.000000 0.000000 0.000000 0.000000 0.000000 33.000000 0.700453 0.080093 0.709190
6.84999990 13.14000034 -0.18000001 246 64 100 0.000000 0.000000 0.000000 0.000000 0.000000 0.000000 33.000000 0.793434 -0.012419 0.608529
6.86000013 13.02000046 0.11000000 246 64 100 0.000000 0.000000 0.000000 0.000000 0.000000 0.000000 33.000000 0.820730 0.072795 0.566660
6.84000015 13.01000023 0.09000000 246 64 100 0.000000 0.000000 0.000000 0.000000 0.000000 0.000000 33.000000 0.670918 -0.294432 0.680572
6.82999992 13.01000023 0.10000000 246 64 100 0.000000 0.000000 0.000000 0.000000 0.000000 0.000000 33.000000 0.806209 -0.243882 0.539026
6.84999990 13.03999996 0.03000000 246 64 100 0.000000 0.000000 0.000000 0.000000 0.000000 0.000000 33.000000 0.724814 0.264866 0.635996
6.82000017 13.01000023 0.04000000 246 64 100 0.000000 0.000000 0.000000 0.000000 0.000000 0.000000 33.000000 0.662049 0.318884 0.678236
6.82000017 13.02999973 0.02000000 246 64 100 0.000000 0.000000 0.000000 0.000000 0.000000 0.000000 33.000000 0.820094 0.415620 0.393327
6.82000017 12.97999954 0.10000000 246 64 100 0.000000 0.000000 0.000000 0.000000 0.000000 0.000000 33.000000 0.631682 -0.049683 0.773634
6.82000017 12.98999977 -0.02000000 246 64 100 0.000000 0.000000 0.000000 0.000000 0.000000 0.000000 33.000000 0.710789 0.179616 0.680086
6.86999989 12.97000027 0.05000000 246 64 100 0.000000 0.000000 0.000000 0.000000 0.000000 0.000000 33.000000 0.808321 0.226330 0.543500
6.82000017 13.02999973 -0.08000000 246 64 100 0.000000 0.000000 0.000000 0.000000 0.000000 0.000000 33.000000 0.785097 -0.372397 0.494917
6.82999992 13.01000023 -0.15000001 246 64 100 0.000000 0.000000 0.000000 0.000000 0.000000 0.000000 33.000000 0.748907 -0.061810 0.659786
6.82999992 13.03999996 -0.12000000 246 64 100 0.000000 0.000000 0.000000 0.000000 0.000000 0.000000 33.000000 0.794254 0.110109 0.597526
6.75000000 12.97999954 0.16000000 246 64 100 0.000000 0.000000 0.000000 0.000000 0.000000 0.000000 33.000000 0.856137 -0.360723 0.370012
6.71000004 12.96000004 0.22000000 246 64 100 0.000000 0.000000 0.000000 0.000000 0.000000 0.000000 33.000000 0.653921 -0.380493 0.653921
6.69999981 12.96000004 0.16000000 246 64 100 0.000000 0.000000 0.000000 0.000000 0.000000 0.000000 33.000000 0.796723 -0.110045 0.594241
6.67000008 12.93999958 0.19000000 246 64 100 0.000000 0.000000 0.000000 0.000000 0.000000 0.000000 33.000000 0.747135 0.178762 0.640183
6.55999994 13.13000011 0.34000000 246 64 100 0.000000 0.000000 0.000000 0.000000 0.000000 0.000000 33.000000 0.961313 -0.033405 0.273424
6.55999994 13.11999989 0.34000000 246 64 100 0.000000 0.000000 0.000000 0.000000 0.000000 0.000000 33.000000 0.994496 0.036424 0.098235
6.51000023 13.14000034 0.23999999 246 64 100 0.000000 0.000000 0.000000 0.000000 0.000000 0.000000 33.000000 0.787394 0.085555 0.610484
6.53000021 13.10999966 0.31000000 246 64 100 0.000000 0.000000 0.000000 0.000000 0.000000 0.000000 33.000000 0.895379 -0.171578 0.410923
6.48999977 13.14000034 0.19000000 246 64 100 0.000000 0.000000 0.000000 0.000000 0.000000 0.000000 33.000000 0.732388 -0.067894 0.677495
6.48999977 13.09000015 0.17000000 246 64 100 0.000000 0.000000 0.000000 0.000000 0.000000 0.000000 33.000000 0.765109 -0.101329 0.635878
6.48000002 13.10999966 0.16000000 246 64 100 0.000000 0.000000 0.000000 0.000000 0.000000 0.000000 33.000000 0.808065 0.076070 0.584161
6.48000002 13.09000015 0.17000000 246 64 100 0.000000 0.000000 0.000000 0.000000 0.000000 0.000000 33.000000 0.700649 -0.076883 0.709352
6.48999977 13.09000015 0.16000000 246 64 100 0.000000 0.000000 0.000000 0.000000 0.000000 0.000000 33.000000 0.705512 0.237266 0.667801
6.51999998 13.05000019 0.33000001 246 64 100 0.000000 0.000000 0.000000 0.000000 0.000000 0.000000 33.000000 0.799478 -0.088188 0.594187
6.57999992 13.00000000 0.19000000 246 64 100 0.000000 0.000000 0.000000 0.000000 0.000000 0.000000 33.000000 0.837244 -0.333333 0.433489
6.59000015 12.97000027 0.17000000 246 64 100 0.000000 0.000000 0.000000 0.000000 0.000000 0.000000 33.000000 0.820734 0.212443 0.530344
6.59000015 12.97000027 0.17000000 246 64 100 0.000000 0.000000 0.000000 0.000000 0.000000 0.000000 33.000000 0.820734 0.212443 0.530344
6.53000021 13.05000019 0.27000001 246 64 100 0.000000 0.000000 0.000000 0.000000 0.000000 0.000000 33.000000 0.969606 -0.193409 0.149860
6.53000021 13.02000046 0.23000000 246 64 100 0.000000 0.000000 0.000000 0.000000 0.000000 0.000000 33.000000 0.755561 0.292321 0.586239
6.53999996 12.93000031 0.20000000 246 64 100 0.000000 0.000000 0.000000 0.000000 0.000000 0.000000 33.000000 0.743648 -0.172551 0.645920
6.69999981 13.00000000 0.07000000 246 64 100 0.000000 0.000000 0.000000 0.000000 0.000000 0.000000 33.000000 0.712692 0.176257 0.678973
6.69999981 12.96000004 0.12000000 246 64 100 0.000000 0.000000 0.000000 0.000000 0.000000 0.000000 33.000000 0.676032 0.004147 0.736861
6.71000004 12.97999954 0.02000000 246 64 100 0.000000 0.000000 0.000000 0.000000 0.000000 0.000000 33.000000 0.750069 -0.428376 0.503875
6.71000004 12.97999954 0.02000000 246 64 100 0.000000 0.000000 0.000000 0.000000 0.000000 0.000000 33.000000 0.750069 -0.428376 0.503875
6.69000006 12.93999958 -0.02000000 246 64 100 0.000000 0.000000 0.000000 0.000000 0.000000 0.000000 33.000000 0.689339 -0.305117 0.657051
6.63999987 12.98999977 0.01000000 246 64 100 0.000000 0.000000 0.000000 0.000000 0.000000 0.000000 33.000000 0.632034 -0.061627 0.772486
6.78000021 13.02999973 -0.03000000 246 64 100 0.000000 0.000000 0.000000 0.000000 0.000000 0.000000 33.000000 0.745524 -0.152734 0.648742
6.78999996 13.02000046 -0.17000000 246 64 100 0.000000 0.000000 0.000000 0.000000 0.000000 0.000000 33.000000 0.666026 0.279507 0.691581
6.73000002 12.96000004 -0.06000000 246 64 100 0.000000 0.000000 0.000000 0.000000 0.000000 0.000000 33.000000 0.734286 0.089049 0.672974
6.67000008 12.93000031 -0.17000000 246 64 100 0.000000 0.000000 0.000000 0.000000 0.000000 0.000000 33.000000 0.827112 0.178632 0.532894
6.65000010 12.97999954 -0.19000000 246 64 100 0.000000 0.000000 0.000000 0.000000 0.000000 0.000000 33.000000 0.625141 -0.168834 0.762033
6.65000010 12.97999954 -0.19000000 246 64 100 0.000000 0.000000 0.000000 0.000000 0.000000 0.000000 33.000000 0.625141 -0.168834 0.762033
6.46999979 13.14999962 0.10000000 246 64 100 0.000000 0.000000 0.000000 0.000000 0.000000 0.000000 33.000000 0.936361 -0.048185 0.347717
6.51000023 13.09000015 0.04000000 246 64 100 0.000000 0.000000 0.000000 0.000000 0.000000 0.000000 33.000000 0.734668 -0.162753 0.658615
6.48000002 13.10999966 -0.04000000 246 64 100 0.000000 0.000000 0.000000 0.000000 0.000000 0.000000 33.000000 0.706315 0.283487 0.648656
6.46000004 13.14000034 -0.13000000 246 64 100 0.000000 0.000000 0.000000 0.000000 0.000000 0.000000 33.000000 0.717668 0.142932 0.681559
6.46999979 13.15999985 -0.12000000 246 64 100 0.000000 0.000000 0.000000 0.000000 0.000000 0.000000 33.000000 0.579183 0.707891 0.404273
6.55999994 13.01000023 0.11000000 246 64 100 0.000000 0.000000 0.000000 0.000000 0.000000 0.000000 33.000000 0.811564 -0.424190 0.401780
6.55000019 13.02000046 0.08000000 246 64 100 0.000000 0.000000 0.000000 0.000000 0.000000 0.000000 33.000000 0.791161 0.082443 0.606026
6.59000015 13.00000000 0.05000000 246 64 100 0.000000 0.000000 0.000000 0.000000 0.000000 0.000000 33.000000 0.829408 0.271302 0.488343
6.59000015 12.97000027 0.10000000 246 64 100 0.000000 0.000000 0.000000 0.000000 0.000000 0.000000 33.000000 -0.766010 0.432820 -0.475285
6.57000017 12.97999954 0.13000000 246 64 100 0.000000 0.000000 0.000000 0.000000 0.000000 0.000000 33.000000 0.864692 -0.399442 0.304555
6.57000017 12.98999977 0.00000000 246 64 100 0.000000 0.000000 0.000000 0.000000 0.000000 0.000000 33.000000 0.740707 0.295963 0.603124
6.53000021 13.00000000 0.13000000 246 64 100 0.000000 0.000000 0.000000 0.000000 0.000000 0.000000 33.000000 0.849827 -0.369558 0.375795
6.53999996 13.01000023 0.05000000 246 64 100 0.000000 0.000000 0.000000 0.000000 0.000000 0.000000 33.000000 0.812698 -0.026395 0.582087
6.59000015 12.98999977 -0.11000000 246 64 100 0.000000 0.000000 0.000000 0.000000 0.000000 0.000000 33.000000 0.643614 -0.243912 0.725443
6.61999989 12.93999958 -0.15000001 246 64 100 0.000000 0.000000 0.000000 0.000000 0.000000 0.000000 33.000000 0.706618 0.073999 0.703716
6.55000019 12.98999977 -0.12000000 246 64 100 0.000000 0.000000 0.000000 0.000000 0.000000 0.000000 33.000000 0.689543 -0.361969 0.627304
6.55999994 12.96000004 -0.12000000 246 64 100 0.000000 0.000000 0.000000 0.000000 0.000000 0.000000 33.000000 0.642635 -0.336773 0.688189
6.50000000 13.05000019 -0.04000000 246 64 100 0.000000 0.000000 0.000000 0.000000 0.000000 0.000000 33.000000 0.741146 0.205788 0.639026
6.46999979 13.06000042 -0.08000000 246 64 100 0.000000 0.000000 0.000000 0.000000 0.000000 0.000000 33.000000 0.785517 0.342158 0.515646
6.51999998 13.01000023 -0.11000000 246 64 100 0.000000 0.000000 0.000000 0.000000 0.000000 0.000000 33.000000 0.811647 0.417830 0.408225
6.51000023 13.01000023 -0.19000000 246 64 100 0.000000 0.000000 0.000000 0.000000 0.000000 0.000000 33.000000 0.852898 0.148266 0.500582
6.48000002 13.01000023 -0.13000000 246 64 100 0.000000 0.000000 0.000000 0.000000 0.000000 0.000000 33.000000 0.806002 -0.163602 0.568854
6.46999979 13.03999996 -0.19000000 246 64 100 0.000000 0.000000 0.000000 0.000000 0.000000 0.000000 33.000000 0.693395 -0.046986 0.719024
6.51999998 12.97000027 -0.09000000 246 64 100 0.000000 0.000000 0.000000 0.000000 0.000000 0.000000 33.000000 0.790530 -0.001370 0.612421
6.51000023 12.97999954 -0.19000000 246 64 100 0.000000 0.000000 0.000000 0.000000 0.000000 0.000000 33.000000 0.851136 0.314719 0.420142
6.51999998 12.94999981 -0.15000001 246 64 100 0.000000 0.000000 0.000000 0.000000 0.000000 0.000000 33.000000 -0.794206 0.340374 -0.503370
6.48000002 12.96000004 -0.17000000 246 64 100 0.000000 0.000000 0.000000 0.000000 0.000000 0.000000 33.000000 0.774168 -0.104300 0.624329
6.57999992 12.90999985 0.15000001 246 64 100 0.000000 0.000000 0.000000 0.000000 0.000000 0.000000 33.000000 0.776413 -0.249393 0.578780
6.61000013 12.89999962 -0.16000000 246 64 100 0.000000 0.000000 0.000000 0.000000 0.000000 0.000000 33.000000 -0.717557 0.562499 -0.410740
6.42999983 13.21000004 -0.16000000 246 64 100 0.000000 0.000000 0.000000 0.000000 0.000000 0.000000 33.000000 0.372168 0.765463 0.524935
6.44999981 13.14999962 -0.07000000 246 64 100 0.000000 0.000000 0.000000 0.000000 0.000000 0.000000 33.000000 0.485411 0.663451 0.569393
6.44000006 13.03999996 -0.17000000 246 64 100 0.000000 0.000000 0.000000 0.000000 0.000000 0.000000 33.000000 0.752163 0.478948 0.452614
5.88000011 13.14999962 -0.02000000 246 64 100 0.000000 0.000000 0.000000 0.000000 0.000000 0.000000 33.000000 0.769480 -0.540410 0.340378
5.82000017 13.10000038 0.07000000 246 64 100 0.000000 0.000000 0.000000 0.000000 0.000000 0.000000 33.000000 0.725362 -0.466423 0.506260
5.84999990 13.10999966 0.01000000 246 64 100 0.000000 0.000000 0.000000 0.000000 0.000000 0.000000 33.000000 -0.732700 0.614057 -0.293401
5.78999996 13.09000015 0.01000000 246 64 100 0.000000 0.000000 0.000000 0.000000 0.000000 0.000000 33.000000 0.887573 -0.248282 0.388034
5.88999987 13.18999958 -0.06000000 246 64 100 0.000000 0.000000 0.000000 0.000000 0.000000 0.000000 33.000000 -0.727137 0.442245 -0.525063
5.88999987 13.18999958 -0.07000000 246 64 100 0.000000 0.000000 0.000000 0.000000 0.000000 0.000000 33.000000 0.738014 -0.667587 0.098304
5.90999985 13.18999958 -0.08000000 246 64 100 0.000000 0.000000 0.000000 0.000000 0.000000 0.000000 33.000000 -0.587448 0.567133 -0.577291
5.90000010 13.14999962 -0.05000000 246 64 100 0.000000 0.000000 0.000000 0.000000 0.000000 0.000000 33.000000 -0.624724 0.763887 -0.161853
5.84000015 13.18000031 -0.10000000 246 64 100 0.000000 0.000000 0.000000 0.000000 0.000000 0.000000 33.000000 -0.405180 0.749665 -0.523289
5.84999990 13.22999954 -0.11000000 246 64 100 0.000000 0.000000 0.000000 0.000000 0.000000 0.000000 33.000000 -0.616741 0.782173 -0.088520
5.78999996 13.06000042 0.02000000 246 64 100 0.000000 0.000000 0.000000 0.000000 0.000000 0.000000 33.000000 0.656148 -0.287165 0.697859
5.75000000 13.07999992 0.04000000 246 64 100 0.000000 0.000000 0.000000 0.000000 0.000000 0.000000 33.000000 0.763275 -0.067559 0.642531
6.80000019 13.28999996 -0.25999999 246 64 100 0.000000 0.000000 0.000000 0.000000 0.000000 0.000000 33.000000 0.678984 0.322477 0.659538
6.76999998 13.31000042 -0.25999999 246 64 100 0.000000 0.000000 0.000000 0.000000 0.000000 0.000000 33.000000 0.521911 0.742529 0.419833
6.76000023 13.31000042 -0.33000001 246 64 100 0.000000 0.000000 0.000000 0.000000 0.000000 0.000000 33.000000 0.463600 0.775920 0.427813
6.76999998 13.28999996 -0.31999999 246 64 100 0.000000 0.000000 0.000000 0.000000 0.000000 0.000000 33.000000 0.421252 0.728518 0.540193
6.73000002 13.32999992 -0.36000001 246 64 100 0.000000 0.000000 0.000000 0.000000 0.000000 0.000000 33.000000 0.359551 0.825224 0.435579
6.73000002 13.34000015 -0.37000000 246 64 100 0.000000 0.000000 0.000000 0.000000 0.000000 0.000000 33.000000 0.342264 0.892279 0.294437
6.73999977 13.30000019 -0.50000000 246 64 100 0.000000 0.000000 0.000000 0.000000 0.000000 0.000000 33.000000 0.683843 0.631366 0.365700
6.63999987 13.35000038 -0.38000000 246 64 100 0.000000 0.000000 0.000000 0.000000 0.000000 0.000000 33.000000 0.228020 0.856207 0.463590
6.63999987 13.35000038 -0.49000001 246 64 100 0.000000 0.000000 0.000000 0.000000 0.000000 0.000000 33.000000 0.316207 0.928947 0.192535
6.71000004 13.31999969 -0.38999999 246 64 100 0.000000 0.000000 0.000000 0.000000 0.000000 0.000000 33.000000 0.600158 0.749799 0.278588
6.59000015 13.35000038 -0.23999999 246 64 100 0.000000 0.000000 0.000000 0.000000 0.000000 0.000000 33.000000 0.291285 0.762434 0.577795
6.46999979 13.32999992 -0.28999999 246 64 100 0.000000 0.000000 0.000000 0.000000 0.000000 0.000000 33.000000 0.270423 0.934571 0.231191
6.61000013 13.35000038 -0.50000000 246 64 100 0.000000 0.000000 0.000000 0.000000 0.000000 0.000000 33.000000 0.280007 0.932886 0.226538
6.59999990 13.34000015 -0.52999997 246 64 100 0.000000 0.000000 0.000000 0.000000 0.000000 0.000000 33.000000 0.177942 0.960886 0.212212
6.48000002 13.35000038 -0.47000000 246 64 100 0.000000 0.000000 0.000000 0.000000 0.000000 0.000000 33.000000 0.169246 0.892518 0.418052
6.75000000 13.27999973 -0.56000000 246 64 100 0.000000 0.000000 0.000000 0.000000 0.000000 0.000000 33.000000 0.506233 0.785866 0.355166
6.71999979 13.27999973 -0.66000003 246 64 100 0.000000 0.000000 0.000000 0.000000 0.000000 0.000000 33.000000 0.745692 0.452683 0.488898
6.71999979 13.27999973 -0.66000003 246 64 100 0.000000 0.000000 0.000000 0.000000 0.000000 0.000000 33.000000 0.745692 0.452683 0.488898
6.71999979 13.26000023 -0.66000003 246 64 100 0.000000 0.000000 0.000000 0.000000 0.000000 0.000000 33.000000 0.515261 0.765576 0.385226
6.63999987 13.35999966 -0.61000001 246 64 100 0.000000 0.000000 0.000000 0.000000 0.000000 0.000000 33.000000 0.418403 0.859796 0.292729
6.63000011 13.35000038 -0.55000001 246 64 100 0.000000 0.000000 0.000000 0.000000 0.000000 0.000000 33.000000 0.464170 0.798244 0.383864
6.71000004 13.27999973 -0.55000001 246 64 100 0.000000 0.000000 0.000000 0.000000 0.000000 0.000000 33.000000 0.392182 0.896624 0.205568
6.65000010 13.32999992 -0.60000002 246 64 100 0.000000 0.000000 0.000000 0.000000 0.000000 0.000000 33.000000 0.381023 0.875898 0.296014
6.73000002 13.26000023 -0.73000002 246 64 100 0.000000 0.000000 0.000000 0.000000 0.000000 0.000000 33.000000 0.635878 0.765109 0.101329
6.71999979 13.27000046 -0.82999998 246 64 100 0.000000 0.000000 0.000000 0.000000 0.000000 0.000000 33.000000 0.676439 0.599987 0.427137
6.63000011 13.35000038 -0.74000001 246 64 100 0.000000 0.000000 0.000000 0.000000 0.000000 0.000000 33.000000 0.183596 0.897741 0.400442
6.69000006 13.31000042 -0.86000001 246 64 100 0.000000 0.000000 0.000000 0.000000 0.000000 0.000000 33.000000 0.594075 0.715181 0.368228
6.69999981 13.27000046 -0.88000000 246 64 100 0.000000 0.000000 0.000000 0.000000 0.000000 0.000000 33.000000 0.663998 0.719719 0.202759
6.67999983 13.28999996 -0.87000000 246 64 100 0.000000 0.000000 0.000000 0.000000 0.000000 0.000000 33.000000 0.079984 0.945381 0.316001
6.71000004 13.27999973 -0.83999997 246 64 100 0.000000 0.000000 0.000000 0.000000 0.000000 0.000000 33.000000 0.213931 0.914593 0.343152
6.63999987 13.31000042 -0.80000001 246 64 100 0.000000 0.000000 0.000000 0.000000 0.000000 0.000000 33.000000 0.524862 0.806878 0.271048
6.63000011 13.34000015 -0.81000000 246 64 100 0.000000 0.000000 0.000000 0.000000 0.000000 0.000000 33.000000 0.408479 0.858576 0.309827
6.65999985 13.31999969 -0.88000000 246 64 100 0.000000 0.000000 0.000000 0.000000 0.000000 0.000000 33.000000 -0.135139 0.973756 0.183132
6.59000015 13.35999966 -0.69000000 246 64 100 0.000000 0.000000 0.000000 0.000000 0.000000 0.000000 33.000000 0.364375 0.854344 0.370577
6.55000019 13.34000015 -0.66000003 246 64 100 0.000000 0.000000 0.000000 0.000000 0.000000 0.000000 33.000000 0.120254 0.952781 0.278831
6.59999990 13.34000015 -0.69000000 246 64 100 0.000000 0.000000 0.000000 0.000000 0.000000 0.000000 33.000000 0.288141 0.921765 0.259470
6.51999998 13.39000034 -0.61000001 246 64 100 0.000000 0.000000 0.000000 0.000000 0.000000 0.000000 33.000000 0.006458 0.915752 0.401691
6.48999977 13.31999969 -0.61000001 246 64 100 0.000000 0.000000 0.000000 0.000000 0.000000 0.000000 33.000000 -0.122264 0.941834 0.313049
6.46000004 13.34000015 -0.68000001 246 64 100 0.000000 0.000000 0.000000 0.000000 0.000000 0.000000 33.000000 0.257572 0.926404 0.274648
6.59000015 13.35000038 -0.75999999 246 64 100 0.000000 0.000000 0.000000 0.000000 0.000000 0.000000 33.000000 0.205805 0.933823 0.292607
6.55999994 13.32999992 -0.74000001 246 64 100 0.000000 0.000000 0.000000 0.000000 0.000000 0.000000 33.000000 0.013584 0.954589 0.297615
6.55000019 13.32999992 -0.74000001 246 64 100 0.000000 0.000000 0.000000 0.000000 0.000000 0.000000 33.000000 0.054390 0.921985 0.383387
6.59999990 13.32999992 -0.85000002 246 64 100 0.000000 0.000000 0.000000 0.000000 0.000000 0.000000 33.000000 -0.126190 0.970005 0.207767
6.61000013 13.32999992 -0.85000002 246 64 100 0.000000 0.000000 0.000000 0.000000 0.000000 0.000000 33.000000 -0.047066 0.976311 0.211192
6.59999990 13.32999992 -0.86000001 246 64 100 0.000000 0.000000 0.000000 0.000000 0.000000 0.000000 33.000000 -0.110667 0.968019 0.225150
6.59999990 13.34000015 -0.87000000 246 64 100 0.000000 0.000000 0.000000 0.000000 0.000000 0.000000 33.000000 0.212963 0.871212 0.442308
6.57000017 13.34000015 -0.81999999 246 64 100 0.000000 0.000000 0.000000 0.000000 0.000000 0.000000 33.000000 -0.121987 0.927921 0.352253
6.53999996 13.35000038 -0.75000000 246 64 100 0.000000 0.000000 0.000000 0.000000 0.000000 0.000000 33.000000 0.203934 0.906855 0.368816
6.51999998 13.34000015 -0.73000002 246 64 100 0.000000 0.000000 0.000000 0.000000 0.000000 0.000000 33.000000 0.178794 0.891061 0.417185
6.53000021 13.32999992 -0.81999999 246 64 100 0.000000 0.000000 0.000000 0.000000 0.000000 0.000000 33.000000 -0.062957 0.952059 0.299365
6.51999998 13.34000015 -0.82999998 246 64 100 0.000000 0.000000 0.000000 0.000000 0.000000 0.000000 33.000000 0.190946 0.923612 0.332387
6.42000008 13.26000023 -0.37000000 246 64 100 0.000000 0.000000 0.000000 0.000000 0.000000 0.000000 33.000000 0.292457 0.792005 0.535908
6.13000011 13.42000008 -0.27000001 246 64 100 0.000000 0.000000 0.000000 0.000000 0.000000 0.000000 47.000000 -0.265564 0.934392 -0.237462
6.13999987 13.34000015 -0.25000000 246 64 100 0.000000 0.000000 0.000000 0.000000 0.000000 0.000000 47.000000 0.024665 0.925575 -0.377759
6.40999985 13.31000042 -0.61000001 246 64 100 0.000000 0.000000 0.000000 0.000000 0.000000 0.000000 33.000000 0.103489 0.952358 0.286886
6.40000010 13.27000046 -0.57999998 246 64 100 0.000000 0.000000 0.000000 0.000000 0.000000 0.000000 33.000000 0.159642 0.951142 0.264281
6.38999987 13.27000046 -0.58999997 246 64 100 0.000000 0.000000 0.000000 0.000000 0.000000 0.000000 33.000000 0.384578 0.916647 0.108895
6.51000023 13.68999958 -1.34000003 246 64 100 0.000000 0.000000 0.000000 0.000000 0.000000 0.000000 59.000000 -0.421191 0.775706 -0.469977
6.48999977 13.60999966 -1.38999999 246 64 100 0.000000 0.000000 0.000000 0.000000 0.000000 0.000000 59.000000 -0.425457 0.843122 -0.328833
6.53000021 13.67000008 -1.49000001 246 64 100 0.000000 0.000000 0.000000 0.000000 0.000000 0.000000 59.000000 -0.297288 0.783758 -0.545292
6.63999987 13.31999969 -0.93000001 246 64 100 0.000000 0.000000 0.000000 0.000000 0.000000 0.000000 33.000000 0.356222 0.892791 0.275737
6.69000006 13.31000042 -0.97000003 246 64 100 0.000000 0.000000 0.000000 0.000000 0.000000 0.000000 33.000000 -0.043235 0.994399 -0.096447
6.67999983 13.30000019 -1.00000000 246 64 100 0.000000 0.000000 0.000000 0.000000 0.000000 0.000000 33.000000 0.347615 0.860541 0.372335
6.67999983 13.31000042 -1.01999998 246 64 100 0.000000 0.000000 0.000000 0.000000 0.000000 0.000000 33.000000 0.198040 0.958300 0.206014
6.67999983 13.28999996 -0.98000002 246 64 100 0.000000 0.000000 0.000000 0.000000 0.000000 0.000000 33.000000 0.368868 0.859663 0.353434
6.67999983 13.27999973 -0.98000002 246 64 100 0.000000 0.000000 0.000000 0.000000 0.000000 0.000000 33.000000 0.441835 0.893366 0.081719
6.65000010 13.31999969 -0.99000001 246 64 100 0.000000 0.000000 0.000000 0.000000 0.000000 0.000000 33.000000 0.065824 0.997804 -0.007314
6.65000010 13.31000042 -0.97000003 246 64 100 0.000000 0.000000 0.000000 0.000000 0.000000 0.000000 33.000000 0.375230 0.851662 0.365888
6.63999987 13.31000042 -1.00999999 246 64 100 0.000000 0.000000 0.000000 0.000000 0.000000 0.000000 33.000000 -0.101394 0.972635 -0.209048
6.65000010 13.31000042 -0.97000003 246 64 100 0.000000 0.000000 0.000000 0.000000 0.000000 0.000000 33.000000 0.375230 0.851662 0.365888
6.61000013 13.35000038 -0.92000002 246 64 100 0.000000 0.000000 0.000000 0.000000 0.000000 0.000000 33.000000 0.085262 0.945752 0.313502
6.59999990 13.34000015 -0.94999999 246 64 100 0.000000 0.000000 0.000000 0.000000 0.000000 0.000000 33.000000 -0.234648 0.963222 0.130936
6.57999992 13.32999992 -0.95999998 246 64 100 0.000000 0.000000 0.000000 0.000000 0.000000 0.000000 33.000000 -0.077218 0.963329 0.256972
6.61000013 13.32999992 -0.98000002 246 64 100 0.000000 0.000000 0.000000 0.000000 0.000000 0.000000 33.000000 0.191760 0.947919 0.254320
6.48999977 13.34000015 -0.93000001 246 64 100 0.000000 0.000000 0.000000 0.000000 0.000000 0.000000 33.000000 -0.044073 0.955744 0.290879
6.53999996 13.34000015 -0.93000001 246 64 100 0.000000 0.000000 0.000000 0.000000 0.000000 0.000000 33.000000 0.013748 0.948594 0.316198
6.48999977 13.34000015 -0.93000001 246 64 100 0.000000 0.000000 0.000000 0.000000 0.000000 0.000000 33.000000 -0.044073 0.955744 0.290879
6.61000013 13.35000038 -1.20000005 246 64 100 0.000000 0.000000 0.000000 0.000000 0.000000 0.000000 33.000000 -0.330637 0.913943 0.235344
6.53000021 13.38000011 -1.19000006 246 64 100 0.000000 0.000000 0.000000 0.000000 0.000000 0.000000 33.000000 -0.649923 0.730582 -0.209403
6.63000011 13.31999969 -1.23000002 246 64 100 0.000000 0.000000 0.000000 0.000000 0.000000 0.000000 33.000000 0.039057 0.895622 -0.443097
6.46999979 13.60000038 -1.38999999 246 64 100 0.000000 0.000000 0.000000 0.000000 0.000000 0.000000 59.000000 -0.574577 0.719456 -0.390185
6.50000000 13.59000015 -1.44000006 246 64 100 0.000000 0.000000 0.000000 0.000000 0.000000 0.000000 59.000000 -0.391224 0.863762 -0.317582
6.46000004 13.59000015 -1.41999996 246 64 100 0.000000 0.000000 0.000000 0.000000 0.000000 0.000000 59.000000 -0.219537 0.849381 -0.479953
6.59999990 13.34000015 -1.25000000 246 64 100 0.000000 0.000000 0.000000 0.000000 0.000000 0.000000 33.000000 0.008921 0.931656 -0.363231
6.59999990 13.34000015 -1.25000000 246 64 100 0.000000 0.000000 0.000000 0.000000 0.000000 0.000000 33.000000 0.008921 0.931656 -0.363231
6.32999992 13.63000011 -1.22000003 246 64 100 0.000000 0.000000 0.000000 0.000000 0.000000 0.000000 7.000000 -0.443644 0.737207 -0.509613
6.44999981 13.68999958 -1.27999997 246 64 100 0.000000 0.000000 0.000000 0.000000 0.000000 0.000000 59.000000 -0.630531 0.717169 -0.296815
6.42999983 13.68000031 -1.29999995 246 64 100 0.000000 0.000000 0.000000 0.000000 0.000000 0.000000 59.000000 -0.505930 0.739942 -0.443306
6.44000006 13.68000031 -1.28999996 246 64 100 0.000000 0.000000 0.000000 0.000000 0.000000 0.000000 59.000000 -0.433948 0.778506 -0.453451
6.44000006 13.63000011 -1.36000001 246 64 100 0.000000 0.000000 0.000000 0.000000 0.000000 0.000000 59.000000 0.390110 -0.820027 0.418771
6.38999987 13.31000042 -0.92000002 246 64 100 0.000000 0.000000 0.000000 0.000000 0.000000 0.000000 33.000000 -0.517412 0.691558 -0.504017
6.38000011 13.34000015 -0.95999998 246 64 100 0.000000 0.000000 0.000000 0.000000 0.000000 0.000000 33.000000 -0.334798 0.752082 -0.567700
6.34000015 13.27000046 -1.00999999 246 64 100 0.000000 0.000000 0.000000 0.000000 0.000000 0.000000 33.000000 0.528648 -0.698750 0.481954
6.44999981 13.55000019 -1.44000006 246 64 100 0.000000 0.000000 0.000000 0.000000 0.000000 0.000000 59.000000 -0.606252 0.774232 -0.181723
6.44999981 13.55000019 -1.42999995 246 64 100 0.000000 0.000000 0.000000 0.000000 0.000000 0.000000 59.000000 0.757579 -0.646642 0.089041
6.44999981 13.36999989 -1.24000001 246 64 100 0.000000 0.000000 0.000000 0.000000 0.000000 0.000000 33.000000 -0.227254 0.802346 -0.551903
5.98999977 13.43000031 -0.30000001 246 64 100 0.000000 0.000000 0.000000 0.000000 0.000000 0.000000 47.000000 -0.213778 0.927317 -0.307218
6.09999990 13.52999973 -0.41999999 246 64 100 0.000000 0.000000 0.000000 0.000000 0.000000 0.000000 47.000000 -0.334360 0.847563 -0.412118
6.07000017 13.48999977 -0.44999999 246 64 100 0.000000 0.000000 0.000000 0.000000 0.000000 0.000000 47.000000 -0.045862 0.843574 -0.535051
6.07999992 13.48999977 -0.41999999 246 64 100 0.000000 0.000000 0.000000 0.000000 0.000000 0.000000 47.000000 0.045702 0.998004 0.043576
6.05999994 13.50000000 -0.44000000 246 64 100 0.000000 0.000000 0.000000 0.000000 0.000000 0.000000 47.000000 -0.128306 0.922975 -0.362844
6.03000021 13.43000031 -0.40000001 246 64 100 0.000000 0.000000 0.000000 0.000000 0.000000 0.000000 47.000000 -0.144505 0.955851 -0.255866
6.01000023 13.47000027 -0.47000000 246 64 100 0.000000 0.000000 0.000000 0.000000 0.000000 0.000000 47.000000 -0.125660 0.982103 -0.140300
6.11000013 13.39000034 -0.25999999 246 64 100 0.000000 0.000000 0.000000 0.000000 0.000000 0.000000 47.000000 -0.312465 0.945306 -0.093608
6.11000013 13.39000034 -0.25999999 246 64 100 0.000000 0.000000 0.000000 0.000000 0.000000 0.000000 47.000000 -0.312465 0.945306 -0.093608
6.05999994 13.36999989 -0.31000000 246 64 100 0.000000 0.000000 0.000000 0.000000 0.000000 0.000000 47.000000 -0.305493 0.925004 -0.225923
6.07999992 13.32999992 -0.20000000 246 64 100 0.000000 0.000000 0.000000 0.000000 0.000000 0.000000 47.000000 -0.027510 0.974823 -0.221279
6.07000017 13.31000042 -0.25000000 246 64 100 0.000000 0.000000 0.000000 0.000000 0.000000 0.000000 47.000000 0.080628 0.995151 -0.056329
6.07999992 13.30000019 -0.27000001 246 64 100 0.000000 0.000000 0.000000 0.000000 0.000000 0.000000 47.000000 0.470904 -0.788076 0.396466
6.07999992 13.30000019 -0.28000000 246 64 100 0.000000 0.000000 0.000000 0.000000 0.000000 0.000000 47.000000 -0.522184 0.774385 -0.357284
6.07000017 13.28999996 -0.28000000 246 64 100 0.000000 0.000000 0.000000 0.000000 0.000000 0.000000 47.000000 -0.460774 0.883963 0.079348
6.03999996 13.31000042 -0.25000000 246 64 100 0.000000 0.000000 0.000000 0.000000 0.000000 0.000000 47.000000 -0.533986 0.790679 -0.299476
6.03999996 13.31000042 -0.23999999 246 64 100 0.000000 0.000000 0.000000 0.000000 0.000000 0.000000 47.000000 -0.410845 0.910773 -0.041217
6.00000000 13.40999985 -0.31999999 246 64 100 0.000000 0.000000 0.000000 0.000000 0.000000 0.000000 47.000000 -0.225168 0.966293 -0.124807
6.00000000 13.40999985 -0.33000001 246 64 100 0.000000 0.000000 0.000000 0.000000 0.000000 0.000000 47.000000 0.028052 0.967198 -0.252472
6.01000023 13.31999969 -0.30000001 246 64 100 0.000000 0.000000 0.000000 0.000000 0.000000 0.000000 47.000000 -0.556637 0.733972 -0.389153
6.01999998 13.31999969 -0.31000000 246 64 100 0.000000 0.000000 0.000000 0.000000 0.000000 0.000000 47.000000 -0.252793 0.814210 -0.522645
5.96000004 13.30000019 -0.31000000 246 64 100 0.000000 0.000000 0.000000 0.000000 0.000000 0.000000 47.000000 -0.200669 0.837376 -0.508461
5.96999979 13.26000023 -0.31000000 246 64 100 0.000000 0.000000 0.000000 0.000000 0.000000 0.000000 47.000000 -0.290874 0.931640 -0.217804
6.01000023 13.42000008 -0.50000000 246 64 100 0.000000 0.000000 0.000000 0.000000 0.000000 0.000000 47.000000 0.619195 -0.568580 0.541585
5.82999992 13.35999966 -0.31999999 246 64 100 0.000000 0.000000 0.000000 0.000000 0.000000 0.000000 33.000000 -0.544695 0.838310 0.023324
5.78999996 13.32999992 -0.30000001 246 64 100 0.000000 0.000000 0.000000 0.000000 0.000000 0.000000 33.000000 0.595955 -0.592578 0.541931
5.76999998 13.31999969 -0.36000001 246 64 100 0.000000 0.000000 0.000000 0.000000 0.000000 0.000000 33.000000 -0.417495 0.761315 -0.496082
5.78000021 13.31000042 -0.34000000 246 64 100 0.000000 0.000000 0.000000 0.000000 0.000000 0.000000 33.000000 0.825355 -0.296000 0.480805
5.76999998 13.35000038 -0.40000001 246 64 100 0.000000 0.000000 0.000000 0.000000 0.000000 0.000000 33.000000 -0.469080 0.794695 -0.385258
5.82999992 13.30000019 -0.44000000 246 64 100 0.000000 0.000000 0.000000 0.000000 0.000000 0.000000 33.000000 -0.499906 0.778172 -0.380188
5.76999998 13.31000042 -0.43000001 246 64 100 0.000000 0.000000 0.000000 0.000000 0.000000 0.000000 33.000000 0.726068 -0.342730 0.596123
5.82999992 13.28999996 -0.51999998 246 64 100 0.000000 0.000000 0.000000 0.000000 0.000000 0.000000 33.000000 0.821199 -0.450948 0.349682
5.82000017 13.28999996 -0.50000000 246 64 100 0.000000 0.000000 0.000000 0.000000 0.000000 0.000000 33.000000 0.868986 -0.232630 0.436744
5.82999992 13.27999973 -0.52999997 246 64 100 0.000000 0.000000 0.000000 0.000000 0.000000 0.000000 33.000000 0.841954 -0.429568 0.326472
5.80000019 13.28999996 -0.46000001 246 64 100 0.000000 0.000000 0.000000 0.000000 0.000000 0.000000 33.000000 -0.605937 0.787865 -0.110037
5.80999994 13.27000046 -0.49000001 246 64 100 0.000000 0.000000 0.000000 0.000000 0.000000 0.000000 33.000000 0.595026 -0.500631 0.628739
5.80000019 13.26000023 -0.51999998 246 64 100 0.000000 0.000000 0.000000 0.000000 0.000000 0.000000 33.000000 0.706440 -0.632078 0.318464
5.86000013 13.28999996 -0.57999998 246 64 100 0.000000 0.000000 0.000000 0.000000 0.000000 0.000000 33.000000 -0.661172 0.597566 -0.453614
5.86000013 13.26000023 -0.63999999 246 64 100 0.000000 0.000000 0.000000 0.000000 0.000000 0.000000 33.000000 -0.594614 0.761800 -0.257088
5.88999987 13.27000046 -0.64999998 246 64 100 0.000000 0.000000 0.000000 0.000000 0.000000 0.000000 33.000000 -0.651973 0.703234 -0.283536
5.88000011 13.26000023 -0.67000002 246 64 100 0.000000 0.000000 0.000000 0.000000 0.000000 0.000000 33.000000 0.787390 -0.554788 0.268750
5.82000017 13.30000019 -0.62000000 246 64 100 0.000000 0.000000 0.000000 0.000000 0.000000 0.000000 33.000000 0.786362 -0.348958 0.509768
5.84000015 13.27999973 -0.57999998 246 64 100 0.000000 0.000000 0.000000 0.000000 0.000000 0.000000 33.000000 0.830662 -0.485976 0.271712
5.84999990 13.28999996 -0.57999998 246 64 100 0.000000 0.000000 0.000000 0.000000 0.000000 0.000000 33.000000 -0.391373 0.771377 -0.501801
5.82000017 13.27000046 -0.54000002 246 64 100 0.000000 0.000000 0.000000 0.000000 0.000000 0.000000 33.000000 0.508722 -0.465638 0.724142
5.78999996 13.30000019 -0.55000001 246 64 100 0.000000 0.000000 0.000000 0.000000 0.000000 0.000000 33.000000 0.817600 -0.504942 0.276702
5.80999994 13.30000019 -0.56999999 246 64 100 0.000000 0.000000 0.000000 0.000000 0.000000 0.000000 33.000000 0.749645 -0.182429 0.636202
5.80999994 13.32999992 -0.55000001 246 64 100 0.000000 0.000000 0.000000 0.000000 0.000000 0.000000 33.000000 -0.505259 0.836029 -0.213938
5.80999994 13.27000046 -0.57999998 246 64 100 0.000000 0.000000 0.000000 0.000000 0.000000 0.000000 33.000000 0.733032 -0.391934 0.555924
5.90000010 13.27000046 -0.75000000 246 64 100 0.000000 0.000000 0.000000 0.000000 0.000000 0.000000 33.000000 0.742846 -0.165583 0.648661
5.63999987 13.44999981 -0.28000000 246 64 100 0.000000 0.000000 0.000000 0.000000 0.000000 0.000000 33.000000 -0.352402 0.852284 -0.386555
5.67999983 13.43999958 -0.25999999 246 64 100 0.000000 0.000000 0.000000 0.000000 0.000000 0.000000 33.000000 0.553108 -0.516122 0.653979
5.67999983 13.43999958 -0.31000000 246 64 100 0.000000 0.000000 0.000000 0.000000 0.000000 0.000000 33.000000 0.601878 -0.441822 0.665234
5.71999979 13.35000038 -0.31999999 246 64 100 0.000000 0.000000 0.000000 0.000000 0.000000 0.000000 33.000000 -0.479120 0.600161 -0.640508
5.71999979 13.35999966 -0.31000000 246 64 100 0.000000 0.000000 0.000000 0.000000 0.000000 0.000000 33.000000 -0.623866 0.686417 -0.373661
5.73000002 13.31999969 -0.27000001 246 64 100 0.000000 0.000000 0.000000 0.000000 0.000000 0.000000 33.000000 0.893188 -0.281824 0.350416
5.73000002 13.31999969 -0.27000001 246 64 100 0.000000 0.000000 0.000000 0.000000 0.000000 0.000000 33.000000 0.893188 -0.281824 0.350416
5.75000000 13.27000046 -0.22000000 246 64 100 0.000000 0.000000 0.000000 0.000000 0.000000 0.000000 33.000000 -0.770436 0.574267 -0.276851
5.75000000 13.26000023 -0.27000001 246 64 100 0.000000 0.000000 0.000000 0.000000 0.000000 0.000000 33.000000 -0.736517 0.587595 -0.335075
5.76000023 13.34000015 -0.31000000 246 64 100 0.000000 0.000000 0.000000 0.000000 0.000000 0.000000 33.000000 0.892751 -0.290628 0.344283
5.71000004 13.34000015 -0.30000001 246 64 100 0.000000 0.000000 0.000000 0.000000 0.000000 0.000000 33.000000 0.604969 -0.329246 0.724990
5.67999983 13.35999966 -0.25999999 246 64 100 0.000000 0.000000 0.000000 0.000000 0.000000 0.000000 33.000000 -0.449196 0.717719 -0.532073
5.59999990 13.40999985 -0.20000000 246 64 100 0.000000 0.000000 0.000000 0.000000 0.000000 0.000000 33.000000 0.515904 -0.766533 0.382453
5.90999985 13.27999973 -0.94000000 246 64 100 0.000000 0.000000 0.000000 0.000000 0.000000 0.000000 33.000000 0.655331 -0.381313 0.652029
6.07000017 13.26000023 -1.38999999 246 64 100 0.000000 0.000000 0.000000 0.000000 0.000000 0.000000 33.000000 0.766858 -0.385871 0.512867
6.82999992 13.18000031 -0.23000000 246 64 100 0.000000 0.000000 0.000000 0.000000 0.000000 0.000000 33.000000 0.557619 0.513818 0.651960
6.82000017 13.21000004 -0.34000000 246 64 100 0.000000 0.000000 0.000000 0.000000 0.000000 0.000000 33.000000 0.775216 0.565955 0.280599
6.84000015 13.13000011 -0.23000000 246 64 100 0.000000 0.000000 0.000000 0.000000 0.000000 0.000000 33.000000 0.587302 0.242751 0.772106
6.80999994 13.09000015 -0.27000001 246 64 100 0.000000 0.000000 0.000000 0.000000 0.000000 0.000000 33.000000 0.813679 -0.172963 0.554986
6.84999990 13.14000034 -0.33000001 246 64 100 0.000000 0.000000 0.000000 0.000000 0.000000 0.000000 33.000000 0.762362 0.444301 0.470533
6.80000019 13.22999954 -0.41999999 246 64 100 0.000000 0.000000 0.000000 0.000000 0.000000 0.000000 33.000000 0.731263 0.609118 0.306970
6.80000019 13.22000027 -0.49000001 246 64 100 0.000000 0.000000 0.000000 0.000000 0.000000 0.000000 33.000000 0.710990 0.241200 0.660542
6.82999992 13.21000004 -0.49000001 246 64 100 0.000000 0.000000 0.000000 0.000000 0.000000 0.000000 33.000000 0.585412 0.511181 0.629275
6.80000019 13.22000027 -0.50000000 246 64 100 0.000000 0.000000 0.000000 0.000000 0.000000 0.000000 33.000000 0.447763 0.756113 0.477286
6.84999990 13.13000011 -0.43000001 246 64 100 0.000000 0.000000 0.000000 0.000000 0.000000 0.000000 33.000000 0.744001 0.418808 0.520636
6.86000013 13.13000011 -0.43000001 246 64 100 0.000000 0.000000 0.000000 0.000000 0.000000 0.000000 33.000000 0.878490 0.400952 0.259793
6.84000015 13.15999985 -0.41000000 246 64 100 0.000000 0.000000 0.000000 0.000000 0.000000 0.000000 33.000000 0.756671 0.594867 0.271259
6.84000015 13.15999985 -0.41000000 246 64 100 0.000000 0.000000 0.000000 0.000000 0.000000 0.000000 33.000000 0.756671 0.594867 0.271259
6.84999990 13.10000038 -0.46000001 246 64 100 0.000000 0.000000 0.000000 0.000000 0.000000 0.000000 33.000000 0.882641 0.374408 0.284189
6.84000015 13.15999985 -0.46000001 246 64 100 0.000000 0.000000 0.000000 0.000000 0.000000 0.000000 33.000000 0.759462 0.058640 0.647903
6.84000015 13.15999985 -0.46000001 246 64 100 0.000000 0.000000 0.000000 0.000000 0.000000 0.000000 33.000000 0.759462 0.058640 0.647903
6.82000017 13.10000038 -0.46000001 246 64 100 0.000000 0.000000 0.000000 0.000000 0.000000 0.000000 33.000000 0.808017 0.088174 0.582524
6.82999992 13.10999966 -0.52999997 246 64 100 0.000000 0.000000 0.000000 0.000000 0.000000 0.000000 33.000000 0.901412 0.372545 0.220605
6.84000015 13.09000015 -0.52999997 246 64 100 0.000000 0.000000 0.000000 0.000000 0.000000 0.000000 33.000000 0.767003 0.273591 0.580392
6.82999992 13.10999966 -0.52999997 246 64 100 0.000000 0.000000 0.000000 0.000000 0.000000 0.000000 33.000000 0.901412 0.372545 0.220605
6.82999992 13.09000015 -0.51999998 246 64 100 0.000000 0.000000 0.000000 0.000000 0.000000 0.000000 33.000000 0.592565 0.164350 0.788579
6.82000017 13.06000042 -0.25000000 246 64 100 0.000000 0.000000 0.000000 0.000000 0.000000 0.000000 33.000000 0.783297 0.334783 0.523800
6.80999994 13.02000046 -0.23999999 246 64 100 0.000000 0.000000 0.000000 0.000000 0.000000 0.000000 33.000000 0.717162 -0.343132 0.606579
6.80000019 13.06000042 -0.31999999 246 64 100 0.000000 0.000000 0.000000 0.000000 0.000000 0.000000 33.000000 0.766015 0.364384 0.529571
6.80999994 12.98999977 -0.31999999 246 64 100 0.000000 0.000000 0.000000 0.000000 0.000000 0.000000 33.000000 0.741118 0.236594 0.628305
6.82000017 13.06999969 -0.37000000 246 64 100 0.000000 0.000000 0.000000 0.000000 0.000000 0.000000 33.000000 0.831738 -0.278282 0.480387
6.80999994 13.05000019 -0.41000000 246 64 100 0.000000 0.000000 0.000000 0.000000 0.000000 0.000000 33.000000 0.907075 0.390369 0.157567
6.82999992 13.07999992 -0.46000001 246 64 100 0.000000 0.000000 0.000000 0.000000 0.000000 0.000000 33.000000 0.762432 0.126329 0.634617
6.80000019 13.05000019 -0.50999999 246 64 100 0.000000 0.000000 0.000000 0.000000 0.000000 0.000000 33.000000 0.669484 0.110842 0.734511
6.82000017 13.15999985 -0.55000001 246 64 100 0.000000 0.000000 0.000000 0.000000 0.000000 0.000000 33.000000 0.676751 0.518898 0.522257
6.82000017 13.13000011 -0.55000001 246 64 100 0.000000 0.000000 0.000000 0.000000 0.000000 0.000000 33.000000 0.799480 0.580485 0.154496
6.82000017 13.13000011 -0.55000001 246 64 100 0.000000 0.000000 0.000000 0.000000 0.000000 0.000000 33.000000 0.799480 0.580485 0.154496
6.82000017 13.15999985 -0.55000001 246 64 100 0.000000 0.000000 0.000000 0.000000 0.000000 0.000000 33.000000 0.676751 0.518898 0.522257
6.80000019 13.15999985 -0.64999998 246 64 100 0.000000 0.000000 0.000000 0.000000 0.000000 0.000000 33.000000 0.612279 0.504329 0.608906
6.80000019 13.15999985 -0.64999998 246 64 100 0.000000 0.000000 0.000000 0.000000 0.000000 0.000000 33.000000 0.612279 0.504329 0.608906
6.80000019 13.14999962 -0.64999998 246 64 100 0.000000 0.000000 0.000000 0.000000 0.000000 0.000000 33.000000 0.848845 0.372246 0.375361
6.82000017 13.06999969 -0.57999998 246 64 100 0.000000 0.000000 0.000000 0.000000 0.000000 0.000000 33.000000 0.936270 0.295445 0.190028
6.80000019 13.06000042 -0.75999999 246 64 100 0.000000 0.000000 0.000000 0.000000 0.000000 0.000000 33.000000 0.891531 0.432214 0.135513
6.78000021 13.23999977 -0.34000000 246 64 100 0.000000 0.000000 0.000000 0.000000 0.000000 0.000000 33.000000 0.612207 0.706895 0.354264
6.78000021 13.11999989 -0.33000001 246 64 100 0.000000 0.000000 0.000000 0.000000 0.000000 0.000000 33.000000 0.745272 0.419524 0.518236
6.78999996 13.21000004 -0.38000000 246 64 100 0.000000 0.000000 0.000000 0.000000 0.000000 0.000000 33.000000 0.815415 0.577644 0.037764
6.78999996 13.22999954 -0.41000000 246 64 100 0.000000 0.000000 0.000000 0.000000 0.000000 0.000000 33.000000 0.767496 0.631969 0.107538
6.78000021 13.10000038 -0.41000000 246 64 100 0.000000 0.000000 0.000000 0.000000 0.000000 0.000000 33.000000 0.759012 0.085953 0.645378
6.78999996 13.06000042 -0.20000000 246 64 100 0.000000 0.000000 0.000000 0.000000 0.000000 0.000000 33.000000 0.800802 -0.292206 0.522812
6.78999996 13.01000023 -0.31999999 246 64 100 0.000000 0.000000 0.000000 0.000000 0.000000 0.000000 33.000000 0.639110 0.195583 0.743832
6.73000002 13.00000000 -0.31999999 246 64 100 0.000000 0.000000 0.000000 0.000000 0.000000 0.000000 33.000000 0.817129 -0.072729 0.571848
6.73000002 13.01000023 -0.31999999 246 64 100 0.000000 0.000000 0.000000 0.000000 0.000000 0.000000 33.000000 0.770289 -0.336097 0.541936
6.76999998 12.97000027 -0.22000000 246 64 100 0.000000 0.000000 0.000000 0.000000 0.000000 0.000000 33.000000 0.947143 0.250111 0.200909
6.76000023 12.98999977 -0.28999999 246 64 100 0.000000 0.000000 0.000000 0.000000 0.000000 0.000000 33.000000 0.632695 0.101290 0.767748
6.69000006 12.97000027 -0.25999999 246 64 100 0.000000 0.000000 0.000000 0.000000 0.000000 0.000000 33.000000 0.793604 -0.261404 0.549418
6.67999983 12.97000027 -0.25000000 246 64 100 0.000000 0.000000 0.000000 0.000000 0.000000 0.000000 33.000000 0.813113 0.012382 0.581974
6.65999985 12.97000027 -0.25000000 246 64 100 0.000000 0.000000 0.000000 0.000000 0.000000 0.000000 33.000000 0.706855 0.026700 0.706855
6.69000006 12.97999954 -0.34000000 246 64 100 0.000000 0.000000 0.000000 0.000000 0.000000 0.000000 33.000000 0.845076 -0.229922 0.482683
6.65000010 12.97000027 -0.36000001 246 64 100 0.000000 0.000000 0.000000 0.000000 0.000000 0.000000 33.000000 0.684258 -0.234378 0.690550
6.65000010 12.97999954 -0.36000001 246 64 100 0.000000 0.000000 0.000000 0.000000 0.000000 0.000000 33.000000 0.705512 -0.237266 0.667801
6.76000023 13.00000000 -0.41000000 246 64 100 0.000000 0.000000 0.000000 0.000000 0.000000 0.000000 33.000000 0.722261 0.155960 0.673807
6.76000023 13.00000000 -0.41000000 246 64 100 0.000000 0.000000 0.000000 0.000000 0.000000 0.000000 33.000000 0.722261 0.155960 0.673807
6.78999996 13.02000046 -0.41000000 246 64 100 0.000000 0.000000 0.000000 0.000000 0.000000 0.000000 33.000000 0.750700 0.418881 0.510870
6.75000000 13.00000000 -0.37000000 246 64 100 0.000000 0.000000 0.000000 0.000000 0.000000 0.000000 33.000000 0.930803 0.230229 0.283902
6.75000000 13.02000046 -0.49000001 246 64 100 0.000000 0.000000 0.000000 0.000000 0.000000 0.000000 33.000000 0.824406 -0.238847 0.513135
6.78000021 12.94999981 -0.38000000 246 64 100 0.000000 0.000000 0.000000 0.000000 0.000000 0.000000 33.000000 0.903047 0.128202 0.409964
6.71999979 12.94999981 -0.50999999 246 64 100 0.000000 0.000000 0.000000 0.000000 0.000000 0.000000 33.000000 0.805020 0.035001 0.592215
6.69000006 13.00000000 -0.41000000 246 64 100 0.000000 0.000000 0.000000 0.000000 0.000000 0.000000 33.000000 0.947009 0.252809 0.198148
6.69999981 13.00000000 -0.43000001 246 64 100 0.000000 0.000000 0.000000 0.000000 0.000000 0.000000 33.000000 0.758719 0.249765 0.601634
6.63999987 13.00000000 -0.38000000 246 64 100 0.000000 0.000000 0.000000 0.000000 0.000000 0.000000 33.000000 0.932433 0.095531 0.348485
6.67999983 13.00000000 -0.49000001 246 64 100 0.000000 0.000000 0.000000 0.000000 0.000000 0.000000 33.000000 0.918509 0.204272 0.338548
6.69999981 13.00000000 -0.51999998 246 64 100 0.000000 0.000000 0.000000 0.000000 0.000000 0.000000 33.000000 0.720974 0.261452 0.641746
6.67999983 12.92000008 -0.40000001 246 64 100 0.000000 0.000000 0.000000 0.000000 0.000000 0.000000 33.000000 0.700124 0.006932 0.713988
6.63999987 12.93000031 -0.38999999 246 64 100 0.000000 0.000000 0.000000 0.000000 0.000000 0.000000 33.000000 0.766804 -0.371243 0.523632
6.46000004 13.13000011 -0.33000001 246 64 100 0.000000 0.000000 0.000000 0.000000 0.000000 0.000000 33.000000 0.592238 0.765040 0.252919
6.48000002 13.09000015 -0.30000001 246 64 100 0.000000 0.000000 0.000000 0.000000 0.000000 0.000000 33.000000 0.772667 0.256507 0.580681
6.55999994 12.93000031 -0.23000000 246 64 100 0.000000 0.000000 0.000000 0.000000 0.000000 0.000000 33.000000 0.636110 -0.315627 0.704091
6.55999994 12.93000031 -0.23000000 246 64 100 0.000000 0.000000 0.000000 0.000000 0.000000 0.000000 33.000000 0.636110 -0.315627 0.704091
6.61999989 12.97000027 -0.34999999 246 64 100 0.000000 0.000000 0.000000 0.000000 0.000000 0.000000 33.000000 0.794327 0.305998 0.524795
6.59000015 12.96000004 -0.34999999 246 64 100 0.000000 0.000000 0.000000 0.000000 0.000000 0.000000 33.000000 -0.735417 0.534699 -0.416243
6.61999989 12.93999958 -0.36000001 246 64 100 0.000000 0.000000 0.000000 0.000000 0.000000 0.000000 33.000000 0.687346 -0.526798 0.500040
6.57000017 12.97000027 -0.36000001 246 64 100 0.000000 0.000000 0.000000 0.000000 0.000000 0.000000 33.000000 0.715900 -0.446815 0.536510
6.51000023 13.02999973 -0.23999999 246 64 100 0.000000 0.000000 0.000000 0.000000 0.000000 0.000000 33.000000 0.758982 0.287999 0.583955
6.51000023 13.01000023 -0.23999999 246 64 100 0.000000 0.000000 0.000000 0.000000 0.000000 0.000000 33.000000 0.828704 0.424612 0.364630
6.46999979 13.05000019 -0.22000000 246 64 100 0.000000 0.000000 0.000000 0.000000 0.000000 0.000000 33.000000 0.731327 0.261755 0.629798
6.46999979 13.07999992 -0.28000000 246 64 100 0.000000 0.000000 0.000000 0.000000 0.000000 0.000000 33.000000 0.811711 0.284177 0.510263
6.46999979 13.01000023 -0.22000000 246 64 100 0.000000 0.000000 0.000000 0.000000 0.000000 0.000000 33.000000 0.882620 0.256245 0.394107
6.46000004 13.00000000 -0.20999999 246 64 100 0.000000 0.000000 0.000000 0.000000 0.000000 0.000000 33.000000 0.860847 -0.119682 0.494590
6.51000023 13.02999973 -0.33000001 246 64 100 0.000000 0.000000 0.000000 0.000000 0.000000 0.000000 33.000000 0.687737 0.070945 0.722485
