//X Y Z R G B PointSourceId ScanDirectionFlag NumberOfReturns ReturnNumber GpsTime Intensity Classification Nx Ny Nz
-17.25000000 3.14000010 -1.05999994 146 36 164 0.000000 0.000000 0.000000 0.000000 -0.000107 0.000000 213.000000 -0.505180 0.144965 0.850752
-17.13999939 3.09999990 -0.88999999 146 36 164 0.000000 0.000000 0.000000 0.000000 -0.000107 0.000000 213.000000 -0.448902 0.826925 0.338646
-17.22999954 3.09999990 -0.93000001 146 36 164 0.000000 0.000000 0.000000 0.000000 -0.000107 0.000000 213.000000 0.603214 -0.663369 -0.442803
-17.20999908 3.03999996 -0.88999999 146 36 164 0.000000 0.000000 0.000000 0.000000 -0.000107 0.000000 213.000000 0.596657 -0.660167 -0.456267
-17.20000076 3.07999992 -0.95999998 146 36 164 0.000000 0.000000 0.000000 0.000000 -0.000107 0.000000 213.000000 -0.480445 0.473841 0.738003
-17.19000053 3.10999990 -0.98000002 146 36 164 0.000000 0.000000 0.000000 0.000000 -0.000107 0.000000 213.000000 -0.347584 0.465033 0.814205
-16.61000061 2.63000011 -0.87000000 146 36 164 0.000000 0.000000 0.000000 0.000000 -0.000107 0.000000 186.000000 0.799892 -0.581604 0.148017
-16.60000038 2.63000011 -0.88000000 146 36 164 0.000000 0.000000 0.000000 0.000000 -0.000107 0.000000 186.000000 0.871094 -0.472384 0.134348
-16.73999977 2.66000009 -0.79000002 146 36 164 0.000000 0.000000 0.000000 0.000000 -0.000107 0.000000 186.000000 -0.481475 0.853455 -0.199490
-16.68000031 2.61999989 -0.88000000 146 36 164 0.000000 0.000000 0.000000 0.000000 -0.000107 0.000000 186.000000 -0.555584 0.817737 -0.150440
-16.78000069 2.63000011 -0.82999998 146 36 164 0.000000 0.000000 0.000000 0.000000 -0.000107 0.000000 186.000000 -0.592010 0.803137 0.067047
-16.79999924 2.65000010 -0.88000000 146 36 164 0.000000 0.000000 0.000000 0.000000 -0.000107 0.000000 186.000000 -0.516510 0.826109 0.225303
-16.79999924 2.60999990 -0.81000000 146 36 164 0.000000 0.000000 0.000000 0.000000 -0.000107 0.000000 186.000000 0.726201 -0.687470 -0.004150
-16.79999924 2.61999989 -0.85000002 146 36 164 0.000000 0.000000 0.000000 0.000000 -0.000107 0.000000 186.000000 -0.499785 0.849783 -0.167584
-16.90999985 2.75999999 -0.79000002 146 36 164 0.000000 0.000000 0.000000 0.000000 -0.000107 0.000000 186.000000 0.920073 -0.364399 0.143805
-16.82999992 2.72000003 -0.87000000 146 36 164 0.000000 0.000000 0.000000 0.000000 -0.000107 0.000000 186.000000 0.873818 -0.459520 0.159009
-16.85000038 2.65000010 -0.77999997 146 36 164 0.000000 0.000000 0.000000 0.000000 -0.000107 0.000000 186.000000 0.925532 -0.377262 -0.032635
-16.87000084 2.66000009 -0.88000000 146 36 164 0.000000 0.000000 0.000000 0.000000 -0.000107 0.000000 186.000000 0.880946 -0.426455 -0.205111
-16.90999985 2.68000007 -0.88000000 146 36 164 0.000000 0.000000 0.000000 0.000000 -0.000107 0.000000 186.000000 -0.554038 0.743620 0.374261
-16.89999962 2.66000009 -0.87000000 146 36 164 0.000000 0.000000 0.000000 0.000000 -0.000107 0.000000 186.000000 0.738766 -0.668824 0.083057
-16.87999916 2.64000010 -0.81999999 146 36 164 0.000000 0.000000 0.000000 0.000000 -0.000107 0.000000 186.000000 -0.655707 0.740120 0.149230
-16.89999962 2.64000010 -0.85000002 146 36 164 0.000000 0.000000 0.000000 0.000000 -0.000107 0.000000 186.000000 0.872216 -0.489031 -0.009379
-16.90999985 2.63000011 -0.86000001 146 36 164 0.000000 0.000000 0.000000 0.000000 -0.000107 0.000000 186.000000 0.928877 -0.348842 -0.124489
-16.65999985 2.56999993 -0.87000000 146 36 164 0.000000 0.000000 0.000000 0.000000 -0.000107 0.000000 186.000000 0.929952 -0.354974 -0.095830
-16.65999985 2.52999997 -0.81999999 146 36 164 0.000000 0.000000 0.000000 0.000000 -0.000107 0.000000 186.000000 0.853979 -0.508355 0.110888
-16.67000008 2.52999997 -0.83999997 146 36 164 0.000000 0.000000 0.000000 0.000000 -0.000107 0.000000 186.000000 0.762327 -0.606432 -0.226048
-16.67000008 2.52999997 -0.83999997 146 36 164 0.000000 0.000000 0.000000 0.000000 -0.000107 0.000000 186.000000 0.762327 -0.606432 -0.226048
-16.70999908 2.57999992 -0.88000000 146 36 164 0.000000 0.000000 0.000000 0.000000 -0.000107 0.000000 186.000000 -0.409578 0.911212 -0.044026
-16.71999931 2.52999997 -0.88000000 146 36 164 0.000000 0.000000 0.000000 0.000000 -0.000107 0.000000 186.000000 0.859487 -0.495469 0.125673
-16.71999931 2.53999996 -0.85000002 146 36 164 0.000000 0.000000 0.000000 0.000000 -0.000107 0.000000 186.000000 0.926901 -0.352909 -0.127706
-16.72999954 2.52999997 -0.86000001 146 36 164 0.000000 0.000000 0.000000 0.000000 -0.000107 0.000000 186.000000 0.937233 -0.347456 -0.029489
-16.71999931 2.53999996 -0.88000000 146 36 164 0.000000 0.000000 0.000000 0.000000 -0.000107 0.000000 186.000000 0.802819 -0.587180 -0.103449
-16.79000092 2.57999992 -0.70999998 146 36 164 0.000000 0.000000 0.000000 0.000000 -0.000107 0.000000 186.000000 -0.536052 0.817059 -0.212283
-16.78000069 2.58999991 -0.74000001 146 36 164 0.000000 0.000000 0.000000 0.000000 -0.000107 0.000000 186.000000 0.888405 -0.454501 0.064536
-16.79000092 2.55999994 -0.75999999 146 36 164 0.000000 0.000000 0.000000 0.000000 -0.000107 0.000000 186.000000 0.731689 -0.672563 -0.110862
-16.77000046 2.53999996 -0.88000000 146 36 164 0.000000 0.000000 0.000000 0.000000 -0.000107 0.000000 186.000000 0.862708 -0.433636 -0.260182
-16.76000023 2.54999995 -0.86000001 146 36 164 0.000000 0.000000 0.000000 0.000000 -0.000107 0.000000 186.000000 -0.627779 0.778112 -0.020880
-16.80999947 2.59999990 -0.81000000 146 36 164 0.000000 0.000000 0.000000 0.000000 -0.000107 0.000000 186.000000 0.869620 -0.426521 0.248678
-16.87999916 2.59999990 -0.81000000 146 36 164 0.000000 0.000000 0.000000 0.000000 -0.000107 0.000000 186.000000 0.940805 -0.335170 0.050470
-16.90999985 2.56999993 -0.81999999 146 36 164 0.000000 0.000000 0.000000 0.000000 -0.000107 0.000000 186.000000 0.888905 -0.420448 0.181855
-16.97999954 2.70000005 -0.86000001 146 36 164 0.000000 0.000000 0.000000 0.000000 -0.000107 0.000000 186.000000 0.762250 -0.552752 0.336808
-16.96999931 2.71000004 -0.81000000 146 36 164 0.000000 0.000000 0.000000 0.000000 -0.000107 0.000000 186.000000 0.803562 -0.583206 0.118992
-16.93000031 2.67000008 -0.79000002 146 36 164 0.000000 0.000000 0.000000 0.000000 -0.000107 0.000000 186.000000 -0.612193 0.725263 0.314981
-16.92000008 2.60999990 -0.86000001 146 36 164 0.000000 0.000000 0.000000 0.000000 -0.000107 0.000000 186.000000 -0.665569 0.734369 -0.133114
-16.96999931 2.60999990 -0.88000000 146 36 164 0.000000 0.000000 0.000000 0.000000 -0.000107 0.000000 186.000000 0.852746 -0.471055 -0.225682
-17.04000092 2.60999990 -0.79000002 146 36 164 0.000000 0.000000 0.000000 0.000000 -0.000107 0.000000 186.000000 -0.665965 0.745145 -0.035348
-17.04999924 2.60999990 -0.72000003 146 36 164 0.000000 0.000000 0.000000 0.000000 -0.000107 0.000000 186.000000 0.739942 -0.505930 0.443306
-17.04999924 2.60999990 -0.72000003 146 36 164 0.000000 0.000000 0.000000 0.000000 -0.000107 0.000000 186.000000 0.739942 -0.505930 0.443306
-17.17000008 2.85999990 -0.85000002 146 36 164 0.000000 0.000000 0.000000 0.000000 -0.000107 0.000000 213.000000 -0.446937 0.886780 0.117764
-17.20999908 2.91000009 -0.79000002 146 36 164 0.000000 0.000000 0.000000 0.000000 -0.000107 0.000000 213.000000 0.926724 -0.357275 0.116354
-17.20000076 2.90000010 -0.86000001 146 36 164 0.000000 0.000000 0.000000 0.000000 -0.000107 0.000000 213.000000 0.822094 -0.569351 0.001359
-17.23999977 2.86999989 -0.81999999 146 36 164 0.000000 0.000000 0.000000 0.000000 -0.000107 0.000000 213.000000 -0.408560 0.883974 -0.227308
-17.22999954 2.86999989 -0.82999998 146 36 164 0.000000 0.000000 0.000000 0.000000 -0.000107 0.000000 213.000000 -0.710460 0.686223 -0.156029
-17.20999908 2.84999990 -0.85000002 146 36 164 0.000000 0.000000 0.000000 0.000000 -0.000107 0.000000 213.000000 0.765927 -0.641799 -0.038085
-17.21999931 2.83999991 -0.88000000 146 36 164 0.000000 0.000000 0.000000 0.000000 -0.000107 0.000000 213.000000 -0.390491 0.873667 0.290210
-17.20999908 2.84999990 -0.86000001 146 36 164 0.000000 0.000000 0.000000 0.000000 -0.000107 0.000000 213.000000 -0.707906 0.702092 0.077041
-17.20999908 2.82999992 -0.81000000 146 36 164 0.000000 0.000000 0.000000 0.000000 -0.000107 0.000000 213.000000 -0.675591 0.718292 0.166229
-17.12999916 2.60999990 -0.73000002 146 36 164 0.000000 0.000000 0.000000 0.000000 -0.000107 0.000000 186.000000 -0.617098 0.666998 -0.417497
-16.93000031 2.56999993 -0.79000002 146 36 164 0.000000 0.000000 0.000000 0.000000 -0.000107 0.000000 186.000000 0.747761 -0.662302 0.047002
-16.94000053 2.54999995 -0.77999997 146 36 164 0.000000 0.000000 0.000000 0.000000 -0.000107 0.000000 186.000000 0.671455 -0.604809 0.428198
-16.95999908 2.56999993 -0.76999998 146 36 164 0.000000 0.000000 0.000000 0.000000 -0.000107 0.000000 186.000000 -0.569317 0.744492 -0.348727
-16.98999977 2.53999996 -0.73000002 146 36 164 0.000000 0.000000 0.000000 0.000000 -0.000107 0.000000 186.000000 0.877490 -0.462364 -0.127401
-16.96999931 2.59999990 -0.88000000 146 36 164 0.000000 0.000000 0.000000 0.000000 -0.000107 0.000000 186.000000 0.914043 -0.351555 -0.202323
-16.98999977 2.52999997 -0.88000000 146 36 164 0.000000 0.000000 0.000000 0.000000 -0.000107 0.000000 186.000000 -0.486448 0.864637 -0.125582
-16.95999908 2.49000001 -0.88000000 146 36 164 0.000000 0.000000 0.000000 0.000000 -0.000107 0.000000 186.000000 0.840952 -0.446124 -0.306225
-17.04000092 2.56999993 -0.75000000 146 36 164 0.000000 0.000000 0.000000 0.000000 -0.000107 0.000000 186.000000 -0.670460 0.739373 0.061734
-17.06999969 2.57999992 -0.75000000 146 36 164 0.000000 0.000000 0.000000 0.000000 -0.000107 0.000000 186.000000 0.848074 -0.490832 -0.199635
-17.06999969 2.57999992 -0.75000000 146 36 164 0.000000 0.000000 0.000000 0.000000 -0.000107 0.000000 186.000000 0.848074 -0.490832 -0.199635
-17.04999924 2.53999996 -0.72000003 146 36 164 0.000000 0.000000 0.000000 0.000000 -0.000107 0.000000 186.000000 0.933502 -0.348561 0.084135
-17.05999947 2.52999997 -0.77999997 146 36 164 0.000000 0.000000 0.000000 0.000000 -0.000107 0.000000 186.000000 -0.511631 0.856456 -0.068685
-17.02000046 2.52999997 -0.83999997 146 36 164 0.000000 0.000000 0.000000 0.000000 -0.000107 0.000000 186.000000 -0.555030 0.812128 -0.179969
-17.01000023 2.55999994 -0.86000001 146 36 164 0.000000 0.000000 0.000000 0.000000 -0.000107 0.000000 186.000000 -0.665691 0.697466 0.265323
-17.04999924 2.57999992 -0.85000002 146 36 164 0.000000 0.000000 0.000000 0.000000 -0.000107 0.000000 186.000000 -0.471792 0.858212 -0.202197
-17.01000023 2.50000000 -0.82999998 146 36 164 0.000000 0.000000 0.000000 0.000000 -0.000107 0.000000 186.000000 0.800814 -0.509032 0.315568
-17.02000046 2.49000001 -0.85000002 146 36 164 0.000000 0.000000 0.000000 0.000000 -0.000107 0.000000 186.000000 -0.446052 0.890715 -0.087543
-17.07999992 2.48000002 -0.88000000 146 36 164 0.000000 0.000000 0.000000 0.000000 -0.000107 0.000000 186.000000 -0.692721 0.716055 0.086043
-17.06999969 2.48000002 -0.87000000 146 36 164 0.000000 0.000000 0.000000 0.000000 -0.000107 0.000000 186.000000 0.841652 -0.440272 -0.312702
-17.05999947 2.47000003 -0.88000000 146 36 164 0.000000 0.000000 0.000000 0.000000 -0.000107 0.000000 186.000000 -0.685219 0.706680 0.176287
-17.12999916 2.52999997 -0.69000000 146 36 164 0.000000 0.000000 0.000000 0.000000 -0.000107 0.000000 186.000000 0.851402 -0.522985 0.040017
-17.17000008 2.46000004 -0.70999998 146 36 164 0.000000 0.000000 0.000000 0.000000 -0.000107 0.000000 186.000000 0.849354 -0.498307 -0.174036
-17.14999962 2.47000003 -0.69999999 146 36 164 0.000000 0.000000 0.000000 0.000000 -0.000107 0.000000 186.000000 -0.655163 0.746856 -0.113877
-17.17000008 2.50000000 -0.69000000 146 36 164 0.000000 0.000000 0.000000 0.000000 -0.000107 0.000000 186.000000 -0.702185 0.705130 -0.098630
-17.20999908 2.51999998 -0.63999999 146 36 164 0.000000 0.000000 0.000000 0.000000 -0.000107 0.000000 186.000000 0.669883 -0.488561 0.559075
-17.20999908 2.52999997 -0.63999999 146 36 164 0.000000 0.000000 0.000000 0.000000 -0.000107 0.000000 186.000000 -0.499633 0.804172 -0.321986
-17.18000031 2.53999996 -0.69999999 146 36 164 0.000000 0.000000 0.000000 0.000000 -0.000107 0.000000 186.000000 0.879156 -0.434424 0.195859
-17.18000031 2.54999995 -0.70999998 146 36 164 0.000000 0.000000 0.000000 0.000000 -0.000107 0.000000 186.000000 0.782598 -0.622490 0.006901
-17.18000031 2.48000002 -0.63000000 146 36 164 0.000000 0.000000 0.000000 0.000000 -0.000107 0.000000 186.000000 -0.570058 0.821270 -0.023465
-17.18000031 2.48000002 -0.63000000 146 36 164 0.000000 0.000000 0.000000 0.000000 -0.000107 0.000000 186.000000 -0.570058 0.821270 -0.023465
-17.18000031 2.50000000 -0.69000000 146 36 164 0.000000 0.000000 0.000000 0.000000 -0.000107 0.000000 186.000000 0.816018 -0.572217 -0.081745
-17.19000053 2.47000003 -0.69999999 146 36 164 0.000000 0.000000 0.000000 0.000000 -0.000107 0.000000 186.000000 0.750549 -0.615795 0.239737
-17.14999962 2.58999991 -0.73000002 146 36 164 0.000000 0.000000 0.000000 0.000000 -0.000107 0.000000 186.000000 0.851663 -0.523574 -0.023240
-17.13999939 2.58999991 -0.75999999 146 36 164 0.000000 0.000000 0.000000 0.000000 -0.000107 0.000000 186.000000 -0.493530 0.869425 0.022986
-17.14999962 2.52999997 -0.72000003 146 36 164 0.000000 0.000000 0.000000 0.000000 -0.000107 0.000000 186.000000 0.758051 -0.568136 0.320281
-17.09000015 2.56999993 -0.81999999 146 36 164 0.000000 0.000000 0.000000 0.000000 -0.000107 0.000000 186.000000 0.811217 -0.562304 0.160444
-16.57999992 2.63000011 -0.94000000 146 36 164 0.000000 0.000000 0.000000 0.000000 -0.000107 0.000000 186.000000 -0.604802 0.793535 -0.067200
-16.64999962 2.64000010 -0.91000003 146 36 164 0.000000 0.000000 0.000000 0.000000 -0.000107 0.000000 186.000000 -0.600360 0.779708 -0.177828
-16.61000061 2.61999989 -0.88999999 146 36 164 0.000000 0.000000 0.000000 0.000000 -0.000107 0.000000 186.000000 -0.681074 0.719993 0.133221
-16.62999916 2.60999990 -0.91000003 146 36 164 0.000000 0.000000 0.000000 0.000000 -0.000107 0.000000 186.000000 -0.442095 0.855125 0.270764
-16.85000038 2.66000009 -0.92000002 146 36 164 0.000000 0.000000 0.000000 0.000000 -0.000107 0.000000 186.000000 0.761347 -0.460083 -0.456808
-16.70000076 2.53999996 -0.93000001 146 36 164 0.000000 0.000000 0.000000 0.000000 -0.000107 0.000000 186.000000 -0.685427 0.727650 -0.026741
-16.72999954 2.55999994 -0.91000003 146 36 164 0.000000 0.000000 0.000000 0.000000 -0.000107 0.000000 186.000000 -0.431886 0.817556 0.380889
-16.70999908 2.51999998 -0.93000001 146 36 164 0.000000 0.000000 0.000000 0.000000 -0.000107 0.000000 186.000000 0.591894 -0.671925 -0.445171
-16.76000023 2.56999993 -0.88999999 146 36 164 0.000000 0.000000 0.000000 0.000000 -0.000107 0.000000 186.000000 0.816163 -0.464341 -0.343898
-16.77000046 2.59999990 -0.92000002 146 36 164 0.000000 0.000000 0.000000 0.000000 -0.000107 0.000000 186.000000 -0.539340 0.826192 0.162848
-16.76000023 2.58999991 -0.88999999 146 36 164 0.000000 0.000000 0.000000 0.000000 -0.000107 0.000000 186.000000 0.823486 -0.511395 -0.245655
-16.77000046 2.54999995 -0.92000002 146 36 164 0.000000 0.000000 0.000000 0.000000 -0.000107 0.000000 186.000000 0.671795 -0.694030 0.258871
-16.77000046 2.54999995 -0.92000002 146 36 164 0.000000 0.000000 0.000000 0.000000 -0.000107 0.000000 186.000000 0.671795 -0.694030 0.258871
-16.79000092 2.52999997 -0.92000002 146 36 164 0.000000 0.000000 0.000000 0.000000 -0.000107 0.000000 186.000000 -0.534549 0.828027 0.169199
-16.79000092 2.45000005 -0.99000001 146 36 164 0.000000 0.000000 0.000000 0.000000 -0.000107 0.000000 186.000000 0.736907 -0.615946 -0.278529
-16.81999969 2.49000001 -1.00000000 146 36 164 0.000000 0.000000 0.000000 0.000000 -0.000107 0.000000 186.000000 0.663369 -0.603214 -0.442803
-16.82999992 2.52999997 -0.88999999 146 36 164 0.000000 0.000000 0.000000 0.000000 -0.000107 0.000000 186.000000 0.895282 -0.432930 -0.105080
-16.86000061 2.48000002 -0.94000000 146 36 164 0.000000 0.000000 0.000000 0.000000 -0.000107 0.000000 186.000000 0.778830 -0.624493 0.058591
-16.81999969 2.39000010 -0.98000002 146 36 164 0.000000 0.000000 0.000000 0.000000 -0.000107 0.000000 186.000000 -0.388588 0.826344 0.407621
-16.82999992 2.42000008 -0.98000002 146 36 164 0.000000 0.000000 0.000000 0.000000 -0.000107 0.000000 186.000000 -0.684763 0.722887 0.092377
-16.93000031 2.70000005 -0.91000003 146 36 164 0.000000 0.000000 0.000000 0.000000 -0.000107 0.000000 186.000000 -0.575644 0.816547 0.043418
-16.93000031 2.70000005 -0.88999999 146 36 164 0.000000 0.000000 0.000000 0.000000 -0.000107 0.000000 186.000000 0.569736 -0.727357 -0.382560
-16.96999931 2.61999989 -0.88999999 146 36 164 0.000000 0.000000 0.000000 0.000000 -0.000107 0.000000 186.000000 0.932904 -0.339114 -0.121209
-16.98999977 2.60999990 -0.94000000 146 36 164 0.000000 0.000000 0.000000 0.000000 -0.000107 0.000000 186.000000 -0.633931 0.766307 -0.104429
-17.25000000 2.66000009 -0.94999999 146 36 164 0.000000 0.000000 0.000000 0.000000 -0.000107 0.000000 119.000000 0.881599 -0.461252 -0.100150
-16.98999977 2.55999994 -0.92000002 146 36 164 0.000000 0.000000 0.000000 0.000000 -0.000107 0.000000 186.000000 0.737090 -0.675550 0.018182
-16.97999954 2.55999994 -0.91000003 146 36 164 0.000000 0.000000 0.000000 0.000000 -0.000107 0.000000 186.000000 -0.614783 0.776331 -0.139111
-16.96999931 2.51999998 -0.94999999 146 36 164 0.000000 0.000000 0.000000 0.000000 -0.000107 0.000000 186.000000 -0.675463 0.715287 0.179205
-16.96999931 2.52999997 -1.01999998 146 36 164 0.000000 0.000000 0.000000 0.000000 -0.000107 0.000000 186.000000 0.815796 -0.423064 -0.394328
-16.96999931 2.51999998 -1.00999999 146 36 164 0.000000 0.000000 0.000000 0.000000 -0.000107 0.000000 186.000000 -0.527547 0.628674 0.571369
-16.98999977 2.44000006 -0.92000002 146 36 164 0.000000 0.000000 0.000000 0.000000 -0.000107 0.000000 186.000000 0.880780 -0.444030 -0.164509
-17.04000092 2.56999993 -0.94999999 146 36 164 0.000000 0.000000 0.000000 0.000000 -0.000107 0.000000 186.000000 0.891531 -0.432214 -0.135513
-17.04000092 2.52999997 -0.92000002 146 36 164 0.000000 0.000000 0.000000 0.000000 -0.000107 0.000000 186.000000 0.705227 -0.689995 0.162979
-17.04000092 2.55999994 -0.94000000 146 36 164 0.000000 0.000000 0.000000 0.000000 -0.000107 0.000000 186.000000 0.827295 -0.553928 0.093520
-17.04999924 2.58999991 -0.89999998 146 36 164 0.000000 0.000000 0.000000 0.000000 -0.000107 0.000000 186.000000 0.720100 -0.644133 0.257970
-17.05999947 2.54999995 -0.88999999 146 36 164 0.000000 0.000000 0.000000 0.000000 -0.000107 0.000000 186.000000 -0.660951 0.560042 0.499497
-17.04999924 2.51999998 -0.92000002 146 36 164 0.000000 0.000000 0.000000 0.000000 -0.000107 0.000000 186.000000 0.691335 -0.688214 0.220041
-17.05999947 2.50000000 -0.95999998 146 36 164 0.000000 0.000000 0.000000 0.000000 -0.000107 0.000000 186.000000 0.911812 -0.360417 -0.196722
-17.02000046 2.50999999 -0.98000002 146 36 164 0.000000 0.000000 0.000000 0.000000 -0.000107 0.000000 186.000000 -0.503015 0.808924 0.304332
-17.01000023 2.43000007 -0.89999998 146 36 164 0.000000 0.000000 0.000000 0.000000 -0.000107 0.000000 186.000000 -0.653549 0.756667 0.018115
-17.03000069 2.39000010 -0.89999998 146 36 164 0.000000 0.000000 0.000000 0.000000 -0.000107 0.000000 186.000000 -0.394766 0.918515 0.022149
-17.04000092 2.35999990 -1.00000000 146 36 164 0.000000 0.000000 0.000000 0.000000 -0.000107 0.000000 133.000000 -0.430007 0.846042 0.315131
-17.05999947 2.35999990 -1.01999998 146 36 164 0.000000 0.000000 0.000000 0.000000 -0.000107 0.000000 133.000000 -0.569592 0.702442 0.426779
-17.04999924 2.31999993 -1.00000000 146 36 164 0.000000 0.000000 0.000000 0.000000 -0.000107 0.000000 133.000000 0.724364 -0.676373 -0.133475
-17.10000038 2.44000006 -0.89999998 146 36 164 0.000000 0.000000 0.000000 0.000000 -0.000107 0.000000 186.000000 0.680349 -0.624340 -0.383829
-17.10000038 2.48000002 -0.93000001 146 36 164 0.000000 0.000000 0.000000 0.000000 -0.000107 0.000000 186.000000 -0.620355 0.783532 0.035168
-17.09000015 2.32999992 -0.97000003 146 36 164 0.000000 0.000000 0.000000 0.000000 -0.000107 0.000000 133.000000 0.822902 -0.558761 -0.103044
-17.10000038 2.31999993 -1.00999999 146 36 164 0.000000 0.000000 0.000000 0.000000 -0.000107 0.000000 133.000000 0.886433 -0.406960 -0.220498
-17.10000038 2.31999993 -1.02999997 146 36 164 0.000000 0.000000 0.000000 0.000000 -0.000107 0.000000 133.000000 0.789988 -0.590603 -0.164644
-17.12999916 2.27999997 -1.02999997 146 36 164 0.000000 0.000000 0.000000 0.000000 -0.000107 0.000000 133.000000 0.800420 -0.439667 -0.407457
-17.10000038 2.30999994 -1.07000005 146 36 164 0.000000 0.000000 0.000000 0.000000 -0.000107 0.000000 133.000000 0.655337 -0.638747 -0.403157
-17.14999962 2.25999999 -1.10000002 146 36 164 0.000000 0.000000 0.000000 0.000000 -0.000107 0.000000 133.000000 -0.484154 0.710425 0.510774
-17.29999924 3.09999990 -0.83999997 146 36 164 0.000000 0.000000 0.000000 0.000000 -0.000107 0.000000 213.000000 0.800826 -0.530213 0.278480
-17.28000069 3.06999993 -0.82999998 146 36 164 0.000000 0.000000 0.000000 0.000000 -0.000107 0.000000 213.000000 -0.620671 0.759282 0.195596
-17.28000069 3.04999995 -0.82999998 146 36 164 0.000000 0.000000 0.000000 0.000000 -0.000107 0.000000 213.000000 0.820208 -0.513212 -0.252730
-17.30999947 3.09999990 -0.82999998 146 36 164 0.000000 0.000000 0.000000 0.000000 -0.000107 0.000000 213.000000 0.818297 -0.568062 0.087726
-17.28000069 2.96000004 -0.85000002 146 36 164 0.000000 0.000000 0.000000 0.000000 -0.000107 0.000000 213.000000 -0.614273 0.699452 0.365288
-17.27000046 2.97000003 -0.83999997 146 36 164 0.000000 0.000000 0.000000 0.000000 -0.000107 0.000000 213.000000 0.898241 -0.434809 -0.064063
-17.32999992 3.00999999 -0.87000000 146 36 164 0.000000 0.000000 0.000000 0.000000 -0.000107 0.000000 213.000000 0.753370 -0.541840 -0.372617
-17.31999969 3.01999998 -0.87000000 146 36 164 0.000000 0.000000 0.000000 0.000000 -0.000107 0.000000 213.000000 -0.562072 0.823898 0.072571
-17.30999947 2.96000004 -0.80000001 146 36 164 0.000000 0.000000 0.000000 0.000000 -0.000107 0.000000 213.000000 -0.386968 0.885992 -0.255488
-17.38999939 3.03999996 -0.83999997 146 36 164 0.000000 0.000000 0.000000 0.000000 -0.000107 0.000000 213.000000 0.841281 -0.380691 -0.383824
-17.38999939 3.03999996 -0.86000001 146 36 164 0.000000 0.000000 0.000000 0.000000 -0.000107 0.000000 213.000000 0.796200 -0.508993 -0.327096
-17.38999939 3.04999995 -0.83999997 146 36 164 0.000000 0.000000 0.000000 0.000000 -0.000107 0.000000 213.000000 0.903829 -0.419586 -0.083917
-17.37999916 2.98000002 -0.80000001 146 36 164 0.000000 0.000000 0.000000 0.000000 -0.000107 0.000000 213.000000 -0.700928 0.656222 -0.279413
-17.39999962 3.01999998 -0.83999997 146 36 164 0.000000 0.000000 0.000000 0.000000 -0.000107 0.000000 213.000000 -0.643012 0.755873 0.123256
-17.44000053 2.99000001 -0.85000002 146 36 164 0.000000 0.000000 0.000000 0.000000 -0.000107 0.000000 213.000000 0.813974 -0.488385 -0.314526
-17.29999924 3.17000008 -1.01999998 146 36 164 0.000000 0.000000 0.000000 0.000000 -0.000107 0.000000 213.000000 0.010962 0.276474 0.960959
-17.28000069 3.16000009 -1.01999998 146 36 164 0.000000 0.000000 0.000000 0.000000 -0.000107 0.000000 213.000000 -0.052428 0.097047 0.993898
-17.32999992 3.17000008 -1.03999996 146 36 164 0.000000 0.000000 0.000000 0.000000 -0.000107 0.000000 213.000000 -0.101975 -0.217799 0.970652
-17.34000015 3.13000011 -0.98000002 146 36 164 0.000000 0.000000 0.000000 0.000000 -0.000107 0.000000 213.000000 -0.261274 0.195613 0.945236
-17.31999969 3.13000011 -0.97000003 146 36 164 0.000000 0.000000 0.000000 0.000000 -0.000107 0.000000 213.000000 0.540586 -0.307767 -0.782973
-17.39999962 3.15000010 -0.95999998 146 36 164 0.000000 0.000000 0.000000 0.000000 -0.000107 0.000000 213.000000 -0.079345 -0.194089 0.977770
-17.43000031 3.20000005 -0.95999998 146 36 164 0.000000 0.000000 0.000000 0.000000 -0.000107 0.000000 213.000000 0.693379 -0.300839 0.654768
-17.36000061 3.14000010 -0.97000003 146 36 164 0.000000 0.000000 0.000000 0.000000 -0.000107 0.000000 213.000000 0.260061 0.121536 0.957913
-17.36000061 3.15000010 -0.97000003 146 36 164 0.000000 0.000000 0.000000 0.000000 -0.000107 0.000000 213.000000 0.112345 -0.082232 0.990261
-17.35000038 3.11999989 -1.01999998 146 36 164 0.000000 0.000000 0.000000 0.000000 -0.000107 0.000000 213.000000 0.005346 -0.095161 0.995448
-17.39999962 3.11999989 -0.97000003 146 36 164 0.000000 0.000000 0.000000 0.000000 -0.000107 0.000000 213.000000 0.386330 -0.074035 0.919384
-17.42000008 3.15000010 -0.97000003 146 36 164 0.000000 0.000000 0.000000 0.000000 -0.000107 0.000000 213.000000 0.310653 0.039307 0.949710
-17.30999947 3.11999989 -1.10000002 146 36 164 0.000000 0.000000 0.000000 0.000000 -0.000107 0.000000 213.000000 -0.239207 0.258791 0.935846
-17.29000092 3.11999989 -1.10000002 146 36 164 0.000000 0.000000 0.000000 0.000000 -0.000107 0.000000 213.000000 -0.101835 -0.106517 0.989082
-17.37000084 3.13000011 -1.09000003 146 36 164 0.000000 0.000000 0.000000 0.000000 -0.000107 0.000000 213.000000 0.060575 0.120008 0.990923
-17.43000031 3.16000009 -1.09000003 146 36 164 0.000000 0.000000 0.000000 0.000000 -0.000107 0.000000 213.000000 -0.027356 0.099575 0.994654
-17.42000008 3.11999989 -1.08000004 146 36 164 0.000000 0.000000 0.000000 0.000000 -0.000107 0.000000 213.000000 0.075394 0.124110 0.989400
-17.38999939 3.14000010 -1.08000004 146 36 164 0.000000 0.000000 0.000000 0.000000 -0.000107 0.000000 213.000000 0.161564 0.024063 0.986569
-17.39999962 3.13000011 -1.08000004 146 36 164 0.000000 0.000000 0.000000 0.000000 -0.000107 0.000000 213.000000 -0.101060 0.043311 0.993937
-17.34000015 3.09999990 -0.92000002 146 36 164 0.000000 0.000000 0.000000 0.000000 -0.000107 0.000000 213.000000 -0.055982 0.454686 0.888891
-17.29999924 3.05999994 -0.92000002 146 36 164 0.000000 0.000000 0.000000 0.000000 -0.000107 0.000000 213.000000 0.721672 -0.622020 -0.303777
-17.32999992 3.06999993 -0.88999999 146 36 164 0.000000 0.000000 0.000000 0.000000 -0.000107 0.000000 213.000000 -0.499906 0.778172 0.380188
-17.34000015 3.06999993 -0.88999999 146 36 164 0.000000 0.000000 0.000000 0.000000 -0.000107 0.000000 213.000000 -0.566325 0.772550 0.287128
-17.28000069 3.06999993 -1.03999996 146 36 164 0.000000 0.000000 0.000000 0.000000 -0.000107 0.000000 213.000000 -0.148112 0.497128 0.854943
-17.30999947 3.10999990 -1.00999999 146 36 164 0.000000 0.000000 0.000000 0.000000 -0.000107 0.000000 213.000000 -0.398036 0.485767 0.778202
-17.29999924 2.98000002 -0.98000002 146 36 164 0.000000 0.000000 0.000000 0.000000 -0.000107 0.000000 213.000000 -0.346722 0.527340 0.775690
-17.43000031 3.06999993 -0.94999999 146 36 164 0.000000 0.000000 0.000000 0.000000 -0.000107 0.000000 213.000000 0.273167 -0.122727 0.954106
-17.37000084 2.96000004 -0.89999998 146 36 164 0.000000 0.000000 0.000000 0.000000 -0.000107 0.000000 213.000000 0.757009 -0.369551 -0.538860
-17.40999985 2.96000004 -0.92000002 146 36 164 0.000000 0.000000 0.000000 0.000000 -0.000107 0.000000 213.000000 -0.430279 0.485905 0.760760
-17.39999962 2.96000004 -0.91000003 146 36 164 0.000000 0.000000 0.000000 0.000000 -0.000107 0.000000 213.000000 -0.415634 0.710387 0.567978
-17.43000031 2.97000003 -0.93000001 146 36 164 0.000000 0.000000 0.000000 0.000000 -0.000107 0.000000 213.000000 -0.154417 0.156928 0.975463
-17.35000038 2.98000002 -0.97000003 146 36 164 0.000000 0.000000 0.000000 0.000000 -0.000107 0.000000 213.000000 -0.233128 0.807458 0.541907
-17.36000061 3.09999990 -1.07000005 146 36 164 0.000000 0.000000 0.000000 0.000000 -0.000107 0.000000 213.000000 -0.121382 0.027840 0.992215
-17.45000076 3.15000010 -0.94000000 146 36 164 0.000000 0.000000 0.000000 0.000000 -0.000107 0.000000 213.000000 0.244507 -0.412512 0.877525
-17.44000053 3.18000007 -0.95999998 146 36 164 0.000000 0.000000 0.000000 0.000000 -0.000107 0.000000 213.000000 0.592146 0.052290 0.804132
-17.44000053 3.18000007 -0.95999998 146 36 164 0.000000 0.000000 0.000000 0.000000 -0.000107 0.000000 213.000000 0.592146 0.052290 0.804132
-17.46999931 3.11999989 -0.97000003 146 36 164 0.000000 0.000000 0.000000 0.000000 -0.000107 0.000000 213.000000 0.507076 -0.510423 0.694509
-17.46999931 3.23000002 -1.10000002 146 36 164 0.000000 0.000000 0.000000 0.000000 -0.000107 0.000000 213.000000 0.025714 -0.126333 0.991655
-17.45000076 3.18000007 -1.08000004 146 36 164 0.000000 0.000000 0.000000 0.000000 -0.000107 0.000000 213.000000 0.044781 0.023952 0.998710
-17.45999908 3.19000006 -1.08000004 146 36 164 0.000000 0.000000 0.000000 0.000000 -0.000107 0.000000 213.000000 -0.024387 -0.062558 0.997743
-17.45999908 3.19000006 -1.08000004 146 36 164 0.000000 0.000000 0.000000 0.000000 -0.000107 0.000000 213.000000 -0.024387 -0.062558 0.997743
-17.45000076 3.17000008 -1.08000004 146 36 164 0.000000 0.000000 0.000000 0.000000 -0.000107 0.000000 213.000000 -0.116692 -0.077409 0.990147
-17.45999908 3.17000008 -1.08000004 146 36 164 0.000000 0.000000 0.000000 0.000000 -0.000107 0.000000 213.000000 0.078151 0.022482 0.996688
-17.45000076 3.17000008 -1.08000004 146 36 164 0.000000 0.000000 0.000000 0.000000 -0.000107 0.000000 213.000000 -0.116692 -0.077409 0.990147
-17.45000076 3.19000006 -1.10000002 146 36 164 0.000000 0.000000 0.000000 0.000000 -0.000107 0.000000 213.000000 -0.019023 -0.137635 0.990300
-17.44000053 3.14000010 -1.07000005 146 36 164 0.000000 0.000000 0.000000 0.000000 -0.000107 0.000000 213.000000 0.237086 0.239859 0.941413
-17.45999908 3.11999989 -1.08000004 146 36 164 0.000000 0.000000 0.000000 0.000000 -0.000107 0.000000 213.000000 -0.068240 -0.299998 0.951496
-17.45999908 3.14000010 -1.05999994 146 36 164 0.000000 0.000000 0.000000 0.000000 -0.000107 0.000000 213.000000 0.385856 -0.289014 0.876120
-17.45999908 3.13000011 -1.08000004 146 36 164 0.000000 0.000000 0.000000 0.000000 -0.000107 0.000000 213.000000 -0.145426 0.099755 0.984327
-17.50000000 3.17000008 -1.08000004 146 36 164 0.000000 0.000000 0.000000 0.000000 -0.000107 0.000000 213.000000 0.129155 -0.497755 0.857647
-17.48999977 3.16000009 -1.08000004 146 36 164 0.000000 0.000000 0.000000 0.000000 -0.000107 0.000000 213.000000 0.066363 -0.136218 0.988454
-17.52000046 3.15000010 -1.07000005 146 36 164 0.000000 0.000000 0.000000 0.000000 -0.000107 0.000000 213.000000 0.116724 0.030015 0.992711
-17.55999947 3.14000010 -1.05999994 146 36 164 0.000000 0.000000 0.000000 0.000000 -0.000107 0.000000 213.000000 0.390545 -0.074325 0.917578
-17.54000092 3.16000009 -1.07000005 146 36 164 0.000000 0.000000 0.000000 0.000000 -0.000107 0.000000 213.000000 0.243369 -0.178829 0.953306
-17.55999947 3.14000010 -1.07000005 146 36 164 0.000000 0.000000 0.000000 0.000000 -0.000107 0.000000 213.000000 0.127933 -0.167679 0.977506
-17.53000069 3.17000008 -1.05999994 146 36 164 0.000000 0.000000 0.000000 0.000000 -0.000107 0.000000 213.000000 0.300562 0.095812 0.948937
-17.55999947 3.13000011 -1.07000005 146 36 164 0.000000 0.000000 0.000000 0.000000 -0.000107 0.000000 213.000000 0.139140 -0.392122 0.909330
-17.44000053 3.08999991 -0.94999999 146 36 164 0.000000 0.000000 0.000000 0.000000 -0.000107 0.000000 213.000000 0.005034 -0.025168 0.999671
-17.44000053 3.08999991 -0.94999999 146 36 164 0.000000 0.000000 0.000000 0.000000 -0.000107 0.000000 213.000000 0.005034 -0.025168 0.999671
-17.45999908 3.06999993 -0.94999999 146 36 164 0.000000 0.000000 0.000000 0.000000 -0.000107 0.000000 213.000000 -0.129925 -0.037283 0.990823
-17.45000076 3.08999991 -0.94999999 146 36 164 0.000000 0.000000 0.000000 0.000000 -0.000107 0.000000 213.000000 -0.092613 -0.054675 0.994200
-17.44000053 2.99000001 -0.88999999 146 36 164 0.000000 0.000000 0.000000 0.000000 -0.000107 0.000000 213.000000 -0.539139 0.286171 0.792108
-17.45999908 2.96000004 -0.89999998 146 36 164 0.000000 0.000000 0.000000 0.000000 -0.000107 0.000000 213.000000 0.663219 -0.334054 -0.669737
-17.54000092 3.08999991 -0.99000001 146 36 164 0.000000 0.000000 0.000000 0.000000 -0.000107 0.000000 213.000000 0.380052 -0.543165 0.748687
-17.57999992 3.09999990 -0.99000001 146 36 164 0.000000 0.000000 0.000000 0.000000 -0.000107 0.000000 213.000000 0.187571 -0.450465 0.872868
-17.47999954 3.06999993 -1.07000005 146 36 164 0.000000 0.000000 0.000000 0.000000 -0.000107 0.000000 213.000000 -0.078008 0.166817 0.982897
-17.48999977 3.08999991 -1.09000003 146 36 164 0.000000 0.000000 0.000000 0.000000 -0.000107 0.000000 213.000000 0.371195 -0.122812 0.920398
-17.48999977 3.07999992 -1.07000005 146 36 164 0.000000 0.000000 0.000000 0.000000 -0.000107 0.000000 213.000000 0.348622 0.240681 0.905834
-17.54000092 3.06999993 -1.07000005 146 36 164 0.000000 0.000000 0.000000 0.000000 -0.000107 0.000000 213.000000 0.099279 -0.047966 0.993903
-17.55999947 3.04999995 -1.08000004 146 36 164 0.000000 0.000000 0.000000 0.000000 -0.000107 0.000000 213.000000 0.028090 -0.450779 0.892194
-17.55999947 3.04999995 -1.08000004 146 36 164 0.000000 0.000000 0.000000 0.000000 -0.000107 0.000000 213.000000 0.028090 -0.450779 0.892194
-17.60000038 3.00999999 -1.07000005 146 36 164 0.000000 0.000000 0.000000 0.000000 -0.000107 0.000000 213.000000 0.523596 -0.328248 0.786194
-17.60000038 3.02999997 -1.07000005 146 36 164 0.000000 0.000000 0.000000 0.000000 -0.000107 0.000000 213.000000 0.507498 -0.217934 0.833637
-17.57999992 3.01999998 -1.07000005 146 36 164 0.000000 0.000000 0.000000 0.000000 -0.000107 0.000000 213.000000 0.012531 -0.169741 0.985409
-17.60000038 3.00000000 -1.08000004 146 36 164 0.000000 0.000000 0.000000 0.000000 -0.000107 0.000000 213.000000 0.540573 -0.149583 0.827892
-17.68000031 2.95000005 -0.88999999 146 36 164 0.000000 0.000000 0.000000 0.000000 -0.000107 0.000000 197.000000 0.413970 -0.271431 0.868881
-17.62999916 3.03999996 -1.05999994 146 36 164 0.000000 0.000000 0.000000 0.000000 -0.000107 0.000000 213.000000 0.006499 -0.412031 0.911147
-17.62000084 3.04999995 -1.05999994 146 36 164 0.000000 0.000000 0.000000 0.000000 -0.000107 0.000000 213.000000 0.177748 -0.162403 0.970583
-17.61000061 3.03999996 -1.05999994 146 36 164 0.000000 0.000000 0.000000 0.000000 -0.000107 0.000000 213.000000 0.124383 0.032496 0.991702
-17.61000061 3.00000000 -1.07000005 146 36 164 0.000000 0.000000 0.000000 0.000000 -0.000107 0.000000 213.000000 0.036242 0.178871 0.983205
-17.64999962 3.01999998 -1.08000004 146 36 164 0.000000 0.000000 0.000000 0.000000 -0.000107 0.000000 213.000000 0.496736 -0.023010 0.867597
-17.67000008 2.99000001 -1.11000001 146 36 164 0.000000 0.000000 0.000000 0.000000 -0.000107 0.000000 213.000000 0.355416 -0.500156 0.789635
-17.70000076 2.95000005 -1.08000004 146 36 164 0.000000 0.000000 0.000000 0.000000 -0.000107 0.000000 213.000000 -0.049500 -0.298271 0.953197
-17.69000053 2.95000005 -1.08000004 146 36 164 0.000000 0.000000 0.000000 0.000000 -0.000107 0.000000 213.000000 0.022871 -0.472210 0.881189
-17.28000069 2.88000011 -0.80000001 146 36 164 0.000000 0.000000 0.000000 0.000000 -0.000107 0.000000 213.000000 0.679907 -0.663758 0.311692
-17.29000092 2.86999989 -0.81000000 146 36 164 0.000000 0.000000 0.000000 0.000000 -0.000107 0.000000 213.000000 -0.617492 0.729764 -0.293509
-17.29000092 2.86999989 -0.80000001 146 36 164 0.000000 0.000000 0.000000 0.000000 -0.000107 0.000000 213.000000 0.842099 -0.539322 -0.001352
-17.28000069 2.78999996 -0.77999997 146 36 164 0.000000 0.000000 0.000000 0.000000 -0.000107 0.000000 213.000000 0.906166 -0.351668 0.234932
-17.30999947 2.79999995 -0.87000000 146 36 164 0.000000 0.000000 0.000000 0.000000 -0.000107 0.000000 213.000000 0.445934 -0.752000 -0.485427
-17.39999962 2.90000010 -0.86000001 146 36 164 0.000000 0.000000 0.000000 0.000000 -0.000107 0.000000 213.000000 -0.377761 0.920536 0.099554
-17.36000061 2.73000002 -0.86000001 146 36 164 0.000000 0.000000 0.000000 0.000000 -0.000107 0.000000 119.000000 -0.422247 0.906319 0.017100
-17.42000008 2.68000007 -0.77999997 146 36 164 0.000000 0.000000 0.000000 0.000000 -0.000107 0.000000 119.000000 0.792031 -0.459733 0.401661
-17.39999962 2.67000008 -0.82999998 146 36 164 0.000000 0.000000 0.000000 0.000000 -0.000107 0.000000 119.000000 -0.659113 0.632549 0.406757
-17.38999939 2.60999990 -0.88000000 146 36 164 0.000000 0.000000 0.000000 0.000000 -0.000107 0.000000 119.000000 -0.383956 0.904525 0.185507
-17.45999908 2.91000009 -0.88000000 146 36 164 0.000000 0.000000 0.000000 0.000000 -0.000107 0.000000 213.000000 -0.280160 0.677187 0.680389
-17.46999931 2.65000010 -0.79000002 146 36 164 0.000000 0.000000 0.000000 0.000000 -0.000107 0.000000 119.000000 0.880971 -0.370219 0.294665
-17.45999908 2.66000009 -0.76999998 146 36 164 0.000000 0.000000 0.000000 0.000000 -0.000107 0.000000 119.000000 -0.410025 0.861513 -0.299457
-17.46999931 2.65000010 -0.77999997 146 36 164 0.000000 0.000000 0.000000 0.000000 -0.000107 0.000000 119.000000 0.824491 -0.475849 0.306239
-17.45999908 2.67000008 -0.75999999 146 36 164 0.000000 0.000000 0.000000 0.000000 -0.000107 0.000000 119.000000 0.754231 -0.609970 0.243047
-17.45000076 2.66000009 -0.75999999 146 36 164 0.000000 0.000000 0.000000 0.000000 -0.000107 0.000000 119.000000 -0.690128 0.664509 -0.286619
-17.44000053 2.63000011 -0.87000000 146 36 164 0.000000 0.000000 0.000000 0.000000 -0.000107 0.000000 119.000000 -0.530812 0.829862 -0.171953
-17.46999931 2.64000010 -0.86000001 146 36 164 0.000000 0.000000 0.000000 0.000000 -0.000107 0.000000 119.000000 -0.738508 0.600139 0.307310
-17.47999954 2.64000010 -0.82999998 146 36 164 0.000000 0.000000 0.000000 0.000000 -0.000107 0.000000 119.000000 -0.490645 0.753197 0.438134
-17.47999954 2.63000011 -0.85000002 146 36 164 0.000000 0.000000 0.000000 0.000000 -0.000107 0.000000 119.000000 0.728971 -0.684025 0.026687
-17.67000008 2.90000010 -0.87000000 146 36 164 0.000000 0.000000 0.000000 0.000000 -0.000107 0.000000 197.000000 0.311993 -0.128309 0.941381
-17.34000015 2.90000010 -0.93000001 146 36 164 0.000000 0.000000 0.000000 0.000000 -0.000107 0.000000 213.000000 0.782399 -0.547520 -0.296772
-17.29999924 2.83999991 -0.89999998 146 36 164 0.000000 0.000000 0.000000 0.000000 -0.000107 0.000000 213.000000 0.737734 -0.644937 -0.199513
-17.29999924 2.84999990 -0.91000003 146 36 164 0.000000 0.000000 0.000000 0.000000 -0.000107 0.000000 213.000000 -0.647941 0.760872 -0.035291
-17.31999969 2.77999997 -0.98000002 146 36 164 0.000000 0.000000 0.000000 0.000000 -0.000107 0.000000 119.000000 -0.513969 0.377776 0.770144
-17.30999947 2.78999996 -1.00000000 146 36 164 0.000000 0.000000 0.000000 0.000000 -0.000107 0.000000 119.000000 -0.554247 0.749290 0.362455
-17.36000061 2.82999992 -1.03999996 146 36 164 0.000000 0.000000 0.000000 0.000000 -0.000107 0.000000 119.000000 -0.262408 0.691803 0.672719
-17.36000061 2.78999996 -1.00000000 146 36 164 0.000000 0.000000 0.000000 0.000000 -0.000107 0.000000 119.000000 0.701960 -0.511881 -0.495207
-17.36000061 2.78999996 -1.01999998 146 36 164 0.000000 0.000000 0.000000 0.000000 -0.000107 0.000000 119.000000 -0.183691 0.575362 0.797005
-17.43000031 2.84999990 -1.00000000 146 36 164 0.000000 0.000000 0.000000 0.000000 -0.000107 0.000000 119.000000 -0.512206 0.235338 0.825991
-17.30999947 2.71000004 -1.00000000 146 36 164 0.000000 0.000000 0.000000 0.000000 -0.000107 0.000000 119.000000 -0.493155 0.479871 0.725618
-17.29999924 2.66000009 -0.95999998 146 36 164 0.000000 0.000000 0.000000 0.000000 -0.000107 0.000000 119.000000 0.806186 -0.424730 -0.411908
-17.31999969 2.67000008 -0.92000002 146 36 164 0.000000 0.000000 0.000000 0.000000 -0.000107 0.000000 119.000000 0.792409 -0.582520 -0.180992
-17.42000008 2.70000005 -0.88999999 146 36 164 0.000000 0.000000 0.000000 0.000000 -0.000107 0.000000 119.000000 0.738383 -0.672938 -0.044104
-17.37000084 2.76999998 -0.93000001 146 36 164 0.000000 0.000000 0.000000 0.000000 -0.000107 0.000000 119.000000 0.820887 -0.463430 -0.333733
-17.36000061 2.73000002 -0.89999998 146 36 164 0.000000 0.000000 0.000000 0.000000 -0.000107 0.000000 119.000000 -0.543261 0.806379 0.233711
-17.37000084 2.76999998 -0.98000002 146 36 164 0.000000 0.000000 0.000000 0.000000 -0.000107 0.000000 119.000000 0.690037 -0.237348 -0.683750
-17.35000038 2.64000010 -0.89999998 146 36 164 0.000000 0.000000 0.000000 0.000000 -0.000107 0.000000 119.000000 0.705066 -0.670520 -0.230835
-17.45999908 2.81999993 -0.99000001 146 36 164 0.000000 0.000000 0.000000 0.000000 -0.000107 0.000000 126.000000 -0.295790 0.756264 0.583586
-17.45000076 2.81999993 -0.99000001 146 36 164 0.000000 0.000000 0.000000 0.000000 -0.000107 0.000000 126.000000 -0.374923 0.735111 0.564840
-17.45000076 2.81999993 -1.01999998 146 36 164 0.000000 0.000000 0.000000 0.000000 -0.000107 0.000000 126.000000 0.601974 -0.474536 -0.642217
-17.51000023 2.81999993 -1.00000000 146 36 164 0.000000 0.000000 0.000000 0.000000 -0.000107 0.000000 126.000000 0.657957 -0.453706 -0.601035
-17.47999954 2.83999991 -1.00999999 146 36 164 0.000000 0.000000 0.000000 0.000000 -0.000107 0.000000 126.000000 -0.055548 0.240709 0.969007
-17.51000023 2.84999990 -1.02999997 146 36 164 0.000000 0.000000 0.000000 0.000000 -0.000107 0.000000 126.000000 -0.345223 0.254143 0.903456
-17.51000023 2.85999990 -1.02999997 146 36 164 0.000000 0.000000 0.000000 0.000000 -0.000107 0.000000 126.000000 -0.421479 0.089823 0.902379
-17.50000000 2.85999990 -1.01999998 146 36 164 0.000000 0.000000 0.000000 0.000000 -0.000107 0.000000 126.000000 -0.452020 0.105612 0.885734
-17.51000023 2.83999991 -1.01999998 146 36 164 0.000000 0.000000 0.000000 0.000000 -0.000107 0.000000 126.000000 -0.021663 0.342788 0.939163
-17.50000000 2.77999997 -1.00999999 146 36 164 0.000000 0.000000 0.000000 0.000000 -0.000107 0.000000 126.000000 -0.266083 0.240742 0.933404
-17.57999992 2.90000010 -1.04999995 146 36 164 0.000000 0.000000 0.000000 0.000000 -0.000107 0.000000 126.000000 -0.264219 0.053846 0.962959
-17.59000015 2.88000011 -1.04999995 146 36 164 0.000000 0.000000 0.000000 0.000000 -0.000107 0.000000 126.000000 -0.237270 0.142886 0.960878
-17.56999969 2.81999993 -0.99000001 146 36 164 0.000000 0.000000 0.000000 0.000000 -0.000107 0.000000 126.000000 0.113805 0.431335 0.894985
-17.57999992 2.83999991 -1.02999997 146 36 164 0.000000 0.000000 0.000000 0.000000 -0.000107 0.000000 126.000000 0.117166 0.433373 0.893566
-17.56999969 2.82999992 -1.02999997 146 36 164 0.000000 0.000000 0.000000 0.000000 -0.000107 0.000000 126.000000 -0.157797 0.393783 0.905558
-17.59000015 2.83999991 -1.03999996 146 36 164 0.000000 0.000000 0.000000 0.000000 -0.000107 0.000000 126.000000 -0.094890 -0.152544 0.983731
-17.56999969 2.81999993 -1.03999996 146 36 164 0.000000 0.000000 0.000000 0.000000 -0.000107 0.000000 126.000000 0.042034 0.065745 0.996951
-17.59000015 2.83999991 -1.02999997 146 36 164 0.000000 0.000000 0.000000 0.000000 -0.000107 0.000000 126.000000 -0.080222 0.084741 0.993168
-17.57999992 2.83999991 -1.04999995 146 36 164 0.000000 0.000000 0.000000 0.000000 -0.000107 0.000000 126.000000 0.016538 0.347308 0.937605
-17.56999969 2.82999992 -1.03999996 146 36 164 0.000000 0.000000 0.000000 0.000000 -0.000107 0.000000 126.000000 -0.300147 0.194049 0.933947
-17.57999992 2.82999992 -1.03999996 146 36 164 0.000000 0.000000 0.000000 0.000000 -0.000107 0.000000 126.000000 0.146282 0.459124 0.876246
-17.60000038 2.90000010 -1.07000005 146 36 164 0.000000 0.000000 0.000000 0.000000 -0.000107 0.000000 126.000000 -0.158777 0.146275 0.976419
-17.59000015 2.86999989 -1.07000005 146 36 164 0.000000 0.000000 0.000000 0.000000 -0.000107 0.000000 126.000000 0.207247 0.369566 0.905798
-17.60000038 2.90000010 -1.05999994 146 36 164 0.000000 0.000000 0.000000 0.000000 -0.000107 0.000000 126.000000 -0.283213 -0.097885 0.954049
-17.57999992 2.89000010 -1.07000005 146 36 164 0.000000 0.000000 0.000000 0.000000 -0.000107 0.000000 126.000000 -0.176279 -0.150915 0.972703
-17.57999992 2.88000011 -1.05999994 146 36 164 0.000000 0.000000 0.000000 0.000000 -0.000107 0.000000 126.000000 -0.195845 0.167312 0.966256
-17.60000038 2.89000010 -1.07000005 146 36 164 0.000000 0.000000 0.000000 0.000000 -0.000107 0.000000 126.000000 -0.087237 0.049692 0.994947
-17.52000046 2.82999992 -1.07000005 146 36 164 0.000000 0.000000 0.000000 0.000000 -0.000107 0.000000 126.000000 0.059412 0.048610 0.997049
-17.57999992 2.85999990 -1.05999994 146 36 164 0.000000 0.000000 0.000000 0.000000 -0.000107 0.000000 126.000000 -0.011783 0.420274 0.907321
-17.55999947 2.77999997 -1.08000004 146 36 164 0.000000 0.000000 0.000000 0.000000 -0.000107 0.000000 126.000000 -0.061571 -0.046448 0.997021
-17.61000061 2.83999991 -1.04999995 146 36 164 0.000000 0.000000 0.000000 0.000000 -0.000107 0.000000 126.000000 -0.377228 -0.035243 0.925449
-17.62000084 2.84999990 -1.04999995 146 36 164 0.000000 0.000000 0.000000 0.000000 -0.000107 0.000000 126.000000 -0.182324 0.307585 0.933889
-17.61000061 2.82999992 -1.04999995 146 36 164 0.000000 0.000000 0.000000 0.000000 -0.000107 0.000000 126.000000 -0.320679 0.021379 0.946947
-17.63999939 2.78999996 -1.03999996 146 36 164 0.000000 0.000000 0.000000 0.000000 -0.000107 0.000000 126.000000 -0.173777 0.500539 0.848093
-17.62000084 2.80999994 -1.04999995 146 36 164 0.000000 0.000000 0.000000 0.000000 -0.000107 0.000000 126.000000 0.111251 0.527358 0.842328
-17.65999985 2.83999991 -1.04999995 146 36 164 0.000000 0.000000 0.000000 0.000000 -0.000107 0.000000 126.000000 0.270989 -0.175666 0.946418
-17.67000008 2.82999992 -1.04999995 146 36 164 0.000000 0.000000 0.000000 0.000000 -0.000107 0.000000 126.000000 0.447572 0.028057 0.893808
-17.69000053 2.88000011 -0.94999999 146 36 164 0.000000 0.000000 0.000000 0.000000 -0.000107 0.000000 197.000000 0.116767 -0.163474 0.979613
-17.70000076 2.85999990 -0.88999999 146 36 164 0.000000 0.000000 0.000000 0.000000 -0.000107 0.000000 197.000000 0.332981 -0.401125 0.853359
-17.70999908 2.79999995 -0.95999998 146 36 164 0.000000 0.000000 0.000000 0.000000 -0.000107 0.000000 197.000000 0.036746 0.312972 0.949051
-17.73999977 2.82999992 -0.94000000 146 36 164 0.000000 0.000000 0.000000 0.000000 -0.000107 0.000000 197.000000 0.479000 -0.385458 0.788657
-17.77000046 2.77999997 -0.94999999 146 36 164 0.000000 0.000000 0.000000 0.000000 -0.000107 0.000000 197.000000 0.259197 -0.099295 0.960707
-17.77000046 2.77999997 -0.94999999 146 36 164 0.000000 0.000000 0.000000 0.000000 -0.000107 0.000000 197.000000 0.259197 -0.099295 0.960707
-17.73999977 2.77999997 -0.95999998 146 36 164 0.000000 0.000000 0.000000 0.000000 -0.000107 0.000000 197.000000 -0.143277 0.023691 0.989399
-17.75000000 2.77999997 -0.95999998 146 36 164 0.000000 0.000000 0.000000 0.000000 -0.000107 0.000000 197.000000 -0.071302 0.139097 0.987708
-17.77000046 2.77999997 -0.95999998 146 36 164 0.000000 0.000000 0.000000 0.000000 -0.000107 0.000000 197.000000 0.185518 0.201307 0.961800
-17.62000084 2.90000010 -1.07000005 146 36 164 0.000000 0.000000 0.000000 0.000000 -0.000107 0.000000 126.000000 -0.288794 -0.095393 0.952627
-17.68000031 2.94000006 -1.08000004 146 36 164 0.000000 0.000000 0.000000 0.000000 -0.000107 0.000000 213.000000 -0.065212 -0.220245 0.973262
-17.61000061 2.90000010 -1.07000005 146 36 164 0.000000 0.000000 0.000000 0.000000 -0.000107 0.000000 126.000000 -0.206063 -0.049407 0.977291
-17.61000061 2.88000011 -1.05999994 146 36 164 0.000000 0.000000 0.000000 0.000000 -0.000107 0.000000 126.000000 -0.069323 0.255866 0.964224
-17.62000084 2.89000010 -1.07000005 146 36 164 0.000000 0.000000 0.000000 0.000000 -0.000107 0.000000 126.000000 -0.234053 0.201584 0.951096
-17.64999962 2.84999990 -1.05999994 146 36 164 0.000000 0.000000 0.000000 0.000000 -0.000107 0.000000 126.000000 -0.180403 0.180403 0.966907
-17.63999939 2.82999992 -1.05999994 146 36 164 0.000000 0.000000 0.000000 0.000000 -0.000107 0.000000 126.000000 -0.131881 -0.030434 0.990798
-17.63999939 2.83999991 -1.05999994 146 36 164 0.000000 0.000000 0.000000 0.000000 -0.000107 0.000000 126.000000 -0.157367 -0.236712 0.958751
-17.70999908 2.93000007 -1.09000003 146 36 164 0.000000 0.000000 0.000000 0.000000 -0.000107 0.000000 213.000000 0.460525 0.088186 0.883256
