//X Y Z R G B PointSourceId ScanDirectionFlag NumberOfReturns ReturnNumber GpsTime Intensity Classification Nx Ny Nz
-10.31999969 7.94000006 0.43000001 153 57 150 0.000000 0.000000 0.000000 0.000000 0.000000 0.000000 160.000000 0.921965 -0.166992 -0.349420
-10.35999966 8.00000000 0.46000001 153 57 150 0.000000 0.000000 0.000000 0.000000 0.000000 0.000000 160.000000 0.862651 0.004025 -0.505784
-10.38000011 7.98999977 0.43000001 153 57 150 0.000000 0.000000 0.000000 0.000000 0.000000 0.000000 160.000000 0.994356 -0.100429 -0.034212
-10.35000038 7.94000006 0.47000000 153 57 150 0.000000 0.000000 0.000000 0.000000 0.000000 0.000000 160.000000 0.880224 0.259419 -0.397375
-10.35000038 7.94000006 0.47000000 153 57 150 0.000000 0.000000 0.000000 0.000000 0.000000 0.000000 160.000000 0.880224 0.259419 -0.397375
-10.35999966 7.96000004 0.44999999 153 57 150 0.000000 0.000000 0.000000 0.000000 0.000000 0.000000 160.000000 0.957807 -0.049086 -0.283189
-10.35999966 7.94999981 0.44999999 153 57 150 0.000000 0.000000 0.000000 0.000000 0.000000 0.000000 160.000000 0.994616 0.101536 -0.020744
-10.35999966 7.94999981 0.46000001 153 57 150 0.000000 0.000000 0.000000 0.000000 0.000000 0.000000 160.000000 0.962786 0.206217 -0.174694
-10.30000019 7.98000002 0.40000001 153 57 150 0.000000 0.000000 0.000000 0.000000 0.000000 0.000000 160.000000 0.815855 -0.189206 -0.546426
-10.31999969 7.98999977 0.34999999 153 57 150 0.000000 0.000000 0.000000 0.000000 0.000000 0.000000 160.000000 0.999296 -0.011251 0.035799
-10.31999969 7.98000002 0.34999999 153 57 150 0.000000 0.000000 0.000000 0.000000 0.000000 0.000000 160.000000 0.991772 0.124392 -0.030257
-10.31999969 7.98999977 0.34000000 153 57 150 0.000000 0.000000 0.000000 0.000000 0.000000 0.000000 160.000000 0.999702 -0.015132 0.019167
-10.30000019 7.96999979 0.40000001 153 57 150 0.000000 0.000000 0.000000 0.000000 0.000000 0.000000 160.000000 0.962826 -0.056342 -0.264182
-10.34000015 7.96000004 0.37000000 153 57 150 0.000000 0.000000 0.000000 0.000000 0.000000 0.000000 160.000000 0.898782 -0.081207 -0.430810
-10.31999969 7.94999981 0.34999999 153 57 150 0.000000 0.000000 0.000000 0.000000 0.000000 0.000000 160.000000 0.840190 0.145672 -0.522360
-10.30000019 7.94000006 0.34000000 153 57 150 0.000000 0.000000 0.000000 0.000000 0.000000 0.000000 160.000000 0.876814 0.112266 -0.467539
-10.30000019 7.94000006 0.34000000 153 57 150 0.000000 0.000000 0.000000 0.000000 0.000000 0.000000 160.000000 0.876814 0.112266 -0.467539
-10.31999969 7.96000004 0.34999999 153 57 150 0.000000 0.000000 0.000000 0.000000 0.000000 0.000000 160.000000 0.946101 0.121432 -0.300244
-10.38000011 8.01000023 0.38999999 153 57 150 0.000000 0.000000 0.000000 0.000000 0.000000 0.000000 160.000000 0.893224 -0.215606 -0.394544
-10.36999989 7.98000002 0.36000001 153 57 150 0.000000 0.000000 0.000000 0.000000 0.000000 0.000000 160.000000 0.958911 0.067314 -0.275607
-10.36999989 7.96999979 0.38000000 153 57 150 0.000000 0.000000 0.000000 0.000000 0.000000 0.000000 160.000000 0.768105 0.371873 -0.521272
-10.36999989 7.94000006 0.37000000 153 57 150 0.000000 0.000000 0.000000 0.000000 0.000000 0.000000 160.000000 0.966292 -0.151347 -0.208264
-10.38000011 7.96999979 0.34999999 153 57 150 0.000000 0.000000 0.000000 0.000000 0.000000 0.000000 160.000000 0.998750 -0.017668 0.046768
-10.28999996 8.09000015 0.31999999 153 57 150 0.000000 0.000000 0.000000 0.000000 0.000000 0.000000 160.000000 -0.612913 0.707710 0.351403
-10.27000046 8.02000046 0.25000000 153 57 150 0.000000 0.000000 0.000000 0.000000 0.000000 0.000000 160.000000 0.866524 -0.498826 0.017574
-10.25000000 8.06999969 0.20000000 153 57 150 0.000000 0.000000 0.000000 0.000000 0.000000 0.000000 160.000000 0.581111 -0.703624 -0.408930
-10.22000027 8.06999969 0.22000000 153 57 150 0.000000 0.000000 0.000000 0.000000 0.000000 0.000000 160.000000 0.690173 -0.492981 -0.529746
-10.23999977 8.03999996 0.20999999 153 57 150 0.000000 0.000000 0.000000 0.000000 0.000000 0.000000 160.000000 0.799672 -0.544026 -0.254087
-10.22000027 8.02000046 0.18000001 153 57 150 0.000000 0.000000 0.000000 0.000000 0.000000 0.000000 160.000000 0.829594 -0.191910 -0.524352
-10.25000000 7.98999977 0.30000001 153 57 150 0.000000 0.000000 0.000000 0.000000 0.000000 0.000000 160.000000 0.815712 -0.293908 -0.498229
-10.25000000 7.98000002 0.31999999 153 57 150 0.000000 0.000000 0.000000 0.000000 0.000000 0.000000 160.000000 0.732958 -0.202997 -0.649280
-10.22999954 8.01000023 0.28999999 153 57 150 0.000000 0.000000 0.000000 0.000000 0.000000 0.000000 160.000000 0.979993 0.073711 -0.184881
-10.25000000 8.01000023 0.27000001 153 57 150 0.000000 0.000000 0.000000 0.000000 0.000000 0.000000 160.000000 0.990168 0.021354 -0.138241
-10.25000000 7.96999979 0.30000001 153 57 150 0.000000 0.000000 0.000000 0.000000 0.000000 0.000000 160.000000 0.925192 0.113428 -0.362151
-10.22999954 7.96000004 0.25000000 153 57 150 0.000000 0.000000 0.000000 0.000000 0.000000 0.000000 160.000000 0.852799 0.433339 -0.291463
-10.27000046 7.98999977 0.28000000 153 57 150 0.000000 0.000000 0.000000 0.000000 0.000000 0.000000 160.000000 0.985875 0.069661 -0.152309
-10.27999973 7.98999977 0.25999999 153 57 150 0.000000 0.000000 0.000000 0.000000 0.000000 0.000000 160.000000 0.718925 -0.186274 -0.669663
-10.28999996 7.98999977 0.23999999 153 57 150 0.000000 0.000000 0.000000 0.000000 0.000000 0.000000 160.000000 0.804009 0.046466 -0.592798
-10.27999973 7.96999979 0.31000000 153 57 150 0.000000 0.000000 0.000000 0.000000 0.000000 0.000000 160.000000 0.969985 -0.065657 -0.234134
-10.27999973 7.96000004 0.28000000 153 57 150 0.000000 0.000000 0.000000 0.000000 0.000000 0.000000 160.000000 0.977343 0.041972 -0.207460
-10.27000046 7.94000006 0.28999999 153 57 150 0.000000 0.000000 0.000000 0.000000 0.000000 0.000000 160.000000 0.910585 0.356441 -0.209247
-10.26000023 7.92999983 0.30000001 153 57 150 0.000000 0.000000 0.000000 0.000000 0.000000 0.000000 160.000000 0.793494 0.603401 -0.079205
-10.27999973 7.96999979 0.25000000 153 57 150 0.000000 0.000000 0.000000 0.000000 0.000000 0.000000 160.000000 0.774158 -0.100977 -0.624887
-10.23999977 7.98999977 0.20000000 153 57 150 0.000000 0.000000 0.000000 0.000000 0.000000 0.000000 160.000000 0.778256 -0.245848 -0.577820
-10.22999954 8.01000023 0.16000000 153 57 150 0.000000 0.000000 0.000000 0.000000 0.000000 0.000000 160.000000 0.875729 -0.012033 -0.482654
-10.22000027 7.98000002 0.15000001 153 57 150 0.000000 0.000000 0.000000 0.000000 0.000000 0.000000 160.000000 0.884621 0.226712 -0.407489
-10.25000000 7.94000006 0.20000000 153 57 150 0.000000 0.000000 0.000000 0.000000 0.000000 0.000000 160.000000 0.862685 0.489866 -0.125718
-10.22999954 7.94999981 0.15000001 153 57 150 0.000000 0.000000 0.000000 0.000000 0.000000 0.000000 160.000000 0.875871 0.149115 -0.458928
-10.25000000 7.92999983 0.17000000 153 57 150 0.000000 0.000000 0.000000 0.000000 0.000000 0.000000 160.000000 0.893781 0.427707 -0.134991
-10.22999954 7.96000004 0.15000001 153 57 150 0.000000 0.000000 0.000000 0.000000 0.000000 0.000000 160.000000 0.890285 0.050291 -0.452618
-10.22999954 7.94999981 0.16000000 153 57 150 0.000000 0.000000 0.000000 0.000000 0.000000 0.000000 160.000000 0.967383 0.137829 -0.212541
-10.22999954 7.96999979 0.15000001 153 57 150 0.000000 0.000000 0.000000 0.000000 0.000000 0.000000 160.000000 0.839210 -0.263312 -0.475809
-10.27999973 7.94000006 0.23000000 153 57 150 0.000000 0.000000 0.000000 0.000000 0.000000 0.000000 160.000000 0.938929 -0.154438 -0.307509
-10.26000023 7.94999981 0.17000000 153 57 150 0.000000 0.000000 0.000000 0.000000 0.000000 0.000000 160.000000 0.892731 0.178546 -0.413705
-10.26000023 7.94999981 0.17000000 153 57 150 0.000000 0.000000 0.000000 0.000000 0.000000 0.000000 160.000000 0.892731 0.178546 -0.413705
-10.26000023 7.94000006 0.17000000 153 57 150 0.000000 0.000000 0.000000 0.000000 0.000000 0.000000 160.000000 0.822972 0.176029 -0.540122
-10.26000023 7.96000004 0.18000001 153 57 150 0.000000 0.000000 0.000000 0.000000 0.000000 0.000000 160.000000 0.890213 -0.263933 -0.371295
-10.26000023 7.94999981 0.18000001 153 57 150 0.000000 0.000000 0.000000 0.000000 0.000000 0.000000 160.000000 0.885271 0.336312 -0.321231
-10.32999992 8.10000038 0.31000000 153 57 150 0.000000 0.000000 0.000000 0.000000 0.000000 0.000000 160.000000 0.988549 -0.145476 -0.040092
-10.31999969 8.07999992 0.25000000 153 57 150 0.000000 0.000000 0.000000 0.000000 0.000000 0.000000 160.000000 0.950495 -0.257510 -0.173920
-10.31999969 8.02000046 0.31000000 153 57 150 0.000000 0.000000 0.000000 0.000000 0.000000 0.000000 160.000000 0.715372 -0.350353 -0.604563
-10.38000011 8.09000015 0.31999999 153 57 150 0.000000 0.000000 0.000000 0.000000 0.000000 0.000000 160.000000 0.837434 -0.026127 -0.545914
-10.38000011 8.02999973 0.30000001 153 57 150 0.000000 0.000000 0.000000 0.000000 0.000000 0.000000 160.000000 0.896652 -0.334571 -0.289962
-10.35000038 8.05000019 0.28000000 153 57 150 0.000000 0.000000 0.000000 0.000000 0.000000 0.000000 160.000000 0.699061 -0.515537 -0.495516
-10.38000011 8.03999996 0.28000000 153 57 150 0.000000 0.000000 0.000000 0.000000 0.000000 0.000000 160.000000 0.878600 -0.445878 -0.171042
-10.35999966 8.02999973 0.27000001 153 57 150 0.000000 0.000000 0.000000 0.000000 0.000000 0.000000 160.000000 0.807336 -0.511470 -0.294292
-10.30000019 8.06999969 0.23000000 153 57 150 0.000000 0.000000 0.000000 0.000000 0.000000 0.000000 160.000000 0.851110 -0.142096 -0.505392
-10.31999969 8.10000038 0.20000000 153 57 150 0.000000 0.000000 0.000000 0.000000 0.000000 0.000000 160.000000 -0.656555 0.565880 0.498713
-10.30000019 8.02999973 0.23000000 153 57 150 0.000000 0.000000 0.000000 0.000000 0.000000 0.000000 160.000000 0.906381 0.066586 -0.417180
-10.34000015 8.02999973 0.17000000 153 57 150 0.000000 0.000000 0.000000 0.000000 0.000000 0.000000 160.000000 0.798179 -0.556401 -0.230929
-10.30000019 8.05000019 0.17000000 153 57 150 0.000000 0.000000 0.000000 0.000000 0.000000 0.000000 160.000000 0.747974 -0.645222 -0.155639
-10.36999989 8.02999973 0.20999999 153 57 150 0.000000 0.000000 0.000000 0.000000 0.000000 0.000000 160.000000 0.771107 -0.273925 -0.574768
-10.36999989 8.02000046 0.18000001 153 57 150 0.000000 0.000000 0.000000 0.000000 0.000000 0.000000 160.000000 0.777947 -0.228260 -0.585402
-10.35000038 8.05000019 0.15000001 153 57 150 0.000000 0.000000 0.000000 0.000000 0.000000 0.000000 160.000000 0.828565 -0.550931 -0.099775
-10.35000038 8.03999996 0.15000001 153 57 150 0.000000 0.000000 0.000000 0.000000 0.000000 0.000000 160.000000 0.895793 -0.443210 -0.033475
-10.34000015 7.94000006 0.31999999 153 57 150 0.000000 0.000000 0.000000 0.000000 0.000000 0.000000 160.000000 0.880057 0.161465 -0.446574
-10.34000015 7.94000006 0.31999999 153 57 150 0.000000 0.000000 0.000000 0.000000 0.000000 0.000000 160.000000 0.880057 0.161465 -0.446574
-10.32999992 7.92999983 0.25999999 153 57 150 0.000000 0.000000 0.000000 0.000000 0.000000 0.000000 160.000000 0.930643 0.001266 -0.365926
-10.38000011 8.00000000 0.31999999 153 57 150 0.000000 0.000000 0.000000 0.000000 0.000000 0.000000 160.000000 0.771761 -0.419329 -0.478068
-10.36999989 8.00000000 0.25999999 153 57 150 0.000000 0.000000 0.000000 0.000000 0.000000 0.000000 160.000000 0.986927 -0.150667 0.057230
-10.35999966 7.98999977 0.23999999 153 57 150 0.000000 0.000000 0.000000 0.000000 0.000000 0.000000 160.000000 0.809767 -0.328027 -0.486494
-10.36999989 7.96000004 0.28999999 153 57 150 0.000000 0.000000 0.000000 0.000000 0.000000 0.000000 160.000000 0.998099 -0.005204 0.061405
-10.38000011 7.92999983 0.28999999 153 57 150 0.000000 0.000000 0.000000 0.000000 0.000000 0.000000 160.000000 0.964818 0.030649 -0.261126
-10.35999966 7.96999979 0.30000001 153 57 150 0.000000 0.000000 0.000000 0.000000 0.000000 0.000000 160.000000 0.857541 0.341471 -0.384735
-10.38000011 7.96000004 0.27000001 153 57 150 0.000000 0.000000 0.000000 0.000000 0.000000 0.000000 160.000000 -0.722887 0.092377 0.684763
-10.35000038 7.96999979 0.25999999 153 57 150 0.000000 0.000000 0.000000 0.000000 0.000000 0.000000 160.000000 0.861926 -0.056907 -0.503831
-10.34000015 7.96000004 0.23000000 153 57 150 0.000000 0.000000 0.000000 0.000000 0.000000 0.000000 160.000000 0.998437 0.049344 0.026247
-10.34000015 7.92999983 0.18000001 153 57 150 0.000000 0.000000 0.000000 0.000000 0.000000 0.000000 160.000000 0.793702 0.441305 -0.418674
-10.34000015 7.92999983 0.18000001 153 57 150 0.000000 0.000000 0.000000 0.000000 0.000000 0.000000 160.000000 0.793702 0.441305 -0.418674
-10.38000011 7.98000002 0.22000000 153 57 150 0.000000 0.000000 0.000000 0.000000 0.000000 0.000000 160.000000 0.998783 0.009277 0.048445
-10.35999966 7.98000002 0.20000000 153 57 150 0.000000 0.000000 0.000000 0.000000 0.000000 0.000000 160.000000 0.998809 -0.036529 0.032354
-10.36999989 7.98000002 0.23000000 153 57 150 0.000000 0.000000 0.000000 0.000000 0.000000 0.000000 160.000000 0.769815 0.046784 -0.636550
-10.36999989 8.00000000 0.20999999 153 57 150 0.000000 0.000000 0.000000 0.000000 0.000000 0.000000 160.000000 0.818580 -0.323331 -0.474745
-10.36999989 8.01000023 0.23000000 153 57 150 0.000000 0.000000 0.000000 0.000000 0.000000 0.000000 160.000000 0.932886 -0.254679 -0.254679
-10.38000011 7.96999979 0.22000000 153 57 150 0.000000 0.000000 0.000000 0.000000 0.000000 0.000000 160.000000 0.955534 0.003670 -0.294858
-10.38000011 7.96000004 0.23000000 153 57 150 0.000000 0.000000 0.000000 0.000000 0.000000 0.000000 160.000000 0.915402 -0.271284 -0.297397
-10.36999989 7.92999983 0.23000000 153 57 150 0.000000 0.000000 0.000000 0.000000 0.000000 0.000000 160.000000 0.795118 -0.116108 -0.595236
-10.38000011 7.96000004 0.23000000 153 57 150 0.000000 0.000000 0.000000 0.000000 0.000000 0.000000 160.000000 0.915402 -0.271284 -0.297397
-10.38000011 7.96000004 0.15000001 153 57 150 0.000000 0.000000 0.000000 0.000000 0.000000 0.000000 160.000000 0.881543 0.198678 -0.428262
-10.38000011 7.96000004 0.15000001 153 57 150 0.000000 0.000000 0.000000 0.000000 0.000000 0.000000 160.000000 0.881543 0.198678 -0.428262
-10.38000011 7.90999985 0.46000001 153 57 150 0.000000 0.000000 0.000000 0.000000 0.000000 0.000000 160.000000 0.707153 0.470881 -0.527453
-10.38000011 7.90999985 0.47000000 153 57 150 0.000000 0.000000 0.000000 0.000000 0.000000 0.000000 160.000000 0.952468 0.156735 -0.261225
-10.38000011 7.92000008 0.47000000 153 57 150 0.000000 0.000000 0.000000 0.000000 0.000000 0.000000 160.000000 0.818102 -0.026301 -0.574471
-10.38000011 7.90999985 0.34000000 153 57 150 0.000000 0.000000 0.000000 0.000000 0.000000 0.000000 160.000000 0.993635 -0.038944 -0.105706
-10.28999996 7.92000008 0.28000000 153 57 150 0.000000 0.000000 0.000000 0.000000 0.000000 0.000000 160.000000 0.977291 0.204156 -0.056777
-10.28999996 7.90000010 0.30000001 153 57 150 0.000000 0.000000 0.000000 0.000000 0.000000 0.000000 160.000000 0.771844 0.635555 -0.018079
-10.28999996 7.92000008 0.28000000 153 57 150 0.000000 0.000000 0.000000 0.000000 0.000000 0.000000 160.000000 0.977291 0.204156 -0.056777
-10.28999996 7.88000011 0.25000000 153 57 150 0.000000 0.000000 0.000000 0.000000 0.000000 0.000000 160.000000 0.880464 0.474096 -0.003984
-10.22999954 7.90999985 0.20999999 153 57 150 0.000000 0.000000 0.000000 0.000000 0.000000 0.000000 160.000000 0.903464 0.389251 -0.179544
-10.23999977 7.90000010 0.16000000 153 57 150 0.000000 0.000000 0.000000 0.000000 0.000000 0.000000 160.000000 0.865174 0.272173 -0.421183
-10.28999996 7.92000008 0.22000000 153 57 150 0.000000 0.000000 0.000000 0.000000 0.000000 0.000000 160.000000 0.821942 0.554333 -0.130864
-10.28999996 7.92000008 0.22000000 153 57 150 0.000000 0.000000 0.000000 0.000000 0.000000 0.000000 160.000000 0.821942 0.554333 -0.130864
-10.28999996 7.88000011 0.23000000 153 57 150 0.000000 0.000000 0.000000 0.000000 0.000000 0.000000 160.000000 0.972722 0.215468 -0.085938
-10.28999996 7.86999989 0.15000001 153 57 150 0.000000 0.000000 0.000000 0.000000 0.000000 0.000000 160.000000 0.438101 0.817257 -0.374377
-10.28999996 7.88000011 0.17000000 153 57 150 0.000000 0.000000 0.000000 0.000000 0.000000 0.000000 160.000000 0.859132 0.508239 -0.059875
-10.32999992 7.92000008 0.31000000 153 57 150 0.000000 0.000000 0.000000 0.000000 0.000000 0.000000 160.000000 0.961665 0.161371 -0.221721
-10.32999992 7.92000008 0.31000000 153 57 150 0.000000 0.000000 0.000000 0.000000 0.000000 0.000000 160.000000 0.961665 0.161371 -0.221721
-10.31000042 7.90999985 0.27000001 153 57 150 0.000000 0.000000 0.000000 0.000000 0.000000 0.000000 160.000000 0.997063 0.071754 -0.026774
-10.30000019 7.92000008 0.20000000 153 57 150 0.000000 0.000000 0.000000 0.000000 0.000000 0.000000 160.000000 0.795706 0.220944 -0.563947
-10.34000015 7.92000008 0.20999999 153 57 150 0.000000 0.000000 0.000000 0.000000 0.000000 0.000000 160.000000 0.660990 0.323187 -0.677231
-10.31000042 7.90999985 0.17000000 153 57 150 0.000000 0.000000 0.000000 0.000000 0.000000 0.000000 160.000000 0.988935 0.016876 -0.147384
-10.19999981 8.02000046 0.09000000 153 57 150 0.000000 0.000000 0.000000 0.000000 0.000000 0.000000 160.000000 -0.315275 0.943164 0.105092
-10.14999962 7.96999979 0.13000000 153 57 150 0.000000 0.000000 0.000000 0.000000 0.000000 0.000000 160.000000 0.684192 0.536982 -0.493488
-10.21000004 7.98999977 0.12000000 153 57 150 0.000000 0.000000 0.000000 0.000000 0.000000 0.000000 160.000000 0.908959 -0.175513 -0.378138
-10.21000004 7.98999977 0.13000000 153 57 150 0.000000 0.000000 0.000000 0.000000 0.000000 0.000000 160.000000 0.900500 0.033352 -0.433574
-10.19999981 8.01000023 0.11000000 153 57 150 0.000000 0.000000 0.000000 0.000000 0.000000 0.000000 160.000000 -0.627785 0.769590 0.116694
-10.21000004 8.00000000 0.10000000 153 57 150 0.000000 0.000000 0.000000 0.000000 0.000000 0.000000 160.000000 0.877972 -0.199204 -0.435297
-10.18000031 7.98999977 0.00000000 153 57 150 0.000000 0.000000 0.000000 0.000000 0.000000 0.000000 160.000000 0.679964 0.733021 -0.018151
-10.18999958 7.98000002 -0.01000000 153 57 150 0.000000 0.000000 0.000000 0.000000 0.000000 0.000000 160.000000 0.542989 0.825642 -0.153227
-10.18999958 7.98999977 -0.02000000 153 57 150 0.000000 0.000000 0.000000 0.000000 0.000000 0.000000 160.000000 0.359598 0.807098 -0.468276
-10.21000004 7.96999979 0.00000000 153 57 150 0.000000 0.000000 0.000000 0.000000 0.000000 0.000000 160.000000 0.937901 0.061480 -0.341412
-10.19999981 7.94999981 -0.01000000 153 57 150 0.000000 0.000000 0.000000 0.000000 0.000000 0.000000 160.000000 0.178076 0.937313 0.299554
-10.19999981 8.01000023 -0.04000000 153 57 150 0.000000 0.000000 0.000000 0.000000 0.000000 0.000000 160.000000 0.468253 0.878854 0.091401
-10.15999985 7.88999987 0.10000000 153 57 150 0.000000 0.000000 0.000000 0.000000 0.000000 0.000000 160.000000 -0.207073 0.944858 0.253699
-10.21000004 7.90999985 0.08000000 153 57 150 0.000000 0.000000 0.000000 0.000000 0.000000 0.000000 160.000000 0.502179 0.656696 -0.562642
-10.17000008 7.90000010 0.05000000 153 57 150 0.000000 0.000000 0.000000 0.000000 0.000000 0.000000 160.000000 0.236879 0.920237 -0.311531
-10.21000004 7.92000008 0.02000000 153 57 150 0.000000 0.000000 0.000000 0.000000 0.000000 0.000000 160.000000 0.130717 0.877668 -0.461099
-10.21000004 7.88000011 0.04000000 153 57 150 0.000000 0.000000 0.000000 0.000000 0.000000 0.000000 160.000000 0.264950 0.964225 0.008469
-10.18000031 7.88000011 0.05000000 153 57 150 0.000000 0.000000 0.000000 0.000000 0.000000 0.000000 160.000000 0.379346 0.910714 0.163389
-10.25000000 8.02000046 0.05000000 153 57 150 0.000000 0.000000 0.000000 0.000000 0.000000 0.000000 160.000000 -0.486755 0.844619 0.222907
-10.28999996 8.03999996 0.05000000 153 57 150 0.000000 0.000000 0.000000 0.000000 0.000000 0.000000 160.000000 0.874296 -0.403173 -0.270292
-10.28999996 8.03999996 0.05000000 153 57 150 0.000000 0.000000 0.000000 0.000000 0.000000 0.000000 160.000000 0.874296 -0.403173 -0.270292
-10.22000027 7.98000002 0.09000000 153 57 150 0.000000 0.000000 0.000000 0.000000 0.000000 0.000000 160.000000 0.886229 0.132720 -0.443828
-10.22000027 7.98000002 0.09000000 153 57 150 0.000000 0.000000 0.000000 0.000000 0.000000 0.000000 160.000000 0.886229 0.132720 -0.443828
-10.23999977 8.00000000 0.08000000 153 57 150 0.000000 0.000000 0.000000 0.000000 0.000000 0.000000 160.000000 0.960120 0.010980 -0.279374
-10.25000000 7.96999979 0.07000000 153 57 150 0.000000 0.000000 0.000000 0.000000 0.000000 0.000000 160.000000 0.926638 -0.341393 -0.157459
-10.25000000 7.96999979 0.07000000 153 57 150 0.000000 0.000000 0.000000 0.000000 0.000000 0.000000 160.000000 0.926638 -0.341393 -0.157459
-10.23999977 7.96999979 0.10000000 153 57 150 0.000000 0.000000 0.000000 0.000000 0.000000 0.000000 160.000000 0.884060 0.240023 -0.401032
-10.23999977 7.94000006 0.09000000 153 57 150 0.000000 0.000000 0.000000 0.000000 0.000000 0.000000 160.000000 0.914696 0.138675 -0.379606
-10.25000000 7.96999979 0.07000000 153 57 150 0.000000 0.000000 0.000000 0.000000 0.000000 0.000000 160.000000 0.926638 -0.341393 -0.157459
-10.27000046 8.00000000 0.08000000 153 57 150 0.000000 0.000000 0.000000 0.000000 0.000000 0.000000 160.000000 0.733477 -0.126977 -0.667748
-10.26000023 7.96000004 0.11000000 153 57 150 0.000000 0.000000 0.000000 0.000000 0.000000 0.000000 160.000000 0.838148 -0.203874 -0.505909
-10.23999977 7.98000002 0.03000000 153 57 150 0.000000 0.000000 0.000000 0.000000 0.000000 0.000000 160.000000 0.881621 -0.391998 -0.262834
-10.25000000 7.98999977 0.05000000 153 57 150 0.000000 0.000000 0.000000 0.000000 0.000000 0.000000 160.000000 0.818055 -0.400257 -0.413014
-10.25000000 7.98999977 0.05000000 153 57 150 0.000000 0.000000 0.000000 0.000000 0.000000 0.000000 160.000000 0.818055 -0.400257 -0.413014
-10.22999954 7.96999979 0.02000000 153 57 150 0.000000 0.000000 0.000000 0.000000 0.000000 0.000000 160.000000 0.808818 -0.443649 -0.385991
-10.23999977 7.94999981 0.05000000 153 57 150 0.000000 0.000000 0.000000 0.000000 0.000000 0.000000 160.000000 0.851085 0.396758 -0.343857
-10.22999954 7.96000004 0.06000000 153 57 150 0.000000 0.000000 0.000000 0.000000 0.000000 0.000000 160.000000 0.921048 -0.188171 -0.340972
-10.23999977 7.94999981 0.05000000 153 57 150 0.000000 0.000000 0.000000 0.000000 0.000000 0.000000 160.000000 0.851085 0.396758 -0.343857
-10.23999977 7.92999983 -0.01000000 153 57 150 0.000000 0.000000 0.000000 0.000000 0.000000 0.000000 160.000000 0.760638 0.600668 -0.246227
-10.27999973 8.00000000 0.03000000 153 57 150 0.000000 0.000000 0.000000 0.000000 0.000000 0.000000 160.000000 0.985780 -0.086806 -0.143883
-10.26000023 7.98000002 -0.02000000 153 57 150 0.000000 0.000000 0.000000 0.000000 0.000000 0.000000 160.000000 0.716098 -0.483491 -0.503429
-10.27000046 7.92999983 0.06000000 153 57 150 0.000000 0.000000 0.000000 0.000000 0.000000 0.000000 160.000000 0.700318 0.290063 -0.652241
-10.27000046 7.92999983 0.06000000 153 57 150 0.000000 0.000000 0.000000 0.000000 0.000000 0.000000 160.000000 0.700318 0.290063 -0.652241
-10.28999996 7.94000006 0.00000000 153 57 150 0.000000 0.000000 0.000000 0.000000 0.000000 0.000000 160.000000 0.961293 0.256087 -0.101663
-10.34000015 8.02999973 0.12000000 153 57 150 0.000000 0.000000 0.000000 0.000000 0.000000 0.000000 160.000000 0.917294 0.094327 -0.386877
-10.34000015 8.02000046 0.02000000 153 57 150 0.000000 0.000000 0.000000 0.000000 0.000000 0.000000 160.000000 0.985220 -0.113725 -0.128091
-10.31999969 8.05000019 0.05000000 153 57 150 0.000000 0.000000 0.000000 0.000000 0.000000 0.000000 160.000000 -0.591742 0.767538 0.246428
-10.31000042 8.02999973 0.04000000 153 57 150 0.000000 0.000000 0.000000 0.000000 0.000000 0.000000 160.000000 -0.632921 0.722200 0.278995
-10.31000042 8.02000046 0.05000000 153 57 150 0.000000 0.000000 0.000000 0.000000 0.000000 0.000000 160.000000 0.847052 -0.456578 -0.272102
-10.31000042 8.02999973 0.04000000 153 57 150 0.000000 0.000000 0.000000 0.000000 0.000000 0.000000 160.000000 -0.632921 0.722200 0.278995
-10.31999969 8.02000046 0.01000000 153 57 150 0.000000 0.000000 0.000000 0.000000 0.000000 0.000000 160.000000 0.836834 -0.546363 -0.034580
-10.34000015 8.01000023 0.08000000 153 57 150 0.000000 0.000000 0.000000 0.000000 0.000000 0.000000 160.000000 0.894257 0.126131 -0.429413
-10.31999969 7.94000006 0.11000000 153 57 150 0.000000 0.000000 0.000000 0.000000 0.000000 0.000000 160.000000 0.989614 0.141374 0.026013
-10.31999969 7.94000006 0.07000000 153 57 150 0.000000 0.000000 0.000000 0.000000 0.000000 0.000000 160.000000 0.798254 0.333004 -0.501896
-10.35000038 8.00000000 0.12000000 153 57 150 0.000000 0.000000 0.000000 0.000000 0.000000 0.000000 160.000000 0.996175 -0.083105 -0.026982
-10.35000038 8.01000023 0.13000000 153 57 150 0.000000 0.000000 0.000000 0.000000 0.000000 0.000000 160.000000 0.951277 -0.190797 -0.242217
-10.35000038 7.98999977 0.08000000 153 57 150 0.000000 0.000000 0.000000 0.000000 0.000000 0.000000 160.000000 0.830951 -0.046086 -0.554433
-10.35000038 7.98999977 0.08000000 153 57 150 0.000000 0.000000 0.000000 0.000000 0.000000 0.000000 160.000000 0.830951 -0.046086 -0.554433
-10.35999966 7.96000004 0.13000000 153 57 150 0.000000 0.000000 0.000000 0.000000 0.000000 0.000000 160.000000 0.968541 0.161208 -0.189581
-10.35999966 7.96999979 0.14000000 153 57 150 0.000000 0.000000 0.000000 0.000000 0.000000 0.000000 160.000000 0.857575 0.045572 -0.512336
-10.35999966 7.94000006 0.11000000 153 57 150 0.000000 0.000000 0.000000 0.000000 0.000000 0.000000 160.000000 0.715900 0.446815 -0.536510
-10.36999989 7.94000006 0.14000000 153 57 150 0.000000 0.000000 0.000000 0.000000 0.000000 0.000000 160.000000 0.920364 0.152694 -0.360021
-10.35999966 7.96999979 0.14000000 153 57 150 0.000000 0.000000 0.000000 0.000000 0.000000 0.000000 160.000000 0.857575 0.045572 -0.512336
-10.36999989 7.94999981 0.08000000 153 57 150 0.000000 0.000000 0.000000 0.000000 0.000000 0.000000 160.000000 0.977932 -0.192159 -0.082004
-10.35999966 7.92999983 0.10000000 153 57 150 0.000000 0.000000 0.000000 0.000000 0.000000 0.000000 160.000000 0.883374 0.408282 -0.230123
-10.35000038 7.94999981 0.09000000 153 57 150 0.000000 0.000000 0.000000 0.000000 0.000000 0.000000 160.000000 0.899660 0.324589 -0.291982
-10.35000038 7.96999979 0.07000000 153 57 150 0.000000 0.000000 0.000000 0.000000 0.000000 0.000000 160.000000 0.983767 0.104759 -0.145699
-10.35000038 7.94999981 0.09000000 153 57 150 0.000000 0.000000 0.000000 0.000000 0.000000 0.000000 160.000000 0.899660 0.324589 -0.291982
-10.34000015 7.98999977 0.06000000 153 57 150 0.000000 0.000000 0.000000 0.000000 0.000000 0.000000 160.000000 0.853811 -0.487253 -0.183279
-10.34000015 8.00000000 0.06000000 153 57 150 0.000000 0.000000 0.000000 0.000000 0.000000 0.000000 160.000000 0.965887 -0.035592 -0.256506
-10.34000015 8.00000000 0.06000000 153 57 150 0.000000 0.000000 0.000000 0.000000 0.000000 0.000000 160.000000 0.965887 -0.035592 -0.256506
-10.30000019 7.94000006 0.05000000 153 57 150 0.000000 0.000000 0.000000 0.000000 0.000000 0.000000 160.000000 0.830766 0.231023 -0.506415
-10.32999992 7.92999983 0.04000000 153 57 150 0.000000 0.000000 0.000000 0.000000 0.000000 0.000000 160.000000 0.776117 0.437684 -0.453955
-10.32999992 7.92999983 0.01000000 153 57 150 0.000000 0.000000 0.000000 0.000000 0.000000 0.000000 160.000000 0.975728 -0.039703 -0.215358
-10.34000015 7.94999981 -0.01000000 153 57 150 0.000000 0.000000 0.000000 0.000000 0.000000 0.000000 160.000000 0.873372 -0.062285 -0.483054
-10.34000015 7.94999981 -0.01000000 153 57 150 0.000000 0.000000 0.000000 0.000000 0.000000 0.000000 160.000000 0.873372 -0.062285 -0.483054
-10.35000038 8.00000000 0.03000000 153 57 150 0.000000 0.000000 0.000000 0.000000 0.000000 0.000000 160.000000 0.991428 -0.108885 0.072208
-10.35000038 8.00000000 0.03000000 153 57 150 0.000000 0.000000 0.000000 0.000000 0.000000 0.000000 160.000000 0.991428 -0.108885 0.072208
-10.35999966 7.98000002 -0.02000000 153 57 150 0.000000 0.000000 0.000000 0.000000 0.000000 0.000000 160.000000 0.726670 -0.070789 -0.683330
-10.35000038 7.98999977 0.01000000 153 57 150 0.000000 0.000000 0.000000 0.000000 0.000000 0.000000 160.000000 0.963460 0.125444 -0.236662
-10.35000038 7.98999977 0.01000000 153 57 150 0.000000 0.000000 0.000000 0.000000 0.000000 0.000000 160.000000 0.963460 0.125444 -0.236662
-10.35000038 8.01000023 -0.02000000 153 57 150 0.000000 0.000000 0.000000 0.000000 0.000000 0.000000 160.000000 0.953401 -0.264612 -0.144938
-10.36999989 7.96999979 0.04000000 153 57 150 0.000000 0.000000 0.000000 0.000000 0.000000 0.000000 160.000000 0.932994 -0.115436 -0.340876
-10.35999966 7.96000004 0.06000000 153 57 150 0.000000 0.000000 0.000000 0.000000 0.000000 0.000000 160.000000 0.946250 -0.231427 -0.225950
-10.35999966 7.96999979 0.06000000 153 57 150 0.000000 0.000000 0.000000 0.000000 0.000000 0.000000 160.000000 0.966109 0.048244 -0.253588
-10.35999966 7.94000006 0.05000000 153 57 150 0.000000 0.000000 0.000000 0.000000 0.000000 0.000000 160.000000 0.955106 0.194236 -0.223706
-10.35999966 7.96000004 0.06000000 153 57 150 0.000000 0.000000 0.000000 0.000000 0.000000 0.000000 160.000000 0.946250 -0.231427 -0.225950
-10.35999966 7.92999983 0.05000000 153 57 150 0.000000 0.000000 0.000000 0.000000 0.000000 0.000000 160.000000 0.925999 0.300132 -0.229011
-10.35000038 7.92999983 0.05000000 153 57 150 0.000000 0.000000 0.000000 0.000000 0.000000 0.000000 160.000000 0.801945 0.495835 -0.333214
-10.35000038 7.96999979 0.00000000 153 57 150 0.000000 0.000000 0.000000 0.000000 0.000000 0.000000 160.000000 0.900459 0.306067 -0.309025
-10.35000038 7.96000004 -0.02000000 153 57 150 0.000000 0.000000 0.000000 0.000000 0.000000 0.000000 160.000000 0.883203 0.163878 -0.439426
-10.35000038 7.96999979 0.00000000 153 57 150 0.000000 0.000000 0.000000 0.000000 0.000000 0.000000 160.000000 0.900459 0.306067 -0.309025
-10.35000038 7.96000004 -0.02000000 153 57 150 0.000000 0.000000 0.000000 0.000000 0.000000 0.000000 160.000000 0.883203 0.163878 -0.439426
-10.27999973 8.03999996 -0.05000000 153 57 150 0.000000 0.000000 0.000000 0.000000 0.000000 0.000000 160.000000 -0.230061 0.938369 0.257947
-10.26000023 8.05000019 -0.09000000 153 57 150 0.000000 0.000000 0.000000 0.000000 0.000000 0.000000 160.000000 0.018894 0.945965 0.323719
-10.26000023 8.05000019 -0.09000000 153 57 150 0.000000 0.000000 0.000000 0.000000 0.000000 0.000000 160.000000 0.018894 0.945965 0.323719
-10.22999954 8.02999973 -0.19000000 153 57 150 0.000000 0.000000 0.000000 0.000000 0.000000 0.000000 160.000000 0.536338 0.843601 -0.026062
-10.26000023 8.02999973 -0.17000000 153 57 150 0.000000 0.000000 0.000000 0.000000 0.000000 0.000000 160.000000 0.054561 0.987910 0.145110
-10.26000023 8.05000019 -0.18000001 153 57 150 0.000000 0.000000 0.000000 0.000000 0.000000 0.000000 160.000000 -0.268630 0.962899 -0.025759
-10.26000023 8.02999973 -0.17000000 153 57 150 0.000000 0.000000 0.000000 0.000000 0.000000 0.000000 160.000000 0.054561 0.987910 0.145110
-10.23999977 7.94000006 -0.05000000 153 57 150 0.000000 0.000000 0.000000 0.000000 0.000000 0.000000 160.000000 0.541018 0.652256 -0.530906
-10.23999977 7.96000004 -0.04000000 153 57 150 0.000000 0.000000 0.000000 0.000000 0.000000 0.000000 160.000000 0.913780 0.190192 -0.358934
-10.25000000 7.96000004 -0.05000000 153 57 150 0.000000 0.000000 0.000000 0.000000 0.000000 0.000000 160.000000 0.908982 -0.178934 -0.376476
-10.23999977 7.94999981 -0.05000000 153 57 150 0.000000 0.000000 0.000000 0.000000 0.000000 0.000000 160.000000 0.931736 0.027063 -0.362127
-10.25000000 7.96000004 -0.05000000 153 57 150 0.000000 0.000000 0.000000 0.000000 0.000000 0.000000 160.000000 0.908982 -0.178934 -0.376476
-10.23999977 7.96000004 -0.04000000 153 57 150 0.000000 0.000000 0.000000 0.000000 0.000000 0.000000 160.000000 0.913780 0.190192 -0.358934
-10.22999954 7.96999979 -0.10000000 153 57 150 0.000000 0.000000 0.000000 0.000000 0.000000 0.000000 160.000000 0.203399 0.920273 -0.334257
-10.26000023 8.00000000 -0.18000001 153 57 150 0.000000 0.000000 0.000000 0.000000 0.000000 0.000000 160.000000 0.184696 0.958029 -0.219244
-10.26000023 7.94000006 -0.13000000 153 57 150 0.000000 0.000000 0.000000 0.000000 0.000000 0.000000 160.000000 0.603258 0.787052 -0.128952
-10.26000023 7.94000006 -0.14000000 153 57 150 0.000000 0.000000 0.000000 0.000000 0.000000 0.000000 160.000000 0.660342 0.686174 -0.305146
-10.26000023 7.92999983 -0.13000000 153 57 150 0.000000 0.000000 0.000000 0.000000 0.000000 0.000000 160.000000 0.394703 0.902794 0.170799
-10.28999996 7.92999983 -0.19000000 153 57 150 0.000000 0.000000 0.000000 0.000000 0.000000 0.000000 160.000000 0.866261 0.398755 -0.300976
-10.32999992 8.02999973 -0.06000000 153 57 150 0.000000 0.000000 0.000000 0.000000 0.000000 0.000000 160.000000 0.761995 -0.534534 -0.365563
-10.32999992 8.02999973 -0.06000000 153 57 150 0.000000 0.000000 0.000000 0.000000 0.000000 0.000000 160.000000 0.761995 -0.534534 -0.365563
-10.30000019 8.02999973 -0.05000000 153 57 150 0.000000 0.000000 0.000000 0.000000 0.000000 0.000000 160.000000 0.571656 -0.662182 -0.484483
-10.34000015 8.05000019 -0.09000000 153 57 150 0.000000 0.000000 0.000000 0.000000 0.000000 0.000000 160.000000 -0.521590 0.723602 0.452044
-10.35999966 8.02000046 -0.10000000 153 57 150 0.000000 0.000000 0.000000 0.000000 0.000000 0.000000 160.000000 0.718585 -0.621697 -0.311656
-10.32999992 8.06000042 -0.14000000 153 57 150 0.000000 0.000000 0.000000 0.000000 0.000000 0.000000 160.000000 0.298630 -0.846377 -0.440983
-10.32999992 8.03999996 -0.11000000 153 57 150 0.000000 0.000000 0.000000 0.000000 0.000000 0.000000 160.000000 -0.499075 0.706049 0.502413
-10.32999992 8.05000019 -0.13000000 153 57 150 0.000000 0.000000 0.000000 0.000000 0.000000 0.000000 160.000000 0.855365 -0.445280 -0.264719
-10.31999969 8.05000019 -0.11000000 153 57 150 0.000000 0.000000 0.000000 0.000000 0.000000 0.000000 160.000000 0.783014 -0.544775 -0.300182
-10.34000015 8.03999996 -0.12000000 153 57 150 0.000000 0.000000 0.000000 0.000000 0.000000 0.000000 160.000000 -0.455505 0.807122 0.375592
-10.32999992 8.03999996 -0.11000000 153 57 150 0.000000 0.000000 0.000000 0.000000 0.000000 0.000000 160.000000 -0.499075 0.706049 0.502413
-10.34000015 8.03999996 -0.18000001 153 57 150 0.000000 0.000000 0.000000 0.000000 0.000000 0.000000 160.000000 -0.409604 0.830278 0.377974
-10.35000038 8.06000042 -0.18000001 153 57 150 0.000000 0.000000 0.000000 0.000000 0.000000 0.000000 160.000000 -0.340166 0.906622 0.249649
-10.36999989 8.03999996 -0.11000000 153 57 150 0.000000 0.000000 0.000000 0.000000 0.000000 0.000000 160.000000 0.911917 -0.184096 -0.366765
-10.35999966 8.05000019 -0.18000001 153 57 150 0.000000 0.000000 0.000000 0.000000 0.000000 0.000000 160.000000 0.426173 -0.711394 -0.558834
-10.35999966 8.03999996 -0.19000000 153 57 150 0.000000 0.000000 0.000000 0.000000 0.000000 0.000000 160.000000 -0.490003 0.858603 0.150658
-10.34000015 8.00000000 -0.03000000 153 57 150 0.000000 0.000000 0.000000 0.000000 0.000000 0.000000 160.000000 0.905769 -0.289200 -0.309752
-10.34000015 8.00000000 -0.05000000 153 57 150 0.000000 0.000000 0.000000 0.000000 0.000000 0.000000 160.000000 -0.673468 0.542470 0.502162
-10.34000015 8.01000023 -0.05000000 153 57 150 0.000000 0.000000 0.000000 0.000000 0.000000 0.000000 160.000000 0.663006 -0.606225 -0.439221
-10.34000015 8.01000023 -0.07000000 153 57 150 0.000000 0.000000 0.000000 0.000000 0.000000 0.000000 160.000000 0.801762 -0.366474 -0.472095
-10.34000015 7.98999977 -0.07000000 153 57 150 0.000000 0.000000 0.000000 0.000000 0.000000 0.000000 160.000000 0.911222 0.057877 -0.407829
-10.35000038 8.01000023 -0.05000000 153 57 150 0.000000 0.000000 0.000000 0.000000 0.000000 0.000000 160.000000 0.693051 -0.529391 -0.489311
-10.35000038 8.01000023 -0.03000000 153 57 150 0.000000 0.000000 0.000000 0.000000 0.000000 0.000000 160.000000 0.947009 -0.198148 -0.252809
-10.35999966 7.98000002 -0.09000000 153 57 150 0.000000 0.000000 0.000000 0.000000 0.000000 0.000000 160.000000 0.951061 -0.213005 -0.223859
-10.36999989 8.01000023 -0.10000000 153 57 150 0.000000 0.000000 0.000000 0.000000 0.000000 0.000000 160.000000 0.906368 -0.104101 -0.409462
-10.38000011 7.98000002 -0.10000000 153 57 150 0.000000 0.000000 0.000000 0.000000 0.000000 0.000000 160.000000 0.747540 -0.175802 -0.640530
-10.38000011 8.01000023 -0.08000000 153 57 150 0.000000 0.000000 0.000000 0.000000 0.000000 0.000000 160.000000 0.891263 -0.194006 -0.409893
-10.35000038 8.01000023 -0.09000000 153 57 150 0.000000 0.000000 0.000000 0.000000 0.000000 0.000000 160.000000 0.960737 -0.030912 -0.275733
-10.35000038 7.94999981 -0.05000000 153 57 150 0.000000 0.000000 0.000000 0.000000 0.000000 0.000000 160.000000 0.997896 -0.028572 0.058202
-10.35000038 7.96999979 -0.06000000 153 57 150 0.000000 0.000000 0.000000 0.000000 0.000000 0.000000 160.000000 0.969644 -0.089293 -0.227634
-10.35000038 7.96000004 -0.05000000 153 57 150 0.000000 0.000000 0.000000 0.000000 0.000000 0.000000 160.000000 0.989908 -0.094222 -0.105854
-10.35000038 7.94999981 -0.05000000 153 57 150 0.000000 0.000000 0.000000 0.000000 0.000000 0.000000 160.000000 0.997896 -0.028572 0.058202
-10.35000038 7.96999979 -0.05000000 153 57 150 0.000000 0.000000 0.000000 0.000000 0.000000 0.000000 160.000000 0.962966 -0.033291 -0.267559
-10.35000038 7.94999981 -0.08000000 153 57 150 0.000000 0.000000 0.000000 0.000000 0.000000 0.000000 160.000000 0.981329 -0.125874 -0.145427
-10.35999966 7.94000006 -0.10000000 153 57 150 0.000000 0.000000 0.000000 0.000000 0.000000 0.000000 160.000000 0.900123 -0.110591 -0.421364
-10.35999966 7.96999979 -0.09000000 153 57 150 0.000000 0.000000 0.000000 0.000000 0.000000 0.000000 160.000000 0.917015 -0.393390 -0.065789
-10.38000011 7.96000004 -0.10000000 153 57 150 0.000000 0.000000 0.000000 0.000000 0.000000 0.000000 160.000000 0.762325 -0.191732 -0.618142
-10.34000015 7.92999983 -0.12000000 153 57 150 0.000000 0.000000 0.000000 0.000000 0.000000 0.000000 160.000000 0.798189 0.323418 -0.508228
-10.32999992 7.94000006 -0.12000000 153 57 150 0.000000 0.000000 0.000000 0.000000 0.000000 0.000000 160.000000 0.822079 0.418195 -0.386393
-10.32999992 7.94000006 -0.19000000 153 57 150 0.000000 0.000000 0.000000 0.000000 0.000000 0.000000 160.000000 0.741719 0.614658 -0.268417
-10.35999966 7.98999977 -0.11000000 153 57 150 0.000000 0.000000 0.000000 0.000000 0.000000 0.000000 160.000000 0.895578 -0.224997 -0.383819
-10.35999966 8.01000023 -0.15000001 153 57 150 0.000000 0.000000 0.000000 0.000000 0.000000 0.000000 160.000000 0.841231 -0.390068 -0.374403
-10.36999989 8.00000000 -0.16000000 153 57 150 0.000000 0.000000 0.000000 0.000000 0.000000 0.000000 160.000000 0.742915 -0.243450 -0.623546
-10.36999989 7.98999977 -0.16000000 153 57 150 0.000000 0.000000 0.000000 0.000000 0.000000 0.000000 160.000000 0.923558 -0.223419 -0.311648
-10.35999966 7.98000002 -0.19000000 153 57 150 0.000000 0.000000 0.000000 0.000000 0.000000 0.000000 160.000000 0.910965 0.142206 -0.387195
-10.35999966 8.01000023 -0.17000000 153 57 150 0.000000 0.000000 0.000000 0.000000 0.000000 0.000000 160.000000 0.696553 -0.699588 -0.159342
-10.36999989 8.00000000 -0.16000000 153 57 150 0.000000 0.000000 0.000000 0.000000 0.000000 0.000000 160.000000 0.742915 -0.243450 -0.623546
-10.35999966 7.96999979 -0.13000000 153 57 150 0.000000 0.000000 0.000000 0.000000 0.000000 0.000000 160.000000 0.977833 -0.104812 -0.181263
-10.35999966 7.96999979 -0.13000000 153 57 150 0.000000 0.000000 0.000000 0.000000 0.000000 0.000000 160.000000 0.977833 -0.104812 -0.181263
-10.36999989 7.96000004 -0.14000000 153 57 150 0.000000 0.000000 0.000000 0.000000 0.000000 0.000000 160.000000 0.899304 -0.201944 -0.387906
-10.35999966 7.96999979 -0.13000000 153 57 150 0.000000 0.000000 0.000000 0.000000 0.000000 0.000000 160.000000 0.977833 -0.104812 -0.181263
-10.36999989 7.96000004 -0.15000001 153 57 150 0.000000 0.000000 0.000000 0.000000 0.000000 0.000000 160.000000 0.951226 0.151179 -0.268912
-10.35000038 7.96999979 -0.13000000 153 57 150 0.000000 0.000000 0.000000 0.000000 0.000000 0.000000 160.000000 0.975082 -0.221769 0.005867
-10.36999989 7.94999981 -0.14000000 153 57 150 0.000000 0.000000 0.000000 0.000000 0.000000 0.000000 160.000000 0.938820 -0.032107 -0.342907
-10.36999989 7.96999979 -0.15000001 153 57 150 0.000000 0.000000 0.000000 0.000000 0.000000 0.000000 160.000000 0.875729 -0.012033 -0.482654
-10.36999989 7.96999979 -0.15000001 153 57 150 0.000000 0.000000 0.000000 0.000000 0.000000 0.000000 160.000000 0.875729 -0.012033 -0.482654
-10.36999989 7.96000004 -0.15000001 153 57 150 0.000000 0.000000 0.000000 0.000000 0.000000 0.000000 160.000000 0.951226 0.151179 -0.268912
-10.36999989 7.96999979 -0.15000001 153 57 150 0.000000 0.000000 0.000000 0.000000 0.000000 0.000000 160.000000 0.875729 -0.012033 -0.482654
-10.36999989 7.96999979 -0.19000000 153 57 150 0.000000 0.000000 0.000000 0.000000 0.000000 0.000000 160.000000 0.973135 -0.150982 -0.173819
-10.38000011 7.94999981 -0.18000001 153 57 150 0.000000 0.000000 0.000000 0.000000 0.000000 0.000000 160.000000 0.974806 -0.121694 -0.186932
-10.38000011 7.96000004 -0.18000001 153 57 150 0.000000 0.000000 0.000000 0.000000 0.000000 0.000000 160.000000 0.836517 0.273685 -0.474696
-10.22999954 7.88999987 0.14000000 153 57 150 0.000000 0.000000 0.000000 0.000000 0.000000 0.000000 160.000000 0.737090 0.605409 -0.300296
-10.23999977 7.90999985 0.07000000 153 57 150 0.000000 0.000000 0.000000 0.000000 0.000000 0.000000 160.000000 0.721170 0.679189 -0.136438
-10.23999977 7.90000010 0.09000000 153 57 150 0.000000 0.000000 0.000000 0.000000 0.000000 0.000000 160.000000 0.835983 0.548741 -0.004065
-10.22000027 7.88999987 0.03000000 153 57 150 0.000000 0.000000 0.000000 0.000000 0.000000 0.000000 160.000000 0.660161 0.751123 0.001378
-10.23999977 7.90999985 0.06000000 153 57 150 0.000000 0.000000 0.000000 0.000000 0.000000 0.000000 160.000000 0.599375 0.777195 -0.191616
-10.22999954 7.90000010 0.06000000 153 57 150 0.000000 0.000000 0.000000 0.000000 0.000000 0.000000 160.000000 0.369489 0.874306 -0.314750
-10.22000027 7.90999985 0.01000000 153 57 150 0.000000 0.000000 0.000000 0.000000 0.000000 0.000000 160.000000 0.646203 0.707135 -0.287023
-10.28999996 7.90000010 0.04000000 153 57 150 0.000000 0.000000 0.000000 0.000000 0.000000 0.000000 160.000000 0.796044 0.581550 -0.167668
-10.27999973 7.88999987 0.02000000 153 57 150 0.000000 0.000000 0.000000 0.000000 0.000000 0.000000 160.000000 0.512725 0.703118 -0.492684
-10.27000046 7.88999987 0.06000000 153 57 150 0.000000 0.000000 0.000000 0.000000 0.000000 0.000000 160.000000 0.490302 0.759230 -0.427989
-10.28999996 7.90000010 0.04000000 153 57 150 0.000000 0.000000 0.000000 0.000000 0.000000 0.000000 160.000000 0.796044 0.581550 -0.167668
-10.28999996 7.92000008 0.01000000 153 57 150 0.000000 0.000000 0.000000 0.000000 0.000000 0.000000 160.000000 0.690961 0.480159 -0.540388
-10.27999973 7.90999985 0.01000000 153 57 150 0.000000 0.000000 0.000000 0.000000 0.000000 0.000000 160.000000 0.524731 0.802066 -0.285214
-10.28999996 7.92000008 0.01000000 153 57 150 0.000000 0.000000 0.000000 0.000000 0.000000 0.000000 160.000000 0.690961 0.480159 -0.540388
-10.28999996 7.90000010 -0.02000000 153 57 150 0.000000 0.000000 0.000000 0.000000 0.000000 0.000000 160.000000 0.439107 0.802617 -0.403721
-10.32999992 7.90000010 0.13000000 153 57 150 0.000000 0.000000 0.000000 0.000000 0.000000 0.000000 160.000000 0.847387 0.480540 -0.225869
-10.32999992 7.92000008 0.08000000 153 57 150 0.000000 0.000000 0.000000 0.000000 0.000000 0.000000 160.000000 0.885505 -0.056114 -0.461229
-10.32999992 7.92000008 0.10000000 153 57 150 0.000000 0.000000 0.000000 0.000000 0.000000 0.000000 160.000000 0.990081 0.140492 -0.001106
-10.34000015 7.92000008 0.07000000 153 57 150 0.000000 0.000000 0.000000 0.000000 0.000000 0.000000 160.000000 0.941789 0.291148 -0.168128
-10.32999992 7.92000008 0.09000000 153 57 150 0.000000 0.000000 0.000000 0.000000 0.000000 0.000000 160.000000 0.763861 0.456353 -0.456353
-10.32999992 7.92000008 0.09000000 153 57 150 0.000000 0.000000 0.000000 0.000000 0.000000 0.000000 160.000000 0.763861 0.456353 -0.456353
-10.34000015 7.92000008 0.08000000 153 57 150 0.000000 0.000000 0.000000 0.000000 0.000000 0.000000 160.000000 0.876970 0.472862 -0.085592
-10.34000015 7.86999989 0.10000000 153 57 150 0.000000 0.000000 0.000000 0.000000 0.000000 0.000000 160.000000 0.752847 0.260419 -0.604487
-10.35999966 7.92000008 0.11000000 153 57 150 0.000000 0.000000 0.000000 0.000000 0.000000 0.000000 160.000000 0.992058 0.123590 0.023382
-10.36999989 7.92000008 0.09000000 153 57 150 0.000000 0.000000 0.000000 0.000000 0.000000 0.000000 160.000000 0.885274 0.135866 -0.444782
-10.32999992 7.92000008 0.00000000 153 57 150 0.000000 0.000000 0.000000 0.000000 0.000000 0.000000 160.000000 0.938202 0.152030 -0.310908
-10.32999992 7.92000008 0.00000000 153 57 150 0.000000 0.000000 0.000000 0.000000 0.000000 0.000000 160.000000 0.938202 0.152030 -0.310908
-10.31999969 7.88999987 -0.01000000 153 57 150 0.000000 0.000000 0.000000 0.000000 0.000000 0.000000 160.000000 0.921478 0.134411 -0.364434
-10.35000038 7.92000008 0.03000000 153 57 150 0.000000 0.000000 0.000000 0.000000 0.000000 0.000000 160.000000 0.998472 0.034647 -0.043047
-10.35000038 7.92000008 0.06000000 153 57 150 0.000000 0.000000 0.000000 0.000000 0.000000 0.000000 160.000000 0.834510 0.267848 -0.481508
-10.23999977 7.90000010 -0.04000000 153 57 150 0.000000 0.000000 0.000000 0.000000 0.000000 0.000000 160.000000 0.092380 0.976765 -0.193382
-10.27000046 7.88999987 -0.10000000 153 57 150 0.000000 0.000000 0.000000 0.000000 0.000000 0.000000 160.000000 0.512580 0.810410 -0.283722
-10.26000023 7.90000010 -0.07000000 153 57 150 0.000000 0.000000 0.000000 0.000000 0.000000 0.000000 160.000000 0.675791 0.733675 0.070907
-10.28999996 7.90000010 -0.15000001 153 57 150 0.000000 0.000000 0.000000 0.000000 0.000000 0.000000 160.000000 0.236303 0.884279 -0.402756
-10.32999992 7.90000010 -0.05000000 153 57 150 0.000000 0.000000 0.000000 0.000000 0.000000 0.000000 160.000000 0.607304 0.729732 -0.314123
-10.31000042 7.92000008 -0.09000000 153 57 150 0.000000 0.000000 0.000000 0.000000 0.000000 0.000000 160.000000 0.878517 0.471977 -0.073790
-10.35000038 7.90000010 -0.07000000 153 57 150 0.000000 0.000000 0.000000 0.000000 0.000000 0.000000 160.000000 0.678574 0.625741 -0.384690
-10.32999992 7.90999985 -0.11000000 153 57 150 0.000000 0.000000 0.000000 0.000000 0.000000 0.000000 160.000000 0.774054 0.590275 -0.228946
-10.34000015 7.92000008 -0.18000001 153 57 150 0.000000 0.000000 0.000000 0.000000 0.000000 0.000000 160.000000 0.942541 0.247020 -0.224940
-10.35000038 7.90999985 -0.13000000 153 57 150 0.000000 0.000000 0.000000 0.000000 0.000000 0.000000 160.000000 0.781072 0.530872 -0.328788
-10.52999973 8.14999962 0.57999998 153 57 150 0.000000 0.000000 0.000000 0.000000 0.000000 0.000000 217.000000 0.946613 0.101943 -0.305829
-10.52999973 8.14000034 0.63000000 153 57 150 0.000000 0.000000 0.000000 0.000000 0.000000 0.000000 217.000000 0.852601 -0.074691 -0.517197
-10.52999973 8.13000011 0.62000000 153 57 150 0.000000 0.000000 0.000000 0.000000 0.000000 0.000000 217.000000 0.988547 0.106711 -0.106711
-10.46000004 8.03999996 0.68000001 153 57 150 0.000000 0.000000 0.000000 0.000000 0.000000 0.000000 217.000000 0.744990 -0.302803 -0.594390
-10.43999958 7.98999977 0.68000001 153 57 150 0.000000 0.000000 0.000000 0.000000 0.000000 0.000000 217.000000 0.845741 0.009503 -0.533509
-10.47000027 8.05000019 0.63000000 153 57 150 0.000000 0.000000 0.000000 0.000000 0.000000 0.000000 217.000000 0.750410 -0.123335 -0.649364
-10.43999958 8.03999996 0.66000003 153 57 150 0.000000 0.000000 0.000000 0.000000 0.000000 0.000000 217.000000 0.886685 0.295562 -0.355574
-10.43000031 8.01000023 0.60000002 153 57 150 0.000000 0.000000 0.000000 0.000000 0.000000 0.000000 217.000000 0.713977 0.001381 -0.700167
