//X Y Z R G B PointSourceId ScanDirectionFlag NumberOfReturns ReturnNumber GpsTime Intensity Classification Nx Ny Nz
-15.81999969 0.56999999 0.20999999 0 183 164 0.000000 0.000000 0.000000 0.000000 -0.000107 0.000000 125.000000 -0.140230 -0.464061 0.874633
-15.80000019 0.57999998 0.15000001 0 183 164 0.000000 0.000000 0.000000 0.000000 -0.000107 0.000000 125.000000 0.014865 -0.504067 0.863536
-15.88000011 0.58999997 0.19000000 0 183 164 0.000000 0.000000 0.000000 0.000000 -0.000107 0.000000 125.000000 0.177074 -0.576625 0.797589
-15.88000011 0.57999998 0.19000000 0 183 164 0.000000 0.000000 0.000000 0.000000 -0.000107 0.000000 125.000000 -0.015277 -0.640246 0.768018
-15.88000011 0.56000000 0.15000001 0 183 164 0.000000 0.000000 0.000000 0.000000 -0.000107 0.000000 125.000000 0.169532 -0.377530 0.910346
-15.64999962 0.74000001 -0.01000000 0 183 164 0.000000 0.000000 0.000000 0.000000 -0.000107 0.000000 125.000000 -0.399897 -0.046500 0.915380
-15.68999958 0.79000002 -0.02000000 0 183 164 0.000000 0.000000 0.000000 0.000000 -0.000107 0.000000 125.000000 0.321748 0.716252 -0.619243
-15.68000031 0.73000002 0.00000000 0 183 164 0.000000 0.000000 0.000000 0.000000 -0.000107 0.000000 125.000000 0.003948 -0.448789 0.893629
-15.68000031 0.72000003 -0.01000000 0 183 164 0.000000 0.000000 0.000000 0.000000 -0.000107 0.000000 125.000000 -0.152734 -0.648742 0.745524
-15.71000004 0.75000000 -0.01000000 0 183 164 0.000000 0.000000 0.000000 0.000000 -0.000107 0.000000 125.000000 -0.366302 -0.296961 0.881838
-15.69999981 0.77999997 -0.04000000 0 183 164 0.000000 0.000000 0.000000 0.000000 -0.000107 0.000000 125.000000 -0.154988 -0.450479 0.879231
-15.71000004 0.66000003 0.13000000 0 183 164 0.000000 0.000000 0.000000 0.000000 -0.000107 0.000000 125.000000 0.389995 0.722396 -0.571006
-15.68999958 0.68000001 -0.01000000 0 183 164 0.000000 0.000000 0.000000 0.000000 -0.000107 0.000000 125.000000 0.048779 -0.530996 0.845969
-15.68999958 0.67000002 -0.06000000 0 183 164 0.000000 0.000000 0.000000 0.000000 -0.000107 0.000000 125.000000 0.073906 -0.302107 0.950405
-15.68000031 0.64999998 -0.05000000 0 183 164 0.000000 0.000000 0.000000 0.000000 -0.000107 0.000000 125.000000 -0.329007 -0.039686 0.943493
-15.77999973 0.82999998 -0.01000000 0 183 164 0.000000 0.000000 0.000000 0.000000 -0.000107 0.000000 125.000000 -0.383309 -0.085330 0.919670
-15.72999954 0.77999997 0.07000000 0 183 164 0.000000 0.000000 0.000000 0.000000 -0.000107 0.000000 125.000000 0.438156 0.601424 -0.668063
-15.72000027 0.76999998 0.03000000 0 183 164 0.000000 0.000000 0.000000 0.000000 -0.000107 0.000000 125.000000 0.049950 -0.663623 0.746398
-15.72999954 0.79000002 0.00000000 0 183 164 0.000000 0.000000 0.000000 0.000000 -0.000107 0.000000 125.000000 -0.056302 -0.346977 0.936182
-15.72999954 0.73000002 -0.02000000 0 183 164 0.000000 0.000000 0.000000 0.000000 -0.000107 0.000000 125.000000 -0.207607 -0.504623 0.838007
-15.72000027 0.73000002 -0.02000000 0 183 164 0.000000 0.000000 0.000000 0.000000 -0.000107 0.000000 125.000000 -0.001227 -0.300720 0.953712
-15.72999954 0.74000001 -0.01000000 0 183 164 0.000000 0.000000 0.000000 0.000000 -0.000107 0.000000 125.000000 0.088769 -0.486117 0.869374
-15.76000023 0.76999998 0.02000000 0 183 164 0.000000 0.000000 0.000000 0.000000 -0.000107 0.000000 125.000000 -0.276991 -0.111584 0.954372
-15.77999973 0.77999997 0.01000000 0 183 164 0.000000 0.000000 0.000000 0.000000 -0.000107 0.000000 125.000000 -0.055702 -0.652717 0.755552
-15.78999996 0.76999998 -0.01000000 0 183 164 0.000000 0.000000 0.000000 0.000000 -0.000107 0.000000 125.000000 -0.047962 -0.338330 0.939805
-15.76000023 0.75999999 0.00000000 0 183 164 0.000000 0.000000 0.000000 0.000000 -0.000107 0.000000 125.000000 -0.140714 -0.419300 0.896876
-15.77000046 0.75999999 -0.01000000 0 183 164 0.000000 0.000000 0.000000 0.000000 -0.000107 0.000000 125.000000 -0.444660 -0.316723 0.837833
-15.77000046 0.76999998 0.01000000 0 183 164 0.000000 0.000000 0.000000 0.000000 -0.000107 0.000000 125.000000 0.365917 0.648148 -0.667839
-15.77999973 0.73000002 0.03000000 0 183 164 0.000000 0.000000 0.000000 0.000000 -0.000107 0.000000 125.000000 -0.026690 -0.686915 0.726248
-15.77999973 0.74000001 -0.01000000 0 183 164 0.000000 0.000000 0.000000 0.000000 -0.000107 0.000000 125.000000 0.318884 0.662049 -0.678236
-15.76000023 0.75000000 -0.01000000 0 183 164 0.000000 0.000000 0.000000 0.000000 -0.000107 0.000000 125.000000 -0.323241 -0.432549 0.841675
-15.85999966 0.81999999 0.00000000 0 183 164 0.000000 0.000000 0.000000 0.000000 -0.000107 0.000000 125.000000 0.206106 -0.393210 0.896050
-15.81000042 0.75999999 0.09000000 0 183 164 0.000000 0.000000 0.000000 0.000000 -0.000107 0.000000 125.000000 0.098938 -0.526238 0.844562
-15.84000015 0.73000002 0.07000000 0 183 164 0.000000 0.000000 0.000000 0.000000 -0.000107 0.000000 125.000000 -0.138492 -0.435464 0.889489
-15.81999969 0.75999999 0.06000000 0 183 164 0.000000 0.000000 0.000000 0.000000 -0.000107 0.000000 125.000000 -0.411916 -0.567418 0.712995
-15.81999969 0.76999998 0.00000000 0 183 164 0.000000 0.000000 0.000000 0.000000 -0.000107 0.000000 125.000000 -0.035592 -0.256506 0.965887
-15.82999992 0.79000002 0.00000000 0 183 164 0.000000 0.000000 0.000000 0.000000 -0.000107 0.000000 125.000000 -0.038476 -0.093442 0.994881
-15.82999992 0.77999997 -0.01000000 0 183 164 0.000000 0.000000 0.000000 0.000000 -0.000107 0.000000 125.000000 -0.327949 -0.411879 0.850180
-15.81000042 0.72000003 0.03000000 0 183 164 0.000000 0.000000 0.000000 0.000000 -0.000107 0.000000 125.000000 0.058819 0.750295 -0.658481
-15.84000015 0.72000003 0.04000000 0 183 164 0.000000 0.000000 0.000000 0.000000 -0.000107 0.000000 125.000000 -0.199821 -0.667619 0.717187
-15.85999966 0.76999998 -0.01000000 0 183 164 0.000000 0.000000 0.000000 0.000000 -0.000107 0.000000 125.000000 0.029550 -0.682471 0.730315
-15.85999966 0.75000000 -0.02000000 0 183 164 0.000000 0.000000 0.000000 0.000000 -0.000107 0.000000 125.000000 -0.368169 -0.454235 0.811247
-15.85000038 0.73000002 -0.04000000 0 183 164 0.000000 0.000000 0.000000 0.000000 -0.000107 0.000000 125.000000 -0.374675 -0.510920 0.773679
-15.88000011 0.75999999 -0.03000000 0 183 164 0.000000 0.000000 0.000000 0.000000 -0.000107 0.000000 125.000000 -0.397326 -0.369058 0.840195
-15.75000000 0.73000002 -0.03000000 0 183 164 0.000000 0.000000 0.000000 0.000000 -0.000107 0.000000 125.000000 0.165577 -0.526566 0.833854
-15.81000042 0.74000001 -0.03000000 0 183 164 0.000000 0.000000 0.000000 0.000000 -0.000107 0.000000 125.000000 0.120219 -0.322835 0.938789
-15.72999954 0.67000002 0.12000000 0 183 164 0.000000 0.000000 0.000000 0.000000 -0.000107 0.000000 125.000000 -0.158678 -0.077549 0.984280
-15.72999954 0.64999998 0.09000000 0 183 164 0.000000 0.000000 0.000000 0.000000 -0.000107 0.000000 125.000000 -0.194644 -0.249090 0.948719
-15.76000023 0.68000001 0.12000000 0 183 164 0.000000 0.000000 0.000000 0.000000 -0.000107 0.000000 125.000000 0.257096 0.749205 -0.610405
-15.77000046 0.70999998 0.13000000 0 183 164 0.000000 0.000000 0.000000 0.000000 -0.000107 0.000000 125.000000 0.048985 -0.547233 0.835545
-15.76000023 0.67000002 0.11000000 0 183 164 0.000000 0.000000 0.000000 0.000000 -0.000107 0.000000 125.000000 0.120369 -0.646427 0.753421
-15.77000046 0.70999998 0.13000000 0 183 164 0.000000 0.000000 0.000000 0.000000 -0.000107 0.000000 125.000000 0.048985 -0.547233 0.835545
-15.76000023 0.68000001 0.12000000 0 183 164 0.000000 0.000000 0.000000 0.000000 -0.000107 0.000000 125.000000 0.257096 0.749205 -0.610405
-15.77999973 0.70999998 0.07000000 0 183 164 0.000000 0.000000 0.000000 0.000000 -0.000107 0.000000 125.000000 -0.053908 -0.075912 0.995656
-15.77000046 0.63000000 0.10000000 0 183 164 0.000000 0.000000 0.000000 0.000000 -0.000107 0.000000 125.000000 0.125131 -0.481826 0.867287
-15.75000000 0.70999998 0.02000000 0 183 164 0.000000 0.000000 0.000000 0.000000 -0.000107 0.000000 125.000000 0.127765 -0.307982 0.942774
-15.75000000 0.70999998 0.02000000 0 183 164 0.000000 0.000000 0.000000 0.000000 -0.000107 0.000000 125.000000 0.127765 -0.307982 0.942774
-15.72999954 0.69999999 -0.02000000 0 183 164 0.000000 0.000000 0.000000 0.000000 -0.000107 0.000000 125.000000 0.489052 0.616777 -0.616777
-15.78999996 0.67000002 0.02000000 0 183 164 0.000000 0.000000 0.000000 0.000000 -0.000107 0.000000 125.000000 -0.006945 -0.693064 0.720842
-15.76000023 0.55000001 -0.02000000 0 183 164 0.000000 0.000000 0.000000 0.000000 -0.000107 0.000000 125.000000 0.207883 -0.414293 0.886085
-15.75000000 0.56999999 0.01000000 0 183 164 0.000000 0.000000 0.000000 0.000000 -0.000107 0.000000 125.000000 0.179181 0.718256 -0.672312
-15.78999996 0.56999999 -0.01000000 0 183 164 0.000000 0.000000 0.000000 0.000000 -0.000107 0.000000 125.000000 0.026123 -0.537582 0.842807
-15.81999969 0.70999998 0.03000000 0 183 164 0.000000 0.000000 0.000000 0.000000 -0.000107 0.000000 125.000000 0.206746 -0.222961 0.952651
-15.82999992 0.69999999 0.03000000 0 183 164 0.000000 0.000000 0.000000 0.000000 -0.000107 0.000000 125.000000 -0.126435 -0.148530 0.980792
-15.82999992 0.70999998 0.03000000 0 183 164 0.000000 0.000000 0.000000 0.000000 -0.000107 0.000000 125.000000 -0.055371 -0.318060 0.946452
-15.84000015 0.70999998 0.03000000 0 183 164 0.000000 0.000000 0.000000 0.000000 -0.000107 0.000000 125.000000 -0.262386 -0.501483 0.824420
-15.81000042 0.70999998 -0.02000000 0 183 164 0.000000 0.000000 0.000000 0.000000 -0.000107 0.000000 125.000000 -0.083147 0.716231 -0.692892
-15.81999969 0.66000003 -0.02000000 0 183 164 0.000000 0.000000 0.000000 0.000000 -0.000107 0.000000 125.000000 -0.294524 -0.070737 0.953023
-15.81000042 0.66000003 0.01000000 0 183 164 0.000000 0.000000 0.000000 0.000000 -0.000107 0.000000 125.000000 -0.064536 -0.454501 0.888405
-15.82999992 0.61000001 0.14000000 0 183 164 0.000000 0.000000 0.000000 0.000000 -0.000107 0.000000 125.000000 -0.215110 -0.517180 0.828404
-15.84000015 0.60000002 0.10000000 0 183 164 0.000000 0.000000 0.000000 0.000000 -0.000107 0.000000 125.000000 -0.442468 -0.305846 0.843018
-15.81000042 0.55000001 0.14000000 0 183 164 0.000000 0.000000 0.000000 0.000000 -0.000107 0.000000 125.000000 0.230931 -0.264521 0.936322
-15.82999992 0.56000000 0.12000000 0 183 164 0.000000 0.000000 0.000000 0.000000 -0.000107 0.000000 125.000000 0.139536 -0.203543 0.969072
-15.80000019 0.56000000 0.14000000 0 183 164 0.000000 0.000000 0.000000 0.000000 -0.000107 0.000000 125.000000 0.042737 -0.151311 0.987562
-15.88000011 0.61000001 0.08000000 0 183 164 0.000000 0.000000 0.000000 0.000000 -0.000107 0.000000 125.000000 0.213159 -0.248915 0.944777
-15.85999966 0.56999999 0.14000000 0 183 164 0.000000 0.000000 0.000000 0.000000 -0.000107 0.000000 125.000000 0.330662 -0.476216 0.814789
-15.86999989 0.55000001 0.07000000 0 183 164 0.000000 0.000000 0.000000 0.000000 -0.000107 0.000000 125.000000 0.026512 -0.618159 0.785606
-15.86999989 0.55000001 0.07000000 0 183 164 0.000000 0.000000 0.000000 0.000000 -0.000107 0.000000 125.000000 0.026512 -0.618159 0.785606
-15.84000015 0.61000001 0.06000000 0 183 164 0.000000 0.000000 0.000000 0.000000 -0.000107 0.000000 125.000000 0.237474 -0.294354 0.925722
-15.81999969 0.62000000 0.06000000 0 183 164 0.000000 0.000000 0.000000 0.000000 -0.000107 0.000000 125.000000 -0.346232 -0.421432 0.838164
-15.81000042 0.62000000 0.06000000 0 183 164 0.000000 0.000000 0.000000 0.000000 -0.000107 0.000000 125.000000 -0.441711 -0.193526 0.876036
-15.81000042 0.58999997 -0.01000000 0 183 164 0.000000 0.000000 0.000000 0.000000 -0.000107 0.000000 125.000000 -0.442169 -0.173657 0.879960
-15.81999969 0.61000001 0.00000000 0 183 164 0.000000 0.000000 0.000000 0.000000 -0.000107 0.000000 125.000000 0.132440 -0.617557 0.775295
-15.72999954 0.69000000 -0.04000000 0 183 164 0.000000 0.000000 0.000000 0.000000 -0.000107 0.000000 125.000000 -0.067160 -0.208806 0.975648
-15.72999954 0.69000000 -0.03000000 0 183 164 0.000000 0.000000 0.000000 0.000000 -0.000107 0.000000 125.000000 -0.175709 -0.302994 0.936654
-15.72999954 0.68000001 -0.04000000 0 183 164 0.000000 0.000000 0.000000 0.000000 -0.000107 0.000000 125.000000 -0.010665 -0.231073 0.972878
-15.72999954 0.70999998 -0.04000000 0 183 164 0.000000 0.000000 0.000000 0.000000 -0.000107 0.000000 125.000000 -0.039253 -0.115515 0.992530
-15.72999954 0.70999998 -0.03000000 0 183 164 0.000000 0.000000 0.000000 0.000000 -0.000107 0.000000 125.000000 -0.258963 -0.387695 0.884664
-15.72999954 0.70999998 -0.03000000 0 183 164 0.000000 0.000000 0.000000 0.000000 -0.000107 0.000000 125.000000 -0.258963 -0.387695 0.884664
-15.75000000 0.67000002 -0.03000000 0 183 164 0.000000 0.000000 0.000000 0.000000 -0.000107 0.000000 125.000000 -0.003301 -0.130938 0.991385
-15.75000000 0.63000000 -0.04000000 0 183 164 0.000000 0.000000 0.000000 0.000000 -0.000107 0.000000 125.000000 -0.375307 -0.147593 0.915074
-15.78999996 0.67000002 -0.05000000 0 183 164 0.000000 0.000000 0.000000 0.000000 -0.000107 0.000000 125.000000 -0.501740 -0.439229 0.745208
-15.78999996 0.68000001 -0.05000000 0 183 164 0.000000 0.000000 0.000000 0.000000 -0.000107 0.000000 125.000000 -0.445135 -0.477986 0.757222
-15.78999996 0.69999999 -0.04000000 0 183 164 0.000000 0.000000 0.000000 0.000000 -0.000107 0.000000 125.000000 -0.281117 -0.233087 0.930937
-15.77999973 0.63000000 -0.05000000 0 183 164 0.000000 0.000000 0.000000 0.000000 -0.000107 0.000000 125.000000 -0.339334 -0.602359 0.722506
-15.77999973 0.66000003 -0.04000000 0 183 164 0.000000 0.000000 0.000000 0.000000 -0.000107 0.000000 125.000000 0.329721 0.667564 -0.667564
-15.77999973 0.63000000 -0.05000000 0 183 164 0.000000 0.000000 0.000000 0.000000 -0.000107 0.000000 125.000000 -0.339334 -0.602359 0.722506
-15.77999973 0.63000000 -0.03000000 0 183 164 0.000000 0.000000 0.000000 0.000000 -0.000107 0.000000 125.000000 -0.460300 -0.450472 0.764983
-15.73999977 0.55000001 -0.05000000 0 183 164 0.000000 0.000000 0.000000 0.000000 -0.000107 0.000000 125.000000 -0.132802 -0.223056 0.965717
-15.75000000 0.57999998 -0.08000000 0 183 164 0.000000 0.000000 0.000000 0.000000 -0.000107 0.000000 125.000000 -0.340323 -0.100886 0.934881
-15.78999996 0.60000002 -0.06000000 0 183 164 0.000000 0.000000 0.000000 0.000000 -0.000107 0.000000 125.000000 -0.212150 -0.067446 0.974907
-15.77999973 0.61000001 -0.06000000 0 183 164 0.000000 0.000000 0.000000 0.000000 -0.000107 0.000000 125.000000 -0.271667 -0.235070 0.933241
-15.77000046 0.60000002 -0.06000000 0 183 164 0.000000 0.000000 0.000000 0.000000 -0.000107 0.000000 125.000000 0.014460 -0.132368 0.991095
-15.77000046 0.61000001 -0.06000000 0 183 164 0.000000 0.000000 0.000000 0.000000 -0.000107 0.000000 125.000000 0.124408 -0.343146 0.931007
-15.77999973 0.62000000 -0.06000000 0 183 164 0.000000 0.000000 0.000000 0.000000 -0.000107 0.000000 125.000000 -0.342099 -0.410832 0.845095
-15.77999973 0.58999997 -0.04000000 0 183 164 0.000000 0.000000 0.000000 0.000000 -0.000107 0.000000 125.000000 -0.376830 -0.466627 0.800162
-15.76000023 0.60000002 -0.06000000 0 183 164 0.000000 0.000000 0.000000 0.000000 -0.000107 0.000000 125.000000 -0.153246 -0.038023 0.987456
-15.76000023 0.62000000 -0.06000000 0 183 164 0.000000 0.000000 0.000000 0.000000 -0.000107 0.000000 125.000000 -0.046936 -0.647141 0.760924
-15.76000023 0.55000001 -0.09000000 0 183 164 0.000000 0.000000 0.000000 0.000000 -0.000107 0.000000 125.000000 -0.263092 -0.466181 0.844664
-15.77000046 0.55000001 -0.09000000 0 183 164 0.000000 0.000000 0.000000 0.000000 -0.000107 0.000000 125.000000 -0.168444 -0.608524 0.775451
-15.82999992 0.69999999 -0.05000000 0 183 164 0.000000 0.000000 0.000000 0.000000 -0.000107 0.000000 125.000000 0.004150 -0.693130 0.720800
-15.81000042 0.63000000 -0.03000000 0 183 164 0.000000 0.000000 0.000000 0.000000 -0.000107 0.000000 125.000000 0.043920 0.774975 -0.630464
-15.81999969 0.63999999 -0.03000000 0 183 164 0.000000 0.000000 0.000000 0.000000 -0.000107 0.000000 125.000000 0.050044 -0.434167 0.899442
-15.81999969 0.63000000 -0.03000000 0 183 164 0.000000 0.000000 0.000000 0.000000 -0.000107 0.000000 125.000000 0.015195 -0.592612 0.805345
-15.80000019 0.63000000 -0.05000000 0 183 164 0.000000 0.000000 0.000000 0.000000 -0.000107 0.000000 125.000000 -0.144878 -0.496096 0.856095
-15.81000042 0.60000002 -0.04000000 0 183 164 0.000000 0.000000 0.000000 0.000000 -0.000107 0.000000 125.000000 0.162179 -0.198507 0.966588
-15.80000019 0.57999998 -0.05000000 0 183 164 0.000000 0.000000 0.000000 0.000000 -0.000107 0.000000 125.000000 0.029607 -0.680964 0.731719
-15.81000042 0.56999999 -0.07000000 0 183 164 0.000000 0.000000 0.000000 0.000000 -0.000107 0.000000 125.000000 -0.079510 -0.614396 0.784981
-15.63000011 0.38000000 0.19000000 0 183 164 0.000000 0.000000 0.000000 0.000000 -0.000107 0.000000 125.000000 -0.473301 -0.025620 0.880528
-15.68999958 0.34000000 0.49000001 0 183 164 0.000000 0.000000 0.000000 0.000000 -0.000107 0.000000 125.000000 0.584310 0.687521 -0.431157
-15.65999985 0.22000000 0.47999999 0 183 164 0.000000 0.000000 0.000000 0.000000 -0.000107 0.000000 125.000000 0.746285 0.018134 -0.665379
-15.71000004 0.25999999 0.43000001 0 183 164 0.000000 0.000000 0.000000 0.000000 -0.000107 0.000000 125.000000 0.708102 0.343470 -0.616944
-15.69999981 0.20000000 0.44999999 0 183 164 0.000000 0.000000 0.000000 0.000000 -0.000107 0.000000 125.000000 -0.530774 -0.017738 0.847328
-15.68999958 0.20999999 0.46000001 0 183 164 0.000000 0.000000 0.000000 0.000000 -0.000107 0.000000 125.000000 0.619865 0.485477 -0.616506
-15.67000008 0.25000000 0.38000000 0 183 164 0.000000 0.000000 0.000000 0.000000 -0.000107 0.000000 125.000000 -0.231203 -0.460894 0.856809
-15.68999958 0.23999999 0.38000000 0 183 164 0.000000 0.000000 0.000000 0.000000 -0.000107 0.000000 125.000000 -0.469884 -0.283791 0.835866
-15.60000038 0.23000000 0.22000000 0 183 164 0.000000 0.000000 0.000000 0.000000 -0.000107 0.000000 125.000000 0.276496 0.567213 -0.775770
-15.60999966 0.23000000 0.19000000 0 183 164 0.000000 0.000000 0.000000 0.000000 -0.000107 0.000000 125.000000 -0.503133 -0.352032 0.789259
-15.61999989 0.22000000 0.18000001 0 183 164 0.000000 0.000000 0.000000 0.000000 -0.000107 0.000000 125.000000 -0.140628 -0.215458 0.966334
-15.64000034 0.33000001 0.22000000 0 183 164 0.000000 0.000000 0.000000 0.000000 -0.000107 0.000000 125.000000 0.594353 0.274195 -0.756017
-15.63000011 0.34999999 0.19000000 0 183 164 0.000000 0.000000 0.000000 0.000000 -0.000107 0.000000 125.000000 -0.224576 -0.138899 0.964507
-15.63000011 0.34999999 0.17000000 0 183 164 0.000000 0.000000 0.000000 0.000000 -0.000107 0.000000 125.000000 -0.656536 -0.142725 0.740669
-15.64000034 0.31000000 0.20999999 0 183 164 0.000000 0.000000 0.000000 0.000000 -0.000107 0.000000 125.000000 -0.199934 -0.300600 0.932559
-15.65999985 0.28999999 0.23000000 0 183 164 0.000000 0.000000 0.000000 0.000000 -0.000107 0.000000 125.000000 -0.535788 -0.236241 0.810630
-15.64000034 0.31999999 0.22000000 0 183 164 0.000000 0.000000 0.000000 0.000000 -0.000107 0.000000 125.000000 0.442265 0.635860 -0.632522
-15.63000011 0.31000000 0.22000000 0 183 164 0.000000 0.000000 0.000000 0.000000 -0.000107 0.000000 125.000000 0.454392 0.470796 -0.756227
-15.64000034 0.30000001 0.20999999 0 183 164 0.000000 0.000000 0.000000 0.000000 -0.000107 0.000000 125.000000 -0.054961 -0.300370 0.952238
-15.64000034 0.31999999 0.20999999 0 183 164 0.000000 0.000000 0.000000 0.000000 -0.000107 0.000000 125.000000 -0.155253 -0.215267 0.964135
-15.65999985 0.30000001 0.18000001 0 183 164 0.000000 0.000000 0.000000 0.000000 -0.000107 0.000000 125.000000 -0.519464 -0.080680 0.850675
-15.67000008 0.34000000 0.23000000 0 183 164 0.000000 0.000000 0.000000 0.000000 -0.000107 0.000000 125.000000 -0.184147 -0.240601 0.952996
-15.68000031 0.30000001 0.22000000 0 183 164 0.000000 0.000000 0.000000 0.000000 -0.000107 0.000000 125.000000 -0.143313 -0.210451 0.967043
-15.67000008 0.31000000 0.23000000 0 183 164 0.000000 0.000000 0.000000 0.000000 -0.000107 0.000000 125.000000 0.254481 0.488912 -0.834389
-15.64999962 0.25000000 0.27000001 0 183 164 0.000000 0.000000 0.000000 0.000000 -0.000107 0.000000 125.000000 -0.463128 -0.583508 0.667106
-15.65999985 0.22000000 0.25000000 0 183 164 0.000000 0.000000 0.000000 0.000000 -0.000107 0.000000 125.000000 0.445707 0.612638 -0.652702
-15.65999985 0.23999999 0.25999999 0 183 164 0.000000 0.000000 0.000000 0.000000 -0.000107 0.000000 125.000000 0.527678 0.497525 -0.688494
-15.65999985 0.22000000 0.25000000 0 183 164 0.000000 0.000000 0.000000 0.000000 -0.000107 0.000000 125.000000 0.445707 0.612638 -0.652702
-15.71000004 0.25999999 0.30000001 0 183 164 0.000000 0.000000 0.000000 0.000000 -0.000107 0.000000 125.000000 0.354642 0.625935 -0.694575
-15.68000031 0.25999999 0.28000000 0 183 164 0.000000 0.000000 0.000000 0.000000 -0.000107 0.000000 125.000000 0.189655 0.556826 -0.808688
-15.68000031 0.20000000 0.25000000 0 183 164 0.000000 0.000000 0.000000 0.000000 -0.000107 0.000000 125.000000 0.385838 0.760281 -0.522591
-15.69999981 0.23999999 0.23999999 0 183 164 0.000000 0.000000 0.000000 0.000000 -0.000107 0.000000 125.000000 -0.532001 -0.102363 0.840533
-15.69999981 0.20000000 0.25000000 0 183 164 0.000000 0.000000 0.000000 0.000000 -0.000107 0.000000 125.000000 -0.202282 -0.426711 0.881476
-15.65999985 0.25999999 0.22000000 0 183 164 0.000000 0.000000 0.000000 0.000000 -0.000107 0.000000 125.000000 -0.196552 -0.191276 0.961655
-15.64999962 0.25000000 0.18000001 0 183 164 0.000000 0.000000 0.000000 0.000000 -0.000107 0.000000 125.000000 -0.118604 -0.344907 0.931113
-15.63000011 0.25000000 0.18000001 0 183 164 0.000000 0.000000 0.000000 0.000000 -0.000107 0.000000 125.000000 0.639636 0.279143 -0.716201
-15.64999962 0.20000000 0.20000000 0 183 164 0.000000 0.000000 0.000000 0.000000 -0.000107 0.000000 125.000000 -0.301173 -0.346124 0.888534
-15.63000011 0.23999999 0.22000000 0 183 164 0.000000 0.000000 0.000000 0.000000 -0.000107 0.000000 125.000000 -0.383760 -0.062846 0.921292
-15.65999985 0.22000000 0.15000001 0 183 164 0.000000 0.000000 0.000000 0.000000 -0.000107 0.000000 125.000000 -0.610777 -0.222242 0.759974
-15.65999985 0.22000000 0.15000001 0 183 164 0.000000 0.000000 0.000000 0.000000 -0.000107 0.000000 125.000000 -0.610777 -0.222242 0.759974
-15.65999985 0.23000000 0.16000000 0 183 164 0.000000 0.000000 0.000000 0.000000 -0.000107 0.000000 125.000000 0.179489 0.725628 -0.664264
-15.64999962 0.22000000 0.16000000 0 183 164 0.000000 0.000000 0.000000 0.000000 -0.000107 0.000000 125.000000 -0.529493 -0.357853 0.769141
-15.64000034 0.23000000 0.17000000 0 183 164 0.000000 0.000000 0.000000 0.000000 -0.000107 0.000000 125.000000 0.643220 0.388577 -0.659755
-15.64000034 0.23999999 0.18000001 0 183 164 0.000000 0.000000 0.000000 0.000000 -0.000107 0.000000 125.000000 -0.550210 -0.186435 0.813948
-15.67000008 0.27000001 0.19000000 0 183 164 0.000000 0.000000 0.000000 0.000000 -0.000107 0.000000 125.000000 -0.221159 -0.194352 0.955676
-15.69999981 0.28000000 0.16000000 0 183 164 0.000000 0.000000 0.000000 0.000000 -0.000107 0.000000 125.000000 -0.403153 -0.142872 0.903911
-15.69999981 0.25999999 0.19000000 0 183 164 0.000000 0.000000 0.000000 0.000000 -0.000107 0.000000 125.000000 -0.240111 -0.111709 0.964296
-15.67000008 0.25000000 0.18000001 0 183 164 0.000000 0.000000 0.000000 0.000000 -0.000107 0.000000 125.000000 0.043059 -0.540326 0.840353
-15.68999958 0.25000000 0.18000001 0 183 164 0.000000 0.000000 0.000000 0.000000 -0.000107 0.000000 125.000000 -0.275005 -0.355276 0.893393
-15.71000004 0.20000000 0.18000001 0 183 164 0.000000 0.000000 0.000000 0.000000 -0.000107 0.000000 125.000000 -0.092400 -0.501804 0.860032
-15.68000031 0.20000000 0.18000001 0 183 164 0.000000 0.000000 0.000000 0.000000 -0.000107 0.000000 125.000000 -0.530326 -0.063302 0.845427
-15.68999958 0.20999999 0.15000001 0 183 164 0.000000 0.000000 0.000000 0.000000 -0.000107 0.000000 125.000000 0.043518 -0.576963 0.815610
-15.69999981 0.23999999 0.15000001 0 183 164 0.000000 0.000000 0.000000 0.000000 -0.000107 0.000000 125.000000 0.069090 0.319380 -0.945105
-15.77000046 0.46000001 0.47000000 0 183 164 0.000000 0.000000 0.000000 0.000000 -0.000107 0.000000 125.000000 -0.190183 -0.108143 0.975774
-15.77999973 0.51999998 0.40000001 0 183 164 0.000000 0.000000 0.000000 0.000000 -0.000107 0.000000 125.000000 -0.255350 -0.463299 0.848617
-15.76000023 0.50000000 0.38999999 0 183 164 0.000000 0.000000 0.000000 0.000000 -0.000107 0.000000 125.000000 -0.244532 -0.457169 0.855103
-15.78999996 0.40000001 0.33000001 0 183 164 0.000000 0.000000 0.000000 0.000000 -0.000107 0.000000 125.000000 -0.108494 -0.530895 0.840464
-15.82999992 0.54000002 0.34000000 0 183 164 0.000000 0.000000 0.000000 0.000000 -0.000107 0.000000 125.000000 -0.421933 -0.438099 0.793752
-15.81000042 0.54000002 0.34000000 0 183 164 0.000000 0.000000 0.000000 0.000000 -0.000107 0.000000 125.000000 0.066385 -0.546613 0.834750
-15.82999992 0.52999997 0.38000000 0 183 164 0.000000 0.000000 0.000000 0.000000 -0.000107 0.000000 125.000000 -0.284498 -0.117769 0.951415
-15.77000046 0.38000000 0.31000000 0 183 164 0.000000 0.000000 0.000000 0.000000 -0.000107 0.000000 125.000000 -0.044065 -0.660979 0.749110
-15.77999973 0.38999999 0.31999999 0 183 164 0.000000 0.000000 0.000000 0.000000 -0.000107 0.000000 125.000000 0.076300 -0.600322 0.796110
-15.77000046 0.37000000 0.27000001 0 183 164 0.000000 0.000000 0.000000 0.000000 -0.000107 0.000000 125.000000 0.122158 -0.307409 0.943704
-15.78999996 0.37000000 0.25000000 0 183 164 0.000000 0.000000 0.000000 0.000000 -0.000107 0.000000 125.000000 -0.532007 -0.565786 0.629964
-15.86999989 0.54000002 0.16000000 0 183 164 0.000000 0.000000 0.000000 0.000000 -0.000107 0.000000 125.000000 -0.333352 -0.459742 0.823112
-15.86999989 0.52999997 0.15000001 0 183 164 0.000000 0.000000 0.000000 0.000000 -0.000107 0.000000 125.000000 -0.310707 -0.493662 0.812255
-15.81000042 0.38000000 0.31999999 0 183 164 0.000000 0.000000 0.000000 0.000000 -0.000107 0.000000 125.000000 0.012578 -0.174946 0.984498
-15.81999969 0.37000000 0.19000000 0 183 164 0.000000 0.000000 0.000000 0.000000 -0.000107 0.000000 125.000000 -0.370321 -0.643535 0.669869
-15.72999954 0.28999999 0.36000001 0 183 164 0.000000 0.000000 0.000000 0.000000 -0.000107 0.000000 125.000000 -0.090749 -0.448158 0.889336
-15.72000027 0.27000001 0.41000000 0 183 164 0.000000 0.000000 0.000000 0.000000 -0.000107 0.000000 125.000000 -0.690086 -0.101526 0.716571
-15.72999954 0.23000000 0.47999999 0 183 164 0.000000 0.000000 0.000000 0.000000 -0.000107 0.000000 125.000000 0.601337 0.674630 -0.428099
-15.72000027 0.23999999 0.47999999 0 183 164 0.000000 0.000000 0.000000 0.000000 -0.000107 0.000000 125.000000 0.810178 0.342217 -0.475920
-15.72000027 0.23999999 0.44000000 0 183 164 0.000000 0.000000 0.000000 0.000000 -0.000107 0.000000 125.000000 0.715900 0.446815 -0.536510
-15.75000000 0.20999999 0.43000001 0 183 164 0.000000 0.000000 0.000000 0.000000 -0.000107 0.000000 125.000000 -0.599947 -0.215485 0.770474
-15.73999977 0.20000000 0.43000001 0 183 164 0.000000 0.000000 0.000000 0.000000 -0.000107 0.000000 125.000000 -0.478952 -0.257186 0.839321
-15.75000000 0.25000000 0.33000001 0 183 164 0.000000 0.000000 0.000000 0.000000 -0.000107 0.000000 125.000000 -0.152127 -0.631102 0.760636
-15.73999977 0.23999999 0.33000001 0 183 164 0.000000 0.000000 0.000000 0.000000 -0.000107 0.000000 125.000000 0.568969 0.552085 -0.609489
-15.78999996 0.23999999 0.37000000 0 183 164 0.000000 0.000000 0.000000 0.000000 -0.000107 0.000000 125.000000 -0.447379 -0.081719 0.890603
-15.78999996 0.22000000 0.33000001 0 183 164 0.000000 0.000000 0.000000 0.000000 -0.000107 0.000000 125.000000 0.058781 -0.338319 0.939194
-15.84000015 0.30000001 0.34000000 0 183 164 0.000000 0.000000 0.000000 0.000000 -0.000107 0.000000 125.000000 -0.236223 -0.599161 0.764987
-15.85999966 0.28999999 0.33000001 0 183 164 0.000000 0.000000 0.000000 0.000000 -0.000107 0.000000 125.000000 -0.357162 -0.212562 0.909534
-15.81000042 0.28999999 0.34999999 0 183 164 0.000000 0.000000 0.000000 0.000000 -0.000107 0.000000 125.000000 0.567538 0.467089 -0.678032
-15.85999966 0.27000001 0.33000001 0 183 164 0.000000 0.000000 0.000000 0.000000 -0.000107 0.000000 125.000000 -0.109515 -0.339362 0.934259
-15.76000023 0.34000000 0.28999999 0 183 164 0.000000 0.000000 0.000000 0.000000 -0.000107 0.000000 125.000000 -0.097838 -0.090932 0.991039
-15.77000046 0.34999999 0.27000001 0 183 164 0.000000 0.000000 0.000000 0.000000 -0.000107 0.000000 125.000000 -0.318389 -0.345550 0.882737
-15.77000046 0.34999999 0.27000001 0 183 164 0.000000 0.000000 0.000000 0.000000 -0.000107 0.000000 125.000000 -0.318389 -0.345550 0.882737
-15.77999973 0.36000001 0.25999999 0 183 164 0.000000 0.000000 0.000000 0.000000 -0.000107 0.000000 125.000000 -0.381577 -0.079551 0.920908
-15.77000046 0.30000001 0.27000001 0 183 164 0.000000 0.000000 0.000000 0.000000 -0.000107 0.000000 125.000000 0.047317 -0.315874 0.947621
-15.76000023 0.34999999 0.20000000 0 183 164 0.000000 0.000000 0.000000 0.000000 -0.000107 0.000000 125.000000 -0.016904 -0.399192 0.916712
-15.72999954 0.28999999 0.23000000 0 183 164 0.000000 0.000000 0.000000 0.000000 -0.000107 0.000000 125.000000 -0.108177 -0.091892 0.989876
-15.75000000 0.25000000 0.31999999 0 183 164 0.000000 0.000000 0.000000 0.000000 -0.000107 0.000000 125.000000 -0.550839 -0.428431 0.716256
-15.77999973 0.22000000 0.31000000 0 183 164 0.000000 0.000000 0.000000 0.000000 -0.000107 0.000000 125.000000 -0.379719 -0.181978 0.907027
-15.72999954 0.20000000 0.18000001 0 183 164 0.000000 0.000000 0.000000 0.000000 -0.000107 0.000000 125.000000 0.003997 -0.483602 0.875279
-15.80000019 0.33000001 0.27000001 0 183 164 0.000000 0.000000 0.000000 0.000000 -0.000107 0.000000 125.000000 0.098260 -0.661422 0.743550
-15.82999992 0.34000000 0.27000001 0 183 164 0.000000 0.000000 0.000000 0.000000 -0.000107 0.000000 125.000000 0.175594 -0.538787 0.823939
-15.84000015 0.31999999 0.31000000 0 183 164 0.000000 0.000000 0.000000 0.000000 -0.000107 0.000000 125.000000 0.242830 -0.400744 0.883424
-15.82999992 0.31999999 0.31000000 0 183 164 0.000000 0.000000 0.000000 0.000000 -0.000107 0.000000 125.000000 0.024342 -0.349755 0.936525
-15.85999966 0.34999999 0.28000000 0 183 164 0.000000 0.000000 0.000000 0.000000 -0.000107 0.000000 125.000000 -0.056378 -0.190727 0.980023
-15.88000011 0.31999999 0.23999999 0 183 164 0.000000 0.000000 0.000000 0.000000 -0.000107 0.000000 125.000000 0.288687 -0.262835 0.920640
-15.84000015 0.30000001 0.20000000 0 183 164 0.000000 0.000000 0.000000 0.000000 -0.000107 0.000000 125.000000 0.226715 -0.312268 0.922545
-15.88000011 0.34000000 0.20999999 0 183 164 0.000000 0.000000 0.000000 0.000000 -0.000107 0.000000 125.000000 -0.325735 -0.633643 0.701707
-15.86999989 0.36000001 0.19000000 0 183 164 0.000000 0.000000 0.000000 0.000000 -0.000107 0.000000 125.000000 -0.162753 -0.658615 0.734668
-15.86999989 0.36000001 0.19000000 0 183 164 0.000000 0.000000 0.000000 0.000000 -0.000107 0.000000 125.000000 -0.162753 -0.658615 0.734668
-15.88000011 0.36000001 0.18000001 0 183 164 0.000000 0.000000 0.000000 0.000000 -0.000107 0.000000 125.000000 0.133204 -0.722896 0.677996
-15.80000019 0.25999999 0.25999999 0 183 164 0.000000 0.000000 0.000000 0.000000 -0.000107 0.000000 125.000000 0.052979 -0.688722 0.723087
-15.81000042 0.25999999 0.25000000 0 183 164 0.000000 0.000000 0.000000 0.000000 -0.000107 0.000000 125.000000 0.067261 -0.156942 0.985315
-15.82999992 0.25999999 0.25000000 0 183 164 0.000000 0.000000 0.000000 0.000000 -0.000107 0.000000 125.000000 -0.332329 -0.222992 0.916423
-15.84000015 0.23999999 0.25999999 0 183 164 0.000000 0.000000 0.000000 0.000000 -0.000107 0.000000 125.000000 -0.041222 -0.714983 0.697926
-15.68999958 0.38000000 0.00000000 0 183 164 0.000000 0.000000 0.000000 0.000000 -0.000107 0.000000 125.000000 0.129750 -0.440579 0.888288
-15.68999958 0.49000001 -0.12000000 0 183 164 0.000000 0.000000 0.000000 0.000000 -0.000107 0.000000 125.000000 -0.243577 -0.202754 0.948452
-15.69999981 0.47000000 -0.12000000 0 183 164 0.000000 0.000000 0.000000 0.000000 -0.000107 0.000000 125.000000 -0.194238 -0.407462 0.892327
-15.71000004 0.49000001 -0.13000000 0 183 164 0.000000 0.000000 0.000000 0.000000 -0.000107 0.000000 125.000000 -0.335949 -0.061438 0.939874
-15.68999958 0.41999999 -0.05000000 0 183 164 0.000000 0.000000 0.000000 0.000000 -0.000107 0.000000 125.000000 0.066848 -0.567493 0.820660
-15.68999958 0.43000001 -0.09000000 0 183 164 0.000000 0.000000 0.000000 0.000000 -0.000107 0.000000 125.000000 -0.157067 -0.233620 0.959558
-15.71000004 0.44000000 -0.09000000 0 183 164 0.000000 0.000000 0.000000 0.000000 -0.000107 0.000000 125.000000 -0.364491 -0.062295 0.929121
-15.67000008 0.38999999 -0.09000000 0 183 164 0.000000 0.000000 0.000000 0.000000 -0.000107 0.000000 125.000000 -0.377019 -0.120149 0.918380
-15.64000034 0.44000000 -0.11000000 0 183 164 0.000000 0.000000 0.000000 0.000000 -0.000107 0.000000 125.000000 0.133500 -0.529599 0.837677
-15.63000011 0.40000001 -0.12000000 0 183 164 0.000000 0.000000 0.000000 0.000000 -0.000107 0.000000 125.000000 -0.515546 -0.542415 0.663324
-15.67000008 0.43000001 -0.14000000 0 183 164 0.000000 0.000000 0.000000 0.000000 -0.000107 0.000000 125.000000 -0.018148 -0.255285 0.966695
-15.71000004 0.44999999 -0.12000000 0 183 164 0.000000 0.000000 0.000000 0.000000 -0.000107 0.000000 125.000000 -0.317162 -0.442151 0.838994
-15.69999981 0.44000000 -0.19000000 0 183 164 0.000000 0.000000 0.000000 0.000000 -0.000107 0.000000 125.000000 -0.264399 -0.412462 0.871761
-15.68999958 0.41000000 -0.15000001 0 183 164 0.000000 0.000000 0.000000 0.000000 -0.000107 0.000000 125.000000 -0.257789 -0.110111 0.959907
-15.64999962 0.31000000 0.14000000 0 183 164 0.000000 0.000000 0.000000 0.000000 -0.000107 0.000000 125.000000 0.670564 0.509225 -0.539476
-15.65999985 0.28999999 0.03000000 0 183 164 0.000000 0.000000 0.000000 0.000000 -0.000107 0.000000 125.000000 -0.009223 -0.441388 0.897269
-15.69999981 0.34999999 0.03000000 0 183 164 0.000000 0.000000 0.000000 0.000000 -0.000107 0.000000 125.000000 0.206752 0.682438 -0.701093
-15.69999981 0.36000001 0.00000000 0 183 164 0.000000 0.000000 0.000000 0.000000 -0.000107 0.000000 125.000000 -0.459235 -0.300449 0.835963
-15.71000004 0.31999999 0.02000000 0 183 164 0.000000 0.000000 0.000000 0.000000 -0.000107 0.000000 125.000000 -0.167506 -0.505481 0.846422
-15.68000031 0.20000000 0.14000000 0 183 164 0.000000 0.000000 0.000000 0.000000 -0.000107 0.000000 125.000000 -0.055685 -0.649664 0.758179
-15.68999958 0.23000000 0.09000000 0 183 164 0.000000 0.000000 0.000000 0.000000 -0.000107 0.000000 125.000000 -0.431630 -0.530856 0.729306
-15.71000004 0.34999999 -0.10000000 0 183 164 0.000000 0.000000 0.000000 0.000000 -0.000107 0.000000 125.000000 0.249836 0.768364 -0.589236
-15.68999958 0.33000001 -0.10000000 0 183 164 0.000000 0.000000 0.000000 0.000000 -0.000107 0.000000 125.000000 0.498010 0.491348 -0.714537
-15.71000004 0.31999999 -0.14000000 0 183 164 0.000000 0.000000 0.000000 0.000000 -0.000107 0.000000 125.000000 0.150200 -0.473931 0.867658
-15.69999981 0.33000001 -0.13000000 0 183 164 0.000000 0.000000 0.000000 0.000000 -0.000107 0.000000 125.000000 -0.016494 -0.117655 0.992918
-15.71000004 0.36000001 -0.12000000 0 183 164 0.000000 0.000000 0.000000 0.000000 -0.000107 0.000000 125.000000 -0.365286 -0.460994 0.808734
-15.71000004 0.34999999 -0.11000000 0 183 164 0.000000 0.000000 0.000000 0.000000 -0.000107 0.000000 125.000000 0.142233 0.780035 -0.609356
-15.68999958 0.25999999 -0.14000000 0 183 164 0.000000 0.000000 0.000000 0.000000 -0.000107 0.000000 125.000000 -0.422230 -0.517519 0.744242
-15.71000004 0.25000000 -0.16000000 0 183 164 0.000000 0.000000 0.000000 0.000000 -0.000107 0.000000 125.000000 0.175458 0.746076 -0.642327
-15.71000004 0.23999999 -0.13000000 0 183 164 0.000000 0.000000 0.000000 0.000000 -0.000107 0.000000 125.000000 -0.262366 -0.666250 0.698051
-15.71000004 0.20000000 -0.14000000 0 183 164 0.000000 0.000000 0.000000 0.000000 -0.000107 0.000000 125.000000 -0.297621 -0.044327 0.953654
-15.68999958 0.23999999 -0.16000000 0 183 164 0.000000 0.000000 0.000000 0.000000 -0.000107 0.000000 125.000000 -0.510984 -0.527737 0.678520
-15.68000031 0.20000000 -0.16000000 0 183 164 0.000000 0.000000 0.000000 0.000000 -0.000107 0.000000 125.000000 -0.279268 -0.646306 0.710139
-15.82999992 0.52999997 0.12000000 0 183 164 0.000000 0.000000 0.000000 0.000000 -0.000107 0.000000 125.000000 -0.096955 -0.270181 0.957915
-15.85000038 0.54000002 0.11000000 0 183 164 0.000000 0.000000 0.000000 0.000000 -0.000107 0.000000 125.000000 0.239081 -0.359355 0.902055
-15.85000038 0.54000002 0.11000000 0 183 164 0.000000 0.000000 0.000000 0.000000 -0.000107 0.000000 125.000000 0.239081 -0.359355 0.902055
-15.88000011 0.50000000 0.09000000 0 183 164 0.000000 0.000000 0.000000 0.000000 -0.000107 0.000000 125.000000 -0.433690 -0.297873 0.850403
-15.73999977 0.54000002 -0.04000000 0 183 164 0.000000 0.000000 0.000000 0.000000 -0.000107 0.000000 125.000000 0.146373 -0.243955 0.958677
-15.72000027 0.46000001 -0.09000000 0 183 164 0.000000 0.000000 0.000000 0.000000 -0.000107 0.000000 125.000000 0.039969 -0.339088 0.939905
-15.77000046 0.52999997 -0.04000000 0 183 164 0.000000 0.000000 0.000000 0.000000 -0.000107 0.000000 125.000000 0.125965 -0.600188 0.789878
-15.78999996 0.47000000 -0.10000000 0 183 164 0.000000 0.000000 0.000000 0.000000 -0.000107 0.000000 125.000000 0.212646 -0.297141 0.930854
-15.77999973 0.47999999 -0.09000000 0 183 164 0.000000 0.000000 0.000000 0.000000 -0.000107 0.000000 125.000000 -0.527958 -0.419406 0.738484
-15.72999954 0.46000001 -0.12000000 0 183 164 0.000000 0.000000 0.000000 0.000000 -0.000107 0.000000 125.000000 0.230739 0.714192 -0.660824
-15.72999954 0.46000001 -0.12000000 0 183 164 0.000000 0.000000 0.000000 0.000000 -0.000107 0.000000 125.000000 0.230739 0.714192 -0.660824
-15.72999954 0.47999999 -0.14000000 0 183 164 0.000000 0.000000 0.000000 0.000000 -0.000107 0.000000 125.000000 -0.204803 -0.093092 0.974366
-15.75000000 0.46000001 -0.14000000 0 183 164 0.000000 0.000000 0.000000 0.000000 -0.000107 0.000000 125.000000 -0.019597 -0.401085 0.915831
-15.78999996 0.52999997 -0.16000000 0 183 164 0.000000 0.000000 0.000000 0.000000 -0.000107 0.000000 125.000000 -0.425690 -0.504583 0.751122
-15.78999996 0.46000001 -0.12000000 0 183 164 0.000000 0.000000 0.000000 0.000000 -0.000107 0.000000 125.000000 0.290835 0.666831 -0.686113
-15.76000023 0.46000001 -0.14000000 0 183 164 0.000000 0.000000 0.000000 0.000000 -0.000107 0.000000 125.000000 -0.272688 -0.359114 0.892569
-15.72999954 0.38000000 -0.09000000 0 183 164 0.000000 0.000000 0.000000 0.000000 -0.000107 0.000000 125.000000 0.165560 -0.627307 0.760970
-15.72000027 0.38999999 -0.08000000 0 183 164 0.000000 0.000000 0.000000 0.000000 -0.000107 0.000000 125.000000 -0.314833 -0.631280 0.708778
-15.73999977 0.38999999 -0.09000000 0 183 164 0.000000 0.000000 0.000000 0.000000 -0.000107 0.000000 125.000000 -0.051501 -0.131613 0.989962
-15.75000000 0.41000000 -0.10000000 0 183 164 0.000000 0.000000 0.000000 0.000000 -0.000107 0.000000 125.000000 -0.444389 -0.507165 0.738446
-15.72999954 0.37000000 -0.10000000 0 183 164 0.000000 0.000000 0.000000 0.000000 -0.000107 0.000000 125.000000 0.460512 0.493524 -0.737810
-15.77000046 0.38999999 -0.08000000 0 183 164 0.000000 0.000000 0.000000 0.000000 -0.000107 0.000000 125.000000 -0.385075 -0.436205 0.813291
-15.77000046 0.38999999 -0.08000000 0 183 164 0.000000 0.000000 0.000000 0.000000 -0.000107 0.000000 125.000000 -0.385075 -0.436205 0.813291
-15.76000023 0.38000000 -0.08000000 0 183 164 0.000000 0.000000 0.000000 0.000000 -0.000107 0.000000 125.000000 0.072459 0.546997 -0.833993
-15.72999954 0.44000000 -0.14000000 0 183 164 0.000000 0.000000 0.000000 0.000000 -0.000107 0.000000 125.000000 0.412821 0.674771 -0.611770
-15.72999954 0.44000000 -0.15000001 0 183 164 0.000000 0.000000 0.000000 0.000000 -0.000107 0.000000 125.000000 0.076639 -0.646373 0.759163
-15.73999977 0.44999999 -0.14000000 0 183 164 0.000000 0.000000 0.000000 0.000000 -0.000107 0.000000 125.000000 -0.270230 -0.397042 0.877116
-15.73999977 0.44999999 -0.17000000 0 183 164 0.000000 0.000000 0.000000 0.000000 -0.000107 0.000000 125.000000 -0.016780 -0.139835 0.990033
-15.72000027 0.41999999 -0.16000000 0 183 164 0.000000 0.000000 0.000000 0.000000 -0.000107 0.000000 125.000000 -0.142304 -0.777431 0.612658
-15.75000000 0.37000000 -0.13000000 0 183 164 0.000000 0.000000 0.000000 0.000000 -0.000107 0.000000 125.000000 0.125245 -0.570232 0.811880
-15.72000027 0.41000000 -0.12000000 0 183 164 0.000000 0.000000 0.000000 0.000000 -0.000107 0.000000 125.000000 -0.328325 -0.203249 0.922438
-15.75000000 0.38999999 -0.12000000 0 183 164 0.000000 0.000000 0.000000 0.000000 -0.000107 0.000000 125.000000 -0.522492 -0.306507 0.795648
-15.75000000 0.38999999 -0.19000000 0 183 164 0.000000 0.000000 0.000000 0.000000 -0.000107 0.000000 125.000000 -0.187874 -0.518533 0.834162
-15.75000000 0.40000001 -0.18000001 0 183 164 0.000000 0.000000 0.000000 0.000000 -0.000107 0.000000 125.000000 -0.451981 -0.578736 0.678806
-15.76000023 0.43000001 -0.15000001 0 183 164 0.000000 0.000000 0.000000 0.000000 -0.000107 0.000000 125.000000 -0.330259 -0.552580 0.765235
-15.77000046 0.43000001 -0.15000001 0 183 164 0.000000 0.000000 0.000000 0.000000 -0.000107 0.000000 125.000000 0.011785 -0.425578 0.904845
-15.76000023 0.44000000 -0.15000001 0 183 164 0.000000 0.000000 0.000000 0.000000 -0.000107 0.000000 125.000000 0.448325 0.521116 -0.726253
-15.81999969 0.47000000 -0.06000000 0 183 164 0.000000 0.000000 0.000000 0.000000 -0.000107 0.000000 125.000000 0.006939 0.736964 -0.675897
-15.81000042 0.52999997 -0.06000000 0 183 164 0.000000 0.000000 0.000000 0.000000 -0.000107 0.000000 125.000000 -0.072877 -0.581583 0.810216
-15.81000042 0.52999997 -0.06000000 0 183 164 0.000000 0.000000 0.000000 0.000000 -0.000107 0.000000 125.000000 -0.072877 -0.581583 0.810216
-15.80000019 0.52999997 -0.17000000 0 183 164 0.000000 0.000000 0.000000 0.000000 -0.000107 0.000000 125.000000 0.440670 0.373854 -0.816115
-15.81000042 0.44000000 -0.08000000 0 183 164 0.000000 0.000000 0.000000 0.000000 -0.000107 0.000000 125.000000 -0.366370 -0.113890 0.923473
-15.81999969 0.44999999 -0.14000000 0 183 164 0.000000 0.000000 0.000000 0.000000 -0.000107 0.000000 125.000000 -0.270881 -0.600373 0.752447
-15.81000042 0.38000000 -0.19000000 0 183 164 0.000000 0.000000 0.000000 0.000000 -0.000107 0.000000 125.000000 -0.015348 0.743692 -0.668346
-15.72999954 0.34999999 -0.02000000 0 183 164 0.000000 0.000000 0.000000 0.000000 -0.000107 0.000000 125.000000 -0.459961 -0.516418 0.722321
-15.72999954 0.34999999 -0.02000000 0 183 164 0.000000 0.000000 0.000000 0.000000 -0.000107 0.000000 125.000000 -0.459961 -0.516418 0.722321
-15.72000027 0.28999999 0.06000000 0 183 164 0.000000 0.000000 0.000000 0.000000 -0.000107 0.000000 125.000000 -0.460271 -0.520089 0.719485
-15.75000000 0.30000001 0.03000000 0 183 164 0.000000 0.000000 0.000000 0.000000 -0.000107 0.000000 125.000000 0.213576 0.706205 -0.675026
-15.77000046 0.31000000 0.02000000 0 183 164 0.000000 0.000000 0.000000 0.000000 -0.000107 0.000000 125.000000 -0.446273 -0.542496 0.711715
-15.78999996 0.30000001 0.02000000 0 183 164 0.000000 0.000000 0.000000 0.000000 -0.000107 0.000000 125.000000 -0.035967 -0.424944 0.904505
-15.77000046 0.30000001 0.02000000 0 183 164 0.000000 0.000000 0.000000 0.000000 -0.000107 0.000000 125.000000 -0.284220 -0.078450 0.955544
-15.77000046 0.31000000 0.02000000 0 183 164 0.000000 0.000000 0.000000 0.000000 -0.000107 0.000000 125.000000 -0.446273 -0.542496 0.711715
-15.77999973 0.28999999 0.01000000 0 183 164 0.000000 0.000000 0.000000 0.000000 -0.000107 0.000000 125.000000 -0.278944 -0.537401 0.795858
-15.72000027 0.28000000 0.04000000 0 183 164 0.000000 0.000000 0.000000 0.000000 -0.000107 0.000000 125.000000 0.436084 0.555468 -0.708015
-15.72999954 0.27000001 -0.02000000 0 183 164 0.000000 0.000000 0.000000 0.000000 -0.000107 0.000000 125.000000 -0.029541 -0.676639 0.735722
-15.73999977 0.23000000 0.04000000 0 183 164 0.000000 0.000000 0.000000 0.000000 -0.000107 0.000000 125.000000 -0.298974 -0.474289 0.828049
-15.75000000 0.23999999 0.04000000 0 183 164 0.000000 0.000000 0.000000 0.000000 -0.000107 0.000000 125.000000 0.446769 0.620791 -0.644217
-15.73999977 0.23999999 -0.02000000 0 183 164 0.000000 0.000000 0.000000 0.000000 -0.000107 0.000000 125.000000 -0.365875 -0.209691 0.906733
-15.77000046 0.25999999 -0.01000000 0 183 164 0.000000 0.000000 0.000000 0.000000 -0.000107 0.000000 125.000000 0.035056 -0.612786 0.789471
-15.77999973 0.27000001 -0.01000000 0 183 164 0.000000 0.000000 0.000000 0.000000 -0.000107 0.000000 125.000000 -0.219284 -0.611196 0.760496
-15.77999973 0.27000001 -0.01000000 0 183 164 0.000000 0.000000 0.000000 0.000000 -0.000107 0.000000 125.000000 -0.219284 -0.611196 0.760496
-15.77000046 0.25999999 0.01000000 0 183 164 0.000000 0.000000 0.000000 0.000000 -0.000107 0.000000 125.000000 0.018373 -0.094028 0.995400
-15.77999973 0.22000000 -0.01000000 0 183 164 0.000000 0.000000 0.000000 0.000000 -0.000107 0.000000 125.000000 -0.149455 -0.537150 0.830141
-15.77000046 0.23000000 -0.01000000 0 183 164 0.000000 0.000000 0.000000 0.000000 -0.000107 0.000000 125.000000 0.053496 -0.119513 0.991390
-15.76000023 0.20000000 -0.02000000 0 183 164 0.000000 0.000000 0.000000 0.000000 -0.000107 0.000000 125.000000 -0.261794 -0.556509 0.788518
-15.76000023 0.23000000 -0.01000000 0 183 164 0.000000 0.000000 0.000000 0.000000 -0.000107 0.000000 125.000000 -0.344547 -0.185743 0.920210
-15.82999992 0.25999999 0.02000000 0 183 164 0.000000 0.000000 0.000000 0.000000 -0.000107 0.000000 125.000000 0.024464 -0.364387 0.930926
-15.82999992 0.25000000 0.01000000 0 183 164 0.000000 0.000000 0.000000 0.000000 -0.000107 0.000000 125.000000 0.020979 -0.675513 0.737050
-15.72999954 0.34999999 -0.06000000 0 183 164 0.000000 0.000000 0.000000 0.000000 -0.000107 0.000000 125.000000 0.173226 -0.345043 0.922463
-15.72999954 0.33000001 -0.08000000 0 183 164 0.000000 0.000000 0.000000 0.000000 -0.000107 0.000000 125.000000 -0.396174 -0.325263 0.858633
-15.73999977 0.31999999 -0.05000000 0 183 164 0.000000 0.000000 0.000000 0.000000 -0.000107 0.000000 125.000000 -0.348805 -0.333574 0.875821
-15.72999954 0.31000000 -0.09000000 0 183 164 0.000000 0.000000 0.000000 0.000000 -0.000107 0.000000 125.000000 0.351403 0.612913 -0.707710
-15.77999973 0.30000001 -0.09000000 0 183 164 0.000000 0.000000 0.000000 0.000000 -0.000107 0.000000 125.000000 0.035021 -0.595365 0.802692
-15.78999996 0.30000001 -0.09000000 0 183 164 0.000000 0.000000 0.000000 0.000000 -0.000107 0.000000 125.000000 -0.074488 -0.108867 0.991262
-15.77999973 0.33000001 -0.19000000 0 183 164 0.000000 0.000000 0.000000 0.000000 -0.000107 0.000000 125.000000 0.260172 -0.439706 0.859633
-15.76000023 0.31000000 -0.16000000 0 183 164 0.000000 0.000000 0.000000 0.000000 -0.000107 0.000000 125.000000 -0.422492 -0.390606 0.817880
-15.72999954 0.28000000 -0.05000000 0 183 164 0.000000 0.000000 0.000000 0.000000 -0.000107 0.000000 125.000000 0.038664 -0.417307 0.907943
-15.73999977 0.20999999 -0.06000000 0 183 164 0.000000 0.000000 0.000000 0.000000 -0.000107 0.000000 125.000000 0.026744 0.724916 -0.688318
-15.76000023 0.28000000 -0.10000000 0 183 164 0.000000 0.000000 0.000000 0.000000 -0.000107 0.000000 125.000000 0.064719 -0.645748 0.760803
-15.76000023 0.28000000 -0.10000000 0 183 164 0.000000 0.000000 0.000000 0.000000 -0.000107 0.000000 125.000000 0.064719 -0.645748 0.760803
-15.76000023 0.20999999 -0.06000000 0 183 164 0.000000 0.000000 0.000000 0.000000 -0.000107 0.000000 125.000000 -0.132927 -0.521483 0.842844
-15.75000000 0.25999999 -0.11000000 0 183 164 0.000000 0.000000 0.000000 0.000000 -0.000107 0.000000 125.000000 -0.377844 -0.188204 0.906539
