//X Y Z R G B PointSourceId ScanDirectionFlag NumberOfReturns ReturnNumber GpsTime Intensity Classification Nx Ny Nz
-2.74000001 9.27000046 -0.16000000 127 238 73 0.000000 0.000000 0.000000 0.000000 0.000000 0.000000 169.000000 0.724475 -0.089279 0.683495
-2.74000001 9.27000046 -0.16000000 127 238 73 0.000000 0.000000 0.000000 0.000000 0.000000 0.000000 169.000000 0.724475 -0.089279 0.683495
-2.75000000 9.26000023 -0.18000001 127 238 73 0.000000 0.000000 0.000000 0.000000 0.000000 0.000000 169.000000 0.901212 0.264021 0.343670
-2.79999995 9.21000004 -0.14000000 127 238 73 0.000000 0.000000 0.000000 0.000000 0.000000 0.000000 169.000000 0.687277 0.530089 0.496645
-2.79999995 9.21000004 -0.13000000 127 238 73 0.000000 0.000000 0.000000 0.000000 0.000000 0.000000 169.000000 0.932915 0.141517 0.331123
-3.01999998 10.18999958 0.34999999 127 238 73 0.000000 0.000000 0.000000 0.000000 0.000000 0.000000 169.000000 0.876610 0.418076 0.238258
-3.00999999 10.18999958 0.34999999 127 238 73 0.000000 0.000000 0.000000 0.000000 0.000000 0.000000 169.000000 0.830278 0.377974 0.409604
-3.00000000 10.18999958 0.34000000 127 238 73 0.000000 0.000000 0.000000 0.000000 0.000000 0.000000 169.000000 0.890605 0.403487 0.209813
-3.01999998 10.19999981 0.36000001 127 238 73 0.000000 0.000000 0.000000 0.000000 0.000000 0.000000 169.000000 0.845600 0.446761 0.292173
-3.06999993 10.18000031 0.38999999 127 238 73 0.000000 0.000000 0.000000 0.000000 0.000000 0.000000 169.000000 0.902445 0.195554 0.383865
-3.15000010 10.18000031 0.23999999 127 238 73 0.000000 0.000000 0.000000 0.000000 0.000000 0.000000 169.000000 0.846515 0.042949 0.530630
-2.93000007 10.15999985 0.41000000 127 238 73 0.000000 0.000000 0.000000 0.000000 0.000000 0.000000 169.000000 0.788621 -0.073260 0.610499
-2.95000005 10.13000011 0.41999999 127 238 73 0.000000 0.000000 0.000000 0.000000 0.000000 0.000000 169.000000 0.903977 0.380394 0.195259
-2.95000005 10.11999989 0.41999999 127 238 73 0.000000 0.000000 0.000000 0.000000 0.000000 0.000000 169.000000 0.837365 0.522052 0.162119
-2.95000005 10.11999989 0.43000001 127 238 73 0.000000 0.000000 0.000000 0.000000 0.000000 0.000000 169.000000 0.671150 0.341291 0.658087
-2.98000002 10.11999989 0.46000001 127 238 73 0.000000 0.000000 0.000000 0.000000 0.000000 0.000000 169.000000 0.777258 0.557909 0.290875
-2.97000003 10.10999966 0.41000000 127 238 73 0.000000 0.000000 0.000000 0.000000 0.000000 0.000000 169.000000 0.951341 0.041803 0.305291
-3.00999999 10.14999962 0.41999999 127 238 73 0.000000 0.000000 0.000000 0.000000 0.000000 0.000000 169.000000 0.944677 0.210387 0.251639
-3.04999995 10.09000015 0.41000000 127 238 73 0.000000 0.000000 0.000000 0.000000 0.000000 0.000000 169.000000 0.795185 0.026460 0.605789
-3.04999995 10.10000038 0.41000000 127 238 73 0.000000 0.000000 0.000000 0.000000 0.000000 0.000000 169.000000 0.758005 0.020939 0.651912
-3.01999998 10.14000034 0.38000000 127 238 73 0.000000 0.000000 0.000000 0.000000 0.000000 0.000000 169.000000 0.781708 0.273203 0.560619
-3.00000000 10.14999962 0.38999999 127 238 73 0.000000 0.000000 0.000000 0.000000 0.000000 0.000000 169.000000 0.578598 0.400568 0.710472
-3.01999998 10.14000034 0.33000001 127 238 73 0.000000 0.000000 0.000000 0.000000 0.000000 0.000000 169.000000 0.987751 0.130369 0.085738
-3.02999997 10.14000034 0.34999999 127 238 73 0.000000 0.000000 0.000000 0.000000 0.000000 0.000000 169.000000 0.842661 -0.084124 0.531832
-3.01999998 10.14000034 0.33000001 127 238 73 0.000000 0.000000 0.000000 0.000000 0.000000 0.000000 169.000000 0.987751 0.130369 0.085738
-3.02999997 10.14999962 0.34999999 127 238 73 0.000000 0.000000 0.000000 0.000000 0.000000 0.000000 169.000000 0.750486 0.397316 0.528120
-3.00000000 10.09000015 0.40000001 127 238 73 0.000000 0.000000 0.000000 0.000000 0.000000 0.000000 169.000000 0.654910 0.624914 0.424942
-3.02999997 10.10000038 0.38000000 127 238 73 0.000000 0.000000 0.000000 0.000000 0.000000 0.000000 169.000000 0.965372 0.246720 0.084771
-3.00999999 10.10000038 0.36000001 127 238 73 0.000000 0.000000 0.000000 0.000000 0.000000 0.000000 169.000000 0.903474 0.387615 0.183000
-3.06999993 10.14999962 0.38999999 127 238 73 0.000000 0.000000 0.000000 0.000000 0.000000 0.000000 169.000000 0.891889 0.327175 0.312236
-3.05999994 10.13000011 0.38999999 127 238 73 0.000000 0.000000 0.000000 0.000000 0.000000 0.000000 169.000000 0.867367 -0.051022 0.495047
-3.03999996 10.14999962 0.38999999 127 238 73 0.000000 0.000000 0.000000 0.000000 0.000000 0.000000 169.000000 0.686540 0.476068 0.549566
-3.05999994 10.13000011 0.38999999 127 238 73 0.000000 0.000000 0.000000 0.000000 0.000000 0.000000 169.000000 0.867367 -0.051022 0.495047
-3.05999994 10.14000034 0.38000000 127 238 73 0.000000 0.000000 0.000000 0.000000 0.000000 0.000000 169.000000 0.950119 0.207966 0.232432
-3.05999994 10.13000011 0.38999999 127 238 73 0.000000 0.000000 0.000000 0.000000 0.000000 0.000000 169.000000 0.867367 -0.051022 0.495047
-3.03999996 10.14999962 0.36000001 127 238 73 0.000000 0.000000 0.000000 0.000000 0.000000 0.000000 169.000000 0.897830 -0.036235 0.438849
-3.05999994 10.14000034 0.34999999 127 238 73 0.000000 0.000000 0.000000 0.000000 0.000000 0.000000 169.000000 0.673124 0.459328 0.579588
-3.05999994 10.11999989 0.38000000 127 238 73 0.000000 0.000000 0.000000 0.000000 0.000000 0.000000 169.000000 0.951660 0.300050 0.065676
-3.04999995 10.07999992 0.38000000 127 238 73 0.000000 0.000000 0.000000 0.000000 0.000000 0.000000 169.000000 0.967192 0.050775 0.248919
-3.06999993 10.11999989 0.34000000 127 238 73 0.000000 0.000000 0.000000 0.000000 0.000000 0.000000 169.000000 0.905551 0.413374 0.095394
-3.03999996 10.11999989 0.34999999 127 238 73 0.000000 0.000000 0.000000 0.000000 0.000000 0.000000 169.000000 0.977641 0.110000 0.179214
-3.04999995 10.06999969 0.41000000 127 238 73 0.000000 0.000000 0.000000 0.000000 0.000000 0.000000 169.000000 0.595192 0.387452 0.704008
-3.07999992 10.06000042 0.33000001 127 238 73 0.000000 0.000000 0.000000 0.000000 0.000000 0.000000 169.000000 0.843308 0.006768 0.537389
-3.07999992 10.03999996 0.34000000 127 238 73 0.000000 0.000000 0.000000 0.000000 0.000000 0.000000 169.000000 0.955540 0.001223 0.294859
-3.07999992 10.01000023 0.38999999 127 238 73 0.000000 0.000000 0.000000 0.000000 0.000000 0.000000 169.000000 0.909576 0.072059 0.409241
-3.09999990 10.11999989 0.38000000 127 238 73 0.000000 0.000000 0.000000 0.000000 0.000000 0.000000 169.000000 0.676349 0.251849 0.692188
-3.09999990 10.10000038 0.37000000 127 238 73 0.000000 0.000000 0.000000 0.000000 0.000000 0.000000 169.000000 0.817135 0.478901 0.320848
-3.10999990 10.10000038 0.34000000 127 238 73 0.000000 0.000000 0.000000 0.000000 0.000000 0.000000 169.000000 0.982521 0.125402 0.137577
-3.10999990 10.10000038 0.33000001 127 238 73 0.000000 0.000000 0.000000 0.000000 0.000000 0.000000 169.000000 0.880700 -0.109201 0.460914
-3.08999991 10.09000015 0.36000001 127 238 73 0.000000 0.000000 0.000000 0.000000 0.000000 0.000000 169.000000 0.843867 0.174131 0.507511
-3.08999991 10.09000015 0.36000001 127 238 73 0.000000 0.000000 0.000000 0.000000 0.000000 0.000000 169.000000 0.843867 0.174131 0.507511
-3.08999991 10.10000038 0.36000001 127 238 73 0.000000 0.000000 0.000000 0.000000 0.000000 0.000000 169.000000 0.979704 0.144183 0.139254
-3.15000010 10.07999992 0.37000000 127 238 73 0.000000 0.000000 0.000000 0.000000 0.000000 0.000000 169.000000 0.617243 0.322392 0.717687
-3.08999991 10.06999969 0.33000001 127 238 73 0.000000 0.000000 0.000000 0.000000 0.000000 0.000000 169.000000 0.936383 0.204529 0.285228
-3.11999989 10.00000000 0.38999999 127 238 73 0.000000 0.000000 0.000000 0.000000 0.000000 0.000000 169.000000 0.868135 0.365934 0.335312
-3.07999992 10.07999992 0.31999999 127 238 73 0.000000 0.000000 0.000000 0.000000 0.000000 0.000000 169.000000 0.900900 0.113488 0.418926
-3.05999994 10.03999996 0.30000001 127 238 73 0.000000 0.000000 0.000000 0.000000 0.000000 0.000000 169.000000 0.829081 0.338240 0.445218
-3.05999994 10.05000019 0.28999999 127 238 73 0.000000 0.000000 0.000000 0.000000 0.000000 0.000000 169.000000 0.793205 0.457183 0.402256
-3.10999990 10.13000011 0.31000000 127 238 73 0.000000 0.000000 0.000000 0.000000 0.000000 0.000000 169.000000 0.892791 0.374587 0.250218
-3.11999989 10.09000015 0.31999999 127 238 73 0.000000 0.000000 0.000000 0.000000 0.000000 0.000000 169.000000 0.884237 -0.067594 0.462121
-3.08999991 10.09000015 0.27000001 127 238 73 0.000000 0.000000 0.000000 0.000000 0.000000 0.000000 169.000000 0.958124 0.021017 0.285583
-3.08999991 10.09000015 0.27000001 127 238 73 0.000000 0.000000 0.000000 0.000000 0.000000 0.000000 169.000000 0.958124 0.021017 0.285583
-3.14000010 10.13000011 0.27000001 127 238 73 0.000000 0.000000 0.000000 0.000000 0.000000 0.000000 169.000000 0.941995 -0.001248 0.335625
-3.13000011 10.10000038 0.28000000 127 238 73 0.000000 0.000000 0.000000 0.000000 0.000000 0.000000 169.000000 0.701001 0.315693 0.639481
-3.13000011 10.10000038 0.28000000 127 238 73 0.000000 0.000000 0.000000 0.000000 0.000000 0.000000 169.000000 0.701001 0.315693 0.639481
-3.13000011 10.10999966 0.27000001 127 238 73 0.000000 0.000000 0.000000 0.000000 0.000000 0.000000 169.000000 0.778701 0.602621 0.174563
-3.16000009 10.14999962 0.20999999 127 238 73 0.000000 0.000000 0.000000 0.000000 0.000000 0.000000 169.000000 0.760658 0.645625 0.067582
-3.16000009 10.15999985 0.18000001 127 238 73 0.000000 0.000000 0.000000 0.000000 0.000000 0.000000 169.000000 0.678512 0.581819 0.448451
-3.15000010 10.15999985 0.17000000 127 238 73 0.000000 0.000000 0.000000 0.000000 0.000000 0.000000 169.000000 0.913052 0.392100 -0.112226
-3.16000009 10.15999985 0.18000001 127 238 73 0.000000 0.000000 0.000000 0.000000 0.000000 0.000000 169.000000 0.678512 0.581819 0.448451
-3.15000010 10.15999985 0.18000001 127 238 73 0.000000 0.000000 0.000000 0.000000 0.000000 0.000000 169.000000 0.865728 0.477392 0.150371
-3.14000010 9.96000004 0.40000001 127 238 73 0.000000 0.000000 0.000000 0.000000 0.000000 0.000000 169.000000 0.807722 0.097159 0.581502
-3.13000011 9.94999981 0.37000000 127 238 73 0.000000 0.000000 0.000000 0.000000 0.000000 0.000000 169.000000 0.962993 0.085232 0.255696
-3.13000011 9.97000027 0.34000000 127 238 73 0.000000 0.000000 0.000000 0.000000 0.000000 0.000000 169.000000 0.822183 0.513672 0.245267
-3.11999989 9.88000011 0.38999999 127 238 73 0.000000 0.000000 0.000000 0.000000 0.000000 0.000000 169.000000 0.569592 0.426779 0.702442
-3.11999989 9.88000011 0.38999999 127 238 73 0.000000 0.000000 0.000000 0.000000 0.000000 0.000000 169.000000 0.569592 0.426779 0.702442
-3.25999999 10.35000038 0.15000001 127 238 73 0.000000 0.000000 0.000000 0.000000 0.000000 0.000000 169.000000 0.920307 0.269323 0.283725
-3.25999999 10.35000038 0.17000000 127 238 73 0.000000 0.000000 0.000000 0.000000 0.000000 0.000000 169.000000 0.978035 0.204205 -0.041796
-3.20000005 10.31999969 0.20000000 127 238 73 0.000000 0.000000 0.000000 0.000000 0.000000 0.000000 169.000000 0.988208 0.151245 -0.023881
-3.20000005 10.25000000 0.23000000 127 238 73 0.000000 0.000000 0.000000 0.000000 0.000000 0.000000 169.000000 0.824193 0.385894 0.414478
-3.19000006 10.26000023 0.20999999 127 238 73 0.000000 0.000000 0.000000 0.000000 0.000000 0.000000 169.000000 0.749299 0.621026 0.229952
-3.19000006 10.25000000 0.20999999 127 238 73 0.000000 0.000000 0.000000 0.000000 0.000000 0.000000 169.000000 0.994057 0.041003 0.100846
-3.19000006 10.26000023 0.20999999 127 238 73 0.000000 0.000000 0.000000 0.000000 0.000000 0.000000 169.000000 0.749299 0.621026 0.229952
-3.17000008 10.18999958 0.28999999 127 238 73 0.000000 0.000000 0.000000 0.000000 0.000000 0.000000 169.000000 0.649308 0.336859 0.681854
-3.21000004 10.23999977 0.18000001 127 238 73 0.000000 0.000000 0.000000 0.000000 0.000000 0.000000 169.000000 0.891819 0.426522 0.150791
-3.19000006 10.18000031 0.18000001 127 238 73 0.000000 0.000000 0.000000 0.000000 0.000000 0.000000 169.000000 0.964116 0.240707 -0.111987
-3.24000001 10.21000004 0.19000000 127 238 73 0.000000 0.000000 0.000000 0.000000 0.000000 0.000000 169.000000 0.854712 0.166809 0.491570
-3.24000001 10.23999977 0.16000000 127 238 73 0.000000 0.000000 0.000000 0.000000 0.000000 0.000000 169.000000 0.952195 0.263829 0.154012
-3.30999994 10.25000000 0.20000000 127 238 73 0.000000 0.000000 0.000000 0.000000 0.000000 0.000000 169.000000 0.743109 0.456411 0.489365
-3.31999993 10.26000023 0.19000000 127 238 73 0.000000 0.000000 0.000000 0.000000 0.000000 0.000000 169.000000 0.839057 0.250030 0.483186
-3.29999995 10.22999954 0.15000001 127 238 73 0.000000 0.000000 0.000000 0.000000 0.000000 0.000000 169.000000 0.665714 0.639284 0.384892
-3.30999994 10.19999981 0.18000001 127 238 73 0.000000 0.000000 0.000000 0.000000 0.000000 0.000000 169.000000 0.984642 0.048117 0.167823
-3.29999995 10.19999981 0.16000000 127 238 73 0.000000 0.000000 0.000000 0.000000 0.000000 0.000000 169.000000 0.861237 0.434430 0.263706
-3.33999991 10.28999996 0.16000000 127 238 73 0.000000 0.000000 0.000000 0.000000 0.000000 0.000000 169.000000 0.983890 0.062902 0.167344
-3.27999997 10.22000027 0.12000000 127 238 73 0.000000 0.000000 0.000000 0.000000 0.000000 0.000000 169.000000 0.928969 0.362231 0.076189
-3.33999991 10.18000031 0.14000000 127 238 73 0.000000 0.000000 0.000000 0.000000 0.000000 0.000000 169.000000 0.831463 0.392854 0.392854
-3.17000008 10.14000034 0.34000000 127 238 73 0.000000 0.000000 0.000000 0.000000 0.000000 0.000000 169.000000 0.885364 0.409425 0.220232
-3.22000003 10.07999992 0.37000000 127 238 73 0.000000 0.000000 0.000000 0.000000 0.000000 0.000000 169.000000 0.816855 0.109205 0.566411
-3.24000001 10.02999973 0.33000001 127 238 73 0.000000 0.000000 0.000000 0.000000 0.000000 0.000000 169.000000 0.984272 0.026602 0.174647
-3.25999999 10.10000038 0.37000000 127 238 73 0.000000 0.000000 0.000000 0.000000 0.000000 0.000000 169.000000 0.693144 0.398682 0.600504
-3.31999993 10.07999992 0.38999999 127 238 73 0.000000 0.000000 0.000000 0.000000 0.000000 0.000000 169.000000 0.885538 0.204808 0.416984
-3.31999993 10.09000015 0.38000000 127 238 73 0.000000 0.000000 0.000000 0.000000 0.000000 0.000000 169.000000 0.803122 0.343283 0.486983
-3.31999993 10.09000015 0.38000000 127 238 73 0.000000 0.000000 0.000000 0.000000 0.000000 0.000000 169.000000 0.803122 0.343283 0.486983
-3.31999993 10.07999992 0.38999999 127 238 73 0.000000 0.000000 0.000000 0.000000 0.000000 0.000000 169.000000 0.885538 0.204808 0.416984
-3.29999995 10.06000042 0.37000000 127 238 73 0.000000 0.000000 0.000000 0.000000 0.000000 0.000000 169.000000 0.841383 -0.083996 0.533872
-3.29999995 10.02999973 0.38000000 127 238 73 0.000000 0.000000 0.000000 0.000000 0.000000 0.000000 169.000000 0.965003 0.186733 0.184121
-3.32999992 10.02000046 0.37000000 127 238 73 0.000000 0.000000 0.000000 0.000000 0.000000 0.000000 169.000000 0.858667 0.433160 0.273977
-3.29999995 10.02999973 0.38000000 127 238 73 0.000000 0.000000 0.000000 0.000000 0.000000 0.000000 169.000000 0.965003 0.186733 0.184121
-3.29999995 10.02999973 0.34000000 127 238 73 0.000000 0.000000 0.000000 0.000000 0.000000 0.000000 169.000000 0.706225 -0.049935 0.706225
-3.17000008 10.15999985 0.22000000 127 238 73 0.000000 0.000000 0.000000 0.000000 0.000000 0.000000 169.000000 0.991746 0.126060 -0.023427
-3.18000007 10.14000034 0.15000001 127 238 73 0.000000 0.000000 0.000000 0.000000 0.000000 0.000000 169.000000 0.759586 0.621479 0.191815
-3.18000007 10.13000011 0.17000000 127 238 73 0.000000 0.000000 0.000000 0.000000 0.000000 0.000000 169.000000 0.730169 0.559523 0.392158
-3.21000004 10.09000015 0.20999999 127 238 73 0.000000 0.000000 0.000000 0.000000 0.000000 0.000000 169.000000 0.825884 0.195484 0.528869
-3.18000007 10.06000042 0.31999999 127 238 73 0.000000 0.000000 0.000000 0.000000 0.000000 0.000000 169.000000 0.818540 0.296937 0.491753
-3.21000004 10.00000000 0.31000000 127 238 73 0.000000 0.000000 0.000000 0.000000 0.000000 0.000000 169.000000 0.867698 0.285166 0.407162
-3.20000005 10.00000000 0.31000000 127 238 73 0.000000 0.000000 0.000000 0.000000 0.000000 0.000000 169.000000 0.843690 0.105281 0.526405
-3.21000004 10.02000046 0.25000000 127 238 73 0.000000 0.000000 0.000000 0.000000 0.000000 0.000000 169.000000 0.971239 0.032657 0.235855
-3.22000003 10.03999996 0.28999999 127 238 73 0.000000 0.000000 0.000000 0.000000 0.000000 0.000000 169.000000 0.836064 -0.165424 0.523099
-3.23000002 10.03999996 0.31000000 127 238 73 0.000000 0.000000 0.000000 0.000000 0.000000 0.000000 169.000000 0.947318 0.143777 0.286211
-3.22000003 10.06000042 0.25999999 127 238 73 0.000000 0.000000 0.000000 0.000000 0.000000 0.000000 169.000000 0.660847 0.600618 0.450045
-3.23000002 10.03999996 0.19000000 127 238 73 0.000000 0.000000 0.000000 0.000000 0.000000 0.000000 169.000000 0.742334 0.139469 0.655354
-3.23000002 10.02999973 0.20999999 127 238 73 0.000000 0.000000 0.000000 0.000000 0.000000 0.000000 169.000000 0.934495 0.086651 0.345270
-3.26999998 10.11999989 0.20999999 127 238 73 0.000000 0.000000 0.000000 0.000000 0.000000 0.000000 169.000000 0.841291 -0.006774 0.540540
-3.25999999 10.10000038 0.19000000 127 238 73 0.000000 0.000000 0.000000 0.000000 0.000000 0.000000 169.000000 0.754735 0.199102 0.625087
-3.29999995 10.15999985 0.16000000 127 238 73 0.000000 0.000000 0.000000 0.000000 0.000000 0.000000 169.000000 0.757426 0.461685 0.461685
-3.30999994 10.11999989 0.18000001 127 238 73 0.000000 0.000000 0.000000 0.000000 0.000000 0.000000 169.000000 0.826433 0.502039 0.254881
-3.26999998 10.05000019 0.20999999 127 238 73 0.000000 0.000000 0.000000 0.000000 0.000000 0.000000 169.000000 0.669513 0.176188 0.721603
-3.28999996 10.06000042 0.23000000 127 238 73 0.000000 0.000000 0.000000 0.000000 0.000000 0.000000 169.000000 0.763652 0.565134 0.312185
-3.26999998 10.02000046 0.22000000 127 238 73 0.000000 0.000000 0.000000 0.000000 0.000000 0.000000 169.000000 0.820187 0.225360 0.525839
-3.26999998 10.01000023 0.22000000 127 238 73 0.000000 0.000000 0.000000 0.000000 0.000000 0.000000 169.000000 0.876746 0.466172 0.118325
-3.26999998 10.01000023 0.23000000 127 238 73 0.000000 0.000000 0.000000 0.000000 0.000000 0.000000 169.000000 0.827733 0.489185 0.274876
-3.26999998 10.02999973 0.18000001 127 238 73 0.000000 0.000000 0.000000 0.000000 0.000000 0.000000 169.000000 0.759528 0.061739 0.647538
-3.28999996 9.84000015 0.33000001 127 238 73 0.000000 0.000000 0.000000 0.000000 0.000000 0.000000 169.000000 0.619867 0.398368 0.676068
-3.31999993 9.85000038 0.34000000 127 238 73 0.000000 0.000000 0.000000 0.000000 0.000000 0.000000 169.000000 0.505347 0.283182 0.815127
-3.30999994 9.85000038 0.34000000 127 238 73 0.000000 0.000000 0.000000 0.000000 0.000000 0.000000 169.000000 0.970656 0.037755 0.237488
-3.24000001 9.97000027 0.25999999 127 238 73 0.000000 0.000000 0.000000 0.000000 0.000000 0.000000 169.000000 0.715519 -0.067938 0.695282
-3.24000001 9.98999977 0.27000001 127 238 73 0.000000 0.000000 0.000000 0.000000 0.000000 0.000000 169.000000 0.873081 0.456350 0.171681
-3.24000001 9.97000027 0.22000000 127 238 73 0.000000 0.000000 0.000000 0.000000 0.000000 0.000000 169.000000 0.683917 0.300924 0.664607
-3.24000001 9.97000027 0.22000000 127 238 73 0.000000 0.000000 0.000000 0.000000 0.000000 0.000000 169.000000 0.683917 0.300924 0.664607
-3.32999992 9.97000027 0.15000001 127 238 73 0.000000 0.000000 0.000000 0.000000 0.000000 0.000000 169.000000 0.970351 -0.078677 0.228538
-3.31999993 9.97000027 0.18000001 127 238 73 0.000000 0.000000 0.000000 0.000000 0.000000 0.000000 169.000000 0.603203 0.354729 0.714362
-3.31999993 9.89999962 0.30000001 127 238 73 0.000000 0.000000 0.000000 0.000000 0.000000 0.000000 169.000000 0.569915 0.217772 0.792321
-3.30999994 9.85000038 0.31000000 127 238 73 0.000000 0.000000 0.000000 0.000000 0.000000 0.000000 169.000000 0.885613 -0.201209 0.418574
-3.30999994 9.85999966 0.31000000 127 238 73 0.000000 0.000000 0.000000 0.000000 0.000000 0.000000 169.000000 0.940223 -0.024174 0.339702
-3.29999995 9.85000038 0.31000000 127 238 73 0.000000 0.000000 0.000000 0.000000 0.000000 0.000000 169.000000 0.681191 -0.182984 0.708869
-3.38000011 10.03999996 0.33000001 127 238 73 0.000000 0.000000 0.000000 0.000000 0.000000 0.000000 169.000000 0.636551 0.420489 0.646523
-3.36999989 10.06000042 0.33000001 127 238 73 0.000000 0.000000 0.000000 0.000000 0.000000 0.000000 169.000000 0.940064 0.091746 0.328424
-3.35999990 10.02000046 0.33000001 127 238 73 0.000000 0.000000 0.000000 0.000000 0.000000 0.000000 169.000000 0.609349 0.052555 0.791159
-3.35999990 10.01000023 0.34000000 127 238 73 0.000000 0.000000 0.000000 0.000000 0.000000 0.000000 169.000000 0.852746 -0.225682 0.471055
-3.34999990 10.15999985 0.20000000 127 238 73 0.000000 0.000000 0.000000 0.000000 0.000000 0.000000 169.000000 0.648554 0.507051 0.567695
-3.36999989 10.06999969 0.31999999 127 238 73 0.000000 0.000000 0.000000 0.000000 0.000000 0.000000 169.000000 0.881065 0.001325 0.472993
-3.41000009 9.85999966 0.28999999 127 238 73 0.000000 0.000000 0.000000 0.000000 0.000000 0.000000 169.000000 0.645300 0.052707 0.762109
-3.39000010 9.84000015 0.31999999 127 238 73 0.000000 0.000000 0.000000 0.000000 0.000000 0.000000 169.000000 0.790812 0.006877 0.612020
-3.39000010 9.82999992 0.28000000 127 238 73 0.000000 0.000000 0.000000 0.000000 0.000000 0.000000 169.000000 0.583894 -0.103383 0.805220
-3.36999989 10.01000023 0.12000000 127 238 73 0.000000 0.000000 0.000000 0.000000 0.000000 0.000000 169.000000 0.896405 0.058491 0.439361
-3.38000011 9.97000027 0.12000000 127 238 73 0.000000 0.000000 0.000000 0.000000 0.000000 0.000000 169.000000 0.978067 0.160318 0.132977
-3.38000011 9.98999977 0.11000000 127 238 73 0.000000 0.000000 0.000000 0.000000 0.000000 0.000000 169.000000 0.946297 0.320541 0.042143
-3.38000011 9.98999977 0.11000000 127 238 73 0.000000 0.000000 0.000000 0.000000 0.000000 0.000000 169.000000 0.946297 0.320541 0.042143
-3.41000009 9.97999954 0.12000000 127 238 73 0.000000 0.000000 0.000000 0.000000 0.000000 0.000000 169.000000 0.725193 0.650011 0.227112
-3.39000010 9.93999958 0.14000000 127 238 73 0.000000 0.000000 0.000000 0.000000 0.000000 0.000000 169.000000 0.882306 0.039425 0.469022
-3.50999999 9.86999989 0.08000000 127 238 73 0.000000 0.000000 0.000000 0.000000 0.000000 0.000000 169.000000 0.966044 0.238011 0.100550
-3.50999999 9.85000038 0.08000000 127 238 73 0.000000 0.000000 0.000000 0.000000 0.000000 0.000000 169.000000 0.944077 0.193200 0.267192
-2.90000010 9.73999977 0.57999998 127 238 73 0.000000 0.000000 0.000000 0.000000 0.000000 0.000000 169.000000 0.681326 -0.193120 0.706045
-2.85999990 9.77000046 0.56000000 127 238 73 0.000000 0.000000 0.000000 0.000000 0.000000 0.000000 169.000000 0.610499 0.073260 0.788621
-2.88000011 9.75000000 0.55000001 127 238 73 0.000000 0.000000 0.000000 0.000000 0.000000 0.000000 169.000000 0.566794 0.386077 0.727797
-2.88000011 9.75000000 0.55000001 127 238 73 0.000000 0.000000 0.000000 0.000000 0.000000 0.000000 169.000000 0.566794 0.386077 0.727797
-2.88000011 9.73999977 0.55000001 127 238 73 0.000000 0.000000 0.000000 0.000000 0.000000 0.000000 169.000000 0.765161 0.284748 0.577450
-2.88000011 9.73999977 0.51999998 127 238 73 0.000000 0.000000 0.000000 0.000000 0.000000 0.000000 169.000000 0.658966 0.182790 0.729624
-2.88000011 9.73999977 0.51999998 127 238 73 0.000000 0.000000 0.000000 0.000000 0.000000 0.000000 169.000000 0.658966 0.182790 0.729624
-2.90000010 9.72999954 0.57999998 127 238 73 0.000000 0.000000 0.000000 0.000000 0.000000 0.000000 169.000000 0.827977 -0.054824 0.558076
-2.88000011 9.72999954 0.56000000 127 238 73 0.000000 0.000000 0.000000 0.000000 0.000000 0.000000 169.000000 0.760385 0.294908 0.578658
-2.86999989 9.72000027 0.50000000 127 238 73 0.000000 0.000000 0.000000 0.000000 0.000000 0.000000 169.000000 0.905518 0.228931 0.357250
-2.90000010 9.71000004 0.50000000 127 238 73 0.000000 0.000000 0.000000 0.000000 0.000000 0.000000 169.000000 0.678574 0.384690 0.625741
-2.86999989 9.72000027 0.50000000 127 238 73 0.000000 0.000000 0.000000 0.000000 0.000000 0.000000 169.000000 0.905518 0.228931 0.357250
-2.92000008 9.72000027 0.51999998 127 238 73 0.000000 0.000000 0.000000 0.000000 0.000000 0.000000 169.000000 0.745507 0.422947 0.515107
-3.05999994 9.71000004 0.50000000 127 238 73 0.000000 0.000000 0.000000 0.000000 0.000000 0.000000 169.000000 0.613595 -0.361612 0.701953
-3.08999991 9.69999981 0.50000000 127 238 73 0.000000 0.000000 0.000000 0.000000 0.000000 0.000000 169.000000 0.663782 -0.297336 0.686283
-3.16000009 9.65999985 0.50999999 127 238 73 0.000000 0.000000 0.000000 0.000000 0.000000 0.000000 169.000000 0.496933 -0.116671 0.859910
-2.85999990 9.22000027 0.52999997 127 238 73 0.000000 0.000000 0.000000 0.000000 0.000000 0.000000 169.000000 0.745076 -0.373353 0.552693
-2.85999990 9.73999977 0.44999999 127 238 73 0.000000 0.000000 0.000000 0.000000 0.000000 0.000000 169.000000 0.549137 0.023397 0.835405
-2.88000011 9.73999977 0.34999999 127 238 73 0.000000 0.000000 0.000000 0.000000 0.000000 0.000000 169.000000 0.628297 0.326325 0.706226
-2.82999992 9.71000004 0.46000001 127 238 73 0.000000 0.000000 0.000000 0.000000 0.000000 0.000000 169.000000 0.463075 0.137047 0.875659
-2.89000010 9.72000027 0.44000000 127 238 73 0.000000 0.000000 0.000000 0.000000 0.000000 0.000000 169.000000 0.862964 0.373797 0.339955
-2.82999992 9.71000004 0.40000001 127 238 73 0.000000 0.000000 0.000000 0.000000 0.000000 0.000000 169.000000 0.851833 0.268596 0.449707
-2.85999990 9.72999954 0.40000001 127 238 73 0.000000 0.000000 0.000000 0.000000 0.000000 0.000000 169.000000 0.836462 0.158972 0.524460
-2.83999991 9.69999981 0.38000000 127 238 73 0.000000 0.000000 0.000000 0.000000 0.000000 0.000000 169.000000 0.634154 0.355585 0.686591
-2.82999992 9.69999981 0.34999999 127 238 73 0.000000 0.000000 0.000000 0.000000 0.000000 0.000000 169.000000 0.745725 0.426364 0.511966
-2.83999991 9.69999981 0.36000001 127 238 73 0.000000 0.000000 0.000000 0.000000 0.000000 0.000000 169.000000 0.914246 0.345892 0.210980
-2.82999992 9.69999981 0.34999999 127 238 73 0.000000 0.000000 0.000000 0.000000 0.000000 0.000000 169.000000 0.745725 0.426364 0.511966
-2.83999991 9.68999958 0.36000001 127 238 73 0.000000 0.000000 0.000000 0.000000 0.000000 0.000000 169.000000 0.823517 0.251845 0.508325
-2.96000004 9.75000000 0.41000000 127 238 73 0.000000 0.000000 0.000000 0.000000 0.000000 0.000000 169.000000 0.902236 0.104265 0.418448
-2.95000005 9.72000027 0.49000001 127 238 73 0.000000 0.000000 0.000000 0.000000 0.000000 0.000000 169.000000 0.508900 0.363500 0.780313
-2.95000005 9.72000027 0.49000001 127 238 73 0.000000 0.000000 0.000000 0.000000 0.000000 0.000000 169.000000 0.508900 0.363500 0.780313
-2.97000003 9.72000027 0.47999999 127 238 73 0.000000 0.000000 0.000000 0.000000 0.000000 0.000000 169.000000 0.898144 0.022553 0.439122
-2.97000003 9.72999954 0.40000001 127 238 73 0.000000 0.000000 0.000000 0.000000 0.000000 0.000000 169.000000 0.784980 0.296548 0.543936
-2.96000004 9.72000027 0.36000001 127 238 73 0.000000 0.000000 0.000000 0.000000 0.000000 0.000000 169.000000 0.538615 0.246801 0.805595
-2.91000009 9.78999996 0.30000001 127 238 73 0.000000 0.000000 0.000000 0.000000 0.000000 0.000000 169.000000 0.711237 -0.001381 0.702951
-2.84999990 9.72000027 0.28999999 127 238 73 0.000000 0.000000 0.000000 0.000000 0.000000 0.000000 169.000000 0.923434 0.073714 0.376611
-2.85999990 9.72000027 0.27000001 127 238 73 0.000000 0.000000 0.000000 0.000000 0.000000 0.000000 169.000000 0.641232 0.405948 0.651174
-2.85999990 9.72999954 0.25000000 127 238 73 0.000000 0.000000 0.000000 0.000000 0.000000 0.000000 169.000000 0.771013 0.553013 0.315779
-2.82999992 9.68999958 0.23999999 127 238 73 0.000000 0.000000 0.000000 0.000000 0.000000 0.000000 169.000000 0.763918 0.417129 0.492375
-2.83999991 9.68999958 0.25000000 127 238 73 0.000000 0.000000 0.000000 0.000000 0.000000 0.000000 169.000000 0.757267 0.567548 0.323165
-2.90000010 9.72000027 0.31000000 127 238 73 0.000000 0.000000 0.000000 0.000000 0.000000 0.000000 169.000000 0.819113 0.205922 0.535398
-2.86999989 9.72000027 0.28000000 127 238 73 0.000000 0.000000 0.000000 0.000000 0.000000 0.000000 169.000000 0.630104 0.226712 0.742678
-2.86999989 9.72000027 0.27000001 127 238 73 0.000000 0.000000 0.000000 0.000000 0.000000 0.000000 169.000000 0.675881 0.009715 0.736947
-2.84999990 9.72999954 0.19000000 127 238 73 0.000000 0.000000 0.000000 0.000000 0.000000 0.000000 169.000000 0.967470 -0.048188 0.248354
-2.99000001 9.73999977 0.31000000 127 238 73 0.000000 0.000000 0.000000 0.000000 0.000000 0.000000 169.000000 0.965562 0.020699 0.259350
-2.97000003 9.72999954 0.28999999 127 238 73 0.000000 0.000000 0.000000 0.000000 0.000000 0.000000 169.000000 0.956920 0.225550 0.182842
-2.97000003 9.72999954 0.28999999 127 238 73 0.000000 0.000000 0.000000 0.000000 0.000000 0.000000 169.000000 0.956920 0.225550 0.182842
-2.96000004 9.72000027 0.23999999 127 238 73 0.000000 0.000000 0.000000 0.000000 0.000000 0.000000 169.000000 0.882656 0.315342 0.348536
-3.02999997 9.73999977 0.46000001 127 238 73 0.000000 0.000000 0.000000 0.000000 0.000000 0.000000 169.000000 0.728147 -0.227057 0.646720
-3.04999995 9.72000027 0.47999999 127 238 73 0.000000 0.000000 0.000000 0.000000 0.000000 0.000000 169.000000 0.835547 0.354045 0.420134
-3.03999996 9.71000004 0.41999999 127 238 73 0.000000 0.000000 0.000000 0.000000 0.000000 0.000000 169.000000 0.452996 0.009245 0.891465
-3.03999996 9.68000031 0.46000001 127 238 73 0.000000 0.000000 0.000000 0.000000 0.000000 0.000000 169.000000 0.773342 -0.201407 0.601147
-3.07999992 9.68000031 0.47000000 127 238 73 0.000000 0.000000 0.000000 0.000000 0.000000 0.000000 169.000000 0.705999 -0.269331 0.655001
-3.07999992 9.68000031 0.41000000 127 238 73 0.000000 0.000000 0.000000 0.000000 0.000000 0.000000 169.000000 0.836758 -0.306967 0.453439
-3.06999993 9.67000008 0.41000000 127 238 73 0.000000 0.000000 0.000000 0.000000 0.000000 0.000000 169.000000 0.925676 -0.073679 0.371074
-3.06999993 9.68000031 0.41999999 127 238 73 0.000000 0.000000 0.000000 0.000000 0.000000 0.000000 169.000000 0.895819 -0.168777 0.411124
-3.00999999 9.69999981 0.38000000 127 238 73 0.000000 0.000000 0.000000 0.000000 0.000000 0.000000 169.000000 0.651948 -0.018148 0.758047
-3.00000000 9.71000004 0.37000000 127 238 73 0.000000 0.000000 0.000000 0.000000 0.000000 0.000000 169.000000 0.760245 -0.089011 0.643509
-3.07999992 9.72000027 0.40000001 127 238 73 0.000000 0.000000 0.000000 0.000000 0.000000 0.000000 169.000000 0.640784 -0.240885 0.728951
-3.06999993 9.68999958 0.38999999 127 238 73 0.000000 0.000000 0.000000 0.000000 0.000000 0.000000 169.000000 0.823514 -0.316494 0.470804
-3.11999989 9.72000027 0.44999999 127 238 73 0.000000 0.000000 0.000000 0.000000 0.000000 0.000000 169.000000 0.674710 -0.172885 0.717549
-3.09999990 9.72000027 0.41000000 127 238 73 0.000000 0.000000 0.000000 0.000000 0.000000 0.000000 169.000000 0.512755 0.241749 0.823796
-3.10999990 9.68000031 0.46000001 127 238 73 0.000000 0.000000 0.000000 0.000000 0.000000 0.000000 169.000000 0.823973 -0.231695 0.517093
-3.09999990 9.68000031 0.44999999 127 238 73 0.000000 0.000000 0.000000 0.000000 0.000000 0.000000 169.000000 0.476828 0.137686 0.868146
-3.10999990 9.68000031 0.46000001 127 238 73 0.000000 0.000000 0.000000 0.000000 0.000000 0.000000 169.000000 0.823973 -0.231695 0.517093
-3.08999991 9.68999958 0.47000000 127 238 73 0.000000 0.000000 0.000000 0.000000 0.000000 0.000000 169.000000 0.565486 0.422870 0.708101
-3.08999991 9.68000031 0.47000000 127 238 73 0.000000 0.000000 0.000000 0.000000 0.000000 0.000000 169.000000 0.793120 -0.210985 0.571354
-3.09999990 9.68000031 0.44999999 127 238 73 0.000000 0.000000 0.000000 0.000000 0.000000 0.000000 169.000000 0.476828 0.137686 0.868146
-3.13000011 9.69999981 0.44000000 127 238 73 0.000000 0.000000 0.000000 0.000000 0.000000 0.000000 169.000000 0.764868 0.409343 0.497409
-3.16000009 9.65999985 0.46000001 127 238 73 0.000000 0.000000 0.000000 0.000000 0.000000 0.000000 169.000000 0.771099 -0.049703 0.634772
-3.14000010 9.64999962 0.41000000 127 238 73 0.000000 0.000000 0.000000 0.000000 0.000000 0.000000 169.000000 0.893536 -0.166004 0.417176
-3.11999989 9.65999985 0.37000000 127 238 73 0.000000 0.000000 0.000000 0.000000 0.000000 0.000000 169.000000 0.613685 -0.158322 0.773515
-3.14000010 9.68999958 0.38999999 127 238 73 0.000000 0.000000 0.000000 0.000000 0.000000 0.000000 169.000000 0.757242 0.267169 0.595992
-3.13000011 9.65999985 0.37000000 127 238 73 0.000000 0.000000 0.000000 0.000000 0.000000 0.000000 169.000000 0.598516 -0.214971 0.771730
-3.16000009 9.64999962 0.38000000 127 238 73 0.000000 0.000000 0.000000 0.000000 0.000000 0.000000 169.000000 0.589103 -0.342426 0.731916
-3.00000000 9.73999977 0.23999999 127 238 73 0.000000 0.000000 0.000000 0.000000 0.000000 0.000000 169.000000 0.917125 -0.003870 0.398582
-3.00000000 9.73999977 0.23999999 127 238 73 0.000000 0.000000 0.000000 0.000000 0.000000 0.000000 169.000000 0.917125 -0.003870 0.398582
-3.02999997 9.73999977 0.23999999 127 238 73 0.000000 0.000000 0.000000 0.000000 0.000000 0.000000 169.000000 0.793208 0.097514 0.601092
-3.00999999 9.73999977 0.20000000 127 238 73 0.000000 0.000000 0.000000 0.000000 0.000000 0.000000 169.000000 0.555583 0.333350 0.761712
-3.00000000 9.72999954 0.25000000 127 238 73 0.000000 0.000000 0.000000 0.000000 0.000000 0.000000 169.000000 0.917509 -0.186347 0.351356
-3.03999996 9.72999954 0.25999999 127 238 73 0.000000 0.000000 0.000000 0.000000 0.000000 0.000000 169.000000 0.648068 -0.133206 0.749843
-3.00000000 9.69999981 0.23000000 127 238 73 0.000000 0.000000 0.000000 0.000000 0.000000 0.000000 169.000000 0.980829 -0.005763 0.194783
-3.15000010 9.68999958 0.31999999 127 238 73 0.000000 0.000000 0.000000 0.000000 0.000000 0.000000 169.000000 0.556810 -0.196790 0.806992
-3.15000010 9.68000031 0.31000000 127 238 73 0.000000 0.000000 0.000000 0.000000 0.000000 0.000000 169.000000 0.629783 -0.113567 0.768424
-3.11999989 9.68000031 0.20000000 127 238 73 0.000000 0.000000 0.000000 0.000000 0.000000 0.000000 169.000000 0.888279 0.364000 0.280115
-3.11999989 9.68999958 0.18000001 127 238 73 0.000000 0.000000 0.000000 0.000000 0.000000 0.000000 169.000000 0.900217 0.075361 0.428871
-3.14000010 9.63000011 0.34000000 127 238 73 0.000000 0.000000 0.000000 0.000000 0.000000 0.000000 169.000000 0.491448 0.025723 0.870527
-2.82999992 9.71000004 0.13000000 127 238 73 0.000000 0.000000 0.000000 0.000000 0.000000 0.000000 169.000000 0.978998 0.061565 0.194351
-2.85999990 9.71000004 0.10000000 127 238 73 0.000000 0.000000 0.000000 0.000000 0.000000 0.000000 169.000000 0.870736 0.424050 0.248997
-2.86999989 9.69999981 0.08000000 127 238 73 0.000000 0.000000 0.000000 0.000000 0.000000 0.000000 169.000000 0.707401 0.244203 0.663287
-2.88000011 9.72999954 0.10000000 127 238 73 0.000000 0.000000 0.000000 0.000000 0.000000 0.000000 169.000000 0.763245 0.607798 0.219180
-2.88000011 9.72999954 0.10000000 127 238 73 0.000000 0.000000 0.000000 0.000000 0.000000 0.000000 169.000000 0.763245 0.607798 0.219180
-2.84999990 9.72000027 0.02000000 127 238 73 0.000000 0.000000 0.000000 0.000000 0.000000 0.000000 169.000000 0.618388 0.402864 0.674756
-2.85999990 9.72000027 0.00000000 127 238 73 0.000000 0.000000 0.000000 0.000000 0.000000 0.000000 169.000000 0.851718 0.151515 0.501617
-2.88000011 9.72999954 0.01000000 127 238 73 0.000000 0.000000 0.000000 0.000000 0.000000 0.000000 169.000000 0.792601 0.570981 0.213925
-2.89000010 9.69999981 -0.01000000 127 238 73 0.000000 0.000000 0.000000 0.000000 0.000000 0.000000 169.000000 0.942012 0.323693 0.088520
-2.89000010 9.72999954 -0.02000000 127 238 73 0.000000 0.000000 0.000000 0.000000 0.000000 0.000000 169.000000 0.850481 0.467080 0.241908
-2.89000010 9.71000004 -0.02000000 127 238 73 0.000000 0.000000 0.000000 0.000000 0.000000 0.000000 169.000000 0.781708 0.273203 0.560619
-2.90000010 9.72999954 -0.01000000 127 238 73 0.000000 0.000000 0.000000 0.000000 0.000000 0.000000 169.000000 0.888885 0.267412 0.371987
-2.95000005 9.77000046 0.09000000 127 238 73 0.000000 0.000000 0.000000 0.000000 0.000000 0.000000 169.000000 0.818297 -0.087726 0.568062
-2.93000007 9.73999977 0.06000000 127 238 73 0.000000 0.000000 0.000000 0.000000 0.000000 0.000000 169.000000 0.842695 0.142655 0.519147
-2.95000005 9.73999977 -0.02000000 127 238 73 0.000000 0.000000 0.000000 0.000000 0.000000 0.000000 169.000000 0.920189 0.389866 0.035442
-2.99000001 9.72999954 0.08000000 127 238 73 0.000000 0.000000 0.000000 0.000000 0.000000 0.000000 169.000000 0.874168 0.296457 0.384634
-2.99000001 9.72999954 0.08000000 127 238 73 0.000000 0.000000 0.000000 0.000000 0.000000 0.000000 169.000000 0.874168 0.296457 0.384634
-2.85999990 9.72999954 -0.09000000 127 238 73 0.000000 0.000000 0.000000 0.000000 0.000000 0.000000 169.000000 0.711573 0.620803 0.329042
-2.89000010 9.72000027 -0.03000000 127 238 73 0.000000 0.000000 0.000000 0.000000 0.000000 0.000000 169.000000 0.801998 0.532050 0.271518
-2.89000010 9.72999954 -0.03000000 127 238 73 0.000000 0.000000 0.000000 0.000000 0.000000 0.000000 169.000000 0.790978 0.556034 0.255306
-2.88000011 9.71000004 -0.08000000 127 238 73 0.000000 0.000000 0.000000 0.000000 0.000000 0.000000 169.000000 0.739011 0.461262 0.491020
-2.83999991 9.72000027 -0.11000000 127 238 73 0.000000 0.000000 0.000000 0.000000 0.000000 0.000000 169.000000 0.986665 0.162760 0.001122
-2.83999991 9.69999981 -0.17000000 127 238 73 0.000000 0.000000 0.000000 0.000000 0.000000 0.000000 169.000000 0.970179 0.242246 0.008353
-2.85999990 9.72000027 -0.19000000 127 238 73 0.000000 0.000000 0.000000 0.000000 0.000000 0.000000 169.000000 0.780960 0.311426 0.541402
-2.85999990 9.72000027 -0.19000000 127 238 73 0.000000 0.000000 0.000000 0.000000 0.000000 0.000000 169.000000 0.780960 0.311426 0.541402
-2.91000009 9.71000004 -0.12000000 127 238 73 0.000000 0.000000 0.000000 0.000000 0.000000 0.000000 169.000000 0.782362 0.621660 -0.038061
-2.89000010 9.72000027 -0.17000000 127 238 73 0.000000 0.000000 0.000000 0.000000 0.000000 0.000000 169.000000 0.888068 0.238696 0.392885
-2.89000010 9.72999954 -0.18000001 127 238 73 0.000000 0.000000 0.000000 0.000000 0.000000 0.000000 169.000000 0.768127 0.634540 -0.085670
-2.89000010 9.72000027 -0.16000000 127 238 73 0.000000 0.000000 0.000000 0.000000 0.000000 0.000000 169.000000 0.944790 0.077313 0.318424
-2.89000010 9.72999954 -0.17000000 127 238 73 0.000000 0.000000 0.000000 0.000000 0.000000 0.000000 169.000000 0.798134 0.577855 0.170490
-2.88000011 9.72999954 -0.19000000 127 238 73 0.000000 0.000000 0.000000 0.000000 0.000000 0.000000 169.000000 0.780873 0.623857 -0.032244
-2.93000007 9.73999977 -0.06000000 127 238 73 0.000000 0.000000 0.000000 0.000000 0.000000 0.000000 169.000000 0.761568 0.616947 0.198469
-2.94000006 9.73999977 -0.04000000 127 238 73 0.000000 0.000000 0.000000 0.000000 0.000000 0.000000 169.000000 0.923819 0.270701 0.270701
-2.97000003 9.75000000 -0.19000000 127 238 73 0.000000 0.000000 0.000000 0.000000 0.000000 0.000000 169.000000 0.726871 0.388868 0.566074
-2.92000008 9.72000027 -0.06000000 127 238 73 0.000000 0.000000 0.000000 0.000000 0.000000 0.000000 169.000000 0.781204 0.607935 0.141901
-2.93000007 9.72999954 -0.05000000 127 238 73 0.000000 0.000000 0.000000 0.000000 0.000000 0.000000 169.000000 0.708701 0.481916 0.515267
-2.93000007 9.72999954 -0.05000000 127 238 73 0.000000 0.000000 0.000000 0.000000 0.000000 0.000000 169.000000 0.708701 0.481916 0.515267
-2.92000008 9.69999981 -0.10000000 127 238 73 0.000000 0.000000 0.000000 0.000000 0.000000 0.000000 169.000000 0.935602 0.310946 0.167220
-2.96000004 9.72000027 -0.05000000 127 238 73 0.000000 0.000000 0.000000 0.000000 0.000000 0.000000 169.000000 0.988483 -0.007836 0.151127
-2.92000008 9.71000004 -0.11000000 127 238 73 0.000000 0.000000 0.000000 0.000000 0.000000 0.000000 169.000000 0.627131 0.679803 0.380229
-2.95000005 9.72000027 -0.16000000 127 238 73 0.000000 0.000000 0.000000 0.000000 0.000000 0.000000 169.000000 0.790022 0.609364 0.067388
-3.02999997 9.71000004 0.04000000 127 238 73 0.000000 0.000000 0.000000 0.000000 0.000000 0.000000 169.000000 0.959318 0.272083 0.075366
-3.06999993 9.68999958 0.02000000 127 238 73 0.000000 0.000000 0.000000 0.000000 0.000000 0.000000 169.000000 0.894238 0.317984 0.314999
-3.09999990 9.68999958 0.13000000 127 238 73 0.000000 0.000000 0.000000 0.000000 0.000000 0.000000 169.000000 0.972234 0.188869 0.138166
-3.15000010 9.64999962 0.00000000 127 238 73 0.000000 0.000000 0.000000 0.000000 0.000000 0.000000 169.000000 0.993180 0.025409 0.113790
-3.00000000 9.73999977 -0.15000001 127 238 73 0.000000 0.000000 0.000000 0.000000 0.000000 0.000000 169.000000 0.732709 0.663215 0.152585
-3.03999996 9.69999981 -0.05000000 127 238 73 0.000000 0.000000 0.000000 0.000000 0.000000 0.000000 169.000000 0.682131 0.659448 0.315952
-3.00000000 9.72999954 -0.13000000 127 238 73 0.000000 0.000000 0.000000 0.000000 0.000000 0.000000 169.000000 0.819930 0.209181 0.532878
-3.06999993 9.69999981 -0.19000000 127 238 73 0.000000 0.000000 0.000000 0.000000 0.000000 0.000000 169.000000 0.908277 0.058033 0.414325
-3.15000010 9.67000008 -0.03000000 127 238 73 0.000000 0.000000 0.000000 0.000000 0.000000 0.000000 169.000000 0.810811 0.122137 0.572424
-3.13000011 9.65999985 -0.15000001 127 238 73 0.000000 0.000000 0.000000 0.000000 0.000000 0.000000 169.000000 0.745937 0.662254 0.070698
-3.13000011 9.65999985 -0.17000000 127 238 73 0.000000 0.000000 0.000000 0.000000 0.000000 0.000000 169.000000 0.939808 0.019024 0.341172
-2.85999990 9.22999954 0.43000001 127 238 73 0.000000 0.000000 0.000000 0.000000 0.000000 0.000000 169.000000 0.903674 -0.121891 0.410506
-2.85999990 9.23999977 0.43000001 127 238 73 0.000000 0.000000 0.000000 0.000000 0.000000 0.000000 169.000000 0.796766 0.258284 0.546309
-2.85999990 9.23999977 0.43000001 127 238 73 0.000000 0.000000 0.000000 0.000000 0.000000 0.000000 169.000000 0.796766 0.258284 0.546309
-2.84999990 9.22999954 0.41999999 127 238 73 0.000000 0.000000 0.000000 0.000000 0.000000 0.000000 169.000000 0.653686 0.152476 0.741246
-2.83999991 9.22000027 0.34999999 127 238 73 0.000000 0.000000 0.000000 0.000000 0.000000 0.000000 169.000000 0.620671 -0.195596 0.759282
-2.90000010 9.18999958 0.46000001 127 238 73 0.000000 0.000000 0.000000 0.000000 0.000000 0.000000 169.000000 0.498879 -0.125804 0.857493
-2.90000010 9.19999981 0.49000001 127 238 73 0.000000 0.000000 0.000000 0.000000 0.000000 0.000000 169.000000 0.690320 -0.216602 0.690320
-2.88000011 9.21000004 0.38999999 127 238 73 0.000000 0.000000 0.000000 0.000000 0.000000 0.000000 169.000000 0.569736 -0.382560 0.727357
-2.89000010 9.19999981 0.38999999 127 238 73 0.000000 0.000000 0.000000 0.000000 0.000000 0.000000 169.000000 0.804703 -0.237225 0.544221
-2.89000010 9.19999981 0.38999999 127 238 73 0.000000 0.000000 0.000000 0.000000 0.000000 0.000000 169.000000 0.804703 -0.237225 0.544221
-2.88000011 9.21000004 0.34000000 127 238 73 0.000000 0.000000 0.000000 0.000000 0.000000 0.000000 169.000000 0.698486 0.351697 0.623239
-2.95000005 9.18999958 0.38999999 127 238 73 0.000000 0.000000 0.000000 0.000000 0.000000 0.000000 169.000000 0.498545 -0.416816 0.760077
-2.94000006 9.18999958 0.38999999 127 238 73 0.000000 0.000000 0.000000 0.000000 0.000000 0.000000 169.000000 0.564322 -0.359409 0.743213
-2.93000007 9.19999981 0.33000001 127 238 73 0.000000 0.000000 0.000000 0.000000 0.000000 0.000000 169.000000 0.693337 -0.226939 0.683946
-2.91000009 9.18999958 0.31000000 127 238 73 0.000000 0.000000 0.000000 0.000000 0.000000 0.000000 169.000000 0.718460 0.064791 0.692544
-2.91000009 9.18999958 0.30000001 127 238 73 0.000000 0.000000 0.000000 0.000000 0.000000 0.000000 169.000000 0.706734 -0.219977 0.672411
-2.92000008 9.18999958 0.31000000 127 238 73 0.000000 0.000000 0.000000 0.000000 0.000000 0.000000 169.000000 0.855534 -0.173479 0.487818
-2.94000006 9.17000008 0.28999999 127 238 73 0.000000 0.000000 0.000000 0.000000 0.000000 0.000000 169.000000 0.626261 -0.192341 0.755514
-2.93000007 9.17000008 0.25999999 127 238 73 0.000000 0.000000 0.000000 0.000000 0.000000 0.000000 169.000000 0.818141 -0.310547 0.483948
-2.94000006 9.18000031 0.22000000 127 238 73 0.000000 0.000000 0.000000 0.000000 0.000000 0.000000 169.000000 0.814052 -0.270309 0.514056
-2.96000004 9.17000008 0.16000000 127 238 73 0.000000 0.000000 0.000000 0.000000 0.000000 0.000000 169.000000 0.633688 -0.453112 0.627000
-3.07999992 9.18999958 0.41999999 127 238 73 0.000000 0.000000 0.000000 0.000000 0.000000 0.000000 169.000000 0.809240 -0.079055 0.582135
-3.01999998 9.18999958 0.40000001 127 238 73 0.000000 0.000000 0.000000 0.000000 0.000000 0.000000 169.000000 0.618332 -0.467519 0.631737
-3.00000000 9.18000031 0.38999999 127 238 73 0.000000 0.000000 0.000000 0.000000 0.000000 0.000000 169.000000 0.681731 0.179242 0.709306
-3.04999995 9.21000004 0.38000000 127 238 73 0.000000 0.000000 0.000000 0.000000 0.000000 0.000000 169.000000 0.538740 0.182598 0.822446
-3.04999995 9.14000034 0.37000000 127 238 73 0.000000 0.000000 0.000000 0.000000 0.000000 0.000000 169.000000 0.681191 0.182984 0.708869
-3.00999999 9.17000008 0.28999999 127 238 73 0.000000 0.000000 0.000000 0.000000 0.000000 0.000000 169.000000 0.523912 0.031627 0.851185
-3.01999998 9.17000008 0.15000001 127 238 73 0.000000 0.000000 0.000000 0.000000 0.000000 0.000000 169.000000 0.679501 0.082937 0.728972
-3.06999993 9.15999985 0.16000000 127 238 73 0.000000 0.000000 0.000000 0.000000 0.000000 0.000000 169.000000 0.815855 0.189206 0.546426
-3.16000009 9.25000000 0.17000000 127 238 73 0.000000 0.000000 0.000000 0.000000 0.000000 0.000000 169.000000 0.338135 -0.175381 0.924611
-3.14000010 9.18000031 0.28000000 127 238 73 0.000000 0.000000 0.000000 0.000000 0.000000 0.000000 169.000000 0.557943 0.224104 0.799048
-3.11999989 9.21000004 0.22000000 127 238 73 0.000000 0.000000 0.000000 0.000000 0.000000 0.000000 169.000000 0.702886 -0.126848 0.699901
-3.09999990 9.18000031 0.20999999 127 238 73 0.000000 0.000000 0.000000 0.000000 0.000000 0.000000 169.000000 0.359926 0.183520 0.914753
-3.11999989 9.18999958 0.18000001 127 238 73 0.000000 0.000000 0.000000 0.000000 0.000000 0.000000 169.000000 0.743373 0.067842 0.665427
-3.10999990 9.18999958 0.17000000 127 238 73 0.000000 0.000000 0.000000 0.000000 0.000000 0.000000 169.000000 0.711604 0.058941 0.700104
-3.15000010 9.18999958 0.19000000 127 238 73 0.000000 0.000000 0.000000 0.000000 0.000000 0.000000 169.000000 0.401415 0.136622 0.905649
-3.13000011 9.18999958 0.19000000 127 238 73 0.000000 0.000000 0.000000 0.000000 0.000000 0.000000 169.000000 0.579199 0.291993 0.761097
-3.13000011 9.15999985 0.20000000 127 238 73 0.000000 0.000000 0.000000 0.000000 0.000000 0.000000 169.000000 0.722743 -0.350767 0.595488
-3.13000011 9.17000008 0.20000000 127 238 73 0.000000 0.000000 0.000000 0.000000 0.000000 0.000000 169.000000 0.661858 -0.195935 0.723570
-2.88000011 9.18000031 0.09000000 127 238 73 0.000000 0.000000 0.000000 0.000000 0.000000 0.000000 169.000000 0.647695 0.172211 0.742182
-2.86999989 9.17000008 0.09000000 127 238 73 0.000000 0.000000 0.000000 0.000000 0.000000 0.000000 169.000000 0.831911 0.096600 0.546437
-2.89000010 9.14000034 0.00000000 127 238 73 0.000000 0.000000 0.000000 0.000000 0.000000 0.000000 169.000000 0.891849 0.247818 0.378405
-2.94000006 9.18999958 0.13000000 127 238 73 0.000000 0.000000 0.000000 0.000000 0.000000 0.000000 169.000000 0.433898 0.144633 0.889277
-2.94000006 9.18000031 0.13000000 127 238 73 0.000000 0.000000 0.000000 0.000000 0.000000 0.000000 169.000000 0.479382 0.156862 0.863474
-2.95000005 9.19999981 0.13000000 127 238 73 0.000000 0.000000 0.000000 0.000000 0.000000 0.000000 169.000000 0.739981 0.300166 0.601937
-2.96000004 9.15999985 0.08000000 127 238 73 0.000000 0.000000 0.000000 0.000000 0.000000 0.000000 169.000000 0.783734 -0.046769 0.619334
