//X Y Z R G B PointSourceId ScanDirectionFlag NumberOfReturns ReturnNumber GpsTime Intensity Classification Nx Ny Nz
20.35000038 -1.84000003 0.17000000 179 141 95 0.000000 0.000000 0.000000 0.000000 132.978989 0.000000 219.000000 0.450224 -0.321589 0.832994
20.36000061 -1.86000001 0.16000000 179 141 95 0.000000 0.000000 0.000000 0.000000 132.978989 0.000000 219.000000 0.589878 -0.197648 0.782930
20.32999992 -1.79999995 0.18000001 179 141 95 0.000000 0.000000 0.000000 0.000000 132.978989 0.000000 219.000000 0.779099 -0.110458 0.617093
20.32999992 -1.80999994 0.18000001 179 141 95 0.000000 0.000000 0.000000 0.000000 132.978989 0.000000 219.000000 0.545956 -0.048871 0.836387
20.32999992 -1.80999994 0.17000000 179 141 95 0.000000 0.000000 0.000000 0.000000 132.978989 0.000000 219.000000 0.707585 -0.333459 0.623000
20.32999992 -1.79999995 0.18000001 179 141 95 0.000000 0.000000 0.000000 0.000000 132.978989 0.000000 219.000000 0.779099 -0.110458 0.617093
20.31999969 -1.82000005 0.18000001 179 141 95 0.000000 0.000000 0.000000 0.000000 132.978989 0.000000 219.000000 0.476882 -0.500144 0.722800
20.29999924 -1.84000003 0.19000000 179 141 95 0.000000 0.000000 0.000000 0.000000 132.978989 0.000000 219.000000 0.556163 -0.269416 0.786191
20.29999924 -1.84000003 0.19000000 179 141 95 0.000000 0.000000 0.000000 0.000000 132.978989 0.000000 219.000000 0.556163 -0.269416 0.786191
20.29999924 -1.85000002 0.19000000 179 141 95 0.000000 0.000000 0.000000 0.000000 132.978989 0.000000 219.000000 0.772214 -0.116644 0.624563
20.32999992 -1.85000002 0.15000001 179 141 95 0.000000 0.000000 0.000000 0.000000 132.978989 0.000000 219.000000 -0.534489 0.541234 -0.649143
20.28000069 -1.84000003 0.20999999 179 141 95 0.000000 0.000000 0.000000 0.000000 132.978989 0.000000 219.000000 0.019132 -0.145176 0.989221
20.45999908 -1.79999995 0.12000000 179 141 95 0.000000 0.000000 0.000000 0.000000 132.978989 0.000000 219.000000 0.339787 -0.034620 0.939865
20.45999908 -1.82000005 0.12000000 179 141 95 0.000000 0.000000 0.000000 0.000000 132.978989 0.000000 219.000000 0.501801 -0.391373 0.771377
20.46999931 -1.80999994 0.12000000 179 141 95 0.000000 0.000000 0.000000 0.000000 132.978989 0.000000 219.000000 0.301386 -0.200457 0.932193
20.47999954 -1.79999995 0.10000000 179 141 95 0.000000 0.000000 0.000000 0.000000 132.978989 0.000000 219.000000 0.861852 -0.182457 0.473203
20.47999954 -1.78999996 0.10000000 179 141 95 0.000000 0.000000 0.000000 0.000000 132.978989 0.000000 219.000000 0.442960 -0.492361 0.749245
20.45999908 -1.79999995 0.05000000 179 141 95 0.000000 0.000000 0.000000 0.000000 132.978989 0.000000 219.000000 -0.401964 0.676556 -0.617006
20.45000076 -1.73000002 0.12000000 179 141 95 0.000000 0.000000 0.000000 0.000000 132.978989 0.000000 219.000000 0.170546 -0.253804 0.952102
20.45000076 -1.74000001 0.10000000 179 141 95 0.000000 0.000000 0.000000 0.000000 132.978989 0.000000 219.000000 0.528708 -0.291973 0.797007
20.45000076 -1.74000001 0.09000000 179 141 95 0.000000 0.000000 0.000000 0.000000 132.978989 0.000000 219.000000 0.473380 -0.238973 0.847822
20.42000008 -1.76999998 0.10000000 179 141 95 0.000000 0.000000 0.000000 0.000000 132.978989 0.000000 219.000000 0.678470 -0.142915 0.720592
20.40999985 -1.73000002 0.12000000 179 141 95 0.000000 0.000000 0.000000 0.000000 132.978989 0.000000 219.000000 0.422217 -0.325621 0.845993
20.43000031 -1.80999994 0.13000000 179 141 95 0.000000 0.000000 0.000000 0.000000 132.978989 0.000000 219.000000 0.678017 -0.547436 0.490516
20.45000076 -1.79999995 0.14000000 179 141 95 0.000000 0.000000 0.000000 0.000000 132.978989 0.000000 219.000000 0.419112 -0.524300 0.741252
20.42000008 -1.82000005 0.12000000 179 141 95 0.000000 0.000000 0.000000 0.000000 132.978989 0.000000 219.000000 0.355828 -0.405989 0.841760
20.44000053 -1.82000005 0.07000000 179 141 95 0.000000 0.000000 0.000000 0.000000 132.978989 0.000000 219.000000 -0.555504 0.672983 -0.488374
20.44000053 -1.82000005 0.09000000 179 141 95 0.000000 0.000000 0.000000 0.000000 132.978989 0.000000 219.000000 0.304496 -0.662157 0.684712
20.42000008 -1.84000003 0.12000000 179 141 95 0.000000 0.000000 0.000000 0.000000 132.978989 0.000000 219.000000 0.447761 -0.070264 0.891388
20.37999916 -1.84000003 0.13000000 179 141 95 0.000000 0.000000 0.000000 0.000000 132.978989 0.000000 219.000000 0.543830 -0.421510 0.725658
20.37999916 -1.86000001 0.13000000 179 141 95 0.000000 0.000000 0.000000 0.000000 132.978989 0.000000 219.000000 0.705841 -0.549725 0.446756
20.37999916 -1.86000001 0.13000000 179 141 95 0.000000 0.000000 0.000000 0.000000 132.978989 0.000000 219.000000 0.705841 -0.549725 0.446756
20.38999939 -1.86000001 0.11000000 179 141 95 0.000000 0.000000 0.000000 0.000000 132.978989 0.000000 219.000000 0.325154 -0.094228 0.940955
20.37999916 -1.85000002 0.10000000 179 141 95 0.000000 0.000000 0.000000 0.000000 132.978989 0.000000 219.000000 0.601894 -0.017988 0.798374
20.39999962 -1.85000002 0.10000000 179 141 95 0.000000 0.000000 0.000000 0.000000 132.978989 0.000000 219.000000 0.753796 -0.403878 0.518337
20.45000076 -1.84000003 0.05000000 179 141 95 0.000000 0.000000 0.000000 0.000000 132.978989 0.000000 219.000000 0.791197 -0.412587 0.451419
20.37000084 -1.76999998 0.09000000 179 141 95 0.000000 0.000000 0.000000 0.000000 132.978989 0.000000 219.000000 0.260897 -0.411704 0.873174
20.36000061 -1.80999994 0.13000000 179 141 95 0.000000 0.000000 0.000000 0.000000 132.978989 0.000000 219.000000 0.283125 -0.248979 0.926202
20.35000038 -1.80999994 0.13000000 179 141 95 0.000000 0.000000 0.000000 0.000000 132.978989 0.000000 219.000000 0.380216 -0.244108 0.892103
20.35000038 -1.80999994 0.13000000 179 141 95 0.000000 0.000000 0.000000 0.000000 132.978989 0.000000 219.000000 0.380216 -0.244108 0.892103
20.35000038 -1.78999996 0.13000000 179 141 95 0.000000 0.000000 0.000000 0.000000 132.978989 0.000000 219.000000 -0.562948 0.546042 -0.620426
20.35000038 -1.77999997 0.10000000 179 141 95 0.000000 0.000000 0.000000 0.000000 132.978989 0.000000 219.000000 0.704562 -0.055963 0.707432
20.36000061 -1.84000003 0.11000000 179 141 95 0.000000 0.000000 0.000000 0.000000 132.978989 0.000000 219.000000 0.757102 -0.101437 0.645374
20.35000038 -1.84000003 0.08000000 179 141 95 0.000000 0.000000 0.000000 0.000000 132.978989 0.000000 219.000000 0.486309 0.045206 0.872617
20.29000092 -1.85000002 0.14000000 179 141 95 0.000000 0.000000 0.000000 0.000000 132.978989 0.000000 219.000000 0.577502 0.052243 0.814716
20.31999969 -1.86000001 0.10000000 179 141 95 0.000000 0.000000 0.000000 0.000000 132.978989 0.000000 219.000000 0.460086 -0.479875 0.747021
20.43000031 -1.92999995 0.15000001 179 141 95 0.000000 0.000000 0.000000 0.000000 132.978989 0.000000 219.000000 -0.409875 0.682018 -0.605685
20.38999939 -1.95000005 0.17000000 179 141 95 0.000000 0.000000 0.000000 0.000000 132.978989 0.000000 219.000000 0.391586 -0.248650 0.885908
20.35000038 -1.88999999 0.17000000 179 141 95 0.000000 0.000000 0.000000 0.000000 132.978989 0.000000 219.000000 -0.483809 0.674654 -0.557468
20.36000061 -1.87000000 0.19000000 179 141 95 0.000000 0.000000 0.000000 0.000000 132.978989 0.000000 219.000000 0.122591 -0.236149 0.963953
20.36000061 -1.88999999 0.16000000 179 141 95 0.000000 0.000000 0.000000 0.000000 132.978989 0.000000 219.000000 0.777208 -0.252789 0.576233
20.35000038 -1.89999998 0.16000000 179 141 95 0.000000 0.000000 0.000000 0.000000 132.978989 0.000000 219.000000 0.768112 -0.119879 0.628994
20.30999947 -1.88000000 0.18000001 179 141 95 0.000000 0.000000 0.000000 0.000000 132.978989 0.000000 219.000000 0.789209 -0.138746 0.598247
20.30999947 -1.88000000 0.18000001 179 141 95 0.000000 0.000000 0.000000 0.000000 132.978989 0.000000 219.000000 0.789209 -0.138746 0.598247
20.30999947 -1.88999999 0.18000001 179 141 95 0.000000 0.000000 0.000000 0.000000 132.978989 0.000000 219.000000 0.729550 -0.156224 0.665847
20.31999969 -1.89999998 0.15000001 179 141 95 0.000000 0.000000 0.000000 0.000000 132.978989 0.000000 219.000000 0.535024 -0.435639 0.723856
20.31999969 -1.87000000 0.15000001 179 141 95 0.000000 0.000000 0.000000 0.000000 132.978989 0.000000 219.000000 0.192946 -0.358737 0.913279
20.29000092 -1.88999999 0.19000000 179 141 95 0.000000 0.000000 0.000000 0.000000 132.978989 0.000000 219.000000 0.425264 -0.101784 0.899328
20.30999947 -1.88999999 0.18000001 179 141 95 0.000000 0.000000 0.000000 0.000000 132.978989 0.000000 219.000000 0.729550 -0.156224 0.665847
20.32999992 -1.91999996 0.19000000 179 141 95 0.000000 0.000000 0.000000 0.000000 132.978989 0.000000 219.000000 0.538288 -0.045901 0.841510
20.29999924 -1.90999997 0.17000000 179 141 95 0.000000 0.000000 0.000000 0.000000 132.978989 0.000000 219.000000 0.466767 -0.009309 0.884331
20.28000069 -1.88999999 0.20000000 179 141 95 0.000000 0.000000 0.000000 0.000000 132.978989 0.000000 219.000000 0.449455 -0.300155 0.841367
20.28000069 -1.87000000 0.15000001 179 141 95 0.000000 0.000000 0.000000 0.000000 132.978989 0.000000 219.000000 0.518165 -0.578927 0.629562
20.28000069 -1.87000000 0.15000001 179 141 95 0.000000 0.000000 0.000000 0.000000 132.978989 0.000000 219.000000 0.518165 -0.578927 0.629562
20.27000046 -1.95000005 0.17000000 179 141 95 0.000000 0.000000 0.000000 0.000000 132.978989 0.000000 219.000000 0.417866 0.022409 0.908232
20.45999908 -1.89999998 0.13000000 179 141 95 0.000000 0.000000 0.000000 0.000000 132.978989 0.000000 219.000000 0.541455 -0.390960 0.744296
20.45000076 -1.90999997 0.12000000 179 141 95 0.000000 0.000000 0.000000 0.000000 132.978989 0.000000 219.000000 -0.480593 0.720057 -0.500548
20.44000053 -1.90999997 0.08000000 179 141 95 0.000000 0.000000 0.000000 0.000000 132.978989 0.000000 219.000000 0.614777 -0.091563 0.783368
20.40999985 -1.87000000 0.14000000 179 141 95 0.000000 0.000000 0.000000 0.000000 132.978989 0.000000 219.000000 0.610301 -0.264728 0.746627
20.38999939 -1.88999999 0.07000000 179 141 95 0.000000 0.000000 0.000000 0.000000 132.978989 0.000000 219.000000 0.767460 -0.459822 0.446731
20.40999985 -1.89999998 0.08000000 179 141 95 0.000000 0.000000 0.000000 0.000000 132.978989 0.000000 219.000000 0.613187 -0.592916 0.521969
20.38999939 -1.88999999 0.08000000 179 141 95 0.000000 0.000000 0.000000 0.000000 132.978989 0.000000 219.000000 0.636036 -0.373075 0.675480
20.40999985 -1.90999997 0.11000000 179 141 95 0.000000 0.000000 0.000000 0.000000 132.978989 0.000000 219.000000 0.435363 -0.409659 0.801647
20.38999939 -1.92999995 0.11000000 179 141 95 0.000000 0.000000 0.000000 0.000000 132.978989 0.000000 219.000000 0.362311 -0.654127 0.663964
20.40999985 -1.91999996 0.07000000 179 141 95 0.000000 0.000000 0.000000 0.000000 132.978989 0.000000 219.000000 0.837376 -0.200669 0.508461
20.42000008 -1.88999999 0.06000000 179 141 95 0.000000 0.000000 0.000000 0.000000 132.978989 0.000000 219.000000 0.626750 -0.226630 0.745535
20.43000031 -1.87000000 0.05000000 179 141 95 0.000000 0.000000 0.000000 0.000000 132.978989 0.000000 219.000000 0.819785 -0.239297 0.520278
20.45000076 -1.99000001 0.08000000 179 141 95 0.000000 0.000000 0.000000 0.000000 132.978989 0.000000 219.000000 0.590610 -0.750667 0.296105
20.42000008 -2.00000000 0.09000000 179 141 95 0.000000 0.000000 0.000000 0.000000 132.978989 0.000000 219.000000 0.484911 -0.471671 0.736469
20.40999985 -1.98000002 0.10000000 179 141 95 0.000000 0.000000 0.000000 0.000000 132.978989 0.000000 219.000000 0.642599 -0.213162 0.735954
20.39999962 -2.00999999 0.09000000 179 141 95 0.000000 0.000000 0.000000 0.000000 132.978989 0.000000 219.000000 -0.448457 0.733087 -0.511341
20.40999985 -2.00999999 0.08000000 179 141 95 0.000000 0.000000 0.000000 0.000000 132.978989 0.000000 219.000000 0.775716 -0.270158 0.570333
20.39999962 -2.00999999 0.09000000 179 141 95 0.000000 0.000000 0.000000 0.000000 132.978989 0.000000 219.000000 -0.448457 0.733087 -0.511341
20.45000076 -2.00000000 0.06000000 179 141 95 0.000000 0.000000 0.000000 0.000000 132.978989 0.000000 219.000000 0.620071 -0.579522 0.528835
20.51000023 -2.07999992 0.07000000 179 141 95 0.000000 0.000000 0.000000 0.000000 132.978989 0.000000 219.000000 0.741539 -0.454172 0.493809
20.54000092 -2.10999990 0.06000000 179 141 95 0.000000 0.000000 0.000000 0.000000 132.978989 0.000000 219.000000 0.769914 -0.636632 -0.043955
20.45999908 -2.08999991 0.03000000 179 141 95 0.000000 0.000000 0.000000 0.000000 132.978989 0.000000 219.000000 -0.530974 0.818649 -0.218816
20.48999977 -2.10999990 0.06000000 179 141 95 0.000000 0.000000 0.000000 0.000000 132.978989 0.000000 219.000000 0.694746 -0.348190 0.629358
20.53000069 -2.19000006 0.07000000 179 141 95 0.000000 0.000000 0.000000 0.000000 132.978989 0.000000 219.000000 0.588802 -0.438683 0.678874
20.52000046 -2.19000006 0.10000000 179 141 95 0.000000 0.000000 0.000000 0.000000 132.978989 0.000000 219.000000 -0.586722 0.607012 -0.535997
20.52000046 -2.19000006 0.08000000 179 141 95 0.000000 0.000000 0.000000 0.000000 132.978989 0.000000 219.000000 0.897048 -0.304967 0.319843
20.52000046 -2.19000006 0.07000000 179 141 95 0.000000 0.000000 0.000000 0.000000 132.978989 0.000000 219.000000 0.814766 -0.422530 0.397019
20.51000023 -2.16000009 0.05000000 179 141 95 0.000000 0.000000 0.000000 0.000000 132.978989 0.000000 219.000000 -0.506519 0.826750 -0.244792
20.53000069 -2.18000007 0.05000000 179 141 95 0.000000 0.000000 0.000000 0.000000 132.978989 0.000000 219.000000 0.831738 -0.480387 0.278282
20.52000046 -2.19000006 0.06000000 179 141 95 0.000000 0.000000 0.000000 0.000000 132.978989 0.000000 219.000000 0.761701 -0.583600 0.281464
20.42000008 -2.04999995 0.06000000 179 141 95 0.000000 0.000000 0.000000 0.000000 132.978989 0.000000 219.000000 0.722279 -0.286669 0.629392
20.45000076 -2.08999991 0.05000000 179 141 95 0.000000 0.000000 0.000000 0.000000 132.978989 0.000000 219.000000 -0.587236 0.794496 -0.154694
20.40999985 -2.06999993 0.06000000 179 141 95 0.000000 0.000000 0.000000 0.000000 132.978989 0.000000 219.000000 -0.508718 0.824155 -0.248947
20.39999962 -2.07999992 0.06000000 179 141 95 0.000000 0.000000 0.000000 0.000000 132.978989 0.000000 219.000000 0.744843 -0.667169 0.009709
20.36000061 -1.89999998 0.12000000 179 141 95 0.000000 0.000000 0.000000 0.000000 132.978989 0.000000 219.000000 -0.456238 0.725003 -0.515963
20.36000061 -1.89999998 0.09000000 179 141 95 0.000000 0.000000 0.000000 0.000000 132.978989 0.000000 219.000000 0.450120 -0.142370 0.881545
20.29999924 -1.89999998 0.08000000 179 141 95 0.000000 0.000000 0.000000 0.000000 132.978989 0.000000 219.000000 0.743253 -0.175512 0.645577
20.30999947 -1.87000000 0.10000000 179 141 95 0.000000 0.000000 0.000000 0.000000 132.978989 0.000000 219.000000 0.634235 -0.503014 0.587130
20.29000092 -1.88999999 0.09000000 179 141 95 0.000000 0.000000 0.000000 0.000000 132.978989 0.000000 219.000000 0.758748 -0.450660 0.470326
20.30999947 -1.88999999 0.07000000 179 141 95 0.000000 0.000000 0.000000 0.000000 132.978989 0.000000 219.000000 0.596499 -0.606638 0.525528
20.29000092 -1.89999998 0.09000000 179 141 95 0.000000 0.000000 0.000000 0.000000 132.978989 0.000000 219.000000 0.785791 -0.217675 0.578922
20.30999947 -1.94000006 0.12000000 179 141 95 0.000000 0.000000 0.000000 0.000000 132.978989 0.000000 219.000000 0.380142 -0.463549 0.800384
20.31999969 -2.01999998 0.10000000 179 141 95 0.000000 0.000000 0.000000 0.000000 132.978989 0.000000 219.000000 0.735317 -0.139846 0.663138
20.28000069 -1.88000000 0.14000000 179 141 95 0.000000 0.000000 0.000000 0.000000 132.978989 0.000000 219.000000 0.367587 -0.304053 0.878881
20.28000069 -1.88999999 0.11000000 179 141 95 0.000000 0.000000 0.000000 0.000000 132.978989 0.000000 219.000000 0.705609 -0.475410 0.525453
20.27000046 -1.89999998 0.11000000 179 141 95 0.000000 0.000000 0.000000 0.000000 132.978989 0.000000 219.000000 0.733135 -0.382149 0.562562
20.28000069 -1.90999997 0.10000000 179 141 95 0.000000 0.000000 0.000000 0.000000 132.978989 0.000000 219.000000 0.366735 -0.652887 0.662755
20.28000069 -1.90999997 0.10000000 179 141 95 0.000000 0.000000 0.000000 0.000000 132.978989 0.000000 219.000000 0.366735 -0.652887 0.662755
20.21999931 -1.92999995 0.11000000 179 141 95 0.000000 0.000000 0.000000 0.000000 132.978989 0.000000 219.000000 0.369488 -0.276742 0.887070
20.21999931 -1.92999995 0.10000000 179 141 95 0.000000 0.000000 0.000000 0.000000 132.978989 0.000000 219.000000 0.289324 -0.532799 0.795246
20.25000000 -1.91999996 0.06000000 179 141 95 0.000000 0.000000 0.000000 0.000000 132.978989 0.000000 219.000000 0.223718 -0.560066 0.797669
20.28000069 -2.00999999 0.08000000 179 141 95 0.000000 0.000000 0.000000 0.000000 132.978989 0.000000 219.000000 -0.478377 0.808949 -0.341698
20.23999977 -1.99000001 0.11000000 179 141 95 0.000000 0.000000 0.000000 0.000000 132.978989 0.000000 219.000000 0.631198 -0.015260 0.775472
20.25000000 -2.00999999 0.05000000 179 141 95 0.000000 0.000000 0.000000 0.000000 132.978989 0.000000 219.000000 0.290619 -0.647068 0.704871
20.29999924 -2.03999996 0.07000000 179 141 95 0.000000 0.000000 0.000000 0.000000 132.978989 0.000000 219.000000 -0.391730 0.685941 -0.613215
20.35000038 -2.11999989 0.07000000 179 141 95 0.000000 0.000000 0.000000 0.000000 132.978989 0.000000 219.000000 0.679583 -0.596504 0.427024
20.29000092 -2.03999996 0.10000000 179 141 95 0.000000 0.000000 0.000000 0.000000 132.978989 0.000000 219.000000 0.762686 -0.494848 0.416456
20.30999947 -2.03999996 0.09000000 179 141 95 0.000000 0.000000 0.000000 0.000000 132.978989 0.000000 219.000000 -0.656558 0.735772 -0.166044
20.30999947 -2.03999996 0.07000000 179 141 95 0.000000 0.000000 0.000000 0.000000 132.978989 0.000000 219.000000 -0.617197 0.751574 -0.232816
20.37000084 -2.10999990 0.06000000 179 141 95 0.000000 0.000000 0.000000 0.000000 132.978989 0.000000 219.000000 -0.474508 0.714259 -0.514467
20.29999924 -2.04999995 0.05000000 179 141 95 0.000000 0.000000 0.000000 0.000000 132.978989 0.000000 219.000000 0.780068 -0.407063 0.475177
20.29999924 -2.04999995 0.05000000 179 141 95 0.000000 0.000000 0.000000 0.000000 132.978989 0.000000 219.000000 0.780068 -0.407063 0.475177
20.34000015 -2.16000009 0.02000000 179 141 95 0.000000 0.000000 0.000000 0.000000 132.978989 0.000000 219.000000 0.802584 -0.319444 0.503800
20.34000015 -2.14000010 0.06000000 179 141 95 0.000000 0.000000 0.000000 0.000000 132.978989 0.000000 219.000000 0.868658 -0.432071 0.242381
20.34000015 -2.16000009 0.01000000 179 141 95 0.000000 0.000000 0.000000 0.000000 132.978989 0.000000 219.000000 -0.484720 0.816287 -0.314200
20.34000015 -2.18000007 0.01000000 179 141 95 0.000000 0.000000 0.000000 0.000000 132.978989 0.000000 219.000000 0.768396 -0.639159 0.032309
20.31999969 -2.17000008 0.02000000 179 141 95 0.000000 0.000000 0.000000 0.000000 132.978989 0.000000 219.000000 0.785589 -0.541183 0.299952
20.29999924 -2.17000008 0.04000000 179 141 95 0.000000 0.000000 0.000000 0.000000 132.978989 0.000000 219.000000 -0.511817 0.730458 -0.452188
20.30999947 -2.18000007 0.02000000 179 141 95 0.000000 0.000000 0.000000 0.000000 132.978989 0.000000 219.000000 0.755519 -0.579071 0.306378
20.31999969 -2.17000008 0.01000000 179 141 95 0.000000 0.000000 0.000000 0.000000 132.978989 0.000000 219.000000 0.922170 -0.372966 0.102463
20.30999947 -2.20000005 0.00000000 179 141 95 0.000000 0.000000 0.000000 0.000000 132.978989 0.000000 219.000000 0.767362 -0.466307 0.440129
20.30999947 -2.20000005 0.00000000 179 141 95 0.000000 0.000000 0.000000 0.000000 132.978989 0.000000 219.000000 0.767362 -0.466307 0.440129
20.30999947 -2.18000007 0.01000000 179 141 95 0.000000 0.000000 0.000000 0.000000 132.978989 0.000000 219.000000 0.595514 -0.507789 0.622506
20.25000000 -2.10999990 0.07000000 179 141 95 0.000000 0.000000 0.000000 0.000000 132.978989 0.000000 219.000000 0.492386 -0.636908 0.593215
20.20999908 -2.05999994 0.11000000 179 141 95 0.000000 0.000000 0.000000 0.000000 132.978989 0.000000 219.000000 -0.683229 0.680044 -0.265966
20.23999977 -2.04999995 0.08000000 179 141 95 0.000000 0.000000 0.000000 0.000000 132.978989 0.000000 219.000000 0.587470 -0.437690 0.680666
20.22999954 -2.05999994 0.08000000 179 141 95 0.000000 0.000000 0.000000 0.000000 132.978989 0.000000 219.000000 0.718949 -0.396492 0.570882
20.26000023 -2.10999990 0.06000000 179 141 95 0.000000 0.000000 0.000000 0.000000 132.978989 0.000000 219.000000 0.585336 -0.448591 0.675388
20.26000023 -2.07999992 0.05000000 179 141 95 0.000000 0.000000 0.000000 0.000000 132.978989 0.000000 219.000000 0.791785 -0.569529 0.220712
20.26000023 -2.11999989 0.06000000 179 141 95 0.000000 0.000000 0.000000 0.000000 132.978989 0.000000 219.000000 0.618106 -0.387347 0.684038
20.23999977 -2.05999994 0.04000000 179 141 95 0.000000 0.000000 0.000000 0.000000 132.978989 0.000000 219.000000 -0.711093 0.699507 -0.070965
20.26000023 -2.18000007 0.04000000 179 141 95 0.000000 0.000000 0.000000 0.000000 132.978989 0.000000 219.000000 0.874809 -0.421649 0.238584
20.26000023 -2.19000006 0.03000000 179 141 95 0.000000 0.000000 0.000000 0.000000 132.978989 0.000000 219.000000 -0.545357 0.636531 -0.545357
20.26000023 -2.18000007 0.04000000 179 141 95 0.000000 0.000000 0.000000 0.000000 132.978989 0.000000 219.000000 0.874809 -0.421649 0.238584
20.26000023 -2.18000007 0.05000000 179 141 95 0.000000 0.000000 0.000000 0.000000 132.978989 0.000000 219.000000 -0.552146 0.714640 -0.429447
20.23999977 -2.15000010 0.06000000 179 141 95 0.000000 0.000000 0.000000 0.000000 132.978989 0.000000 219.000000 0.707044 -0.387309 0.591676
20.23999977 -2.15000010 0.06000000 179 141 95 0.000000 0.000000 0.000000 0.000000 132.978989 0.000000 219.000000 0.707044 -0.387309 0.591676
20.20999908 -2.18000007 0.02000000 179 141 95 0.000000 0.000000 0.000000 0.000000 132.978989 0.000000 219.000000 0.827803 -0.558872 -0.049024
20.35000038 -2.27999997 0.07000000 179 141 95 0.000000 0.000000 0.000000 0.000000 132.978989 0.000000 219.000000 0.744796 -0.664433 -0.061708
20.35000038 -2.25000000 0.02000000 179 141 95 0.000000 0.000000 0.000000 0.000000 132.978989 0.000000 219.000000 0.451082 -0.756178 0.474046
20.29000092 -2.25000000 0.01000000 179 141 95 0.000000 0.000000 0.000000 0.000000 132.978989 0.000000 219.000000 0.731036 -0.472438 0.492330
20.30999947 -2.27999997 0.03000000 179 141 95 0.000000 0.000000 0.000000 0.000000 132.978989 0.000000 219.000000 0.864440 -0.445043 0.233836
20.31999969 -2.26999998 0.02000000 179 141 95 0.000000 0.000000 0.000000 0.000000 132.978989 0.000000 219.000000 -0.538235 0.615849 -0.575355
20.29999924 -2.28999996 0.02000000 179 141 95 0.000000 0.000000 0.000000 0.000000 132.978989 0.000000 219.000000 -0.405960 0.764640 -0.500521
20.31999969 -2.27999997 0.00000000 179 141 95 0.000000 0.000000 0.000000 0.000000 132.978989 0.000000 219.000000 0.815229 -0.565520 -0.124855
20.29000092 -2.31999993 0.03000000 179 141 95 0.000000 0.000000 0.000000 0.000000 132.978989 0.000000 219.000000 0.772301 -0.633936 -0.040945
20.29999924 -2.30999994 0.04000000 179 141 95 0.000000 0.000000 0.000000 0.000000 132.978989 0.000000 219.000000 0.815649 -0.578269 0.017942
20.29999924 -2.30999994 0.02000000 179 141 95 0.000000 0.000000 0.000000 0.000000 132.978989 0.000000 219.000000 0.799337 -0.570955 0.187273
20.32999992 -2.29999995 0.04000000 179 141 95 0.000000 0.000000 0.000000 0.000000 132.978989 0.000000 219.000000 -0.536015 0.779222 -0.324809
20.29000092 -2.31999993 -0.01000000 179 141 95 0.000000 0.000000 0.000000 0.000000 132.978989 0.000000 219.000000 -0.445533 0.812818 -0.375270
20.28000069 -2.25999999 0.02000000 179 141 95 0.000000 0.000000 0.000000 0.000000 132.978989 0.000000 219.000000 0.760134 -0.400501 0.511660
20.20999908 -2.25999999 0.02000000 179 141 95 0.000000 0.000000 0.000000 0.000000 132.978989 0.000000 219.000000 -0.402436 0.875712 -0.266783
20.21999931 -2.32999992 0.07000000 179 141 95 0.000000 0.000000 0.000000 0.000000 132.978989 0.000000 219.000000 -0.663623 0.746398 0.049950
20.21999931 -2.32999992 0.07000000 179 141 95 0.000000 0.000000 0.000000 0.000000 132.978989 0.000000 219.000000 -0.663623 0.746398 0.049950
20.27000046 -2.31999993 0.02000000 179 141 95 0.000000 0.000000 0.000000 0.000000 132.978989 0.000000 219.000000 0.566081 -0.714616 0.410945
20.27000046 -2.32999992 -0.02000000 179 141 95 0.000000 0.000000 0.000000 0.000000 132.978989 0.000000 219.000000 0.881325 -0.462450 0.096988
20.12000084 -1.96000004 0.15000001 179 141 95 0.000000 0.000000 0.000000 0.000000 132.978989 0.000000 219.000000 0.511274 -0.231839 0.827557
20.04000092 -1.95000005 0.16000000 179 141 95 0.000000 0.000000 0.000000 0.000000 132.978989 0.000000 219.000000 0.165672 -0.017138 0.986032
20.04000092 -1.88999999 0.16000000 179 141 95 0.000000 0.000000 0.000000 0.000000 132.978989 0.000000 219.000000 0.111197 -0.157630 0.981218
20.03000069 -1.92999995 0.18000001 179 141 95 0.000000 0.000000 0.000000 0.000000 132.978989 0.000000 219.000000 0.316014 0.036805 0.948041
20.04999924 -1.91999996 0.16000000 179 141 95 0.000000 0.000000 0.000000 0.000000 132.978989 0.000000 219.000000 -0.034352 -0.197822 0.979636
20.11000061 -1.94000006 0.15000001 179 141 95 0.000000 0.000000 0.000000 0.000000 132.978989 0.000000 219.000000 0.383555 -0.157102 0.910058
20.11000061 -1.95000005 0.16000000 179 141 95 0.000000 0.000000 0.000000 0.000000 132.978989 0.000000 219.000000 0.518334 0.164857 0.839137
20.04999924 -1.90999997 0.17000000 179 141 95 0.000000 0.000000 0.000000 0.000000 132.978989 0.000000 219.000000 0.123730 -0.178721 0.976089
20.04999924 -1.89999998 0.17000000 179 141 95 0.000000 0.000000 0.000000 0.000000 132.978989 0.000000 219.000000 0.037877 -0.148066 0.988252
20.04999924 -1.88999999 0.18000001 179 141 95 0.000000 0.000000 0.000000 0.000000 132.978989 0.000000 219.000000 0.088837 -0.136217 0.986688
20.07999992 -2.00999999 0.17000000 179 141 95 0.000000 0.000000 0.000000 0.000000 132.978989 0.000000 219.000000 0.172967 -0.425878 0.888094
20.07999992 -2.00999999 0.16000000 179 141 95 0.000000 0.000000 0.000000 0.000000 132.978989 0.000000 219.000000 0.615849 -0.538235 0.575355
20.10000038 -2.00999999 0.17000000 179 141 95 0.000000 0.000000 0.000000 0.000000 132.978989 0.000000 219.000000 0.374963 -0.524299 0.764535
20.11000061 -2.00000000 0.18000001 179 141 95 0.000000 0.000000 0.000000 0.000000 132.978989 0.000000 219.000000 0.109487 -0.288886 0.951082
20.10000038 -2.01999998 0.17000000 179 141 95 0.000000 0.000000 0.000000 0.000000 132.978989 0.000000 219.000000 0.288060 -0.514730 0.807512
20.05999947 -1.97000003 0.15000001 179 141 95 0.000000 0.000000 0.000000 0.000000 132.978989 0.000000 219.000000 0.143777 -0.286211 0.947318
20.04000092 -1.97000003 0.15000001 179 141 95 0.000000 0.000000 0.000000 0.000000 132.978989 0.000000 219.000000 0.594618 -0.335384 0.730716
20.03000069 -1.99000001 0.16000000 179 141 95 0.000000 0.000000 0.000000 0.000000 132.978989 0.000000 219.000000 0.377770 0.008964 0.925856
20.04999924 -1.96000004 0.15000001 179 141 95 0.000000 0.000000 0.000000 0.000000 132.978989 0.000000 219.000000 0.155253 -0.215267 0.964135
20.04000092 -1.97000003 0.15000001 179 141 95 0.000000 0.000000 0.000000 0.000000 132.978989 0.000000 219.000000 0.594618 -0.335384 0.730716
20.05999947 -1.97000003 0.15000001 179 141 95 0.000000 0.000000 0.000000 0.000000 132.978989 0.000000 219.000000 0.143777 -0.286211 0.947318
20.04000092 -2.00999999 0.18000001 179 141 95 0.000000 0.000000 0.000000 0.000000 132.978989 0.000000 219.000000 0.354578 -0.001262 0.935026
20.04000092 -2.01999998 0.18000001 179 141 95 0.000000 0.000000 0.000000 0.000000 132.978989 0.000000 219.000000 0.475377 -0.495254 0.727145
20.04000092 -2.02999997 0.15000001 179 141 95 0.000000 0.000000 0.000000 0.000000 132.978989 0.000000 219.000000 0.359926 -0.183520 0.914753
20.03000069 -2.00999999 0.16000000 179 141 95 0.000000 0.000000 0.000000 0.000000 132.978989 0.000000 219.000000 0.578582 -0.360188 0.731784
20.04000092 -2.02999997 0.15000001 179 141 95 0.000000 0.000000 0.000000 0.000000 132.978989 0.000000 219.000000 0.359926 -0.183520 0.914753
19.98999977 -1.94000006 0.19000000 179 141 95 0.000000 0.000000 0.000000 0.000000 132.978989 0.000000 219.000000 0.477962 -0.288023 0.829817
20.01000023 -1.91999996 0.18000001 179 141 95 0.000000 0.000000 0.000000 0.000000 132.978989 0.000000 219.000000 0.631540 0.082754 0.770914
20.00000000 -1.92999995 0.18000001 179 141 95 0.000000 0.000000 0.000000 0.000000 132.978989 0.000000 219.000000 0.583914 -0.052312 0.810128
19.97999954 -1.88999999 0.23000000 179 141 95 0.000000 0.000000 0.000000 0.000000 132.978989 0.000000 219.000000 -0.220763 0.001168 0.975327
19.95000076 -1.90999997 0.20000000 179 141 95 0.000000 0.000000 0.000000 0.000000 132.978989 0.000000 219.000000 0.503775 0.234279 0.831459
19.97999954 -1.91999996 0.23000000 179 141 95 0.000000 0.000000 0.000000 0.000000 132.978989 0.000000 219.000000 0.112763 0.177199 0.977694
19.97999954 -1.91999996 0.17000000 179 141 95 0.000000 0.000000 0.000000 0.000000 132.978989 0.000000 219.000000 0.330368 -0.197087 0.923046
19.96999931 -1.94000006 0.18000001 179 141 95 0.000000 0.000000 0.000000 0.000000 132.978989 0.000000 219.000000 0.028181 -0.263428 0.964267
19.97999954 -1.92999995 0.19000000 179 141 95 0.000000 0.000000 0.000000 0.000000 132.978989 0.000000 219.000000 0.207497 0.183708 0.960831
19.97999954 -1.94000006 0.16000000 179 141 95 0.000000 0.000000 0.000000 0.000000 132.978989 0.000000 219.000000 0.563145 -0.015072 0.826220
19.97999954 -1.95000005 0.19000000 179 141 95 0.000000 0.000000 0.000000 0.000000 132.978989 0.000000 219.000000 0.298915 0.264258 0.916961
20.01000023 -1.96000004 0.23000000 179 141 95 0.000000 0.000000 0.000000 0.000000 132.978989 0.000000 219.000000 0.595397 -0.204619 0.776939
20.02000046 -1.98000002 0.19000000 179 141 95 0.000000 0.000000 0.000000 0.000000 132.978989 0.000000 219.000000 0.137864 -0.128104 0.982132
19.98999977 -1.99000001 0.16000000 179 141 95 0.000000 0.000000 0.000000 0.000000 132.978989 0.000000 219.000000 0.483656 0.100703 0.869446
20.01000023 -1.97000003 0.17000000 179 141 95 0.000000 0.000000 0.000000 0.000000 132.978989 0.000000 219.000000 -0.042722 -0.153567 0.987214
19.96999931 -1.97000003 0.20000000 179 141 95 0.000000 0.000000 0.000000 0.000000 132.978989 0.000000 219.000000 -0.053975 0.032808 0.998003
19.95000076 -1.97000003 0.20999999 179 141 95 0.000000 0.000000 0.000000 0.000000 132.978989 0.000000 219.000000 0.556207 0.087671 0.826406
19.95999908 -1.96000004 0.18000001 179 141 95 0.000000 0.000000 0.000000 0.000000 132.978989 0.000000 219.000000 0.115199 0.112824 0.986914
19.95999908 -1.99000001 0.19000000 179 141 95 0.000000 0.000000 0.000000 0.000000 132.978989 0.000000 219.000000 0.452003 -0.248069 0.856828
19.95999908 -1.96000004 0.18000001 179 141 95 0.000000 0.000000 0.000000 0.000000 132.978989 0.000000 219.000000 0.115199 0.112824 0.986914
19.95000076 -1.99000001 0.16000000 179 141 95 0.000000 0.000000 0.000000 0.000000 132.978989 0.000000 219.000000 0.139719 0.073969 0.987425
19.97999954 -1.98000002 0.16000000 179 141 95 0.000000 0.000000 0.000000 0.000000 132.978989 0.000000 219.000000 0.277772 -0.213563 0.936607
19.95999908 -1.97000003 0.18000001 179 141 95 0.000000 0.000000 0.000000 0.000000 132.978989 0.000000 219.000000 0.263773 0.272328 0.925344
19.96999931 -2.00000000 0.22000000 179 141 95 0.000000 0.000000 0.000000 0.000000 132.978989 0.000000 219.000000 0.134754 0.319869 0.937830
19.95000076 -2.01999998 0.16000000 179 141 95 0.000000 0.000000 0.000000 0.000000 132.978989 0.000000 219.000000 0.128577 -0.422467 0.897212
19.94000053 -1.89999998 0.19000000 179 141 95 0.000000 0.000000 0.000000 0.000000 132.978989 0.000000 219.000000 0.038301 -0.165972 0.985386
19.87000084 -1.95000005 0.15000001 179 141 95 0.000000 0.000000 0.000000 0.000000 132.978989 0.000000 219.000000 0.433291 0.263015 0.862022
19.93000031 -1.98000002 0.20000000 179 141 95 0.000000 0.000000 0.000000 0.000000 132.978989 0.000000 219.000000 0.540851 0.293424 0.788278
19.93000031 -1.98000002 0.20000000 179 141 95 0.000000 0.000000 0.000000 0.000000 132.978989 0.000000 219.000000 0.540851 0.293424 0.788278
19.92000008 -1.99000001 0.20000000 179 141 95 0.000000 0.000000 0.000000 0.000000 132.978989 0.000000 219.000000 0.244716 -0.060868 0.967682
19.93000031 -1.96000004 0.19000000 179 141 95 0.000000 0.000000 0.000000 0.000000 132.978989 0.000000 219.000000 0.525707 0.246570 0.814147
19.90999985 -2.01999998 0.16000000 179 141 95 0.000000 0.000000 0.000000 0.000000 132.978989 0.000000 219.000000 0.489219 -0.336238 0.804741
19.93000031 -2.00000000 0.15000001 179 141 95 0.000000 0.000000 0.000000 0.000000 132.978989 0.000000 219.000000 0.547904 0.066541 0.833890
19.92000008 -2.02999997 0.16000000 179 141 95 0.000000 0.000000 0.000000 0.000000 132.978989 0.000000 219.000000 0.570233 -0.163998 0.804946
19.94000053 -2.00000000 0.19000000 179 141 95 0.000000 0.000000 0.000000 0.000000 132.978989 0.000000 219.000000 0.343826 0.056215 0.937349
19.93000031 -2.00000000 0.15000001 179 141 95 0.000000 0.000000 0.000000 0.000000 132.978989 0.000000 219.000000 0.547904 0.066541 0.833890
19.86000061 -1.99000001 0.20999999 179 141 95 0.000000 0.000000 0.000000 0.000000 132.978989 0.000000 219.000000 0.443399 0.407927 0.798118
19.87999916 -1.99000001 0.15000001 179 141 95 0.000000 0.000000 0.000000 0.000000 132.978989 0.000000 219.000000 0.379168 -0.166152 0.910288
20.02000046 -2.11999989 0.15000001 179 141 95 0.000000 0.000000 0.000000 0.000000 132.978989 0.000000 219.000000 0.335036 -0.484294 0.808214
20.01000023 -2.10999990 0.16000000 179 141 95 0.000000 0.000000 0.000000 0.000000 132.978989 0.000000 219.000000 0.501454 -0.004012 0.865175
19.96999931 -2.03999996 0.15000001 179 141 95 0.000000 0.000000 0.000000 0.000000 132.978989 0.000000 219.000000 0.707090 0.006946 0.707090
19.97999954 -2.09999990 0.15000001 179 141 95 0.000000 0.000000 0.000000 0.000000 132.978989 0.000000 219.000000 0.743713 -0.049962 0.666629
19.95000076 -2.08999991 0.15000001 179 141 95 0.000000 0.000000 0.000000 0.000000 132.978989 0.000000 219.000000 0.552006 -0.344802 0.759211
19.97999954 -2.07999992 0.15000001 179 141 95 0.000000 0.000000 0.000000 0.000000 132.978989 0.000000 219.000000 0.734209 -0.192403 0.651091
19.92000008 -2.03999996 0.15000001 179 141 95 0.000000 0.000000 0.000000 0.000000 132.978989 0.000000 219.000000 0.154689 -0.239305 0.958543
19.93000031 -2.04999995 0.15000001 179 141 95 0.000000 0.000000 0.000000 0.000000 132.978989 0.000000 219.000000 0.348577 0.061823 0.935239
19.90999985 -2.08999991 0.15000001 179 141 95 0.000000 0.000000 0.000000 0.000000 132.978989 0.000000 219.000000 0.372130 0.046023 0.927039
19.89999962 -2.05999994 0.15000001 179 141 95 0.000000 0.000000 0.000000 0.000000 132.978989 0.000000 219.000000 0.621683 -0.100932 0.776738
19.87000084 -2.08999991 0.16000000 179 141 95 0.000000 0.000000 0.000000 0.000000 132.978989 0.000000 219.000000 0.243432 -0.286139 0.926750
19.90999985 -2.13000011 0.15000001 179 141 95 0.000000 0.000000 0.000000 0.000000 132.978989 0.000000 219.000000 0.185495 -0.308228 0.933053
19.90999985 -2.13000011 0.16000000 179 141 95 0.000000 0.000000 0.000000 0.000000 132.978989 0.000000 219.000000 0.445474 -0.575612 0.685729
19.92000008 -2.13000011 0.15000001 179 141 95 0.000000 0.000000 0.000000 0.000000 132.978989 0.000000 219.000000 0.492426 0.017538 0.870178
19.89999962 -2.14000010 0.15000001 179 141 95 0.000000 0.000000 0.000000 0.000000 132.978989 0.000000 219.000000 0.700155 -0.350894 0.621816
19.89999962 -2.14000010 0.15000001 179 141 95 0.000000 0.000000 0.000000 0.000000 132.978989 0.000000 219.000000 0.700155 -0.350894 0.621816
19.90999985 -2.16000009 0.15000001 179 141 95 0.000000 0.000000 0.000000 0.000000 132.978989 0.000000 219.000000 0.269787 -0.310620 0.911444
19.88999939 -2.15000010 0.16000000 179 141 95 0.000000 0.000000 0.000000 0.000000 132.978989 0.000000 219.000000 0.235464 -0.430435 0.871368
19.90999985 -2.13000011 0.15000001 179 141 95 0.000000 0.000000 0.000000 0.000000 132.978989 0.000000 219.000000 0.185495 -0.308228 0.933053
19.90999985 -2.13000011 0.16000000 179 141 95 0.000000 0.000000 0.000000 0.000000 132.978989 0.000000 219.000000 0.445474 -0.575612 0.685729
20.19000053 -1.96000004 0.12000000 179 141 95 0.000000 0.000000 0.000000 0.000000 132.978989 0.000000 219.000000 0.781408 -0.211150 0.587212
20.15999985 -1.97000003 0.14000000 179 141 95 0.000000 0.000000 0.000000 0.000000 132.978989 0.000000 219.000000 0.215202 -0.120972 0.969048
20.17000008 -1.97000003 0.13000000 179 141 95 0.000000 0.000000 0.000000 0.000000 132.978989 0.000000 219.000000 0.332809 -0.021512 0.942749
20.15999985 -2.02999997 0.12000000 179 141 95 0.000000 0.000000 0.000000 0.000000 132.978989 0.000000 219.000000 0.454638 -0.193999 0.869292
20.18000031 -2.02999997 0.11000000 179 141 95 0.000000 0.000000 0.000000 0.000000 132.978989 0.000000 219.000000 0.379122 -0.175970 0.908461
20.18000031 -2.01999998 0.13000000 179 141 95 0.000000 0.000000 0.000000 0.000000 132.978989 0.000000 219.000000 0.731080 -0.434027 0.526444
20.20000076 -2.00000000 0.11000000 179 141 95 0.000000 0.000000 0.000000 0.000000 132.978989 0.000000 219.000000 0.420426 -0.529243 0.736983
20.19000053 -2.00000000 0.12000000 179 141 95 0.000000 0.000000 0.000000 0.000000 132.978989 0.000000 219.000000 0.799801 -0.308834 0.514723
20.19000053 -2.02999997 0.11000000 179 141 95 0.000000 0.000000 0.000000 0.000000 132.978989 0.000000 219.000000 0.726670 -0.070789 0.683330
20.19000053 -2.01999998 0.10000000 179 141 95 0.000000 0.000000 0.000000 0.000000 132.978989 0.000000 219.000000 -0.491840 0.701913 -0.515181
20.15999985 -2.00999999 0.09000000 179 141 95 0.000000 0.000000 0.000000 0.000000 132.978989 0.000000 219.000000 0.221970 -0.466589 0.856168
20.19000053 -2.01999998 0.10000000 179 141 95 0.000000 0.000000 0.000000 0.000000 132.978989 0.000000 219.000000 -0.491840 0.701913 -0.515181
20.12999916 -2.00000000 0.12000000 179 141 95 0.000000 0.000000 0.000000 0.000000 132.978989 0.000000 219.000000 0.207300 -0.407249 0.889480
20.14999962 -2.00999999 0.10000000 179 141 95 0.000000 0.000000 0.000000 0.000000 132.978989 0.000000 219.000000 0.369842 -0.312006 0.875140
20.13999939 -2.00999999 0.10000000 179 141 95 0.000000 0.000000 0.000000 0.000000 132.978989 0.000000 219.000000 -0.500040 0.526798 -0.687346
20.09000015 -2.01999998 0.13000000 179 141 95 0.000000 0.000000 0.000000 0.000000 132.978989 0.000000 219.000000 0.647665 -0.560188 0.516450
20.11000061 -2.01999998 0.10000000 179 141 95 0.000000 0.000000 0.000000 0.000000 132.978989 0.000000 219.000000 -0.625190 0.581376 -0.520711
20.04000092 -2.01999998 0.13000000 179 141 95 0.000000 0.000000 0.000000 0.000000 132.978989 0.000000 219.000000 0.371799 0.037832 0.927542
20.03000069 -2.00999999 0.14000000 179 141 95 0.000000 0.000000 0.000000 0.000000 132.978989 0.000000 219.000000 0.226229 0.001172 0.974073
20.04000092 -2.01999998 0.13000000 179 141 95 0.000000 0.000000 0.000000 0.000000 132.978989 0.000000 219.000000 0.371799 0.037832 0.927542
20.05999947 -2.00000000 0.14000000 179 141 95 0.000000 0.000000 0.000000 0.000000 132.978989 0.000000 219.000000 0.701287 0.064801 0.709927
20.03000069 -2.01999998 0.14000000 179 141 95 0.000000 0.000000 0.000000 0.000000 132.978989 0.000000 219.000000 0.414995 0.137387 0.899391
20.17000008 -2.04999995 0.11000000 179 141 95 0.000000 0.000000 0.000000 0.000000 132.978989 0.000000 219.000000 0.380269 -0.260969 0.887294
20.20000076 -2.05999994 0.08000000 179 141 95 0.000000 0.000000 0.000000 0.000000 132.978989 0.000000 219.000000 0.763281 -0.406974 0.501771
20.15999985 -2.04999995 0.10000000 179 141 95 0.000000 0.000000 0.000000 0.000000 132.978989 0.000000 219.000000 -0.777286 0.441603 -0.448121
20.18000031 -2.08999991 0.11000000 179 141 95 0.000000 0.000000 0.000000 0.000000 132.978989 0.000000 219.000000 0.631920 -0.311919 0.709495
20.19000053 -2.11999989 0.08000000 179 141 95 0.000000 0.000000 0.000000 0.000000 132.978989 0.000000 219.000000 0.466802 -0.443872 0.764901
20.14999962 -2.05999994 0.13000000 179 141 95 0.000000 0.000000 0.000000 0.000000 132.978989 0.000000 219.000000 -0.665209 0.648784 -0.369561
20.13999939 -2.11999989 0.11000000 179 141 95 0.000000 0.000000 0.000000 0.000000 132.978989 0.000000 219.000000 0.862907 -0.276436 0.423054
20.12000084 -2.07999992 0.09000000 179 141 95 0.000000 0.000000 0.000000 0.000000 132.978989 0.000000 219.000000 0.757222 -0.477986 0.445135
20.14999962 -2.11999989 0.10000000 179 141 95 0.000000 0.000000 0.000000 0.000000 132.978989 0.000000 219.000000 0.619788 -0.358136 0.698284
20.14999962 -2.11999989 0.10000000 179 141 95 0.000000 0.000000 0.000000 0.000000 132.978989 0.000000 219.000000 0.619788 -0.358136 0.698284
20.15999985 -2.09999990 0.03000000 179 141 95 0.000000 0.000000 0.000000 0.000000 132.978989 0.000000 219.000000 -0.651685 0.470754 -0.594725
20.20000076 -2.15000010 0.11000000 179 141 95 0.000000 0.000000 0.000000 0.000000 132.978989 0.000000 219.000000 0.648726 -0.312229 0.694023
20.19000053 -2.16000009 0.10000000 179 141 95 0.000000 0.000000 0.000000 0.000000 132.978989 0.000000 219.000000 -0.518248 0.626286 -0.582396
20.12000084 -2.14000010 0.11000000 179 141 95 0.000000 0.000000 0.000000 0.000000 132.978989 0.000000 219.000000 0.644166 -0.362241 0.673670
20.12999916 -2.15000010 0.07000000 179 141 95 0.000000 0.000000 0.000000 0.000000 132.978989 0.000000 219.000000 -0.564238 0.819523 -0.100083
20.12999916 -2.14000010 0.08000000 179 141 95 0.000000 0.000000 0.000000 0.000000 132.978989 0.000000 219.000000 0.585759 -0.416503 0.695278
20.20000076 -2.14000010 0.06000000 179 141 95 0.000000 0.000000 0.000000 0.000000 132.978989 0.000000 219.000000 0.580326 -0.389624 0.715133
20.20000076 -2.14000010 0.06000000 179 141 95 0.000000 0.000000 0.000000 0.000000 132.978989 0.000000 219.000000 0.580326 -0.389624 0.715133
20.14999962 -2.13000011 0.03000000 179 141 95 0.000000 0.000000 0.000000 0.000000 132.978989 0.000000 219.000000 0.795399 -0.312762 0.519153
20.13999939 -2.20000005 0.06000000 179 141 95 0.000000 0.000000 0.000000 0.000000 132.978989 0.000000 219.000000 -0.365394 0.716040 -0.594789
20.07999992 -2.04999995 0.10000000 179 141 95 0.000000 0.000000 0.000000 0.000000 132.978989 0.000000 219.000000 0.494559 -0.504550 0.707702
20.09000015 -2.05999994 0.09000000 179 141 95 0.000000 0.000000 0.000000 0.000000 132.978989 0.000000 219.000000 -0.314019 0.745593 -0.587778
20.04999924 -2.03999996 0.13000000 179 141 95 0.000000 0.000000 0.000000 0.000000 132.978989 0.000000 219.000000 0.698021 -0.172596 0.694966
20.06999969 -2.05999994 0.11000000 179 141 95 0.000000 0.000000 0.000000 0.000000 132.978989 0.000000 219.000000 0.869349 -0.304043 0.389603
20.06999969 -2.05999994 0.11000000 179 141 95 0.000000 0.000000 0.000000 0.000000 132.978989 0.000000 219.000000 0.869349 -0.304043 0.389603
20.04999924 -2.03999996 0.13000000 179 141 95 0.000000 0.000000 0.000000 0.000000 132.978989 0.000000 219.000000 0.698021 -0.172596 0.694966
20.06999969 -2.05999994 0.11000000 179 141 95 0.000000 0.000000 0.000000 0.000000 132.978989 0.000000 219.000000 0.869349 -0.304043 0.389603
20.04999924 -2.10999990 0.11000000 179 141 95 0.000000 0.000000 0.000000 0.000000 132.978989 0.000000 219.000000 -0.385358 0.726441 -0.569018
20.05999947 -2.09999990 0.11000000 179 141 95 0.000000 0.000000 0.000000 0.000000 132.978989 0.000000 219.000000 0.338728 -0.314641 0.886715
20.05999947 -2.08999991 0.11000000 179 141 95 0.000000 0.000000 0.000000 0.000000 132.978989 0.000000 219.000000 0.555944 -0.545805 0.626916
20.05999947 -2.07999992 0.11000000 179 141 95 0.000000 0.000000 0.000000 0.000000 132.978989 0.000000 219.000000 0.575630 -0.609391 0.545245
20.05999947 -2.08999991 0.11000000 179 141 95 0.000000 0.000000 0.000000 0.000000 132.978989 0.000000 219.000000 0.555944 -0.545805 0.626916
20.04999924 -2.09999990 0.11000000 179 141 95 0.000000 0.000000 0.000000 0.000000 132.978989 0.000000 219.000000 0.732125 -0.336031 0.592518
20.05999947 -2.11999989 0.07000000 179 141 95 0.000000 0.000000 0.000000 0.000000 132.978989 0.000000 219.000000 0.329892 -0.706912 0.625657
20.03000069 -2.06999993 0.06000000 179 141 95 0.000000 0.000000 0.000000 0.000000 132.978989 0.000000 219.000000 -0.507076 0.684468 -0.523811
20.04000092 -2.07999992 0.05000000 179 141 95 0.000000 0.000000 0.000000 0.000000 132.978989 0.000000 219.000000 0.684602 -0.169244 0.708997
20.04000092 -2.07999992 0.05000000 179 141 95 0.000000 0.000000 0.000000 0.000000 132.978989 0.000000 219.000000 0.684602 -0.169244 0.708997
20.10000038 -2.13000011 0.07000000 179 141 95 0.000000 0.000000 0.000000 0.000000 132.978989 0.000000 219.000000 -0.656870 0.666698 -0.352187
20.11000061 -2.14000010 0.09000000 179 141 95 0.000000 0.000000 0.000000 0.000000 132.978989 0.000000 219.000000 0.723671 -0.254948 0.641328
20.10000038 -2.15000010 0.09000000 179 141 95 0.000000 0.000000 0.000000 0.000000 132.978989 0.000000 219.000000 0.321023 -0.598491 0.733998
20.11000061 -2.14000010 0.09000000 179 141 95 0.000000 0.000000 0.000000 0.000000 132.978989 0.000000 219.000000 0.723671 -0.254948 0.641328
20.04000092 -2.13000011 0.08000000 179 141 95 0.000000 0.000000 0.000000 0.000000 132.978989 0.000000 219.000000 0.405896 -0.490661 0.771039
20.03000069 -2.13000011 0.09000000 179 141 95 0.000000 0.000000 0.000000 0.000000 132.978989 0.000000 219.000000 0.532339 -0.472263 0.702554
20.05999947 -2.20000005 0.12000000 179 141 95 0.000000 0.000000 0.000000 0.000000 132.978989 0.000000 219.000000 0.823433 -0.336643 0.456760
20.04999924 -2.18000007 0.11000000 179 141 95 0.000000 0.000000 0.000000 0.000000 132.978989 0.000000 219.000000 -0.667846 0.628073 -0.399382
20.06999969 -2.19000006 0.11000000 179 141 95 0.000000 0.000000 0.000000 0.000000 132.978989 0.000000 219.000000 0.716256 -0.428431 0.550839
20.06999969 -2.17000008 0.11000000 179 141 95 0.000000 0.000000 0.000000 0.000000 132.978989 0.000000 219.000000 0.867367 -0.410056 0.282009
20.03000069 -2.17000008 0.10000000 179 141 95 0.000000 0.000000 0.000000 0.000000 132.978989 0.000000 219.000000 0.736819 -0.388922 0.553025
20.02000046 -2.00000000 0.14000000 179 141 95 0.000000 0.000000 0.000000 0.000000 132.978989 0.000000 219.000000 0.127937 -0.001093 0.991782
19.96999931 -2.01999998 0.12000000 179 141 95 0.000000 0.000000 0.000000 0.000000 132.978989 0.000000 219.000000 0.331289 -0.316298 0.888934
19.94000053 -2.00999999 0.13000000 179 141 95 0.000000 0.000000 0.000000 0.000000 132.978989 0.000000 219.000000 0.221721 -0.091444 0.970813
19.94000053 -2.01999998 0.14000000 179 141 95 0.000000 0.000000 0.000000 0.000000 132.978989 0.000000 219.000000 0.340119 -0.112470 0.933633
19.88999939 -2.00999999 0.14000000 179 141 95 0.000000 0.000000 0.000000 0.000000 132.978989 0.000000 219.000000 -0.019613 -0.176515 0.984102
19.93000031 -1.99000001 0.13000000 179 141 95 0.000000 0.000000 0.000000 0.000000 132.978989 0.000000 219.000000 -0.120949 -0.003269 0.992653
19.92000008 -1.99000001 0.13000000 179 141 95 0.000000 0.000000 0.000000 0.000000 132.978989 0.000000 219.000000 0.182001 0.008013 0.983266
20.02000046 -2.05999994 0.13000000 179 141 95 0.000000 0.000000 0.000000 0.000000 132.978989 0.000000 219.000000 0.179538 -0.479263 0.859112
20.01000023 -2.06999993 0.13000000 179 141 95 0.000000 0.000000 0.000000 0.000000 132.978989 0.000000 219.000000 0.621023 -0.421230 0.660981
20.01000023 -2.06999993 0.08000000 179 141 95 0.000000 0.000000 0.000000 0.000000 132.978989 0.000000 219.000000 0.293873 -0.548034 0.783133
19.95000076 -2.06999993 0.12000000 179 141 95 0.000000 0.000000 0.000000 0.000000 132.978989 0.000000 219.000000 0.723062 -0.162879 0.671306
19.95000076 -2.07999992 0.12000000 179 141 95 0.000000 0.000000 0.000000 0.000000 132.978989 0.000000 219.000000 0.515092 -0.294563 0.804930
19.97999954 -2.08999991 0.14000000 179 141 95 0.000000 0.000000 0.000000 0.000000 132.978989 0.000000 219.000000 0.721765 -0.086029 0.686771
19.95000076 -2.07999992 0.11000000 179 141 95 0.000000 0.000000 0.000000 0.000000 132.978989 0.000000 219.000000 -0.676705 0.528938 -0.512147
