//X Y Z R G B PointSourceId ScanDirectionFlag NumberOfReturns ReturnNumber GpsTime Intensity Classification Nx Ny Nz
1.69000006 16.01000023 -0.54000002 49 215 123 0.000000 0.000000 0.000000 0.000000 0.000000 0.000000 38.000000 -0.372438 0.896501 0.239950
1.64999998 16.07999992 -0.60000002 49 215 123 0.000000 0.000000 0.000000 0.000000 0.000000 0.000000 38.000000 0.753421 -0.646427 -0.120369
1.67999995 16.01000023 -0.56999999 49 215 123 0.000000 0.000000 0.000000 0.000000 0.000000 0.000000 38.000000 -0.712291 0.691472 0.120450
1.65999997 16.03000069 -0.55000001 49 215 123 0.000000 0.000000 0.000000 0.000000 0.000000 0.000000 38.000000 -0.680704 0.714207 0.162943
1.67999995 16.01000023 -0.55000001 49 215 123 0.000000 0.000000 0.000000 0.000000 0.000000 0.000000 38.000000 -0.614703 0.774014 0.151797
1.65999997 16.03000069 -0.56000000 49 215 123 0.000000 0.000000 0.000000 0.000000 0.000000 0.000000 38.000000 -0.425913 0.862513 0.273256
1.66999996 16.01000023 -0.58999997 49 215 123 0.000000 0.000000 0.000000 0.000000 0.000000 0.000000 38.000000 -0.508800 0.833824 0.214151
1.65999997 16.01000023 -0.62000000 49 215 123 0.000000 0.000000 0.000000 0.000000 0.000000 0.000000 38.000000 0.652763 -0.747927 -0.120441
1.64999998 16.01000023 -0.62000000 49 215 123 0.000000 0.000000 0.000000 0.000000 0.000000 0.000000 38.000000 0.717851 -0.671736 -0.182921
1.66999996 16.01000023 -0.58999997 49 215 123 0.000000 0.000000 0.000000 0.000000 0.000000 0.000000 38.000000 -0.508800 0.833824 0.214151
1.64999998 16.02000046 -0.66000003 49 215 123 0.000000 0.000000 0.000000 0.000000 0.000000 0.000000 38.000000 -0.485314 0.873015 -0.048119
1.53999996 16.37000084 -0.20999999 49 215 123 0.000000 0.000000 0.000000 0.000000 0.000000 0.000000 38.000000 0.720800 -0.693130 -0.004150
1.52999997 16.36000061 -0.23000000 49 215 123 0.000000 0.000000 0.000000 0.000000 0.000000 0.000000 38.000000 0.854343 -0.519624 0.009448
1.51999998 16.36000061 -0.20000000 49 215 123 0.000000 0.000000 0.000000 0.000000 0.000000 0.000000 38.000000 -0.549448 0.817398 -0.173114
1.53999996 16.37000084 -0.20999999 49 215 123 0.000000 0.000000 0.000000 0.000000 0.000000 0.000000 38.000000 0.720800 -0.693130 -0.004150
1.52999997 16.37000084 -0.23000000 49 215 123 0.000000 0.000000 0.000000 0.000000 0.000000 0.000000 38.000000 0.869886 -0.450556 -0.200743
1.52999997 16.37000084 -0.20000000 49 215 123 0.000000 0.000000 0.000000 0.000000 0.000000 0.000000 38.000000 0.752971 -0.657622 -0.023837
1.51999998 16.36000061 -0.25000000 49 215 123 0.000000 0.000000 0.000000 0.000000 0.000000 0.000000 38.000000 0.715443 -0.542807 0.439889
1.51999998 16.35000038 -0.25999999 49 215 123 0.000000 0.000000 0.000000 0.000000 0.000000 0.000000 38.000000 0.790035 -0.612935 0.012452
1.49000001 16.35000038 -0.23000000 49 215 123 0.000000 0.000000 0.000000 0.000000 0.000000 0.000000 38.000000 -0.430646 0.891337 -0.141641
1.49000001 16.35000038 -0.20999999 49 215 123 0.000000 0.000000 0.000000 0.000000 0.000000 0.000000 38.000000 0.843732 -0.529653 0.087086
1.49000001 16.35000038 -0.22000000 49 215 123 0.000000 0.000000 0.000000 0.000000 0.000000 0.000000 38.000000 -0.746336 0.620637 -0.240399
1.51999998 16.35000038 -0.28999999 49 215 123 0.000000 0.000000 0.000000 0.000000 0.000000 0.000000 38.000000 0.638354 -0.611546 0.467456
1.51999998 16.35000038 -0.37000000 49 215 123 0.000000 0.000000 0.000000 0.000000 0.000000 0.000000 38.000000 0.835167 -0.426234 0.347593
1.52999997 16.36000061 -0.37000000 49 215 123 0.000000 0.000000 0.000000 0.000000 0.000000 0.000000 38.000000 0.919200 -0.316916 0.233743
1.42999995 16.35000038 -0.27000001 49 215 123 0.000000 0.000000 0.000000 0.000000 0.000000 0.000000 38.000000 -0.265627 0.880922 -0.391688
1.42999995 16.35000038 -0.25000000 49 215 123 0.000000 0.000000 0.000000 0.000000 0.000000 0.000000 38.000000 -0.293079 0.955908 0.018549
1.41999996 16.37000084 -0.23000000 49 215 123 0.000000 0.000000 0.000000 0.000000 0.000000 0.000000 38.000000 -0.544067 0.810737 0.216094
1.40999997 16.38999939 -0.20000000 49 215 123 0.000000 0.000000 0.000000 0.000000 0.000000 0.000000 38.000000 -0.395134 0.912802 0.103258
1.40999997 16.37999916 -0.20000000 49 215 123 0.000000 0.000000 0.000000 0.000000 0.000000 0.000000 38.000000 -0.275365 0.943914 -0.182207
1.39999998 16.35000038 -0.20000000 49 215 123 0.000000 0.000000 0.000000 0.000000 0.000000 0.000000 38.000000 -0.101624 0.989376 -0.103960
1.38999999 16.35000038 -0.20000000 49 215 123 0.000000 0.000000 0.000000 0.000000 0.000000 0.000000 38.000000 -0.479767 0.876628 -0.036696
1.38999999 16.37000084 -0.22000000 49 215 123 0.000000 0.000000 0.000000 0.000000 0.000000 0.000000 38.000000 -0.015070 0.981870 -0.188955
1.39999998 16.35000038 -0.25999999 49 215 123 0.000000 0.000000 0.000000 0.000000 0.000000 0.000000 38.000000 0.041339 0.993250 0.108375
1.40999997 16.35000038 -0.25000000 49 215 123 0.000000 0.000000 0.000000 0.000000 0.000000 0.000000 38.000000 -0.124900 0.972708 0.195551
1.38999999 16.36000061 -0.28000000 49 215 123 0.000000 0.000000 0.000000 0.000000 0.000000 0.000000 38.000000 -0.192512 0.937631 -0.289461
1.44000006 16.35000038 -0.34000000 49 215 123 0.000000 0.000000 0.000000 0.000000 0.000000 0.000000 38.000000 -0.675678 0.706744 0.209693
1.38999999 16.35000038 -0.30000001 49 215 123 0.000000 0.000000 0.000000 0.000000 0.000000 0.000000 38.000000 0.060691 0.997679 0.030878
1.38999999 16.35000038 -0.30000001 49 215 123 0.000000 0.000000 0.000000 0.000000 0.000000 0.000000 38.000000 0.060691 0.997679 0.030878
1.34000003 16.48999977 -0.36000001 49 215 123 0.000000 0.000000 0.000000 0.000000 0.000000 0.000000 38.000000 -0.227115 0.972831 -0.044937
1.32000005 16.45000076 -0.30000001 49 215 123 0.000000 0.000000 0.000000 0.000000 0.000000 0.000000 38.000000 0.583045 0.812439 0.001365
1.30999994 16.45999908 -0.31000000 49 215 123 0.000000 0.000000 0.000000 0.000000 0.000000 0.000000 38.000000 0.472079 0.766108 -0.436142
1.38000000 16.37000084 -0.22000000 49 215 123 0.000000 0.000000 0.000000 0.000000 0.000000 0.000000 38.000000 -0.511002 0.847765 -0.142026
1.37000000 16.35000038 -0.20000000 49 215 123 0.000000 0.000000 0.000000 0.000000 0.000000 0.000000 38.000000 0.136781 0.987860 0.073651
1.36000001 16.35000038 -0.20000000 49 215 123 0.000000 0.000000 0.000000 0.000000 0.000000 0.000000 38.000000 0.185877 0.982491 0.012700
1.29999995 16.42000008 -0.20000000 49 215 123 0.000000 0.000000 0.000000 0.000000 0.000000 0.000000 38.000000 0.343746 0.794612 -0.500430
1.30999994 16.39999962 -0.23000000 49 215 123 0.000000 0.000000 0.000000 0.000000 0.000000 0.000000 38.000000 0.463349 0.866004 0.188004
1.29999995 16.39999962 -0.27000001 49 215 123 0.000000 0.000000 0.000000 0.000000 0.000000 0.000000 38.000000 0.579101 0.810163 0.090981
1.29999995 16.38999939 -0.20999999 49 215 123 0.000000 0.000000 0.000000 0.000000 0.000000 0.000000 38.000000 0.595491 0.774912 -0.211902
1.29999995 16.38999939 -0.20999999 49 215 123 0.000000 0.000000 0.000000 0.000000 0.000000 0.000000 38.000000 0.595491 0.774912 -0.211902
1.32000005 16.37000084 -0.25999999 49 215 123 0.000000 0.000000 0.000000 0.000000 0.000000 0.000000 38.000000 0.391707 0.915803 0.088714
1.30999994 16.37000084 -0.25000000 49 215 123 0.000000 0.000000 0.000000 0.000000 0.000000 0.000000 38.000000 -0.025361 0.969759 0.242742
1.37000000 16.35000038 -0.28999999 49 215 123 0.000000 0.000000 0.000000 0.000000 0.000000 0.000000 38.000000 -0.145555 0.880536 -0.451077
1.38000000 16.35000038 -0.31000000 49 215 123 0.000000 0.000000 0.000000 0.000000 0.000000 0.000000 38.000000 -0.097748 0.988078 -0.118946
1.29999995 16.42000008 -0.30000001 49 215 123 0.000000 0.000000 0.000000 0.000000 0.000000 0.000000 38.000000 0.104404 0.900661 -0.421793
1.32000005 16.39999962 -0.28999999 49 215 123 0.000000 0.000000 0.000000 0.000000 0.000000 0.000000 38.000000 0.173302 0.965542 0.194151
1.30999994 16.42000008 -0.33000001 49 215 123 0.000000 0.000000 0.000000 0.000000 0.000000 0.000000 38.000000 0.429371 0.902610 0.030574
1.29999995 16.40999985 -0.36000001 49 215 123 0.000000 0.000000 0.000000 0.000000 0.000000 0.000000 38.000000 0.247944 0.833153 -0.494348
1.29999995 16.42000008 -0.36000001 49 215 123 0.000000 0.000000 0.000000 0.000000 0.000000 0.000000 38.000000 0.049394 0.995560 0.080128
1.30999994 16.40999985 -0.34000000 49 215 123 0.000000 0.000000 0.000000 0.000000 0.000000 0.000000 38.000000 0.612494 0.790269 -0.018055
1.32000005 16.45000076 -0.38999999 49 215 123 0.000000 0.000000 0.000000 0.000000 0.000000 0.000000 38.000000 0.327542 0.929663 0.168650
1.32000005 16.45000076 -0.40000001 49 215 123 0.000000 0.000000 0.000000 0.000000 0.000000 0.000000 38.000000 0.131303 0.990945 -0.028056
1.30999994 16.45000076 -0.38999999 49 215 123 0.000000 0.000000 0.000000 0.000000 0.000000 0.000000 38.000000 0.371319 0.920706 0.120092
1.30999994 16.45000076 -0.41000000 49 215 123 0.000000 0.000000 0.000000 0.000000 0.000000 0.000000 38.000000 0.590642 0.803331 -0.076166
1.29999995 16.45000076 -0.43000001 49 215 123 0.000000 0.000000 0.000000 0.000000 0.000000 0.000000 38.000000 0.665847 0.729550 -0.156224
1.32000005 16.44000053 -0.43000001 49 215 123 0.000000 0.000000 0.000000 0.000000 0.000000 0.000000 38.000000 0.246567 0.955614 0.161268
1.36000001 16.46999931 -0.46000001 49 215 123 0.000000 0.000000 0.000000 0.000000 0.000000 0.000000 38.000000 -0.664974 0.714808 -0.216467
1.35000002 16.44000053 -0.47999999 49 215 123 0.000000 0.000000 0.000000 0.000000 0.000000 0.000000 38.000000 -0.485835 0.873968 0.012045
1.35000002 16.46999931 -0.52999997 49 215 123 0.000000 0.000000 0.000000 0.000000 0.000000 0.000000 38.000000 -0.175433 0.911397 -0.372261
1.35000002 16.46999931 -0.52999997 49 215 123 0.000000 0.000000 0.000000 0.000000 0.000000 0.000000 38.000000 -0.175433 0.911397 -0.372261
1.29999995 16.44000053 -0.47999999 49 215 123 0.000000 0.000000 0.000000 0.000000 0.000000 0.000000 38.000000 0.203413 0.939572 -0.275368
1.33000004 16.45999908 -0.51999998 49 215 123 0.000000 0.000000 0.000000 0.000000 0.000000 0.000000 38.000000 -0.232287 0.971715 0.042566
1.33000004 16.45999908 -0.51999998 49 215 123 0.000000 0.000000 0.000000 0.000000 0.000000 0.000000 38.000000 -0.232287 0.971715 0.042566
1.33000004 16.43000031 -0.38999999 49 215 123 0.000000 0.000000 0.000000 0.000000 0.000000 0.000000 38.000000 -0.095390 0.965343 -0.242926
1.33000004 16.43000031 -0.40000001 49 215 123 0.000000 0.000000 0.000000 0.000000 0.000000 0.000000 38.000000 0.467848 0.882188 -0.053508
1.32000005 16.42000008 -0.43000001 49 215 123 0.000000 0.000000 0.000000 0.000000 0.000000 0.000000 38.000000 0.232727 0.923770 -0.304116
1.33000004 16.39999962 -0.52999997 49 215 123 0.000000 0.000000 0.000000 0.000000 0.000000 0.000000 38.000000 -0.110248 0.969424 -0.219229
1.37000000 16.45000076 -0.62000000 49 215 123 0.000000 0.000000 0.000000 0.000000 0.000000 0.000000 38.000000 -0.530202 0.810074 0.250330
1.33000004 16.47999954 -0.62000000 49 215 123 0.000000 0.000000 0.000000 0.000000 0.000000 0.000000 38.000000 0.487490 0.870218 0.071238
1.37000000 16.45999908 -0.63000000 49 215 123 0.000000 0.000000 0.000000 0.000000 0.000000 0.000000 38.000000 0.707465 -0.619642 -0.339908
1.36000001 16.45999908 -0.68000001 49 215 123 0.000000 0.000000 0.000000 0.000000 0.000000 0.000000 38.000000 -0.586127 0.749921 0.306713
1.33000004 16.47999954 -0.63000000 49 215 123 0.000000 0.000000 0.000000 0.000000 0.000000 0.000000 38.000000 0.434170 0.835424 -0.336991
1.32000005 16.42000008 -0.69000000 49 215 123 0.000000 0.000000 0.000000 0.000000 0.000000 0.000000 38.000000 0.258722 0.945909 -0.195753
1.32000005 16.45000076 -0.75000000 49 215 123 0.000000 0.000000 0.000000 0.000000 0.000000 0.000000 38.000000 0.689700 0.689700 -0.220516
1.29999995 16.44000053 -0.80000001 49 215 123 0.000000 0.000000 0.000000 0.000000 0.000000 0.000000 38.000000 0.493399 0.847326 -0.196460
1.30999994 16.43000031 -0.79000002 49 215 123 0.000000 0.000000 0.000000 0.000000 0.000000 0.000000 38.000000 0.101586 0.927817 -0.358937
1.57000005 16.30999947 -0.23000000 49 215 123 0.000000 0.000000 0.000000 0.000000 0.000000 0.000000 38.000000 -0.692573 0.713247 0.107799
1.55999994 16.30999947 -0.28000000 49 215 123 0.000000 0.000000 0.000000 0.000000 0.000000 0.000000 38.000000 -0.626866 0.762813 0.158605
1.57000005 16.29999924 -0.25999999 49 215 123 0.000000 0.000000 0.000000 0.000000 0.000000 0.000000 38.000000 0.750608 -0.559309 0.351797
1.53999996 16.30999947 -0.22000000 49 215 123 0.000000 0.000000 0.000000 0.000000 0.000000 0.000000 38.000000 -0.456755 0.887449 0.061724
1.51999998 16.31999969 -0.27000001 49 215 123 0.000000 0.000000 0.000000 0.000000 0.000000 0.000000 38.000000 -0.508532 0.847553 0.151822
1.51999998 16.30999947 -0.25999999 49 215 123 0.000000 0.000000 0.000000 0.000000 0.000000 0.000000 38.000000 -0.667952 0.730995 0.139594
1.53999996 16.29999924 -0.20000000 49 215 123 0.000000 0.000000 0.000000 0.000000 0.000000 0.000000 38.000000 -0.422179 0.894448 -0.147405
1.54999995 16.29999924 -0.20000000 49 215 123 0.000000 0.000000 0.000000 0.000000 0.000000 0.000000 38.000000 0.876819 -0.471484 0.094297
1.54999995 16.29999924 -0.25000000 49 215 123 0.000000 0.000000 0.000000 0.000000 0.000000 0.000000 38.000000 0.729586 -0.624219 0.279382
1.50000000 16.30999947 -0.23000000 49 215 123 0.000000 0.000000 0.000000 0.000000 0.000000 0.000000 38.000000 -0.328631 0.941021 0.080508
1.49000001 16.31999969 -0.25000000 49 215 123 0.000000 0.000000 0.000000 0.000000 0.000000 0.000000 38.000000 0.752991 -0.656924 -0.038144
1.50000000 16.34000015 -0.25999999 49 215 123 0.000000 0.000000 0.000000 0.000000 0.000000 0.000000 38.000000 -0.567592 0.765849 -0.302183
1.49000001 16.31999969 -0.25000000 49 215 123 0.000000 0.000000 0.000000 0.000000 0.000000 0.000000 38.000000 0.752991 -0.656924 -0.038144
1.50000000 16.28000069 -0.22000000 49 215 123 0.000000 0.000000 0.000000 0.000000 0.000000 0.000000 38.000000 -0.532933 0.800185 -0.275113
1.48000002 16.28000069 -0.20999999 49 215 123 0.000000 0.000000 0.000000 0.000000 0.000000 0.000000 38.000000 -0.696904 0.714219 -0.064929
1.49000001 16.28000069 -0.20999999 49 215 123 0.000000 0.000000 0.000000 0.000000 0.000000 0.000000 38.000000 -0.518770 0.829119 0.208421
1.54999995 16.29999924 -0.31000000 49 215 123 0.000000 0.000000 0.000000 0.000000 0.000000 0.000000 38.000000 0.865401 -0.460256 -0.198104
1.52999997 16.29000092 -0.30000001 49 215 123 0.000000 0.000000 0.000000 0.000000 0.000000 0.000000 38.000000 0.787475 -0.590227 -0.177523
1.50999999 16.34000015 -0.28999999 49 215 123 0.000000 0.000000 0.000000 0.000000 0.000000 0.000000 38.000000 0.742088 -0.667159 -0.064843
1.50999999 16.30999947 -0.31000000 49 215 123 0.000000 0.000000 0.000000 0.000000 0.000000 0.000000 38.000000 -0.638144 0.761941 -0.110533
1.50000000 16.30999947 -0.30000001 49 215 123 0.000000 0.000000 0.000000 0.000000 0.000000 0.000000 38.000000 0.833798 -0.541897 -0.105489
1.50999999 16.30999947 -0.30000001 49 215 123 0.000000 0.000000 0.000000 0.000000 0.000000 0.000000 38.000000 -0.345520 0.856827 -0.382706
1.48000002 16.31999969 -0.30000001 49 215 123 0.000000 0.000000 0.000000 0.000000 0.000000 0.000000 38.000000 -0.409322 0.868858 0.278461
1.50999999 16.30999947 -0.36000001 49 215 123 0.000000 0.000000 0.000000 0.000000 0.000000 0.000000 38.000000 -0.476394 0.866832 0.147143
1.50000000 16.29999924 -0.31000000 49 215 123 0.000000 0.000000 0.000000 0.000000 0.000000 0.000000 38.000000 -0.652721 0.757597 -0.001380
1.52999997 16.28000069 -0.38000000 49 215 123 0.000000 0.000000 0.000000 0.000000 0.000000 0.000000 38.000000 0.712794 -0.666002 0.219921
1.52999997 16.28000069 -0.44000000 49 215 123 0.000000 0.000000 0.000000 0.000000 0.000000 0.000000 38.000000 -0.633811 0.720022 0.282581
1.48000002 16.30999947 -0.38999999 49 215 123 0.000000 0.000000 0.000000 0.000000 0.000000 0.000000 38.000000 0.796190 -0.573074 0.194081
1.49000001 16.34000015 -0.38999999 49 215 123 0.000000 0.000000 0.000000 0.000000 0.000000 0.000000 38.000000 -0.549567 0.834733 0.034607
1.48000002 16.32999992 -0.38000000 49 215 123 0.000000 0.000000 0.000000 0.000000 0.000000 0.000000 38.000000 -0.322442 0.915272 -0.241470
1.48000002 16.31999969 -0.38000000 49 215 123 0.000000 0.000000 0.000000 0.000000 0.000000 0.000000 38.000000 -0.360569 0.928902 0.084446
1.50999999 16.29999924 -0.44999999 49 215 123 0.000000 0.000000 0.000000 0.000000 0.000000 0.000000 38.000000 -0.618211 0.783829 0.058537
1.50999999 16.28000069 -0.41999999 49 215 123 0.000000 0.000000 0.000000 0.000000 0.000000 0.000000 38.000000 -0.477639 0.866720 0.143727
1.49000001 16.30999947 -0.49000001 49 215 123 0.000000 0.000000 0.000000 0.000000 0.000000 0.000000 38.000000 -0.580723 0.751240 -0.313687
1.49000001 16.30999947 -0.50999999 49 215 123 0.000000 0.000000 0.000000 0.000000 0.000000 0.000000 38.000000 -0.404202 0.909109 -0.100706
1.50999999 16.29999924 -0.46000001 49 215 123 0.000000 0.000000 0.000000 0.000000 0.000000 0.000000 38.000000 -0.686567 0.707879 0.165933
1.50000000 16.27000046 -0.47999999 49 215 123 0.000000 0.000000 0.000000 0.000000 0.000000 0.000000 38.000000 -0.324821 0.920087 0.218932
1.49000001 16.26000023 -0.44000000 49 215 123 0.000000 0.000000 0.000000 0.000000 0.000000 0.000000 38.000000 -0.489226 0.871981 -0.017520
1.50000000 16.26000023 -0.47000000 49 215 123 0.000000 0.000000 0.000000 0.000000 0.000000 0.000000 38.000000 -0.375306 0.925754 0.046090
1.63999999 16.01000023 -0.30000001 49 215 123 0.000000 0.000000 0.000000 0.000000 0.000000 0.000000 38.000000 -0.570215 0.709050 -0.414852
1.63000000 16.01000023 -0.33000001 49 215 123 0.000000 0.000000 0.000000 0.000000 0.000000 0.000000 38.000000 -0.678881 0.718192 0.152710
1.57000005 16.10000038 -0.43000001 49 215 123 0.000000 0.000000 0.000000 0.000000 0.000000 0.000000 38.000000 -0.675194 0.697228 0.240803
1.63000000 16.06999969 -0.38999999 49 215 123 0.000000 0.000000 0.000000 0.000000 0.000000 0.000000 38.000000 -0.233697 0.947086 -0.220030
1.63999999 16.06999969 -0.38000000 49 215 123 0.000000 0.000000 0.000000 0.000000 0.000000 0.000000 38.000000 -0.193816 0.961167 -0.196453
1.63000000 16.04999924 -0.41000000 49 215 123 0.000000 0.000000 0.000000 0.000000 0.000000 0.000000 38.000000 0.733401 -0.628855 0.258195
1.62000000 16.07999992 -0.44999999 49 215 123 0.000000 0.000000 0.000000 0.000000 0.000000 0.000000 38.000000 -0.640981 0.763073 0.082848
1.63999999 16.05999947 -0.44999999 49 215 123 0.000000 0.000000 0.000000 0.000000 0.000000 0.000000 38.000000 -0.692551 0.720761 0.029620
1.62000000 16.01000023 -0.41999999 49 215 123 0.000000 0.000000 0.000000 0.000000 0.000000 0.000000 38.000000 -0.362626 0.878497 -0.311039
1.63000000 16.05999947 -0.47999999 49 215 123 0.000000 0.000000 0.000000 0.000000 0.000000 0.000000 38.000000 -0.568932 0.755890 0.323953
1.63000000 16.05999947 -0.49000001 49 215 123 0.000000 0.000000 0.000000 0.000000 0.000000 0.000000 38.000000 -0.435329 0.894454 0.102183
1.63999999 16.04000092 -0.46000001 49 215 123 0.000000 0.000000 0.000000 0.000000 0.000000 0.000000 38.000000 -0.348227 0.877412 -0.329980
1.63000000 16.03000069 -0.47999999 49 215 123 0.000000 0.000000 0.000000 0.000000 0.000000 0.000000 38.000000 -0.137685 0.987333 -0.078845
1.63000000 16.01000023 -0.52999997 49 215 123 0.000000 0.000000 0.000000 0.000000 0.000000 0.000000 38.000000 -0.630609 0.695788 -0.343820
1.58000004 16.06999969 -0.47000000 49 215 123 0.000000 0.000000 0.000000 0.000000 0.000000 0.000000 38.000000 -0.339353 0.839781 -0.423800
1.48000002 16.13999939 -0.50999999 49 215 123 0.000000 0.000000 0.000000 0.000000 0.000000 0.000000 38.000000 -0.229816 0.912037 -0.339665
1.44000006 16.32999992 -0.23000000 49 215 123 0.000000 0.000000 0.000000 0.000000 0.000000 0.000000 38.000000 -0.075587 0.972719 -0.219326
1.44000006 16.32999992 -0.22000000 49 215 123 0.000000 0.000000 0.000000 0.000000 0.000000 0.000000 38.000000 -0.268202 0.946193 0.181070
1.45000005 16.31999969 -0.23999999 49 215 123 0.000000 0.000000 0.000000 0.000000 0.000000 0.000000 38.000000 -0.398521 0.854418 -0.333393
1.46000004 16.34000015 -0.25000000 49 215 123 0.000000 0.000000 0.000000 0.000000 0.000000 0.000000 38.000000 0.784431 -0.611417 -0.104102
1.47000003 16.28000069 -0.20999999 49 215 123 0.000000 0.000000 0.000000 0.000000 0.000000 0.000000 38.000000 -0.636057 0.761183 0.126616
1.46000004 16.27000046 -0.23000000 49 215 123 0.000000 0.000000 0.000000 0.000000 0.000000 0.000000 38.000000 -0.228109 0.936227 0.267293
1.45000005 16.28000069 -0.27000001 49 215 123 0.000000 0.000000 0.000000 0.000000 0.000000 0.000000 38.000000 -0.130192 0.965486 0.225581
1.39999998 16.30999947 -0.23000000 49 215 123 0.000000 0.000000 0.000000 0.000000 0.000000 0.000000 38.000000 -0.040572 0.986475 0.158810
1.38999999 16.30999947 -0.23000000 49 215 123 0.000000 0.000000 0.000000 0.000000 0.000000 0.000000 38.000000 0.188534 0.961127 -0.201718
1.39999998 16.34000015 -0.23000000 49 215 123 0.000000 0.000000 0.000000 0.000000 0.000000 0.000000 38.000000 -0.641206 0.747820 -0.172105
1.40999997 16.32999992 -0.22000000 49 215 123 0.000000 0.000000 0.000000 0.000000 0.000000 0.000000 38.000000 -0.042229 0.989518 -0.138099
1.39999998 16.31999969 -0.28000000 49 215 123 0.000000 0.000000 0.000000 0.000000 0.000000 0.000000 38.000000 -0.295937 0.932692 -0.206174
1.47000003 16.30999947 -0.30000001 49 215 123 0.000000 0.000000 0.000000 0.000000 0.000000 0.000000 38.000000 -0.535537 0.843918 0.031664
1.47000003 16.30999947 -0.30000001 49 215 123 0.000000 0.000000 0.000000 0.000000 0.000000 0.000000 38.000000 -0.535537 0.843918 0.031664
1.47000003 16.34000015 -0.31000000 49 215 123 0.000000 0.000000 0.000000 0.000000 0.000000 0.000000 38.000000 -0.297421 0.880184 -0.369889
1.47000003 16.32999992 -0.31999999 49 215 123 0.000000 0.000000 0.000000 0.000000 0.000000 0.000000 38.000000 -0.178031 0.954408 -0.239606
1.47000003 16.31999969 -0.28999999 49 215 123 0.000000 0.000000 0.000000 0.000000 0.000000 0.000000 38.000000 -0.481282 0.865145 0.141040
1.47000003 16.31999969 -0.34999999 49 215 123 0.000000 0.000000 0.000000 0.000000 0.000000 0.000000 38.000000 0.738585 -0.668659 -0.085950
1.46000004 16.30999947 -0.34000000 49 215 123 0.000000 0.000000 0.000000 0.000000 0.000000 0.000000 38.000000 -0.381314 0.914873 0.132692
1.46000004 16.29999924 -0.31999999 49 215 123 0.000000 0.000000 0.000000 0.000000 0.000000 0.000000 38.000000 -0.286693 0.955216 -0.073280
1.46000004 16.29999924 -0.33000001 49 215 123 0.000000 0.000000 0.000000 0.000000 0.000000 0.000000 38.000000 -0.111380 0.993773 -0.003244
1.41999996 16.31999969 -0.31999999 49 215 123 0.000000 0.000000 0.000000 0.000000 0.000000 0.000000 38.000000 -0.083484 0.907376 -0.411946
1.38999999 16.31999969 -0.31999999 49 215 123 0.000000 0.000000 0.000000 0.000000 0.000000 0.000000 38.000000 0.111385 0.955293 -0.273877
1.39999998 16.31999969 -0.31000000 49 215 123 0.000000 0.000000 0.000000 0.000000 0.000000 0.000000 38.000000 -0.101836 0.971846 -0.212473
1.38999999 16.31999969 -0.34999999 49 215 123 0.000000 0.000000 0.000000 0.000000 0.000000 0.000000 38.000000 -0.327605 0.940372 -0.091517
1.38999999 16.34000015 -0.33000001 49 215 123 0.000000 0.000000 0.000000 0.000000 0.000000 0.000000 38.000000 -0.295876 0.887629 -0.352949
1.39999998 16.32999992 -0.34999999 49 215 123 0.000000 0.000000 0.000000 0.000000 0.000000 0.000000 38.000000 -0.634678 0.753395 -0.171987
1.40999997 16.34000015 -0.36000001 49 215 123 0.000000 0.000000 0.000000 0.000000 0.000000 0.000000 38.000000 -0.288147 0.953101 -0.092572
1.40999997 16.29000092 -0.34000000 49 215 123 0.000000 0.000000 0.000000 0.000000 0.000000 0.000000 38.000000 0.044874 0.998704 -0.024002
1.39999998 16.29000092 -0.34000000 49 215 123 0.000000 0.000000 0.000000 0.000000 0.000000 0.000000 38.000000 -0.160055 0.981100 -0.108740
1.39999998 16.29000092 -0.34999999 49 215 123 0.000000 0.000000 0.000000 0.000000 0.000000 0.000000 38.000000 -0.434883 0.898395 0.061347
1.46000004 16.26000023 -0.20999999 49 215 123 0.000000 0.000000 0.000000 0.000000 0.000000 0.000000 38.000000 -0.535637 0.799529 0.271746
1.46000004 16.25000000 -0.20000000 49 215 123 0.000000 0.000000 0.000000 0.000000 0.000000 0.000000 38.000000 0.719451 -0.694305 0.018161
1.44000006 16.21999931 -0.27000001 49 215 123 0.000000 0.000000 0.000000 0.000000 0.000000 0.000000 38.000000 -0.182546 0.980428 -0.073744
1.39999998 16.23999977 -0.25999999 49 215 123 0.000000 0.000000 0.000000 0.000000 0.000000 0.000000 38.000000 -0.270597 0.935173 0.228536
1.40999997 16.21999931 -0.25999999 49 215 123 0.000000 0.000000 0.000000 0.000000 0.000000 0.000000 38.000000 -0.028325 0.961832 -0.272170
1.46000004 16.26000023 -0.33000001 49 215 123 0.000000 0.000000 0.000000 0.000000 0.000000 0.000000 38.000000 -0.487648 0.820065 -0.299488
1.38999999 16.21999931 -0.34000000 49 215 123 0.000000 0.000000 0.000000 0.000000 0.000000 0.000000 38.000000 -0.129096 0.991235 0.028064
1.38000000 16.30999947 -0.20000000 49 215 123 0.000000 0.000000 0.000000 0.000000 0.000000 0.000000 38.000000 -0.040899 0.962978 0.266461
1.38000000 16.34000015 -0.20000000 49 215 123 0.000000 0.000000 0.000000 0.000000 0.000000 0.000000 38.000000 0.155040 0.978614 0.135195
1.38000000 16.34000015 -0.20000000 49 215 123 0.000000 0.000000 0.000000 0.000000 0.000000 0.000000 38.000000 0.155040 0.978614 0.135195
1.38000000 16.31999969 -0.23000000 49 215 123 0.000000 0.000000 0.000000 0.000000 0.000000 0.000000 38.000000 0.244409 0.960645 -0.132007
1.36000001 16.31999969 -0.23000000 49 215 123 0.000000 0.000000 0.000000 0.000000 0.000000 0.000000 38.000000 -0.280549 0.949033 0.143630
1.36000001 16.31999969 -0.25000000 49 215 123 0.000000 0.000000 0.000000 0.000000 0.000000 0.000000 38.000000 -0.406591 0.883181 -0.233827
1.37000000 16.32999992 -0.25000000 49 215 123 0.000000 0.000000 0.000000 0.000000 0.000000 0.000000 38.000000 -0.214009 0.954293 0.208625
1.38000000 16.28000069 -0.23999999 49 215 123 0.000000 0.000000 0.000000 0.000000 0.000000 0.000000 38.000000 -0.230931 0.936322 0.264521
1.33000004 16.31999969 -0.23000000 49 215 123 0.000000 0.000000 0.000000 0.000000 0.000000 0.000000 38.000000 -0.299365 0.952059 0.062957
1.35000002 16.34000015 -0.28999999 49 215 123 0.000000 0.000000 0.000000 0.000000 0.000000 0.000000 38.000000 0.171538 0.898053 -0.405061
1.38000000 16.34000015 -0.31999999 49 215 123 0.000000 0.000000 0.000000 0.000000 0.000000 0.000000 38.000000 -0.227273 0.943527 0.241047
1.38000000 16.31999969 -0.34999999 49 215 123 0.000000 0.000000 0.000000 0.000000 0.000000 0.000000 38.000000 -0.094028 0.990194 0.103315
1.35000002 16.29999924 -0.31999999 49 215 123 0.000000 0.000000 0.000000 0.000000 0.000000 0.000000 38.000000 -0.333522 0.928001 -0.166063
1.36000001 16.28000069 -0.36000001 49 215 123 0.000000 0.000000 0.000000 0.000000 0.000000 0.000000 38.000000 0.072647 0.959701 -0.271469
1.33000004 16.30999947 -0.33000001 49 215 123 0.000000 0.000000 0.000000 0.000000 0.000000 0.000000 38.000000 0.053072 0.992565 -0.109532
1.38000000 16.22999954 -0.25000000 49 215 123 0.000000 0.000000 0.000000 0.000000 0.000000 0.000000 38.000000 -0.441462 0.889977 0.114244
1.30999994 16.23999977 -0.20999999 49 215 123 0.000000 0.000000 0.000000 0.000000 0.000000 0.000000 38.000000 0.409055 0.841619 -0.352634
1.29999995 16.20999908 -0.20000000 49 215 123 0.000000 0.000000 0.000000 0.000000 0.000000 0.000000 38.000000 -0.118306 0.960753 -0.250914
1.30999994 16.19000053 -0.22000000 49 215 123 0.000000 0.000000 0.000000 0.000000 0.000000 0.000000 38.000000 0.444884 0.893849 -0.055781
1.32000005 16.19000053 -0.28000000 49 215 123 0.000000 0.000000 0.000000 0.000000 0.000000 0.000000 38.000000 0.422690 0.850025 -0.314308
1.36000001 16.18000031 -0.28999999 49 215 123 0.000000 0.000000 0.000000 0.000000 0.000000 0.000000 38.000000 -0.300637 0.949173 0.093211
1.32000005 16.18000031 -0.30000001 49 215 123 0.000000 0.000000 0.000000 0.000000 0.000000 0.000000 38.000000 -0.053182 0.968405 -0.243647
1.34000003 16.18000031 -0.31000000 49 215 123 0.000000 0.000000 0.000000 0.000000 0.000000 0.000000 38.000000 -0.156191 0.987711 -0.005618
1.34000003 16.18000031 -0.31000000 49 215 123 0.000000 0.000000 0.000000 0.000000 0.000000 0.000000 38.000000 -0.156191 0.987711 -0.005618
1.29999995 16.18000031 -0.31000000 49 215 123 0.000000 0.000000 0.000000 0.000000 0.000000 0.000000 38.000000 -0.092300 0.967252 0.236439
1.32000005 16.18000031 -0.30000001 49 215 123 0.000000 0.000000 0.000000 0.000000 0.000000 0.000000 38.000000 -0.053182 0.968405 -0.243647
1.44000006 16.34000015 -0.37000000 49 215 123 0.000000 0.000000 0.000000 0.000000 0.000000 0.000000 38.000000 -0.152823 0.945338 -0.288064
1.47000003 16.30999947 -0.40000001 49 215 123 0.000000 0.000000 0.000000 0.000000 0.000000 0.000000 38.000000 -0.556401 0.798179 -0.230929
1.47000003 16.30999947 -0.41000000 49 215 123 0.000000 0.000000 0.000000 0.000000 0.000000 0.000000 38.000000 -0.297954 0.952686 0.060102
1.45000005 16.29999924 -0.37000000 49 215 123 0.000000 0.000000 0.000000 0.000000 0.000000 0.000000 38.000000 -0.526629 0.812469 0.250110
1.44000006 16.27000046 -0.41000000 49 215 123 0.000000 0.000000 0.000000 0.000000 0.000000 0.000000 38.000000 -0.266338 0.956457 -0.119393
1.46000004 16.27000046 -0.44999999 49 215 123 0.000000 0.000000 0.000000 0.000000 0.000000 0.000000 38.000000 -0.382624 0.919115 0.093954
1.38999999 16.31999969 -0.38999999 49 215 123 0.000000 0.000000 0.000000 0.000000 0.000000 0.000000 38.000000 -0.483185 0.794606 -0.367606
1.39999998 16.34000015 -0.37000000 49 215 123 0.000000 0.000000 0.000000 0.000000 0.000000 0.000000 38.000000 -0.331992 0.941295 -0.061191
1.39999998 16.34000015 -0.37000000 49 215 123 0.000000 0.000000 0.000000 0.000000 0.000000 0.000000 38.000000 -0.331992 0.941295 -0.061191
1.41999996 16.31999969 -0.44999999 49 215 123 0.000000 0.000000 0.000000 0.000000 0.000000 0.000000 38.000000 -0.232349 0.851947 -0.469254
1.41999996 16.32999992 -0.44999999 49 215 123 0.000000 0.000000 0.000000 0.000000 0.000000 0.000000 38.000000 -0.176182 0.964431 -0.197062
1.39999998 16.28000069 -0.37000000 49 215 123 0.000000 0.000000 0.000000 0.000000 0.000000 0.000000 38.000000 -0.226642 0.902183 -0.367014
1.39999998 16.29999924 -0.38000000 49 215 123 0.000000 0.000000 0.000000 0.000000 0.000000 0.000000 38.000000 0.027344 0.999584 -0.009115
1.38999999 16.29999924 -0.44000000 49 215 123 0.000000 0.000000 0.000000 0.000000 0.000000 0.000000 38.000000 -0.021644 0.938340 -0.345034
1.41999996 16.27000046 -0.41999999 49 215 123 0.000000 0.000000 0.000000 0.000000 0.000000 0.000000 38.000000 -0.499271 0.859777 -0.107293
1.42999995 16.31999969 -0.50999999 49 215 123 0.000000 0.000000 0.000000 0.000000 0.000000 0.000000 38.000000 -0.488538 0.870511 -0.059510
1.46000004 16.28000069 -0.47000000 49 215 123 0.000000 0.000000 0.000000 0.000000 0.000000 0.000000 38.000000 0.731526 -0.680390 0.044034
1.46000004 16.28000069 -0.47999999 49 215 123 0.000000 0.000000 0.000000 0.000000 0.000000 0.000000 38.000000 -0.588055 0.802949 -0.097283
1.45000005 16.28000069 -0.47999999 49 215 123 0.000000 0.000000 0.000000 0.000000 0.000000 0.000000 38.000000 -0.691579 0.722192 0.012524
1.46000004 16.29000092 -0.51999998 49 215 123 0.000000 0.000000 0.000000 0.000000 0.000000 0.000000 38.000000 -0.385810 0.896312 -0.218577
1.46000004 16.29000092 -0.51999998 49 215 123 0.000000 0.000000 0.000000 0.000000 0.000000 0.000000 38.000000 -0.385810 0.896312 -0.218577
1.41999996 16.28000069 -0.51999998 49 215 123 0.000000 0.000000 0.000000 0.000000 0.000000 0.000000 38.000000 -0.487936 0.750797 -0.445221
1.46000004 16.25000000 -0.44999999 49 215 123 0.000000 0.000000 0.000000 0.000000 0.000000 0.000000 38.000000 -0.046672 0.998789 -0.015557
1.42999995 16.23999977 -0.44999999 49 215 123 0.000000 0.000000 0.000000 0.000000 0.000000 0.000000 38.000000 -0.080565 0.908061 -0.411017
1.45000005 16.26000023 -0.44000000 49 215 123 0.000000 0.000000 0.000000 0.000000 0.000000 0.000000 38.000000 -0.578832 0.814289 0.043447
1.42999995 16.25000000 -0.44999999 49 215 123 0.000000 0.000000 0.000000 0.000000 0.000000 0.000000 38.000000 0.065297 0.972062 -0.225459
1.42999995 16.20999908 -0.43000001 49 215 123 0.000000 0.000000 0.000000 0.000000 0.000000 0.000000 38.000000 -0.413445 0.910107 0.027739
1.41999996 16.26000023 -0.38000000 49 215 123 0.000000 0.000000 0.000000 0.000000 0.000000 0.000000 38.000000 -0.232596 0.970995 0.055380
1.39999998 16.25000000 -0.41999999 49 215 123 0.000000 0.000000 0.000000 0.000000 0.000000 0.000000 38.000000 -0.083106 0.973706 0.212107
1.39999998 16.21999931 -0.38000000 49 215 123 0.000000 0.000000 0.000000 0.000000 0.000000 0.000000 38.000000 -0.131015 0.963805 0.232195
1.39999998 16.20999908 -0.44999999 49 215 123 0.000000 0.000000 0.000000 0.000000 0.000000 0.000000 38.000000 -0.178709 0.866960 -0.465234
1.41999996 16.20999908 -0.44999999 49 215 123 0.000000 0.000000 0.000000 0.000000 0.000000 0.000000 38.000000 -0.342243 0.938240 0.050751
1.42999995 16.22999954 -0.47999999 49 215 123 0.000000 0.000000 0.000000 0.000000 0.000000 0.000000 38.000000 0.071916 0.991987 -0.103879
1.47000003 16.26000023 -0.47999999 49 215 123 0.000000 0.000000 0.000000 0.000000 0.000000 0.000000 38.000000 -0.156014 0.977271 0.143533
1.44000006 16.25000000 -0.47000000 49 215 123 0.000000 0.000000 0.000000 0.000000 0.000000 0.000000 38.000000 -0.697536 0.681932 -0.220028
1.46000004 16.26000023 -0.49000001 49 215 123 0.000000 0.000000 0.000000 0.000000 0.000000 0.000000 38.000000 -0.099554 0.984742 0.142734
1.46000004 16.26000023 -0.49000001 49 215 123 0.000000 0.000000 0.000000 0.000000 0.000000 0.000000 38.000000 -0.099554 0.984742 0.142734
1.47000003 16.22999954 -0.47000000 49 215 123 0.000000 0.000000 0.000000 0.000000 0.000000 0.000000 38.000000 -0.582348 0.794111 -0.173948
1.45000005 16.26000023 -0.46000001 49 215 123 0.000000 0.000000 0.000000 0.000000 0.000000 0.000000 38.000000 -0.695703 0.718099 0.018197
1.47000003 16.22999954 -0.47999999 49 215 123 0.000000 0.000000 0.000000 0.000000 0.000000 0.000000 38.000000 -0.371296 0.923480 -0.096564
1.44000006 16.22999954 -0.51999998 49 215 123 0.000000 0.000000 0.000000 0.000000 0.000000 0.000000 38.000000 -0.121677 0.928300 -0.351360
1.44000006 16.23999977 -0.50999999 49 215 123 0.000000 0.000000 0.000000 0.000000 0.000000 0.000000 38.000000 -0.364003 0.897482 -0.249055
1.47000003 16.26000023 -0.50000000 49 215 123 0.000000 0.000000 0.000000 0.000000 0.000000 0.000000 38.000000 -0.151625 0.958537 -0.241282
1.45000005 16.22999954 -0.51999998 49 215 123 0.000000 0.000000 0.000000 0.000000 0.000000 0.000000 38.000000 -0.404517 0.794530 -0.452866
1.45000005 16.26000023 -0.52999997 49 215 123 0.000000 0.000000 0.000000 0.000000 0.000000 0.000000 38.000000 -0.164159 0.945613 -0.280835
1.47000003 16.22999954 -0.50000000 49 215 123 0.000000 0.000000 0.000000 0.000000 0.000000 0.000000 38.000000 -0.359290 0.897486 0.255791
1.42999995 16.22999954 -0.50000000 49 215 123 0.000000 0.000000 0.000000 0.000000 0.000000 0.000000 38.000000 0.085078 0.996164 -0.020462
1.46000004 16.19000053 -0.50999999 49 215 123 0.000000 0.000000 0.000000 0.000000 0.000000 0.000000 38.000000 -0.509338 0.845944 -0.157969
1.40999997 16.26000023 -0.47000000 49 215 123 0.000000 0.000000 0.000000 0.000000 0.000000 0.000000 38.000000 -0.208884 0.922215 -0.325404
1.40999997 16.26000023 -0.47999999 49 215 123 0.000000 0.000000 0.000000 0.000000 0.000000 0.000000 38.000000 -0.117869 0.962381 0.244805
1.39999998 16.26000023 -0.47999999 49 215 123 0.000000 0.000000 0.000000 0.000000 0.000000 0.000000 38.000000 -0.197445 0.980297 -0.005773
1.40999997 16.26000023 -0.47999999 49 215 123 0.000000 0.000000 0.000000 0.000000 0.000000 0.000000 38.000000 -0.117869 0.962381 0.244805
1.39999998 16.23999977 -0.52999997 49 215 123 0.000000 0.000000 0.000000 0.000000 0.000000 0.000000 38.000000 -0.381222 0.891496 -0.244754
1.38999999 16.25000000 -0.50999999 49 215 123 0.000000 0.000000 0.000000 0.000000 0.000000 0.000000 38.000000 -0.053657 0.964573 -0.258301
1.39999998 16.23999977 -0.52999997 49 215 123 0.000000 0.000000 0.000000 0.000000 0.000000 0.000000 38.000000 -0.381222 0.891496 -0.244754
1.38999999 16.25000000 -0.51999998 49 215 123 0.000000 0.000000 0.000000 0.000000 0.000000 0.000000 38.000000 -0.056040 0.939641 -0.337541
1.38000000 16.34000015 -0.38999999 49 215 123 0.000000 0.000000 0.000000 0.000000 0.000000 0.000000 38.000000 -0.219719 0.973392 -0.065056
1.37000000 16.32999992 -0.38000000 49 215 123 0.000000 0.000000 0.000000 0.000000 0.000000 0.000000 38.000000 -0.191268 0.981537 0.001145
1.37000000 16.31999969 -0.38000000 49 215 123 0.000000 0.000000 0.000000 0.000000 0.000000 0.000000 38.000000 0.275966 0.949054 -0.152118
1.36000001 16.30999947 -0.44999999 49 215 123 0.000000 0.000000 0.000000 0.000000 0.000000 0.000000 38.000000 -0.128309 0.941381 0.311993
1.38000000 16.27000046 -0.40000001 49 215 123 0.000000 0.000000 0.000000 0.000000 0.000000 0.000000 38.000000 -0.251023 0.958094 -0.137997
1.35000002 16.28000069 -0.41999999 49 215 123 0.000000 0.000000 0.000000 0.000000 0.000000 0.000000 38.000000 -0.133715 0.878495 -0.458658
1.38000000 16.29999924 -0.41999999 49 215 123 0.000000 0.000000 0.000000 0.000000 0.000000 0.000000 38.000000 -0.360749 0.899664 -0.245898
1.38000000 16.27000046 -0.41999999 49 215 123 0.000000 0.000000 0.000000 0.000000 0.000000 0.000000 38.000000 -0.316496 0.938621 -0.137193
1.36000001 16.28000069 -0.43000001 49 215 123 0.000000 0.000000 0.000000 0.000000 0.000000 0.000000 38.000000 -0.039724 0.869825 -0.491759
1.38000000 16.29999924 -0.43000001 49 215 123 0.000000 0.000000 0.000000 0.000000 0.000000 0.000000 38.000000 0.009295 0.998676 -0.050605
1.38000000 16.29000092 -0.49000001 49 215 123 0.000000 0.000000 0.000000 0.000000 0.000000 0.000000 38.000000 0.148019 0.953456 -0.262701
1.35000002 16.28000069 -0.46000001 49 215 123 0.000000 0.000000 0.000000 0.000000 0.000000 0.000000 38.000000 -0.263611 0.931800 0.249514
1.35000002 16.28000069 -0.52999997 49 215 123 0.000000 0.000000 0.000000 0.000000 0.000000 0.000000 38.000000 -0.070791 0.953742 -0.292172
1.36000001 16.28000069 -0.50000000 49 215 123 0.000000 0.000000 0.000000 0.000000 0.000000 0.000000 38.000000 -0.004965 0.999904 0.012908
1.34000003 16.28000069 -0.51999998 49 215 123 0.000000 0.000000 0.000000 0.000000 0.000000 0.000000 38.000000 -0.214335 0.970216 -0.112875
1.37000000 16.23999977 -0.41999999 49 215 123 0.000000 0.000000 0.000000 0.000000 0.000000 0.000000 38.000000 -0.331455 0.916883 -0.222405
1.36000001 16.25000000 -0.44999999 49 215 123 0.000000 0.000000 0.000000 0.000000 0.000000 0.000000 38.000000 -0.417311 0.857720 -0.300279
1.35000002 16.23999977 -0.44000000 49 215 123 0.000000 0.000000 0.000000 0.000000 0.000000 0.000000 38.000000 -0.256121 0.957499 -0.132658
1.36000001 16.23999977 -0.44999999 49 215 123 0.000000 0.000000 0.000000 0.000000 0.000000 0.000000 38.000000 -0.262892 0.960519 -0.091051
1.35000002 16.20999908 -0.44000000 49 215 123 0.000000 0.000000 0.000000 0.000000 0.000000 0.000000 38.000000 0.102836 0.956769 0.272061
1.32000005 16.20000076 -0.44000000 49 215 123 0.000000 0.000000 0.000000 0.000000 0.000000 0.000000 38.000000 0.036603 0.998734 0.034511
1.36000001 16.22999954 -0.49000001 49 215 123 0.000000 0.000000 0.000000 0.000000 0.000000 0.000000 38.000000 0.052413 0.986537 0.154911
1.35000002 16.22999954 -0.47999999 49 215 123 0.000000 0.000000 0.000000 0.000000 0.000000 0.000000 38.000000 0.003901 0.906309 -0.422597
1.36000001 16.22999954 -0.49000001 49 215 123 0.000000 0.000000 0.000000 0.000000 0.000000 0.000000 38.000000 0.052413 0.986537 0.154911
1.38000000 16.23999977 -0.51999998 49 215 123 0.000000 0.000000 0.000000 0.000000 0.000000 0.000000 38.000000 0.062049 0.986936 -0.148684
1.36000001 16.23999977 -0.52999997 49 215 123 0.000000 0.000000 0.000000 0.000000 0.000000 0.000000 38.000000 -0.217604 0.966985 0.132622
1.35000002 16.26000023 -0.50999999 49 215 123 0.000000 0.000000 0.000000 0.000000 0.000000 0.000000 38.000000 -0.120571 0.970910 0.206874
1.35000002 16.23999977 -0.52999997 49 215 123 0.000000 0.000000 0.000000 0.000000 0.000000 0.000000 38.000000 0.015867 0.997507 0.068757
1.35000002 16.26000023 -0.50000000 49 215 123 0.000000 0.000000 0.000000 0.000000 0.000000 0.000000 38.000000 0.003319 0.990076 -0.140491
1.36000001 16.21999931 -0.50999999 49 215 123 0.000000 0.000000 0.000000 0.000000 0.000000 0.000000 38.000000 0.095156 0.952868 -0.288076
1.37000000 16.21999931 -0.52999997 49 215 123 0.000000 0.000000 0.000000 0.000000 0.000000 0.000000 38.000000 0.069427 0.941846 -0.328795
1.37000000 16.21999931 -0.50999999 49 215 123 0.000000 0.000000 0.000000 0.000000 0.000000 0.000000 38.000000 0.220266 0.952686 -0.209456
1.38000000 16.21999931 -0.50999999 49 215 123 0.000000 0.000000 0.000000 0.000000 0.000000 0.000000 38.000000 0.097344 0.940101 -0.326702
1.35000002 16.21999931 -0.52999997 49 215 123 0.000000 0.000000 0.000000 0.000000 0.000000 0.000000 38.000000 0.105685 0.976034 0.190233
1.38000000 16.20999908 -0.50999999 49 215 123 0.000000 0.000000 0.000000 0.000000 0.000000 0.000000 38.000000 0.245027 0.969245 0.022934
1.36000001 16.20999908 -0.50999999 49 215 123 0.000000 0.000000 0.000000 0.000000 0.000000 0.000000 38.000000 -0.171026 0.981280 0.088546
1.34000003 16.22999954 -0.47999999 49 215 123 0.000000 0.000000 0.000000 0.000000 0.000000 0.000000 38.000000 0.029882 0.926350 -0.375477
1.34000003 16.22999954 -0.49000001 49 215 123 0.000000 0.000000 0.000000 0.000000 0.000000 0.000000 38.000000 0.063611 0.997961 -0.005214
1.34000003 16.22999954 -0.47999999 49 215 123 0.000000 0.000000 0.000000 0.000000 0.000000 0.000000 38.000000 0.029882 0.926350 -0.375477
1.32000005 16.20999908 -0.47999999 49 215 123 0.000000 0.000000 0.000000 0.000000 0.000000 0.000000 38.000000 -0.283157 0.931179 -0.229625
1.32000005 16.20000076 -0.47000000 49 215 123 0.000000 0.000000 0.000000 0.000000 0.000000 0.000000 38.000000 -0.027298 0.976791 0.212449
1.34000003 16.21999931 -0.49000001 49 215 123 0.000000 0.000000 0.000000 0.000000 0.000000 0.000000 38.000000 0.160229 0.949253 0.270638
1.30999994 16.21999931 -0.50999999 49 215 123 0.000000 0.000000 0.000000 0.000000 0.000000 0.000000 38.000000 -0.059536 0.958905 0.277411
1.34000003 16.21999931 -0.50999999 49 215 123 0.000000 0.000000 0.000000 0.000000 0.000000 0.000000 38.000000 0.202063 0.935064 -0.291249
1.29999995 16.18000031 -0.50999999 49 215 123 0.000000 0.000000 0.000000 0.000000 0.000000 0.000000 38.000000 -0.044783 0.998757 0.021871
1.29999995 16.21999931 -0.52999997 49 215 123 0.000000 0.000000 0.000000 0.000000 0.000000 0.000000 38.000000 0.291404 0.892143 -0.345201
1.32000005 16.20999908 -0.51999998 49 215 123 0.000000 0.000000 0.000000 0.000000 0.000000 0.000000 38.000000 0.199685 0.979742 -0.015181
1.38999999 16.04999924 -0.23999999 49 215 123 0.000000 0.000000 0.000000 0.000000 0.000000 0.000000 38.000000 0.254212 0.944021 -0.210240
1.29999995 16.15999985 -0.23000000 49 215 123 0.000000 0.000000 0.000000 0.000000 0.000000 0.000000 38.000000 0.058043 0.969444 0.238347
1.33000004 16.12999916 -0.22000000 49 215 123 0.000000 0.000000 0.000000 0.000000 0.000000 0.000000 38.000000 0.036813 0.871240 -0.489476
1.34000003 16.12999916 -0.23999999 49 215 123 0.000000 0.000000 0.000000 0.000000 0.000000 0.000000 38.000000 0.265463 0.869201 -0.417156
1.30999994 16.10000038 -0.28000000 49 215 123 0.000000 0.000000 0.000000 0.000000 0.000000 0.000000 38.000000 -0.232766 0.948761 -0.213710
1.38000000 16.04999924 -0.25000000 49 215 123 0.000000 0.000000 0.000000 0.000000 0.000000 0.000000 38.000000 -0.256313 0.845678 -0.468116
1.38000000 16.04999924 -0.23999999 49 215 123 0.000000 0.000000 0.000000 0.000000 0.000000 0.000000 38.000000 -0.248970 0.938853 -0.237843
1.37000000 16.04999924 -0.23999999 49 215 123 0.000000 0.000000 0.000000 0.000000 0.000000 0.000000 38.000000 -0.122446 0.978329 -0.166971
1.37000000 16.07999992 -0.25000000 49 215 123 0.000000 0.000000 0.000000 0.000000 0.000000 0.000000 38.000000 0.322117 0.945980 0.036922
1.37000000 16.04999924 -0.27000001 49 215 123 0.000000 0.000000 0.000000 0.000000 0.000000 0.000000 38.000000 0.097454 0.912770 -0.396678
1.33000004 16.06999969 -0.25000000 49 215 123 0.000000 0.000000 0.000000 0.000000 0.000000 0.000000 38.000000 0.265485 0.866239 -0.423259
1.30999994 16.06999969 -0.23999999 49 215 123 0.000000 0.000000 0.000000 0.000000 0.000000 0.000000 38.000000 0.142893 0.876119 -0.460432
1.34000003 16.03000069 -0.25999999 49 215 123 0.000000 0.000000 0.000000 0.000000 0.000000 0.000000 38.000000 0.286603 0.942087 0.174156
1.32000005 16.04000092 -0.25000000 49 215 123 0.000000 0.000000 0.000000 0.000000 0.000000 0.000000 38.000000 -0.019386 0.986423 0.163073
1.33000004 16.04000092 -0.25000000 49 215 123 0.000000 0.000000 0.000000 0.000000 0.000000 0.000000 38.000000 -0.015756 0.965974 0.258159
1.33000004 16.04000092 -0.25000000 49 215 123 0.000000 0.000000 0.000000 0.000000 0.000000 0.000000 38.000000 -0.015756 0.965974 0.258159
1.37000000 16.17000008 -0.46000001 49 215 123 0.000000 0.000000 0.000000 0.000000 0.000000 0.000000 38.000000 -0.160694 0.923643 -0.347938
1.29999995 16.15999985 -0.43000001 49 215 123 0.000000 0.000000 0.000000 0.000000 0.000000 0.000000 38.000000 0.186457 0.915205 -0.357257
1.61000001 16.04999924 -0.54000002 49 215 123 0.000000 0.000000 0.000000 0.000000 0.000000 0.000000 38.000000 -0.514490 0.856563 -0.040001
1.62000000 16.05999947 -0.56000000 49 215 123 0.000000 0.000000 0.000000 0.000000 0.000000 0.000000 38.000000 -0.371359 0.869560 -0.325512
1.63000000 16.05999947 -0.56999999 49 215 123 0.000000 0.000000 0.000000 0.000000 0.000000 0.000000 38.000000 -0.275294 0.894334 -0.352674
1.63000000 16.04999924 -0.56999999 49 215 123 0.000000 0.000000 0.000000 0.000000 0.000000 0.000000 38.000000 -0.355565 0.894121 -0.272253
1.62000000 16.03000069 -0.56000000 49 215 123 0.000000 0.000000 0.000000 0.000000 0.000000 0.000000 38.000000 -0.559495 0.809835 0.176445
1.61000001 16.03000069 -0.56000000 49 215 123 0.000000 0.000000 0.000000 0.000000 0.000000 0.000000 38.000000 -0.212287 0.957295 0.196266
1.61000001 16.03000069 -0.55000001 49 215 123 0.000000 0.000000 0.000000 0.000000 0.000000 0.000000 38.000000 -0.399341 0.910608 -0.106399
1.63999999 16.01000023 -0.56000000 49 215 123 0.000000 0.000000 0.000000 0.000000 0.000000 0.000000 38.000000 -0.524721 0.850788 -0.028771
1.63999999 16.02000046 -0.54000002 49 215 123 0.000000 0.000000 0.000000 0.000000 0.000000 0.000000 38.000000 -0.473721 0.867274 -0.153048
1.61000001 16.03000069 -0.55000001 49 215 123 0.000000 0.000000 0.000000 0.000000 0.000000 0.000000 38.000000 -0.399341 0.910608 -0.106399
1.59000003 16.06999969 -0.55000001 49 215 123 0.000000 0.000000 0.000000 0.000000 0.000000 0.000000 38.000000 -0.466555 0.881887 0.067837
1.60000002 16.05999947 -0.61000001 49 215 123 0.000000 0.000000 0.000000 0.000000 0.000000 0.000000 38.000000 -0.540911 0.813664 0.212993
1.60000002 16.05999947 -0.58999997 49 215 123 0.000000 0.000000 0.000000 0.000000 0.000000 0.000000 38.000000 -0.347224 0.919789 -0.182824
1.55999994 16.02000046 -0.57999998 49 215 123 0.000000 0.000000 0.000000 0.000000 0.000000 0.000000 38.000000 -0.551924 0.827162 -0.105749
1.58000004 16.01000023 -0.61000001 49 215 123 0.000000 0.000000 0.000000 0.000000 0.000000 0.000000 38.000000 0.767229 -0.640064 -0.040975
1.55999994 16.03000069 -0.62000000 49 215 123 0.000000 0.000000 0.000000 0.000000 0.000000 0.000000 38.000000 -0.444120 0.894990 0.041847
1.58000004 16.01000023 -0.62000000 49 215 123 0.000000 0.000000 0.000000 0.000000 0.000000 0.000000 38.000000 -0.123280 0.961586 -0.245263
1.58000004 16.01000023 -0.62000000 49 215 123 0.000000 0.000000 0.000000 0.000000 0.000000 0.000000 38.000000 -0.123280 0.961586 -0.245263
1.63999999 16.05999947 -0.63999999 49 215 123 0.000000 0.000000 0.000000 0.000000 0.000000 0.000000 38.000000 0.769522 -0.622518 0.142504
1.63999999 16.06999969 -0.63999999 49 215 123 0.000000 0.000000 0.000000 0.000000 0.000000 0.000000 38.000000 -0.625863 0.779922 -0.004127
