//X Y Z R G B PointSourceId ScanDirectionFlag NumberOfReturns ReturnNumber GpsTime Intensity Classification Nx Ny Nz
-0.74000001 12.34000015 -0.14000000 141 126 122 0.000000 0.000000 0.000000 0.000000 0.000000 0.000000 152.000000 -0.207235 0.001158 0.978290
-0.74000001 12.32999992 -0.18000001 141 126 122 0.000000 0.000000 0.000000 0.000000 0.000000 0.000000 152.000000 -0.063121 0.122799 0.990422
-0.75999999 12.32999992 -0.18000001 141 126 122 0.000000 0.000000 0.000000 0.000000 0.000000 0.000000 152.000000 -0.013723 -0.068614 0.997549
-0.73000002 12.35000038 -0.18000001 141 126 122 0.000000 0.000000 0.000000 0.000000 0.000000 0.000000 152.000000 -0.508524 -0.083574 0.856983
-0.75000000 12.35000038 -0.18000001 141 126 122 0.000000 0.000000 0.000000 0.000000 0.000000 0.000000 152.000000 0.015803 0.066371 0.997670
-0.69999999 12.25000000 -0.17000000 141 126 122 0.000000 0.000000 0.000000 0.000000 0.000000 0.000000 152.000000 0.101105 0.132032 0.986076
-0.69000000 12.26000023 -0.17000000 141 126 122 0.000000 0.000000 0.000000 0.000000 0.000000 0.000000 152.000000 -0.067052 -0.105691 0.992136
-0.70999998 12.26000023 -0.19000000 141 126 122 0.000000 0.000000 0.000000 0.000000 0.000000 0.000000 152.000000 0.184875 -0.022092 0.982514
-0.70999998 12.23999977 -0.17000000 141 126 122 0.000000 0.000000 0.000000 0.000000 0.000000 0.000000 152.000000 -0.067764 0.003128 0.997696
-0.72000003 12.30000019 -0.15000001 141 126 122 0.000000 0.000000 0.000000 0.000000 0.000000 0.000000 152.000000 -0.036940 -0.203767 0.978322
-0.73000002 12.30000019 -0.16000000 141 126 122 0.000000 0.000000 0.000000 0.000000 0.000000 0.000000 152.000000 0.091514 -0.073437 0.993092
-0.74000001 12.31000042 -0.16000000 141 126 122 0.000000 0.000000 0.000000 0.000000 0.000000 0.000000 152.000000 0.079586 0.109575 0.990787
-0.75000000 12.27999973 -0.17000000 141 126 122 0.000000 0.000000 0.000000 0.000000 0.000000 0.000000 152.000000 -0.148721 0.107611 0.983007
-0.75999999 12.27999973 -0.17000000 141 126 122 0.000000 0.000000 0.000000 0.000000 0.000000 0.000000 152.000000 0.025168 0.007047 0.999658
-0.75999999 12.25000000 -0.14000000 141 126 122 0.000000 0.000000 0.000000 0.000000 0.000000 0.000000 152.000000 -0.067411 0.214490 0.974397
-0.72000003 12.22999954 -0.17000000 141 126 122 0.000000 0.000000 0.000000 0.000000 0.000000 0.000000 152.000000 0.013451 -0.280022 0.959899
-0.72000003 12.26000023 -0.17000000 141 126 122 0.000000 0.000000 0.000000 0.000000 0.000000 0.000000 152.000000 0.260273 0.003598 0.965528
-0.75000000 12.26000023 -0.17000000 141 126 122 0.000000 0.000000 0.000000 0.000000 0.000000 0.000000 152.000000 0.033257 0.154816 0.987383
-0.58999997 12.09000015 -0.18000001 141 126 122 0.000000 0.000000 0.000000 0.000000 0.000000 0.000000 152.000000 0.818289 0.330798 0.470081
-0.54000002 11.93000031 -0.02000000 141 126 122 0.000000 0.000000 0.000000 0.000000 0.000000 0.000000 152.000000 0.445098 0.313911 0.838658
-0.46000001 12.02999973 -0.09000000 141 126 122 0.000000 0.000000 0.000000 0.000000 0.000000 0.000000 152.000000 0.579243 0.131848 0.804421
-0.43000001 11.97000027 -0.10000000 141 126 122 0.000000 0.000000 0.000000 0.000000 0.000000 0.000000 152.000000 0.672149 -0.156278 0.723736
-0.47000000 12.02000046 -0.09000000 141 126 122 0.000000 0.000000 0.000000 0.000000 0.000000 0.000000 152.000000 0.603537 0.076342 0.793672
-0.47000000 12.00000000 -0.09000000 141 126 122 0.000000 0.000000 0.000000 0.000000 0.000000 0.000000 152.000000 0.620330 0.296540 0.726123
-0.50000000 11.97999954 -0.09000000 141 126 122 0.000000 0.000000 0.000000 0.000000 0.000000 0.000000 152.000000 0.515038 0.104729 0.850745
-0.50000000 11.97000027 -0.09000000 141 126 122 0.000000 0.000000 0.000000 0.000000 0.000000 0.000000 152.000000 0.620014 0.226453 0.751200
-0.50000000 11.97999954 -0.09000000 141 126 122 0.000000 0.000000 0.000000 0.000000 0.000000 0.000000 152.000000 0.515038 0.104729 0.850745
-0.46000001 11.97999954 -0.12000000 141 126 122 0.000000 0.000000 0.000000 0.000000 0.000000 0.000000 152.000000 0.633471 -0.046766 0.772352
-0.41999999 11.96000004 -0.06000000 141 126 122 0.000000 0.000000 0.000000 0.000000 0.000000 0.000000 152.000000 0.871240 -0.036813 0.489476
-0.46000001 11.93000031 -0.07000000 141 126 122 0.000000 0.000000 0.000000 0.000000 0.000000 0.000000 152.000000 0.518336 0.194943 0.832662
-0.46000001 11.93000031 -0.07000000 141 126 122 0.000000 0.000000 0.000000 0.000000 0.000000 0.000000 152.000000 0.518336 0.194943 0.832662
-0.43000001 11.93000031 -0.08000000 141 126 122 0.000000 0.000000 0.000000 0.000000 0.000000 0.000000 152.000000 0.676372 0.172528 0.716069
-0.43000001 11.96000004 -0.10000000 141 126 122 0.000000 0.000000 0.000000 0.000000 0.000000 0.000000 152.000000 0.854772 0.196104 0.480529
-0.46000001 11.93000031 -0.07000000 141 126 122 0.000000 0.000000 0.000000 0.000000 0.000000 0.000000 152.000000 0.518336 0.194943 0.832662
-0.44999999 11.96000004 -0.08000000 141 126 122 0.000000 0.000000 0.000000 0.000000 0.000000 0.000000 152.000000 0.596157 0.225699 0.770491
-0.44999999 11.96000004 -0.08000000 141 126 122 0.000000 0.000000 0.000000 0.000000 0.000000 0.000000 152.000000 0.596157 0.225699 0.770491
-0.43000001 11.96000004 -0.10000000 141 126 122 0.000000 0.000000 0.000000 0.000000 0.000000 0.000000 152.000000 0.854772 0.196104 0.480529
-0.44999999 11.94999981 -0.08000000 141 126 122 0.000000 0.000000 0.000000 0.000000 0.000000 0.000000 152.000000 0.699115 0.247768 0.670708
-0.44999999 11.92000008 -0.05000000 141 126 122 0.000000 0.000000 0.000000 0.000000 0.000000 0.000000 152.000000 0.647645 -0.110646 0.753865
-0.41999999 11.92000008 -0.09000000 141 126 122 0.000000 0.000000 0.000000 0.000000 0.000000 0.000000 152.000000 0.767687 -0.129687 0.627565
-0.44999999 11.92000008 -0.09000000 141 126 122 0.000000 0.000000 0.000000 0.000000 0.000000 0.000000 152.000000 0.777088 0.428458 0.461040
-0.41999999 11.90999985 -0.10000000 141 126 122 0.000000 0.000000 0.000000 0.000000 0.000000 0.000000 152.000000 0.583342 0.043575 0.811057
-0.41999999 11.89000034 -0.09000000 141 126 122 0.000000 0.000000 0.000000 0.000000 0.000000 0.000000 152.000000 0.771307 0.110608 0.626779
-0.43000001 11.89999962 -0.08000000 141 126 122 0.000000 0.000000 0.000000 0.000000 0.000000 0.000000 152.000000 0.746336 0.240399 0.620637
-0.50000000 11.94999981 -0.06000000 141 126 122 0.000000 0.000000 0.000000 0.000000 0.000000 0.000000 152.000000 0.627744 0.383896 0.677172
-0.47000000 11.94999981 -0.06000000 141 126 122 0.000000 0.000000 0.000000 0.000000 0.000000 0.000000 152.000000 0.774572 0.161558 0.611504
-0.50000000 11.94999981 -0.05000000 141 126 122 0.000000 0.000000 0.000000 0.000000 0.000000 0.000000 152.000000 0.452388 0.096640 0.886569
-0.49000001 11.89000034 -0.05000000 141 126 122 0.000000 0.000000 0.000000 0.000000 0.000000 0.000000 152.000000 0.582603 -0.306549 0.752729
-0.49000001 11.89000034 -0.05000000 141 126 122 0.000000 0.000000 0.000000 0.000000 0.000000 0.000000 152.000000 0.582603 -0.306549 0.752729
-0.47000000 11.92000008 -0.04000000 141 126 122 0.000000 0.000000 0.000000 0.000000 0.000000 0.000000 152.000000 0.638573 0.018086 0.769349
-0.54000002 11.98999977 -0.06000000 141 126 122 0.000000 0.000000 0.000000 0.000000 0.000000 0.000000 152.000000 0.463449 -0.053317 0.884518
-0.52999997 12.01000023 -0.06000000 141 126 122 0.000000 0.000000 0.000000 0.000000 0.000000 0.000000 152.000000 0.418156 -0.089703 0.903935
-0.58999997 12.02000046 -0.17000000 141 126 122 0.000000 0.000000 0.000000 0.000000 0.000000 0.000000 152.000000 0.757603 0.386133 0.526249
-0.58999997 12.02000046 -0.17000000 141 126 122 0.000000 0.000000 0.000000 0.000000 0.000000 0.000000 152.000000 0.757603 0.386133 0.526249
-0.51999998 11.92000008 -0.04000000 141 126 122 0.000000 0.000000 0.000000 0.000000 0.000000 0.000000 152.000000 0.509510 0.089413 0.855807
-0.51999998 11.90999985 -0.04000000 141 126 122 0.000000 0.000000 0.000000 0.000000 0.000000 0.000000 152.000000 0.559122 -0.258418 0.787783
-0.51999998 11.92000008 -0.04000000 141 126 122 0.000000 0.000000 0.000000 0.000000 0.000000 0.000000 152.000000 0.509510 0.089413 0.855807
-0.51999998 11.90999985 -0.04000000 141 126 122 0.000000 0.000000 0.000000 0.000000 0.000000 0.000000 152.000000 0.559122 -0.258418 0.787783
-0.56000000 11.93999958 -0.03000000 141 126 122 0.000000 0.000000 0.000000 0.000000 0.000000 0.000000 152.000000 0.463064 -0.076482 0.883019
-0.56000000 11.93999958 -0.03000000 141 126 122 0.000000 0.000000 0.000000 0.000000 0.000000 0.000000 152.000000 0.463064 -0.076482 0.883019
-0.55000001 11.93000031 -0.04000000 141 126 122 0.000000 0.000000 0.000000 0.000000 0.000000 0.000000 152.000000 0.516736 0.301824 0.801178
-0.56000000 11.94999981 -0.03000000 141 126 122 0.000000 0.000000 0.000000 0.000000 0.000000 0.000000 152.000000 0.206381 0.365136 0.907790
-0.55000001 11.94999981 -0.04000000 141 126 122 0.000000 0.000000 0.000000 0.000000 0.000000 0.000000 152.000000 0.187938 0.247429 0.950504
-0.56000000 11.93999958 -0.04000000 141 126 122 0.000000 0.000000 0.000000 0.000000 0.000000 0.000000 152.000000 0.505878 -0.123208 0.853760
-0.56000000 11.93000031 -0.04000000 141 126 122 0.000000 0.000000 0.000000 0.000000 0.000000 0.000000 152.000000 0.403907 -0.273809 0.872862
-0.55000001 11.93999958 -0.04000000 141 126 122 0.000000 0.000000 0.000000 0.000000 0.000000 0.000000 152.000000 0.445417 -0.102572 0.889428
-0.56000000 11.93000031 -0.04000000 141 126 122 0.000000 0.000000 0.000000 0.000000 0.000000 0.000000 152.000000 0.403907 -0.273809 0.872862
-0.56000000 11.92000008 -0.04000000 141 126 122 0.000000 0.000000 0.000000 0.000000 0.000000 0.000000 152.000000 0.183610 0.121157 0.975504
-0.55000001 11.89000034 -0.04000000 141 126 122 0.000000 0.000000 0.000000 0.000000 0.000000 0.000000 152.000000 0.397643 -0.001287 0.917539
-0.55000001 11.89999962 -0.04000000 141 126 122 0.000000 0.000000 0.000000 0.000000 0.000000 0.000000 152.000000 0.269608 0.080499 0.959600
-0.55000001 11.89000034 -0.04000000 141 126 122 0.000000 0.000000 0.000000 0.000000 0.000000 0.000000 152.000000 0.397643 -0.001287 0.917539
-0.56999999 11.92000008 -0.05000000 141 126 122 0.000000 0.000000 0.000000 0.000000 0.000000 0.000000 152.000000 0.826252 -0.012332 0.563166
-0.55000001 11.89999962 -0.04000000 141 126 122 0.000000 0.000000 0.000000 0.000000 0.000000 0.000000 152.000000 0.269608 0.080499 0.959600
-0.55000001 11.89999962 -0.04000000 141 126 122 0.000000 0.000000 0.000000 0.000000 0.000000 0.000000 152.000000 0.269608 0.080499 0.959600
-0.61000001 12.10000038 -0.19000000 141 126 122 0.000000 0.000000 0.000000 0.000000 0.000000 0.000000 152.000000 0.370729 0.003822 0.928733
-0.60000002 12.06000042 -0.17000000 141 126 122 0.000000 0.000000 0.000000 0.000000 0.000000 0.000000 152.000000 0.846244 0.037273 0.531491
-0.62000000 12.07999992 -0.19000000 141 126 122 0.000000 0.000000 0.000000 0.000000 0.000000 0.000000 152.000000 0.551689 0.387983 0.738314
-0.62000000 12.09000015 -0.19000000 141 126 122 0.000000 0.000000 0.000000 0.000000 0.000000 0.000000 152.000000 0.431157 0.192770 0.881444
-0.61000001 12.09000015 -0.17000000 141 126 122 0.000000 0.000000 0.000000 0.000000 0.000000 0.000000 152.000000 0.224824 -0.017843 0.974236
-0.66000003 12.10000038 -0.19000000 141 126 122 0.000000 0.000000 0.000000 0.000000 0.000000 0.000000 152.000000 0.038538 -0.028122 0.998861
-0.63999999 12.13000011 -0.19000000 141 126 122 0.000000 0.000000 0.000000 0.000000 0.000000 0.000000 152.000000 0.388550 0.215535 0.895865
-0.67000002 12.06000042 -0.15000001 141 126 122 0.000000 0.000000 0.000000 0.000000 0.000000 0.000000 152.000000 0.236435 0.365666 0.900215
-0.63999999 12.06000042 -0.16000000 141 126 122 0.000000 0.000000 0.000000 0.000000 0.000000 0.000000 152.000000 0.119827 0.014291 0.992692
-0.64999998 12.06999969 -0.18000001 141 126 122 0.000000 0.000000 0.000000 0.000000 0.000000 0.000000 152.000000 0.671607 -0.041177 0.739762
-0.70999998 12.18999958 -0.17000000 141 126 122 0.000000 0.000000 0.000000 0.000000 0.000000 0.000000 152.000000 0.331254 0.275309 0.902483
-0.70999998 12.14000034 -0.17000000 141 126 122 0.000000 0.000000 0.000000 0.000000 0.000000 0.000000 152.000000 0.116352 0.097548 0.988406
-0.74000001 12.22000027 -0.14000000 141 126 122 0.000000 0.000000 0.000000 0.000000 0.000000 0.000000 152.000000 -0.296362 0.101422 0.949675
-0.75999999 12.21000004 -0.15000001 141 126 122 0.000000 0.000000 0.000000 0.000000 0.000000 0.000000 152.000000 0.054063 0.195829 0.979147
-0.72000003 12.21000004 -0.18000001 141 126 122 0.000000 0.000000 0.000000 0.000000 0.000000 0.000000 152.000000 -0.249198 0.079693 0.965168
-0.72000003 12.22000027 -0.17000000 141 126 122 0.000000 0.000000 0.000000 0.000000 0.000000 0.000000 152.000000 -0.005245 -0.070277 0.997514
-0.72000003 12.22000027 -0.18000001 141 126 122 0.000000 0.000000 0.000000 0.000000 0.000000 0.000000 152.000000 -0.425578 -0.075263 0.901787
-0.74000001 12.14000034 -0.14000000 141 126 122 0.000000 0.000000 0.000000 0.000000 0.000000 0.000000 152.000000 -0.120801 -0.290719 0.949152
-0.74000001 12.14000034 -0.14000000 141 126 122 0.000000 0.000000 0.000000 0.000000 0.000000 0.000000 152.000000 -0.120801 -0.290719 0.949152
-0.73000002 12.14000034 -0.14000000 141 126 122 0.000000 0.000000 0.000000 0.000000 0.000000 0.000000 152.000000 -0.009965 -0.133970 0.990935
-0.73000002 12.15999985 -0.16000000 141 126 122 0.000000 0.000000 0.000000 0.000000 0.000000 0.000000 152.000000 0.057210 -0.152949 0.986577
-0.75999999 12.18000031 -0.16000000 141 126 122 0.000000 0.000000 0.000000 0.000000 0.000000 0.000000 152.000000 0.078950 0.003158 0.996874
-0.69999999 12.10000038 -0.13000000 141 126 122 0.000000 0.000000 0.000000 0.000000 0.000000 0.000000 152.000000 -0.270701 -0.008497 0.962626
-0.70999998 12.11999989 -0.16000000 141 126 122 0.000000 0.000000 0.000000 0.000000 0.000000 0.000000 152.000000 -0.046289 0.384860 0.921813
-0.75000000 12.11999989 -0.13000000 141 126 122 0.000000 0.000000 0.000000 0.000000 0.000000 0.000000 152.000000 0.095062 0.282580 0.954522
-0.75999999 12.10000038 -0.13000000 141 126 122 0.000000 0.000000 0.000000 0.000000 0.000000 0.000000 152.000000 -0.296490 -0.031275 0.954524
-0.75999999 12.10999966 -0.12000000 141 126 122 0.000000 0.000000 0.000000 0.000000 0.000000 0.000000 152.000000 0.127255 0.187733 0.973942
-0.74000001 12.07999992 -0.14000000 141 126 122 0.000000 0.000000 0.000000 0.000000 0.000000 0.000000 152.000000 -0.074030 0.305212 0.949403
-0.74000001 12.07999992 -0.14000000 141 126 122 0.000000 0.000000 0.000000 0.000000 0.000000 0.000000 152.000000 -0.074030 0.305212 0.949403
-0.72000003 12.09000015 -0.15000001 141 126 122 0.000000 0.000000 0.000000 0.000000 0.000000 0.000000 152.000000 0.168577 0.413518 0.894754
-0.75000000 12.09000015 -0.15000001 141 126 122 0.000000 0.000000 0.000000 0.000000 0.000000 0.000000 152.000000 -0.331392 0.156683 0.930392
-0.75000000 11.89000034 0.04000000 141 126 122 0.000000 0.000000 0.000000 0.000000 0.000000 0.000000 152.000000 0.023382 0.123590 0.992058
-0.75000000 11.89999962 0.04000000 141 126 122 0.000000 0.000000 0.000000 0.000000 0.000000 0.000000 152.000000 -0.377104 0.105589 0.920133
-0.75000000 11.90999985 0.04000000 141 126 122 0.000000 0.000000 0.000000 0.000000 0.000000 0.000000 152.000000 -0.134696 0.278728 0.950877
-0.73000002 11.89000034 0.04000000 141 126 122 0.000000 0.000000 0.000000 0.000000 0.000000 0.000000 152.000000 -0.209119 0.010514 0.977834
-0.60000002 12.03999996 -0.19000000 141 126 122 0.000000 0.000000 0.000000 0.000000 0.000000 0.000000 152.000000 0.492058 -0.125540 0.861463
-0.61000001 12.03999996 -0.18000001 141 126 122 0.000000 0.000000 0.000000 0.000000 0.000000 0.000000 152.000000 0.562521 -0.006810 0.826755
-0.60000002 12.05000019 -0.19000000 141 126 122 0.000000 0.000000 0.000000 0.000000 0.000000 0.000000 152.000000 0.651433 0.377666 0.658030
-0.61000001 12.05000019 -0.18000001 141 126 122 0.000000 0.000000 0.000000 0.000000 0.000000 0.000000 152.000000 0.700255 -0.258824 0.665322
-0.61000001 12.02999973 -0.18000001 141 126 122 0.000000 0.000000 0.000000 0.000000 0.000000 0.000000 152.000000 0.650396 -0.196200 0.733819
-0.63000000 12.02999973 -0.17000000 141 126 122 0.000000 0.000000 0.000000 0.000000 0.000000 0.000000 152.000000 0.609203 0.037987 0.792104
-0.63000000 12.02999973 -0.17000000 141 126 122 0.000000 0.000000 0.000000 0.000000 0.000000 0.000000 152.000000 0.609203 0.037987 0.792104
-0.62000000 12.02999973 -0.18000001 141 126 122 0.000000 0.000000 0.000000 0.000000 0.000000 0.000000 152.000000 0.425141 -0.104543 0.899069
-0.63000000 12.03999996 -0.17000000 141 126 122 0.000000 0.000000 0.000000 0.000000 0.000000 0.000000 152.000000 0.628494 0.189009 0.754500
-0.63000000 12.03999996 -0.17000000 141 126 122 0.000000 0.000000 0.000000 0.000000 0.000000 0.000000 152.000000 0.628494 0.189009 0.754500
-0.61000001 12.01000023 -0.19000000 141 126 122 0.000000 0.000000 0.000000 0.000000 0.000000 0.000000 152.000000 0.484437 0.189303 0.854099
-0.63999999 12.02000046 -0.15000001 141 126 122 0.000000 0.000000 0.000000 0.000000 0.000000 0.000000 152.000000 0.689297 0.156039 0.707476
-0.67000002 12.02000046 -0.15000001 141 126 122 0.000000 0.000000 0.000000 0.000000 0.000000 0.000000 152.000000 0.471170 -0.028351 0.881587
-0.66000003 12.02000046 -0.18000001 141 126 122 0.000000 0.000000 0.000000 0.000000 0.000000 0.000000 152.000000 0.550187 0.250935 0.796446
-0.63999999 12.03999996 -0.16000000 141 126 122 0.000000 0.000000 0.000000 0.000000 0.000000 0.000000 152.000000 0.399977 0.209512 0.892257
-0.63999999 12.02999973 -0.17000000 141 126 122 0.000000 0.000000 0.000000 0.000000 0.000000 0.000000 152.000000 0.377954 0.132493 0.916295
-0.67000002 12.02000046 -0.16000000 141 126 122 0.000000 0.000000 0.000000 0.000000 0.000000 0.000000 152.000000 0.398893 0.139542 0.906318
-0.64999998 12.05000019 -0.16000000 141 126 122 0.000000 0.000000 0.000000 0.000000 0.000000 0.000000 152.000000 0.084135 0.348561 0.933502
-0.67000002 12.02999973 -0.16000000 141 126 122 0.000000 0.000000 0.000000 0.000000 0.000000 0.000000 152.000000 0.398607 0.200034 0.895041
-0.67000002 11.97999954 -0.13000000 141 126 122 0.000000 0.000000 0.000000 0.000000 0.000000 0.000000 152.000000 0.039241 0.461423 0.886312
-0.67000002 11.97999954 -0.13000000 141 126 122 0.000000 0.000000 0.000000 0.000000 0.000000 0.000000 152.000000 0.039241 0.461423 0.886312
-0.63999999 11.97000027 -0.13000000 141 126 122 0.000000 0.000000 0.000000 0.000000 0.000000 0.000000 152.000000 0.483774 0.199201 0.852221
-0.66000003 12.01000023 -0.16000000 141 126 122 0.000000 0.000000 0.000000 0.000000 0.000000 0.000000 152.000000 0.295568 0.377417 0.877608
-0.61000001 11.89999962 -0.09000000 141 126 122 0.000000 0.000000 0.000000 0.000000 0.000000 0.000000 152.000000 0.405042 0.069087 0.911684
-0.62000000 11.92000008 -0.10000000 141 126 122 0.000000 0.000000 0.000000 0.000000 0.000000 0.000000 152.000000 0.114492 0.202563 0.972553
-0.64999998 11.93000031 -0.10000000 141 126 122 0.000000 0.000000 0.000000 0.000000 0.000000 0.000000 152.000000 0.373481 0.297877 0.878511
-0.66000003 11.89999962 -0.04000000 141 126 122 0.000000 0.000000 0.000000 0.000000 0.000000 0.000000 152.000000 0.106992 0.412684 0.904569
-0.67000002 11.89000034 -0.03000000 141 126 122 0.000000 0.000000 0.000000 0.000000 0.000000 0.000000 152.000000 0.143235 0.212917 0.966514
-0.66000003 11.89000034 -0.04000000 141 126 122 0.000000 0.000000 0.000000 0.000000 0.000000 0.000000 152.000000 0.025510 0.249025 0.968161
-0.67000002 11.92000008 -0.04000000 141 126 122 0.000000 0.000000 0.000000 0.000000 0.000000 0.000000 152.000000 0.207681 0.093270 0.973740
-0.67000002 11.89999962 -0.04000000 141 126 122 0.000000 0.000000 0.000000 0.000000 0.000000 0.000000 152.000000 0.450120 0.142370 0.881545
-0.66000003 11.90999985 -0.04000000 141 126 122 0.000000 0.000000 0.000000 0.000000 0.000000 0.000000 152.000000 0.191944 0.205181 0.959718
-0.67000002 11.89999962 -0.10000000 141 126 122 0.000000 0.000000 0.000000 0.000000 0.000000 0.000000 152.000000 0.478641 0.146939 0.865628
-0.66000003 11.90999985 -0.10000000 141 126 122 0.000000 0.000000 0.000000 0.000000 0.000000 0.000000 152.000000 0.518439 0.211328 0.828590
-0.62000000 11.90999985 -0.11000000 141 126 122 0.000000 0.000000 0.000000 0.000000 0.000000 0.000000 152.000000 0.279835 -0.143265 0.949298
-0.61000001 11.92000008 -0.11000000 141 126 122 0.000000 0.000000 0.000000 0.000000 0.000000 0.000000 152.000000 0.136743 -0.049411 0.989374
-0.64999998 11.93000031 -0.11000000 141 126 122 0.000000 0.000000 0.000000 0.000000 0.000000 0.000000 152.000000 -0.008042 0.187264 0.982277
-0.64999998 11.93999958 -0.11000000 141 126 122 0.000000 0.000000 0.000000 0.000000 0.000000 0.000000 152.000000 0.301404 0.402382 0.864433
-0.63999999 11.93999958 -0.11000000 141 126 122 0.000000 0.000000 0.000000 0.000000 0.000000 0.000000 152.000000 0.091927 0.275780 0.956815
-0.64999998 11.93999958 -0.11000000 141 126 122 0.000000 0.000000 0.000000 0.000000 0.000000 0.000000 152.000000 0.301404 0.402382 0.864433
-0.67000002 11.89000034 -0.11000000 141 126 122 0.000000 0.000000 0.000000 0.000000 0.000000 0.000000 152.000000 0.462887 0.300799 0.833820
-0.69999999 12.02999973 -0.15000001 141 126 122 0.000000 0.000000 0.000000 0.000000 0.000000 0.000000 152.000000 0.065853 0.081480 0.994497
-0.68000001 12.02999973 -0.14000000 141 126 122 0.000000 0.000000 0.000000 0.000000 0.000000 0.000000 152.000000 0.444371 -0.072915 0.892870
-0.69000000 12.03999996 -0.15000001 141 126 122 0.000000 0.000000 0.000000 0.000000 0.000000 0.000000 152.000000 0.222637 0.304885 0.926001
-0.70999998 12.02000046 -0.15000001 141 126 122 0.000000 0.000000 0.000000 0.000000 0.000000 0.000000 152.000000 0.033607 0.079140 0.996297
-0.69999999 12.02000046 -0.14000000 141 126 122 0.000000 0.000000 0.000000 0.000000 0.000000 0.000000 152.000000 -0.162089 -0.106028 0.981063
-0.68000001 12.01000023 -0.15000001 141 126 122 0.000000 0.000000 0.000000 0.000000 0.000000 0.000000 152.000000 0.468476 -0.082508 0.879615
-0.68000001 11.98999977 -0.15000001 141 126 122 0.000000 0.000000 0.000000 0.000000 0.000000 0.000000 152.000000 0.353137 0.484165 0.800549
-0.68000001 12.01000023 -0.14000000 141 126 122 0.000000 0.000000 0.000000 0.000000 0.000000 0.000000 152.000000 0.438413 0.084363 0.894805
-0.69000000 11.97999954 -0.13000000 141 126 122 0.000000 0.000000 0.000000 0.000000 0.000000 0.000000 152.000000 0.118045 0.459380 0.880361
-0.69000000 12.00000000 -0.14000000 141 126 122 0.000000 0.000000 0.000000 0.000000 0.000000 0.000000 152.000000 0.201213 0.203878 0.958095
-0.70999998 11.97000027 -0.13000000 141 126 122 0.000000 0.000000 0.000000 0.000000 0.000000 0.000000 152.000000 -0.016413 0.332049 0.943119
-0.69000000 12.01000023 -0.15000001 141 126 122 0.000000 0.000000 0.000000 0.000000 0.000000 0.000000 152.000000 0.185733 0.113434 0.976031
-0.69000000 11.98999977 -0.14000000 141 126 122 0.000000 0.000000 0.000000 0.000000 0.000000 0.000000 152.000000 0.245686 0.471535 0.846932
-0.73000002 12.05000019 -0.12000000 141 126 122 0.000000 0.000000 0.000000 0.000000 0.000000 0.000000 152.000000 0.187769 0.089589 0.978119
-0.73000002 12.02999973 -0.13000000 141 126 122 0.000000 0.000000 0.000000 0.000000 0.000000 0.000000 152.000000 0.280580 0.073028 0.957048
-0.74000001 12.02000046 -0.13000000 141 126 122 0.000000 0.000000 0.000000 0.000000 0.000000 0.000000 152.000000 -0.143746 -0.064277 0.987525
-0.75999999 12.02000046 -0.13000000 141 126 122 0.000000 0.000000 0.000000 0.000000 0.000000 0.000000 152.000000 -0.211741 -0.214439 0.953510
-0.72000003 12.02999973 -0.13000000 141 126 122 0.000000 0.000000 0.000000 0.000000 0.000000 0.000000 152.000000 0.245820 0.066134 0.967057
-0.74000001 12.02000046 -0.13000000 141 126 122 0.000000 0.000000 0.000000 0.000000 0.000000 0.000000 152.000000 -0.143746 -0.064277 0.987525
-0.74000001 12.02000046 -0.14000000 141 126 122 0.000000 0.000000 0.000000 0.000000 0.000000 0.000000 152.000000 -0.109806 0.483433 0.868467
-0.73000002 12.02999973 -0.16000000 141 126 122 0.000000 0.000000 0.000000 0.000000 0.000000 0.000000 152.000000 -0.204589 -0.109198 0.972738
-0.73000002 12.01000023 -0.13000000 141 126 122 0.000000 0.000000 0.000000 0.000000 0.000000 0.000000 152.000000 0.192799 0.036667 0.980553
-0.73000002 12.01000023 -0.13000000 141 126 122 0.000000 0.000000 0.000000 0.000000 0.000000 0.000000 152.000000 0.192799 0.036667 0.980553
-0.75000000 12.01000023 -0.11000000 141 126 122 0.000000 0.000000 0.000000 0.000000 0.000000 0.000000 152.000000 -0.175871 0.048394 0.983223
-0.74000001 11.97999954 -0.11000000 141 126 122 0.000000 0.000000 0.000000 0.000000 0.000000 0.000000 152.000000 0.008548 0.284535 0.958627
-0.75999999 12.01000023 -0.12000000 141 126 122 0.000000 0.000000 0.000000 0.000000 0.000000 0.000000 152.000000 -0.363292 0.382002 0.849761
-0.72000003 12.01000023 -0.13000000 141 126 122 0.000000 0.000000 0.000000 0.000000 0.000000 0.000000 152.000000 0.346907 -0.081078 0.934389
-0.75000000 11.98999977 -0.13000000 141 126 122 0.000000 0.000000 0.000000 0.000000 0.000000 0.000000 152.000000 -0.244946 0.273264 0.930230
-0.75000000 11.97999954 -0.11000000 141 126 122 0.000000 0.000000 0.000000 0.000000 0.000000 0.000000 152.000000 0.211852 0.115440 0.970460
-0.68000001 11.93000031 -0.04000000 141 126 122 0.000000 0.000000 0.000000 0.000000 0.000000 0.000000 152.000000 0.092979 -0.299890 0.949432
-0.69999999 11.94999981 -0.10000000 141 126 122 0.000000 0.000000 0.000000 0.000000 0.000000 0.000000 152.000000 0.208590 0.134368 0.968729
-0.68000001 11.89999962 -0.03000000 141 126 122 0.000000 0.000000 0.000000 0.000000 0.000000 0.000000 152.000000 0.435651 0.242698 0.866779
-0.70999998 11.89999962 -0.10000000 141 126 122 0.000000 0.000000 0.000000 0.000000 0.000000 0.000000 152.000000 -0.167961 0.357093 0.918844
-0.75999999 11.94999981 -0.10000000 141 126 122 0.000000 0.000000 0.000000 0.000000 0.000000 0.000000 152.000000 -0.180518 0.496799 0.848884
-0.74000001 11.93000031 -0.10000000 141 126 122 0.000000 0.000000 0.000000 0.000000 0.000000 0.000000 152.000000 -0.415916 0.017057 0.909243
-0.75000000 11.93000031 -0.10000000 141 126 122 0.000000 0.000000 0.000000 0.000000 0.000000 0.000000 152.000000 0.265435 0.072391 0.961407
-0.74000001 11.92000008 -0.10000000 141 126 122 0.000000 0.000000 0.000000 0.000000 0.000000 0.000000 152.000000 -0.129944 0.222577 0.966216
-0.74000001 11.89000034 -0.09000000 141 126 122 0.000000 0.000000 0.000000 0.000000 0.000000 0.000000 152.000000 -0.188534 -0.132860 0.973038
-0.73000002 11.89000034 -0.09000000 141 126 122 0.000000 0.000000 0.000000 0.000000 0.000000 0.000000 152.000000 -0.270921 -0.023292 0.962320
-0.69000000 11.93000031 -0.11000000 141 126 122 0.000000 0.000000 0.000000 0.000000 0.000000 0.000000 152.000000 0.459677 0.357880 0.812785
-0.68000001 11.94999981 -0.13000000 141 126 122 0.000000 0.000000 0.000000 0.000000 0.000000 0.000000 152.000000 0.576473 0.221007 0.786661
-0.70999998 11.92000008 -0.11000000 141 126 122 0.000000 0.000000 0.000000 0.000000 0.000000 0.000000 152.000000 0.122702 -0.037148 0.991748
-0.72000003 11.94999981 -0.12000000 141 126 122 0.000000 0.000000 0.000000 0.000000 0.000000 0.000000 152.000000 0.180918 0.099689 0.978433
-0.73000002 11.96000004 -0.11000000 141 126 122 0.000000 0.000000 0.000000 0.000000 0.000000 0.000000 152.000000 -0.151130 0.202798 0.967488
-0.75999999 11.89999962 -0.11000000 141 126 122 0.000000 0.000000 0.000000 0.000000 0.000000 0.000000 152.000000 -0.473062 0.298201 0.829029
-0.79000002 12.92000008 0.03000000 141 126 122 0.000000 0.000000 0.000000 0.000000 0.000000 0.000000 157.000000 -0.211678 -0.064849 0.975186
-0.87000000 12.97000027 -0.10000000 141 126 122 0.000000 0.000000 0.000000 0.000000 0.000000 0.000000 157.000000 0.635799 -0.175340 -0.751676
-0.86000001 12.94999981 -0.09000000 141 126 122 0.000000 0.000000 0.000000 0.000000 0.000000 0.000000 157.000000 -0.283174 0.339512 0.896964
-0.88999999 12.92000008 -0.07000000 141 126 122 0.000000 0.000000 0.000000 0.000000 0.000000 0.000000 157.000000 -0.274854 -0.051457 0.960108
-0.88999999 12.93000031 -0.10000000 141 126 122 0.000000 0.000000 0.000000 0.000000 0.000000 0.000000 157.000000 -0.478480 0.429489 0.765895
-0.88999999 12.92000008 -0.08000000 141 126 122 0.000000 0.000000 0.000000 0.000000 0.000000 0.000000 157.000000 0.654955 -0.409554 -0.635058
-1.09000003 13.19999981 0.01000000 141 126 122 0.000000 0.000000 0.000000 0.000000 0.000000 0.000000 157.000000 -0.627308 -0.233090 0.743071
-1.10000002 13.11999989 -0.08000000 141 126 122 0.000000 0.000000 0.000000 0.000000 0.000000 0.000000 157.000000 0.692878 -0.355448 -0.627357
-1.01999998 13.00000000 -0.07000000 141 126 122 0.000000 0.000000 0.000000 0.000000 0.000000 0.000000 157.000000 0.688060 0.035321 -0.724794
-1.01999998 13.00000000 -0.09000000 141 126 122 0.000000 0.000000 0.000000 0.000000 0.000000 0.000000 157.000000 0.579129 0.066877 -0.812488
-1.01999998 13.00000000 -0.07000000 141 126 122 0.000000 0.000000 0.000000 0.000000 0.000000 0.000000 157.000000 0.688060 0.035321 -0.724794
-1.00999999 13.02000046 -0.06000000 141 126 122 0.000000 0.000000 0.000000 0.000000 0.000000 0.000000 157.000000 -0.400511 0.253507 0.880525
-0.94000000 12.96000004 -0.09000000 141 126 122 0.000000 0.000000 0.000000 0.000000 0.000000 0.000000 157.000000 -0.432294 0.341119 0.834721
-0.97000003 12.92000008 -0.06000000 141 126 122 0.000000 0.000000 0.000000 0.000000 0.000000 0.000000 157.000000 -0.428803 0.239227 0.871148
-0.94000000 12.96000004 -0.12000000 141 126 122 0.000000 0.000000 0.000000 0.000000 0.000000 0.000000 157.000000 -0.484709 0.350335 0.801450
-0.94999999 12.93000031 -0.11000000 141 126 122 0.000000 0.000000 0.000000 0.000000 0.000000 0.000000 157.000000 -0.476713 0.327839 0.815638
-0.99000001 12.92000008 -0.13000000 141 126 122 0.000000 0.000000 0.000000 0.000000 0.000000 0.000000 157.000000 -0.613822 -0.257206 0.746370
-1.00999999 12.93000031 -0.11000000 141 126 122 0.000000 0.000000 0.000000 0.000000 0.000000 0.000000 157.000000 -0.715628 0.064795 0.695470
-1.10000002 13.06000042 -0.07000000 141 126 122 0.000000 0.000000 0.000000 0.000000 0.000000 0.000000 157.000000 0.818426 0.029180 -0.573871
-1.02999997 13.02999973 -0.12000000 141 126 122 0.000000 0.000000 0.000000 0.000000 0.000000 0.000000 157.000000 0.935177 -0.126596 -0.330783
-0.76999998 12.90999985 0.02000000 141 126 122 0.000000 0.000000 0.000000 0.000000 0.000000 0.000000 157.000000 -0.592238 0.252919 0.765040
-0.80000001 12.88000011 0.03000000 141 126 122 0.000000 0.000000 0.000000 0.000000 0.000000 0.000000 157.000000 -0.468131 -0.094189 0.878625
-0.80000001 12.90999985 0.03000000 141 126 122 0.000000 0.000000 0.000000 0.000000 0.000000 0.000000 157.000000 -0.250168 0.030508 0.967722
-0.76999998 12.89999962 0.02000000 141 126 122 0.000000 0.000000 0.000000 0.000000 0.000000 0.000000 157.000000 -0.038484 0.091262 0.995083
-0.80000001 12.89000034 0.02000000 141 126 122 0.000000 0.000000 0.000000 0.000000 0.000000 0.000000 157.000000 -0.315275 0.105092 0.943164
-0.76999998 12.88000011 0.05000000 141 126 122 0.000000 0.000000 0.000000 0.000000 0.000000 0.000000 157.000000 0.040867 0.386259 0.921485
-0.80000001 12.88000011 0.03000000 141 126 122 0.000000 0.000000 0.000000 0.000000 0.000000 0.000000 157.000000 -0.468131 -0.094189 0.878625
-0.79000002 12.89999962 0.03000000 141 126 122 0.000000 0.000000 0.000000 0.000000 0.000000 0.000000 157.000000 0.092732 0.291258 0.952139
-0.79000002 12.88000011 0.04000000 141 126 122 0.000000 0.000000 0.000000 0.000000 0.000000 0.000000 157.000000 -0.563260 0.106248 0.819420
-0.80000001 12.90999985 0.02000000 141 126 122 0.000000 0.000000 0.000000 0.000000 0.000000 0.000000 157.000000 -0.385314 0.114627 0.915638
-0.77999997 12.85000038 0.05000000 141 126 122 0.000000 0.000000 0.000000 0.000000 0.000000 0.000000 157.000000 -0.559573 0.255491 0.788418
-0.77999997 12.86999989 0.05000000 141 126 122 0.000000 0.000000 0.000000 0.000000 0.000000 0.000000 157.000000 -0.221945 0.144069 0.964357
-0.76999998 12.85000038 0.06000000 141 126 122 0.000000 0.000000 0.000000 0.000000 0.000000 0.000000 157.000000 0.048329 0.256513 0.965332
-0.79000002 12.85999966 0.02000000 141 126 122 0.000000 0.000000 0.000000 0.000000 0.000000 0.000000 157.000000 -0.074928 0.077165 0.994199
-0.81000000 12.89999962 0.04000000 141 126 122 0.000000 0.000000 0.000000 0.000000 0.000000 0.000000 157.000000 -0.626864 -0.049751 0.777539
-0.82999998 12.88000011 0.02000000 141 126 122 0.000000 0.000000 0.000000 0.000000 0.000000 0.000000 157.000000 -0.471075 0.109585 0.875260
-0.81000000 12.89000034 0.01000000 141 126 122 0.000000 0.000000 0.000000 0.000000 0.000000 0.000000 157.000000 -0.322963 0.016337 0.946270
-0.81999999 12.84000015 0.05000000 141 126 122 0.000000 0.000000 0.000000 0.000000 0.000000 0.000000 157.000000 -0.156334 0.197679 0.967721
-0.81999999 12.85999966 0.03000000 141 126 122 0.000000 0.000000 0.000000 0.000000 0.000000 0.000000 157.000000 -0.372354 0.165648 0.913188
-0.81000000 12.85999966 0.04000000 141 126 122 0.000000 0.000000 0.000000 0.000000 0.000000 0.000000 157.000000 0.081624 0.294106 0.952281
-0.81000000 12.85999966 0.05000000 141 126 122 0.000000 0.000000 0.000000 0.000000 0.000000 0.000000 157.000000 0.039274 0.305322 0.951439
-0.83999997 12.85999966 -0.02000000 141 126 122 0.000000 0.000000 0.000000 0.000000 0.000000 0.000000 157.000000 -0.217382 0.506211 0.834563
-0.83999997 12.77999973 -0.02000000 141 126 122 0.000000 0.000000 0.000000 0.000000 0.000000 0.000000 157.000000 -0.559373 0.312544 0.767736
-0.87000000 12.80000019 -0.02000000 141 126 122 0.000000 0.000000 0.000000 0.000000 0.000000 0.000000 157.000000 -0.122199 0.269363 0.955254
-0.87000000 12.75000000 -0.01000000 141 126 122 0.000000 0.000000 0.000000 0.000000 0.000000 0.000000 157.000000 -0.487437 0.470914 0.735286
-0.91000003 12.78999996 -0.01000000 141 126 122 0.000000 0.000000 0.000000 0.000000 0.000000 0.000000 157.000000 -0.179437 0.348983 0.919790
-0.93000001 12.77999973 -0.02000000 141 126 122 0.000000 0.000000 0.000000 0.000000 0.000000 0.000000 157.000000 0.825952 -0.143323 -0.545217
-0.82999998 12.86999989 -0.05000000 141 126 122 0.000000 0.000000 0.000000 0.000000 0.000000 0.000000 157.000000 -0.518287 0.381810 0.765245
-0.80000001 12.77999973 -0.04000000 141 126 122 0.000000 0.000000 0.000000 0.000000 0.000000 0.000000 157.000000 -0.347704 0.458842 0.817659
-0.81999999 12.81000042 -0.06000000 141 126 122 0.000000 0.000000 0.000000 0.000000 0.000000 0.000000 157.000000 -0.287519 0.507478 0.812280
-0.88000000 12.90999985 -0.07000000 141 126 122 0.000000 0.000000 0.000000 0.000000 0.000000 0.000000 157.000000 -0.340230 -0.103548 0.934624
-0.88999999 12.90999985 -0.08000000 141 126 122 0.000000 0.000000 0.000000 0.000000 0.000000 0.000000 157.000000 -0.213041 -0.042127 0.976135
-0.88999999 12.82999992 -0.06000000 141 126 122 0.000000 0.000000 0.000000 0.000000 0.000000 0.000000 157.000000 -0.318905 0.189657 0.928617
-0.88999999 12.82999992 -0.06000000 141 126 122 0.000000 0.000000 0.000000 0.000000 0.000000 0.000000 157.000000 -0.318905 0.189657 0.928617
-0.87000000 12.82999992 -0.05000000 141 126 122 0.000000 0.000000 0.000000 0.000000 0.000000 0.000000 157.000000 -0.567555 0.100157 0.817221
-0.87000000 12.85999966 -0.08000000 141 126 122 0.000000 0.000000 0.000000 0.000000 0.000000 0.000000 157.000000 -0.558767 -0.009563 0.829270
-0.87000000 12.85999966 -0.07000000 141 126 122 0.000000 0.000000 0.000000 0.000000 0.000000 0.000000 157.000000 -0.334938 0.206664 0.919297
-0.86000001 12.85000038 -0.08000000 141 126 122 0.000000 0.000000 0.000000 0.000000 0.000000 0.000000 157.000000 0.579996 -0.462994 -0.670255
-0.88999999 12.85999966 -0.07000000 141 126 122 0.000000 0.000000 0.000000 0.000000 0.000000 0.000000 157.000000 -0.217918 0.378796 0.899458
-0.93000001 12.90999985 -0.08000000 141 126 122 0.000000 0.000000 0.000000 0.000000 0.000000 0.000000 157.000000 -0.499287 0.230557 0.835198
-0.91000003 12.84000015 -0.05000000 141 126 122 0.000000 0.000000 0.000000 0.000000 0.000000 0.000000 157.000000 -0.274845 0.327756 0.903901
-0.92000002 12.82999992 -0.06000000 141 126 122 0.000000 0.000000 0.000000 0.000000 0.000000 0.000000 157.000000 0.769543 0.085828 -0.632800
-0.89999998 12.85000038 -0.03000000 141 126 122 0.000000 0.000000 0.000000 0.000000 0.000000 0.000000 157.000000 0.698626 0.086052 -0.710294
-0.89999998 12.84000015 -0.07000000 141 126 122 0.000000 0.000000 0.000000 0.000000 0.000000 0.000000 157.000000 -0.329985 0.245672 0.911458
-0.92000002 12.85000038 -0.08000000 141 126 122 0.000000 0.000000 0.000000 0.000000 0.000000 0.000000 157.000000 -0.449727 0.401369 0.797903
-0.92000002 12.82999992 -0.07000000 141 126 122 0.000000 0.000000 0.000000 0.000000 0.000000 0.000000 157.000000 0.782269 -0.234836 -0.576982
-0.88999999 12.80000019 -0.06000000 141 126 122 0.000000 0.000000 0.000000 0.000000 0.000000 0.000000 157.000000 -0.285940 0.246108 0.926104
-0.87000000 12.81999969 -0.03000000 141 126 122 0.000000 0.000000 0.000000 0.000000 0.000000 0.000000 157.000000 -0.173213 0.276867 0.945168
-0.86000001 12.77999973 -0.05000000 141 126 122 0.000000 0.000000 0.000000 0.000000 0.000000 0.000000 157.000000 -0.269814 0.470248 0.840278
-0.89999998 12.78999996 -0.04000000 141 126 122 0.000000 0.000000 0.000000 0.000000 0.000000 0.000000 157.000000 -0.658519 0.139504 0.739521
-0.92000002 12.81999969 -0.05000000 141 126 122 0.000000 0.000000 0.000000 0.000000 0.000000 0.000000 157.000000 -0.594308 0.122401 0.794869
-0.89999998 12.81999969 -0.07000000 141 126 122 0.000000 0.000000 0.000000 0.000000 0.000000 0.000000 157.000000 -0.345141 0.240288 0.907270
-0.93000001 12.77000046 -0.05000000 141 126 122 0.000000 0.000000 0.000000 0.000000 0.000000 0.000000 157.000000 0.615893 -0.212538 -0.758619
-0.93000001 12.76000023 -0.04000000 141 126 122 0.000000 0.000000 0.000000 0.000000 0.000000 0.000000 157.000000 -0.509184 0.385548 0.769470
-0.83999997 12.67000008 0.00000000 141 126 122 0.000000 0.000000 0.000000 0.000000 0.000000 0.000000 157.000000 -0.345901 -0.227224 0.910342
-0.76999998 12.56999969 0.03000000 141 126 122 0.000000 0.000000 0.000000 0.000000 0.000000 0.000000 157.000000 -0.206319 -0.085246 0.974764
-0.80000001 12.60000038 -0.01000000 141 126 122 0.000000 0.000000 0.000000 0.000000 0.000000 0.000000 157.000000 -0.052396 -0.043842 0.997664
-0.80000001 12.56999969 0.00000000 141 126 122 0.000000 0.000000 0.000000 0.000000 0.000000 0.000000 157.000000 -0.312924 -0.176628 0.933210
-0.81999999 12.61999989 0.01000000 141 126 122 0.000000 0.000000 0.000000 0.000000 0.000000 0.000000 157.000000 -0.447678 -0.017269 0.894028
-0.82999998 12.57999992 0.00000000 141 126 122 0.000000 0.000000 0.000000 0.000000 0.000000 0.000000 157.000000 -0.022437 0.075860 0.996866
-0.81999999 12.56999969 -0.02000000 141 126 122 0.000000 0.000000 0.000000 0.000000 0.000000 0.000000 157.000000 -0.214490 0.067411 0.974397
-0.83999997 12.56999969 0.00000000 141 126 122 0.000000 0.000000 0.000000 0.000000 0.000000 0.000000 157.000000 -0.118740 -0.072627 0.990266
-0.81000000 12.56999969 0.01000000 141 126 122 0.000000 0.000000 0.000000 0.000000 0.000000 0.000000 157.000000 -0.299891 0.308755 0.902627
-0.81000000 12.59000015 -0.02000000 141 126 122 0.000000 0.000000 0.000000 0.000000 0.000000 0.000000 157.000000 0.605267 0.032150 -0.795373
-0.88000000 12.57999992 0.00000000 141 126 122 0.000000 0.000000 0.000000 0.000000 0.000000 0.000000 157.000000 -0.429531 0.084249 0.899114
-0.88000000 12.57999992 -0.01000000 141 126 122 0.000000 0.000000 0.000000 0.000000 0.000000 0.000000 157.000000 -0.474116 -0.201911 0.856998
-0.85000002 12.60000038 0.01000000 141 126 122 0.000000 0.000000 0.000000 0.000000 0.000000 0.000000 157.000000 -0.123819 0.248941 0.960571
-0.86000001 12.56999969 0.01000000 141 126 122 0.000000 0.000000 0.000000 0.000000 0.000000 0.000000 157.000000 0.642294 0.152639 -0.751106
-0.88999999 12.57999992 -0.01000000 141 126 122 0.000000 0.000000 0.000000 0.000000 0.000000 0.000000 157.000000 -0.484913 -0.216020 0.847464
-0.87000000 12.56999969 0.00000000 141 126 122 0.000000 0.000000 0.000000 0.000000 0.000000 0.000000 157.000000 -0.158945 0.060046 0.985460
-0.85000002 12.59000015 0.01000000 141 126 122 0.000000 0.000000 0.000000 0.000000 0.000000 0.000000 157.000000 -0.115114 0.087208 0.989517
-0.86000001 12.56999969 -0.01000000 141 126 122 0.000000 0.000000 0.000000 0.000000 0.000000 0.000000 157.000000 -0.536915 -0.253673 0.804594
-0.93000001 12.69999981 -0.06000000 141 126 122 0.000000 0.000000 0.000000 0.000000 0.000000 0.000000 157.000000 0.742135 0.209161 -0.636779
-0.89999998 12.73999977 -0.06000000 141 126 122 0.000000 0.000000 0.000000 0.000000 0.000000 0.000000 157.000000 0.719428 -0.139680 -0.680377
-0.93000001 12.65999985 -0.05000000 141 126 122 0.000000 0.000000 0.000000 0.000000 0.000000 0.000000 157.000000 -0.523283 -0.212059 0.825352
-0.88999999 12.63000011 -0.03000000 141 126 122 0.000000 0.000000 0.000000 0.000000 0.000000 0.000000 157.000000 0.740862 0.006924 -0.671622
-0.88000000 12.56999969 -0.03000000 141 126 122 0.000000 0.000000 0.000000 0.000000 0.000000 0.000000 157.000000 -0.567506 -0.004083 0.823359
-0.91000003 12.64999962 -0.03000000 141 126 122 0.000000 0.000000 0.000000 0.000000 0.000000 0.000000 157.000000 0.741480 0.178873 -0.646693
-0.91000003 12.57999992 -0.05000000 141 126 122 0.000000 0.000000 0.000000 0.000000 0.000000 0.000000 157.000000 -0.622027 0.082647 0.778622
-0.93000001 12.57999992 -0.04000000 141 126 122 0.000000 0.000000 0.000000 0.000000 0.000000 0.000000 157.000000 -0.259673 -0.001197 0.965696
-0.91000003 12.56999969 -0.04000000 141 126 122 0.000000 0.000000 0.000000 0.000000 0.000000 0.000000 157.000000 -0.493103 -0.006682 0.869945
-0.89999998 12.59000015 -0.04000000 141 126 122 0.000000 0.000000 0.000000 0.000000 0.000000 0.000000 157.000000 -0.175594 -0.001133 0.984462
-0.89999998 12.56999969 -0.04000000 141 126 122 0.000000 0.000000 0.000000 0.000000 0.000000 0.000000 157.000000 -0.480963 0.119164 0.868605
-0.92000002 12.60999966 -0.07000000 141 126 122 0.000000 0.000000 0.000000 0.000000 0.000000 0.000000 157.000000 -0.562521 0.017880 0.826590
-0.92000002 12.60999966 -0.07000000 141 126 122 0.000000 0.000000 0.000000 0.000000 0.000000 0.000000 157.000000 -0.562521 0.017880 0.826590
-0.97000003 12.89000034 -0.09000000 141 126 122 0.000000 0.000000 0.000000 0.000000 0.000000 0.000000 157.000000 -0.448166 -0.155190 0.880377
-0.94999999 12.89999962 -0.10000000 141 126 122 0.000000 0.000000 0.000000 0.000000 0.000000 0.000000 157.000000 -0.489430 0.404877 0.772356
-0.94999999 12.90999985 -0.10000000 141 126 122 0.000000 0.000000 0.000000 0.000000 0.000000 0.000000 157.000000 -0.406713 0.011695 0.913481
-0.95999998 12.84000015 -0.07000000 141 126 122 0.000000 0.000000 0.000000 0.000000 0.000000 0.000000 157.000000 0.670035 -0.392095 -0.630329
-0.98000002 12.85999966 -0.09000000 141 126 122 0.000000 0.000000 0.000000 0.000000 0.000000 0.000000 157.000000 -0.559752 0.109043 0.821454
-0.99000001 12.84000015 -0.10000000 141 126 122 0.000000 0.000000 0.000000 0.000000 0.000000 0.000000 157.000000 0.634699 -0.377522 -0.674265
-0.99000001 12.85999966 -0.10000000 141 126 122 0.000000 0.000000 0.000000 0.000000 0.000000 0.000000 157.000000 -0.411057 0.006484 0.911587
-0.95999998 12.89999962 -0.11000000 141 126 122 0.000000 0.000000 0.000000 0.000000 0.000000 0.000000 157.000000 0.808235 0.206260 -0.551555
-1.01999998 12.90999985 -0.12000000 141 126 122 0.000000 0.000000 0.000000 0.000000 0.000000 0.000000 157.000000 0.684411 -0.275998 -0.674839
-1.00999999 12.90999985 -0.11000000 141 126 122 0.000000 0.000000 0.000000 0.000000 0.000000 0.000000 157.000000 0.763397 -0.263949 -0.589539
-0.99000001 12.85999966 -0.11000000 141 126 122 0.000000 0.000000 0.000000 0.000000 0.000000 0.000000 157.000000 -0.466829 -0.036534 0.883592
-0.98000002 12.85000038 -0.11000000 141 126 122 0.000000 0.000000 0.000000 0.000000 0.000000 0.000000 157.000000 0.843066 -0.392597 -0.367570
-1.01999998 12.85000038 -0.11000000 141 126 122 0.000000 0.000000 0.000000 0.000000 0.000000 0.000000 157.000000 -0.582197 0.183932 0.791970
-1.00000000 12.77000046 -0.08000000 141 126 122 0.000000 0.000000 0.000000 0.000000 0.000000 0.000000 157.000000 -0.496847 0.272565 0.823925
-1.00999999 12.75000000 -0.09000000 141 126 122 0.000000 0.000000 0.000000 0.000000 0.000000 0.000000 157.000000 0.917790 -0.105635 -0.382756
-1.00000000 12.77000046 -0.08000000 141 126 122 0.000000 0.000000 0.000000 0.000000 0.000000 0.000000 157.000000 -0.496847 0.272565 0.823925
-1.09000003 12.88000011 -0.12000000 141 126 122 0.000000 0.000000 0.000000 0.000000 0.000000 0.000000 157.000000 -0.622814 -0.202453 0.755722
-0.94999999 12.69999981 -0.07000000 141 126 122 0.000000 0.000000 0.000000 0.000000 0.000000 0.000000 157.000000 0.806724 -0.186868 -0.560604
-0.95999998 12.67000008 -0.06000000 141 126 122 0.000000 0.000000 0.000000 0.000000 0.000000 0.000000 157.000000 0.761545 -0.158971 -0.628313
-0.94000000 12.65999985 -0.07000000 141 126 122 0.000000 0.000000 0.000000 0.000000 0.000000 0.000000 157.000000 0.766547 -0.098200 -0.634636
-1.01999998 12.72000027 -0.10000000 141 126 122 0.000000 0.000000 0.000000 0.000000 0.000000 0.000000 157.000000 0.758017 0.205328 -0.619073
-0.98000002 12.73999977 -0.09000000 141 126 122 0.000000 0.000000 0.000000 0.000000 0.000000 0.000000 157.000000 0.809831 0.109437 -0.576366
-1.00999999 12.72999954 -0.10000000 141 126 122 0.000000 0.000000 0.000000 0.000000 0.000000 0.000000 157.000000 -0.654939 0.129794 0.744452
-1.00999999 12.73999977 -0.09000000 141 126 122 0.000000 0.000000 0.000000 0.000000 0.000000 0.000000 157.000000 0.757579 0.089041 -0.646642
-1.00000000 12.65999985 -0.08000000 141 126 122 0.000000 0.000000 0.000000 0.000000 0.000000 0.000000 157.000000 0.826252 0.012332 -0.563166
-1.00000000 12.68000031 -0.09000000 141 126 122 0.000000 0.000000 0.000000 0.000000 0.000000 0.000000 157.000000 0.837491 0.023378 -0.545951
-1.00000000 12.68000031 -0.10000000 141 126 122 0.000000 0.000000 0.000000 0.000000 0.000000 0.000000 157.000000 0.847508 0.248908 -0.468802
-1.00000000 12.68000031 -0.10000000 141 126 122 0.000000 0.000000 0.000000 0.000000 0.000000 0.000000 157.000000 0.847508 0.248908 -0.468802
-0.94000000 12.63000011 -0.06000000 141 126 122 0.000000 0.000000 0.000000 0.000000 0.000000 0.000000 157.000000 -0.745638 0.404775 0.529321
-0.94000000 12.63000011 -0.06000000 141 126 122 0.000000 0.000000 0.000000 0.000000 0.000000 0.000000 157.000000 -0.745638 0.404775 0.529321
-0.95999998 12.61999989 -0.07000000 141 126 122 0.000000 0.000000 0.000000 0.000000 0.000000 0.000000 157.000000 -0.480891 -0.047952 0.875468
-0.95999998 12.61999989 -0.08000000 141 126 122 0.000000 0.000000 0.000000 0.000000 0.000000 0.000000 157.000000 0.854062 0.098711 -0.510720
-0.94000000 12.64999962 -0.10000000 141 126 122 0.000000 0.000000 0.000000 0.000000 0.000000 0.000000 157.000000 0.781882 0.167870 -0.600400
-0.95999998 12.63000011 -0.08000000 141 126 122 0.000000 0.000000 0.000000 0.000000 0.000000 0.000000 157.000000 0.768690 -0.218960 -0.600976
-0.95999998 12.61999989 -0.07000000 141 126 122 0.000000 0.000000 0.000000 0.000000 0.000000 0.000000 157.000000 -0.480891 -0.047952 0.875468
-0.94000000 12.57999992 -0.04000000 141 126 122 0.000000 0.000000 0.000000 0.000000 0.000000 0.000000 157.000000 0.759012 0.085953 -0.645378
-0.94000000 12.57999992 -0.04000000 141 126 122 0.000000 0.000000 0.000000 0.000000 0.000000 0.000000 157.000000 0.759012 0.085953 -0.645378
-0.94999999 12.57999992 -0.05000000 141 126 122 0.000000 0.000000 0.000000 0.000000 0.000000 0.000000 157.000000 0.840968 -0.296904 -0.452351
-0.94000000 12.57999992 -0.06000000 141 126 122 0.000000 0.000000 0.000000 0.000000 0.000000 0.000000 157.000000 -0.374721 -0.054288 0.925547
-0.94000000 12.60000038 -0.04000000 141 126 122 0.000000 0.000000 0.000000 0.000000 0.000000 0.000000 157.000000 -0.423244 0.078074 0.902646
