//X Y Z R G B PointSourceId ScanDirectionFlag NumberOfReturns ReturnNumber GpsTime Intensity Classification Nx Ny Nz
0.99000001 1.94000006 -0.41000000 219 120 86 97.000000 1.000000 4.000000 1.000000 176.000000 114.000000 227.000000 0.031818 0.554739 0.831416
0.95999998 1.92999995 -0.46000001 219 120 86 97.000000 1.000000 4.000000 1.000000 176.000000 114.000000 227.000000 0.264091 0.593020 0.760647
0.98000002 2.10999990 -0.82999998 219 120 86 97.000000 1.000000 4.000000 1.000000 176.000000 114.000000 227.000000 0.327432 0.566150 0.756480
0.95999998 2.08999991 -0.81999999 219 120 86 97.000000 1.000000 4.000000 1.000000 176.000000 114.000000 227.000000 0.382358 0.566153 0.730255
1.13000000 1.76999998 -0.47999999 219 120 86 97.000000 1.000000 4.000000 1.000000 176.000000 114.000000 227.000000 0.171117 0.598153 0.782899
1.14999998 1.72000003 -0.47999999 219 120 86 97.000000 1.000000 4.000000 1.000000 176.000000 114.000000 227.000000 0.035226 0.649575 0.759481
1.13999999 1.67999995 -0.47999999 219 120 86 97.000000 1.000000 4.000000 1.000000 176.000000 114.000000 227.000000 0.104194 0.172839 0.979423
1.13999999 1.63000000 -0.52999997 219 120 86 97.000000 1.000000 4.000000 1.000000 176.000000 114.000000 227.000000 -0.014935 0.520018 0.854025
1.02999997 1.88999999 -0.20999999 219 120 86 97.000000 1.000000 4.000000 1.000000 176.000000 114.000000 227.000000 0.098398 0.653540 0.750469
1.03999996 1.89999998 -0.23999999 219 120 86 97.000000 1.000000 4.000000 1.000000 176.000000 114.000000 227.000000 -0.464637 0.276313 0.841287
1.12000000 1.89999998 -0.43000001 219 120 86 97.000000 1.000000 4.000000 1.000000 176.000000 114.000000 227.000000 -0.276465 0.656805 0.701551
1.11000001 1.86000001 -0.43000001 219 120 86 97.000000 1.000000 4.000000 1.000000 176.000000 114.000000 227.000000 0.011300 0.332733 0.942953
1.11000001 1.87000000 -0.43000001 219 120 86 97.000000 1.000000 4.000000 1.000000 176.000000 114.000000 227.000000 0.103916 0.613248 0.783025
1.08000004 1.86000001 -0.43000001 219 120 86 97.000000 1.000000 4.000000 1.000000 176.000000 114.000000 227.000000 0.248298 0.566870 0.785497
1.09000003 1.76999998 -0.46000001 219 120 86 97.000000 1.000000 4.000000 1.000000 176.000000 114.000000 227.000000 0.113604 0.191004 0.974993
1.02999997 1.88999999 -0.44000000 219 120 86 97.000000 1.000000 4.000000 1.000000 176.000000 114.000000 227.000000 0.132722 0.762036 0.633787
1.02999997 1.86000001 -0.44000000 219 120 86 97.000000 1.000000 4.000000 1.000000 176.000000 114.000000 227.000000 -0.045362 0.490735 0.870127
1.02999997 1.86000001 -0.44000000 219 120 86 97.000000 1.000000 4.000000 1.000000 176.000000 114.000000 227.000000 -0.045362 0.490735 0.870127
0.95999998 1.88000000 -0.40000001 219 120 86 97.000000 1.000000 4.000000 1.000000 176.000000 114.000000 227.000000 0.273083 0.569844 0.775051
0.97000003 1.84000003 -0.40000001 219 120 86 97.000000 1.000000 4.000000 1.000000 176.000000 114.000000 227.000000 0.144446 0.334290 0.931335
0.98000002 1.84000003 -0.40000001 219 120 86 97.000000 1.000000 4.000000 1.000000 176.000000 114.000000 227.000000 -0.516311 0.316141 0.795913
0.98000002 1.83000004 -0.43000001 219 120 86 97.000000 1.000000 4.000000 1.000000 176.000000 114.000000 227.000000 0.244676 0.497046 0.832514
0.98000002 1.85000002 -0.41000000 219 120 86 97.000000 1.000000 4.000000 1.000000 176.000000 114.000000 227.000000 -0.020422 0.515989 0.856352
1.02999997 1.82000005 -0.38000000 219 120 86 97.000000 1.000000 4.000000 1.000000 176.000000 114.000000 227.000000 -0.295808 0.441389 0.847156
1.03999996 1.75000000 -0.46000001 219 120 86 97.000000 1.000000 4.000000 1.000000 176.000000 114.000000 227.000000 -0.401978 0.232881 0.885539
1.05999994 1.66999996 -0.44000000 219 120 86 97.000000 1.000000 4.000000 1.000000 176.000000 114.000000 227.000000 -0.276970 0.508561 0.815263
1.05999994 1.65999997 -0.44000000 219 120 86 97.000000 1.000000 4.000000 1.000000 176.000000 114.000000 227.000000 -0.184815 0.597212 0.780500
1.10000002 1.70000005 -0.47000000 219 120 86 97.000000 1.000000 4.000000 1.000000 176.000000 114.000000 227.000000 -0.472734 0.149820 0.868376
1.08000004 1.73000002 -0.47000000 219 120 86 97.000000 1.000000 4.000000 1.000000 176.000000 114.000000 227.000000 0.124850 0.475005 0.871081
1.10000002 1.63000000 -0.50999999 219 120 86 97.000000 1.000000 4.000000 1.000000 176.000000 114.000000 227.000000 -0.109887 0.210933 0.971304
1.02999997 1.65999997 -0.44000000 219 120 86 97.000000 1.000000 4.000000 1.000000 176.000000 114.000000 227.000000 0.110277 0.496964 0.860736
1.23000002 1.65999997 -0.69000000 219 120 86 97.000000 1.000000 4.000000 1.000000 176.000000 114.000000 227.000000 -0.282509 0.329840 0.900774
1.23000002 1.65999997 -0.69000000 219 120 86 97.000000 1.000000 4.000000 1.000000 176.000000 114.000000 227.000000 -0.282509 0.329840 0.900774
1.25999999 1.65999997 -0.68000001 219 120 86 97.000000 1.000000 4.000000 1.000000 176.000000 114.000000 227.000000 -0.255724 0.304846 0.917428
1.28999996 1.59000003 -0.63000000 219 120 86 97.000000 1.000000 4.000000 1.000000 176.000000 114.000000 227.000000 -0.269837 0.393450 0.878855
1.26999998 1.59000003 -0.63999999 219 120 86 97.000000 1.000000 4.000000 1.000000 176.000000 114.000000 227.000000 -0.210363 0.404543 0.889996
1.25999999 1.61000001 -0.66000003 219 120 86 97.000000 1.000000 4.000000 1.000000 176.000000 114.000000 227.000000 -0.107019 0.793113 0.599599
1.23000002 1.62000000 -0.63999999 219 120 86 97.000000 1.000000 4.000000 1.000000 176.000000 114.000000 227.000000 -0.216499 0.668186 0.711797
1.23000002 1.63999999 -0.70999998 219 120 86 97.000000 1.000000 4.000000 1.000000 176.000000 114.000000 227.000000 -0.171507 0.367109 0.914230
1.25000000 1.62000000 -0.68000001 219 120 86 97.000000 1.000000 4.000000 1.000000 176.000000 114.000000 227.000000 -0.037882 0.593491 0.803949
1.23000002 1.63999999 -0.70999998 219 120 86 97.000000 1.000000 4.000000 1.000000 176.000000 114.000000 227.000000 -0.171507 0.367109 0.914230
1.22000003 1.62000000 -0.67000002 219 120 86 97.000000 1.000000 4.000000 1.000000 176.000000 114.000000 227.000000 -0.120753 0.525205 0.842365
1.22000003 1.58000004 -0.66000003 219 120 86 97.000000 1.000000 4.000000 1.000000 176.000000 114.000000 227.000000 -0.471354 0.259475 0.842910
1.23000002 1.59000003 -0.70999998 219 120 86 97.000000 1.000000 4.000000 1.000000 176.000000 114.000000 227.000000 0.309535 0.327479 0.892718
1.13999999 1.62000000 -0.56999999 219 120 86 97.000000 1.000000 4.000000 1.000000 176.000000 114.000000 227.000000 -0.126229 0.628173 0.767767
1.16999996 1.63999999 -0.60000002 219 120 86 97.000000 1.000000 4.000000 1.000000 176.000000 114.000000 227.000000 -0.522693 0.401441 0.752088
1.15999997 1.59000003 -0.60000002 219 120 86 97.000000 1.000000 4.000000 1.000000 176.000000 114.000000 227.000000 0.212356 0.480437 0.850932
1.21000004 1.64999998 -0.68000001 219 120 86 97.000000 1.000000 4.000000 1.000000 176.000000 114.000000 227.000000 0.186582 0.553680 0.811558
1.20000005 1.63000000 -0.69999999 219 120 86 97.000000 1.000000 4.000000 1.000000 176.000000 114.000000 227.000000 -0.160484 0.186162 0.969324
1.20000005 1.61000001 -0.63999999 219 120 86 97.000000 1.000000 4.000000 1.000000 176.000000 114.000000 227.000000 -0.086927 0.522988 0.847896
1.19000006 1.61000001 -0.70999998 219 120 86 97.000000 1.000000 4.000000 1.000000 176.000000 114.000000 227.000000 -0.003925 0.433025 0.901373
1.17999995 1.60000002 -0.68000001 219 120 86 97.000000 1.000000 4.000000 1.000000 176.000000 114.000000 227.000000 -0.492223 0.357543 0.793649
1.15999997 1.59000003 -0.68000001 219 120 86 97.000000 1.000000 4.000000 1.000000 176.000000 114.000000 227.000000 -0.049789 0.650101 0.758215
1.13999999 1.59000003 -0.69999999 219 120 86 97.000000 1.000000 4.000000 1.000000 176.000000 114.000000 227.000000 0.129360 0.510173 0.850288
1.25999999 1.67999995 -0.73000002 219 120 86 97.000000 1.000000 4.000000 1.000000 176.000000 114.000000 227.000000 -0.152979 0.725515 0.670988
1.25999999 1.58000004 -0.82999998 219 120 86 97.000000 1.000000 4.000000 1.000000 176.000000 114.000000 227.000000 -0.310934 0.313909 0.897096
1.25999999 1.58000004 -0.82999998 219 120 86 97.000000 1.000000 4.000000 1.000000 176.000000 114.000000 227.000000 -0.310934 0.313909 0.897096
1.22000003 1.64999998 -0.82999998 219 120 86 97.000000 1.000000 4.000000 1.000000 176.000000 114.000000 227.000000 0.099528 0.540913 0.835169
1.25000000 1.63999999 -0.81999999 219 120 86 97.000000 1.000000 4.000000 1.000000 176.000000 114.000000 227.000000 0.142014 0.443255 0.885075
1.23000002 1.59000003 -0.80000001 219 120 86 97.000000 1.000000 4.000000 1.000000 176.000000 114.000000 227.000000 -0.273673 0.344679 0.897942
1.25000000 1.60000002 -0.85000002 219 120 86 97.000000 1.000000 4.000000 1.000000 176.000000 114.000000 227.000000 0.091100 0.805436 0.585640
1.25000000 1.58000004 -0.83999997 219 120 86 97.000000 1.000000 4.000000 1.000000 176.000000 114.000000 227.000000 -0.139371 0.264142 0.954361
1.19000006 1.63999999 -0.75000000 219 120 86 97.000000 1.000000 4.000000 1.000000 176.000000 114.000000 227.000000 0.142923 0.526014 0.838381
1.20000005 1.61000001 -0.74000001 219 120 86 97.000000 1.000000 4.000000 1.000000 176.000000 114.000000 227.000000 -0.222867 0.755878 0.615612
1.13999999 1.63999999 -0.77999997 219 120 86 97.000000 1.000000 4.000000 1.000000 176.000000 114.000000 227.000000 0.208444 0.594451 0.776646
1.14999998 1.58000004 -0.73000002 219 120 86 97.000000 1.000000 4.000000 1.000000 176.000000 114.000000 227.000000 -0.425432 0.150405 0.892405
1.17999995 1.63000000 -0.80000001 219 120 86 97.000000 1.000000 4.000000 1.000000 176.000000 114.000000 227.000000 -0.232582 0.769551 0.594724
1.17999995 1.58000004 -0.81000000 219 120 86 97.000000 1.000000 4.000000 1.000000 176.000000 114.000000 227.000000 0.123728 0.291359 0.948579
1.13000000 1.62000000 -0.82999998 219 120 86 97.000000 1.000000 4.000000 1.000000 176.000000 114.000000 227.000000 -0.362338 0.611549 0.703363
1.13999999 1.58000004 -0.80000001 219 120 86 97.000000 1.000000 4.000000 1.000000 176.000000 114.000000 227.000000 0.068822 0.400789 0.913582
1.01999998 1.75000000 -0.57999998 219 120 86 97.000000 1.000000 4.000000 1.000000 176.000000 114.000000 227.000000 0.270482 0.369111 0.889155
1.00000000 1.76999998 -0.56999999 219 120 86 97.000000 1.000000 4.000000 1.000000 176.000000 114.000000 227.000000 0.276444 0.429175 0.859877
1.00999999 1.76999998 -0.60000002 219 120 86 97.000000 1.000000 4.000000 1.000000 176.000000 114.000000 227.000000 -0.139017 0.507777 0.850198
0.97000003 1.77999997 -0.58999997 219 120 86 97.000000 1.000000 4.000000 1.000000 176.000000 114.000000 227.000000 -0.004151 0.707101 0.707101
0.95999998 1.75000000 -0.58999997 219 120 86 97.000000 1.000000 4.000000 1.000000 176.000000 114.000000 227.000000 0.166117 0.471890 0.865867
1.00000000 1.79999995 -0.63000000 219 120 86 97.000000 1.000000 4.000000 1.000000 176.000000 114.000000 227.000000 -0.348380 0.639515 0.685311
1.10000002 1.58000004 -0.70999998 219 120 86 97.000000 1.000000 4.000000 1.000000 176.000000 114.000000 227.000000 0.242652 0.256678 0.935541
1.09000003 1.58000004 -0.68000001 219 120 86 97.000000 1.000000 4.000000 1.000000 176.000000 114.000000 227.000000 -0.115333 0.562067 0.819011
1.05999994 1.62000000 -0.69999999 219 120 86 97.000000 1.000000 4.000000 1.000000 176.000000 114.000000 227.000000 0.211253 0.415120 0.884900
1.05999994 1.59000003 -0.66000003 219 120 86 97.000000 1.000000 4.000000 1.000000 176.000000 114.000000 227.000000 0.116123 0.125700 0.985249
1.05999994 1.59000003 -0.66000003 219 120 86 97.000000 1.000000 4.000000 1.000000 176.000000 114.000000 227.000000 0.116123 0.125700 0.985249
1.08000004 1.59000003 -0.64999998 219 120 86 97.000000 1.000000 4.000000 1.000000 176.000000 114.000000 227.000000 0.112331 0.249195 0.961917
1.05999994 1.58000004 -0.64999998 219 120 86 97.000000 1.000000 4.000000 1.000000 176.000000 114.000000 227.000000 -0.150037 0.365978 0.918449
1.07000005 1.59000003 -0.66000003 219 120 86 97.000000 1.000000 4.000000 1.000000 176.000000 114.000000 227.000000 -0.222440 0.617542 0.754428
1.07000005 1.58000004 -0.68000001 219 120 86 97.000000 1.000000 4.000000 1.000000 176.000000 114.000000 227.000000 -0.185703 -0.026863 0.982239
1.08000004 1.58000004 -0.68000001 219 120 86 97.000000 1.000000 4.000000 1.000000 176.000000 114.000000 227.000000 -0.165048 0.359721 0.918346
1.01999998 1.71000004 -0.60000002 219 120 86 97.000000 1.000000 4.000000 1.000000 176.000000 114.000000 227.000000 0.136164 0.629944 0.764611
1.02999997 1.74000001 -0.62000000 219 120 86 97.000000 1.000000 4.000000 1.000000 176.000000 114.000000 227.000000 0.001329 0.487672 0.873026
0.99000001 1.72000003 -0.61000001 219 120 86 97.000000 1.000000 4.000000 1.000000 176.000000 114.000000 227.000000 0.251346 0.501150 0.828054
0.98000002 1.66999996 -0.61000001 219 120 86 97.000000 1.000000 4.000000 1.000000 176.000000 114.000000 227.000000 -0.330154 0.354497 0.874832
1.01999998 1.74000001 -0.64999998 219 120 86 97.000000 1.000000 4.000000 1.000000 176.000000 114.000000 227.000000 -0.321589 0.450224 0.832994
0.98000002 1.70000005 -0.63000000 219 120 86 97.000000 1.000000 4.000000 1.000000 176.000000 114.000000 227.000000 -0.410056 0.282009 0.867367
0.98000002 1.66999996 -0.64999998 219 120 86 97.000000 1.000000 4.000000 1.000000 176.000000 114.000000 227.000000 0.003494 0.213105 0.977023
1.01999998 1.61000001 -0.70999998 219 120 86 97.000000 1.000000 4.000000 1.000000 176.000000 114.000000 227.000000 0.128416 0.317662 0.939468
0.98000002 1.63000000 -0.69999999 219 120 86 97.000000 1.000000 4.000000 1.000000 176.000000 114.000000 227.000000 -0.236023 0.479660 0.845115
0.98000002 1.59000003 -0.67000002 219 120 86 97.000000 1.000000 4.000000 1.000000 176.000000 114.000000 227.000000 -0.050955 0.254774 0.965657
1.11000001 1.58000004 -0.74000001 219 120 86 97.000000 1.000000 4.000000 1.000000 176.000000 114.000000 227.000000 -0.416091 0.598441 0.684643
1.12000000 1.59000003 -0.74000001 219 120 86 97.000000 1.000000 4.000000 1.000000 176.000000 114.000000 227.000000 -0.076857 0.685911 0.723615
1.05999994 1.63000000 -0.73000002 219 120 86 97.000000 1.000000 4.000000 1.000000 176.000000 114.000000 227.000000 0.057221 0.291191 0.954952
1.04999995 1.62000000 -0.75999999 219 120 86 97.000000 1.000000 4.000000 1.000000 176.000000 114.000000 227.000000 0.042737 0.151311 0.987562
1.07000005 1.63000000 -0.79000002 219 120 86 97.000000 1.000000 4.000000 1.000000 176.000000 114.000000 227.000000 -0.069477 0.334278 0.939910
1.04999995 1.62000000 -0.75999999 219 120 86 97.000000 1.000000 4.000000 1.000000 176.000000 114.000000 227.000000 0.042737 0.151311 0.987562
1.08000004 1.60000002 -0.82999998 219 120 86 97.000000 1.000000 4.000000 1.000000 176.000000 114.000000 227.000000 -0.140229 0.239831 0.960634
1.11000001 1.63000000 -0.83999997 219 120 86 97.000000 1.000000 4.000000 1.000000 176.000000 114.000000 227.000000 -0.393502 0.193121 0.898811
0.99000001 1.67999995 -0.74000001 219 120 86 97.000000 1.000000 4.000000 1.000000 176.000000 114.000000 227.000000 -0.357239 0.531818 0.767822
1.00000000 1.65999997 -0.72000003 219 120 86 97.000000 1.000000 4.000000 1.000000 176.000000 114.000000 227.000000 -0.411939 0.399215 0.819106
0.99000001 1.65999997 -0.73000002 219 120 86 97.000000 1.000000 4.000000 1.000000 176.000000 114.000000 227.000000 -0.017611 0.207812 0.978010
1.00000000 1.62000000 -0.77999997 219 120 86 97.000000 1.000000 4.000000 1.000000 176.000000 114.000000 227.000000 -0.323415 0.285018 0.902312
1.02999997 1.62000000 -0.76999998 219 120 86 97.000000 1.000000 4.000000 1.000000 176.000000 114.000000 227.000000 -0.290351 0.368580 0.883088
0.99000001 1.61000001 -0.77999997 219 120 86 97.000000 1.000000 4.000000 1.000000 176.000000 114.000000 227.000000 -0.298704 0.583032 0.755546
0.92000002 2.05999994 -0.34000000 219 120 86 97.000000 1.000000 4.000000 1.000000 176.000000 114.000000 227.000000 -0.071138 0.184477 0.980259
0.93000001 2.02999997 -0.33000001 219 120 86 97.000000 1.000000 4.000000 1.000000 176.000000 114.000000 227.000000 -0.041208 0.686332 0.726120
0.92000002 2.02999997 -0.34999999 219 120 86 97.000000 1.000000 4.000000 1.000000 176.000000 114.000000 227.000000 0.086098 0.742779 0.663978
0.89999998 2.00999999 -0.30000001 219 120 86 97.000000 1.000000 4.000000 1.000000 176.000000 114.000000 227.000000 0.067857 -0.740647 -0.668459
0.92000002 1.99000001 -0.34000000 219 120 86 97.000000 1.000000 4.000000 1.000000 176.000000 114.000000 227.000000 -0.111643 0.540817 0.833699
0.94999999 1.95000005 -0.36000001 219 120 86 97.000000 1.000000 4.000000 1.000000 176.000000 114.000000 227.000000 -0.486117 0.459751 0.743182
0.94000000 1.91999996 -0.36000001 219 120 86 97.000000 1.000000 4.000000 1.000000 176.000000 114.000000 227.000000 0.019654 0.412736 0.910639
0.94000000 1.95000005 -0.38999999 219 120 86 97.000000 1.000000 4.000000 1.000000 176.000000 114.000000 227.000000 0.232182 0.584351 0.777577
0.94000000 1.95000005 -0.38999999 219 120 86 97.000000 1.000000 4.000000 1.000000 176.000000 114.000000 227.000000 0.232182 0.584351 0.777577
0.89999998 1.91999996 -0.43000001 219 120 86 97.000000 1.000000 4.000000 1.000000 176.000000 114.000000 227.000000 -0.069743 0.433499 0.898451
0.83999997 2.03999996 -0.44000000 219 120 86 97.000000 1.000000 4.000000 1.000000 176.000000 114.000000 227.000000 -0.070134 0.279262 0.957650
0.82999998 2.02999997 -0.44000000 219 120 86 97.000000 1.000000 4.000000 1.000000 176.000000 114.000000 227.000000 -0.211852 0.115440 0.970460
0.81000000 2.07999992 -0.44999999 219 120 86 97.000000 1.000000 4.000000 1.000000 176.000000 114.000000 227.000000 -0.091958 0.230526 0.968711
0.81000000 2.07999992 -0.44999999 219 120 86 97.000000 1.000000 4.000000 1.000000 176.000000 114.000000 227.000000 -0.091958 0.230526 0.968711
0.86000001 2.04999995 -0.47000000 219 120 86 97.000000 1.000000 4.000000 1.000000 176.000000 114.000000 227.000000 -0.159582 0.421240 0.892799
0.79000002 1.96000004 -0.44999999 219 120 86 97.000000 1.000000 4.000000 1.000000 176.000000 114.000000 227.000000 -0.255221 0.565243 0.784451
0.79000002 1.95000005 -0.41999999 219 120 86 97.000000 1.000000 4.000000 1.000000 176.000000 114.000000 227.000000 -0.004130 0.618120 0.786073
0.81000000 1.92999995 -0.44999999 219 120 86 97.000000 1.000000 4.000000 1.000000 176.000000 114.000000 227.000000 0.113196 0.607141 0.786490
0.75000000 2.04999995 -0.44999999 219 120 86 97.000000 1.000000 4.000000 1.000000 176.000000 114.000000 227.000000 -0.139673 0.122669 0.982570
0.74000001 2.00999999 -0.43000001 219 120 86 97.000000 1.000000 4.000000 1.000000 176.000000 114.000000 227.000000 -0.124850 0.475005 0.871081
0.75000000 1.98000002 -0.44999999 219 120 86 97.000000 1.000000 4.000000 1.000000 176.000000 114.000000 227.000000 -0.276908 0.070184 0.958330
0.75999999 1.91999996 -0.41999999 219 120 86 97.000000 1.000000 4.000000 1.000000 176.000000 114.000000 227.000000 -0.248628 0.573878 0.780287
0.74000001 1.95000005 -0.44999999 219 120 86 97.000000 1.000000 4.000000 1.000000 176.000000 114.000000 227.000000 -0.255521 0.098870 0.961735
0.75999999 1.96000004 -0.47000000 219 120 86 97.000000 1.000000 4.000000 1.000000 176.000000 114.000000 227.000000 -0.248968 0.040473 0.967666
0.75999999 1.97000003 -0.47999999 219 120 86 97.000000 1.000000 4.000000 1.000000 176.000000 114.000000 227.000000 -0.044002 0.668552 0.742362
0.75999999 1.96000004 -0.47000000 219 120 86 97.000000 1.000000 4.000000 1.000000 176.000000 114.000000 227.000000 -0.248968 0.040473 0.967666
0.75999999 1.95000005 -0.49000001 219 120 86 97.000000 1.000000 4.000000 1.000000 176.000000 114.000000 227.000000 -0.088950 0.657648 0.748056
0.72000003 1.99000001 -0.52999997 219 120 86 97.000000 1.000000 4.000000 1.000000 176.000000 114.000000 227.000000 -0.209512 0.399977 0.892257
0.72000003 1.99000001 -0.52999997 219 120 86 97.000000 1.000000 4.000000 1.000000 176.000000 114.000000 227.000000 -0.209512 0.399977 0.892257
0.69999999 1.92999995 -0.51999998 219 120 86 97.000000 1.000000 4.000000 1.000000 176.000000 114.000000 227.000000 -0.142927 0.648436 0.747732
0.69999999 1.92999995 -0.51999998 219 120 86 97.000000 1.000000 4.000000 1.000000 176.000000 114.000000 227.000000 -0.142927 0.648436 0.747732
0.67000002 1.95000005 -0.38999999 219 120 86 97.000000 1.000000 4.000000 1.000000 176.000000 114.000000 227.000000 -0.100071 0.324231 0.940670
0.63000000 1.99000001 -0.43000001 219 120 86 97.000000 1.000000 4.000000 1.000000 176.000000 114.000000 227.000000 -0.058315 0.322679 0.944710
0.63000000 1.99000001 -0.43000001 219 120 86 97.000000 1.000000 4.000000 1.000000 176.000000 114.000000 227.000000 -0.058315 0.322679 0.944710
0.63000000 1.91999996 -0.41999999 219 120 86 97.000000 1.000000 4.000000 1.000000 176.000000 114.000000 227.000000 -0.141348 0.189737 0.971607
0.64999998 1.91999996 -0.44999999 219 120 86 97.000000 1.000000 4.000000 1.000000 176.000000 114.000000 227.000000 -0.069166 -0.060383 0.995776
0.63000000 1.97000003 -0.47999999 219 120 86 97.000000 1.000000 4.000000 1.000000 176.000000 114.000000 227.000000 -0.130262 0.678263 0.723181
0.94999999 2.08999991 -0.81000000 219 120 86 97.000000 1.000000 4.000000 1.000000 176.000000 114.000000 227.000000 0.391792 0.410826 0.823238
0.89999998 2.10999990 -0.82999998 219 120 86 97.000000 1.000000 4.000000 1.000000 176.000000 114.000000 227.000000 0.156379 0.693838 0.702947
0.89999998 2.08999991 -0.83999997 219 120 86 97.000000 1.000000 4.000000 1.000000 176.000000 114.000000 227.000000 0.405996 0.457757 0.790965
0.81000000 2.18000007 -0.82999998 219 120 86 97.000000 1.000000 4.000000 1.000000 176.000000 114.000000 227.000000 0.376957 0.402193 0.834353
0.87000000 2.17000008 -0.80000001 219 120 86 97.000000 1.000000 4.000000 1.000000 176.000000 114.000000 227.000000 -0.118318 0.547766 0.828223
0.86000001 2.17000008 -0.81000000 219 120 86 97.000000 1.000000 4.000000 1.000000 176.000000 114.000000 227.000000 -0.274255 0.581802 0.765696
0.82999998 2.14000010 -0.80000001 219 120 86 97.000000 1.000000 4.000000 1.000000 176.000000 114.000000 227.000000 0.346023 0.361402 0.865827
0.80000001 2.17000008 -0.81999999 219 120 86 97.000000 1.000000 4.000000 1.000000 176.000000 114.000000 227.000000 -0.032401 0.762130 0.646613
0.81000000 2.17000008 -0.81999999 219 120 86 97.000000 1.000000 4.000000 1.000000 176.000000 114.000000 227.000000 0.304533 0.675130 0.671907
0.80000001 2.11999989 -0.81999999 219 120 86 97.000000 1.000000 4.000000 1.000000 176.000000 114.000000 227.000000 0.044054 0.751758 0.657966
0.79000002 2.09999990 -0.80000001 219 120 86 97.000000 1.000000 4.000000 1.000000 176.000000 114.000000 227.000000 -0.187768 0.584677 0.789237
0.80000001 2.09999990 -0.85000002 219 120 86 97.000000 1.000000 4.000000 1.000000 176.000000 114.000000 227.000000 0.344153 0.654054 0.673626
0.94999999 2.05999994 -0.85000002 219 120 86 97.000000 1.000000 4.000000 1.000000 176.000000 114.000000 227.000000 0.067759 0.463251 0.883633
0.91000003 2.07999992 -0.82999998 219 120 86 97.000000 1.000000 4.000000 1.000000 176.000000 114.000000 227.000000 0.465966 0.512397 0.721336
0.81999999 2.03999996 -0.77999997 219 120 86 97.000000 1.000000 4.000000 1.000000 176.000000 114.000000 227.000000 -0.241379 0.453913 0.857729
0.85000002 2.00999999 -0.81000000 219 120 86 97.000000 1.000000 4.000000 1.000000 176.000000 114.000000 227.000000 0.163463 0.339501 0.926293
0.81000000 2.05999994 -0.80000001 219 120 86 97.000000 1.000000 4.000000 1.000000 176.000000 114.000000 227.000000 -0.095738 0.357330 0.929058
0.81000000 2.02999997 -0.81999999 219 120 86 97.000000 1.000000 4.000000 1.000000 176.000000 114.000000 227.000000 0.359471 0.356385 0.862421
0.81999999 2.02999997 -0.81999999 219 120 86 97.000000 1.000000 4.000000 1.000000 176.000000 114.000000 227.000000 0.086536 0.229508 0.969452
0.85000002 1.94000006 -0.83999997 219 120 86 97.000000 1.000000 4.000000 1.000000 176.000000 114.000000 227.000000 -0.309465 0.443204 0.841310
0.81000000 1.99000001 -0.81999999 219 120 86 97.000000 1.000000 4.000000 1.000000 176.000000 114.000000 227.000000 0.107401 0.622337 0.775346
0.81000000 2.00000000 -0.83999997 219 120 86 97.000000 1.000000 4.000000 1.000000 176.000000 114.000000 227.000000 0.272802 0.709922 0.649300
0.79000002 1.94000006 -0.87000000 219 120 86 97.000000 1.000000 4.000000 1.000000 176.000000 114.000000 227.000000 -0.149441 0.747203 0.647576
0.81000000 1.94000006 -0.88000000 219 120 86 97.000000 1.000000 4.000000 1.000000 176.000000 114.000000 227.000000 -0.339808 0.710507 0.616206
0.81999999 1.95000005 -0.85000002 219 120 86 97.000000 1.000000 4.000000 1.000000 176.000000 114.000000 227.000000 0.238007 0.246358 0.939500
0.77999997 2.18000007 -0.85000002 219 120 86 97.000000 1.000000 4.000000 1.000000 176.000000 114.000000 227.000000 0.001308 0.443546 0.896251
0.74000001 2.19000006 -0.81999999 219 120 86 97.000000 1.000000 4.000000 1.000000 176.000000 114.000000 227.000000 0.358539 0.708893 0.607388
0.74000001 2.21000004 -0.88000000 219 120 86 97.000000 1.000000 4.000000 1.000000 176.000000 114.000000 227.000000 0.119618 0.420773 0.899245
0.75999999 2.08999991 -0.81999999 219 120 86 97.000000 1.000000 4.000000 1.000000 176.000000 114.000000 227.000000 -0.088056 0.575972 0.812713
0.70999998 2.17000008 -0.86000001 219 120 86 97.000000 1.000000 4.000000 1.000000 176.000000 114.000000 227.000000 0.370381 0.660101 0.653517
0.74000001 2.09999990 -0.85000002 219 120 86 97.000000 1.000000 4.000000 1.000000 176.000000 114.000000 227.000000 -0.358274 0.546328 0.757077
0.66000003 2.19000006 -0.76999998 219 120 86 97.000000 1.000000 4.000000 1.000000 176.000000 114.000000 227.000000 0.067600 0.356559 0.931824
0.69000000 2.25000000 -0.81000000 219 120 86 97.000000 1.000000 4.000000 1.000000 176.000000 114.000000 227.000000 -0.066848 0.567493 0.820660
0.69000000 2.23000002 -0.86000001 219 120 86 97.000000 1.000000 4.000000 1.000000 176.000000 114.000000 227.000000 -0.077752 0.849614 0.521643
0.67000002 2.18000007 -0.82999998 219 120 86 97.000000 1.000000 4.000000 1.000000 176.000000 114.000000 227.000000 -0.113385 0.498031 0.859714
0.66000003 2.14000010 -0.83999997 219 120 86 97.000000 1.000000 4.000000 1.000000 176.000000 114.000000 227.000000 -0.056379 0.261851 0.963460
0.63000000 2.08999991 -0.88000000 219 120 86 97.000000 1.000000 4.000000 1.000000 176.000000 114.000000 227.000000 -0.226916 0.309691 0.923364
0.70999998 2.00999999 -0.54000002 219 120 86 97.000000 1.000000 4.000000 1.000000 176.000000 114.000000 227.000000 -0.381314 0.120634 0.916541
0.70999998 1.91999996 -0.54000002 219 120 86 97.000000 1.000000 4.000000 1.000000 176.000000 114.000000 227.000000 0.034607 0.549567 0.834733
0.62000000 2.00999999 -0.58999997 219 120 86 97.000000 1.000000 4.000000 1.000000 176.000000 114.000000 227.000000 -0.090727 0.005337 0.995862
0.62000000 2.02999997 -0.63000000 219 120 86 97.000000 1.000000 4.000000 1.000000 176.000000 114.000000 227.000000 0.267633 0.350437 0.897533
0.68000001 2.00000000 -0.57999998 219 120 86 97.000000 1.000000 4.000000 1.000000 176.000000 114.000000 227.000000 -0.304575 0.626876 0.717120
0.66000003 2.00000000 -0.58999997 219 120 86 97.000000 1.000000 4.000000 1.000000 176.000000 114.000000 227.000000 -0.299022 0.130068 0.945340
0.68000001 1.96000004 -0.60000002 219 120 86 97.000000 1.000000 4.000000 1.000000 176.000000 114.000000 227.000000 -0.353213 0.104205 0.929721
0.66000003 1.96000004 -0.62000000 219 120 86 97.000000 1.000000 4.000000 1.000000 176.000000 114.000000 227.000000 -0.356775 0.027048 0.933799
0.68000001 1.95000005 -0.58999997 219 120 86 97.000000 1.000000 4.000000 1.000000 176.000000 114.000000 227.000000 -0.071535 0.500748 0.862632
0.62000000 1.92999995 -0.61000001 219 120 86 97.000000 1.000000 4.000000 1.000000 176.000000 114.000000 227.000000 0.334574 -0.444528 -0.830937
0.66000003 1.96000004 -0.63000000 219 120 86 97.000000 1.000000 4.000000 1.000000 176.000000 114.000000 227.000000 -0.426112 0.086877 0.900489
0.62000000 1.94000006 -0.66000003 219 120 86 97.000000 1.000000 4.000000 1.000000 176.000000 114.000000 227.000000 -0.398661 0.546314 0.736621
0.75999999 1.97000003 -0.81000000 219 120 86 97.000000 1.000000 4.000000 1.000000 176.000000 114.000000 227.000000 0.274588 0.274588 0.921522
0.75999999 1.97000003 -0.85000002 219 120 86 97.000000 1.000000 4.000000 1.000000 176.000000 114.000000 227.000000 -0.004136 0.765155 0.643833
0.75999999 2.00000000 -0.85000002 219 120 86 97.000000 1.000000 4.000000 1.000000 176.000000 114.000000 227.000000 0.055981 0.250050 0.966613
0.75000000 1.92999995 -0.82999998 219 120 86 97.000000 1.000000 4.000000 1.000000 176.000000 114.000000 227.000000 -0.168081 0.320882 0.932086
0.70999998 2.00000000 -0.85000002 219 120 86 97.000000 1.000000 4.000000 1.000000 176.000000 114.000000 227.000000 -0.094530 0.472650 0.876166
0.70999998 1.92999995 -0.88000000 219 120 86 97.000000 1.000000 4.000000 1.000000 176.000000 114.000000 227.000000 0.219227 0.392843 0.893092
0.69999999 1.91999996 -0.86000001 219 120 86 97.000000 1.000000 4.000000 1.000000 176.000000 114.000000 227.000000 0.136782 0.704956 0.695937
0.63999999 2.07999992 -0.83999997 219 120 86 97.000000 1.000000 4.000000 1.000000 176.000000 114.000000 227.000000 0.355448 0.627357 0.692878
0.64999998 1.91999996 -0.72000003 219 120 86 97.000000 1.000000 4.000000 1.000000 176.000000 114.000000 227.000000 -0.170639 0.226196 0.959019
0.69000000 1.91999996 -0.75999999 219 120 86 97.000000 1.000000 4.000000 1.000000 176.000000 114.000000 227.000000 -0.258084 0.714084 0.650751
0.68000001 1.94000006 -0.88000000 219 120 86 97.000000 1.000000 4.000000 1.000000 176.000000 114.000000 227.000000 0.023797 0.309367 0.950645
0.94000000 1.90999997 -0.34999999 219 120 86 97.000000 1.000000 4.000000 1.000000 176.000000 114.000000 227.000000 0.001372 0.607653 0.794201
0.79000002 1.86000001 -0.23999999 219 120 86 97.000000 1.000000 4.000000 1.000000 176.000000 114.000000 227.000000 -0.334476 0.470803 0.816376
0.83999997 1.82000005 -0.22000000 219 120 86 97.000000 1.000000 4.000000 1.000000 176.000000 114.000000 227.000000 -0.304041 0.632213 0.712647
0.85000002 1.76999998 -0.25999999 219 120 86 97.000000 1.000000 4.000000 1.000000 176.000000 114.000000 227.000000 0.135920 0.257324 0.956718
0.82999998 1.75000000 -0.28000000 219 120 86 97.000000 1.000000 4.000000 1.000000 176.000000 114.000000 227.000000 -0.378881 0.452419 0.807320
0.79000002 1.75000000 -0.25000000 219 120 86 97.000000 1.000000 4.000000 1.000000 176.000000 114.000000 227.000000 -0.293104 0.415870 0.860896
0.79000002 1.76999998 -0.25999999 219 120 86 97.000000 1.000000 4.000000 1.000000 176.000000 114.000000 227.000000 -0.545441 0.366341 0.753849
0.93000001 1.88999999 -0.44999999 219 120 86 97.000000 1.000000 4.000000 1.000000 176.000000 114.000000 227.000000 -0.320241 0.580939 0.748302
0.94000000 1.88000000 -0.43000001 219 120 86 97.000000 1.000000 4.000000 1.000000 176.000000 114.000000 227.000000 -0.134615 0.484905 0.864145
0.94000000 1.85000002 -0.41000000 219 120 86 97.000000 1.000000 4.000000 1.000000 176.000000 114.000000 227.000000 -0.197271 0.507482 0.838776
0.94999999 1.90999997 -0.46000001 219 120 86 97.000000 1.000000 4.000000 1.000000 176.000000 114.000000 227.000000 0.094576 0.598009 0.795890
0.94000000 1.80999994 -0.38999999 219 120 86 97.000000 1.000000 4.000000 1.000000 176.000000 114.000000 227.000000 -0.105281 0.526405 0.843690
0.89999998 1.82000005 -0.41000000 219 120 86 97.000000 1.000000 4.000000 1.000000 176.000000 114.000000 227.000000 0.111822 0.168347 0.979365
0.83999997 1.88999999 -0.44000000 219 120 86 97.000000 1.000000 4.000000 1.000000 176.000000 114.000000 227.000000 0.017770 0.221535 0.974990
0.80000001 1.90999997 -0.49000001 219 120 86 97.000000 1.000000 4.000000 1.000000 176.000000 114.000000 227.000000 -0.048649 0.186291 0.981289
0.80000001 1.90999997 -0.49000001 219 120 86 97.000000 1.000000 4.000000 1.000000 176.000000 114.000000 227.000000 -0.048649 0.186291 0.981289
0.83999997 1.77999997 -0.44999999 219 120 86 97.000000 1.000000 4.000000 1.000000 176.000000 114.000000 227.000000 -0.488623 0.472059 0.733763
0.85000002 1.80999994 -0.44000000 219 120 86 97.000000 1.000000 4.000000 1.000000 176.000000 114.000000 227.000000 -0.052462 0.415664 0.908004
0.82999998 1.76999998 -0.46000001 219 120 86 97.000000 1.000000 4.000000 1.000000 176.000000 114.000000 227.000000 -0.384944 0.561855 0.732213
0.80000001 1.80999994 -0.52999997 219 120 86 97.000000 1.000000 4.000000 1.000000 176.000000 114.000000 227.000000 -0.143356 0.357695 0.922769
0.81999999 1.76999998 -0.49000001 219 120 86 97.000000 1.000000 4.000000 1.000000 176.000000 114.000000 227.000000 -0.020538 0.091881 0.995558
0.76999998 1.87000000 -0.25000000 219 120 86 97.000000 1.000000 4.000000 1.000000 176.000000 114.000000 227.000000 -0.093360 0.538614 0.837365
0.69999999 1.84000003 -0.23999999 219 120 86 97.000000 1.000000 4.000000 1.000000 176.000000 114.000000 227.000000 -0.043484 -0.045605 0.998013
0.73000002 1.84000003 -0.27000001 219 120 86 97.000000 1.000000 4.000000 1.000000 176.000000 114.000000 227.000000 -0.039830 0.506798 0.861144
0.75999999 1.75999999 -0.25000000 219 120 86 97.000000 1.000000 4.000000 1.000000 176.000000 114.000000 227.000000 -0.481126 0.422412 0.768170
0.75000000 1.75999999 -0.25000000 219 120 86 97.000000 1.000000 4.000000 1.000000 176.000000 114.000000 227.000000 -0.015702 0.252440 0.967485
0.77999997 1.75000000 -0.25999999 219 120 86 97.000000 1.000000 4.000000 1.000000 176.000000 114.000000 227.000000 0.116767 0.163474 0.979613
0.74000001 1.75000000 -0.23000000 219 120 86 97.000000 1.000000 4.000000 1.000000 176.000000 114.000000 227.000000 0.109537 0.107181 0.988187
0.66000003 1.87000000 -0.25999999 219 120 86 97.000000 1.000000 4.000000 1.000000 176.000000 114.000000 227.000000 0.009357 0.487890 0.872855
0.67000002 1.87000000 -0.25999999 219 120 86 97.000000 1.000000 4.000000 1.000000 176.000000 114.000000 227.000000 0.034228 0.502469 0.863918
0.68000001 1.82000005 -0.22000000 219 120 86 97.000000 1.000000 4.000000 1.000000 176.000000 114.000000 227.000000 0.082436 0.203014 0.975699
0.67000002 1.76999998 -0.25000000 219 120 86 97.000000 1.000000 4.000000 1.000000 176.000000 114.000000 227.000000 -0.067435 0.455529 0.887663
0.77999997 1.90999997 -0.44000000 219 120 86 97.000000 1.000000 4.000000 1.000000 176.000000 114.000000 227.000000 -0.036023 0.277003 0.960194
0.74000001 1.90999997 -0.38000000 219 120 86 97.000000 1.000000 4.000000 1.000000 176.000000 114.000000 227.000000 -0.086055 0.268439 0.959445
0.70999998 1.89999998 -0.38000000 219 120 86 97.000000 1.000000 4.000000 1.000000 176.000000 114.000000 227.000000 -0.099910 0.454519 0.885116
0.69999999 1.89999998 -0.40000001 219 120 86 97.000000 1.000000 4.000000 1.000000 176.000000 114.000000 227.000000 -0.131804 0.176993 0.975347
0.73000002 1.88999999 -0.44000000 219 120 86 97.000000 1.000000 4.000000 1.000000 176.000000 114.000000 227.000000 -0.189601 0.664375 0.722951
0.69999999 1.88000000 -0.41999999 219 120 86 97.000000 1.000000 4.000000 1.000000 176.000000 114.000000 227.000000 0.116240 0.359659 0.925815
0.75999999 1.89999998 -0.49000001 219 120 86 97.000000 1.000000 4.000000 1.000000 176.000000 114.000000 227.000000 -0.035016 0.132157 0.990610
0.77999997 1.89999998 -0.47000000 219 120 86 97.000000 1.000000 4.000000 1.000000 176.000000 114.000000 227.000000 -0.015421 0.226565 0.973874
0.74000001 1.88999999 -0.49000001 219 120 86 97.000000 1.000000 4.000000 1.000000 176.000000 114.000000 227.000000 -0.316806 0.570894 0.757439
0.74000001 1.89999998 -0.47000000 219 120 86 97.000000 1.000000 4.000000 1.000000 176.000000 114.000000 227.000000 0.160404 0.571157 0.805016
0.73000002 1.90999997 -0.51999998 219 120 86 97.000000 1.000000 4.000000 1.000000 176.000000 114.000000 227.000000 0.085048 0.578041 0.811564
0.73000002 1.90999997 -0.51999998 219 120 86 97.000000 1.000000 4.000000 1.000000 176.000000 114.000000 227.000000 0.085048 0.578041 0.811564
0.75999999 1.78999996 -0.47999999 219 120 86 97.000000 1.000000 4.000000 1.000000 176.000000 114.000000 227.000000 -0.006910 0.004936 0.999964
0.75999999 1.77999997 -0.50999999 219 120 86 97.000000 1.000000 4.000000 1.000000 176.000000 114.000000 227.000000 -0.075101 0.266034 0.961034
0.75999999 1.77999997 -0.50999999 219 120 86 97.000000 1.000000 4.000000 1.000000 176.000000 114.000000 227.000000 -0.075101 0.266034 0.961034
0.74000001 1.75000000 -0.49000001 219 120 86 97.000000 1.000000 4.000000 1.000000 176.000000 114.000000 227.000000 -0.166447 0.484611 0.858748
0.73000002 1.75999999 -0.51999998 219 120 86 97.000000 1.000000 4.000000 1.000000 176.000000 114.000000 227.000000 -0.106154 -0.069628 0.991909
0.66000003 1.86000001 -0.40000001 219 120 86 97.000000 1.000000 4.000000 1.000000 176.000000 114.000000 227.000000 -0.042732 0.505894 0.861536
0.66000003 1.86000001 -0.40000001 219 120 86 97.000000 1.000000 4.000000 1.000000 176.000000 114.000000 227.000000 -0.042732 0.505894 0.861536
0.69000000 1.86000001 -0.47999999 219 120 86 97.000000 1.000000 4.000000 1.000000 176.000000 114.000000 227.000000 0.209589 0.332206 0.919626
0.68000001 1.88999999 -0.49000001 219 120 86 97.000000 1.000000 4.000000 1.000000 176.000000 114.000000 227.000000 -0.270935 0.020841 0.962372
0.63000000 1.80999994 -0.38000000 219 120 86 97.000000 1.000000 4.000000 1.000000 176.000000 114.000000 227.000000 -0.117139 0.238139 0.964141
0.62000000 1.75000000 -0.40000001 219 120 86 97.000000 1.000000 4.000000 1.000000 176.000000 114.000000 227.000000 -0.278718 -0.222695 0.934197
0.64999998 1.77999997 -0.49000001 219 120 86 97.000000 1.000000 4.000000 1.000000 176.000000 114.000000 227.000000 0.021653 0.036088 0.999114
0.73000002 1.70000005 -0.36000001 219 120 86 97.000000 1.000000 4.000000 1.000000 176.000000 114.000000 227.000000 -0.496487 0.427667 0.755381
0.69000000 1.64999998 -0.34000000 219 120 86 97.000000 1.000000 4.000000 1.000000 176.000000 114.000000 227.000000 0.040841 -0.096032 0.994540
0.62000000 1.63999999 -0.34999999 219 120 86 97.000000 1.000000 4.000000 1.000000 176.000000 114.000000 227.000000 -0.020365 0.235997 0.971540
0.70999998 1.74000001 -0.52999997 219 120 86 97.000000 1.000000 4.000000 1.000000 176.000000 114.000000 227.000000 -0.053040 0.057370 0.996943
0.69999999 1.72000003 -0.49000001 219 120 86 97.000000 1.000000 4.000000 1.000000 176.000000 114.000000 227.000000 -0.095828 0.516328 0.851012
0.70999998 1.74000001 -0.52999997 219 120 86 97.000000 1.000000 4.000000 1.000000 176.000000 114.000000 227.000000 -0.053040 0.057370 0.996943
0.70999998 1.61000001 -0.40000001 219 120 86 97.000000 1.000000 4.000000 1.000000 176.000000 114.000000 227.000000 0.054952 0.007258 0.998463
0.67000002 1.73000002 -0.40000001 219 120 86 97.000000 1.000000 4.000000 1.000000 176.000000 114.000000 227.000000 -0.107887 -0.224659 0.968446
0.67000002 1.74000001 -0.38999999 219 120 86 97.000000 1.000000 4.000000 1.000000 176.000000 114.000000 227.000000 -0.075545 0.018088 0.996978
0.69000000 1.74000001 -0.38000000 219 120 86 97.000000 1.000000 4.000000 1.000000 176.000000 114.000000 227.000000 0.026511 0.316874 0.948097
0.67000002 1.73000002 -0.47000000 219 120 86 97.000000 1.000000 4.000000 1.000000 176.000000 114.000000 227.000000 0.001208 0.271689 0.962384
0.64999998 1.72000003 -0.46000001 219 120 86 97.000000 1.000000 4.000000 1.000000 176.000000 114.000000 227.000000 -0.021564 0.333605 0.942466
0.63000000 1.67999995 -0.50000000 219 120 86 97.000000 1.000000 4.000000 1.000000 176.000000 114.000000 227.000000 -0.076441 -0.188070 0.979176
0.63000000 1.67999995 -0.50000000 219 120 86 97.000000 1.000000 4.000000 1.000000 176.000000 114.000000 227.000000 -0.076441 -0.188070 0.979176
0.66000003 1.63000000 -0.38999999 219 120 86 97.000000 1.000000 4.000000 1.000000 176.000000 114.000000 227.000000 -0.227785 0.454062 0.861360
0.63999999 1.63999999 -0.41999999 219 120 86 97.000000 1.000000 4.000000 1.000000 176.000000 114.000000 227.000000 0.029497 -0.092860 0.995242
0.64999998 1.61000001 -0.37000000 219 120 86 97.000000 1.000000 4.000000 1.000000 176.000000 114.000000 227.000000 -0.037869 0.369548 0.928440
0.63000000 1.63999999 -0.50999999 219 120 86 97.000000 1.000000 4.000000 1.000000 176.000000 114.000000 227.000000 -0.138097 -0.215535 0.966682
0.86000001 1.75999999 -0.64999998 219 120 86 97.000000 1.000000 4.000000 1.000000 176.000000 114.000000 227.000000 -0.088387 0.607114 0.789683
0.80000001 1.86000001 -0.81999999 219 120 86 97.000000 1.000000 4.000000 1.000000 176.000000 114.000000 227.000000 0.225953 0.536447 0.813124
0.82999998 1.82000005 -0.83999997 219 120 86 97.000000 1.000000 4.000000 1.000000 176.000000 114.000000 227.000000 0.001369 0.606331 0.795211
0.81000000 1.79999995 -0.82999998 219 120 86 97.000000 1.000000 4.000000 1.000000 176.000000 114.000000 227.000000 -0.217586 0.284968 0.933515
0.81000000 1.75000000 -0.81999999 219 120 86 97.000000 1.000000 4.000000 1.000000 176.000000 114.000000 227.000000 -0.335551 0.226101 0.914485
0.81000000 1.75000000 -0.83999997 219 120 86 97.000000 1.000000 4.000000 1.000000 176.000000 114.000000 227.000000 -0.321942 0.301171 0.897580
0.91000003 1.74000001 -0.58999997 219 120 86 97.000000 1.000000 4.000000 1.000000 176.000000 114.000000 227.000000 -0.492330 0.472438 0.731036
0.94000000 1.70000005 -0.66000003 219 120 86 97.000000 1.000000 4.000000 1.000000 176.000000 114.000000 227.000000 -0.411336 0.389101 0.824259
0.94999999 1.65999997 -0.67000002 219 120 86 97.000000 1.000000 4.000000 1.000000 176.000000 114.000000 227.000000 0.173094 0.145298 0.974129
0.88999999 1.65999997 -0.66000003 219 120 86 97.000000 1.000000 4.000000 1.000000 176.000000 114.000000 227.000000 0.188534 0.201718 0.961127
0.91000003 1.64999998 -0.70999998 219 120 86 97.000000 1.000000 4.000000 1.000000 176.000000 114.000000 227.000000 -0.201804 0.614656 0.762543
0.82999998 1.74000001 -0.61000001 219 120 86 97.000000 1.000000 4.000000 1.000000 176.000000 114.000000 227.000000 -0.099993 0.387643 0.916370
0.83999997 1.69000006 -0.60000002 219 120 86 97.000000 1.000000 4.000000 1.000000 176.000000 114.000000 227.000000 -0.183304 0.441395 0.878391
0.82999998 1.67999995 -0.60000002 219 120 86 97.000000 1.000000 4.000000 1.000000 176.000000 114.000000 227.000000 -0.103755 0.591840 0.799350
0.81999999 1.71000004 -0.62000000 219 120 86 97.000000 1.000000 4.000000 1.000000 176.000000 114.000000 227.000000 0.100950 0.069190 0.992483
0.83999997 1.65999997 -0.69999999 219 120 86 97.000000 1.000000 4.000000 1.000000 176.000000 114.000000 227.000000 -0.177282 0.505031 0.844698
0.81000000 1.74000001 -0.68000001 219 120 86 97.000000 1.000000 4.000000 1.000000 176.000000 114.000000 227.000000 -0.297119 -0.135788 0.945136
0.80000001 1.70000005 -0.63000000 219 120 86 97.000000 1.000000 4.000000 1.000000 176.000000 114.000000 227.000000 -0.116380 0.596630 0.794033
0.80000001 1.63999999 -0.61000001 219 120 86 97.000000 1.000000 4.000000 1.000000 176.000000 114.000000 227.000000 0.370295 -0.502889 -0.781015
0.85000002 1.60000002 -0.64999998 219 120 86 97.000000 1.000000 4.000000 1.000000 176.000000 114.000000 227.000000 -0.492086 0.351032 0.796635
0.94999999 1.64999998 -0.73000002 219 120 86 97.000000 1.000000 4.000000 1.000000 176.000000 114.000000 227.000000 -0.419900 0.458810 0.783057
0.93000001 1.62000000 -0.75000000 219 120 86 97.000000 1.000000 4.000000 1.000000 176.000000 114.000000 227.000000 -0.422019 0.365118 0.829813
0.91000003 1.63999999 -0.73000002 219 120 86 97.000000 1.000000 4.000000 1.000000 176.000000 114.000000 227.000000 -0.142176 0.621083 0.770741
0.79000002 1.69000006 -0.79000002 219 120 86 97.000000 1.000000 4.000000 1.000000 176.000000 114.000000 227.000000 -0.145191 0.597228 0.788821
0.87000000 1.72000003 -0.81000000 219 120 86 97.000000 1.000000 4.000000 1.000000 176.000000 114.000000 227.000000 -0.219804 0.255747 0.941424
0.83999997 1.66999996 -0.81000000 219 120 86 97.000000 1.000000 4.000000 1.000000 176.000000 114.000000 227.000000 0.043908 0.403153 0.914079
0.81999999 1.73000002 -0.81999999 219 120 86 97.000000 1.000000 4.000000 1.000000 176.000000 114.000000 227.000000 -0.303418 -0.082040 0.949319
0.81999999 1.73000002 -0.81000000 219 120 86 97.000000 1.000000 4.000000 1.000000 176.000000 114.000000 227.000000 -0.296840 0.267880 0.916584
0.81000000 1.73000002 -0.81999999 219 120 86 97.000000 1.000000 4.000000 1.000000 176.000000 114.000000 227.000000 -0.427068 0.089836 0.899746
0.81000000 1.73000002 -0.81999999 219 120 86 97.000000 1.000000 4.000000 1.000000 176.000000 114.000000 227.000000 -0.427068 0.089836 0.899746
0.81999999 1.73000002 -0.81999999 219 120 86 97.000000 1.000000 4.000000 1.000000 176.000000 114.000000 227.000000 -0.303418 -0.082040 0.949319
0.79000002 1.74000001 -0.83999997 219 120 86 97.000000 1.000000 4.000000 1.000000 176.000000 114.000000 227.000000 -0.305790 0.011142 0.952034
0.83999997 1.63999999 -0.75999999 219 120 86 97.000000 1.000000 4.000000 1.000000 176.000000 114.000000 227.000000 -0.051923 0.139615 0.988844
0.79000002 1.64999998 -0.75000000 219 120 86 97.000000 1.000000 4.000000 1.000000 176.000000 114.000000 227.000000 -0.052674 0.231520 0.971403
0.80000001 1.61000001 -0.73000002 219 120 86 97.000000 1.000000 4.000000 1.000000 176.000000 114.000000 227.000000 -0.258304 0.450885 0.854390
0.72000003 1.78999996 -0.57999998 219 120 86 97.000000 1.000000 4.000000 1.000000 176.000000 114.000000 227.000000 -0.187763 0.596873 0.780056
0.72000003 1.79999995 -0.58999997 219 120 86 97.000000 1.000000 4.000000 1.000000 176.000000 114.000000 227.000000 -0.156288 0.474707 0.866157
0.69999999 1.75000000 -0.58999997 219 120 86 97.000000 1.000000 4.000000 1.000000 176.000000 114.000000 227.000000 0.079305 -0.035850 0.996206
0.73000002 1.75999999 -0.60000002 219 120 86 97.000000 1.000000 4.000000 1.000000 176.000000 114.000000 227.000000 0.031774 -0.017424 0.999343
0.74000001 1.75999999 -0.69999999 219 120 86 97.000000 1.000000 4.000000 1.000000 176.000000 114.000000 227.000000 -0.001231 0.306607 0.951836
0.69000000 1.86000001 -0.69000000 219 120 86 97.000000 1.000000 4.000000 1.000000 176.000000 114.000000 227.000000 -0.476352 0.169599 0.862743
0.62000000 1.88000000 -0.69999999 219 120 86 97.000000 1.000000 4.000000 1.000000 176.000000 114.000000 227.000000 -0.493933 0.048155 0.868166
0.68000001 1.78999996 -0.54000002 219 120 86 97.000000 1.000000 4.000000 1.000000 176.000000 114.000000 227.000000 0.096854 0.047870 0.994147
0.68000001 1.77999997 -0.57999998 219 120 86 97.000000 1.000000 4.000000 1.000000 176.000000 114.000000 227.000000 -0.057233 0.523472 0.850119
0.68000001 1.76999998 -0.54000002 219 120 86 97.000000 1.000000 4.000000 1.000000 176.000000 114.000000 227.000000 0.116990 0.232694 0.965488
0.69000000 1.75000000 -0.58999997 219 120 86 97.000000 1.000000 4.000000 1.000000 176.000000 114.000000 227.000000 -0.188482 0.079041 0.978891
0.67000002 1.75999999 -0.63999999 219 120 86 97.000000 1.000000 4.000000 1.000000 176.000000 114.000000 227.000000 -0.378117 -0.068141 0.923247
0.69000000 1.75000000 -0.68000001 219 120 86 97.000000 1.000000 4.000000 1.000000 176.000000 114.000000 227.000000 -0.219707 -0.113028 0.968996
0.62000000 1.75000000 -0.70999998 219 120 86 97.000000 1.000000 4.000000 1.000000 176.000000 114.000000 227.000000 0.127080 0.056098 0.990305
0.74000001 1.90999997 -0.77999997 219 120 86 97.000000 1.000000 4.000000 1.000000 176.000000 114.000000 227.000000 -0.355836 0.222216 0.907745
0.74000001 1.90999997 -0.77999997 219 120 86 97.000000 1.000000 4.000000 1.000000 176.000000 114.000000 227.000000 -0.355836 0.222216 0.907745
0.70999998 1.84000003 -0.75999999 219 120 86 97.000000 1.000000 4.000000 1.000000 176.000000 114.000000 227.000000 -0.057553 0.297999 0.952830
0.76999998 1.89999998 -0.81999999 219 120 86 97.000000 1.000000 4.000000 1.000000 176.000000 114.000000 227.000000 -0.151242 0.301122 0.941516
0.72000003 1.85000002 -0.80000001 219 120 86 97.000000 1.000000 4.000000 1.000000 176.000000 114.000000 227.000000 -0.195307 0.525360 0.828162
