//X Y Z R G B PointSourceId ScanDirectionFlag NumberOfReturns ReturnNumber GpsTime Intensity Classification Nx Ny Nz
8.59000015 5.32999992 -0.41999999 2 49 230 97.000000 1.000000 4.000000 1.000000 176.000000 114.000000 11.000000 0.794796 -0.193741 -0.575121
8.60000038 5.28999996 -0.44999999 2 49 230 97.000000 1.000000 4.000000 1.000000 176.000000 114.000000 11.000000 0.765040 -0.592238 -0.252919
8.59000015 5.34000015 -0.47999999 2 49 230 97.000000 1.000000 4.000000 1.000000 176.000000 114.000000 11.000000 0.999538 -0.019359 -0.023435
8.56000042 5.30999994 -0.50000000 2 49 230 97.000000 1.000000 4.000000 1.000000 176.000000 114.000000 11.000000 0.964828 0.045826 -0.258856
8.56999969 5.32000017 -0.51999998 2 49 230 97.000000 1.000000 4.000000 1.000000 176.000000 114.000000 11.000000 0.946800 0.085120 -0.310362
8.56999969 5.23000002 -0.43000001 2 49 230 97.000000 1.000000 4.000000 1.000000 176.000000 114.000000 11.000000 0.959144 0.238796 -0.151722
8.52000046 5.25000000 -0.40000001 2 49 230 97.000000 1.000000 4.000000 1.000000 176.000000 114.000000 11.000000 0.951489 -0.275466 -0.137068
8.57999992 5.30999994 -0.55000001 2 49 230 97.000000 1.000000 4.000000 1.000000 176.000000 114.000000 11.000000 0.919124 -0.385788 0.079865
8.56000042 5.26999998 -0.54000002 2 49 230 97.000000 1.000000 4.000000 1.000000 176.000000 114.000000 11.000000 0.972260 0.127696 -0.195969
8.55000019 5.30000019 -0.56000000 2 49 230 97.000000 1.000000 4.000000 1.000000 176.000000 114.000000 11.000000 0.983626 0.163738 -0.075296
8.44999981 5.63999987 -0.20999999 2 49 230 97.000000 1.000000 4.000000 1.000000 176.000000 114.000000 6.000000 -0.355889 0.809129 0.467603
8.47000027 5.65000010 -0.25000000 2 49 230 97.000000 1.000000 4.000000 1.000000 176.000000 114.000000 6.000000 -0.561808 0.695175 0.448446
8.44999981 5.63999987 -0.25999999 2 49 230 97.000000 1.000000 4.000000 1.000000 176.000000 114.000000 6.000000 0.690116 -0.308694 -0.654560
8.51000023 5.67000008 -0.33000001 2 49 230 97.000000 1.000000 4.000000 1.000000 176.000000 114.000000 6.000000 0.754281 -0.542496 -0.369809
8.44999981 5.61999989 -0.28999999 2 49 230 97.000000 1.000000 4.000000 1.000000 176.000000 114.000000 6.000000 0.391226 -0.671852 -0.628933
8.47000027 5.61000013 -0.23999999 2 49 230 97.000000 1.000000 4.000000 1.000000 176.000000 114.000000 6.000000 -0.511876 0.816823 0.266051
8.39999962 5.63000011 -0.23999999 2 49 230 97.000000 1.000000 4.000000 1.000000 176.000000 114.000000 6.000000 0.810062 -0.439383 -0.388255
8.35000038 5.67999983 -0.25000000 2 49 230 97.000000 1.000000 4.000000 1.000000 176.000000 114.000000 6.000000 0.886278 -0.251733 -0.388771
8.38000011 5.67000008 -0.34999999 2 49 230 97.000000 1.000000 4.000000 1.000000 176.000000 114.000000 6.000000 0.554426 -0.537574 -0.635315
8.40999985 5.61000013 -0.20999999 2 49 230 97.000000 1.000000 4.000000 1.000000 176.000000 114.000000 6.000000 0.762488 -0.539084 -0.357771
8.40999985 5.57000017 -0.25000000 2 49 230 97.000000 1.000000 4.000000 1.000000 176.000000 114.000000 6.000000 -0.702918 0.711237 0.006932
8.39999962 5.57999992 -0.28000000 2 49 230 97.000000 1.000000 4.000000 1.000000 176.000000 114.000000 6.000000 0.735334 -0.480859 -0.477554
8.40999985 5.59999990 -0.30000001 2 49 230 97.000000 1.000000 4.000000 1.000000 176.000000 114.000000 6.000000 0.756894 -0.650613 -0.061758
8.38000011 5.57000017 -0.31999999 2 49 230 97.000000 1.000000 4.000000 1.000000 176.000000 114.000000 6.000000 0.847525 -0.275330 -0.453756
8.47999954 5.67000008 -0.43000001 2 49 230 97.000000 1.000000 4.000000 1.000000 176.000000 114.000000 6.000000 -0.351779 0.695378 0.626658
8.47000027 5.65999985 -0.41999999 2 49 230 97.000000 1.000000 4.000000 1.000000 176.000000 114.000000 6.000000 0.844302 -0.289696 -0.450811
8.44999981 5.63000011 -0.41999999 2 49 230 97.000000 1.000000 4.000000 1.000000 176.000000 114.000000 6.000000 -0.522217 0.782522 0.339040
8.43999958 5.69000006 -0.47000000 2 49 230 97.000000 1.000000 4.000000 1.000000 176.000000 114.000000 6.000000 0.469506 -0.781426 -0.411020
8.47000027 5.63999987 -0.49000001 2 49 230 97.000000 1.000000 4.000000 1.000000 176.000000 114.000000 6.000000 0.765892 -0.388637 -0.512221
8.47999954 5.59999990 -0.51999998 2 49 230 97.000000 1.000000 4.000000 1.000000 176.000000 114.000000 6.000000 0.665939 -0.394937 -0.632890
8.39000034 5.69000006 -0.40000001 2 49 230 97.000000 1.000000 4.000000 1.000000 176.000000 114.000000 6.000000 0.813222 -0.337654 -0.473983
8.35999966 5.67000008 -0.40000001 2 49 230 97.000000 1.000000 4.000000 1.000000 176.000000 114.000000 6.000000 0.848292 -0.259243 -0.461729
8.36999989 5.67999983 -0.43000001 2 49 230 97.000000 1.000000 4.000000 1.000000 176.000000 114.000000 6.000000 0.658275 -0.597975 -0.457275
8.40999985 5.63999987 -0.50999999 2 49 230 97.000000 1.000000 4.000000 1.000000 176.000000 114.000000 6.000000 0.780261 -0.266392 -0.565886
8.35999966 5.57999992 -0.38999999 2 49 230 97.000000 1.000000 4.000000 1.000000 176.000000 114.000000 6.000000 0.752641 -0.564885 -0.338284
8.43000031 5.61000013 -0.47999999 2 49 230 97.000000 1.000000 4.000000 1.000000 176.000000 114.000000 6.000000 -0.679191 0.718521 0.149755
8.34000015 5.59000015 -0.28000000 2 49 230 97.000000 1.000000 4.000000 1.000000 176.000000 114.000000 6.000000 0.749852 -0.338486 -0.568462
8.39999962 5.67000008 -0.62000000 2 49 230 97.000000 1.000000 4.000000 1.000000 176.000000 114.000000 6.000000 0.736305 -0.310956 -0.600967
8.42000008 5.63999987 -0.61000001 2 49 230 97.000000 1.000000 4.000000 1.000000 176.000000 114.000000 6.000000 0.773572 -0.266260 -0.575059
8.42000008 5.65999985 -0.69000000 2 49 230 97.000000 1.000000 4.000000 1.000000 176.000000 114.000000 6.000000 0.978520 -0.071718 -0.193273
8.42000008 5.67999983 -0.69999999 2 49 230 97.000000 1.000000 4.000000 1.000000 176.000000 114.000000 6.000000 0.977023 -0.213105 0.003494
8.43000031 5.61000013 -0.57999998 2 49 230 97.000000 1.000000 4.000000 1.000000 176.000000 114.000000 6.000000 0.616968 -0.650408 -0.443080
8.43000031 5.59999990 -0.57999998 2 49 230 97.000000 1.000000 4.000000 1.000000 176.000000 114.000000 6.000000 0.715672 -0.628826 -0.303959
8.47999954 5.63000011 -0.76999998 2 49 230 97.000000 1.000000 4.000000 1.000000 176.000000 114.000000 6.000000 0.969450 0.010758 -0.245052
8.44999981 5.69000006 -0.72000003 2 49 230 97.000000 1.000000 4.000000 1.000000 176.000000 114.000000 6.000000 -0.631411 0.621362 0.463928
8.44999981 5.63999987 -0.81999999 2 49 230 97.000000 1.000000 4.000000 1.000000 176.000000 114.000000 6.000000 0.990257 0.019065 -0.137941
8.43999958 5.65000010 -0.86000001 2 49 230 97.000000 1.000000 4.000000 1.000000 176.000000 114.000000 6.000000 0.976265 0.144121 -0.161666
8.48999977 5.61000013 -0.72000003 2 49 230 97.000000 1.000000 4.000000 1.000000 176.000000 114.000000 6.000000 0.836272 -0.240908 -0.492557
8.42000008 5.63000011 -0.74000001 2 49 230 97.000000 1.000000 4.000000 1.000000 176.000000 114.000000 6.000000 0.794893 -0.370950 -0.480147
8.48999977 5.40000010 -0.62000000 2 49 230 97.000000 1.000000 4.000000 1.000000 176.000000 114.000000 11.000000 0.982381 0.118080 -0.144862
8.50000000 5.36000013 -0.64999998 2 49 230 97.000000 1.000000 4.000000 1.000000 176.000000 114.000000 11.000000 0.965354 0.006011 -0.260874
8.39000034 5.30000019 -0.22000000 2 49 230 97.000000 1.000000 4.000000 1.000000 176.000000 114.000000 9.000000 0.903714 -0.284530 -0.319912
8.39000034 5.28000021 -0.22000000 2 49 230 97.000000 1.000000 4.000000 1.000000 176.000000 114.000000 9.000000 0.969226 -0.163468 -0.184063
8.39000034 5.30000019 -0.20000000 2 49 230 97.000000 1.000000 4.000000 1.000000 176.000000 114.000000 9.000000 0.742452 -0.668633 -0.041168
8.38000011 5.28999996 -0.23999999 2 49 230 97.000000 1.000000 4.000000 1.000000 176.000000 114.000000 9.000000 0.747070 -0.651254 -0.133245
8.39999962 5.32999992 -0.30000001 2 49 230 97.000000 1.000000 4.000000 1.000000 176.000000 114.000000 9.000000 0.862940 -0.497359 0.089270
8.38000011 5.28000021 -0.31000000 2 49 230 97.000000 1.000000 4.000000 1.000000 176.000000 114.000000 9.000000 0.979557 -0.149466 -0.134643
8.35999966 5.26999998 -0.31000000 2 49 230 97.000000 1.000000 4.000000 1.000000 176.000000 114.000000 9.000000 0.852635 -0.509272 0.116859
8.36999989 5.30000019 -0.33000001 2 49 230 97.000000 1.000000 4.000000 1.000000 176.000000 114.000000 9.000000 0.981664 -0.085730 -0.170252
8.43999958 5.28999996 -0.46000001 2 49 230 97.000000 1.000000 4.000000 1.000000 176.000000 114.000000 9.000000 0.982342 -0.017356 -0.186286
8.39000034 5.28999996 -0.41999999 2 49 230 97.000000 1.000000 4.000000 1.000000 176.000000 114.000000 9.000000 0.985554 -0.120949 0.118554
8.36999989 5.32000017 -0.44000000 2 49 230 97.000000 1.000000 4.000000 1.000000 176.000000 114.000000 9.000000 0.873420 -0.486136 -0.028437
8.38000011 5.34999990 -0.43000001 2 49 230 97.000000 1.000000 4.000000 1.000000 176.000000 114.000000 9.000000 0.804990 -0.319138 -0.500142
8.35000038 5.28000021 -0.40000001 2 49 230 97.000000 1.000000 4.000000 1.000000 176.000000 114.000000 9.000000 0.988874 -0.087563 -0.120253
8.39000034 5.32000017 -0.47000000 2 49 230 97.000000 1.000000 4.000000 1.000000 176.000000 114.000000 9.000000 0.914822 -0.394014 -0.088619
8.39000034 5.30000019 -0.49000001 2 49 230 97.000000 1.000000 4.000000 1.000000 176.000000 114.000000 9.000000 0.939205 0.189501 -0.286326
8.39999962 5.28999996 -0.49000001 2 49 230 97.000000 1.000000 4.000000 1.000000 176.000000 114.000000 9.000000 0.962600 0.211431 -0.169407
8.39000034 5.30000019 -0.50000000 2 49 230 97.000000 1.000000 4.000000 1.000000 176.000000 114.000000 9.000000 0.987010 0.078820 0.139993
8.34000015 5.32999992 -0.34999999 2 49 230 97.000000 1.000000 4.000000 1.000000 176.000000 114.000000 9.000000 0.815475 -0.484237 -0.317041
8.43999958 5.32000017 -0.58999997 2 49 230 97.000000 1.000000 4.000000 1.000000 176.000000 114.000000 55.000000 0.933382 -0.228784 -0.276506
8.51000023 5.30999994 -0.62000000 2 49 230 97.000000 1.000000 4.000000 1.000000 176.000000 114.000000 11.000000 0.961962 -0.271132 -0.033427
8.42000008 5.30999994 -0.61000001 2 49 230 97.000000 1.000000 4.000000 1.000000 176.000000 114.000000 55.000000 0.900636 -0.423257 0.098529
8.38000011 5.30999994 -0.54000002 2 49 230 97.000000 1.000000 4.000000 1.000000 176.000000 114.000000 9.000000 0.980461 -0.134091 -0.143932
8.38000011 5.30999994 -0.55000001 2 49 230 97.000000 1.000000 4.000000 1.000000 176.000000 114.000000 9.000000 0.953133 -0.176108 -0.246013
8.40999985 5.34000015 -0.63000000 2 49 230 97.000000 1.000000 4.000000 1.000000 176.000000 114.000000 55.000000 0.956285 -0.264392 -0.124962
8.39000034 5.32000017 -0.63999999 2 49 230 97.000000 1.000000 4.000000 1.000000 176.000000 114.000000 55.000000 0.928267 -0.306597 -0.210520
8.40999985 5.32999992 -0.67000002 2 49 230 97.000000 1.000000 4.000000 1.000000 176.000000 114.000000 55.000000 0.926494 -0.358863 0.113253
8.35999966 5.34000015 -0.68000001 2 49 230 97.000000 1.000000 4.000000 1.000000 176.000000 114.000000 55.000000 0.953464 0.181548 -0.240719
8.35999966 5.34000015 -0.67000002 2 49 230 97.000000 1.000000 4.000000 1.000000 176.000000 114.000000 55.000000 0.986534 0.108293 0.122573
8.35999966 5.28999996 -0.70999998 2 49 230 97.000000 1.000000 4.000000 1.000000 176.000000 114.000000 55.000000 0.982516 -0.090416 0.162748
8.46000004 5.32000017 -0.73000002 2 49 230 97.000000 1.000000 4.000000 1.000000 176.000000 114.000000 55.000000 0.979646 -0.008115 -0.200567
8.36999989 5.30999994 -0.72000003 2 49 230 97.000000 1.000000 4.000000 1.000000 176.000000 114.000000 55.000000 0.972965 -0.202126 -0.111734
8.39000034 5.32000017 -0.86000001 2 49 230 97.000000 1.000000 4.000000 1.000000 176.000000 114.000000 55.000000 0.966143 0.148737 0.210818
8.38000011 5.32999992 -0.85000002 2 49 230 97.000000 1.000000 4.000000 1.000000 176.000000 114.000000 55.000000 0.971350 0.091495 0.219337
8.77999973 5.57999992 -0.88999999 2 49 230 97.000000 1.000000 4.000000 1.000000 176.000000 114.000000 6.000000 0.925929 -0.377326 -0.016741
8.77999973 5.59000015 -0.91000003 2 49 230 97.000000 1.000000 4.000000 1.000000 176.000000 114.000000 6.000000 0.998031 -0.061658 0.011496
8.68999958 5.61999989 -0.97000003 2 49 230 97.000000 1.000000 4.000000 1.000000 176.000000 114.000000 6.000000 0.994620 0.083535 0.061259
8.75000000 5.59999990 -0.89999998 2 49 230 97.000000 1.000000 4.000000 1.000000 176.000000 114.000000 6.000000 0.947029 -0.314813 -0.063481
8.77000046 5.59000015 -0.91000003 2 49 230 97.000000 1.000000 4.000000 1.000000 176.000000 114.000000 6.000000 0.813546 -0.571089 0.109544
8.76000023 5.53999996 -0.91000003 2 49 230 97.000000 1.000000 4.000000 1.000000 176.000000 114.000000 6.000000 0.886856 -0.461486 -0.022740
8.75000000 5.53999996 -0.91000003 2 49 230 97.000000 1.000000 4.000000 1.000000 176.000000 114.000000 6.000000 0.917554 -0.396246 -0.032911
8.76000023 5.55000019 -0.91000003 2 49 230 97.000000 1.000000 4.000000 1.000000 176.000000 114.000000 6.000000 0.953740 -0.208505 -0.216576
8.69999981 5.57999992 -0.92000002 2 49 230 97.000000 1.000000 4.000000 1.000000 176.000000 114.000000 6.000000 0.982930 0.125144 0.134864
8.69999981 5.57000017 -1.00999999 2 49 230 97.000000 1.000000 4.000000 1.000000 176.000000 114.000000 6.000000 0.986847 0.122317 -0.105691
8.71000004 5.57000017 -1.07000005 2 49 230 97.000000 1.000000 4.000000 1.000000 176.000000 114.000000 6.000000 0.962187 -0.090724 0.256839
8.69999981 5.61000013 -1.14999998 2 49 230 97.000000 1.000000 4.000000 1.000000 176.000000 114.000000 6.000000 0.948578 0.284975 0.137805
8.69999981 5.61000013 -1.21000004 2 49 230 97.000000 1.000000 4.000000 1.000000 176.000000 114.000000 6.000000 0.875906 0.482479 -0.001329
8.81999969 5.48999977 -0.93000001 2 49 230 97.000000 1.000000 4.000000 1.000000 176.000000 114.000000 6.000000 0.542624 0.620383 0.566290
8.80000019 5.48999977 -0.93000001 2 49 230 97.000000 1.000000 4.000000 1.000000 176.000000 114.000000 6.000000 0.572229 0.666202 0.478256
8.78999996 5.50000000 -0.93000001 2 49 230 97.000000 1.000000 4.000000 1.000000 176.000000 114.000000 6.000000 0.807497 0.550079 0.212983
8.80000019 5.46999979 -0.95999998 2 49 230 97.000000 1.000000 4.000000 1.000000 176.000000 114.000000 6.000000 0.674264 0.667796 0.315303
8.80000019 5.51999998 -1.00000000 2 49 230 97.000000 1.000000 4.000000 1.000000 176.000000 114.000000 6.000000 0.705574 0.687207 0.172950
8.67000008 5.63000011 -0.91000003 2 49 230 97.000000 1.000000 4.000000 1.000000 176.000000 114.000000 6.000000 0.980768 0.066025 -0.183669
8.68000031 5.61999989 -1.01999998 2 49 230 97.000000 1.000000 4.000000 1.000000 176.000000 114.000000 6.000000 0.968852 0.239422 -0.063267
8.60999966 5.65999985 -1.00999999 2 49 230 97.000000 1.000000 4.000000 1.000000 176.000000 114.000000 6.000000 0.899565 -0.327519 0.288987
8.60999966 5.65000010 -1.00000000 2 49 230 97.000000 1.000000 4.000000 1.000000 176.000000 114.000000 6.000000 0.955544 -0.284220 0.078450
8.68000031 5.61000013 -0.93000001 2 49 230 97.000000 1.000000 4.000000 1.000000 176.000000 114.000000 6.000000 0.929002 -0.189163 0.318075
8.68000031 5.61000013 -1.00999999 2 49 230 97.000000 1.000000 4.000000 1.000000 176.000000 114.000000 6.000000 0.998801 -0.038536 0.030204
8.59000015 5.63999987 -0.89999998 2 49 230 97.000000 1.000000 4.000000 1.000000 176.000000 114.000000 6.000000 0.775924 -0.630000 0.032272
8.59000015 5.63999987 -0.88999999 2 49 230 97.000000 1.000000 4.000000 1.000000 176.000000 114.000000 6.000000 0.924694 0.029997 -0.379529
8.56000042 5.63999987 -0.95999998 2 49 230 97.000000 1.000000 4.000000 1.000000 176.000000 114.000000 6.000000 -0.892327 0.407462 0.194238
8.57999992 5.61999989 -0.94999999 2 49 230 97.000000 1.000000 4.000000 1.000000 176.000000 114.000000 6.000000 0.994457 0.083709 0.063618
8.56000042 5.63000011 -0.94000000 2 49 230 97.000000 1.000000 4.000000 1.000000 176.000000 114.000000 6.000000 0.823894 -0.423853 -0.376229
8.55000019 5.63999987 -0.89999998 2 49 230 97.000000 1.000000 4.000000 1.000000 176.000000 114.000000 6.000000 0.906853 -0.337332 -0.252634
8.55000019 5.65000010 -0.94000000 2 49 230 97.000000 1.000000 4.000000 1.000000 176.000000 114.000000 6.000000 0.912337 -0.394562 0.109370
8.55000019 5.63999987 -0.94999999 2 49 230 97.000000 1.000000 4.000000 1.000000 176.000000 114.000000 6.000000 0.875871 -0.458928 0.149115
8.56999969 5.65999985 -0.98000002 2 49 230 97.000000 1.000000 4.000000 1.000000 176.000000 114.000000 6.000000 0.938545 -0.169021 0.300939
8.56000042 5.63999987 -0.98000002 2 49 230 97.000000 1.000000 4.000000 1.000000 176.000000 114.000000 6.000000 0.971454 -0.201383 -0.125390
8.59000015 5.61999989 -1.00999999 2 49 230 97.000000 1.000000 4.000000 1.000000 176.000000 114.000000 6.000000 0.983828 0.077702 0.161381
8.56000042 5.61999989 -0.99000001 2 49 230 97.000000 1.000000 4.000000 1.000000 176.000000 114.000000 6.000000 0.969014 -0.155711 0.191744
8.56000042 5.63000011 -1.01999998 2 49 230 97.000000 1.000000 4.000000 1.000000 176.000000 114.000000 6.000000 0.948305 0.306536 -0.082178
8.56999969 5.61999989 -1.04999995 2 49 230 97.000000 1.000000 4.000000 1.000000 176.000000 114.000000 6.000000 0.977023 -0.117938 -0.177528
8.53999996 5.69000006 -0.97000003 2 49 230 97.000000 1.000000 4.000000 1.000000 176.000000 114.000000 6.000000 0.834884 -0.514820 -0.194756
8.55000019 5.65000010 -0.97000003 2 49 230 97.000000 1.000000 4.000000 1.000000 176.000000 114.000000 6.000000 0.962171 0.061629 0.265383
8.52000046 5.65000010 -1.02999997 2 49 230 97.000000 1.000000 4.000000 1.000000 176.000000 114.000000 6.000000 0.962601 0.261838 0.069570
8.53999996 5.59999990 -0.94999999 2 49 230 97.000000 1.000000 4.000000 1.000000 176.000000 114.000000 6.000000 0.964565 -0.255289 -0.066652
8.55000019 5.61000013 -0.97000003 2 49 230 97.000000 1.000000 4.000000 1.000000 176.000000 114.000000 6.000000 0.959042 0.051670 0.278513
8.55000019 5.61000013 -1.00999999 2 49 230 97.000000 1.000000 4.000000 1.000000 176.000000 114.000000 6.000000 0.970442 0.094157 0.222210
8.55000019 5.61000013 -0.98000002 2 49 230 97.000000 1.000000 4.000000 1.000000 176.000000 114.000000 6.000000 0.929351 -0.368380 0.024559
8.55000019 5.61000013 -0.99000001 2 49 230 97.000000 1.000000 4.000000 1.000000 176.000000 114.000000 6.000000 0.919801 -0.216003 0.327581
8.65999985 5.69000006 -1.20000005 2 49 230 97.000000 1.000000 4.000000 1.000000 176.000000 114.000000 6.000000 0.933935 0.089519 0.346050
8.63000011 5.63999987 -1.17999995 2 49 230 97.000000 1.000000 4.000000 1.000000 176.000000 114.000000 6.000000 0.982925 0.149075 0.107867
8.61999989 5.63999987 -1.22000003 2 49 230 97.000000 1.000000 4.000000 1.000000 176.000000 114.000000 6.000000 0.873735 0.073856 0.480763
8.64000034 5.63999987 -1.21000004 2 49 230 97.000000 1.000000 4.000000 1.000000 176.000000 114.000000 6.000000 0.995437 0.016212 0.094032
8.68000031 5.59000015 -1.07000005 2 49 230 97.000000 1.000000 4.000000 1.000000 176.000000 114.000000 6.000000 0.981869 0.150025 0.115873
8.64999962 5.57000017 -1.12000000 2 49 230 97.000000 1.000000 4.000000 1.000000 176.000000 114.000000 6.000000 0.969068 0.142472 0.201515
8.65999985 5.57999992 -1.13000000 2 49 230 97.000000 1.000000 4.000000 1.000000 176.000000 114.000000 6.000000 0.871849 -0.048055 0.487412
8.64999962 5.59999990 -1.12000000 2 49 230 97.000000 1.000000 4.000000 1.000000 176.000000 114.000000 6.000000 0.970617 0.030294 0.238716
8.60999966 5.61000013 -1.10000002 2 49 230 97.000000 1.000000 4.000000 1.000000 176.000000 114.000000 6.000000 0.983137 -0.181805 0.019686
8.64000034 5.59999990 -1.16999996 2 49 230 97.000000 1.000000 4.000000 1.000000 176.000000 114.000000 6.000000 0.970995 0.055380 0.232596
8.60000038 5.63999987 -1.11000001 2 49 230 97.000000 1.000000 4.000000 1.000000 176.000000 114.000000 6.000000 0.930887 0.364928 -0.016646
8.56000042 5.63000011 -1.20000005 2 49 230 97.000000 1.000000 4.000000 1.000000 176.000000 114.000000 6.000000 0.860931 0.398893 0.315726
8.59000015 5.61999989 -1.19000006 2 49 230 97.000000 1.000000 4.000000 1.000000 176.000000 114.000000 6.000000 0.939801 0.323098 -0.111275
8.52999973 5.63000011 -1.19000006 2 49 230 97.000000 1.000000 4.000000 1.000000 176.000000 114.000000 6.000000 0.986997 0.061906 -0.148342
8.60000038 5.59999990 -1.08000004 2 49 230 97.000000 1.000000 4.000000 1.000000 176.000000 114.000000 6.000000 0.876036 -0.193526 0.441711
8.56000042 5.61000013 -1.05999994 2 49 230 97.000000 1.000000 4.000000 1.000000 176.000000 114.000000 6.000000 0.933722 0.349316 0.078364
8.56000042 5.59999990 -1.07000005 2 49 230 97.000000 1.000000 4.000000 1.000000 176.000000 114.000000 6.000000 0.991423 -0.130653 -0.003294
8.56000042 5.61000013 -1.05999994 2 49 230 97.000000 1.000000 4.000000 1.000000 176.000000 114.000000 6.000000 0.933722 0.349316 0.078364
8.57999992 5.59999990 -1.13999999 2 49 230 97.000000 1.000000 4.000000 1.000000 176.000000 114.000000 6.000000 0.958552 -0.062211 0.278044
8.56000042 5.61000013 -1.21000004 2 49 230 97.000000 1.000000 4.000000 1.000000 176.000000 114.000000 6.000000 0.931736 0.362127 0.027063
8.72000027 5.59999990 -1.35000002 2 49 230 97.000000 1.000000 4.000000 1.000000 176.000000 114.000000 6.000000 0.684953 0.248355 0.684953
8.72999954 5.53999996 -1.32000005 2 49 230 97.000000 1.000000 4.000000 1.000000 176.000000 114.000000 6.000000 0.216423 0.633699 0.742689
8.68999958 5.57000017 -1.52999997 2 49 230 97.000000 1.000000 4.000000 1.000000 176.000000 114.000000 6.000000 0.555611 0.345029 0.756473
8.69999981 5.48000002 -1.23000002 2 49 230 97.000000 1.000000 4.000000 1.000000 176.000000 114.000000 6.000000 0.334910 0.739390 0.584070
8.71000004 5.51999998 -1.38999999 2 49 230 97.000000 1.000000 4.000000 1.000000 176.000000 114.000000 6.000000 0.592565 0.788579 0.164350
8.60999966 5.65000010 -1.25999999 2 49 230 97.000000 1.000000 4.000000 1.000000 176.000000 114.000000 6.000000 0.931756 0.266417 0.246683
8.64999962 5.63000011 -1.36000001 2 49 230 97.000000 1.000000 4.000000 1.000000 176.000000 114.000000 6.000000 0.787357 0.122609 0.604182
8.64000034 5.65999985 -1.37000000 2 49 230 97.000000 1.000000 4.000000 1.000000 176.000000 114.000000 6.000000 0.891379 0.450453 -0.050353
8.60999966 5.63999987 -1.33000004 2 49 230 97.000000 1.000000 4.000000 1.000000 176.000000 114.000000 6.000000 0.876375 0.481539 0.009337
8.64000034 5.65000010 -1.38000000 2 49 230 97.000000 1.000000 4.000000 1.000000 176.000000 114.000000 6.000000 0.980153 0.093987 0.174548
8.64999962 5.61000013 -1.25000000 2 49 230 97.000000 1.000000 4.000000 1.000000 176.000000 114.000000 6.000000 0.922481 0.375223 0.090758
8.68000031 5.59999990 -1.25999999 2 49 230 97.000000 1.000000 4.000000 1.000000 176.000000 114.000000 6.000000 0.813950 0.580200 0.029219
8.59000015 5.67000008 -1.34000003 2 49 230 97.000000 1.000000 4.000000 1.000000 176.000000 114.000000 6.000000 0.938716 0.180575 0.293607
8.59000015 5.67000008 -1.36000001 2 49 230 97.000000 1.000000 4.000000 1.000000 176.000000 114.000000 6.000000 0.995919 0.075598 0.049303
8.56999969 5.63000011 -1.33000004 2 49 230 97.000000 1.000000 4.000000 1.000000 176.000000 114.000000 6.000000 0.952774 0.303658 0.003688
8.60000038 5.63000011 -1.33000004 2 49 230 97.000000 1.000000 4.000000 1.000000 176.000000 114.000000 6.000000 0.708003 0.304812 0.637041
8.53999996 5.67000008 -1.34000003 2 49 230 97.000000 1.000000 4.000000 1.000000 176.000000 114.000000 6.000000 0.805842 0.573474 0.147465
8.56999969 5.59000015 -1.29999995 2 49 230 97.000000 1.000000 4.000000 1.000000 176.000000 114.000000 6.000000 0.891809 0.435271 0.123350
8.60000038 5.55999994 -1.26999998 2 49 230 97.000000 1.000000 4.000000 1.000000 176.000000 114.000000 6.000000 0.922848 0.383538 0.035343
8.56999969 5.61000013 -1.32000005 2 49 230 97.000000 1.000000 4.000000 1.000000 176.000000 114.000000 6.000000 0.915510 0.291628 0.277119
8.56999969 5.61000013 -1.32000005 2 49 230 97.000000 1.000000 4.000000 1.000000 176.000000 114.000000 6.000000 0.915510 0.291628 0.277119
8.59000015 5.55999994 -1.32000005 2 49 230 97.000000 1.000000 4.000000 1.000000 176.000000 114.000000 6.000000 0.942231 0.225527 0.247664
8.57999992 5.55999994 -1.38000000 2 49 230 97.000000 1.000000 4.000000 1.000000 176.000000 114.000000 6.000000 0.892518 0.099169 0.439974
8.67000008 5.63000011 -1.41999996 2 49 230 97.000000 1.000000 4.000000 1.000000 176.000000 114.000000 6.000000 0.842982 0.200566 0.499154
8.63000011 5.65000010 -1.46000004 2 49 230 97.000000 1.000000 4.000000 1.000000 176.000000 114.000000 6.000000 0.845712 0.497213 0.193778
8.64999962 5.65999985 -1.50999999 2 49 230 97.000000 1.000000 4.000000 1.000000 176.000000 114.000000 6.000000 0.864433 0.402382 0.301404
8.67000008 5.61999989 -1.50000000 2 49 230 97.000000 1.000000 4.000000 1.000000 176.000000 114.000000 6.000000 0.793430 0.601260 0.094629
8.65999985 5.59000015 -1.49000001 2 49 230 97.000000 1.000000 4.000000 1.000000 176.000000 114.000000 6.000000 0.871681 0.346535 0.346535
8.63000011 5.59999990 -1.55999994 2 49 230 97.000000 1.000000 4.000000 1.000000 176.000000 114.000000 6.000000 0.848837 0.337977 0.406507
8.56000042 5.65000010 -1.46000004 2 49 230 97.000000 1.000000 4.000000 1.000000 176.000000 114.000000 6.000000 0.646223 0.678943 0.348470
8.60000038 5.53999996 -1.40999997 2 49 230 97.000000 1.000000 4.000000 1.000000 176.000000 114.000000 6.000000 0.894358 0.430931 0.120095
8.60000038 5.61000013 -1.50000000 2 49 230 97.000000 1.000000 4.000000 1.000000 176.000000 114.000000 6.000000 0.647419 0.683296 0.337571
8.52999973 5.53000021 -1.50999999 2 49 230 97.000000 1.000000 4.000000 1.000000 176.000000 114.000000 6.000000 0.520278 0.819785 0.239297
8.55000019 5.32000017 -1.30999994 2 49 230 97.000000 1.000000 4.000000 1.000000 176.000000 114.000000 3.000000 0.504088 0.588384 0.632218
8.53999996 5.26999998 -1.26999998 2 49 230 97.000000 1.000000 4.000000 1.000000 176.000000 114.000000 3.000000 0.642635 0.727481 0.240399
8.52000046 5.32000017 -1.37000000 2 49 230 97.000000 1.000000 4.000000 1.000000 176.000000 114.000000 3.000000 0.655553 0.363101 0.662125
8.52999973 5.30000019 -1.38999999 2 49 230 97.000000 1.000000 4.000000 1.000000 176.000000 114.000000 3.000000 0.871868 0.374094 0.316071
8.52999973 5.30000019 -1.38999999 2 49 230 97.000000 1.000000 4.000000 1.000000 176.000000 114.000000 3.000000 0.871868 0.374094 0.316071
8.53999996 5.34999990 -1.33000004 2 49 230 97.000000 1.000000 4.000000 1.000000 176.000000 114.000000 3.000000 0.516894 0.658325 0.547201
8.55000019 5.28999996 -1.36000001 2 49 230 97.000000 1.000000 4.000000 1.000000 176.000000 114.000000 3.000000 0.715557 0.258616 0.648919
8.52000046 5.26000023 -1.33000004 2 49 230 97.000000 1.000000 4.000000 1.000000 176.000000 114.000000 3.000000 0.497146 0.681274 0.537319
8.53999996 5.32000017 -1.44000006 2 49 230 97.000000 1.000000 4.000000 1.000000 176.000000 114.000000 3.000000 0.609549 0.398107 0.685537
8.52999973 5.30999994 -1.46000004 2 49 230 97.000000 1.000000 4.000000 1.000000 176.000000 114.000000 3.000000 0.620521 0.663774 0.417562
8.53999996 5.30000019 -1.41999996 2 49 230 97.000000 1.000000 4.000000 1.000000 176.000000 114.000000 3.000000 0.733618 0.664323 0.143108
8.53999996 5.30000019 -1.39999998 2 49 230 97.000000 1.000000 4.000000 1.000000 176.000000 114.000000 3.000000 0.763181 0.525602 0.375895
8.46000004 5.61999989 -1.02999997 2 49 230 97.000000 1.000000 4.000000 1.000000 176.000000 114.000000 6.000000 0.949432 0.092979 -0.299890
8.51000023 5.61000013 -0.88999999 2 49 230 97.000000 1.000000 4.000000 1.000000 176.000000 114.000000 6.000000 0.942299 -0.074702 0.326332
8.51000023 5.61000013 -0.88999999 2 49 230 97.000000 1.000000 4.000000 1.000000 176.000000 114.000000 6.000000 0.942299 -0.074702 0.326332
8.44999981 5.59999990 -0.92000002 2 49 230 97.000000 1.000000 4.000000 1.000000 176.000000 114.000000 6.000000 0.948002 0.115675 0.296500
8.47999954 5.55999994 -1.00000000 2 49 230 97.000000 1.000000 4.000000 1.000000 176.000000 114.000000 6.000000 0.915316 0.402635 0.009063
8.47999954 5.55999994 -1.00000000 2 49 230 97.000000 1.000000 4.000000 1.000000 176.000000 114.000000 6.000000 0.915316 0.402635 0.009063
8.47999954 5.53999996 -1.04999995 2 49 230 97.000000 1.000000 4.000000 1.000000 176.000000 114.000000 6.000000 0.943493 0.039686 0.329007
8.47999954 5.53999996 -1.04999995 2 49 230 97.000000 1.000000 4.000000 1.000000 176.000000 114.000000 6.000000 0.943493 0.039686 0.329007
8.47000027 5.61000013 -1.00999999 2 49 230 97.000000 1.000000 4.000000 1.000000 176.000000 114.000000 6.000000 0.924622 0.359652 0.125396
8.46000004 5.61000013 -1.00999999 2 49 230 97.000000 1.000000 4.000000 1.000000 176.000000 114.000000 6.000000 0.988091 0.146427 0.047272
8.47000027 5.59000015 -1.03999996 2 49 230 97.000000 1.000000 4.000000 1.000000 176.000000 114.000000 6.000000 0.950099 0.292033 0.109678
8.42000008 5.63999987 -0.95999998 2 49 230 97.000000 1.000000 4.000000 1.000000 176.000000 114.000000 6.000000 0.979204 -0.005794 0.202794
8.42000008 5.63000011 -0.97000003 2 49 230 97.000000 1.000000 4.000000 1.000000 176.000000 114.000000 6.000000 0.986174 0.165677 -0.003381
8.43000031 5.61000013 -0.91000003 2 49 230 97.000000 1.000000 4.000000 1.000000 176.000000 114.000000 6.000000 0.972318 0.093853 0.213985
8.42000008 5.55999994 -0.93000001 2 49 230 97.000000 1.000000 4.000000 1.000000 176.000000 114.000000 6.000000 0.964115 0.207435 0.165687
8.47999954 5.63000011 -1.12000000 2 49 230 97.000000 1.000000 4.000000 1.000000 176.000000 114.000000 6.000000 0.955416 -0.291547 0.046698
8.43999958 5.63999987 -1.05999994 2 49 230 97.000000 1.000000 4.000000 1.000000 176.000000 114.000000 6.000000 0.918387 -0.272489 0.286906
8.50000000 5.63000011 -1.22000003 2 49 230 97.000000 1.000000 4.000000 1.000000 176.000000 114.000000 6.000000 0.956695 -0.217491 0.193474
8.48999977 5.59999990 -1.09000003 2 49 230 97.000000 1.000000 4.000000 1.000000 176.000000 114.000000 6.000000 0.996566 -0.031311 -0.076659
8.47999954 5.57000017 -1.09000003 2 49 230 97.000000 1.000000 4.000000 1.000000 176.000000 114.000000 6.000000 0.907769 0.401432 -0.121689
8.48999977 5.57999992 -1.07000005 2 49 230 97.000000 1.000000 4.000000 1.000000 176.000000 114.000000 6.000000 0.968570 0.110730 -0.222733
8.48999977 5.55999994 -1.07000005 2 49 230 97.000000 1.000000 4.000000 1.000000 176.000000 114.000000 6.000000 0.899245 0.420773 -0.119618
8.47999954 5.59999990 -1.16999996 2 49 230 97.000000 1.000000 4.000000 1.000000 176.000000 114.000000 6.000000 0.977778 0.196043 0.074277
8.48999977 5.59999990 -1.16999996 2 49 230 97.000000 1.000000 4.000000 1.000000 176.000000 114.000000 6.000000 0.926797 0.312705 0.207999
8.50000000 5.55999994 -1.14999998 2 49 230 97.000000 1.000000 4.000000 1.000000 176.000000 114.000000 6.000000 0.916154 0.256176 0.308279
8.47999954 5.55999994 -1.21000004 2 49 230 97.000000 1.000000 4.000000 1.000000 176.000000 114.000000 6.000000 0.832085 0.020630 0.554265
8.47999954 5.55999994 -1.20000005 2 49 230 97.000000 1.000000 4.000000 1.000000 176.000000 114.000000 6.000000 0.824750 0.339046 0.452587
8.47000027 5.61000013 -1.14999998 2 49 230 97.000000 1.000000 4.000000 1.000000 176.000000 114.000000 6.000000 0.921526 0.386700 -0.035393
8.47000027 5.61000013 -1.21000004 2 49 230 97.000000 1.000000 4.000000 1.000000 176.000000 114.000000 6.000000 0.984199 -0.026663 -0.175046
8.46000004 5.57000017 -1.19000006 2 49 230 97.000000 1.000000 4.000000 1.000000 176.000000 114.000000 6.000000 0.876827 0.014725 0.480581
8.47000027 5.59999990 -1.21000004 2 49 230 97.000000 1.000000 4.000000 1.000000 176.000000 114.000000 6.000000 0.937631 0.289461 -0.192512
8.47000027 5.59999990 -1.19000006 2 49 230 97.000000 1.000000 4.000000 1.000000 176.000000 114.000000 6.000000 0.890269 0.354611 0.285784
8.43999958 5.36000013 -1.22000003 2 49 230 97.000000 1.000000 4.000000 1.000000 176.000000 114.000000 3.000000 0.904015 0.191761 0.382080
8.40999985 5.36000013 -1.13000000 2 49 230 97.000000 1.000000 4.000000 1.000000 176.000000 114.000000 3.000000 0.637225 0.479180 0.603598
8.19999981 5.42999983 -0.99000001 2 49 230 97.000000 1.000000 4.000000 1.000000 176.000000 114.000000 3.000000 0.885968 0.096881 0.453514
8.27999973 5.46000004 -1.20000005 2 49 230 97.000000 1.000000 4.000000 1.000000 176.000000 114.000000 3.000000 0.857536 0.280732 0.431069
8.27000046 5.48000002 -1.21000004 2 49 230 97.000000 1.000000 4.000000 1.000000 176.000000 114.000000 3.000000 0.842331 0.533712 0.075031
8.26000023 5.44000006 -1.21000004 2 49 230 97.000000 1.000000 4.000000 1.000000 176.000000 114.000000 3.000000 0.877366 0.045169 0.477692
8.25000000 5.44000006 -1.13000000 2 49 230 97.000000 1.000000 4.000000 1.000000 176.000000 114.000000 3.000000 0.860928 -0.017625 0.508422
8.25000000 5.44000006 -1.20000005 2 49 230 97.000000 1.000000 4.000000 1.000000 176.000000 114.000000 3.000000 0.918458 -0.051838 0.392106
8.25000000 5.38000011 -1.17999995 2 49 230 97.000000 1.000000 4.000000 1.000000 176.000000 114.000000 3.000000 0.839321 0.257186 0.478952
8.48999977 5.63000011 -1.23000002 2 49 230 97.000000 1.000000 4.000000 1.000000 176.000000 114.000000 6.000000 0.958429 0.008568 0.285203
8.50000000 5.61999989 -1.23000002 2 49 230 97.000000 1.000000 4.000000 1.000000 176.000000 114.000000 6.000000 0.967826 -0.013225 0.251274
8.47999954 5.57999992 -1.26999998 2 49 230 97.000000 1.000000 4.000000 1.000000 176.000000 114.000000 6.000000 0.896771 0.036193 0.441013
8.48999977 5.57000017 -1.26999998 2 49 230 97.000000 1.000000 4.000000 1.000000 176.000000 114.000000 6.000000 0.792104 0.609203 0.037987
8.50000000 5.57000017 -1.28999996 2 49 230 97.000000 1.000000 4.000000 1.000000 176.000000 114.000000 6.000000 0.967895 0.045505 0.247201
8.51000023 5.55999994 -1.25999999 2 49 230 97.000000 1.000000 4.000000 1.000000 176.000000 114.000000 6.000000 0.890316 0.455109 -0.014595
8.50000000 5.55999994 -1.28999996 2 49 230 97.000000 1.000000 4.000000 1.000000 176.000000 114.000000 6.000000 0.896765 0.375493 0.234131
8.47999954 5.57000017 -1.35000002 2 49 230 97.000000 1.000000 4.000000 1.000000 176.000000 114.000000 6.000000 0.960454 0.120869 0.250836
8.50000000 5.57999992 -1.32000005 2 49 230 97.000000 1.000000 4.000000 1.000000 176.000000 114.000000 6.000000 0.850038 0.436590 0.294659
8.47999954 5.53999996 -1.41999996 2 49 230 97.000000 1.000000 4.000000 1.000000 176.000000 114.000000 6.000000 0.968918 0.194298 0.153122
8.43000031 5.46000004 -1.29999995 2 49 230 97.000000 1.000000 4.000000 1.000000 176.000000 114.000000 3.000000 0.676349 0.251849 0.692188
8.35999966 5.36000013 -1.30999994 2 49 230 97.000000 1.000000 4.000000 1.000000 176.000000 114.000000 3.000000 0.522828 0.496102 0.693206
8.39999962 5.38999987 -1.36000001 2 49 230 97.000000 1.000000 4.000000 1.000000 176.000000 114.000000 3.000000 0.628855 0.258195 0.733401
8.35000038 5.42999983 -1.37000000 2 49 230 97.000000 1.000000 4.000000 1.000000 176.000000 114.000000 3.000000 0.631739 0.735716 0.244188
8.51000023 5.51000023 -1.46000004 2 49 230 97.000000 1.000000 4.000000 1.000000 176.000000 114.000000 6.000000 0.927541 0.326955 0.181018
8.39999962 5.38000011 -1.39999998 2 49 230 97.000000 1.000000 4.000000 1.000000 176.000000 114.000000 3.000000 0.917915 0.167791 0.359552
8.43000031 5.36000013 -1.41999996 2 49 230 97.000000 1.000000 4.000000 1.000000 176.000000 114.000000 3.000000 0.676431 0.542152 0.498511
8.34000015 5.48000002 -1.25000000 2 49 230 97.000000 1.000000 4.000000 1.000000 176.000000 114.000000 3.000000 0.881271 -0.091069 0.463753
8.31000042 5.46000004 -1.28999996 2 49 230 97.000000 1.000000 4.000000 1.000000 176.000000 114.000000 3.000000 0.682542 0.646704 0.340456
8.28999996 5.46999979 -1.30999994 2 49 230 97.000000 1.000000 4.000000 1.000000 176.000000 114.000000 3.000000 0.880853 0.424882 0.208740
8.30000019 5.44999981 -1.35000002 2 49 230 97.000000 1.000000 4.000000 1.000000 176.000000 114.000000 3.000000 0.832347 0.217597 0.509755
8.34000015 5.40999985 -1.28999996 2 49 230 97.000000 1.000000 4.000000 1.000000 176.000000 114.000000 3.000000 0.799272 0.305464 0.517548
8.31999969 5.42999983 -1.36000001 2 49 230 97.000000 1.000000 4.000000 1.000000 176.000000 114.000000 3.000000 0.607467 0.398909 0.686918
8.31999969 5.40999985 -1.36000001 2 49 230 97.000000 1.000000 4.000000 1.000000 176.000000 114.000000 3.000000 0.534897 0.609142 0.585518
8.32999992 5.40000010 -1.35000002 2 49 230 97.000000 1.000000 4.000000 1.000000 176.000000 114.000000 3.000000 0.634842 0.661362 0.399470
8.31999969 5.40999985 -1.32000005 2 49 230 97.000000 1.000000 4.000000 1.000000 176.000000 114.000000 3.000000 0.657202 0.311646 0.686267
8.31999969 5.42000008 -1.36000001 2 49 230 97.000000 1.000000 4.000000 1.000000 176.000000 114.000000 3.000000 0.684708 0.448142 0.574755
8.47999954 5.25000000 -1.20000005 2 49 230 97.000000 1.000000 4.000000 1.000000 176.000000 114.000000 3.000000 0.481552 0.645985 0.592293
8.40999985 5.32999992 -1.09000003 2 49 230 97.000000 1.000000 4.000000 1.000000 176.000000 114.000000 3.000000 0.591312 0.496972 0.635113
8.39000034 5.30999994 -1.12000000 2 49 230 97.000000 1.000000 4.000000 1.000000 176.000000 114.000000 3.000000 0.680626 0.553531 0.479950
8.42000008 5.28000021 -1.07000005 2 49 230 97.000000 1.000000 4.000000 1.000000 176.000000 114.000000 3.000000 0.757475 0.549859 0.351975
8.32999992 5.34000015 -1.21000004 2 49 230 97.000000 1.000000 4.000000 1.000000 176.000000 114.000000 3.000000 0.765590 0.351232 0.538988
8.51000023 5.28000021 -1.26999998 2 49 230 97.000000 1.000000 4.000000 1.000000 176.000000 114.000000 3.000000 0.668475 0.674949 0.312386
8.50000000 5.30000019 -1.28999996 2 49 230 97.000000 1.000000 4.000000 1.000000 176.000000 114.000000 3.000000 0.446519 0.546115 0.708787
8.44999981 5.32999992 -1.30999994 2 49 230 97.000000 1.000000 4.000000 1.000000 176.000000 114.000000 3.000000 0.626529 0.525204 0.575866
8.51000023 5.30999994 -1.38000000 2 49 230 97.000000 1.000000 4.000000 1.000000 176.000000 114.000000 3.000000 0.799668 0.472750 0.370187
8.51000023 5.32999992 -1.36000001 2 49 230 97.000000 1.000000 4.000000 1.000000 176.000000 114.000000 3.000000 0.626629 0.528666 0.572580
8.46000004 5.32999992 -1.33000004 2 49 230 97.000000 1.000000 4.000000 1.000000 176.000000 114.000000 3.000000 0.672014 0.494375 0.551353
8.46000004 5.32999992 -1.37000000 2 49 230 97.000000 1.000000 4.000000 1.000000 176.000000 114.000000 3.000000 0.381147 0.776890 0.501167
8.44999981 5.34000015 -1.37000000 2 49 230 97.000000 1.000000 4.000000 1.000000 176.000000 114.000000 3.000000 0.802852 0.257224 0.537833
8.42000008 5.34999990 -1.26999998 2 49 230 97.000000 1.000000 4.000000 1.000000 176.000000 114.000000 3.000000 0.531955 0.679627 0.505105
8.42000008 5.34000015 -1.35000002 2 49 230 97.000000 1.000000 4.000000 1.000000 176.000000 114.000000 3.000000 0.543882 0.405858 0.734487
8.39999962 5.34000015 -1.38000000 2 49 230 97.000000 1.000000 4.000000 1.000000 176.000000 114.000000 3.000000 0.537774 0.735123 0.412787
8.40999985 5.32999992 -1.38000000 2 49 230 97.000000 1.000000 4.000000 1.000000 176.000000 114.000000 3.000000 0.678638 0.273052 0.681831
8.39999962 5.34000015 -1.38000000 2 49 230 97.000000 1.000000 4.000000 1.000000 176.000000 114.000000 3.000000 0.537774 0.735123 0.412787
8.39999962 5.34000015 -1.38000000 2 49 230 97.000000 1.000000 4.000000 1.000000 176.000000 114.000000 3.000000 0.537774 0.735123 0.412787
8.39000034 5.30000019 -1.34000003 2 49 230 97.000000 1.000000 4.000000 1.000000 176.000000 114.000000 3.000000 0.637652 0.395841 0.660840
8.51000023 5.32000017 -1.40999997 2 49 230 97.000000 1.000000 4.000000 1.000000 176.000000 114.000000 3.000000 0.811154 0.548407 0.203170
8.47000027 5.32999992 -1.41999996 2 49 230 97.000000 1.000000 4.000000 1.000000 176.000000 114.000000 3.000000 0.870545 0.325880 0.368719
8.44999981 5.32999992 -1.44000006 2 49 230 97.000000 1.000000 4.000000 1.000000 176.000000 114.000000 3.000000 0.617790 0.617790 0.486489
8.50000000 5.26000023 -1.44000006 2 49 230 97.000000 1.000000 4.000000 1.000000 176.000000 114.000000 3.000000 0.684661 0.632121 0.362854
8.39000034 5.32000017 -1.42999995 2 49 230 97.000000 1.000000 4.000000 1.000000 176.000000 114.000000 3.000000 0.817540 0.245726 0.520815
8.39000034 5.30999994 -1.42999995 2 49 230 97.000000 1.000000 4.000000 1.000000 176.000000 114.000000 3.000000 0.647470 0.265669 0.714285
8.39999962 5.34999990 -1.39999998 2 49 230 97.000000 1.000000 4.000000 1.000000 176.000000 114.000000 3.000000 0.683672 0.549947 0.479741
8.40999985 5.34999990 -1.39999998 2 49 230 97.000000 1.000000 4.000000 1.000000 176.000000 114.000000 3.000000 0.459020 0.572524 0.679350
8.42000008 5.32999992 -1.46000004 2 49 230 97.000000 1.000000 4.000000 1.000000 176.000000 114.000000 3.000000 0.795962 0.440766 0.414934
8.31999969 5.32999992 -1.38000000 2 49 230 97.000000 1.000000 4.000000 1.000000 176.000000 114.000000 3.000000 0.828746 0.130546 0.544185
8.06999969 5.36999989 -0.80000001 2 49 230 97.000000 1.000000 4.000000 1.000000 176.000000 114.000000 3.000000 0.938550 -0.341409 0.050627
7.86999989 5.40999985 -0.58999997 2 49 230 97.000000 1.000000 4.000000 1.000000 176.000000 114.000000 3.000000 0.921535 -0.341152 0.185440
7.82999992 5.38000011 -0.56999999 2 49 230 97.000000 1.000000 4.000000 1.000000 176.000000 114.000000 3.000000 0.878524 -0.428151 0.211853
7.88000011 5.36000013 -0.70999998 2 49 230 97.000000 1.000000 4.000000 1.000000 176.000000 114.000000 3.000000 0.962680 -0.213492 0.166341
7.94999981 5.36999989 -0.88000000 2 49 230 97.000000 1.000000 4.000000 1.000000 176.000000 114.000000 3.000000 0.921341 -0.247888 0.299471
7.88000011 5.42999983 -0.73000002 2 49 230 97.000000 1.000000 4.000000 1.000000 176.000000 114.000000 3.000000 0.892870 -0.444371 0.072915
8.02999973 5.28999996 -0.52999997 2 49 230 97.000000 1.000000 4.000000 1.000000 176.000000 114.000000 3.000000 0.970633 -0.172642 0.167527
8.10000038 5.30999994 -0.70999998 2 49 230 97.000000 1.000000 4.000000 1.000000 176.000000 114.000000 3.000000 0.975099 -0.214935 0.054644
8.07999992 5.32000017 -0.56000000 2 49 230 97.000000 1.000000 4.000000 1.000000 176.000000 114.000000 3.000000 0.949758 -0.044620 0.309787
8.07999992 5.32999992 -0.55000001 2 49 230 97.000000 1.000000 4.000000 1.000000 176.000000 114.000000 3.000000 0.968200 -0.079114 0.237341
8.07999992 5.30000019 -0.58999997 2 49 230 97.000000 1.000000 4.000000 1.000000 176.000000 114.000000 3.000000 0.939572 -0.203413 -0.275368
8.02999973 5.30000019 -0.68000001 2 49 230 97.000000 1.000000 4.000000 1.000000 176.000000 114.000000 3.000000 0.904666 -0.244070 0.349298
8.10000038 5.30999994 -0.74000001 2 49 230 97.000000 1.000000 4.000000 1.000000 176.000000 114.000000 3.000000 0.927255 -0.282578 0.245659
8.06999969 5.32000017 -0.76999998 2 49 230 97.000000 1.000000 4.000000 1.000000 176.000000 114.000000 3.000000 0.934275 -0.053724 0.352482
8.06999969 5.34999990 -0.82999998 2 49 230 97.000000 1.000000 4.000000 1.000000 176.000000 114.000000 3.000000 0.842337 0.207182 0.497538
8.07999992 5.34999990 -0.86000001 2 49 230 97.000000 1.000000 4.000000 1.000000 176.000000 114.000000 3.000000 0.946670 -0.286829 0.146781
8.01000023 5.34999990 -0.81000000 2 49 230 97.000000 1.000000 4.000000 1.000000 176.000000 114.000000 3.000000 0.924888 -0.190626 0.329006
7.92000008 5.34999990 -0.67000002 2 49 230 97.000000 1.000000 4.000000 1.000000 176.000000 114.000000 3.000000 0.908970 0.369045 0.193856
7.84999990 5.30000019 -0.56000000 2 49 230 97.000000 1.000000 4.000000 1.000000 176.000000 114.000000 3.000000 0.913517 -0.060542 0.402270
7.86000013 5.30999994 -0.56000000 2 49 230 97.000000 1.000000 4.000000 1.000000 176.000000 114.000000 3.000000 0.957865 -0.033631 0.285242
7.86999989 5.26000023 -0.77999997 2 49 230 97.000000 1.000000 4.000000 1.000000 176.000000 114.000000 8.000000 0.893362 -0.129246 0.430348
7.82999992 5.17999983 -0.77999997 2 49 230 97.000000 1.000000 4.000000 1.000000 176.000000 114.000000 8.000000 0.824914 0.466666 0.318967
7.84000015 5.15999985 -0.77999997 2 49 230 97.000000 1.000000 4.000000 1.000000 176.000000 114.000000 8.000000 0.878344 0.473168 0.067992
7.80000019 5.40000010 -0.49000001 2 49 230 97.000000 1.000000 4.000000 1.000000 176.000000 114.000000 3.000000 0.926745 -0.133572 0.351144
7.78999996 5.40999985 -0.50999999 2 49 230 97.000000 1.000000 4.000000 1.000000 176.000000 114.000000 3.000000 0.843355 -0.533609 0.063357
7.80000019 5.38000011 -0.50000000 2 49 230 97.000000 1.000000 4.000000 1.000000 176.000000 114.000000 3.000000 0.875870 -0.468555 -0.115359
7.76999998 5.36000013 -0.47000000 2 49 230 97.000000 1.000000 4.000000 1.000000 176.000000 114.000000 3.000000 0.959404 -0.262833 -0.102285
7.82000017 5.38999987 -0.68000001 2 49 230 97.000000 1.000000 4.000000 1.000000 176.000000 114.000000 3.000000 0.889409 -0.273549 0.366227
7.76999998 5.34999990 -0.47999999 2 49 230 97.000000 1.000000 4.000000 1.000000 176.000000 114.000000 3.000000 0.894194 -0.435203 0.104952
7.76000023 5.34000015 -0.50000000 2 49 230 97.000000 1.000000 4.000000 1.000000 176.000000 114.000000 3.000000 0.950368 -0.008674 0.311007
7.76999998 5.30000019 -0.54000002 2 49 230 97.000000 1.000000 4.000000 1.000000 176.000000 114.000000 3.000000 0.980913 -0.015091 0.193861
7.78000021 5.34999990 -0.56000000 2 49 230 97.000000 1.000000 4.000000 1.000000 176.000000 114.000000 3.000000 0.960537 -0.148482 -0.235207
7.78000021 5.34999990 -0.54000002 2 49 230 97.000000 1.000000 4.000000 1.000000 176.000000 114.000000 3.000000 0.959445 0.268439 -0.086055
8.01000023 5.44000006 -0.92000002 2 49 230 97.000000 1.000000 4.000000 1.000000 176.000000 114.000000 3.000000 0.852802 0.192665 0.485395
8.07999992 5.36999989 -0.89999998 2 49 230 97.000000 1.000000 4.000000 1.000000 176.000000 114.000000 3.000000 0.888302 0.147811 0.434823
8.14999962 5.46000004 -1.07000005 2 49 230 97.000000 1.000000 4.000000 1.000000 176.000000 114.000000 3.000000 0.864690 -0.077330 0.496318
8.02000046 5.65000010 -1.32000005 2 49 230 97.000000 1.000000 4.000000 1.000000 176.000000 114.000000 123.000000 0.970326 0.240467 0.025376
8.02999973 5.53000021 -1.37000000 2 49 230 97.000000 1.000000 4.000000 1.000000 176.000000 114.000000 123.000000 0.923403 0.364682 0.119726
7.98999977 5.61000013 -1.36000001 2 49 230 97.000000 1.000000 4.000000 1.000000 176.000000 114.000000 123.000000 0.901439 0.386331 0.195336
7.88999987 5.61999989 -1.35000002 2 49 230 97.000000 1.000000 4.000000 1.000000 176.000000 114.000000 123.000000 0.931826 0.345874 0.109866
7.90000010 5.61999989 -1.38000000 2 49 230 97.000000 1.000000 4.000000 1.000000 176.000000 114.000000 123.000000 0.858275 0.451164 0.244570
7.90999985 5.59999990 -1.29999995 2 49 230 97.000000 1.000000 4.000000 1.000000 176.000000 114.000000 123.000000 0.931582 -0.106814 0.347484
7.88999987 5.61000013 -1.36000001 2 49 230 97.000000 1.000000 4.000000 1.000000 176.000000 114.000000 123.000000 0.974823 0.027510 0.221279
7.90000010 5.59999990 -1.32000005 2 49 230 97.000000 1.000000 4.000000 1.000000 176.000000 114.000000 123.000000 0.980637 0.195664 0.008104
8.00000000 5.57000017 -1.45000005 2 49 230 97.000000 1.000000 4.000000 1.000000 176.000000 114.000000 123.000000 0.848441 0.412545 0.331593
7.96000004 5.50000000 -1.40999997 2 49 230 97.000000 1.000000 4.000000 1.000000 176.000000 114.000000 123.000000 0.843321 0.475994 0.249476
8.07999992 5.26999998 -0.88999999 2 49 230 97.000000 1.000000 4.000000 1.000000 176.000000 114.000000 3.000000 0.825751 0.169346 0.538012
8.06000042 5.21999979 -1.04999995 2 49 230 97.000000 1.000000 4.000000 1.000000 176.000000 114.000000 3.000000 0.762406 0.531571 0.369011
8.09000015 5.23000002 -1.12000000 2 49 230 97.000000 1.000000 4.000000 1.000000 176.000000 114.000000 3.000000 0.739981 0.300166 0.601937
8.07999992 5.23000002 -1.13999999 2 49 230 97.000000 1.000000 4.000000 1.000000 176.000000 114.000000 3.000000 0.885274 0.135866 0.444782
8.10999966 5.19000006 -1.44000006 2 49 230 97.000000 1.000000 4.000000 1.000000 176.000000 114.000000 3.000000 0.848374 0.187031 0.495259
