//X Y Z R G B PointSourceId ScanDirectionFlag NumberOfReturns ReturnNumber GpsTime Intensity Classification Nx Ny Nz
0.62000000 -4.44000006 -0.37000000 146 22 171 0.000000 0.000000 0.000000 0.000000 0.000000 0.000000 194.000000 0.683780 0.308752 -0.661149
0.75999999 -4.46000004 -0.31999999 146 22 171 0.000000 0.000000 0.000000 0.000000 0.000000 0.000000 194.000000 0.708194 0.654085 -0.265772
0.75999999 -4.46000004 -0.31999999 146 22 171 0.000000 0.000000 0.000000 0.000000 0.000000 0.000000 194.000000 0.708194 0.654085 -0.265772
0.73000002 -4.48000002 -0.33000001 146 22 171 0.000000 0.000000 0.000000 0.000000 0.000000 0.000000 194.000000 0.791945 0.323470 -0.517871
0.70999998 -4.53000021 -0.34999999 146 22 171 0.000000 0.000000 0.000000 0.000000 0.000000 0.000000 194.000000 0.759230 0.490302 -0.427989
0.66000003 -4.44999981 -0.34999999 146 22 171 0.000000 0.000000 0.000000 0.000000 0.000000 0.000000 194.000000 0.350353 0.715372 -0.604563
0.69000000 -4.51999998 -0.34000000 146 22 171 0.000000 0.000000 0.000000 0.000000 0.000000 0.000000 194.000000 0.425230 0.875824 -0.228281
0.70999998 -4.55000019 -0.37000000 146 22 171 0.000000 0.000000 0.000000 0.000000 0.000000 0.000000 194.000000 0.703624 0.581111 -0.408930
0.66000003 -4.46999979 -0.38000000 146 22 171 0.000000 0.000000 0.000000 0.000000 0.000000 0.000000 194.000000 0.821932 0.569452 0.012350
0.64999998 -4.53000021 -0.37000000 146 22 171 0.000000 0.000000 0.000000 0.000000 0.000000 0.000000 194.000000 0.562279 0.531886 -0.633198
0.60000002 -4.09000015 -0.63999999 146 22 171 0.000000 0.000000 0.000000 0.000000 0.000000 0.000000 194.000000 0.679244 0.629904 -0.376627
0.56999999 -4.07999992 -0.70999998 146 22 171 0.000000 0.000000 0.000000 0.000000 0.000000 0.000000 194.000000 0.442356 0.849263 -0.288225
0.56999999 -4.07000017 -0.72000003 146 22 171 0.000000 0.000000 0.000000 0.000000 0.000000 0.000000 194.000000 0.791310 0.509955 -0.337306
0.55000001 -4.05000019 -0.72000003 146 22 171 0.000000 0.000000 0.000000 0.000000 0.000000 0.000000 194.000000 0.825908 0.563056 0.029052
0.60000002 -4.09999990 -0.63999999 146 22 171 0.000000 0.000000 0.000000 0.000000 0.000000 0.000000 194.000000 0.886632 0.254814 -0.385946
0.61000001 -4.09999990 -0.63000000 146 22 171 0.000000 0.000000 0.000000 0.000000 0.000000 0.000000 194.000000 0.771373 0.229075 -0.593724
0.58999997 -4.11000013 -0.66000003 146 22 171 0.000000 0.000000 0.000000 0.000000 0.000000 0.000000 194.000000 0.817044 0.559963 -0.137405
0.60000002 -4.11999989 -0.69000000 146 22 171 0.000000 0.000000 0.000000 0.000000 0.000000 0.000000 194.000000 0.443254 0.854300 -0.271474
0.60000002 -4.13999987 -0.68000001 146 22 171 0.000000 0.000000 0.000000 0.000000 0.000000 0.000000 194.000000 0.552940 0.827245 -0.099616
0.61000001 -4.30999994 -0.36000001 146 22 171 0.000000 0.000000 0.000000 0.000000 0.000000 0.000000 194.000000 0.657648 0.088950 -0.748056
0.61000001 -4.36999989 -0.36000001 146 22 171 0.000000 0.000000 0.000000 0.000000 0.000000 0.000000 194.000000 0.865995 0.478844 -0.144090
0.56999999 -4.40000010 -0.34999999 146 22 171 0.000000 0.000000 0.000000 0.000000 0.000000 0.000000 194.000000 0.423577 0.842464 -0.332922
0.61000001 -4.44000006 -0.37000000 146 22 171 0.000000 0.000000 0.000000 0.000000 0.000000 0.000000 194.000000 0.710387 0.558043 -0.428881
0.60000002 -4.42999983 -0.37000000 146 22 171 0.000000 0.000000 0.000000 0.000000 0.000000 0.000000 194.000000 0.388954 0.769771 -0.506129
0.61000001 -4.42999983 -0.38000000 146 22 171 0.000000 0.000000 0.000000 0.000000 0.000000 0.000000 194.000000 0.725642 0.489850 -0.483208
0.40000001 -4.55000019 -0.64999998 146 22 171 0.000000 0.000000 0.000000 0.000000 0.000000 0.000000 55.000000 0.645840 0.757141 0.098121
1.48000002 -4.21999979 0.08000000 146 22 171 0.000000 0.000000 0.000000 0.000000 0.000000 0.000000 194.000000 0.104851 0.683749 0.722145
1.39999998 -4.17999983 0.01000000 146 22 171 0.000000 0.000000 0.000000 0.000000 0.000000 0.000000 194.000000 -0.079863 0.649071 0.756524
1.44000006 -4.21000004 0.08000000 146 22 171 0.000000 0.000000 0.000000 0.000000 0.000000 0.000000 194.000000 -0.046766 0.633471 0.772352
1.44000006 -4.19999981 0.07000000 146 22 171 0.000000 0.000000 0.000000 0.000000 0.000000 0.000000 194.000000 0.149599 0.735906 0.660351
1.44000006 -4.19999981 0.07000000 146 22 171 0.000000 0.000000 0.000000 0.000000 0.000000 0.000000 194.000000 0.149599 0.735906 0.660351
1.40999997 -4.21999979 0.08000000 146 22 171 0.000000 0.000000 0.000000 0.000000 0.000000 0.000000 194.000000 0.040984 0.626064 0.778694
1.40999997 -4.21000004 0.07000000 146 22 171 0.000000 0.000000 0.000000 0.000000 0.000000 0.000000 194.000000 0.069415 0.551072 0.831566
1.44000006 -4.19000006 0.05000000 146 22 171 0.000000 0.000000 0.000000 0.000000 0.000000 0.000000 194.000000 0.223208 0.805089 0.549554
1.40999997 -4.19000006 0.03000000 146 22 171 0.000000 0.000000 0.000000 0.000000 0.000000 0.000000 194.000000 0.089671 0.849739 0.519522
1.40999997 -4.19000006 0.02000000 146 22 171 0.000000 0.000000 0.000000 0.000000 0.000000 0.000000 194.000000 -0.107805 0.695563 0.710331
1.40999997 -4.19000006 0.03000000 146 22 171 0.000000 0.000000 0.000000 0.000000 0.000000 0.000000 194.000000 0.089671 0.849739 0.519522
1.38000000 -4.17000008 0.04000000 146 22 171 0.000000 0.000000 0.000000 0.000000 0.000000 0.000000 194.000000 -0.231523 0.892176 0.387839
1.38000000 -4.25000000 0.05000000 146 22 171 0.000000 0.000000 0.000000 0.000000 0.000000 0.000000 194.000000 0.304036 0.499375 0.811287
1.36000001 -4.25000000 0.05000000 146 22 171 0.000000 0.000000 0.000000 0.000000 0.000000 0.000000 194.000000 -0.278480 0.530213 0.800826
1.29999995 -4.23000002 -0.10000000 146 22 171 0.000000 0.000000 0.000000 0.000000 0.000000 0.000000 194.000000 -0.278472 0.794509 0.539637
1.29999995 -4.23000002 -0.10000000 146 22 171 0.000000 0.000000 0.000000 0.000000 0.000000 0.000000 194.000000 -0.278472 0.794509 0.539637
1.53999996 -4.44000006 0.02000000 146 22 171 0.000000 0.000000 0.000000 0.000000 0.000000 0.000000 194.000000 0.436166 0.718098 0.542305
1.52999997 -4.42999983 0.02000000 146 22 171 0.000000 0.000000 0.000000 0.000000 0.000000 0.000000 194.000000 0.337679 0.663939 0.667202
1.48000002 -4.38000011 0.03000000 146 22 171 0.000000 0.000000 0.000000 0.000000 0.000000 0.000000 194.000000 0.051467 0.524411 0.849908
1.48000002 -4.38000011 0.04000000 146 22 171 0.000000 0.000000 0.000000 0.000000 0.000000 0.000000 194.000000 0.125945 0.970663 0.204819
1.48000002 -4.40999985 0.04000000 146 22 171 0.000000 0.000000 0.000000 0.000000 0.000000 0.000000 194.000000 0.037589 0.934544 0.353856
1.42999995 -4.34999990 0.05000000 146 22 171 0.000000 0.000000 0.000000 0.000000 0.000000 0.000000 194.000000 0.176237 0.675831 0.715676
1.41999996 -4.28000021 0.06000000 146 22 171 0.000000 0.000000 0.000000 0.000000 0.000000 0.000000 194.000000 -0.250091 0.879063 0.405836
1.41999996 -4.32000017 0.05000000 146 22 171 0.000000 0.000000 0.000000 0.000000 0.000000 0.000000 194.000000 -0.078032 0.841323 0.534871
1.41999996 -4.32000017 0.06000000 146 22 171 0.000000 0.000000 0.000000 0.000000 0.000000 0.000000 194.000000 -0.072571 0.562072 0.823898
1.47000003 -4.42999983 0.03000000 146 22 171 0.000000 0.000000 0.000000 0.000000 0.000000 0.000000 194.000000 0.236634 0.542866 0.805792
1.46000004 -4.40999985 0.04000000 146 22 171 0.000000 0.000000 0.000000 0.000000 0.000000 0.000000 194.000000 -0.289997 0.728999 0.620050
1.44000006 -4.42999983 -0.01000000 146 22 171 0.000000 0.000000 0.000000 0.000000 0.000000 0.000000 194.000000 -0.034980 0.589059 0.807333
1.39999998 -4.38999987 0.01000000 146 22 171 0.000000 0.000000 0.000000 0.000000 0.000000 0.000000 194.000000 -0.359781 0.508211 0.782483
1.40999997 -4.40000010 0.02000000 146 22 171 0.000000 0.000000 0.000000 0.000000 0.000000 0.000000 194.000000 -0.339729 0.799082 0.496037
1.33000004 -4.30000019 0.07000000 146 22 171 0.000000 0.000000 0.000000 0.000000 0.000000 0.000000 194.000000 0.016563 0.350377 0.936462
1.35000002 -4.34000015 0.04000000 146 22 171 0.000000 0.000000 0.000000 0.000000 0.000000 0.000000 194.000000 -0.180926 0.448637 0.875209
1.38000000 -4.32999992 0.05000000 146 22 171 0.000000 0.000000 0.000000 0.000000 0.000000 0.000000 194.000000 -0.398575 0.533074 0.746304
1.29999995 -4.30999994 0.04000000 146 22 171 0.000000 0.000000 0.000000 0.000000 0.000000 0.000000 194.000000 -0.034079 0.494823 0.868325
1.30999994 -4.34000015 0.04000000 146 22 171 0.000000 0.000000 0.000000 0.000000 0.000000 0.000000 194.000000 -0.189508 0.811095 0.553364
1.36000001 -4.38000011 0.04000000 146 22 171 0.000000 0.000000 0.000000 0.000000 0.000000 0.000000 194.000000 -0.403044 0.343910 0.848104
1.38000000 -4.38000011 0.00000000 146 22 171 0.000000 0.000000 0.000000 0.000000 0.000000 0.000000 194.000000 -0.146804 0.870651 0.469483
1.35000002 -4.42000008 -0.02000000 146 22 171 0.000000 0.000000 0.000000 0.000000 0.000000 0.000000 194.000000 -0.135650 0.603715 0.785575
1.29999995 -4.38000011 0.04000000 146 22 171 0.000000 0.000000 0.000000 0.000000 0.000000 0.000000 194.000000 -0.048406 0.357155 0.932790
1.38999999 -4.40999985 -0.09000000 146 22 171 0.000000 0.000000 0.000000 0.000000 0.000000 0.000000 194.000000 0.457714 0.787656 0.412428
1.41999996 -4.42000008 -0.10000000 146 22 171 0.000000 0.000000 0.000000 0.000000 0.000000 0.000000 194.000000 0.262489 0.944135 0.199272
1.30999994 -4.32000017 -0.12000000 146 22 171 0.000000 0.000000 0.000000 0.000000 0.000000 0.000000 194.000000 0.288060 0.807512 0.514730
1.37000000 -4.36000013 -0.05000000 146 22 171 0.000000 0.000000 0.000000 0.000000 0.000000 0.000000 194.000000 0.304939 0.643760 0.701844
1.36000001 -4.38000011 -0.10000000 146 22 171 0.000000 0.000000 0.000000 0.000000 0.000000 0.000000 194.000000 -0.089413 0.509510 0.855807
1.38000000 -4.40000010 -0.10000000 146 22 171 0.000000 0.000000 0.000000 0.000000 0.000000 0.000000 194.000000 0.177537 0.929624 0.322922
1.38000000 -4.40000010 -0.10000000 146 22 171 0.000000 0.000000 0.000000 0.000000 0.000000 0.000000 194.000000 0.177537 0.929624 0.322922
1.38000000 -4.40000010 -0.10000000 146 22 171 0.000000 0.000000 0.000000 0.000000 0.000000 0.000000 194.000000 0.177537 0.929624 0.322922
1.32000005 -4.38000011 -0.08000000 146 22 171 0.000000 0.000000 0.000000 0.000000 0.000000 0.000000 194.000000 -0.274150 0.518534 0.809916
1.32000005 -4.38000011 -0.10000000 146 22 171 0.000000 0.000000 0.000000 0.000000 0.000000 0.000000 194.000000 0.282088 0.531081 0.798986
1.36000001 -4.40000010 -0.13000000 146 22 171 0.000000 0.000000 0.000000 0.000000 0.000000 0.000000 194.000000 0.244676 0.832514 0.497046
1.36000001 -4.40000010 -0.13000000 146 22 171 0.000000 0.000000 0.000000 0.000000 0.000000 0.000000 194.000000 0.244676 0.832514 0.497046
1.29999995 -4.40999985 -0.11000000 146 22 171 0.000000 0.000000 0.000000 0.000000 0.000000 0.000000 194.000000 -0.175245 0.522739 0.834286
1.42999995 -4.48000002 -0.02000000 146 22 171 0.000000 0.000000 0.000000 0.000000 0.000000 0.000000 194.000000 -0.370187 0.472750 0.799668
1.41999996 -4.44999981 -0.02000000 146 22 171 0.000000 0.000000 0.000000 0.000000 0.000000 0.000000 194.000000 -0.447429 0.500262 0.741313
1.36000001 -4.46000004 0.02000000 146 22 171 0.000000 0.000000 0.000000 0.000000 0.000000 0.000000 194.000000 -0.107158 0.251757 0.961840
1.37000000 -4.46000004 0.02000000 146 22 171 0.000000 0.000000 0.000000 0.000000 0.000000 0.000000 194.000000 -0.505388 0.315273 0.803234
1.33000004 -4.44999981 0.04000000 146 22 171 0.000000 0.000000 0.000000 0.000000 0.000000 0.000000 194.000000 -0.072849 0.279894 0.957263
1.30999994 -4.46999979 0.04000000 146 22 171 0.000000 0.000000 0.000000 0.000000 0.000000 0.000000 194.000000 -0.417307 -0.038664 0.907943
1.32000005 -4.46000004 0.04000000 146 22 171 0.000000 0.000000 0.000000 0.000000 0.000000 0.000000 194.000000 -0.143241 0.084050 0.986112
1.30999994 -4.46999979 0.04000000 146 22 171 0.000000 0.000000 0.000000 0.000000 0.000000 0.000000 194.000000 -0.417307 -0.038664 0.907943
1.30999994 -4.44999981 0.04000000 146 22 171 0.000000 0.000000 0.000000 0.000000 0.000000 0.000000 194.000000 -0.537454 0.120891 0.834583
1.32000005 -4.46999979 0.00000000 146 22 171 0.000000 0.000000 0.000000 0.000000 0.000000 0.000000 194.000000 -0.295700 0.098567 0.950182
1.30999994 -4.50000000 0.00000000 146 22 171 0.000000 0.000000 0.000000 0.000000 0.000000 0.000000 194.000000 0.810840 0.015143 -0.585072
1.32000005 -4.50000000 -0.01000000 146 22 171 0.000000 0.000000 0.000000 0.000000 0.000000 0.000000 194.000000 -0.522463 0.178146 0.833844
1.29999995 -4.53999996 -0.01000000 146 22 171 0.000000 0.000000 0.000000 0.000000 0.000000 0.000000 194.000000 -0.401978 -0.232881 0.885539
1.34000003 -4.51000023 -0.03000000 146 22 171 0.000000 0.000000 0.000000 0.000000 0.000000 0.000000 194.000000 -0.578215 0.438244 0.688193
0.82999998 -3.64000010 -0.02000000 146 22 171 0.000000 0.000000 0.000000 0.000000 0.000000 0.000000 218.000000 -0.186557 0.494004 0.849209
0.80000001 -3.63000011 0.04000000 146 22 171 0.000000 0.000000 0.000000 0.000000 0.000000 0.000000 218.000000 -0.341968 0.388389 0.855694
0.80000001 -3.63000011 0.04000000 146 22 171 0.000000 0.000000 0.000000 0.000000 0.000000 0.000000 218.000000 -0.341968 0.388389 0.855694
0.81999999 -3.65000010 -0.02000000 146 22 171 0.000000 0.000000 0.000000 0.000000 0.000000 0.000000 218.000000 -0.268263 0.446082 0.853842
0.89999998 -3.82999992 0.10000000 146 22 171 0.000000 0.000000 0.000000 0.000000 0.000000 0.000000 218.000000 0.475114 -0.535129 -0.698501
0.80000001 -3.81999993 0.04000000 146 22 171 0.000000 0.000000 0.000000 0.000000 0.000000 0.000000 218.000000 -0.404134 0.329810 0.853171
0.81000000 -3.88000011 0.06000000 146 22 171 0.000000 0.000000 0.000000 0.000000 0.000000 0.000000 218.000000 -0.414740 0.370585 0.831058
0.73000002 -3.71000004 0.05000000 146 22 171 0.000000 0.000000 0.000000 0.000000 0.000000 0.000000 218.000000 -0.519020 0.401136 0.754790
0.76999998 -3.80999994 0.06000000 146 22 171 0.000000 0.000000 0.000000 0.000000 0.000000 0.000000 218.000000 -0.550220 0.319224 0.771592
0.74000001 -3.76999998 0.02000000 146 22 171 0.000000 0.000000 0.000000 0.000000 0.000000 0.000000 218.000000 -0.473764 0.331160 0.816015
0.74000001 -3.83999991 0.02000000 146 22 171 0.000000 0.000000 0.000000 0.000000 0.000000 0.000000 218.000000 0.541856 -0.582369 -0.606001
0.75999999 -3.90000010 0.06000000 146 22 171 0.000000 0.000000 0.000000 0.000000 0.000000 0.000000 218.000000 -0.555084 0.451735 0.698439
0.70999998 -3.91000009 0.06000000 146 22 171 0.000000 0.000000 0.000000 0.000000 0.000000 0.000000 218.000000 -0.394703 0.170799 0.902794
0.62000000 -3.82999992 0.00000000 146 22 171 0.000000 0.000000 0.000000 0.000000 0.000000 0.000000 218.000000 -0.575979 0.151101 0.803378
1.02999997 -4.26999998 0.18000001 146 22 171 0.000000 0.000000 0.000000 0.000000 0.000000 0.000000 194.000000 -0.167968 0.228807 0.958871
1.25999999 -4.23000002 0.07000000 146 22 171 0.000000 0.000000 0.000000 0.000000 0.000000 0.000000 194.000000 -0.195336 0.386331 0.901439
1.25999999 -4.23999977 0.00000000 146 22 171 0.000000 0.000000 0.000000 0.000000 0.000000 0.000000 194.000000 0.299832 0.610888 0.732745
1.25000000 -4.23999977 0.00000000 146 22 171 0.000000 0.000000 0.000000 0.000000 0.000000 0.000000 194.000000 -0.117182 0.671942 0.731275
1.15999997 -4.26999998 -0.01000000 146 22 171 0.000000 0.000000 0.000000 0.000000 0.000000 0.000000 194.000000 -0.554421 0.311562 0.771716
1.26999998 -4.26999998 -0.06000000 146 22 171 0.000000 0.000000 0.000000 0.000000 0.000000 0.000000 194.000000 -0.255711 0.849818 0.460892
1.25999999 -4.23999977 -0.07000000 146 22 171 0.000000 0.000000 0.000000 0.000000 0.000000 0.000000 194.000000 -0.060663 0.828123 0.557255
1.23000002 -4.26999998 -0.06000000 146 22 171 0.000000 0.000000 0.000000 0.000000 0.000000 0.000000 194.000000 -0.343711 0.328570 0.879719
1.24000001 -4.26999998 -0.06000000 146 22 171 0.000000 0.000000 0.000000 0.000000 0.000000 0.000000 194.000000 -0.082634 0.636425 0.766899
1.25000000 -4.23000002 -0.03000000 146 22 171 0.000000 0.000000 0.000000 0.000000 0.000000 0.000000 194.000000 -0.126062 0.618445 0.775651
1.13999999 -4.17999983 -0.09000000 146 22 171 0.000000 0.000000 0.000000 0.000000 0.000000 0.000000 194.000000 0.496161 -0.607167 -0.620622
1.20000005 -4.26000023 -0.06000000 146 22 171 0.000000 0.000000 0.000000 0.000000 0.000000 0.000000 194.000000 -0.249545 0.582273 0.773748
1.20000005 -4.26999998 -0.05000000 146 22 171 0.000000 0.000000 0.000000 0.000000 0.000000 0.000000 194.000000 0.361001 -0.522884 -0.772185
1.19000006 -4.26000023 -0.08000000 146 22 171 0.000000 0.000000 0.000000 0.000000 0.000000 0.000000 194.000000 -0.120681 0.285126 0.950862
1.17999995 -4.26000023 -0.08000000 146 22 171 0.000000 0.000000 0.000000 0.000000 0.000000 0.000000 194.000000 0.155481 0.635512 0.756274
1.13999999 -4.21999979 -0.11000000 146 22 171 0.000000 0.000000 0.000000 0.000000 0.000000 0.000000 194.000000 0.357771 -0.539084 -0.762488
1.13999999 -4.19000006 -0.12000000 146 22 171 0.000000 0.000000 0.000000 0.000000 0.000000 0.000000 194.000000 -0.349371 0.745866 0.567118
1.13000000 -4.25000000 -0.13000000 146 22 171 0.000000 0.000000 0.000000 0.000000 0.000000 0.000000 194.000000 -0.228675 0.779362 0.583355
1.08000004 -4.07000017 -0.13000000 146 22 171 0.000000 0.000000 0.000000 0.000000 0.000000 0.000000 194.000000 0.189351 0.700445 0.688130
1.07000005 -4.07999992 -0.13000000 146 22 171 0.000000 0.000000 0.000000 0.000000 0.000000 0.000000 194.000000 -0.166033 0.545965 0.821191
1.08000004 -4.09000015 -0.13000000 146 22 171 0.000000 0.000000 0.000000 0.000000 0.000000 0.000000 194.000000 -0.250546 0.807660 0.533772
1.09000003 -4.07000017 -0.14000000 146 22 171 0.000000 0.000000 0.000000 0.000000 0.000000 0.000000 194.000000 0.076639 0.646373 0.759163
1.02999997 -4.09000015 -0.10000000 146 22 171 0.000000 0.000000 0.000000 0.000000 0.000000 0.000000 194.000000 -0.128834 0.496518 0.858412
1.03999996 -4.09000015 -0.09000000 146 22 171 0.000000 0.000000 0.000000 0.000000 0.000000 0.000000 194.000000 -0.116539 0.618097 0.777416
1.02999997 -4.09000015 -0.10000000 146 22 171 0.000000 0.000000 0.000000 0.000000 0.000000 0.000000 194.000000 -0.128834 0.496518 0.858412
1.02999997 -4.07000017 -0.11000000 146 22 171 0.000000 0.000000 0.000000 0.000000 0.000000 0.000000 194.000000 0.020811 0.794973 0.606288
1.08000004 -4.11000013 -0.10000000 146 22 171 0.000000 0.000000 0.000000 0.000000 0.000000 0.000000 194.000000 0.070833 0.876380 0.476384
1.04999995 -4.11999989 -0.10000000 146 22 171 0.000000 0.000000 0.000000 0.000000 0.000000 0.000000 194.000000 -0.056081 0.252988 0.965842
1.10000002 -4.17999983 -0.09000000 146 22 171 0.000000 0.000000 0.000000 0.000000 0.000000 0.000000 194.000000 -0.156867 0.380155 0.911524
1.12000000 -4.17000008 -0.08000000 146 22 171 0.000000 0.000000 0.000000 0.000000 0.000000 0.000000 194.000000 -0.171152 0.513455 0.840875
1.07000005 -4.11000013 -0.12000000 146 22 171 0.000000 0.000000 0.000000 0.000000 0.000000 0.000000 194.000000 -0.338486 0.568462 0.749852
1.04999995 -4.15000010 -0.13000000 146 22 171 0.000000 0.000000 0.000000 0.000000 0.000000 0.000000 194.000000 -0.299316 0.597031 0.744288
1.10000002 -4.21999979 -0.10000000 146 22 171 0.000000 0.000000 0.000000 0.000000 0.000000 0.000000 194.000000 -0.332868 0.462229 0.821915
1.12000000 -4.26999998 -0.10000000 146 22 171 0.000000 0.000000 0.000000 0.000000 0.000000 0.000000 194.000000 -0.418570 0.150000 0.895712
1.11000001 -4.26000023 -0.10000000 146 22 171 0.000000 0.000000 0.000000 0.000000 0.000000 0.000000 194.000000 -0.001365 0.579946 0.814654
1.08000004 -4.23000002 -0.10000000 146 22 171 0.000000 0.000000 0.000000 0.000000 0.000000 0.000000 194.000000 -0.284542 0.180072 0.941600
1.08000004 -4.23999977 -0.09000000 146 22 171 0.000000 0.000000 0.000000 0.000000 0.000000 0.000000 194.000000 0.457686 -0.625337 -0.632043
1.07000005 -4.26000023 -0.10000000 146 22 171 0.000000 0.000000 0.000000 0.000000 0.000000 0.000000 194.000000 -0.286049 0.456133 0.842686
1.09000003 -4.25000000 -0.15000001 146 22 171 0.000000 0.000000 0.000000 0.000000 0.000000 0.000000 194.000000 -0.371158 0.184863 0.909982
1.09000003 -4.25000000 -0.11000000 146 22 171 0.000000 0.000000 0.000000 0.000000 0.000000 0.000000 194.000000 0.089542 0.507404 0.857044
1.09000003 -4.25000000 -0.16000000 146 22 171 0.000000 0.000000 0.000000 0.000000 0.000000 0.000000 194.000000 -0.337606 0.513609 0.788814
1.04999995 -4.19000006 -0.11000000 146 22 171 0.000000 0.000000 0.000000 0.000000 0.000000 0.000000 194.000000 -0.278891 0.220030 0.934776
1.05999994 -4.21999979 -0.17000000 146 22 171 0.000000 0.000000 0.000000 0.000000 0.000000 0.000000 194.000000 -0.135077 0.250482 0.958652
1.05999994 -4.21999979 -0.17000000 146 22 171 0.000000 0.000000 0.000000 0.000000 0.000000 0.000000 194.000000 -0.135077 0.250482 0.958652
1.05999994 -4.21999979 -0.17000000 146 22 171 0.000000 0.000000 0.000000 0.000000 0.000000 0.000000 194.000000 -0.135077 0.250482 0.958652
0.98000002 -4.15999985 -0.10000000 146 22 171 0.000000 0.000000 0.000000 0.000000 0.000000 0.000000 194.000000 -0.520924 0.595101 0.611959
1.03999996 -4.15999985 -0.12000000 146 22 171 0.000000 0.000000 0.000000 0.000000 0.000000 0.000000 194.000000 -0.091157 0.588902 0.803048
1.03999996 -4.15999985 -0.12000000 146 22 171 0.000000 0.000000 0.000000 0.000000 0.000000 0.000000 194.000000 -0.091157 0.588902 0.803048
0.95999998 -4.17999983 -0.14000000 146 22 171 0.000000 0.000000 0.000000 0.000000 0.000000 0.000000 194.000000 -0.298526 0.139132 0.944206
0.95999998 -4.15999985 -0.11000000 146 22 171 0.000000 0.000000 0.000000 0.000000 0.000000 0.000000 194.000000 -0.555097 0.096601 0.826157
0.98000002 -4.17000008 -0.14000000 146 22 171 0.000000 0.000000 0.000000 0.000000 0.000000 0.000000 194.000000 0.620454 -0.549448 -0.559592
0.95999998 -4.23000002 -0.09000000 146 22 171 0.000000 0.000000 0.000000 0.000000 0.000000 0.000000 194.000000 0.598903 -0.375750 -0.707197
0.97000003 -4.19999981 -0.10000000 146 22 171 0.000000 0.000000 0.000000 0.000000 0.000000 0.000000 194.000000 -0.034620 0.339787 0.939865
1.03999996 -4.19999981 -0.10000000 146 22 171 0.000000 0.000000 0.000000 0.000000 0.000000 0.000000 194.000000 -0.132940 0.390423 0.910987
1.03999996 -4.25000000 -0.10000000 146 22 171 0.000000 0.000000 0.000000 0.000000 0.000000 0.000000 194.000000 -0.034607 0.549567 0.834733
1.01999998 -4.19000006 -0.13000000 146 22 171 0.000000 0.000000 0.000000 0.000000 0.000000 0.000000 194.000000 -0.427173 0.087093 0.899966
1.01999998 -4.25000000 -0.12000000 146 22 171 0.000000 0.000000 0.000000 0.000000 0.000000 0.000000 194.000000 -0.114065 0.650318 0.751050
1.01999998 -4.23999977 -0.18000001 146 22 171 0.000000 0.000000 0.000000 0.000000 0.000000 0.000000 194.000000 -0.434809 0.064063 0.898241
0.97000003 -4.19000006 -0.12000000 146 22 171 0.000000 0.000000 0.000000 0.000000 0.000000 0.000000 194.000000 -0.480458 0.131296 0.867134
0.97000003 -4.25000000 -0.13000000 146 22 171 0.000000 0.000000 0.000000 0.000000 0.000000 0.000000 194.000000 -0.141641 0.430646 0.891337
0.97000003 -4.23000002 -0.13000000 146 22 171 0.000000 0.000000 0.000000 0.000000 0.000000 0.000000 194.000000 -0.262250 0.099474 0.959859
1.05999994 -4.32999992 0.17000000 146 22 171 0.000000 0.000000 0.000000 0.000000 0.000000 0.000000 194.000000 -0.382190 -0.038088 0.923298
1.05999994 -4.32999992 0.17000000 146 22 171 0.000000 0.000000 0.000000 0.000000 0.000000 0.000000 194.000000 -0.382190 -0.038088 0.923298
1.04999995 -4.38999987 0.20999999 146 22 171 0.000000 0.000000 0.000000 0.000000 0.000000 0.000000 194.000000 -0.528659 -0.172226 0.831178
0.95999998 -4.34000015 0.15000001 146 22 171 0.000000 0.000000 0.000000 0.000000 0.000000 0.000000 194.000000 0.696042 0.052882 -0.716051
1.01999998 -4.36000013 0.19000000 146 22 171 0.000000 0.000000 0.000000 0.000000 0.000000 0.000000 194.000000 0.668648 -0.146408 -0.729023
1.02999997 -4.44000006 0.20000000 146 22 171 0.000000 0.000000 0.000000 0.000000 0.000000 0.000000 194.000000 0.742373 -0.120505 -0.659061
1.09000003 -4.48000002 0.23000000 146 22 171 0.000000 0.000000 0.000000 0.000000 0.000000 0.000000 194.000000 -0.581356 -0.214346 0.784908
1.09000003 -4.50000000 0.20999999 146 22 171 0.000000 0.000000 0.000000 0.000000 0.000000 0.000000 194.000000 -0.539071 -0.339534 0.770791
1.26999998 -4.30000019 0.08000000 146 22 171 0.000000 0.000000 0.000000 0.000000 0.000000 0.000000 194.000000 -0.270655 0.347562 0.897745
1.26999998 -4.32999992 0.07000000 146 22 171 0.000000 0.000000 0.000000 0.000000 0.000000 0.000000 194.000000 0.022351 0.411519 0.911127
1.26999998 -4.28999996 -0.01000000 146 22 171 0.000000 0.000000 0.000000 0.000000 0.000000 0.000000 194.000000 0.012355 0.580674 0.814042
1.26999998 -4.34999990 0.04000000 146 22 171 0.000000 0.000000 0.000000 0.000000 0.000000 0.000000 194.000000 -0.034022 0.306199 0.951359
1.25999999 -4.32999992 0.06000000 146 22 171 0.000000 0.000000 0.000000 0.000000 0.000000 0.000000 194.000000 -0.505464 0.659958 0.555843
1.25000000 -4.32999992 0.06000000 146 22 171 0.000000 0.000000 0.000000 0.000000 0.000000 0.000000 194.000000 -0.547386 0.199743 0.812694
1.24000001 -4.32000017 0.02000000 146 22 171 0.000000 0.000000 0.000000 0.000000 0.000000 0.000000 194.000000 -0.268570 0.498330 0.824340
1.28999996 -4.42999983 0.03000000 146 22 171 0.000000 0.000000 0.000000 0.000000 0.000000 0.000000 194.000000 -0.111829 0.547529 0.829281
1.27999997 -4.42000008 0.02000000 146 22 171 0.000000 0.000000 0.000000 0.000000 0.000000 0.000000 194.000000 -0.271474 0.443254 0.854300
1.26999998 -4.42999983 0.01000000 146 22 171 0.000000 0.000000 0.000000 0.000000 0.000000 0.000000 194.000000 -0.667856 0.424696 0.611230
1.25999999 -4.42999983 0.00000000 146 22 171 0.000000 0.000000 0.000000 0.000000 0.000000 0.000000 194.000000 -0.439545 0.309080 0.843368
1.23000002 -4.36999989 0.03000000 146 22 171 0.000000 0.000000 0.000000 0.000000 0.000000 0.000000 194.000000 -0.544116 0.140084 0.827233
1.25000000 -4.42000008 0.03000000 146 22 171 0.000000 0.000000 0.000000 0.000000 0.000000 0.000000 194.000000 -0.170918 0.288509 0.942099
1.25000000 -4.42999983 0.00000000 146 22 171 0.000000 0.000000 0.000000 0.000000 0.000000 0.000000 194.000000 -0.482999 0.070988 0.872739
1.20000005 -4.28000021 0.02000000 146 22 171 0.000000 0.000000 0.000000 0.000000 0.000000 0.000000 194.000000 -0.400477 0.329349 0.855072
1.17999995 -4.28999996 0.00000000 146 22 171 0.000000 0.000000 0.000000 0.000000 0.000000 0.000000 194.000000 -0.190180 0.446701 0.874237
1.17999995 -4.32000017 -0.01000000 146 22 171 0.000000 0.000000 0.000000 0.000000 0.000000 0.000000 194.000000 -0.424104 0.166457 0.890184
1.17999995 -4.34000015 -0.01000000 146 22 171 0.000000 0.000000 0.000000 0.000000 0.000000 0.000000 194.000000 -0.369766 0.019326 0.928924
1.17999995 -4.34999990 -0.01000000 146 22 171 0.000000 0.000000 0.000000 0.000000 0.000000 0.000000 194.000000 0.645433 -0.233989 -0.727094
1.19000006 -4.34000015 -0.01000000 146 22 171 0.000000 0.000000 0.000000 0.000000 0.000000 0.000000 194.000000 -0.156988 0.151965 0.975839
1.16999996 -4.28000021 0.02000000 146 22 171 0.000000 0.000000 0.000000 0.000000 0.000000 0.000000 194.000000 -0.274648 0.257572 0.926404
1.16999996 -4.30000019 -0.02000000 146 22 171 0.000000 0.000000 0.000000 0.000000 0.000000 0.000000 194.000000 -0.083101 0.730415 0.677930
1.13000000 -4.28000021 0.01000000 146 22 171 0.000000 0.000000 0.000000 0.000000 0.000000 0.000000 194.000000 -0.083740 0.276988 0.957218
1.15999997 -4.30999994 0.01000000 146 22 171 0.000000 0.000000 0.000000 0.000000 0.000000 0.000000 194.000000 -0.114953 0.246698 0.962250
1.16999996 -4.30000019 0.00000000 146 22 171 0.000000 0.000000 0.000000 0.000000 0.000000 0.000000 194.000000 -0.233801 0.496636 0.835877
1.16999996 -4.34000015 0.03000000 146 22 171 0.000000 0.000000 0.000000 0.000000 0.000000 0.000000 194.000000 -0.441073 0.072825 0.894512
1.25999999 -4.28000021 -0.05000000 146 22 171 0.000000 0.000000 0.000000 0.000000 0.000000 0.000000 194.000000 -0.359117 0.628045 0.690358
1.26999998 -4.30999994 -0.10000000 146 22 171 0.000000 0.000000 0.000000 0.000000 0.000000 0.000000 194.000000 -0.283984 0.516192 0.808021
1.25999999 -4.32000017 -0.06000000 146 22 171 0.000000 0.000000 0.000000 0.000000 0.000000 0.000000 194.000000 0.190264 0.561658 0.805196
1.22000003 -4.30000019 -0.05000000 146 22 171 0.000000 0.000000 0.000000 0.000000 0.000000 0.000000 194.000000 0.097229 0.463598 0.880695
1.22000003 -4.30000019 -0.05000000 146 22 171 0.000000 0.000000 0.000000 0.000000 0.000000 0.000000 194.000000 0.097229 0.463598 0.880695
1.23000002 -4.30999994 -0.09000000 146 22 171 0.000000 0.000000 0.000000 0.000000 0.000000 0.000000 194.000000 0.206529 0.656855 0.725181
1.23000002 -4.30000019 -0.07000000 146 22 171 0.000000 0.000000 0.000000 0.000000 0.000000 0.000000 194.000000 -0.217945 0.585824 0.780583
1.23000002 -4.30999994 -0.09000000 146 22 171 0.000000 0.000000 0.000000 0.000000 0.000000 0.000000 194.000000 0.206529 0.656855 0.725181
1.25000000 -4.34999990 -0.03000000 146 22 171 0.000000 0.000000 0.000000 0.000000 0.000000 0.000000 194.000000 0.151302 0.582736 0.798453
1.24000001 -4.32000017 -0.08000000 146 22 171 0.000000 0.000000 0.000000 0.000000 0.000000 0.000000 194.000000 -0.422448 0.700766 0.574860
1.24000001 -4.32999992 -0.07000000 146 22 171 0.000000 0.000000 0.000000 0.000000 0.000000 0.000000 194.000000 -0.188211 0.598297 0.778857
1.22000003 -4.34999990 -0.08000000 146 22 171 0.000000 0.000000 0.000000 0.000000 0.000000 0.000000 194.000000 -0.250818 0.090396 0.963804
1.22000003 -4.28999996 -0.11000000 146 22 171 0.000000 0.000000 0.000000 0.000000 0.000000 0.000000 194.000000 -0.295452 0.761787 0.576531
1.22000003 -4.28000021 -0.11000000 146 22 171 0.000000 0.000000 0.000000 0.000000 0.000000 0.000000 194.000000 -0.075339 0.837260 0.541589
1.25999999 -4.36000013 -0.06000000 146 22 171 0.000000 0.000000 0.000000 0.000000 0.000000 0.000000 194.000000 -0.245183 0.419669 0.873935
1.22000003 -4.38000011 -0.03000000 146 22 171 0.000000 0.000000 0.000000 0.000000 0.000000 0.000000 194.000000 -0.300650 0.615769 0.728312
1.25000000 -4.38000011 -0.07000000 146 22 171 0.000000 0.000000 0.000000 0.000000 0.000000 0.000000 194.000000 -0.612105 0.524421 0.591870
1.24000001 -4.42000008 -0.05000000 146 22 171 0.000000 0.000000 0.000000 0.000000 0.000000 0.000000 194.000000 -0.288141 0.259470 0.921765
1.17999995 -4.30000019 -0.10000000 146 22 171 0.000000 0.000000 0.000000 0.000000 0.000000 0.000000 194.000000 -0.204341 0.378249 0.902869
1.17999995 -4.32999992 -0.05000000 146 22 171 0.000000 0.000000 0.000000 0.000000 0.000000 0.000000 194.000000 -0.208222 0.515236 0.831369
1.16999996 -4.28000021 -0.03000000 146 22 171 0.000000 0.000000 0.000000 0.000000 0.000000 0.000000 194.000000 -0.140642 0.561086 0.815722
1.16999996 -4.28000021 -0.11000000 146 22 171 0.000000 0.000000 0.000000 0.000000 0.000000 0.000000 194.000000 -0.098426 0.703673 0.703673
1.28999996 -4.46999979 0.03000000 146 22 171 0.000000 0.000000 0.000000 0.000000 0.000000 0.000000 194.000000 -0.101293 0.250027 0.962926
1.28999996 -4.48000002 0.01000000 146 22 171 0.000000 0.000000 0.000000 0.000000 0.000000 0.000000 194.000000 -0.364682 0.119726 0.923403
1.27999997 -4.50000000 0.00000000 146 22 171 0.000000 0.000000 0.000000 0.000000 0.000000 0.000000 194.000000 -0.581303 -0.141237 0.801336
1.25999999 -4.46000004 -0.11000000 146 22 171 0.000000 0.000000 0.000000 0.000000 0.000000 0.000000 194.000000 0.776613 -0.239078 -0.582850
1.11000001 -4.28000021 0.00000000 146 22 171 0.000000 0.000000 0.000000 0.000000 0.000000 0.000000 194.000000 -0.345104 0.360442 0.866594
1.07000005 -4.40999985 0.09000000 146 22 171 0.000000 0.000000 0.000000 0.000000 0.000000 0.000000 194.000000 -0.466584 0.398776 0.789479
0.97000003 -4.30999994 0.12000000 146 22 171 0.000000 0.000000 0.000000 0.000000 0.000000 0.000000 194.000000 -0.163799 0.187014 0.968605
0.99000001 -4.30999994 0.05000000 146 22 171 0.000000 0.000000 0.000000 0.000000 0.000000 0.000000 194.000000 -0.597526 -0.110109 0.794254
1.02999997 -4.38999987 0.09000000 146 22 171 0.000000 0.000000 0.000000 0.000000 0.000000 0.000000 194.000000 -0.285137 -0.183204 0.940815
1.02999997 -4.42999983 0.10000000 146 22 171 0.000000 0.000000 0.000000 0.000000 0.000000 0.000000 194.000000 -0.521688 -0.277294 0.806815
0.99000001 -4.36999989 0.10000000 146 22 171 0.000000 0.000000 0.000000 0.000000 0.000000 0.000000 194.000000 0.654229 -0.212896 -0.725713
1.00000000 -4.40999985 0.01000000 146 22 171 0.000000 0.000000 0.000000 0.000000 0.000000 0.000000 194.000000 0.723920 -0.339998 -0.600284
0.82999998 -3.95000005 0.09000000 146 22 171 0.000000 0.000000 0.000000 0.000000 0.000000 0.000000 218.000000 0.551924 -0.488176 -0.676065
0.79000002 -3.98000002 -0.05000000 146 22 171 0.000000 0.000000 0.000000 0.000000 0.000000 0.000000 218.000000 -0.422087 0.201484 0.883882
0.94000000 -4.17999983 -0.14000000 146 22 171 0.000000 0.000000 0.000000 0.000000 0.000000 0.000000 194.000000 -0.468316 0.409979 0.782686
0.92000002 -4.21999979 -0.15000001 146 22 171 0.000000 0.000000 0.000000 0.000000 0.000000 0.000000 194.000000 0.475495 -0.599829 -0.643514
0.94000000 -4.23000002 -0.12000000 146 22 171 0.000000 0.000000 0.000000 0.000000 0.000000 0.000000 194.000000 0.770285 -0.148651 -0.620132
0.94999999 -4.23000002 -0.12000000 146 22 171 0.000000 0.000000 0.000000 0.000000 0.000000 0.000000 194.000000 0.713672 -0.233708 -0.660343
0.92000002 -4.23000002 -0.12000000 146 22 171 0.000000 0.000000 0.000000 0.000000 0.000000 0.000000 194.000000 -0.631887 0.001377 0.775059
0.88999999 -4.19000006 -0.16000000 146 22 171 0.000000 0.000000 0.000000 0.000000 0.000000 0.000000 194.000000 -0.626455 0.018057 0.779249
0.76999998 -3.95000005 0.05000000 146 22 171 0.000000 0.000000 0.000000 0.000000 0.000000 0.000000 218.000000 0.642587 -0.330241 -0.691391
0.70999998 -3.96000004 0.04000000 146 22 171 0.000000 0.000000 0.000000 0.000000 0.000000 0.000000 218.000000 -0.351475 0.118982 0.928606
0.69000000 -3.95000005 -0.01000000 146 22 171 0.000000 0.000000 0.000000 0.000000 0.000000 0.000000 218.000000 -0.440094 0.096402 0.892762
0.68000001 -3.98000002 0.05000000 146 22 171 0.000000 0.000000 0.000000 0.000000 0.000000 0.000000 218.000000 0.728826 -0.189525 -0.657946
0.67000002 -3.99000001 0.04000000 146 22 171 0.000000 0.000000 0.000000 0.000000 0.000000 0.000000 218.000000 -0.496272 0.006688 0.868141
0.62000000 -3.94000006 0.01000000 146 22 171 0.000000 0.000000 0.000000 0.000000 0.000000 0.000000 218.000000 -0.472016 -0.009307 0.881541
0.77999997 -4.00000000 -0.08000000 146 22 171 0.000000 0.000000 0.000000 0.000000 0.000000 0.000000 218.000000 -0.304464 0.216665 0.927555
0.70999998 -3.98000002 -0.05000000 146 22 171 0.000000 0.000000 0.000000 0.000000 0.000000 0.000000 218.000000 -0.672999 0.136398 0.726958
0.94000000 -4.34000015 0.19000000 146 22 171 0.000000 0.000000 0.000000 0.000000 0.000000 0.000000 194.000000 -0.338236 -0.026804 0.940679
0.89999998 -4.34000015 0.16000000 146 22 171 0.000000 0.000000 0.000000 0.000000 0.000000 0.000000 194.000000 -0.437058 -0.192777 0.878531
0.92000002 -4.38999987 0.20000000 146 22 171 0.000000 0.000000 0.000000 0.000000 0.000000 0.000000 194.000000 -0.234253 0.025227 0.971848
0.91000003 -4.36999989 0.20999999 146 22 171 0.000000 0.000000 0.000000 0.000000 0.000000 0.000000 194.000000 -0.280549 -0.143630 0.949033
0.88000000 -4.40000010 0.20999999 146 22 171 0.000000 0.000000 0.000000 0.000000 0.000000 0.000000 194.000000 0.771309 0.208671 -0.601281
0.88000000 -4.40999985 0.22000000 146 22 171 0.000000 0.000000 0.000000 0.000000 0.000000 0.000000 194.000000 -0.494145 -0.131869 0.859320
0.88000000 -4.42000008 0.20999999 146 22 171 0.000000 0.000000 0.000000 0.000000 0.000000 0.000000 194.000000 0.852849 -0.012203 -0.522014
0.87000000 -4.42000008 0.20999999 146 22 171 0.000000 0.000000 0.000000 0.000000 0.000000 0.000000 194.000000 -0.460530 -0.258570 0.849149
0.85000002 -4.40000010 0.20000000 146 22 171 0.000000 0.000000 0.000000 0.000000 0.000000 0.000000 194.000000 -0.418124 -0.227662 0.879399
0.83999997 -4.42000008 0.22000000 146 22 171 0.000000 0.000000 0.000000 0.000000 0.000000 0.000000 194.000000 -0.547459 -0.421758 0.722778
0.94000000 -4.51999998 0.23000000 146 22 171 0.000000 0.000000 0.000000 0.000000 0.000000 0.000000 194.000000 -0.360265 -0.051092 0.931450
0.89999998 -4.48999977 0.23000000 146 22 171 0.000000 0.000000 0.000000 0.000000 0.000000 0.000000 194.000000 -0.428144 -0.343456 0.835901
0.92000002 -4.57000017 0.20000000 146 22 171 0.000000 0.000000 0.000000 0.000000 0.000000 0.000000 194.000000 -0.507018 -0.290397 0.811543
0.94999999 -4.53000021 0.22000000 146 22 171 0.000000 0.000000 0.000000 0.000000 0.000000 0.000000 194.000000 -0.263570 -0.136421 0.954945
0.79000002 -4.57000017 0.20000000 146 22 171 0.000000 0.000000 0.000000 0.000000 0.000000 0.000000 194.000000 0.619054 0.575198 -0.534714
0.80000001 -4.53000021 0.18000001 146 22 171 0.000000 0.000000 0.000000 0.000000 0.000000 0.000000 194.000000 -0.463528 -0.127721 0.876829
0.77999997 -4.32999992 0.18000001 146 22 171 0.000000 0.000000 0.000000 0.000000 0.000000 0.000000 194.000000 -0.528033 -0.260122 0.808404
0.75000000 -4.38000011 0.20000000 146 22 171 0.000000 0.000000 0.000000 0.000000 0.000000 0.000000 194.000000 -0.317538 0.237076 0.918131
0.75000000 -4.44000006 0.19000000 146 22 171 0.000000 0.000000 0.000000 0.000000 0.000000 0.000000 194.000000 -0.433688 -0.398481 0.808163
0.69999999 -4.40999985 0.18000001 146 22 171 0.000000 0.000000 0.000000 0.000000 0.000000 0.000000 194.000000 -0.421849 -0.083820 0.902783
0.68000001 -4.38000011 0.15000001 146 22 171 0.000000 0.000000 0.000000 0.000000 0.000000 0.000000 194.000000 -0.439871 -0.348428 0.827714
0.64999998 -4.38999987 0.18000001 146 22 171 0.000000 0.000000 0.000000 0.000000 0.000000 0.000000 194.000000 -0.438509 -0.160642 0.884254
0.75000000 -4.46000004 0.15000001 146 22 171 0.000000 0.000000 0.000000 0.000000 0.000000 0.000000 194.000000 -0.391213 -0.030093 0.919808
0.76999998 -4.48000002 0.19000000 146 22 171 0.000000 0.000000 0.000000 0.000000 0.000000 0.000000 194.000000 0.626286 0.518248 -0.582396
0.76999998 -4.50000000 0.18000001 146 22 171 0.000000 0.000000 0.000000 0.000000 0.000000 0.000000 194.000000 0.518337 0.403878 -0.753796
0.74000001 -4.48999977 0.20999999 146 22 171 0.000000 0.000000 0.000000 0.000000 0.000000 0.000000 194.000000 -0.592901 -0.394717 0.701902
0.70999998 -4.53000021 0.16000000 146 22 171 0.000000 0.000000 0.000000 0.000000 0.000000 0.000000 194.000000 0.582974 0.430171 -0.689271
0.70999998 -4.57999992 0.16000000 146 22 171 0.000000 0.000000 0.000000 0.000000 0.000000 0.000000 194.000000 0.411682 0.580322 -0.702669
0.67000002 -4.51999998 0.19000000 146 22 171 0.000000 0.000000 0.000000 0.000000 0.000000 0.000000 194.000000 0.599099 0.534970 -0.595724
0.63000000 -4.46999979 0.15000001 146 22 171 0.000000 0.000000 0.000000 0.000000 0.000000 0.000000 194.000000 -0.360546 -0.485535 0.796406
0.68000001 -4.53999996 0.17000000 146 22 171 0.000000 0.000000 0.000000 0.000000 0.000000 0.000000 194.000000 -0.508211 -0.359781 0.782483
0.69000000 -4.59999990 0.16000000 146 22 171 0.000000 0.000000 0.000000 0.000000 0.000000 0.000000 194.000000 -0.440819 -0.190186 0.877216
0.66000003 -4.53000021 0.16000000 146 22 171 0.000000 0.000000 0.000000 0.000000 0.000000 0.000000 194.000000 -0.431069 -0.280732 0.857536
0.94999999 -4.30999994 0.09000000 146 22 171 0.000000 0.000000 0.000000 0.000000 0.000000 0.000000 194.000000 0.799006 0.034983 -0.600304
0.89999998 -4.34999990 0.07000000 146 22 171 0.000000 0.000000 0.000000 0.000000 0.000000 0.000000 194.000000 -0.334382 -0.184827 0.924136
0.93000001 -4.38000011 0.11000000 146 22 171 0.000000 0.000000 0.000000 0.000000 0.000000 0.000000 194.000000 0.788306 0.100915 -0.606952
0.94999999 -4.38999987 0.09000000 146 22 171 0.000000 0.000000 0.000000 0.000000 0.000000 0.000000 194.000000 0.759554 -0.032411 -0.649637
0.93000001 -4.40999985 0.12000000 146 22 171 0.000000 0.000000 0.000000 0.000000 0.000000 0.000000 194.000000 0.755412 0.070775 -0.651417
0.92000002 -4.40999985 0.10000000 146 22 171 0.000000 0.000000 0.000000 0.000000 0.000000 0.000000 194.000000 -0.569529 -0.220712 0.791785
0.91000003 -4.36999989 0.07000000 146 22 171 0.000000 0.000000 0.000000 0.000000 0.000000 0.000000 194.000000 0.630575 0.337284 -0.699010
0.88000000 -4.38999987 0.01000000 146 22 171 0.000000 0.000000 0.000000 0.000000 0.000000 0.000000 194.000000 -0.416784 -0.143670 0.897580
0.88000000 -4.42000008 0.00000000 146 22 171 0.000000 0.000000 0.000000 0.000000 0.000000 0.000000 194.000000 -0.530380 -0.299229 0.793195
0.85000002 -4.28999996 0.05000000 146 22 171 0.000000 0.000000 0.000000 0.000000 0.000000 0.000000 194.000000 -0.323504 -0.097184 0.941223
0.83999997 -4.32000017 0.06000000 146 22 171 0.000000 0.000000 0.000000 0.000000 0.000000 0.000000 194.000000 0.793584 0.052527 -0.606190
0.86000001 -4.30999994 0.04000000 146 22 171 0.000000 0.000000 0.000000 0.000000 0.000000 0.000000 194.000000 -0.479152 -0.103793 0.871573
0.86000001 -4.36999989 0.13000000 146 22 171 0.000000 0.000000 0.000000 0.000000 0.000000 0.000000 194.000000 -0.527856 -0.192085 0.827328
0.86000001 -4.42999983 0.10000000 146 22 171 0.000000 0.000000 0.000000 0.000000 0.000000 0.000000 194.000000 -0.330858 -0.203059 0.921575
0.82999998 -4.38999987 -0.02000000 146 22 171 0.000000 0.000000 0.000000 0.000000 0.000000 0.000000 194.000000 -0.298155 -0.221850 0.928378
0.79000002 -4.38999987 -0.01000000 146 22 171 0.000000 0.000000 0.000000 0.000000 0.000000 0.000000 194.000000 -0.528385 0.175130 0.830746
0.89999998 -4.30999994 -0.15000001 146 22 171 0.000000 0.000000 0.000000 0.000000 0.000000 0.000000 194.000000 0.691050 -0.140017 -0.709116
0.87000000 -4.34000015 -0.19000000 146 22 171 0.000000 0.000000 0.000000 0.000000 0.000000 0.000000 194.000000 0.740025 -0.086117 -0.667044
0.94000000 -4.46000004 0.11000000 146 22 171 0.000000 0.000000 0.000000 0.000000 0.000000 0.000000 194.000000 -0.439907 -0.213243 0.872358
0.91000003 -4.44999981 0.06000000 146 22 171 0.000000 0.000000 0.000000 0.000000 0.000000 0.000000 194.000000 -0.304450 -0.298567 0.904526
0.89999998 -4.48999977 0.04000000 146 22 171 0.000000 0.000000 0.000000 0.000000 0.000000 0.000000 194.000000 -0.488343 -0.271302 0.829408
0.82999998 -4.57000017 0.13000000 146 22 171 0.000000 0.000000 0.000000 0.000000 0.000000 0.000000 194.000000 0.575802 0.397617 -0.714390
0.63000000 -4.40000010 0.12000000 146 22 171 0.000000 0.000000 0.000000 0.000000 0.000000 0.000000 194.000000 -0.346478 -0.247067 0.904937
0.76999998 -4.36999989 -0.07000000 146 22 171 0.000000 0.000000 0.000000 0.000000 0.000000 0.000000 194.000000 -0.458254 -0.207483 0.864265
0.72000003 -4.48999977 0.13000000 146 22 171 0.000000 0.000000 0.000000 0.000000 0.000000 0.000000 194.000000 -0.568081 0.147611 0.809627
0.74000001 -4.51000023 0.14000000 146 22 171 0.000000 0.000000 0.000000 0.000000 0.000000 0.000000 194.000000 -0.369561 -0.335825 0.866398
0.69999999 -4.48999977 0.10000000 146 22 171 0.000000 0.000000 0.000000 0.000000 0.000000 0.000000 194.000000 -0.463007 -0.269190 0.844489
0.69999999 -4.57000017 0.09000000 146 22 171 0.000000 0.000000 0.000000 0.000000 0.000000 0.000000 194.000000 -0.532933 -0.275113 0.800185
0.73000002 -4.61000013 0.14000000 146 22 171 0.000000 0.000000 0.000000 0.000000 0.000000 0.000000 194.000000 0.751961 -0.095278 -0.652286
0.69999999 -4.57000017 0.06000000 146 22 171 0.000000 0.000000 0.000000 0.000000 0.000000 0.000000 194.000000 -0.421913 -0.386886 0.819944
0.68000001 -4.57999992 0.08000000 146 22 171 0.000000 0.000000 0.000000 0.000000 0.000000 0.000000 194.000000 -0.465284 -0.158984 0.870767
0.68000001 -4.57999992 0.08000000 146 22 171 0.000000 0.000000 0.000000 0.000000 0.000000 0.000000 194.000000 -0.465284 -0.158984 0.870767
0.68000001 -4.53999996 0.02000000 146 22 171 0.000000 0.000000 0.000000 0.000000 0.000000 0.000000 194.000000 0.639156 0.052670 -0.767272
0.63000000 -4.55000019 0.01000000 146 22 171 0.000000 0.000000 0.000000 0.000000 0.000000 0.000000 194.000000 -0.415052 -0.389609 0.822154
0.60000002 -4.46000004 0.15000001 146 22 171 0.000000 0.000000 0.000000 0.000000 0.000000 0.000000 194.000000 -0.460355 0.001319 0.887734
0.58999997 -4.51999998 0.14000000 146 22 171 0.000000 0.000000 0.000000 0.000000 0.000000 0.000000 194.000000 -0.534252 -0.226326 0.814464
0.58999997 -4.51999998 0.14000000 146 22 171 0.000000 0.000000 0.000000 0.000000 0.000000 0.000000 194.000000 -0.534252 -0.226326 0.814464
1.04999995 -4.65999985 0.25999999 146 22 171 0.000000 0.000000 0.000000 0.000000 0.000000 0.000000 194.000000 -0.404522 -0.060477 0.912526
1.07000005 -4.76000023 0.31000000 146 22 171 0.000000 0.000000 0.000000 0.000000 0.000000 0.000000 194.000000 0.795851 0.292709 -0.530040
1.02999997 -4.61999989 0.25000000 146 22 171 0.000000 0.000000 0.000000 0.000000 0.000000 0.000000 194.000000 0.801250 0.396611 -0.447994
0.97000003 -4.61999989 0.28999999 146 22 171 0.000000 0.000000 0.000000 0.000000 0.000000 0.000000 194.000000 -0.392358 0.006432 0.919790
0.99000001 -4.67000008 0.31000000 146 22 171 0.000000 0.000000 0.000000 0.000000 0.000000 0.000000 194.000000 -0.391512 -0.300109 0.869858
1.03999996 -4.71000004 0.22000000 146 22 171 0.000000 0.000000 0.000000 0.000000 0.000000 0.000000 194.000000 -0.583894 -0.273750 0.764284
0.86000001 -4.69000006 0.33000001 146 22 171 0.000000 0.000000 0.000000 0.000000 0.000000 0.000000 194.000000 -0.338135 -0.175381 0.924611
0.92000002 -4.67999983 0.30000001 146 22 171 0.000000 0.000000 0.000000 0.000000 0.000000 0.000000 194.000000 -0.508496 -0.074654 0.857822
0.94000000 -4.65999985 0.25000000 146 22 171 0.000000 0.000000 0.000000 0.000000 0.000000 0.000000 194.000000 -0.489850 -0.483208 0.725642
0.91000003 -4.67999983 0.27000001 146 22 171 0.000000 0.000000 0.000000 0.000000 0.000000 0.000000 194.000000 0.607110 0.539465 -0.583434
0.88999999 -4.63999987 0.20999999 146 22 171 0.000000 0.000000 0.000000 0.000000 0.000000 0.000000 194.000000 -0.385194 -0.173266 0.906424
0.88000000 -4.63999987 0.20000000 146 22 171 0.000000 0.000000 0.000000 0.000000 0.000000 0.000000 194.000000 -0.568170 0.012322 0.822819
0.88999999 -4.65999985 0.19000000 146 22 171 0.000000 0.000000 0.000000 0.000000 0.000000 0.000000 194.000000 -0.500920 -0.524375 0.688556
0.88000000 -4.71000004 0.30000001 146 22 171 0.000000 0.000000 0.000000 0.000000 0.000000 0.000000 194.000000 -0.387998 -0.468496 0.793706
0.91000003 -4.71999979 0.28000000 146 22 171 0.000000 0.000000 0.000000 0.000000 0.000000 0.000000 194.000000 0.405953 0.598159 -0.690948
0.85000002 -4.63999987 0.30000001 146 22 171 0.000000 0.000000 0.000000 0.000000 0.000000 0.000000 194.000000 -0.458998 0.058916 0.886482
0.83999997 -4.67000008 0.23999999 146 22 171 0.000000 0.000000 0.000000 0.000000 0.000000 0.000000 194.000000 -0.486916 -0.490240 0.722896
0.81999999 -4.63000011 0.27000001 146 22 171 0.000000 0.000000 0.000000 0.000000 0.000000 0.000000 194.000000 0.685424 0.578691 -0.441940
0.82999998 -4.63000011 0.20999999 146 22 171 0.000000 0.000000 0.000000 0.000000 0.000000 0.000000 194.000000 0.697116 0.591141 -0.405685
0.87000000 -4.65000010 0.19000000 146 22 171 0.000000 0.000000 0.000000 0.000000 0.000000 0.000000 194.000000 0.641815 0.581171 -0.500313
0.81999999 -4.63999987 0.18000001 146 22 171 0.000000 0.000000 0.000000 0.000000 0.000000 0.000000 194.000000 -0.517218 -0.437900 0.735342
0.83999997 -4.71999979 0.23999999 146 22 171 0.000000 0.000000 0.000000 0.000000 0.000000 0.000000 194.000000 0.587010 0.463253 -0.663940
0.82999998 -4.71999979 0.16000000 146 22 171 0.000000 0.000000 0.000000 0.000000 0.000000 0.000000 194.000000 0.520152 0.470298 -0.712925
0.87000000 -4.73999977 0.19000000 146 22 171 0.000000 0.000000 0.000000 0.000000 0.000000 0.000000 194.000000 0.737615 0.146316 -0.659178
