//X Y Z R G B PointSourceId ScanDirectionFlag NumberOfReturns ReturnNumber GpsTime Intensity Classification Nx Ny Nz
-16.29000092 11.43000031 -0.94000000 135 167 104 97.000000 1.000000 4.000000 1.000000 0.000000 114.000000 5.000000 -0.470804 0.316494 0.823514
-16.32999992 11.47999954 -0.98000002 135 167 104 97.000000 1.000000 4.000000 1.000000 0.000000 114.000000 5.000000 -0.585190 -0.029190 0.810370
-16.34000015 11.47000027 -0.97000003 135 167 104 97.000000 1.000000 4.000000 1.000000 0.000000 114.000000 5.000000 -0.622490 0.006901 0.782598
-16.35000038 11.47000027 -0.99000001 135 167 104 97.000000 1.000000 4.000000 1.000000 0.000000 114.000000 5.000000 0.863336 0.045439 -0.502580
-16.31999969 11.46000004 -1.04999995 135 167 104 97.000000 1.000000 4.000000 1.000000 0.000000 114.000000 5.000000 -0.395142 -0.189610 0.898839
-16.35000038 11.44999981 -0.98000002 135 167 104 97.000000 1.000000 4.000000 1.000000 0.000000 114.000000 5.000000 -0.473984 0.082493 0.876661
-16.38999939 11.43999958 -1.02999997 135 167 104 97.000000 1.000000 4.000000 1.000000 0.000000 114.000000 5.000000 0.799801 -0.325963 -0.504050
-16.32999992 11.47999954 -1.07000005 135 167 104 97.000000 1.000000 4.000000 1.000000 0.000000 114.000000 5.000000 0.689247 0.041213 -0.723354
-16.37999916 11.34000015 -1.04999995 135 167 104 97.000000 1.000000 4.000000 1.000000 0.000000 114.000000 5.000000 0.836799 -0.428604 -0.340685
-16.37999916 11.34000015 -1.03999996 135 167 104 97.000000 1.000000 4.000000 1.000000 0.000000 114.000000 5.000000 0.750793 -0.116987 -0.650095
-16.47999954 11.51000023 -0.94000000 135 167 104 97.000000 1.000000 4.000000 1.000000 0.000000 114.000000 5.000000 0.825621 0.023432 -0.563738
-16.45999908 11.48999977 -0.92000002 135 167 104 97.000000 1.000000 4.000000 1.000000 0.000000 114.000000 5.000000 0.652129 -0.206017 -0.729579
-16.40999985 11.52000046 -1.02999997 135 167 104 97.000000 1.000000 4.000000 1.000000 0.000000 114.000000 5.000000 0.617807 0.142111 -0.773381
-16.44000053 11.51000023 -1.02999997 135 167 104 97.000000 1.000000 4.000000 1.000000 0.000000 114.000000 5.000000 0.869727 0.042459 -0.491704
-16.44000053 11.47999954 -1.03999996 135 167 104 97.000000 1.000000 4.000000 1.000000 0.000000 114.000000 5.000000 -0.390465 -0.077012 0.917391
-16.44000053 11.48999977 -1.03999996 135 167 104 97.000000 1.000000 4.000000 1.000000 0.000000 114.000000 5.000000 0.669230 -0.287271 -0.685279
-16.45000076 11.47000027 -0.98000002 135 167 104 97.000000 1.000000 4.000000 1.000000 0.000000 114.000000 5.000000 -0.489199 0.206216 0.847443
-16.45000076 11.47000027 -1.04999995 135 167 104 97.000000 1.000000 4.000000 1.000000 0.000000 114.000000 5.000000 -0.588844 0.113070 0.800299
-16.46999931 11.39000034 -0.94000000 135 167 104 97.000000 1.000000 4.000000 1.000000 0.000000 114.000000 5.000000 -0.259917 0.578118 0.773449
-16.39999962 11.39000034 -1.03999996 135 167 104 97.000000 1.000000 4.000000 1.000000 0.000000 114.000000 5.000000 0.699365 -0.237313 -0.674219
-16.46999931 11.44999981 -0.99000001 135 167 104 97.000000 1.000000 4.000000 1.000000 0.000000 114.000000 5.000000 -0.540551 0.267925 0.797509
-16.45999908 11.43999958 -1.02999997 135 167 104 97.000000 1.000000 4.000000 1.000000 0.000000 114.000000 5.000000 -0.599071 -0.029325 0.800158
-16.46999931 11.39000034 -1.00000000 135 167 104 97.000000 1.000000 4.000000 1.000000 0.000000 114.000000 5.000000 -0.795185 -0.026460 0.605789
-16.48999977 11.52000046 -0.95999998 135 167 104 97.000000 1.000000 4.000000 1.000000 0.000000 114.000000 5.000000 0.710132 0.196485 -0.676096
-16.48999977 11.52000046 -0.95999998 135 167 104 97.000000 1.000000 4.000000 1.000000 0.000000 114.000000 5.000000 0.710132 0.196485 -0.676096
-16.50000000 11.52999973 -0.95999998 135 167 104 97.000000 1.000000 4.000000 1.000000 0.000000 114.000000 5.000000 -0.334422 -0.141751 0.931702
-16.48999977 11.52000046 -0.94000000 135 167 104 97.000000 1.000000 4.000000 1.000000 0.000000 114.000000 5.000000 -0.750756 0.155589 0.641995
-16.50000000 11.50000000 -0.95999998 135 167 104 97.000000 1.000000 4.000000 1.000000 0.000000 114.000000 5.000000 -0.612520 0.194963 0.766034
-16.56999969 11.47000027 -1.00999999 135 167 104 97.000000 1.000000 4.000000 1.000000 0.000000 114.000000 5.000000 -0.513455 -0.171152 0.840875
-16.56999969 11.47000027 -1.00999999 135 167 104 97.000000 1.000000 4.000000 1.000000 0.000000 114.000000 5.000000 -0.513455 -0.171152 0.840875
-16.54000092 11.48999977 -0.97000003 135 167 104 97.000000 1.000000 4.000000 1.000000 0.000000 114.000000 5.000000 -0.418909 -0.185371 0.888905
-16.54999924 11.47000027 -1.00000000 135 167 104 97.000000 1.000000 4.000000 1.000000 0.000000 114.000000 5.000000 0.897706 -0.017187 -0.440259
-16.54999924 11.47999954 -0.99000001 135 167 104 97.000000 1.000000 4.000000 1.000000 0.000000 114.000000 5.000000 0.802239 0.346095 -0.486447
-16.52000046 11.43999958 -0.95999998 135 167 104 97.000000 1.000000 4.000000 1.000000 0.000000 114.000000 5.000000 0.707763 -0.213107 -0.673541
-16.54999924 11.39999962 -0.91000003 135 167 104 97.000000 1.000000 4.000000 1.000000 0.000000 114.000000 5.000000 -0.505577 0.699131 0.505577
-16.50000000 11.43000031 -0.98000002 135 167 104 97.000000 1.000000 4.000000 1.000000 0.000000 114.000000 5.000000 0.770700 0.162014 -0.616257
-16.50000000 11.43999958 -0.98000002 135 167 104 97.000000 1.000000 4.000000 1.000000 0.000000 114.000000 5.000000 0.875261 -0.161654 -0.455835
-16.51000023 11.43999958 -1.01999998 135 167 104 97.000000 1.000000 4.000000 1.000000 0.000000 114.000000 5.000000 0.799176 0.109978 -0.590950
-16.54000092 11.40999985 -1.00000000 135 167 104 97.000000 1.000000 4.000000 1.000000 0.000000 114.000000 5.000000 -0.406644 0.507897 0.759395
-16.56999969 11.39999962 -0.99000001 135 167 104 97.000000 1.000000 4.000000 1.000000 0.000000 114.000000 5.000000 0.709863 0.004151 -0.704328
-16.44000053 11.52999973 -1.07000005 135 167 104 97.000000 1.000000 4.000000 1.000000 0.000000 114.000000 5.000000 0.696989 0.390512 -0.601421
-16.42000008 11.52000046 -1.07000005 135 167 104 97.000000 1.000000 4.000000 1.000000 0.000000 114.000000 5.000000 0.675388 0.448591 -0.585336
-16.43000031 11.36999989 -1.05999994 135 167 104 97.000000 1.000000 4.000000 1.000000 0.000000 114.000000 5.000000 -0.510294 -0.045636 0.858788
-16.42000008 11.40999985 -1.05999994 135 167 104 97.000000 1.000000 4.000000 1.000000 0.000000 114.000000 5.000000 0.731678 -0.444292 -0.516964
-16.45000076 11.32999992 -0.88999999 135 167 104 97.000000 1.000000 4.000000 1.000000 0.000000 114.000000 5.000000 0.600839 -0.408836 -0.686910
-16.45999908 11.34000015 -0.94999999 135 167 104 97.000000 1.000000 4.000000 1.000000 0.000000 114.000000 5.000000 0.666084 -0.410281 -0.622897
-16.47999954 11.31999969 -0.89999998 135 167 104 97.000000 1.000000 4.000000 1.000000 0.000000 114.000000 5.000000 -0.591294 0.314175 0.742742
-16.54999924 11.30000019 -0.95999998 135 167 104 97.000000 1.000000 4.000000 1.000000 0.000000 114.000000 5.000000 -0.323750 0.521509 0.789440
-16.54999924 11.30000019 -0.95999998 135 167 104 97.000000 1.000000 4.000000 1.000000 0.000000 114.000000 5.000000 -0.323750 0.521509 0.789440
-16.55999947 11.32999992 -1.00000000 135 167 104 97.000000 1.000000 4.000000 1.000000 0.000000 114.000000 5.000000 -0.637865 0.308436 0.705688
-16.55999947 11.27000046 -1.01999998 135 167 104 97.000000 1.000000 4.000000 1.000000 0.000000 114.000000 5.000000 0.751038 -0.376334 -0.542507
-16.55999947 11.27999973 -1.02999997 135 167 104 97.000000 1.000000 4.000000 1.000000 0.000000 114.000000 5.000000 0.720141 -0.620256 -0.310933
-16.55999947 11.27999973 -1.01999998 135 167 104 97.000000 1.000000 4.000000 1.000000 0.000000 114.000000 5.000000 -0.426925 0.760614 0.489083
-16.71999931 11.72000027 -1.09000003 135 167 104 97.000000 1.000000 4.000000 1.000000 0.000000 114.000000 5.000000 0.384804 0.879767 -0.279171
-16.60000038 11.63000011 -0.99000001 135 167 104 97.000000 1.000000 4.000000 1.000000 0.000000 114.000000 5.000000 0.349902 0.836312 -0.422079
-16.63999939 11.71000004 -1.00999999 135 167 104 97.000000 1.000000 4.000000 1.000000 0.000000 114.000000 5.000000 0.494129 0.817274 -0.296478
-16.62000084 11.64999962 -1.03999996 135 167 104 97.000000 1.000000 4.000000 1.000000 0.000000 114.000000 5.000000 -0.107921 -0.669700 0.734748
-16.57999992 11.60999966 -0.95999998 135 167 104 97.000000 1.000000 4.000000 1.000000 0.000000 114.000000 5.000000 0.735995 0.558963 -0.381931
-16.60000038 11.61999989 -1.00000000 135 167 104 97.000000 1.000000 4.000000 1.000000 0.000000 114.000000 5.000000 0.517703 0.816199 -0.256520
-16.60000038 11.61999989 -1.00000000 135 167 104 97.000000 1.000000 4.000000 1.000000 0.000000 114.000000 5.000000 0.517703 0.816199 -0.256520
-16.57999992 11.55000019 -0.97000003 135 167 104 97.000000 1.000000 4.000000 1.000000 0.000000 114.000000 5.000000 0.622213 0.215680 -0.752551
-16.59000015 11.56000042 -0.97000003 135 167 104 97.000000 1.000000 4.000000 1.000000 0.000000 114.000000 5.000000 0.396492 0.718949 -0.570882
-16.63999939 11.53999996 -1.00999999 135 167 104 97.000000 1.000000 4.000000 1.000000 0.000000 114.000000 5.000000 -0.611129 -0.325827 0.721359
-16.64999962 11.53999996 -1.02999997 135 167 104 97.000000 1.000000 4.000000 1.000000 0.000000 114.000000 5.000000 0.779701 0.441125 -0.444381
-16.71999931 11.63000011 -1.03999996 135 167 104 97.000000 1.000000 4.000000 1.000000 0.000000 114.000000 5.000000 0.292820 0.887468 -0.355888
-16.65999985 11.55000019 -1.00999999 135 167 104 97.000000 1.000000 4.000000 1.000000 0.000000 114.000000 5.000000 -0.379471 -0.370102 0.847954
-16.65999985 11.55000019 -1.00999999 135 167 104 97.000000 1.000000 4.000000 1.000000 0.000000 114.000000 5.000000 -0.379471 -0.370102 0.847954
-16.71999931 11.56999969 -1.02999997 135 167 104 97.000000 1.000000 4.000000 1.000000 0.000000 114.000000 5.000000 0.556889 0.773901 -0.301582
-16.68000031 11.64999962 -1.08000004 135 167 104 97.000000 1.000000 4.000000 1.000000 0.000000 114.000000 5.000000 0.523104 0.777413 -0.349273
-16.69000053 11.56999969 -1.05999994 135 167 104 97.000000 1.000000 4.000000 1.000000 0.000000 114.000000 5.000000 0.539354 0.522552 -0.660331
-16.73999977 11.60000038 -1.09000003 135 167 104 97.000000 1.000000 4.000000 1.000000 0.000000 114.000000 5.000000 0.419388 0.588469 -0.691244
-16.72999954 11.55000019 -1.09000003 135 167 104 97.000000 1.000000 4.000000 1.000000 0.000000 114.000000 5.000000 0.724602 0.621776 -0.297231
-16.73999977 11.56000042 -1.08000004 135 167 104 97.000000 1.000000 4.000000 1.000000 0.000000 114.000000 5.000000 0.616206 0.710507 -0.339808
-16.73999977 11.55000019 -1.11000001 135 167 104 97.000000 1.000000 4.000000 1.000000 0.000000 114.000000 5.000000 0.826211 0.413898 -0.382182
-16.75000000 11.64999962 -1.09000003 135 167 104 97.000000 1.000000 4.000000 1.000000 0.000000 114.000000 5.000000 0.291412 0.935587 -0.199387
-16.75000000 11.53999996 -1.12000000 135 167 104 97.000000 1.000000 4.000000 1.000000 0.000000 114.000000 5.000000 -0.498105 -0.282624 0.819765
-16.60000038 11.47000027 -0.98000002 135 167 104 97.000000 1.000000 4.000000 1.000000 0.000000 114.000000 5.000000 -0.366002 0.180865 0.912869
-16.61000061 11.46000004 -0.98000002 135 167 104 97.000000 1.000000 4.000000 1.000000 0.000000 114.000000 5.000000 -0.472837 -0.232618 0.849891
-16.57999992 11.47000027 -1.00999999 135 167 104 97.000000 1.000000 4.000000 1.000000 0.000000 114.000000 5.000000 -0.409277 0.027636 0.911991
-16.62999916 11.52000046 -0.97000003 135 167 104 97.000000 1.000000 4.000000 1.000000 0.000000 114.000000 5.000000 -0.480231 -0.392916 0.784216
-16.64999962 11.52000046 -0.98000002 135 167 104 97.000000 1.000000 4.000000 1.000000 0.000000 114.000000 5.000000 -0.219180 -0.607798 0.763245
-16.63999939 11.52000046 -1.02999997 135 167 104 97.000000 1.000000 4.000000 1.000000 0.000000 114.000000 5.000000 -0.583308 -0.032019 0.811620
-16.63999939 11.47999954 -1.00999999 135 167 104 97.000000 1.000000 4.000000 1.000000 0.000000 114.000000 5.000000 0.615646 0.052607 -0.786264
-16.62000084 11.46000004 -1.00000000 135 167 104 97.000000 1.000000 4.000000 1.000000 0.000000 114.000000 5.000000 -0.549587 -0.087532 0.830838
-16.59000015 11.43999958 -1.00000000 135 167 104 97.000000 1.000000 4.000000 1.000000 0.000000 114.000000 5.000000 -0.307296 0.082382 0.948041
-16.60000038 11.43999958 -0.98000002 135 167 104 97.000000 1.000000 4.000000 1.000000 0.000000 114.000000 5.000000 0.826928 0.146451 -0.542902
-16.62999916 11.43999958 -1.00999999 135 167 104 97.000000 1.000000 4.000000 1.000000 0.000000 114.000000 5.000000 0.888805 0.003962 -0.458269
-16.64999962 11.39000034 -0.99000001 135 167 104 97.000000 1.000000 4.000000 1.000000 0.000000 114.000000 5.000000 -0.548727 0.541974 0.636524
-16.64999962 11.39000034 -1.00999999 135 167 104 97.000000 1.000000 4.000000 1.000000 0.000000 114.000000 5.000000 0.753790 -0.500885 -0.425341
-16.62999916 11.39999962 -0.99000001 135 167 104 97.000000 1.000000 4.000000 1.000000 0.000000 114.000000 5.000000 -0.254097 0.534694 0.805939
-16.64999962 11.38000011 -1.01999998 135 167 104 97.000000 1.000000 4.000000 1.000000 0.000000 114.000000 5.000000 -0.303083 0.601355 0.739265
-16.72999954 11.50000000 -1.04999995 135 167 104 97.000000 1.000000 4.000000 1.000000 0.000000 114.000000 5.000000 0.864377 0.074250 -0.497332
-16.70999908 11.47999954 -1.02999997 135 167 104 97.000000 1.000000 4.000000 1.000000 0.000000 114.000000 5.000000 0.769924 0.061651 -0.635151
-16.71999931 11.48999977 -1.03999996 135 167 104 97.000000 1.000000 4.000000 1.000000 0.000000 114.000000 5.000000 0.681642 0.073808 -0.727953
-16.67000008 11.42000008 -1.01999998 135 167 104 97.000000 1.000000 4.000000 1.000000 0.000000 114.000000 5.000000 0.836569 -0.220952 -0.501332
-16.67000008 11.42000008 -1.02999997 135 167 104 97.000000 1.000000 4.000000 1.000000 0.000000 114.000000 5.000000 0.806839 -0.131759 -0.575891
-16.67000008 11.43999958 -1.01999998 135 167 104 97.000000 1.000000 4.000000 1.000000 0.000000 114.000000 5.000000 0.773167 0.020896 -0.633858
-16.70000076 11.39000034 -1.02999997 135 167 104 97.000000 1.000000 4.000000 1.000000 0.000000 114.000000 5.000000 0.717557 -0.410740 -0.562499
-16.70000076 11.39000034 -1.02999997 135 167 104 97.000000 1.000000 4.000000 1.000000 0.000000 114.000000 5.000000 0.717557 -0.410740 -0.562499
-16.72999954 11.43000031 -1.04999995 135 167 104 97.000000 1.000000 4.000000 1.000000 0.000000 114.000000 5.000000 -0.365307 0.497269 0.786940
-16.71999931 11.43999958 -1.04999995 135 167 104 97.000000 1.000000 4.000000 1.000000 0.000000 114.000000 5.000000 -0.615769 0.300650 0.728312
-16.71999931 11.42000008 -1.03999996 135 167 104 97.000000 1.000000 4.000000 1.000000 0.000000 114.000000 5.000000 -0.308134 0.458290 0.833681
-16.71999931 11.42000008 -1.01999998 135 167 104 97.000000 1.000000 4.000000 1.000000 0.000000 114.000000 5.000000 -0.417562 0.663774 0.620521
-16.71999931 11.43999958 -1.02999997 135 167 104 97.000000 1.000000 4.000000 1.000000 0.000000 114.000000 5.000000 -0.604115 -0.073183 0.793529
-16.72999954 11.43000031 -1.03999996 135 167 104 97.000000 1.000000 4.000000 1.000000 0.000000 114.000000 5.000000 -0.279802 0.265453 0.922630
-16.72999954 11.51000023 -1.05999994 135 167 104 97.000000 1.000000 4.000000 1.000000 0.000000 114.000000 5.000000 0.783364 0.129322 -0.607962
-16.68000031 11.43999958 -1.09000003 135 167 104 97.000000 1.000000 4.000000 1.000000 0.000000 114.000000 5.000000 -0.572592 0.150997 0.805815
-16.67000008 11.44999981 -1.08000004 135 167 104 97.000000 1.000000 4.000000 1.000000 0.000000 114.000000 5.000000 -0.632013 0.403095 0.661872
-16.70999908 11.43999958 -1.10000002 135 167 104 97.000000 1.000000 4.000000 1.000000 0.000000 114.000000 5.000000 -0.356833 0.265033 0.895783
-16.73999977 11.39000034 -1.08000004 135 167 104 97.000000 1.000000 4.000000 1.000000 0.000000 114.000000 5.000000 -0.428370 0.611718 0.665056
-16.62000084 11.35000038 -0.99000001 135 167 104 97.000000 1.000000 4.000000 1.000000 0.000000 114.000000 5.000000 0.381845 -0.571948 -0.725996
-16.61000061 11.23999977 -1.05999994 135 167 104 97.000000 1.000000 4.000000 1.000000 0.000000 114.000000 5.000000 -0.681465 0.671845 0.290224
-16.62000084 11.27999973 -1.07000005 135 167 104 97.000000 1.000000 4.000000 1.000000 0.000000 114.000000 5.000000 -0.334969 0.912101 0.236363
-16.72999954 11.35000038 -1.11000001 135 167 104 97.000000 1.000000 4.000000 1.000000 0.000000 114.000000 5.000000 -0.476483 0.556732 0.680451
-16.67000008 11.23999977 -1.09000003 135 167 104 97.000000 1.000000 4.000000 1.000000 0.000000 114.000000 5.000000 -0.302861 0.945940 0.116074
-16.68000031 11.19999981 -1.13000000 135 167 104 97.000000 1.000000 4.000000 1.000000 0.000000 114.000000 5.000000 -0.390146 0.752542 0.530534
-16.79999924 11.50000000 -1.09000003 135 167 104 97.000000 1.000000 4.000000 1.000000 0.000000 114.000000 5.000000 0.710201 0.321936 -0.626077
-16.79000092 11.47999954 -1.07000005 135 167 104 97.000000 1.000000 4.000000 1.000000 0.000000 114.000000 5.000000 -0.476256 -0.079609 0.875696
-16.78000069 11.38000011 -1.07000005 135 167 104 97.000000 1.000000 4.000000 1.000000 0.000000 114.000000 5.000000 0.656822 -0.559391 -0.505635
-16.79999924 11.39000034 -1.13999999 135 167 104 97.000000 1.000000 4.000000 1.000000 0.000000 114.000000 5.000000 0.406789 -0.655843 -0.635919
-16.84000015 11.43000031 -1.07000005 135 167 104 97.000000 1.000000 4.000000 1.000000 0.000000 114.000000 5.000000 -0.234158 0.410149 0.881447
-16.86000061 11.44999981 -1.13000000 135 167 104 97.000000 1.000000 4.000000 1.000000 0.000000 114.000000 5.000000 0.800879 -0.237011 -0.549926
-16.86000061 11.43999958 -1.13000000 135 167 104 97.000000 1.000000 4.000000 1.000000 0.000000 114.000000 5.000000 0.867479 -0.074275 -0.491898
-16.84000015 11.39999962 -1.13000000 135 167 104 97.000000 1.000000 4.000000 1.000000 0.000000 114.000000 5.000000 -0.426013 0.785614 0.448691
-16.78000069 11.34000015 -1.04999995 135 167 104 97.000000 1.000000 4.000000 1.000000 0.000000 114.000000 5.000000 -0.488385 0.813974 0.314526
-16.89999962 11.23999977 -0.99000001 135 167 104 97.000000 1.000000 4.000000 1.000000 0.000000 114.000000 52.000000 -0.276991 0.954372 -0.111584
-16.88999939 11.23999977 -1.00999999 135 167 104 97.000000 1.000000 4.000000 1.000000 0.000000 114.000000 52.000000 -0.100611 0.966626 -0.235607
-16.89999962 11.23999977 -1.00999999 135 167 104 97.000000 1.000000 4.000000 1.000000 0.000000 114.000000 52.000000 -0.207344 0.978150 0.015229
-16.88999939 11.23999977 -1.00000000 135 167 104 97.000000 1.000000 4.000000 1.000000 0.000000 114.000000 52.000000 -0.126596 0.935177 -0.330783
-16.88999939 11.26000023 -0.97000003 135 167 104 97.000000 1.000000 4.000000 1.000000 0.000000 114.000000 52.000000 0.456052 0.885605 -0.087863
-16.90999985 11.23999977 -1.00000000 135 167 104 97.000000 1.000000 4.000000 1.000000 0.000000 114.000000 52.000000 -0.256613 0.928628 -0.267955
-16.89999962 11.22999954 -1.03999996 135 167 104 97.000000 1.000000 4.000000 1.000000 0.000000 114.000000 52.000000 -0.137220 0.968233 0.209036
-16.87999916 11.22999954 -1.04999995 135 167 104 97.000000 1.000000 4.000000 1.000000 0.000000 114.000000 52.000000 -0.391281 0.895403 -0.212493
-16.78000069 11.30000019 -1.12000000 135 167 104 97.000000 1.000000 4.000000 1.000000 0.000000 114.000000 5.000000 -0.308867 0.915001 0.259565
-16.79000092 11.35000038 -1.08000004 135 167 104 97.000000 1.000000 4.000000 1.000000 0.000000 114.000000 5.000000 -0.615639 0.504318 0.605519
-16.80999947 11.19999981 -1.09000003 135 167 104 97.000000 1.000000 4.000000 1.000000 0.000000 114.000000 52.000000 -0.178182 0.981797 0.065772
-16.86000061 11.35000038 -1.12000000 135 167 104 97.000000 1.000000 4.000000 1.000000 0.000000 114.000000 5.000000 -0.169493 0.817465 0.550476
-16.87000084 11.26000023 -1.09000003 135 167 104 97.000000 1.000000 4.000000 1.000000 0.000000 114.000000 52.000000 -0.515901 0.840012 0.168002
-16.88999939 11.23999977 -1.08000004 135 167 104 97.000000 1.000000 4.000000 1.000000 0.000000 114.000000 52.000000 -0.035987 0.995632 -0.086150
-16.90999985 11.25000000 -1.13000000 135 167 104 97.000000 1.000000 4.000000 1.000000 0.000000 114.000000 52.000000 -0.286209 0.954462 -0.084179
-16.90999985 11.25000000 -1.11000001 135 167 104 97.000000 1.000000 4.000000 1.000000 0.000000 114.000000 52.000000 -0.313847 0.949104 -0.026469
-16.87999916 11.25000000 -1.13999999 135 167 104 97.000000 1.000000 4.000000 1.000000 0.000000 114.000000 52.000000 -0.093784 0.986514 0.134147
-16.88999939 11.19999981 -1.05999994 135 167 104 97.000000 1.000000 4.000000 1.000000 0.000000 114.000000 52.000000 -0.345854 0.926443 0.148620
-16.94000053 11.21000004 -1.03999996 135 167 104 97.000000 1.000000 4.000000 1.000000 0.000000 114.000000 52.000000 -0.215888 0.908468 -0.357881
-16.92000008 11.25000000 -1.00000000 135 167 104 97.000000 1.000000 4.000000 1.000000 0.000000 114.000000 52.000000 -0.027063 0.931736 -0.362127
-16.92000008 11.25000000 -1.11000001 135 167 104 97.000000 1.000000 4.000000 1.000000 0.000000 114.000000 52.000000 -0.029265 0.996081 -0.083458
-16.94000053 11.21000004 -1.05999994 135 167 104 97.000000 1.000000 4.000000 1.000000 0.000000 114.000000 52.000000 0.349809 0.929649 0.115696
-16.92000008 11.21000004 -1.10000002 135 167 104 97.000000 1.000000 4.000000 1.000000 0.000000 114.000000 52.000000 -0.082242 0.996516 -0.013885
-16.92000008 11.21000004 -1.10000002 135 167 104 97.000000 1.000000 4.000000 1.000000 0.000000 114.000000 52.000000 -0.082242 0.996516 -0.013885
-16.94000053 11.25000000 -1.12000000 135 167 104 97.000000 1.000000 4.000000 1.000000 0.000000 114.000000 52.000000 -0.036394 0.982631 -0.181969
-16.60000038 11.06000042 -1.08000004 135 167 104 97.000000 1.000000 4.000000 1.000000 0.000000 114.000000 5.000000 -0.476554 0.877136 -0.059397
-16.62000084 11.06000042 -1.08000004 135 167 104 97.000000 1.000000 4.000000 1.000000 0.000000 114.000000 5.000000 -0.097920 0.987455 0.123874
-16.69000053 11.18000031 -1.11000001 135 167 104 97.000000 1.000000 4.000000 1.000000 0.000000 114.000000 5.000000 0.675388 -0.585336 -0.448591
-16.65999985 11.18999958 -1.11000001 135 167 104 97.000000 1.000000 4.000000 1.000000 0.000000 114.000000 5.000000 0.730255 -0.566153 -0.382358
-16.67000008 11.18999958 -1.12000000 135 167 104 97.000000 1.000000 4.000000 1.000000 0.000000 114.000000 5.000000 -0.292457 0.792005 0.535908
-16.67000008 11.14000034 -1.11000001 135 167 104 97.000000 1.000000 4.000000 1.000000 0.000000 114.000000 5.000000 -0.548623 0.823673 0.143440
-16.68000031 11.10000038 -1.09000003 135 167 104 97.000000 1.000000 4.000000 1.000000 0.000000 114.000000 5.000000 -0.350962 0.936320 -0.011403
-16.69000053 11.10000038 -1.10000002 135 167 104 97.000000 1.000000 4.000000 1.000000 0.000000 114.000000 5.000000 -0.523539 0.851606 -0.025972
-16.77000046 11.06000042 -1.05999994 135 167 104 97.000000 1.000000 4.000000 1.000000 0.000000 114.000000 5.000000 -0.519402 0.808133 0.277747
-16.77000046 11.06000042 -1.12000000 135 167 104 97.000000 1.000000 4.000000 1.000000 0.000000 114.000000 5.000000 -0.273457 0.842001 0.465032
-16.77000046 11.06999969 -1.10000002 135 167 104 97.000000 1.000000 4.000000 1.000000 0.000000 114.000000 5.000000 -0.407932 0.912990 -0.006475
-17.25000000 11.18000031 -0.99000001 135 167 104 97.000000 1.000000 4.000000 1.000000 0.000000 114.000000 131.000000 0.603619 0.735610 -0.307443
-17.22999954 11.14999962 -1.02999997 135 167 104 97.000000 1.000000 4.000000 1.000000 0.000000 114.000000 131.000000 0.142736 0.758752 -0.635549
-17.22999954 11.14999962 -1.01999998 135 167 104 97.000000 1.000000 4.000000 1.000000 0.000000 114.000000 131.000000 0.224903 0.777079 -0.587850
-17.25000000 11.15999985 -1.08000004 135 167 104 97.000000 1.000000 4.000000 1.000000 0.000000 114.000000 131.000000 0.574816 0.792480 -0.203868
-17.05999947 10.85000038 -1.04999995 135 167 104 97.000000 1.000000 4.000000 1.000000 0.000000 114.000000 40.000000 -0.167155 0.922867 -0.346953
-17.05999947 10.72000027 -1.04999995 135 167 104 97.000000 1.000000 4.000000 1.000000 0.000000 114.000000 40.000000 0.317755 0.942630 -0.102373
-17.07999992 10.72999954 -1.04999995 135 167 104 97.000000 1.000000 4.000000 1.000000 0.000000 114.000000 40.000000 -0.065894 0.856617 -0.511727
-17.04000092 10.81000042 -1.05999994 135 167 104 97.000000 1.000000 4.000000 1.000000 0.000000 114.000000 40.000000 -0.207681 0.973740 0.093270
-17.05999947 10.80000019 -1.05999994 135 167 104 97.000000 1.000000 4.000000 1.000000 0.000000 114.000000 40.000000 -0.094911 0.977459 0.188589
-17.02000046 10.72999954 -1.05999994 135 167 104 97.000000 1.000000 4.000000 1.000000 0.000000 114.000000 40.000000 -0.152550 0.935917 -0.317470
-17.04000092 10.76000023 -1.08000004 135 167 104 97.000000 1.000000 4.000000 1.000000 0.000000 114.000000 40.000000 0.016972 0.987767 0.155010
-17.04999924 10.76000023 -1.07000005 135 167 104 97.000000 1.000000 4.000000 1.000000 0.000000 114.000000 40.000000 -0.074454 0.977671 -0.196511
-17.06999969 10.72999954 -1.08000004 135 167 104 97.000000 1.000000 4.000000 1.000000 0.000000 114.000000 40.000000 0.124962 0.956285 0.264392
-17.05999947 10.72999954 -1.07000005 135 167 104 97.000000 1.000000 4.000000 1.000000 0.000000 114.000000 40.000000 0.118554 0.985554 -0.120949
-17.04999924 10.76000023 -1.10000002 135 167 104 97.000000 1.000000 4.000000 1.000000 0.000000 114.000000 40.000000 0.268988 0.942146 0.200016
-17.07999992 10.67000008 -1.07000005 135 167 104 97.000000 1.000000 4.000000 1.000000 0.000000 114.000000 40.000000 0.164908 0.874160 -0.456781
-17.14999962 10.77999973 -1.04999995 135 167 104 97.000000 1.000000 4.000000 1.000000 0.000000 114.000000 40.000000 0.098526 0.995002 0.016241
-17.13999939 10.77999973 -1.01999998 135 167 104 97.000000 1.000000 4.000000 1.000000 0.000000 114.000000 40.000000 0.150532 0.968809 -0.196850
-17.17000008 10.77000046 -1.03999996 135 167 104 97.000000 1.000000 4.000000 1.000000 0.000000 114.000000 40.000000 -0.166077 0.912716 -0.373319
-17.12999916 10.68000031 -1.01999998 135 167 104 97.000000 1.000000 4.000000 1.000000 0.000000 114.000000 40.000000 0.238314 0.949169 -0.205631
-17.12999916 10.69999981 -1.01999998 135 167 104 97.000000 1.000000 4.000000 1.000000 0.000000 114.000000 40.000000 0.033674 0.887638 -0.459309
-17.25000000 10.78999996 -0.95999998 135 167 104 97.000000 1.000000 4.000000 1.000000 0.000000 114.000000 77.000000 0.523166 0.690312 -0.499766
-17.20999908 10.81000042 -0.97000003 135 167 104 97.000000 1.000000 4.000000 1.000000 0.000000 114.000000 77.000000 0.275533 0.931160 -0.238795
-17.22999954 10.81000042 -1.03999996 135 167 104 97.000000 1.000000 4.000000 1.000000 0.000000 114.000000 77.000000 -0.162998 0.892881 -0.419755
-17.25000000 10.82999992 -1.02999997 135 167 104 97.000000 1.000000 4.000000 1.000000 0.000000 114.000000 77.000000 0.407666 0.897442 -0.168540
-17.09000015 10.81000042 -1.07000005 135 167 104 97.000000 1.000000 4.000000 1.000000 0.000000 114.000000 40.000000 0.370756 0.863045 -0.343064
-17.10000038 10.77999973 -1.07000005 135 167 104 97.000000 1.000000 4.000000 1.000000 0.000000 114.000000 40.000000 0.066771 0.963764 -0.258264
-17.12999916 10.77999973 -1.05999994 135 167 104 97.000000 1.000000 4.000000 1.000000 0.000000 114.000000 40.000000 -0.103049 0.993920 -0.038782
-17.22999954 10.81000042 -1.05999994 135 167 104 97.000000 1.000000 4.000000 1.000000 0.000000 114.000000 77.000000 -0.076009 0.992651 0.094160
-17.25000000 10.77999973 -1.09000003 135 167 104 97.000000 1.000000 4.000000 1.000000 0.000000 114.000000 77.000000 0.355928 0.892054 -0.278488
-17.29000092 11.31999969 -1.01999998 135 167 104 97.000000 1.000000 4.000000 1.000000 0.000000 114.000000 131.000000 0.767452 0.408982 -0.493711
-17.28000069 11.27999973 -1.00999999 135 167 104 97.000000 1.000000 4.000000 1.000000 0.000000 114.000000 131.000000 0.464392 0.591806 -0.658867
-17.27000046 11.19999981 -0.98000002 135 167 104 97.000000 1.000000 4.000000 1.000000 0.000000 114.000000 131.000000 0.204753 0.783605 -0.586549
-17.28000069 11.22999954 -1.02999997 135 167 104 97.000000 1.000000 4.000000 1.000000 0.000000 114.000000 131.000000 0.712996 0.540148 -0.447076
-17.30999947 11.22999954 -1.05999994 135 167 104 97.000000 1.000000 4.000000 1.000000 0.000000 114.000000 131.000000 0.343470 0.616944 -0.708102
-17.32999992 11.02999973 -0.88000000 135 167 104 97.000000 1.000000 4.000000 1.000000 0.000000 114.000000 101.000000 -0.256279 -0.514112 0.818541
-17.29000092 10.98999977 -0.87000000 135 167 104 97.000000 1.000000 4.000000 1.000000 0.000000 114.000000 101.000000 -0.149430 -0.677717 0.719980
-17.32999992 10.89999962 -0.80000001 135 167 104 97.000000 1.000000 4.000000 1.000000 0.000000 114.000000 101.000000 0.315342 0.882656 -0.348536
-17.34000015 10.90999985 -0.80000001 135 167 104 97.000000 1.000000 4.000000 1.000000 0.000000 114.000000 101.000000 0.325653 0.802219 -0.500394
-17.35000038 11.00000000 -0.85000002 135 167 104 97.000000 1.000000 4.000000 1.000000 0.000000 114.000000 101.000000 0.701444 0.568783 -0.429490
-17.37000084 11.01000023 -0.86000001 135 167 104 97.000000 1.000000 4.000000 1.000000 0.000000 114.000000 101.000000 -0.470142 -0.506690 0.722656
-17.40999985 10.90999985 -0.82999998 135 167 104 97.000000 1.000000 4.000000 1.000000 0.000000 114.000000 101.000000 0.606043 0.632904 -0.481813
-17.51000023 11.14999962 -0.61000001 135 167 104 97.000000 1.000000 4.000000 1.000000 0.000000 114.000000 141.000000 -0.214321 -0.454121 0.864778
-17.51000023 11.02000046 -0.66000003 135 167 104 97.000000 1.000000 4.000000 1.000000 0.000000 114.000000 141.000000 0.561030 0.671562 -0.483993
-17.27000046 11.18999958 -0.99000001 135 167 104 97.000000 1.000000 4.000000 1.000000 0.000000 114.000000 131.000000 0.409215 0.744475 -0.527542
-17.29999924 11.15999985 -1.03999996 135 167 104 97.000000 1.000000 4.000000 1.000000 0.000000 114.000000 131.000000 0.417618 0.623931 -0.660535
-17.29999924 11.17000008 -1.03999996 135 167 104 97.000000 1.000000 4.000000 1.000000 0.000000 114.000000 131.000000 0.383499 0.860947 -0.334214
-17.32999992 11.17000008 -1.04999995 135 167 104 97.000000 1.000000 4.000000 1.000000 0.000000 114.000000 131.000000 0.597346 0.486290 -0.637730
-17.28000069 11.11999989 -1.08000004 135 167 104 97.000000 1.000000 4.000000 1.000000 0.000000 114.000000 131.000000 0.034262 0.862026 -0.505704
-17.31999969 11.15999985 -1.09000003 135 167 104 97.000000 1.000000 4.000000 1.000000 0.000000 114.000000 131.000000 0.423270 0.886085 -0.188934
-17.36000061 10.97000027 -0.89999998 135 167 104 97.000000 1.000000 4.000000 1.000000 0.000000 114.000000 101.000000 0.548903 0.825562 -0.130971
-17.28000069 10.80000019 -0.92000002 135 167 104 97.000000 1.000000 4.000000 1.000000 0.000000 114.000000 77.000000 -0.082948 -0.726160 0.682503
-17.26000023 10.78999996 -0.95999998 135 167 104 97.000000 1.000000 4.000000 1.000000 0.000000 114.000000 77.000000 0.282974 0.946405 -0.155703
-17.26000023 10.80000019 -0.95999998 135 167 104 97.000000 1.000000 4.000000 1.000000 0.000000 114.000000 77.000000 0.103071 0.916649 -0.386174
-17.29000092 10.81000042 -1.00999999 135 167 104 97.000000 1.000000 4.000000 1.000000 0.000000 114.000000 77.000000 0.496238 0.769576 -0.401872
-17.29999924 10.82999992 -0.99000001 135 167 104 97.000000 1.000000 4.000000 1.000000 0.000000 114.000000 77.000000 -0.101429 0.929089 -0.355677
-17.29999924 10.81999969 -1.00999999 135 167 104 97.000000 1.000000 4.000000 1.000000 0.000000 114.000000 77.000000 0.288215 0.956973 -0.033687
-17.28000069 10.84000015 -0.98000002 135 167 104 97.000000 1.000000 4.000000 1.000000 0.000000 114.000000 77.000000 0.218340 0.781997 -0.583788
-17.26000023 10.80000019 -1.00000000 135 167 104 97.000000 1.000000 4.000000 1.000000 0.000000 114.000000 77.000000 0.428733 0.903354 -0.011800
-17.29000092 10.80000019 -1.04999995 135 167 104 97.000000 1.000000 4.000000 1.000000 0.000000 114.000000 77.000000 -0.023712 0.788078 -0.615119
-17.30999947 10.81999969 -0.99000001 135 167 104 97.000000 1.000000 4.000000 1.000000 0.000000 114.000000 77.000000 0.038248 0.995532 -0.086330
-17.34000015 10.82999992 -1.04999995 135 167 104 97.000000 1.000000 4.000000 1.000000 0.000000 114.000000 77.000000 0.292989 0.872894 -0.390146
-17.34000015 10.80000019 -1.00000000 135 167 104 97.000000 1.000000 4.000000 1.000000 0.000000 114.000000 77.000000 -0.093520 0.827295 -0.553928
-17.26000023 10.73999977 -0.95999998 135 167 104 97.000000 1.000000 4.000000 1.000000 0.000000 114.000000 77.000000 -0.011768 0.908775 -0.417121
-17.30999947 10.72999954 -1.00999999 135 167 104 97.000000 1.000000 4.000000 1.000000 0.000000 114.000000 77.000000 0.435516 0.831725 -0.344325
-17.30999947 10.73999977 -0.99000001 135 167 104 97.000000 1.000000 4.000000 1.000000 0.000000 114.000000 77.000000 0.345638 0.864862 -0.364072
-17.31999969 10.73999977 -0.99000001 135 167 104 97.000000 1.000000 4.000000 1.000000 0.000000 114.000000 77.000000 0.528176 0.770459 -0.356963
-17.27000046 10.77000046 -1.11000001 135 167 104 97.000000 1.000000 4.000000 1.000000 0.000000 114.000000 77.000000 0.069735 0.901092 -0.427984
-17.31999969 10.80000019 -1.08000004 135 167 104 97.000000 1.000000 4.000000 1.000000 0.000000 114.000000 77.000000 0.120280 0.990882 0.060713
-17.30999947 10.80000019 -1.08000004 135 167 104 97.000000 1.000000 4.000000 1.000000 0.000000 114.000000 77.000000 0.092641 0.965746 -0.242388
-17.28000069 10.77999973 -1.11000001 135 167 104 97.000000 1.000000 4.000000 1.000000 0.000000 114.000000 77.000000 0.135896 0.945888 -0.294665
-17.28000069 10.77999973 -1.10000002 135 167 104 97.000000 1.000000 4.000000 1.000000 0.000000 114.000000 77.000000 0.425646 0.899819 0.095666
-17.26000023 10.80000019 -1.05999994 135 167 104 97.000000 1.000000 4.000000 1.000000 0.000000 114.000000 77.000000 0.405611 0.891760 -0.200609
-17.29999924 10.78999996 -1.10000002 135 167 104 97.000000 1.000000 4.000000 1.000000 0.000000 114.000000 77.000000 0.482858 0.743238 -0.463082
-17.28000069 10.77000046 -1.10000002 135 167 104 97.000000 1.000000 4.000000 1.000000 0.000000 114.000000 77.000000 0.240467 0.970326 -0.025376
-17.34000015 10.75000000 -1.07000005 135 167 104 97.000000 1.000000 4.000000 1.000000 0.000000 114.000000 77.000000 0.379457 0.824010 -0.420737
-16.54000092 11.56999969 -0.87000000 135 167 104 97.000000 1.000000 4.000000 1.000000 0.000000 114.000000 5.000000 -0.450417 -0.503213 0.737496
-16.47999954 11.48999977 -0.81999999 135 167 104 97.000000 1.000000 4.000000 1.000000 0.000000 114.000000 5.000000 -0.462553 -0.025474 0.886225
-16.52000046 11.50000000 -0.81000000 135 167 104 97.000000 1.000000 4.000000 1.000000 0.000000 114.000000 5.000000 0.696587 -0.038305 -0.716449
-16.52000046 11.51000023 -0.80000001 135 167 104 97.000000 1.000000 4.000000 1.000000 0.000000 114.000000 5.000000 0.351705 0.499454 -0.791738
-16.51000023 11.48999977 -0.81000000 135 167 104 97.000000 1.000000 4.000000 1.000000 0.000000 114.000000 5.000000 0.589188 0.541918 -0.599318
-16.54000092 11.52000046 -0.81999999 135 167 104 97.000000 1.000000 4.000000 1.000000 0.000000 114.000000 5.000000 -0.452966 -0.376138 0.808296
-16.54999924 11.52000046 -0.81999999 135 167 104 97.000000 1.000000 4.000000 1.000000 0.000000 114.000000 5.000000 -0.530617 -0.405766 0.744178
-16.55999947 11.48999977 -0.81999999 135 167 104 97.000000 1.000000 4.000000 1.000000 0.000000 114.000000 5.000000 0.750045 0.009705 -0.661315
-16.43000031 11.32999992 -0.88000000 135 167 104 97.000000 1.000000 4.000000 1.000000 0.000000 114.000000 5.000000 -0.657803 0.563591 0.499661
-16.13999939 11.72000027 -0.92000002 135 167 104 97.000000 1.000000 4.000000 1.000000 0.000000 114.000000 5.000000 0.590381 0.597147 -0.543015
-16.15999985 11.72999954 -0.92000002 135 167 104 97.000000 1.000000 4.000000 1.000000 0.000000 114.000000 5.000000 -0.408615 -0.520204 0.749948
-16.21999931 11.72000027 -0.94999999 135 167 104 97.000000 1.000000 4.000000 1.000000 0.000000 114.000000 5.000000 -0.524051 -0.434781 0.732349
-16.17000008 11.71000004 -0.94999999 135 167 104 97.000000 1.000000 4.000000 1.000000 0.000000 114.000000 5.000000 -0.448446 -0.561808 0.695175
-16.20999908 11.68000031 -0.99000001 135 167 104 97.000000 1.000000 4.000000 1.000000 0.000000 114.000000 5.000000 0.642092 0.438624 -0.628750
-16.18000031 11.67000008 -0.98000002 135 167 104 97.000000 1.000000 4.000000 1.000000 0.000000 114.000000 5.000000 0.492126 0.745595 -0.449332
-16.20000076 11.63000011 -1.02999997 135 167 104 97.000000 1.000000 4.000000 1.000000 0.000000 114.000000 5.000000 -0.252085 -0.361175 0.897778
-16.20000076 11.64000034 -1.00999999 135 167 104 97.000000 1.000000 4.000000 1.000000 0.000000 114.000000 5.000000 0.416700 0.662404 -0.622560
-16.21999931 11.68999958 -0.98000002 135 167 104 97.000000 1.000000 4.000000 1.000000 0.000000 114.000000 5.000000 0.369226 0.687581 -0.625223
-16.21999931 11.42000008 -0.93000001 135 167 104 97.000000 1.000000 4.000000 1.000000 0.000000 114.000000 5.000000 -0.337648 0.219831 0.915242
-16.22999954 11.72999954 -0.95999998 135 167 104 97.000000 1.000000 4.000000 1.000000 0.000000 114.000000 5.000000 -0.474747 -0.448463 0.757295
-16.25000000 11.72999954 -0.98000002 135 167 104 97.000000 1.000000 4.000000 1.000000 0.000000 114.000000 5.000000 -0.438787 -0.384537 0.812156
-16.25000000 11.67000008 -1.00000000 135 167 104 97.000000 1.000000 4.000000 1.000000 0.000000 114.000000 5.000000 0.504260 0.622315 -0.598704
-16.28000069 11.71000004 -1.00999999 135 167 104 97.000000 1.000000 4.000000 1.000000 0.000000 114.000000 5.000000 0.545344 0.582489 -0.602749
-16.28000069 11.63000011 -1.00000000 135 167 104 97.000000 1.000000 4.000000 1.000000 0.000000 114.000000 5.000000 -0.428456 -0.412409 0.803956
-16.25000000 11.61999989 -1.01999998 135 167 104 97.000000 1.000000 4.000000 1.000000 0.000000 114.000000 5.000000 0.594021 0.503151 -0.627677
-16.30999947 11.56000042 -0.98000002 135 167 104 97.000000 1.000000 4.000000 1.000000 0.000000 114.000000 5.000000 -0.423881 -0.297487 0.855469
-16.38999939 11.68000031 -0.94000000 135 167 104 97.000000 1.000000 4.000000 1.000000 0.000000 114.000000 5.000000 0.277787 0.753992 -0.595257
-16.37000084 11.68999958 -1.01999998 135 167 104 97.000000 1.000000 4.000000 1.000000 0.000000 114.000000 5.000000 0.461200 0.642325 -0.612138
-16.38999939 11.60000038 -0.95999998 135 167 104 97.000000 1.000000 4.000000 1.000000 0.000000 114.000000 5.000000 -0.441923 -0.105220 0.890861
-16.34000015 11.56999969 -0.95999998 135 167 104 97.000000 1.000000 4.000000 1.000000 0.000000 114.000000 5.000000 0.526955 0.437752 -0.728486
-16.38999939 11.59000015 -0.97000003 135 167 104 97.000000 1.000000 4.000000 1.000000 0.000000 114.000000 5.000000 -0.644695 -0.107695 0.756816
-16.37000084 11.53999996 -0.99000001 135 167 104 97.000000 1.000000 4.000000 1.000000 0.000000 114.000000 5.000000 -0.557348 -0.057851 0.828261
-16.44000053 11.80000019 -0.97000003 135 167 104 97.000000 1.000000 4.000000 1.000000 0.000000 114.000000 5.000000 0.488841 0.774674 -0.401142
-16.40999985 11.73999977 -0.92000002 135 167 104 97.000000 1.000000 4.000000 1.000000 0.000000 114.000000 5.000000 -0.142883 -0.645228 0.750510
-16.45999908 11.73999977 -0.99000001 135 167 104 97.000000 1.000000 4.000000 1.000000 0.000000 114.000000 5.000000 0.536984 0.713208 -0.450535
-16.56999969 11.84000015 -0.99000001 135 167 104 97.000000 1.000000 4.000000 1.000000 0.000000 114.000000 5.000000 0.480324 0.744420 -0.463818
-16.50000000 11.82999992 -0.98000002 135 167 104 97.000000 1.000000 4.000000 1.000000 0.000000 114.000000 5.000000 -0.035381 -0.731679 0.680730
-16.55999947 11.73999977 -1.00999999 135 167 104 97.000000 1.000000 4.000000 1.000000 0.000000 114.000000 5.000000 0.047731 0.970530 -0.236207
-16.54000092 11.73999977 -0.98000002 135 167 104 97.000000 1.000000 4.000000 1.000000 0.000000 114.000000 5.000000 0.301587 0.682199 -0.666071
-16.39999962 11.68999958 -0.94000000 135 167 104 97.000000 1.000000 4.000000 1.000000 0.000000 114.000000 5.000000 0.722736 0.503423 -0.473517
-16.39999962 11.69999981 -0.93000001 135 167 104 97.000000 1.000000 4.000000 1.000000 0.000000 114.000000 5.000000 -0.448621 -0.371989 0.812627
-16.44000053 11.68000031 -0.93000001 135 167 104 97.000000 1.000000 4.000000 1.000000 0.000000 114.000000 5.000000 0.180243 0.807306 -0.561934
-16.39999962 11.65999985 -0.94000000 135 167 104 97.000000 1.000000 4.000000 1.000000 0.000000 114.000000 5.000000 -0.542866 -0.236634 0.805792
-16.46999931 11.69999981 -0.94000000 135 167 104 97.000000 1.000000 4.000000 1.000000 0.000000 114.000000 5.000000 -0.344653 -0.471714 0.811603
-16.46999931 11.67000008 -0.94999999 135 167 104 97.000000 1.000000 4.000000 1.000000 0.000000 114.000000 5.000000 0.333946 0.763075 -0.553350
-16.45999908 11.67000008 -0.97000003 135 167 104 97.000000 1.000000 4.000000 1.000000 0.000000 114.000000 5.000000 0.658081 0.714622 -0.237160
-16.46999931 11.71000004 -0.99000001 135 167 104 97.000000 1.000000 4.000000 1.000000 0.000000 114.000000 5.000000 0.164742 0.787434 -0.593976
-16.46999931 11.68999958 -0.97000003 135 167 104 97.000000 1.000000 4.000000 1.000000 0.000000 114.000000 5.000000 0.606351 0.748835 -0.267554
-16.45999908 11.68000031 -1.02999997 135 167 104 97.000000 1.000000 4.000000 1.000000 0.000000 114.000000 5.000000 0.158000 0.793010 -0.588363
-16.46999931 11.63000011 -1.00000000 135 167 104 97.000000 1.000000 4.000000 1.000000 0.000000 114.000000 5.000000 0.600067 0.328338 -0.729461
-16.47999954 11.64000034 -1.02999997 135 167 104 97.000000 1.000000 4.000000 1.000000 0.000000 114.000000 5.000000 0.555975 0.459138 -0.692881
-16.44000053 11.59000015 -1.00999999 135 167 104 97.000000 1.000000 4.000000 1.000000 0.000000 114.000000 5.000000 0.622456 0.565103 -0.541486
-16.42000008 11.57999992 -0.97000003 135 167 104 97.000000 1.000000 4.000000 1.000000 0.000000 114.000000 5.000000 0.642962 0.322291 -0.694787
-16.52000046 11.64999962 -0.94999999 135 167 104 97.000000 1.000000 4.000000 1.000000 0.000000 114.000000 5.000000 0.602446 0.678789 -0.419886
-16.56999969 11.67000008 -0.95999998 135 167 104 97.000000 1.000000 4.000000 1.000000 0.000000 114.000000 5.000000 -0.006376 0.929597 -0.368523
-16.54000092 11.68999958 -0.99000001 135 167 104 97.000000 1.000000 4.000000 1.000000 0.000000 114.000000 5.000000 -0.199218 -0.653249 0.730465
-16.54000092 11.71000004 -1.00999999 135 167 104 97.000000 1.000000 4.000000 1.000000 0.000000 114.000000 5.000000 0.232220 0.915900 -0.327416
-16.53000069 11.56999969 -0.94999999 135 167 104 97.000000 1.000000 4.000000 1.000000 0.000000 114.000000 5.000000 0.427743 0.590851 -0.684055
-16.54000092 11.53999996 -0.94999999 135 167 104 97.000000 1.000000 4.000000 1.000000 0.000000 114.000000 5.000000 -0.335198 -0.478174 0.811783
-16.50000000 11.60999966 -1.00999999 135 167 104 97.000000 1.000000 4.000000 1.000000 0.000000 114.000000 5.000000 0.652558 0.406811 -0.639275
-16.48999977 11.61999989 -1.00000000 135 167 104 97.000000 1.000000 4.000000 1.000000 0.000000 114.000000 5.000000 -0.324458 -0.443583 0.835441
-16.29000092 11.50000000 -0.94999999 135 167 104 97.000000 1.000000 4.000000 1.000000 0.000000 114.000000 5.000000 -0.681980 0.152727 0.715247
-16.30999947 11.47000027 -0.94000000 135 167 104 97.000000 1.000000 4.000000 1.000000 0.000000 114.000000 5.000000 0.748734 0.104440 -0.654591
-16.28000069 11.50000000 -0.94000000 135 167 104 97.000000 1.000000 4.000000 1.000000 0.000000 114.000000 5.000000 0.838305 -0.139473 -0.527060
-16.29000092 11.46000004 -1.03999996 135 167 104 97.000000 1.000000 4.000000 1.000000 0.000000 114.000000 5.000000 -0.627352 -0.265235 0.732175
-16.22999954 11.40999985 -0.93000001 135 167 104 97.000000 1.000000 4.000000 1.000000 0.000000 114.000000 5.000000 -0.598464 -0.001369 0.801148
-16.26000023 11.42000008 -0.95999998 135 167 104 97.000000 1.000000 4.000000 1.000000 0.000000 114.000000 5.000000 0.836034 -0.081182 -0.542639
-16.29000092 11.43999958 -0.97000003 135 167 104 97.000000 1.000000 4.000000 1.000000 0.000000 114.000000 5.000000 -0.336415 -0.001251 0.941713
-16.35000038 11.52000046 -0.88999999 135 167 104 97.000000 1.000000 4.000000 1.000000 0.000000 114.000000 5.000000 0.782539 0.073498 -0.618249
-16.32999992 11.52000046 -0.95999998 135 167 104 97.000000 1.000000 4.000000 1.000000 0.000000 114.000000 5.000000 0.669663 0.186274 -0.718925
-16.34000015 11.51000023 -0.98000002 135 167 104 97.000000 1.000000 4.000000 1.000000 0.000000 114.000000 5.000000 -0.591294 -0.314175 0.742742
-16.36000061 11.52000046 -1.00000000 135 167 104 97.000000 1.000000 4.000000 1.000000 0.000000 114.000000 5.000000 -0.407318 -0.505467 0.760654
-16.38999939 11.42000008 -0.95999998 135 167 104 97.000000 1.000000 4.000000 1.000000 0.000000 114.000000 5.000000 -0.466834 -0.172301 0.867398
-16.37999916 11.35000038 -1.03999996 135 167 104 97.000000 1.000000 4.000000 1.000000 0.000000 114.000000 5.000000 0.788535 0.049549 -0.612990
-16.38999939 11.35999966 -1.00999999 135 167 104 97.000000 1.000000 4.000000 1.000000 0.000000 114.000000 5.000000 -0.490129 0.289693 0.822102
-16.38999939 11.31000042 -1.07000005 135 167 104 97.000000 1.000000 4.000000 1.000000 0.000000 114.000000 5.000000 0.660160 -0.663436 -0.352195
-16.37999916 11.35000038 -1.07000005 135 167 104 97.000000 1.000000 4.000000 1.000000 0.000000 114.000000 5.000000 0.846548 -0.309106 -0.433370
-16.37999916 11.35000038 -1.07000005 135 167 104 97.000000 1.000000 4.000000 1.000000 0.000000 114.000000 5.000000 0.846548 -0.309106 -0.433370
-16.42000008 11.52999973 -0.94999999 135 167 104 97.000000 1.000000 4.000000 1.000000 0.000000 114.000000 5.000000 -0.477670 -0.371521 0.796117
-16.40999985 11.52999973 -1.02999997 135 167 104 97.000000 1.000000 4.000000 1.000000 0.000000 114.000000 5.000000 0.623593 0.539095 -0.566135
-16.54000092 11.52000046 -0.97000003 135 167 104 97.000000 1.000000 4.000000 1.000000 0.000000 114.000000 5.000000 -0.313526 -0.386937 0.867168
-16.56999969 11.52999973 -0.98000002 135 167 104 97.000000 1.000000 4.000000 1.000000 0.000000 114.000000 5.000000 0.830069 0.130754 -0.542116
-16.54999924 11.46000004 -1.00999999 135 167 104 97.000000 1.000000 4.000000 1.000000 0.000000 114.000000 5.000000 0.623387 0.226544 -0.748376
-16.54000092 11.48999977 -0.97000003 135 167 104 97.000000 1.000000 4.000000 1.000000 0.000000 114.000000 5.000000 -0.418909 -0.185371 0.888905
-16.54999924 11.46000004 -1.00999999 135 167 104 97.000000 1.000000 4.000000 1.000000 0.000000 114.000000 5.000000 0.623387 0.226544 -0.748376
-16.56999969 11.48999977 -1.02999997 135 167 104 97.000000 1.000000 4.000000 1.000000 0.000000 114.000000 5.000000 -0.434474 -0.380364 0.816429
-16.52000046 11.40999985 -0.95999998 135 167 104 97.000000 1.000000 4.000000 1.000000 0.000000 114.000000 5.000000 -0.549469 0.275522 0.788779
-16.54000092 11.40999985 -0.93000001 135 167 104 97.000000 1.000000 4.000000 1.000000 0.000000 114.000000 5.000000 0.428441 -0.661833 -0.615155
-16.52000046 11.40999985 -0.99000001 135 167 104 97.000000 1.000000 4.000000 1.000000 0.000000 114.000000 5.000000 -0.348483 0.192021 0.917435
-16.52000046 11.42000008 -0.99000001 135 167 104 97.000000 1.000000 4.000000 1.000000 0.000000 114.000000 5.000000 -0.507307 0.402910 0.761776
-16.51000023 11.43000031 -0.99000001 135 167 104 97.000000 1.000000 4.000000 1.000000 0.000000 114.000000 5.000000 -0.583301 0.331237 0.741648
-16.50000000 11.40999985 -1.01999998 135 167 104 97.000000 1.000000 4.000000 1.000000 0.000000 114.000000 5.000000 -0.434241 -0.101928 0.895011
-16.56999969 11.38000011 -1.00000000 135 167 104 97.000000 1.000000 4.000000 1.000000 0.000000 114.000000 5.000000 -0.652800 0.159035 0.740648
-16.40999985 11.42000008 -1.05999994 135 167 104 97.000000 1.000000 4.000000 1.000000 0.000000 114.000000 5.000000 0.576050 -0.324331 -0.750317
-16.40999985 11.42000008 -1.05999994 135 167 104 97.000000 1.000000 4.000000 1.000000 0.000000 114.000000 5.000000 0.576050 -0.324331 -0.750317
-16.42000008 11.50000000 -1.07000005 135 167 104 97.000000 1.000000 4.000000 1.000000 0.000000 114.000000 5.000000 0.693407 0.387056 -0.607761
