//X Y Z R G B PointSourceId ScanDirectionFlag NumberOfReturns ReturnNumber GpsTime Intensity Classification Nx Ny Nz
19.89999962 3.51999998 -0.83999997 205 232 37 116.000000 1.000000 4.000000 4.000000 0.000000 95.000000 200.000000 -0.465848 0.682909 -0.562691
19.86000061 3.53999996 -0.86000001 205 232 37 116.000000 1.000000 4.000000 4.000000 0.000000 95.000000 200.000000 0.854781 -0.511735 0.086470
19.88999939 3.51999998 -0.88000000 205 232 37 116.000000 1.000000 4.000000 4.000000 0.000000 95.000000 200.000000 0.908120 -0.347265 0.233932
19.98999977 3.45000005 -0.61000001 205 232 37 116.000000 1.000000 4.000000 4.000000 0.000000 95.000000 200.000000 0.915302 -0.402000 -0.024879
19.95000076 3.45000005 -0.55000001 205 232 37 116.000000 1.000000 4.000000 4.000000 0.000000 95.000000 200.000000 -0.554875 0.729405 -0.400103
19.97999954 3.45000005 -0.56999999 205 232 37 116.000000 1.000000 4.000000 4.000000 0.000000 95.000000 200.000000 0.705342 -0.468561 0.531925
19.97999954 3.46000004 -0.56000000 205 232 37 116.000000 1.000000 4.000000 4.000000 0.000000 95.000000 200.000000 0.787274 -0.614837 0.046643
19.96999931 3.45000005 -0.56000000 205 232 37 116.000000 1.000000 4.000000 4.000000 0.000000 95.000000 200.000000 -0.566713 0.683733 -0.459723
19.93000031 3.41000009 -0.87000000 205 232 37 116.000000 1.000000 4.000000 4.000000 0.000000 95.000000 200.000000 0.838651 -0.230667 0.493414
19.93000031 3.41000009 -0.88000000 205 232 37 116.000000 1.000000 4.000000 4.000000 0.000000 95.000000 200.000000 -0.640152 0.679446 -0.358551
20.12000084 3.52999997 -0.89999998 205 232 37 116.000000 1.000000 4.000000 4.000000 0.000000 95.000000 200.000000 -0.113954 0.966689 -0.229188
20.12000084 3.52999997 -0.93000001 205 232 37 116.000000 1.000000 4.000000 4.000000 0.000000 95.000000 200.000000 -0.070988 0.872739 -0.482999
20.03000069 3.55999994 -0.94999999 205 232 37 116.000000 1.000000 4.000000 4.000000 0.000000 95.000000 200.000000 0.732125 -0.592518 0.336031
20.06999969 3.58999991 -0.93000001 205 232 37 116.000000 1.000000 4.000000 4.000000 0.000000 95.000000 200.000000 -0.177688 0.962146 -0.206644
20.11000061 3.52999997 -0.89999998 205 232 37 116.000000 1.000000 4.000000 4.000000 0.000000 95.000000 200.000000 -0.447597 0.837491 -0.313474
20.10000038 3.52999997 -0.88999999 205 232 37 116.000000 1.000000 4.000000 4.000000 0.000000 95.000000 200.000000 -0.431354 0.897384 0.092928
20.10000038 3.50000000 -0.93000001 205 232 37 116.000000 1.000000 4.000000 4.000000 0.000000 95.000000 200.000000 -0.407232 0.717190 -0.565509
20.04000092 3.53999996 -0.93000001 205 232 37 116.000000 1.000000 4.000000 4.000000 0.000000 95.000000 200.000000 -0.412142 0.693523 -0.590902
20.04000092 3.50999999 -0.94999999 205 232 37 116.000000 1.000000 4.000000 4.000000 0.000000 95.000000 200.000000 0.879418 -0.460376 0.121152
20.03000069 3.48000002 -0.88999999 205 232 37 116.000000 1.000000 4.000000 4.000000 0.000000 95.000000 200.000000 0.859609 -0.510937 -0.004023
20.03000069 3.50000000 -0.99000001 205 232 37 116.000000 1.000000 4.000000 4.000000 0.000000 95.000000 200.000000 -0.409738 0.788705 -0.458323
20.04000092 3.50000000 -1.00000000 205 232 37 116.000000 1.000000 4.000000 4.000000 0.000000 95.000000 200.000000 -0.482683 0.845076 -0.229922
20.13999939 3.45000005 -0.94999999 205 232 37 116.000000 1.000000 4.000000 4.000000 0.000000 95.000000 200.000000 -0.140905 0.895242 -0.422714
20.01000023 3.54999995 -0.92000002 205 232 37 116.000000 1.000000 4.000000 4.000000 0.000000 95.000000 200.000000 -0.554265 0.832085 -0.020630
20.02000046 3.58999991 -0.92000002 205 232 37 116.000000 1.000000 4.000000 4.000000 0.000000 95.000000 200.000000 -0.198397 0.825391 -0.528553
20.02000046 3.54999995 -0.94000000 205 232 37 116.000000 1.000000 4.000000 4.000000 0.000000 95.000000 200.000000 -0.526161 0.715380 -0.459768
19.96999931 3.55999994 -0.93000001 205 232 37 116.000000 1.000000 4.000000 4.000000 0.000000 95.000000 200.000000 -0.532659 0.843494 0.069231
19.97999954 3.58999991 -0.95999998 205 232 37 116.000000 1.000000 4.000000 4.000000 0.000000 95.000000 200.000000 -0.338135 0.940953 0.016464
19.98999977 3.56999993 -0.99000001 205 232 37 116.000000 1.000000 4.000000 4.000000 0.000000 95.000000 200.000000 -0.412846 0.893776 -0.175279
19.98999977 3.55999994 -0.97000003 205 232 37 116.000000 1.000000 4.000000 4.000000 0.000000 95.000000 200.000000 -0.793984 0.489223 -0.360902
20.00000000 3.50000000 -0.94999999 205 232 37 116.000000 1.000000 4.000000 4.000000 0.000000 95.000000 200.000000 -0.549418 0.773670 -0.315555
19.97999954 3.49000001 -0.89999998 205 232 37 116.000000 1.000000 4.000000 4.000000 0.000000 95.000000 200.000000 -0.514347 0.786743 -0.341296
19.96999931 3.50000000 -0.88999999 205 232 37 116.000000 1.000000 4.000000 4.000000 0.000000 95.000000 200.000000 -0.602198 0.797807 -0.029341
19.95000076 3.50000000 -0.94999999 205 232 37 116.000000 1.000000 4.000000 4.000000 0.000000 95.000000 200.000000 -0.573861 0.753896 -0.319883
20.00000000 3.50000000 -1.00999999 205 232 37 116.000000 1.000000 4.000000 4.000000 0.000000 95.000000 200.000000 0.908000 -0.378929 0.178740
19.98999977 3.50000000 -1.00000000 205 232 37 116.000000 1.000000 4.000000 4.000000 0.000000 95.000000 200.000000 0.828209 -0.378474 0.413313
20.00000000 3.50000000 -1.00999999 205 232 37 116.000000 1.000000 4.000000 4.000000 0.000000 95.000000 200.000000 0.908000 -0.378929 0.178740
19.95999908 3.50999999 -0.99000001 205 232 37 116.000000 1.000000 4.000000 4.000000 0.000000 95.000000 200.000000 -0.726382 0.665213 -0.172802
19.95999908 3.50999999 -1.04999995 205 232 37 116.000000 1.000000 4.000000 4.000000 0.000000 95.000000 200.000000 0.641685 -0.743247 0.189274
19.95000076 3.50000000 -1.04999995 205 232 37 116.000000 1.000000 4.000000 4.000000 0.000000 95.000000 200.000000 0.940437 -0.259001 0.220220
19.95000076 3.50000000 -1.04999995 205 232 37 116.000000 1.000000 4.000000 4.000000 0.000000 95.000000 200.000000 0.940437 -0.259001 0.220220
19.92000008 3.56999993 -0.89999998 205 232 37 116.000000 1.000000 4.000000 4.000000 0.000000 95.000000 200.000000 -0.547984 0.835222 0.046014
19.90999985 3.58999991 -0.95999998 205 232 37 116.000000 1.000000 4.000000 4.000000 0.000000 95.000000 200.000000 0.768085 -0.624350 -0.142238
19.87000084 3.54999995 -0.88999999 205 232 37 116.000000 1.000000 4.000000 4.000000 0.000000 95.000000 200.000000 -0.667844 0.742208 0.055773
19.88999939 3.54999995 -0.92000002 205 232 37 116.000000 1.000000 4.000000 4.000000 0.000000 95.000000 200.000000 0.840381 -0.465847 0.277032
19.87999916 3.54999995 -0.89999998 205 232 37 116.000000 1.000000 4.000000 4.000000 0.000000 95.000000 200.000000 -0.448607 0.774867 -0.445345
19.93000031 3.54999995 -1.00000000 205 232 37 116.000000 1.000000 4.000000 4.000000 0.000000 95.000000 200.000000 -0.511352 0.794906 -0.326564
19.92000008 3.48000002 -0.95999998 205 232 37 116.000000 1.000000 4.000000 4.000000 0.000000 95.000000 200.000000 0.948707 -0.313696 -0.039371
19.92000008 3.49000001 -0.94000000 205 232 37 116.000000 1.000000 4.000000 4.000000 0.000000 95.000000 200.000000 0.835539 -0.517524 0.184509
19.86000061 3.53999996 -0.89999998 205 232 37 116.000000 1.000000 4.000000 4.000000 0.000000 95.000000 200.000000 0.825795 -0.504738 0.251597
19.87000084 3.52999997 -0.91000003 205 232 37 116.000000 1.000000 4.000000 4.000000 0.000000 95.000000 200.000000 0.712799 -0.523384 0.466891
19.87000084 3.51999998 -0.91000003 205 232 37 116.000000 1.000000 4.000000 4.000000 0.000000 95.000000 200.000000 0.823852 -0.563837 -0.057938
19.86000061 3.52999997 -0.89999998 205 232 37 116.000000 1.000000 4.000000 4.000000 0.000000 95.000000 200.000000 0.759507 -0.434707 0.483919
19.89999962 3.50999999 -0.88999999 205 232 37 116.000000 1.000000 4.000000 4.000000 0.000000 95.000000 200.000000 0.651457 -0.499955 0.570656
19.87999916 3.53999996 -0.92000002 205 232 37 116.000000 1.000000 4.000000 4.000000 0.000000 95.000000 200.000000 0.757855 -0.564771 0.326634
19.89999962 3.50999999 -0.91000003 205 232 37 116.000000 1.000000 4.000000 4.000000 0.000000 95.000000 200.000000 0.876712 -0.479813 0.033981
19.87000084 3.50999999 -0.93000001 205 232 37 116.000000 1.000000 4.000000 4.000000 0.000000 95.000000 200.000000 0.950267 -0.276660 0.143008
19.89999962 3.50000000 -0.89999998 205 232 37 116.000000 1.000000 4.000000 4.000000 0.000000 95.000000 200.000000 0.811690 -0.324359 0.485748
19.89999962 3.47000003 -0.94000000 205 232 37 116.000000 1.000000 4.000000 4.000000 0.000000 95.000000 200.000000 0.775770 -0.276496 0.567213
19.93000031 3.49000001 -0.97000003 205 232 37 116.000000 1.000000 4.000000 4.000000 0.000000 95.000000 200.000000 0.668505 -0.709210 0.223879
19.87999916 3.51999998 -0.98000002 205 232 37 116.000000 1.000000 4.000000 4.000000 0.000000 95.000000 200.000000 0.487638 -0.782489 0.387194
19.96999931 3.50000000 -1.09000003 205 232 37 116.000000 1.000000 4.000000 4.000000 0.000000 95.000000 200.000000 -0.659675 0.691776 -0.293724
19.94000053 3.53999996 -1.07000005 205 232 37 116.000000 1.000000 4.000000 4.000000 0.000000 95.000000 200.000000 -0.685763 0.727663 0.015363
19.94000053 3.53999996 -1.07000005 205 232 37 116.000000 1.000000 4.000000 4.000000 0.000000 95.000000 200.000000 -0.685763 0.727663 0.015363
19.90999985 3.51999998 -1.09000003 205 232 37 116.000000 1.000000 4.000000 4.000000 0.000000 95.000000 200.000000 -0.720500 0.684993 0.108001
19.90999985 3.50999999 -1.12000000 205 232 37 116.000000 1.000000 4.000000 4.000000 0.000000 95.000000 200.000000 0.799943 -0.599610 0.023650
19.92000008 3.51999998 -1.12000000 205 232 37 116.000000 1.000000 4.000000 4.000000 0.000000 95.000000 200.000000 -0.637467 0.768669 -0.052766
19.87999916 3.52999997 -1.05999994 205 232 37 116.000000 1.000000 4.000000 4.000000 0.000000 95.000000 200.000000 -0.512257 0.757748 -0.404241
19.89999962 3.50999999 -1.12000000 205 232 37 116.000000 1.000000 4.000000 4.000000 0.000000 95.000000 200.000000 0.857575 -0.512336 0.045572
19.87999916 3.53999996 -1.13999999 205 232 37 116.000000 1.000000 4.000000 4.000000 0.000000 95.000000 200.000000 0.778423 -0.549194 0.304046
19.89999962 3.51999998 -1.11000001 205 232 37 116.000000 1.000000 4.000000 4.000000 0.000000 95.000000 200.000000 0.765866 -0.574798 0.288195
20.02000046 3.39000010 -0.88999999 205 232 37 116.000000 1.000000 4.000000 4.000000 0.000000 95.000000 200.000000 0.877893 -0.189695 0.439682
19.95999908 3.46000004 -0.88999999 205 232 37 116.000000 1.000000 4.000000 4.000000 0.000000 95.000000 200.000000 0.893323 -0.308711 0.326607
19.95999908 3.45000005 -0.89999998 205 232 37 116.000000 1.000000 4.000000 4.000000 0.000000 95.000000 200.000000 0.623643 -0.542518 0.562800
19.95000076 3.45000005 -0.89999998 205 232 37 116.000000 1.000000 4.000000 4.000000 0.000000 95.000000 200.000000 0.776646 -0.594451 0.208444
19.95999908 3.45000005 -0.89999998 205 232 37 116.000000 1.000000 4.000000 4.000000 0.000000 95.000000 200.000000 0.623643 -0.542518 0.562800
19.95000076 3.42000008 -0.91000003 205 232 37 116.000000 1.000000 4.000000 4.000000 0.000000 95.000000 200.000000 -0.672725 0.704088 -0.227378
19.94000053 3.44000006 -0.89999998 205 232 37 116.000000 1.000000 4.000000 4.000000 0.000000 95.000000 200.000000 -0.671607 0.739762 -0.041177
19.87999916 3.45000005 -0.91000003 205 232 37 116.000000 1.000000 4.000000 4.000000 0.000000 95.000000 200.000000 -0.738003 0.480445 -0.473841
19.86000061 3.45000005 -0.91000003 205 232 37 116.000000 1.000000 4.000000 4.000000 0.000000 95.000000 200.000000 0.984068 -0.172417 0.043397
19.87000084 3.46000004 -0.91000003 205 232 37 116.000000 1.000000 4.000000 4.000000 0.000000 95.000000 200.000000 0.868681 -0.323266 0.375356
19.87999916 3.46000004 -0.95999998 205 232 37 116.000000 1.000000 4.000000 4.000000 0.000000 95.000000 200.000000 0.820368 -0.571352 0.023518
19.87000084 3.44000006 -0.93000001 205 232 37 116.000000 1.000000 4.000000 4.000000 0.000000 95.000000 200.000000 0.858004 -0.141301 0.493826
19.87999916 3.45000005 -1.00999999 205 232 37 116.000000 1.000000 4.000000 4.000000 0.000000 95.000000 200.000000 -0.711203 0.690241 -0.133257
19.87999916 3.46000004 -1.04999995 205 232 37 116.000000 1.000000 4.000000 4.000000 0.000000 95.000000 200.000000 0.824110 -0.417612 0.382679
19.81999969 3.50000000 -0.20999999 205 232 37 116.000000 1.000000 4.000000 4.000000 0.000000 95.000000 200.000000 0.950171 -0.252748 0.182465
19.82999992 3.47000003 -0.31999999 205 232 37 116.000000 1.000000 4.000000 4.000000 0.000000 95.000000 200.000000 0.908078 -0.387958 0.157741
19.84000015 3.49000001 -0.33000001 205 232 37 116.000000 1.000000 4.000000 4.000000 0.000000 95.000000 200.000000 0.966256 -0.195845 0.167312
19.73999977 3.48000002 -0.20999999 205 232 37 116.000000 1.000000 4.000000 4.000000 0.000000 95.000000 200.000000 0.971687 -0.112166 0.207949
19.79999924 3.47000003 -0.37000000 205 232 37 116.000000 1.000000 4.000000 4.000000 0.000000 95.000000 200.000000 0.835173 -0.543933 -0.081376
19.81999969 3.50000000 -0.52999997 205 232 37 116.000000 1.000000 4.000000 4.000000 0.000000 95.000000 200.000000 0.942299 -0.326332 -0.074702
19.79999924 3.50999999 -0.46000001 205 232 37 116.000000 1.000000 4.000000 4.000000 0.000000 95.000000 200.000000 0.659689 -0.685495 0.308070
19.78000069 3.47000003 -0.47999999 205 232 37 116.000000 1.000000 4.000000 4.000000 0.000000 95.000000 200.000000 0.978058 -0.195612 -0.071684
19.78000069 3.50000000 -0.52999997 205 232 37 116.000000 1.000000 4.000000 4.000000 0.000000 95.000000 200.000000 0.892536 -0.438562 -0.105087
19.78000069 3.47000003 -0.50000000 205 232 37 116.000000 1.000000 4.000000 4.000000 0.000000 95.000000 200.000000 0.946656 -0.322186 0.006220
19.85000038 3.42000008 -0.22000000 205 232 37 116.000000 1.000000 4.000000 4.000000 0.000000 95.000000 200.000000 0.912337 -0.109370 0.394562
19.85000038 3.44000006 -0.23000000 205 232 37 116.000000 1.000000 4.000000 4.000000 0.000000 95.000000 200.000000 0.987667 -0.125960 0.092998
19.82999992 3.46000004 -0.25000000 205 232 37 116.000000 1.000000 4.000000 4.000000 0.000000 95.000000 200.000000 0.989321 -0.032940 0.141981
19.82999992 3.41000009 -0.20000000 205 232 37 116.000000 1.000000 4.000000 4.000000 0.000000 95.000000 200.000000 0.900275 -0.134264 0.414098
19.85000038 3.40000010 -0.25000000 205 232 37 116.000000 1.000000 4.000000 4.000000 0.000000 95.000000 200.000000 0.880263 0.124121 0.457965
19.82999992 3.40000010 -0.28000000 205 232 37 116.000000 1.000000 4.000000 4.000000 0.000000 95.000000 200.000000 0.966505 -0.239410 0.092470
19.79999924 3.45000005 -0.20999999 205 232 37 116.000000 1.000000 4.000000 4.000000 0.000000 95.000000 200.000000 0.930924 0.078801 0.356609
19.79999924 3.39000010 -0.23000000 205 232 37 116.000000 1.000000 4.000000 4.000000 0.000000 95.000000 200.000000 0.965557 0.125045 0.228176
19.79999924 3.41000009 -0.22000000 205 232 37 116.000000 1.000000 4.000000 4.000000 0.000000 95.000000 200.000000 0.924818 -0.243673 0.292123
19.80999947 3.41000009 -0.23999999 205 232 37 116.000000 1.000000 4.000000 4.000000 0.000000 95.000000 200.000000 0.869938 -0.405364 0.280870
19.81999969 3.43000007 -0.33000001 205 232 37 116.000000 1.000000 4.000000 4.000000 0.000000 95.000000 200.000000 0.939273 -0.186199 0.288264
19.81999969 3.41000009 -0.34999999 205 232 37 116.000000 1.000000 4.000000 4.000000 0.000000 95.000000 200.000000 0.872705 -0.031217 0.487249
19.81999969 3.40000010 -0.33000001 205 232 37 116.000000 1.000000 4.000000 4.000000 0.000000 95.000000 200.000000 0.842064 -0.017742 0.539085
19.81999969 3.41000009 -0.36000001 205 232 37 116.000000 1.000000 4.000000 4.000000 0.000000 95.000000 200.000000 0.974783 -0.218632 0.044693
19.80999947 3.42000008 -0.31000000 205 232 37 116.000000 1.000000 4.000000 4.000000 0.000000 95.000000 200.000000 0.937313 0.178076 0.299554
19.84000015 3.36999989 -0.23999999 205 232 37 116.000000 1.000000 4.000000 4.000000 0.000000 95.000000 200.000000 0.786895 0.272811 0.553507
19.85000038 3.33999991 -0.36000001 205 232 37 116.000000 1.000000 4.000000 4.000000 0.000000 95.000000 200.000000 0.887295 -0.123511 0.444357
19.77000046 3.46000004 -0.20999999 205 232 37 116.000000 1.000000 4.000000 4.000000 0.000000 95.000000 200.000000 0.915987 -0.068800 0.395264
19.76000023 3.45000005 -0.20000000 205 232 37 116.000000 1.000000 4.000000 4.000000 0.000000 95.000000 200.000000 0.958934 0.189665 0.210886
19.73999977 3.46000004 -0.20000000 205 232 37 116.000000 1.000000 4.000000 4.000000 0.000000 95.000000 200.000000 0.850998 -0.515191 0.101890
19.73999977 3.43000007 -0.20999999 205 232 37 116.000000 1.000000 4.000000 4.000000 0.000000 95.000000 200.000000 0.787280 -0.091680 0.609742
19.72999954 3.39000010 -0.20000000 205 232 37 116.000000 1.000000 4.000000 4.000000 0.000000 95.000000 200.000000 0.925139 0.027325 0.378643
19.72999954 3.40000010 -0.20999999 205 232 37 116.000000 1.000000 4.000000 4.000000 0.000000 95.000000 200.000000 0.927987 0.171643 0.330726
19.70999908 3.39000010 -0.25999999 205 232 37 116.000000 1.000000 4.000000 4.000000 0.000000 95.000000 200.000000 0.862302 0.408943 0.298666
19.73999977 3.36999989 -0.23999999 205 232 37 116.000000 1.000000 4.000000 4.000000 0.000000 95.000000 200.000000 0.974143 0.103526 0.200816
19.79999924 3.43000007 -0.38000000 205 232 37 116.000000 1.000000 4.000000 4.000000 0.000000 95.000000 200.000000 0.956436 0.001222 0.291939
19.79000092 3.46000004 -0.38000000 205 232 37 116.000000 1.000000 4.000000 4.000000 0.000000 95.000000 200.000000 0.943667 -0.187638 0.272554
19.64999962 3.32999992 -0.28999999 205 232 37 116.000000 1.000000 4.000000 4.000000 0.000000 95.000000 200.000000 0.932734 0.152930 0.326526
19.67000008 3.34999990 -0.33000001 205 232 37 116.000000 1.000000 4.000000 4.000000 0.000000 95.000000 200.000000 0.957029 -0.227610 0.179692
19.82999992 3.52999997 -0.62000000 205 232 37 116.000000 1.000000 4.000000 4.000000 0.000000 95.000000 200.000000 0.553169 -0.709319 0.436887
19.81999969 3.50000000 -0.54000002 205 232 37 116.000000 1.000000 4.000000 4.000000 0.000000 95.000000 200.000000 0.702846 -0.696825 0.142977
19.79999924 3.53999996 -0.56000000 205 232 37 116.000000 1.000000 4.000000 4.000000 0.000000 95.000000 200.000000 -0.488243 0.776972 -0.397407
19.79999924 3.50999999 -0.58999997 205 232 37 116.000000 1.000000 4.000000 4.000000 0.000000 95.000000 200.000000 0.643220 -0.659755 0.388577
19.79000092 3.48000002 -0.60000002 205 232 37 116.000000 1.000000 4.000000 4.000000 0.000000 95.000000 200.000000 0.918054 -0.396403 -0.006456
19.80999947 3.50000000 -0.62000000 205 232 37 116.000000 1.000000 4.000000 4.000000 0.000000 95.000000 200.000000 0.922537 -0.384934 -0.027402
19.77000046 3.52999997 -0.55000001 205 232 37 116.000000 1.000000 4.000000 4.000000 0.000000 95.000000 200.000000 -0.640588 0.745048 -0.185878
19.77000046 3.47000003 -0.56999999 205 232 37 116.000000 1.000000 4.000000 4.000000 0.000000 95.000000 200.000000 0.873281 -0.484237 0.053804
19.77000046 3.47000003 -0.56999999 205 232 37 116.000000 1.000000 4.000000 4.000000 0.000000 95.000000 200.000000 0.873281 -0.484237 0.053804
19.76000023 3.50000000 -0.55000001 205 232 37 116.000000 1.000000 4.000000 4.000000 0.000000 95.000000 200.000000 0.939280 -0.329081 -0.097259
19.84000015 3.54999995 -0.79000002 205 232 37 116.000000 1.000000 4.000000 4.000000 0.000000 95.000000 200.000000 0.828292 -0.381680 0.410187
19.85000038 3.58999991 -0.85000002 205 232 37 116.000000 1.000000 4.000000 4.000000 0.000000 95.000000 200.000000 0.661482 -0.658199 0.359465
19.84000015 3.50000000 -0.88000000 205 232 37 116.000000 1.000000 4.000000 4.000000 0.000000 95.000000 200.000000 0.737156 -0.630276 0.243623
19.82999992 3.45000005 -0.54000002 205 232 37 116.000000 1.000000 4.000000 4.000000 0.000000 95.000000 200.000000 0.998522 -0.045054 0.030385
19.79000092 3.46000004 -0.58999997 205 232 37 116.000000 1.000000 4.000000 4.000000 0.000000 95.000000 200.000000 0.949528 -0.284458 -0.132213
19.79000092 3.46000004 -0.57999998 205 232 37 116.000000 1.000000 4.000000 4.000000 0.000000 95.000000 200.000000 0.865732 -0.497276 -0.056792
19.84000015 3.54999995 -1.01999998 205 232 37 116.000000 1.000000 4.000000 4.000000 0.000000 95.000000 200.000000 0.717410 -0.651187 0.247546
19.84000015 3.50999999 -0.92000002 205 232 37 116.000000 1.000000 4.000000 4.000000 0.000000 95.000000 200.000000 0.785254 -0.603468 0.138574
19.85000038 3.51999998 -0.93000001 205 232 37 116.000000 1.000000 4.000000 4.000000 0.000000 95.000000 200.000000 0.854397 -0.432587 0.287878
19.81999969 3.53999996 -1.00999999 205 232 37 116.000000 1.000000 4.000000 4.000000 0.000000 95.000000 200.000000 0.726930 -0.465301 0.505042
19.81999969 3.50999999 -1.00999999 205 232 37 116.000000 1.000000 4.000000 4.000000 0.000000 95.000000 200.000000 0.632633 -0.609140 0.478251
19.81999969 3.50999999 -1.00999999 205 232 37 116.000000 1.000000 4.000000 4.000000 0.000000 95.000000 200.000000 0.632633 -0.609140 0.478251
19.84000015 3.52999997 -1.02999997 205 232 37 116.000000 1.000000 4.000000 4.000000 0.000000 95.000000 200.000000 0.950610 -0.157314 0.267569
19.84000015 3.52999997 -1.02999997 205 232 37 116.000000 1.000000 4.000000 4.000000 0.000000 95.000000 200.000000 0.950610 -0.157314 0.267569
19.84000015 3.52999997 -1.01999998 205 232 37 116.000000 1.000000 4.000000 4.000000 0.000000 95.000000 200.000000 0.895860 -0.274849 0.349133
19.82999992 3.50999999 -1.02999997 205 232 37 116.000000 1.000000 4.000000 4.000000 0.000000 95.000000 200.000000 -0.580705 0.787109 -0.207945
19.79999924 3.51999998 -1.03999996 205 232 37 116.000000 1.000000 4.000000 4.000000 0.000000 95.000000 200.000000 -0.682071 0.691522 -0.237858
19.79999924 3.47000003 -0.99000001 205 232 37 116.000000 1.000000 4.000000 4.000000 0.000000 95.000000 200.000000 0.978330 -0.195181 -0.069101
19.80999947 3.50000000 -1.00000000 205 232 37 116.000000 1.000000 4.000000 4.000000 0.000000 95.000000 200.000000 0.720345 -0.691817 0.049925
19.79999924 3.47000003 -0.99000001 205 232 37 116.000000 1.000000 4.000000 4.000000 0.000000 95.000000 200.000000 0.978330 -0.195181 -0.069101
19.85000038 3.47000003 -1.05999994 205 232 37 116.000000 1.000000 4.000000 4.000000 0.000000 95.000000 200.000000 0.937114 -0.117646 0.328598
19.79000092 3.50999999 -1.11000001 205 232 37 116.000000 1.000000 4.000000 4.000000 0.000000 95.000000 200.000000 -0.668966 0.700596 -0.248293
19.79000092 3.50999999 -1.11000001 205 232 37 116.000000 1.000000 4.000000 4.000000 0.000000 95.000000 200.000000 -0.668966 0.700596 -0.248293
19.79000092 3.50999999 -1.11000001 205 232 37 116.000000 1.000000 4.000000 4.000000 0.000000 95.000000 200.000000 -0.668966 0.700596 -0.248293
19.78000069 3.50000000 -1.11000001 205 232 37 116.000000 1.000000 4.000000 4.000000 0.000000 95.000000 200.000000 0.800496 -0.578220 0.157696
19.78000069 3.50000000 -1.11000001 205 232 37 116.000000 1.000000 4.000000 4.000000 0.000000 95.000000 200.000000 0.800496 -0.578220 0.157696
19.79999924 3.48000002 -1.14999998 205 232 37 116.000000 1.000000 4.000000 4.000000 0.000000 95.000000 200.000000 0.911630 -0.275677 0.304849
19.76000023 3.48000002 -1.07000005 205 232 37 116.000000 1.000000 4.000000 4.000000 0.000000 95.000000 200.000000 0.764524 -0.228890 0.602588
19.73999977 3.47000003 -1.10000002 205 232 37 116.000000 1.000000 4.000000 4.000000 0.000000 95.000000 200.000000 0.882306 -0.469022 -0.039425
19.75000000 3.47000003 -1.11000001 205 232 37 116.000000 1.000000 4.000000 4.000000 0.000000 95.000000 200.000000 0.766955 -0.158837 0.621733
19.70999908 3.48000002 -1.16999996 205 232 37 116.000000 1.000000 4.000000 4.000000 0.000000 95.000000 200.000000 0.935644 -0.187685 0.298906
19.71999931 3.47000003 -1.17999995 205 232 37 116.000000 1.000000 4.000000 4.000000 0.000000 95.000000 200.000000 0.758233 -0.630595 0.165626
19.71999931 3.47000003 -1.15999997 205 232 37 116.000000 1.000000 4.000000 4.000000 0.000000 95.000000 200.000000 0.942318 -0.242152 0.231082
19.71999931 3.47000003 -1.17999995 205 232 37 116.000000 1.000000 4.000000 4.000000 0.000000 95.000000 200.000000 0.758233 -0.630595 0.165626
19.81999969 3.46000004 -0.94999999 205 232 37 116.000000 1.000000 4.000000 4.000000 0.000000 95.000000 200.000000 0.832469 -0.327657 0.446806
19.84000015 3.45000005 -0.99000001 205 232 37 116.000000 1.000000 4.000000 4.000000 0.000000 95.000000 200.000000 0.696896 -0.333016 0.635166
19.84000015 3.45000005 -0.99000001 205 232 37 116.000000 1.000000 4.000000 4.000000 0.000000 95.000000 200.000000 0.696896 -0.333016 0.635166
19.82999992 3.43000007 -1.01999998 205 232 37 116.000000 1.000000 4.000000 4.000000 0.000000 95.000000 200.000000 0.958828 -0.200809 0.200809
19.79000092 3.42000008 -1.03999996 205 232 37 116.000000 1.000000 4.000000 4.000000 0.000000 95.000000 200.000000 0.860291 -0.198299 0.469656
19.80999947 3.44000006 -1.02999997 205 232 37 116.000000 1.000000 4.000000 4.000000 0.000000 95.000000 200.000000 -0.677398 0.600837 -0.424414
19.80999947 3.44000006 -1.03999996 205 232 37 116.000000 1.000000 4.000000 4.000000 0.000000 95.000000 200.000000 0.714841 -0.627704 0.308204
19.79000092 3.46000004 -1.02999997 205 232 37 116.000000 1.000000 4.000000 4.000000 0.000000 95.000000 200.000000 0.785433 -0.393526 0.477737
19.81999969 3.46000004 -1.09000003 205 232 37 116.000000 1.000000 4.000000 4.000000 0.000000 95.000000 200.000000 0.945149 0.050151 0.322765
19.81999969 3.44000006 -1.09000003 205 232 37 116.000000 1.000000 4.000000 4.000000 0.000000 95.000000 200.000000 0.889320 -0.216799 0.402627
19.81999969 3.46000004 -1.09000003 205 232 37 116.000000 1.000000 4.000000 4.000000 0.000000 95.000000 200.000000 0.945149 0.050151 0.322765
19.78000069 3.44000006 -1.08000004 205 232 37 116.000000 1.000000 4.000000 4.000000 0.000000 95.000000 200.000000 0.886762 -0.197873 0.417731
19.79000092 3.45000005 -1.12000000 205 232 37 116.000000 1.000000 4.000000 4.000000 0.000000 95.000000 200.000000 0.965941 -0.119300 0.229619
19.78000069 3.43000007 -1.11000001 205 232 37 116.000000 1.000000 4.000000 4.000000 0.000000 95.000000 200.000000 0.948945 -0.282408 -0.140535
19.79999924 3.41000009 -1.13000000 205 232 37 116.000000 1.000000 4.000000 4.000000 0.000000 95.000000 200.000000 0.995061 -0.093253 -0.034010
19.77000046 3.46000004 -1.05999994 205 232 37 116.000000 1.000000 4.000000 4.000000 0.000000 95.000000 200.000000 0.667648 -0.519655 0.533109
19.73999977 3.44000006 -1.08000004 205 232 37 116.000000 1.000000 4.000000 4.000000 0.000000 95.000000 200.000000 0.901460 -0.354408 0.248526
19.76000023 3.43000007 -1.12000000 205 232 37 116.000000 1.000000 4.000000 4.000000 0.000000 95.000000 200.000000 0.964296 -0.240111 0.111709
19.72999954 3.46000004 -1.13999999 205 232 37 116.000000 1.000000 4.000000 4.000000 0.000000 95.000000 200.000000 0.888918 0.081819 0.450700
19.72999954 3.39000010 -1.13000000 205 232 37 116.000000 1.000000 4.000000 4.000000 0.000000 95.000000 200.000000 0.935357 -0.328124 0.132066
19.76000023 3.39000010 -1.12000000 205 232 37 116.000000 1.000000 4.000000 4.000000 0.000000 95.000000 200.000000 0.932549 0.144209 0.330993
19.72999954 3.41000009 -1.13999999 205 232 37 116.000000 1.000000 4.000000 4.000000 0.000000 95.000000 200.000000 0.920777 -0.271493 0.280111
19.72999954 3.39000010 -1.13999999 205 232 37 116.000000 1.000000 4.000000 4.000000 0.000000 95.000000 200.000000 0.908886 -0.055206 0.413375
19.72999954 3.40000010 -1.12000000 205 232 37 116.000000 1.000000 4.000000 4.000000 0.000000 95.000000 200.000000 0.926777 -0.358973 0.110558
19.76000023 3.39000010 -1.12000000 205 232 37 116.000000 1.000000 4.000000 4.000000 0.000000 95.000000 200.000000 0.932549 0.144209 0.330993
19.72999954 3.41000009 -1.10000002 205 232 37 116.000000 1.000000 4.000000 4.000000 0.000000 95.000000 200.000000 0.968566 -0.226632 -0.102554
19.71999931 3.38000011 -1.13000000 205 232 37 116.000000 1.000000 4.000000 4.000000 0.000000 95.000000 200.000000 0.843066 -0.367570 0.392597
19.76000023 3.43000007 -1.14999998 205 232 37 116.000000 1.000000 4.000000 4.000000 0.000000 95.000000 200.000000 0.948432 -0.098658 0.301236
19.73999977 3.38000011 -1.14999998 205 232 37 116.000000 1.000000 4.000000 4.000000 0.000000 95.000000 200.000000 0.957194 -0.116221 0.265089
19.72999954 3.41000009 -1.14999998 205 232 37 116.000000 1.000000 4.000000 4.000000 0.000000 95.000000 200.000000 0.882560 -0.351515 0.312290
19.75000000 3.41000009 -1.15999997 205 232 37 116.000000 1.000000 4.000000 4.000000 0.000000 95.000000 200.000000 0.818162 -0.063808 0.571437
19.72999954 3.41000009 -1.17999995 205 232 37 116.000000 1.000000 4.000000 4.000000 0.000000 95.000000 200.000000 0.984239 -0.040961 0.172037
19.72999954 3.41000009 -1.17999995 205 232 37 116.000000 1.000000 4.000000 4.000000 0.000000 95.000000 200.000000 0.984239 -0.040961 0.172037
19.72999954 3.40000010 -1.19000006 205 232 37 116.000000 1.000000 4.000000 4.000000 0.000000 95.000000 200.000000 0.956342 -0.274542 -0.100188
19.72999954 3.40000010 -1.20000005 205 232 37 116.000000 1.000000 4.000000 4.000000 0.000000 95.000000 200.000000 0.965762 -0.221078 0.135750
19.70999908 3.43000007 -1.15999997 205 232 37 116.000000 1.000000 4.000000 4.000000 0.000000 95.000000 200.000000 0.919544 0.060057 0.388371
19.71999931 3.46000004 -1.15999997 205 232 37 116.000000 1.000000 4.000000 4.000000 0.000000 95.000000 200.000000 0.959799 -0.170308 0.223117
19.70000076 3.43000007 -1.14999998 205 232 37 116.000000 1.000000 4.000000 4.000000 0.000000 95.000000 200.000000 0.976420 0.110702 0.185333
19.70000076 3.45000005 -1.14999998 205 232 37 116.000000 1.000000 4.000000 4.000000 0.000000 95.000000 200.000000 0.960519 -0.262892 0.091051
19.70999908 3.39000010 -1.17999995 205 232 37 116.000000 1.000000 4.000000 4.000000 0.000000 95.000000 200.000000 -0.755286 0.320473 -0.571699
19.70999908 3.38000011 -1.17999995 205 232 37 116.000000 1.000000 4.000000 4.000000 0.000000 95.000000 200.000000 0.825025 -0.378466 0.419639
19.70999908 3.39000010 -1.16999996 205 232 37 116.000000 1.000000 4.000000 4.000000 0.000000 95.000000 200.000000 0.963775 -0.264638 -0.033234
19.69000053 3.40000010 -1.19000006 205 232 37 116.000000 1.000000 4.000000 4.000000 0.000000 95.000000 200.000000 0.791728 -0.313824 0.524101
19.69000053 3.34999990 -1.17999995 205 232 37 116.000000 1.000000 4.000000 4.000000 0.000000 95.000000 200.000000 0.869967 -0.356243 0.340953
19.68000031 3.45000005 -1.13000000 205 232 37 116.000000 1.000000 4.000000 4.000000 0.000000 95.000000 200.000000 0.970837 -0.208850 0.117716
19.67000008 3.44000006 -1.13000000 205 232 37 116.000000 1.000000 4.000000 4.000000 0.000000 95.000000 200.000000 0.905999 -0.418466 0.063650
19.67000008 3.43000007 -1.15999997 205 232 37 116.000000 1.000000 4.000000 4.000000 0.000000 95.000000 200.000000 0.968711 0.091958 0.230526
19.67000008 3.42000008 -1.16999996 205 232 37 116.000000 1.000000 4.000000 4.000000 0.000000 95.000000 200.000000 0.808941 -0.571454 0.138039
19.67000008 3.43000007 -1.15999997 205 232 37 116.000000 1.000000 4.000000 4.000000 0.000000 95.000000 200.000000 0.968711 0.091958 0.230526
19.68000031 3.44000006 -1.16999996 205 232 37 116.000000 1.000000 4.000000 4.000000 0.000000 95.000000 200.000000 0.721082 -0.459172 0.518847
19.64999962 3.39000010 -1.17999995 205 232 37 116.000000 1.000000 4.000000 4.000000 0.000000 95.000000 200.000000 0.925116 -0.374040 0.065224
19.67000008 3.39000010 -1.16999996 205 232 37 116.000000 1.000000 4.000000 4.000000 0.000000 95.000000 200.000000 0.806776 -0.290943 0.514261
19.68000031 3.41000009 -1.16999996 205 232 37 116.000000 1.000000 4.000000 4.000000 0.000000 95.000000 200.000000 0.822215 -0.020659 0.568802
19.62999916 3.42000008 -1.21000004 205 232 37 116.000000 1.000000 4.000000 4.000000 0.000000 95.000000 200.000000 0.944274 0.024082 0.328278
19.63999939 3.43000007 -1.19000006 205 232 37 116.000000 1.000000 4.000000 4.000000 0.000000 95.000000 200.000000 0.856562 -0.501226 0.122779
19.65999985 3.36999989 -1.17999995 205 232 37 116.000000 1.000000 4.000000 4.000000 0.000000 95.000000 200.000000 0.988302 0.083238 0.127788
19.64999962 3.35999990 -1.16999996 205 232 37 116.000000 1.000000 4.000000 4.000000 0.000000 95.000000 200.000000 0.844798 0.096098 0.526385
19.64999962 3.35999990 -1.16999996 205 232 37 116.000000 1.000000 4.000000 4.000000 0.000000 95.000000 200.000000 0.844798 0.096098 0.526385
19.65999985 3.35999990 -1.17999995 205 232 37 116.000000 1.000000 4.000000 4.000000 0.000000 95.000000 200.000000 0.958496 -0.232001 0.165715
19.65999985 3.35999990 -1.19000006 205 232 37 116.000000 1.000000 4.000000 4.000000 0.000000 95.000000 200.000000 0.959449 0.226298 0.168069
19.65999985 3.36999989 -1.20000005 205 232 37 116.000000 1.000000 4.000000 4.000000 0.000000 95.000000 200.000000 0.768130 -0.322326 0.553246
19.65999985 3.34999990 -1.19000006 205 232 37 116.000000 1.000000 4.000000 4.000000 0.000000 95.000000 200.000000 0.900577 -0.030686 0.433611
19.65999985 3.35999990 -1.19000006 205 232 37 116.000000 1.000000 4.000000 4.000000 0.000000 95.000000 200.000000 0.959449 0.226298 0.168069
19.65999985 3.36999989 -1.19000006 205 232 37 116.000000 1.000000 4.000000 4.000000 0.000000 95.000000 200.000000 0.808035 -0.230205 0.542295
19.65999985 3.34999990 -1.20000005 205 232 37 116.000000 1.000000 4.000000 4.000000 0.000000 95.000000 200.000000 0.839317 -0.233908 0.490748
19.69000053 3.34999990 -1.24000001 205 232 37 116.000000 1.000000 4.000000 4.000000 0.000000 95.000000 200.000000 0.949562 0.281797 0.137560
19.64999962 3.42000008 -1.23000002 205 232 37 116.000000 1.000000 4.000000 4.000000 0.000000 95.000000 200.000000 -0.846180 0.457770 -0.272812
19.61000061 3.40000010 -1.24000001 205 232 37 116.000000 1.000000 4.000000 4.000000 0.000000 95.000000 200.000000 0.988348 0.054330 0.142183
19.62000084 3.40000010 -1.25000000 205 232 37 116.000000 1.000000 4.000000 4.000000 0.000000 95.000000 200.000000 0.812111 -0.266547 0.519065
19.65999985 3.34999990 -1.23000002 205 232 37 116.000000 1.000000 4.000000 4.000000 0.000000 95.000000 200.000000 0.982890 -0.117559 0.141798
19.63999939 3.34999990 -1.24000001 205 232 37 116.000000 1.000000 4.000000 4.000000 0.000000 95.000000 200.000000 0.974365 0.025106 0.223566
19.62000084 3.30999994 -1.30999994 205 232 37 116.000000 1.000000 4.000000 4.000000 0.000000 95.000000 200.000000 0.993771 -0.084218 -0.072989
19.62999916 3.29999995 -1.32000005 205 232 37 116.000000 1.000000 4.000000 4.000000 0.000000 95.000000 200.000000 0.990669 -0.133813 0.025863
19.62999916 3.30999994 -1.33000004 205 232 37 116.000000 1.000000 4.000000 4.000000 0.000000 95.000000 200.000000 0.985830 -0.129934 0.106093
19.57999992 3.40000010 -1.25999999 205 232 37 116.000000 1.000000 4.000000 4.000000 0.000000 95.000000 200.000000 0.953981 -0.150349 0.259451
19.54999924 3.38000011 -1.23000002 205 232 37 116.000000 1.000000 4.000000 4.000000 0.000000 95.000000 200.000000 0.950668 -0.293221 0.101247
19.60000038 3.38000011 -1.33000004 205 232 37 116.000000 1.000000 4.000000 4.000000 0.000000 95.000000 200.000000 0.893154 -0.415454 0.172261
19.60000038 3.33999991 -1.23000002 205 232 37 116.000000 1.000000 4.000000 4.000000 0.000000 95.000000 200.000000 0.981900 0.058461 0.180154
19.55999947 3.36999989 -1.24000001 205 232 37 116.000000 1.000000 4.000000 4.000000 0.000000 95.000000 200.000000 0.834731 0.114685 0.538583
19.57999992 3.34999990 -1.23000002 205 232 37 116.000000 1.000000 4.000000 4.000000 0.000000 95.000000 200.000000 0.974588 -0.204850 0.090631
19.57999992 3.34999990 -1.27999997 205 232 37 116.000000 1.000000 4.000000 4.000000 0.000000 95.000000 200.000000 0.838255 0.165269 0.519629
19.59000015 3.33999991 -1.29999995 205 232 37 116.000000 1.000000 4.000000 4.000000 0.000000 95.000000 200.000000 0.880393 -0.246630 0.405070
19.55999947 3.35999990 -1.30999994 205 232 37 116.000000 1.000000 4.000000 4.000000 0.000000 95.000000 200.000000 0.947543 -0.246770 0.203142
19.56999969 3.29999995 -1.28999996 205 232 37 116.000000 1.000000 4.000000 4.000000 0.000000 95.000000 200.000000 0.891185 0.064539 0.449025
19.56999969 3.30999994 -1.28999996 205 232 37 116.000000 1.000000 4.000000 4.000000 0.000000 95.000000 200.000000 0.891611 0.272395 0.361705
19.60000038 3.32999992 -1.29999995 205 232 37 116.000000 1.000000 4.000000 4.000000 0.000000 95.000000 200.000000 0.919621 0.277757 0.277757
19.57999992 3.31999993 -1.29999995 205 232 37 116.000000 1.000000 4.000000 4.000000 0.000000 95.000000 200.000000 0.798693 0.119142 0.589826
19.55999947 3.31999993 -1.27999997 205 232 37 116.000000 1.000000 4.000000 4.000000 0.000000 95.000000 200.000000 0.951320 0.026321 0.307080
19.55999947 3.31999993 -1.27999997 205 232 37 116.000000 1.000000 4.000000 4.000000 0.000000 95.000000 200.000000 0.951320 0.026321 0.307080
19.57999992 3.32999992 -1.30999994 205 232 37 116.000000 1.000000 4.000000 4.000000 0.000000 95.000000 200.000000 0.946202 -0.319680 0.050070
19.59000015 3.29999995 -1.30999994 205 232 37 116.000000 1.000000 4.000000 4.000000 0.000000 95.000000 200.000000 0.887895 -0.374557 0.267114
19.54999924 3.35999990 -1.25000000 205 232 37 116.000000 1.000000 4.000000 4.000000 0.000000 95.000000 200.000000 0.998849 0.017633 0.044601
19.54999924 3.33999991 -1.30999994 205 232 37 116.000000 1.000000 4.000000 4.000000 0.000000 95.000000 200.000000 0.987087 0.137980 0.081373
19.54999924 3.35999990 -1.29999995 205 232 37 116.000000 1.000000 4.000000 4.000000 0.000000 95.000000 200.000000 0.923030 -0.379601 0.062601
19.56999969 3.36999989 -1.33000004 205 232 37 116.000000 1.000000 4.000000 4.000000 0.000000 95.000000 200.000000 0.861357 -0.417674 0.289159
19.57999992 3.30999994 -1.34000003 205 232 37 116.000000 1.000000 4.000000 4.000000 0.000000 95.000000 200.000000 0.996032 -0.053574 0.071067
19.57999992 3.32999992 -1.34000003 205 232 37 116.000000 1.000000 4.000000 4.000000 0.000000 95.000000 200.000000 0.913804 -0.032965 0.404816
19.54000092 3.33999991 -1.34000003 205 232 37 116.000000 1.000000 4.000000 4.000000 0.000000 95.000000 200.000000 0.866920 -0.323753 0.378990
19.53000069 3.32999992 -1.32000005 205 232 37 116.000000 1.000000 4.000000 4.000000 0.000000 95.000000 200.000000 0.882899 -0.227031 0.411030
19.54000092 3.32999992 -1.35000002 205 232 37 116.000000 1.000000 4.000000 4.000000 0.000000 95.000000 200.000000 0.949677 -0.065896 0.306222
19.53000069 3.31999993 -1.33000004 205 232 37 116.000000 1.000000 4.000000 4.000000 0.000000 95.000000 200.000000 0.976216 -0.164165 0.141608
19.52000046 3.30999994 -1.37000000 205 232 37 116.000000 1.000000 4.000000 4.000000 0.000000 95.000000 200.000000 0.844562 -0.098938 0.526238
19.55999947 3.29999995 -1.40999997 205 232 37 116.000000 1.000000 4.000000 4.000000 0.000000 95.000000 200.000000 0.971124 -0.219286 -0.093980
19.55999947 3.28999996 -1.39999998 205 232 37 116.000000 1.000000 4.000000 4.000000 0.000000 95.000000 200.000000 0.986194 -0.014787 0.164934
19.52000046 3.25000000 -1.42999995 205 232 37 116.000000 1.000000 4.000000 4.000000 0.000000 95.000000 200.000000 0.925382 -0.320705 0.202030
19.53000069 3.28999996 -1.39999998 205 232 37 116.000000 1.000000 4.000000 4.000000 0.000000 95.000000 200.000000 0.851189 0.258260 0.456922
19.54999924 3.25000000 -1.42999995 205 232 37 116.000000 1.000000 4.000000 4.000000 0.000000 95.000000 200.000000 0.969271 -0.092011 0.228138
19.52000046 3.25000000 -1.44000006 205 232 37 116.000000 1.000000 4.000000 4.000000 0.000000 95.000000 200.000000 0.965647 -0.183747 0.183747
19.50000000 3.36999989 -1.30999994 205 232 37 116.000000 1.000000 4.000000 4.000000 0.000000 95.000000 200.000000 0.969119 0.123853 0.213232
19.48999977 3.29999995 -1.39999998 205 232 37 116.000000 1.000000 4.000000 4.000000 0.000000 95.000000 200.000000 0.925595 -0.305688 0.223223
19.50000000 3.31999993 -1.39999998 205 232 37 116.000000 1.000000 4.000000 4.000000 0.000000 95.000000 200.000000 0.928068 -0.366167 0.067907
19.48999977 3.31999993 -1.41999996 205 232 37 116.000000 1.000000 4.000000 4.000000 0.000000 95.000000 200.000000 0.981770 -0.110708 0.154504
19.50000000 3.30999994 -1.44000006 205 232 37 116.000000 1.000000 4.000000 4.000000 0.000000 95.000000 200.000000 0.910731 -0.385472 0.148259
19.48999977 3.27999997 -1.42999995 205 232 37 116.000000 1.000000 4.000000 4.000000 0.000000 95.000000 200.000000 0.919200 -0.233743 0.316916
19.48999977 3.28999996 -1.39999998 205 232 37 116.000000 1.000000 4.000000 4.000000 0.000000 95.000000 200.000000 0.897025 0.144037 0.417851
19.48999977 3.27999997 -1.42999995 205 232 37 116.000000 1.000000 4.000000 4.000000 0.000000 95.000000 200.000000 0.919200 -0.233743 0.316916
19.50000000 3.25999999 -1.45000005 205 232 37 116.000000 1.000000 4.000000 4.000000 0.000000 95.000000 200.000000 0.993746 -0.036641 0.105481
19.50000000 3.25000000 -1.45000005 205 232 37 116.000000 1.000000 4.000000 4.000000 0.000000 95.000000 200.000000 0.909982 -0.371158 0.184863
19.50000000 3.24000001 -1.48000002 205 232 37 116.000000 1.000000 4.000000 4.000000 0.000000 95.000000 200.000000 0.894185 -0.381538 0.234226
19.97999954 3.38000011 -0.12000000 205 232 37 116.000000 1.000000 4.000000 4.000000 0.000000 95.000000 200.000000 0.907131 0.407028 0.106966
19.87999916 3.38000011 -0.09000000 205 232 37 116.000000 1.000000 4.000000 4.000000 0.000000 95.000000 200.000000 0.892607 -0.047407 0.448335
19.94000053 3.42000008 -0.14000000 205 232 37 116.000000 1.000000 4.000000 4.000000 0.000000 95.000000 200.000000 0.964543 -0.048413 0.259446
19.92000008 3.39000010 -0.11000000 205 232 37 116.000000 1.000000 4.000000 4.000000 0.000000 95.000000 200.000000 0.925885 0.363012 0.104689
19.94000053 3.35999990 -0.11000000 205 232 37 116.000000 1.000000 4.000000 4.000000 0.000000 95.000000 200.000000 0.921122 0.182526 0.343829
19.71999931 3.50000000 0.15000001 205 232 37 116.000000 1.000000 4.000000 4.000000 0.000000 95.000000 200.000000 0.996463 -0.078810 -0.029149
19.61000061 3.40000010 0.20000000 205 232 37 116.000000 1.000000 4.000000 4.000000 0.000000 95.000000 200.000000 0.991452 0.083866 0.099949
19.61000061 3.41000009 0.15000001 205 232 37 116.000000 1.000000 4.000000 4.000000 0.000000 95.000000 200.000000 0.967628 0.048073 0.247762
19.61000061 3.40000010 0.20999999 205 232 37 116.000000 1.000000 4.000000 4.000000 0.000000 95.000000 200.000000 0.973816 -0.005888 0.227263
19.61000061 3.39000010 0.17000000 205 232 37 116.000000 1.000000 4.000000 4.000000 0.000000 95.000000 200.000000 0.997450 -0.050463 -0.050463
19.61000061 3.34999990 0.18000001 205 232 37 116.000000 1.000000 4.000000 4.000000 0.000000 95.000000 200.000000 0.996124 -0.013939 0.086853
19.61000061 3.35999990 0.18000001 205 232 37 116.000000 1.000000 4.000000 4.000000 0.000000 95.000000 200.000000 0.991850 -0.116755 0.051009
19.56999969 3.40000010 0.30000001 205 232 37 116.000000 1.000000 4.000000 4.000000 0.000000 95.000000 200.000000 0.986179 0.165678 0.001127
19.56999969 3.40000010 0.23999999 205 232 37 116.000000 1.000000 4.000000 4.000000 0.000000 95.000000 200.000000 0.990315 0.138622 0.007763
19.56999969 3.41000009 0.28000000 205 232 37 116.000000 1.000000 4.000000 4.000000 0.000000 95.000000 200.000000 0.928650 0.265126 0.259455
19.56999969 3.42000008 0.25000000 205 232 37 116.000000 1.000000 4.000000 4.000000 0.000000 95.000000 200.000000 0.827586 0.295678 0.477153
19.56999969 3.42000008 0.23000000 205 232 37 116.000000 1.000000 4.000000 4.000000 0.000000 95.000000 200.000000 0.989900 0.010021 0.141414
19.56999969 3.42000008 0.20000000 205 232 37 116.000000 1.000000 4.000000 4.000000 0.000000 95.000000 200.000000 0.939687 0.302287 0.160034
19.56999969 3.40000010 0.23000000 205 232 37 116.000000 1.000000 4.000000 4.000000 0.000000 95.000000 200.000000 0.997300 0.072819 0.009498
19.56999969 3.39000010 0.20999999 205 232 37 116.000000 1.000000 4.000000 4.000000 0.000000 95.000000 200.000000 0.997249 -0.071308 0.020222
19.57999992 3.38000011 0.17000000 205 232 37 116.000000 1.000000 4.000000 4.000000 0.000000 95.000000 200.000000 0.814600 0.428821 0.390562
19.57999992 3.40000010 0.16000000 205 232 37 116.000000 1.000000 4.000000 4.000000 0.000000 95.000000 200.000000 0.855620 -0.119758 0.503560
19.55999947 3.38000011 0.18000001 205 232 37 116.000000 1.000000 4.000000 4.000000 0.000000 95.000000 200.000000 0.996101 0.022663 -0.085257
19.55999947 3.41000009 0.17000000 205 232 37 116.000000 1.000000 4.000000 4.000000 0.000000 95.000000 200.000000 0.850624 0.362331 0.380992
19.56999969 3.36999989 0.20999999 205 232 37 116.000000 1.000000 4.000000 4.000000 0.000000 95.000000 200.000000 0.988760 -0.146778 0.028445
19.55999947 3.36999989 0.20999999 205 232 37 116.000000 1.000000 4.000000 4.000000 0.000000 95.000000 200.000000 0.847954 0.370102 0.379471
19.60000038 3.34999990 0.20999999 205 232 37 116.000000 1.000000 4.000000 4.000000 0.000000 95.000000 200.000000 0.994557 -0.074787 0.072555
19.60000038 3.36999989 0.20000000 205 232 37 116.000000 1.000000 4.000000 4.000000 0.000000 95.000000 200.000000 0.951794 0.249055 -0.179050
19.60000038 3.34999990 0.20000000 205 232 37 116.000000 1.000000 4.000000 4.000000 0.000000 95.000000 200.000000 0.959318 -0.043776 0.278915
19.57999992 3.35999990 0.19000000 205 232 37 116.000000 1.000000 4.000000 4.000000 0.000000 95.000000 200.000000 0.953675 0.279412 0.111503
19.59000015 3.32999992 0.17000000 205 232 37 116.000000 1.000000 4.000000 4.000000 0.000000 95.000000 200.000000 0.868776 0.435141 0.236391
19.77000046 3.47000003 0.08000000 205 232 37 116.000000 1.000000 4.000000 4.000000 0.000000 95.000000 200.000000 0.995026 0.001071 0.099610
19.70000076 3.50999999 0.12000000 205 232 37 116.000000 1.000000 4.000000 4.000000 0.000000 95.000000 200.000000 0.945078 -0.232486 0.229735
19.70000076 3.49000001 0.12000000 205 232 37 116.000000 1.000000 4.000000 4.000000 0.000000 95.000000 200.000000 0.938060 -0.315418 0.143372
19.71999931 3.49000001 0.13000000 205 232 37 116.000000 1.000000 4.000000 4.000000 0.000000 95.000000 200.000000 0.978341 -0.206029 -0.020014
19.69000053 3.52999997 0.02000000 205 232 37 116.000000 1.000000 4.000000 4.000000 0.000000 95.000000 200.000000 0.820759 -0.090875 0.564001
19.69000053 3.53999996 0.01000000 205 232 37 116.000000 1.000000 4.000000 4.000000 0.000000 95.000000 200.000000 0.882064 -0.465341 0.073621
19.78000069 3.47000003 -0.10000000 205 232 37 116.000000 1.000000 4.000000 4.000000 0.000000 95.000000 200.000000 0.976049 0.010571 0.217291
19.81999969 3.50999999 -0.14000000 205 232 37 116.000000 1.000000 4.000000 4.000000 0.000000 95.000000 200.000000 0.832615 -0.552768 -0.034635
19.72999954 3.47000003 -0.03000000 205 232 37 116.000000 1.000000 4.000000 4.000000 0.000000 95.000000 200.000000 0.789251 -0.340995 0.510692
19.77000046 3.48000002 -0.18000001 205 232 37 116.000000 1.000000 4.000000 4.000000 0.000000 95.000000 200.000000 0.855428 -0.494476 0.154065
19.69000053 3.43000007 0.03000000 205 232 37 116.000000 1.000000 4.000000 4.000000 0.000000 95.000000 200.000000 0.795229 -0.361468 0.486777
19.70000076 3.46000004 0.00000000 205 232 37 116.000000 1.000000 4.000000 4.000000 0.000000 95.000000 200.000000 0.899143 -0.383265 0.211306
19.70000076 3.46000004 -0.02000000 205 232 37 116.000000 1.000000 4.000000 4.000000 0.000000 95.000000 200.000000 0.975722 -0.212113 0.054543
19.70000076 3.44000006 0.00000000 205 232 37 116.000000 1.000000 4.000000 4.000000 0.000000 95.000000 200.000000 0.920407 0.088110 0.380905
19.71999931 3.45000005 0.01000000 205 232 37 116.000000 1.000000 4.000000 4.000000 0.000000 95.000000 200.000000 0.947080 0.282368 0.152668
19.70000076 3.46000004 -0.02000000 205 232 37 116.000000 1.000000 4.000000 4.000000 0.000000 95.000000 200.000000 0.975722 -0.212113 0.054543
19.79999924 3.39000010 -0.06000000 205 232 37 116.000000 1.000000 4.000000 4.000000 0.000000 95.000000 200.000000 0.830715 0.311323 0.461509
19.78000069 3.40000010 -0.09000000 205 232 37 116.000000 1.000000 4.000000 4.000000 0.000000 95.000000 200.000000 0.965887 -0.256506 -0.035592
19.84000015 3.46000004 -0.13000000 205 232 37 116.000000 1.000000 4.000000 4.000000 0.000000 95.000000 200.000000 0.976308 -0.005846 0.216308
