//X Y Z R G B PointSourceId ScanDirectionFlag NumberOfReturns ReturnNumber GpsTime Intensity Classification Nx Ny Nz
-1.84000003 15.14000034 -0.60000002 41 11 229 0.000000 0.000000 0.000000 0.000000 0.000000 0.000000 156.000000 0.638734 0.709525 0.297647
-1.85000002 15.14000034 -0.58999997 41 11 229 0.000000 0.000000 0.000000 0.000000 0.000000 0.000000 156.000000 0.664051 0.597144 0.449949
-1.84000003 15.10000038 -0.54000002 41 11 229 0.000000 0.000000 0.000000 0.000000 0.000000 0.000000 156.000000 0.964579 0.263724 -0.006021
-1.86000001 15.09000015 -0.62000000 41 11 229 0.000000 0.000000 0.000000 0.000000 0.000000 0.000000 156.000000 0.582066 0.768201 0.266583
-1.82000005 15.14000034 -0.67000002 41 11 229 0.000000 0.000000 0.000000 0.000000 0.000000 0.000000 156.000000 0.641640 0.608134 0.467409
-1.86000001 15.06000042 -0.56000000 41 11 229 0.000000 0.000000 0.000000 0.000000 0.000000 0.000000 156.000000 0.711661 0.196054 0.674612
-1.91999996 15.07999992 -0.62000000 41 11 229 0.000000 0.000000 0.000000 0.000000 0.000000 0.000000 156.000000 0.219304 0.918784 -0.328240
-1.94000006 15.06999969 -0.55000001 41 11 229 0.000000 0.000000 0.000000 0.000000 0.000000 0.000000 156.000000 0.512590 0.857094 0.051398
-1.95000005 15.06999969 -0.56999999 41 11 229 0.000000 0.000000 0.000000 0.000000 0.000000 0.000000 156.000000 0.047955 0.993680 -0.101487
-1.95000005 15.07999992 -0.55000001 41 11 229 0.000000 0.000000 0.000000 0.000000 0.000000 0.000000 156.000000 0.132413 0.958355 -0.253027
-1.90999997 15.06999969 -0.64999998 41 11 229 0.000000 0.000000 0.000000 0.000000 0.000000 0.000000 156.000000 0.080839 0.958522 -0.273314
-1.89999998 15.06999969 -0.70999998 41 11 229 0.000000 0.000000 0.000000 0.000000 0.000000 0.000000 156.000000 -0.292506 0.886517 -0.358507
-1.91999996 15.07999992 -0.69999999 41 11 229 0.000000 0.000000 0.000000 0.000000 0.000000 0.000000 156.000000 -0.021546 0.941667 -0.335857
-1.90999997 15.06000042 -0.64999998 41 11 229 0.000000 0.000000 0.000000 0.000000 0.000000 0.000000 156.000000 0.107478 0.959533 -0.260278
-1.82000005 15.14000034 -0.80000001 41 11 229 0.000000 0.000000 0.000000 0.000000 0.000000 0.000000 156.000000 0.322961 0.857623 0.400224
-1.82000005 15.14000034 -0.80000001 41 11 229 0.000000 0.000000 0.000000 0.000000 0.000000 0.000000 156.000000 0.322961 0.857623 0.400224
-1.79999995 15.14000034 -0.81999999 41 11 229 0.000000 0.000000 0.000000 0.000000 0.000000 0.000000 156.000000 0.260629 0.927156 -0.269174
-1.87000000 15.06000042 -0.79000002 41 11 229 0.000000 0.000000 0.000000 0.000000 0.000000 0.000000 156.000000 -0.143586 0.980556 -0.133768
-1.88000000 15.06999969 -0.79000002 41 11 229 0.000000 0.000000 0.000000 0.000000 0.000000 0.000000 156.000000 -0.040046 0.999109 -0.013349
-1.89999998 15.06999969 -0.77999997 41 11 229 0.000000 0.000000 0.000000 0.000000 0.000000 0.000000 156.000000 -0.017103 0.903820 -0.427571
-1.88000000 15.09000015 -0.80000001 41 11 229 0.000000 0.000000 0.000000 0.000000 0.000000 0.000000 156.000000 -0.305559 0.828927 -0.468524
-1.88999999 15.09000015 -0.80000001 41 11 229 0.000000 0.000000 0.000000 0.000000 0.000000 0.000000 156.000000 -0.065841 0.994314 -0.083696
-1.88000000 15.10000038 -0.86000001 41 11 229 0.000000 0.000000 0.000000 0.000000 0.000000 0.000000 156.000000 -0.227627 0.967731 0.108091
-1.88999999 15.07999992 -0.83999997 41 11 229 0.000000 0.000000 0.000000 0.000000 0.000000 0.000000 156.000000 -0.294833 0.952039 0.081826
-1.88000000 15.09000015 -0.88000000 41 11 229 0.000000 0.000000 0.000000 0.000000 0.000000 0.000000 156.000000 -0.287851 0.957445 -0.021002
-1.88000000 15.09000015 -0.85000002 41 11 229 0.000000 0.000000 0.000000 0.000000 0.000000 0.000000 156.000000 -0.146837 0.984880 0.091922
-1.88999999 15.06000042 -0.81000000 41 11 229 0.000000 0.000000 0.000000 0.000000 0.000000 0.000000 156.000000 -0.332776 0.936352 0.111823
-1.97000003 15.18000031 -0.54000002 41 11 229 0.000000 0.000000 0.000000 0.000000 0.000000 0.000000 156.000000 -0.011813 0.904368 -0.426589
-1.98000002 15.17000008 -0.55000001 41 11 229 0.000000 0.000000 0.000000 0.000000 0.000000 0.000000 156.000000 -0.010025 0.990209 -0.139231
-1.97000003 15.22999954 -0.75999999 41 11 229 0.000000 0.000000 0.000000 0.000000 0.000000 0.000000 156.000000 0.016657 0.991672 -0.127707
-1.97000003 15.22000027 -0.77999997 41 11 229 0.000000 0.000000 0.000000 0.000000 0.000000 0.000000 156.000000 -0.100399 0.938398 -0.330648
-1.97000003 15.22000027 -0.77999997 41 11 229 0.000000 0.000000 0.000000 0.000000 0.000000 0.000000 156.000000 -0.100399 0.938398 -0.330648
-1.86000001 14.93000031 -0.27000001 41 11 229 0.000000 0.000000 0.000000 0.000000 0.000000 0.000000 156.000000 0.744080 -0.356572 0.564979
-1.83000004 14.89999962 -0.28999999 41 11 229 0.000000 0.000000 0.000000 0.000000 0.000000 0.000000 156.000000 0.764113 -0.638944 0.088783
-1.82000005 14.89999962 -0.28999999 41 11 229 0.000000 0.000000 0.000000 0.000000 0.000000 0.000000 156.000000 0.792014 -0.557691 0.248383
-1.89999998 14.97000027 -0.20000000 41 11 229 0.000000 0.000000 0.000000 0.000000 0.000000 0.000000 156.000000 0.933686 -0.355504 0.042973
-1.88999999 14.94999981 -0.27000001 41 11 229 0.000000 0.000000 0.000000 0.000000 0.000000 0.000000 156.000000 0.936586 -0.282507 0.207357
-1.88000000 14.94999981 -0.23999999 41 11 229 0.000000 0.000000 0.000000 0.000000 0.000000 0.000000 156.000000 0.930654 -0.227368 0.286681
-1.88000000 14.97000027 -0.25999999 41 11 229 0.000000 0.000000 0.000000 0.000000 0.000000 0.000000 156.000000 0.807298 -0.415686 0.418896
-1.90999997 14.93000031 -0.25000000 41 11 229 0.000000 0.000000 0.000000 0.000000 0.000000 0.000000 156.000000 0.885335 -0.400261 0.236585
-1.92999995 14.93000031 -0.22000000 41 11 229 0.000000 0.000000 0.000000 0.000000 0.000000 0.000000 156.000000 -0.614951 0.677938 -0.402785
-1.95000005 14.89000034 -0.25000000 41 11 229 0.000000 0.000000 0.000000 0.000000 0.000000 0.000000 156.000000 -0.738047 0.627890 -0.247065
-1.94000006 14.93000031 -0.28000000 41 11 229 0.000000 0.000000 0.000000 0.000000 0.000000 0.000000 156.000000 -0.420235 0.857403 -0.297089
-1.96000004 14.85999966 -0.25999999 41 11 229 0.000000 0.000000 0.000000 0.000000 0.000000 0.000000 156.000000 -0.047520 0.889306 -0.454836
-1.87000000 14.77999973 -0.27000001 41 11 229 0.000000 0.000000 0.000000 0.000000 0.000000 0.000000 156.000000 0.734438 -0.662050 0.149301
-1.86000001 14.78999996 -0.28000000 41 11 229 0.000000 0.000000 0.000000 0.000000 0.000000 0.000000 156.000000 -0.602149 0.761679 -0.239295
-1.84000003 14.73999977 -0.28999999 41 11 229 0.000000 0.000000 0.000000 0.000000 0.000000 0.000000 156.000000 -0.692203 0.589286 -0.416650
-1.88999999 14.72000027 -0.30000001 41 11 229 0.000000 0.000000 0.000000 0.000000 0.000000 0.000000 156.000000 -0.310072 0.816891 -0.486357
-1.95000005 14.68999958 -0.30000001 41 11 229 0.000000 0.000000 0.000000 0.000000 0.000000 0.000000 156.000000 -0.214448 0.791453 -0.572376
-1.99000001 14.85999966 -0.25000000 41 11 229 0.000000 0.000000 0.000000 0.000000 0.000000 0.000000 156.000000 -0.345672 0.748145 -0.566383
-1.97000003 14.85999966 -0.25000000 41 11 229 0.000000 0.000000 0.000000 0.000000 0.000000 0.000000 156.000000 -0.034054 0.873136 -0.486286
-1.98000002 14.85000038 -0.25000000 41 11 229 0.000000 0.000000 0.000000 0.000000 0.000000 0.000000 156.000000 -0.022766 0.885182 -0.464687
-1.97000003 14.85999966 -0.25000000 41 11 229 0.000000 0.000000 0.000000 0.000000 0.000000 0.000000 156.000000 -0.034054 0.873136 -0.486286
-1.50000000 14.98999977 -0.94999999 41 11 229 0.000000 0.000000 0.000000 0.000000 0.000000 0.000000 226.000000 0.707101 -0.004151 0.707101
-1.90999997 15.22999954 -1.03999996 41 11 229 0.000000 0.000000 0.000000 0.000000 0.000000 0.000000 223.000000 -0.073237 0.930771 -0.358194
-1.88999999 15.21000004 -1.03999996 41 11 229 0.000000 0.000000 0.000000 0.000000 0.000000 0.000000 223.000000 -0.066227 0.912306 -0.404118
-1.95000005 15.22999954 -0.99000001 41 11 229 0.000000 0.000000 0.000000 0.000000 0.000000 0.000000 223.000000 -0.310710 0.920675 -0.236254
-1.94000006 15.22000027 -1.02999997 41 11 229 0.000000 0.000000 0.000000 0.000000 0.000000 0.000000 223.000000 -0.299565 0.883640 -0.359779
-1.94000006 15.22000027 -1.01999998 41 11 229 0.000000 0.000000 0.000000 0.000000 0.000000 0.000000 223.000000 -0.206367 0.930758 -0.301830
-1.82000005 15.15999985 -1.08000004 41 11 229 0.000000 0.000000 0.000000 0.000000 0.000000 0.000000 223.000000 -0.140882 0.897943 -0.416953
-1.85000002 15.14999962 -1.13000000 41 11 229 0.000000 0.000000 0.000000 0.000000 0.000000 0.000000 223.000000 -0.327096 0.796200 -0.508993
-1.86000001 15.22000027 -1.15999997 41 11 229 0.000000 0.000000 0.000000 0.000000 0.000000 0.000000 223.000000 -0.171304 0.950937 -0.257630
-1.87000000 15.18999958 -1.14999998 41 11 229 0.000000 0.000000 0.000000 0.000000 0.000000 0.000000 223.000000 -0.171145 0.917961 -0.357849
-1.84000003 15.15999985 -1.14999998 41 11 229 0.000000 0.000000 0.000000 0.000000 0.000000 0.000000 223.000000 -0.079074 0.994551 -0.067937
-1.95000005 15.23999977 -1.15999997 41 11 229 0.000000 0.000000 0.000000 0.000000 0.000000 0.000000 223.000000 -0.227627 0.967731 -0.108091
-1.96000004 15.22999954 -1.05999994 41 11 229 0.000000 0.000000 0.000000 0.000000 0.000000 0.000000 223.000000 -0.193901 0.950522 -0.242715
-1.94000006 15.22000027 -1.13000000 41 11 229 0.000000 0.000000 0.000000 0.000000 0.000000 0.000000 223.000000 -0.324956 0.927038 -0.187096
-1.92999995 15.22999954 -1.15999997 41 11 229 0.000000 0.000000 0.000000 0.000000 0.000000 0.000000 223.000000 -0.318880 0.767554 -0.556036
-1.95000005 15.21000004 -1.15999997 41 11 229 0.000000 0.000000 0.000000 0.000000 0.000000 0.000000 223.000000 -0.316500 0.920857 -0.227708
-1.92999995 15.21000004 -1.19000006 41 11 229 0.000000 0.000000 0.000000 0.000000 0.000000 0.000000 223.000000 -0.384854 0.668952 -0.635917
-1.95000005 15.22999954 -1.22000003 41 11 229 0.000000 0.000000 0.000000 0.000000 0.000000 0.000000 223.000000 -0.399176 0.893394 -0.206168
-1.95000005 15.19999981 -1.21000004 41 11 229 0.000000 0.000000 0.000000 0.000000 0.000000 0.000000 223.000000 -0.310650 0.782201 -0.540053
-1.96000004 15.18999958 -1.15999997 41 11 229 0.000000 0.000000 0.000000 0.000000 0.000000 0.000000 223.000000 -0.352253 0.927921 -0.121987
-1.87000000 15.10999966 -0.89999998 41 11 229 0.000000 0.000000 0.000000 0.000000 0.000000 0.000000 156.000000 -0.263882 0.911196 -0.316367
-1.86000001 15.10999966 -1.01999998 41 11 229 0.000000 0.000000 0.000000 0.000000 0.000000 0.000000 223.000000 -0.343241 0.730404 -0.590505
-1.88000000 15.09000015 -0.91000003 41 11 229 0.000000 0.000000 0.000000 0.000000 0.000000 0.000000 156.000000 -0.309384 0.950699 -0.021294
-1.89999998 15.09000015 -0.91000003 41 11 229 0.000000 0.000000 0.000000 0.000000 0.000000 0.000000 156.000000 0.549329 -0.556090 0.623700
-1.95000005 15.11999989 -0.91000003 41 11 229 0.000000 0.000000 0.000000 0.000000 0.000000 0.000000 156.000000 -0.445380 0.836065 -0.320361
-1.94000006 15.10999966 -0.93000001 41 11 229 0.000000 0.000000 0.000000 0.000000 0.000000 0.000000 156.000000 -0.294437 0.892279 -0.342264
-1.89999998 15.10999966 -1.04999995 41 11 229 0.000000 0.000000 0.000000 0.000000 0.000000 0.000000 223.000000 -0.536406 0.806941 -0.247213
-1.89999998 15.10000038 -1.03999996 41 11 229 0.000000 0.000000 0.000000 0.000000 0.000000 0.000000 223.000000 -0.327496 0.882881 -0.336551
-1.83000004 15.10000038 -1.09000003 41 11 229 0.000000 0.000000 0.000000 0.000000 0.000000 0.000000 223.000000 -0.374377 0.817257 -0.438101
-1.87000000 15.09000015 -1.09000003 41 11 229 0.000000 0.000000 0.000000 0.000000 0.000000 0.000000 223.000000 -0.559451 0.623678 -0.545930
-1.83000004 15.13000011 -1.17999995 41 11 229 0.000000 0.000000 0.000000 0.000000 0.000000 0.000000 223.000000 0.586857 -0.603769 0.539502
-1.82000005 15.10999966 -1.22000003 41 11 229 0.000000 0.000000 0.000000 0.000000 0.000000 0.000000 223.000000 -0.573367 0.772387 -0.273257
-1.87000000 15.11999989 -1.16999996 41 11 229 0.000000 0.000000 0.000000 0.000000 0.000000 0.000000 223.000000 -0.252163 0.868225 -0.427317
-1.84000003 15.11999989 -1.19000006 41 11 229 0.000000 0.000000 0.000000 0.000000 0.000000 0.000000 223.000000 -0.247487 0.956862 -0.152198
-1.86000001 15.10000038 -1.22000003 41 11 229 0.000000 0.000000 0.000000 0.000000 0.000000 0.000000 223.000000 -0.644492 0.689947 -0.329551
-1.89999998 15.10999966 -1.05999994 41 11 229 0.000000 0.000000 0.000000 0.000000 0.000000 0.000000 223.000000 -0.556347 0.683321 -0.472811
-1.88999999 15.10999966 -1.13999999 41 11 229 0.000000 0.000000 0.000000 0.000000 0.000000 0.000000 223.000000 -0.681994 0.730201 0.041118
-1.88999999 15.10000038 -1.07000005 41 11 229 0.000000 0.000000 0.000000 0.000000 0.000000 0.000000 223.000000 -0.415225 0.904052 -0.101376
-1.89999998 15.10000038 -1.05999994 41 11 229 0.000000 0.000000 0.000000 0.000000 0.000000 0.000000 223.000000 -0.460086 0.747021 -0.479875
-1.92999995 15.11999989 -1.08000004 41 11 229 0.000000 0.000000 0.000000 0.000000 0.000000 0.000000 223.000000 0.670211 -0.380390 0.637276
-1.88999999 15.10999966 -1.22000003 41 11 229 0.000000 0.000000 0.000000 0.000000 0.000000 0.000000 223.000000 -0.360030 0.860672 -0.360030
-1.88999999 15.09000015 -1.15999997 41 11 229 0.000000 0.000000 0.000000 0.000000 0.000000 0.000000 223.000000 -0.534310 0.704090 -0.467729
-1.89999998 15.10000038 -1.16999996 41 11 229 0.000000 0.000000 0.000000 0.000000 0.000000 0.000000 223.000000 -0.600325 0.680147 -0.420726
-1.89999998 15.09000015 -1.14999998 41 11 229 0.000000 0.000000 0.000000 0.000000 0.000000 0.000000 223.000000 -0.411146 0.863560 -0.291929
-1.88999999 15.10000038 -1.19000006 41 11 229 0.000000 0.000000 0.000000 0.000000 0.000000 0.000000 223.000000 -0.692906 0.707936 -0.136777
-1.88999999 15.09000015 -1.19000006 41 11 229 0.000000 0.000000 0.000000 0.000000 0.000000 0.000000 223.000000 -0.579131 0.723504 -0.375697
-1.97000003 15.19999981 -1.01999998 41 11 229 0.000000 0.000000 0.000000 0.000000 0.000000 0.000000 223.000000 0.431086 -0.610843 0.664105
-1.97000003 15.21000004 -1.15999997 41 11 229 0.000000 0.000000 0.000000 0.000000 0.000000 0.000000 223.000000 -0.513424 0.808603 -0.287329
-1.80999994 15.17000008 -1.25000000 41 11 229 0.000000 0.000000 0.000000 0.000000 0.000000 0.000000 223.000000 -0.266998 0.951265 -0.154295
-1.80999994 15.14999962 -1.26999998 41 11 229 0.000000 0.000000 0.000000 0.000000 0.000000 0.000000 223.000000 -0.491338 0.776735 -0.394043
-1.79999995 15.19999981 -1.34000003 41 11 229 0.000000 0.000000 0.000000 0.000000 0.000000 0.000000 223.000000 -0.172850 0.858338 -0.483092
-1.80999994 15.18999958 -1.35000002 41 11 229 0.000000 0.000000 0.000000 0.000000 0.000000 0.000000 223.000000 0.307580 -0.713393 0.629654
-1.82000005 15.14999962 -1.38999999 41 11 229 0.000000 0.000000 0.000000 0.000000 0.000000 0.000000 223.000000 -0.622596 0.782092 -0.026583
-1.80999994 15.14999962 -1.37000000 41 11 229 0.000000 0.000000 0.000000 0.000000 0.000000 0.000000 223.000000 -0.416182 0.818013 -0.397047
-1.88000000 15.27000046 -1.37000000 41 11 229 0.000000 0.000000 0.000000 0.000000 0.000000 0.000000 223.000000 -0.444914 0.678202 -0.584887
-1.92999995 15.23999977 -1.36000001 41 11 229 0.000000 0.000000 0.000000 0.000000 0.000000 0.000000 223.000000 -0.419060 0.907745 -0.019705
-1.88999999 15.25000000 -1.32000005 41 11 229 0.000000 0.000000 0.000000 0.000000 0.000000 0.000000 223.000000 -0.325234 0.941187 -0.091596
-1.95000005 15.22000027 -1.25000000 41 11 229 0.000000 0.000000 0.000000 0.000000 0.000000 0.000000 223.000000 -0.303090 0.920761 -0.245632
-1.92999995 15.22999954 -1.24000001 41 11 229 0.000000 0.000000 0.000000 0.000000 0.000000 0.000000 223.000000 -0.271819 0.953354 -0.131268
-1.94000006 15.22000027 -1.25999999 41 11 229 0.000000 0.000000 0.000000 0.000000 0.000000 0.000000 223.000000 -0.336460 0.929071 -0.153691
-1.95000005 15.22000027 -1.24000001 41 11 229 0.000000 0.000000 0.000000 0.000000 0.000000 0.000000 223.000000 -0.495806 0.850167 -0.177180
-1.95000005 15.22000027 -1.25000000 41 11 229 0.000000 0.000000 0.000000 0.000000 0.000000 0.000000 223.000000 -0.303090 0.920761 -0.245632
-1.94000006 15.22000027 -1.25999999 41 11 229 0.000000 0.000000 0.000000 0.000000 0.000000 0.000000 223.000000 -0.336460 0.929071 -0.153691
-1.92999995 15.22999954 -1.24000001 41 11 229 0.000000 0.000000 0.000000 0.000000 0.000000 0.000000 223.000000 -0.271819 0.953354 -0.131268
-1.82000005 15.10999966 -1.25999999 41 11 229 0.000000 0.000000 0.000000 0.000000 0.000000 0.000000 223.000000 -0.364010 0.917755 -0.158815
-1.83000004 15.10999966 -1.25999999 41 11 229 0.000000 0.000000 0.000000 0.000000 0.000000 0.000000 223.000000 -0.369561 0.866398 -0.335825
-1.83000004 15.10999966 -1.27999997 41 11 229 0.000000 0.000000 0.000000 0.000000 0.000000 0.000000 223.000000 -0.397201 0.904024 -0.158026
-1.84000003 15.14000034 -1.23000002 41 11 229 0.000000 0.000000 0.000000 0.000000 0.000000 0.000000 223.000000 -0.499331 0.853695 -0.147896
-1.84000003 15.13000011 -1.25999999 41 11 229 0.000000 0.000000 0.000000 0.000000 0.000000 0.000000 223.000000 -0.591658 0.799104 0.106645
-1.84000003 15.11999989 -1.30999994 41 11 229 0.000000 0.000000 0.000000 0.000000 0.000000 0.000000 223.000000 0.659422 -0.732521 0.169043
-1.84000003 15.10999966 -1.26999998 41 11 229 0.000000 0.000000 0.000000 0.000000 0.000000 0.000000 223.000000 -0.702446 0.671016 -0.237291
-1.84000003 15.10999966 -1.26999998 41 11 229 0.000000 0.000000 0.000000 0.000000 0.000000 0.000000 223.000000 -0.702446 0.671016 -0.237291
-1.84000003 15.14000034 -1.26999998 41 11 229 0.000000 0.000000 0.000000 0.000000 0.000000 0.000000 223.000000 0.597045 -0.593662 0.539539
-1.84000003 15.11999989 -1.30999994 41 11 229 0.000000 0.000000 0.000000 0.000000 0.000000 0.000000 223.000000 0.659422 -0.732521 0.169043
-1.86000001 15.13000011 -1.29999995 41 11 229 0.000000 0.000000 0.000000 0.000000 0.000000 0.000000 223.000000 0.441476 -0.725872 0.527456
-1.84000003 15.10000038 -1.25999999 41 11 229 0.000000 0.000000 0.000000 0.000000 0.000000 0.000000 223.000000 -0.538012 0.825751 -0.169346
-1.87000000 15.09000015 -1.23000002 41 11 229 0.000000 0.000000 0.000000 0.000000 0.000000 0.000000 223.000000 -0.661821 0.747586 -0.055747
-1.85000002 15.07999992 -1.27999997 41 11 229 0.000000 0.000000 0.000000 0.000000 0.000000 0.000000 223.000000 -0.615208 0.767866 -0.178609
-1.83000004 15.10999966 -1.32000005 41 11 229 0.000000 0.000000 0.000000 0.000000 0.000000 0.000000 223.000000 -0.461232 0.759966 -0.457949
-1.83000004 15.11999989 -1.32000005 41 11 229 0.000000 0.000000 0.000000 0.000000 0.000000 0.000000 223.000000 -0.407215 0.838014 -0.363192
-1.83000004 15.11999989 -1.33000004 41 11 229 0.000000 0.000000 0.000000 0.000000 0.000000 0.000000 223.000000 -0.436612 0.843702 -0.312310
-1.80999994 15.14000034 -1.38000000 41 11 229 0.000000 0.000000 0.000000 0.000000 0.000000 0.000000 223.000000 -0.418846 0.906377 -0.055218
-1.80999994 15.10999966 -1.38000000 41 11 229 0.000000 0.000000 0.000000 0.000000 0.000000 0.000000 223.000000 -0.307464 0.916617 -0.255498
-1.83000004 15.13000011 -1.37000000 41 11 229 0.000000 0.000000 0.000000 0.000000 0.000000 0.000000 223.000000 -0.371760 0.893112 -0.253271
-1.83000004 15.13000011 -1.37000000 41 11 229 0.000000 0.000000 0.000000 0.000000 0.000000 0.000000 223.000000 -0.371760 0.893112 -0.253271
-1.80999994 15.11999989 -1.36000001 41 11 229 0.000000 0.000000 0.000000 0.000000 0.000000 0.000000 223.000000 -0.595111 0.799726 0.079252
-1.83000004 15.14000034 -1.36000001 41 11 229 0.000000 0.000000 0.000000 0.000000 0.000000 0.000000 223.000000 -0.543936 0.784980 -0.296548
-1.83000004 15.10000038 -1.37000000 41 11 229 0.000000 0.000000 0.000000 0.000000 0.000000 0.000000 223.000000 0.636413 -0.707304 0.307734
-1.85000002 15.11999989 -1.33000004 41 11 229 0.000000 0.000000 0.000000 0.000000 0.000000 0.000000 223.000000 -0.598391 0.794441 -0.103877
-1.84000003 15.11999989 -1.32000005 41 11 229 0.000000 0.000000 0.000000 0.000000 0.000000 0.000000 223.000000 -0.521688 0.806815 -0.277294
-1.85000002 15.10999966 -1.32000005 41 11 229 0.000000 0.000000 0.000000 0.000000 0.000000 0.000000 223.000000 -0.406402 0.892919 -0.193733
-1.84000003 15.11999989 -1.37000000 41 11 229 0.000000 0.000000 0.000000 0.000000 0.000000 0.000000 223.000000 -0.539187 0.841354 0.037424
-1.84000003 15.13000011 -1.37000000 41 11 229 0.000000 0.000000 0.000000 0.000000 0.000000 0.000000 223.000000 -0.624887 0.774158 -0.100977
-1.85000002 15.10999966 -1.37000000 41 11 229 0.000000 0.000000 0.000000 0.000000 0.000000 0.000000 223.000000 -0.522313 0.851022 -0.054321
-1.91999996 15.10000038 -1.27999997 41 11 229 0.000000 0.000000 0.000000 0.000000 0.000000 0.000000 223.000000 0.743581 -0.668528 0.012509
-1.92999995 15.13000011 -1.38999999 41 11 229 0.000000 0.000000 0.000000 0.000000 0.000000 0.000000 223.000000 0.770050 -0.548198 0.326347
-1.86000001 15.11999989 -1.40999997 41 11 229 0.000000 0.000000 0.000000 0.000000 0.000000 0.000000 223.000000 -0.420134 0.835547 -0.354045
-2.16000009 15.36999989 -0.25999999 41 11 229 0.000000 0.000000 0.000000 0.000000 0.000000 0.000000 95.000000 0.039473 0.991348 -0.125187
-2.14000010 15.35000038 -0.28000000 41 11 229 0.000000 0.000000 0.000000 0.000000 0.000000 0.000000 95.000000 0.146036 0.980526 -0.131309
-2.19000006 15.35999966 -0.34000000 41 11 229 0.000000 0.000000 0.000000 0.000000 0.000000 0.000000 95.000000 -0.102383 0.994730 0.005389
-2.41000009 15.56999969 -0.36000001 41 11 229 0.000000 0.000000 0.000000 0.000000 0.000000 0.000000 95.000000 -0.422898 0.902273 0.084028
-2.33999991 15.47000027 -0.30000001 41 11 229 0.000000 0.000000 0.000000 0.000000 0.000000 0.000000 95.000000 -0.222688 0.903852 -0.365325
-1.74000001 14.61999989 -0.30000001 41 11 229 0.000000 0.000000 0.000000 0.000000 0.000000 0.000000 156.000000 -0.272000 0.739648 -0.615578
-1.76999998 14.60000038 -0.34000000 41 11 229 0.000000 0.000000 0.000000 0.000000 0.000000 0.000000 156.000000 -0.668937 0.742478 -0.035356
-1.82000005 14.60999966 -0.33000001 41 11 229 0.000000 0.000000 0.000000 0.000000 0.000000 0.000000 156.000000 -0.543071 0.724644 -0.424222
-1.87000000 14.55000019 -0.34000000 41 11 229 0.000000 0.000000 0.000000 0.000000 0.000000 0.000000 156.000000 -0.583833 0.798850 -0.144838
-1.92999995 14.59000015 -0.31999999 41 11 229 0.000000 0.000000 0.000000 0.000000 0.000000 0.000000 156.000000 -0.380203 0.882130 -0.278014
-2.13000011 15.18999958 0.17000000 41 11 229 0.000000 0.000000 0.000000 0.000000 0.000000 0.000000 156.000000 0.756511 0.649472 -0.076664
-2.13000011 15.18999958 0.17000000 41 11 229 0.000000 0.000000 0.000000 0.000000 0.000000 0.000000 156.000000 0.756511 0.649472 -0.076664
-1.95000005 15.15999985 -0.11000000 41 11 229 0.000000 0.000000 0.000000 0.000000 0.000000 0.000000 156.000000 0.908499 0.416340 -0.035914
-1.87000000 15.10999966 -0.18000001 41 11 229 0.000000 0.000000 0.000000 0.000000 0.000000 0.000000 156.000000 0.843851 0.358519 0.399224
-1.87000000 15.07999992 -0.18000001 41 11 229 0.000000 0.000000 0.000000 0.000000 0.000000 0.000000 156.000000 0.965270 0.216376 0.146410
-1.87000000 15.07999992 -0.19000000 41 11 229 0.000000 0.000000 0.000000 0.000000 0.000000 0.000000 156.000000 0.939180 0.177906 0.293752
-1.87000000 15.07999992 -0.19000000 41 11 229 0.000000 0.000000 0.000000 0.000000 0.000000 0.000000 156.000000 0.939180 0.177906 0.293752
-1.87000000 15.02999973 -0.15000001 41 11 229 0.000000 0.000000 0.000000 0.000000 0.000000 0.000000 156.000000 0.988152 -0.026154 0.151236
-1.96000004 15.07999992 -0.09000000 41 11 229 0.000000 0.000000 0.000000 0.000000 0.000000 0.000000 156.000000 0.780176 0.006904 0.625522
-1.88999999 15.10999966 -0.18000001 41 11 229 0.000000 0.000000 0.000000 0.000000 0.000000 0.000000 156.000000 0.855158 0.352307 0.380243
-1.92999995 15.14000034 -0.12000000 41 11 229 0.000000 0.000000 0.000000 0.000000 0.000000 0.000000 156.000000 0.687385 0.604567 0.402493
-1.91999996 15.00000000 -0.17000000 41 11 229 0.000000 0.000000 0.000000 0.000000 0.000000 0.000000 156.000000 0.873427 -0.097677 0.477058
-1.95000005 15.05000019 -0.17000000 41 11 229 0.000000 0.000000 0.000000 0.000000 0.000000 0.000000 156.000000 0.705048 -0.343568 0.620377
-2.04999995 15.17000008 0.04000000 41 11 229 0.000000 0.000000 0.000000 0.000000 0.000000 0.000000 156.000000 0.937920 0.337334 -0.080696
-2.13000011 15.19999981 0.07000000 41 11 229 0.000000 0.000000 0.000000 0.000000 0.000000 0.000000 156.000000 0.780287 0.573878 0.248628
-2.11999989 15.14999962 0.13000000 41 11 229 0.000000 0.000000 0.000000 0.000000 0.000000 0.000000 156.000000 0.941348 -0.031932 0.335922
-2.10999990 15.18000031 0.13000000 41 11 229 0.000000 0.000000 0.000000 0.000000 0.000000 0.000000 156.000000 0.918054 0.396403 -0.006456
-2.10999990 15.18999958 0.09000000 41 11 229 0.000000 0.000000 0.000000 0.000000 0.000000 0.000000 156.000000 0.828621 0.440353 0.345653
-2.13000011 15.17000008 0.10000000 41 11 229 0.000000 0.000000 0.000000 0.000000 0.000000 0.000000 156.000000 0.732987 0.667033 0.133407
-2.10999990 15.18999958 0.08000000 41 11 229 0.000000 0.000000 0.000000 0.000000 0.000000 0.000000 156.000000 0.740873 0.671632 0.004154
-2.07999992 15.18000031 -0.01000000 41 11 229 0.000000 0.000000 0.000000 0.000000 0.000000 0.000000 156.000000 0.524360 0.784134 0.331934
-2.07999992 15.18000031 0.01000000 41 11 229 0.000000 0.000000 0.000000 0.000000 0.000000 0.000000 156.000000 0.863634 0.380245 0.330983
-2.08999991 15.18999958 0.00000000 41 11 229 0.000000 0.000000 0.000000 0.000000 0.000000 0.000000 156.000000 0.474400 0.857513 -0.199039
-2.10999990 15.19999981 0.05000000 41 11 229 0.000000 0.000000 0.000000 0.000000 0.000000 0.000000 156.000000 0.531176 0.845116 0.060265
-2.09999990 15.19999981 -0.02000000 41 11 229 0.000000 0.000000 0.000000 0.000000 0.000000 0.000000 156.000000 0.472194 0.879686 -0.056443
-2.09999990 15.19999981 -0.02000000 41 11 229 0.000000 0.000000 0.000000 0.000000 0.000000 0.000000 156.000000 0.472194 0.879686 -0.056443
-2.10999990 15.21000004 0.01000000 41 11 229 0.000000 0.000000 0.000000 0.000000 0.000000 0.000000 156.000000 0.531594 0.801312 -0.274422
-2.13000011 15.18999958 0.01000000 41 11 229 0.000000 0.000000 0.000000 0.000000 0.000000 0.000000 156.000000 0.207320 0.970462 0.123375
-2.13000011 15.17000008 -0.05000000 41 11 229 0.000000 0.000000 0.000000 0.000000 0.000000 0.000000 156.000000 0.509457 0.858400 -0.060018
-2.09999990 15.18999958 -0.04000000 41 11 229 0.000000 0.000000 0.000000 0.000000 0.000000 0.000000 156.000000 0.474089 0.880452 -0.006640
-2.11999989 15.17000008 -0.06000000 41 11 229 0.000000 0.000000 0.000000 0.000000 0.000000 0.000000 156.000000 0.558612 0.813207 -0.163240
-2.04999995 15.13000011 0.10000000 41 11 229 0.000000 0.000000 0.000000 0.000000 0.000000 0.000000 156.000000 0.998643 0.011407 -0.050814
-2.00999999 15.11999989 -0.01000000 41 11 229 0.000000 0.000000 0.000000 0.000000 0.000000 0.000000 156.000000 0.827807 0.512598 0.227991
-2.02999997 15.06999969 0.02000000 41 11 229 0.000000 0.000000 0.000000 0.000000 0.000000 0.000000 156.000000 0.883521 -0.050526 0.465658
-2.02999997 15.06999969 0.02000000 41 11 229 0.000000 0.000000 0.000000 0.000000 0.000000 0.000000 156.000000 0.883521 -0.050526 0.465658
-2.02999997 15.09000015 -0.02000000 41 11 229 0.000000 0.000000 0.000000 0.000000 0.000000 0.000000 156.000000 0.977931 -0.204683 -0.041894
-2.07999992 15.10000038 0.11000000 41 11 229 0.000000 0.000000 0.000000 0.000000 0.000000 0.000000 156.000000 0.734290 0.009716 0.678767
-2.10999990 15.14000034 0.11000000 41 11 229 0.000000 0.000000 0.000000 0.000000 0.000000 0.000000 156.000000 0.894930 -0.055848 0.442698
-2.10999990 15.07999992 0.09000000 41 11 229 0.000000 0.000000 0.000000 0.000000 0.000000 0.000000 156.000000 0.980981 -0.031720 0.191497
-2.07999992 15.05000019 0.01000000 41 11 229 0.000000 0.000000 0.000000 0.000000 0.000000 0.000000 156.000000 -0.716412 0.571482 -0.400202
-1.99000001 15.10000038 -0.06000000 41 11 229 0.000000 0.000000 0.000000 0.000000 0.000000 0.000000 156.000000 0.874386 0.416876 0.248320
-2.01999998 15.10999966 -0.10000000 41 11 229 0.000000 0.000000 0.000000 0.000000 0.000000 0.000000 156.000000 0.897096 0.313909 0.310934
-2.01999998 15.07999992 -0.06000000 41 11 229 0.000000 0.000000 0.000000 0.000000 0.000000 0.000000 156.000000 0.923262 0.184652 0.336885
-2.01999998 15.07999992 -0.06000000 41 11 229 0.000000 0.000000 0.000000 0.000000 0.000000 0.000000 156.000000 0.923262 0.184652 0.336885
-2.00999999 15.09000015 -0.07000000 41 11 229 0.000000 0.000000 0.000000 0.000000 0.000000 0.000000 156.000000 0.781074 0.252010 0.571327
-2.00999999 15.10000038 -0.11000000 41 11 229 0.000000 0.000000 0.000000 0.000000 0.000000 0.000000 156.000000 0.997596 0.068328 -0.011563
-1.98000002 15.03999996 -0.05000000 41 11 229 0.000000 0.000000 0.000000 0.000000 0.000000 0.000000 156.000000 0.716413 -0.307494 0.626258
-2.00999999 15.06000042 -0.04000000 41 11 229 0.000000 0.000000 0.000000 0.000000 0.000000 0.000000 156.000000 0.751398 -0.179050 0.635092
-2.14000010 15.17000008 0.25999999 41 11 229 0.000000 0.000000 0.000000 0.000000 0.000000 0.000000 156.000000 0.993219 0.055116 0.102359
-2.14000010 15.19999981 0.18000001 41 11 229 0.000000 0.000000 0.000000 0.000000 0.000000 0.000000 156.000000 0.764671 0.643115 0.040990
-2.14000010 15.15999985 0.20000000 41 11 229 0.000000 0.000000 0.000000 0.000000 0.000000 0.000000 156.000000 0.820473 0.099846 0.562899
-2.15000010 15.14999962 0.22000000 41 11 229 0.000000 0.000000 0.000000 0.000000 0.000000 0.000000 156.000000 0.854666 -0.116742 0.505882
-2.16000009 15.14999962 0.23000000 41 11 229 0.000000 0.000000 0.000000 0.000000 0.000000 0.000000 156.000000 0.834192 0.020614 0.551089
-2.15000010 15.14999962 0.22000000 41 11 229 0.000000 0.000000 0.000000 0.000000 0.000000 0.000000 156.000000 0.854666 -0.116742 0.505882
-2.15000010 15.15999985 0.20999999 41 11 229 0.000000 0.000000 0.000000 0.000000 0.000000 0.000000 156.000000 0.990532 -0.012229 0.136740
-2.14000010 15.18999958 0.20999999 41 11 229 0.000000 0.000000 0.000000 0.000000 0.000000 0.000000 156.000000 0.877010 0.480426 0.006654
-2.15000010 15.18000031 0.17000000 41 11 229 0.000000 0.000000 0.000000 0.000000 0.000000 0.000000 156.000000 0.826949 0.352600 0.437983
-2.19000006 15.19999981 0.23000000 41 11 229 0.000000 0.000000 0.000000 0.000000 0.000000 0.000000 156.000000 0.608677 0.615422 0.500768
-2.19000006 15.21000004 0.15000001 41 11 229 0.000000 0.000000 0.000000 0.000000 0.000000 0.000000 156.000000 0.640219 0.744619 0.188842
-2.25000000 15.21000004 0.23999999 41 11 229 0.000000 0.000000 0.000000 0.000000 0.000000 0.000000 156.000000 0.127557 0.985881 0.108483
-2.25000000 15.22000027 0.23999999 41 11 229 0.000000 0.000000 0.000000 0.000000 0.000000 0.000000 156.000000 0.102223 0.991222 0.083846
-2.15000010 15.13000011 0.27000001 41 11 229 0.000000 0.000000 0.000000 0.000000 0.000000 0.000000 156.000000 0.890111 -0.386554 0.241411
-2.14000010 15.09000015 0.17000000 41 11 229 0.000000 0.000000 0.000000 0.000000 0.000000 0.000000 156.000000 0.774364 -0.148858 0.614981
-2.17000008 15.10000038 0.19000000 41 11 229 0.000000 0.000000 0.000000 0.000000 0.000000 0.000000 156.000000 0.713035 -0.473695 0.516909
-2.19000006 15.10000038 0.17000000 41 11 229 0.000000 0.000000 0.000000 0.000000 0.000000 0.000000 156.000000 0.917594 -0.249205 0.309706
-2.19000006 15.10000038 0.17000000 41 11 229 0.000000 0.000000 0.000000 0.000000 0.000000 0.000000 156.000000 0.917594 -0.249205 0.309706
-2.17000008 15.21000004 0.14000000 41 11 229 0.000000 0.000000 0.000000 0.000000 0.000000 0.000000 156.000000 0.613682 0.787392 -0.058378
-2.14000010 15.18000031 0.14000000 41 11 229 0.000000 0.000000 0.000000 0.000000 0.000000 0.000000 156.000000 0.628075 0.604501 0.490000
-2.14000010 15.18000031 -0.03000000 41 11 229 0.000000 0.000000 0.000000 0.000000 0.000000 0.000000 156.000000 0.030774 0.963851 -0.264659
-2.20000005 15.11999989 0.10000000 41 11 229 0.000000 0.000000 0.000000 0.000000 0.000000 0.000000 156.000000 0.815237 0.545010 0.195839
-1.36000001 15.35000038 -0.93000001 41 11 229 0.000000 0.000000 0.000000 0.000000 0.000000 0.000000 226.000000 0.871947 0.462994 -0.159200
-1.41999996 14.88000011 -0.41999999 41 11 229 0.000000 0.000000 0.000000 0.000000 0.000000 0.000000 156.000000 0.762049 -0.026665 0.646970
-1.38999999 14.89000034 -0.82999998 41 11 229 0.000000 0.000000 0.000000 0.000000 0.000000 0.000000 226.000000 0.927399 0.113364 0.356482
-1.38999999 14.89000034 -0.81999999 41 11 229 0.000000 0.000000 0.000000 0.000000 0.000000 0.000000 226.000000 0.846017 0.028888 0.532372
-1.40999997 14.89999962 -0.82999998 41 11 229 0.000000 0.000000 0.000000 0.000000 0.000000 0.000000 226.000000 0.973373 -0.212576 0.085776
-1.40999997 14.89999962 -0.82999998 41 11 229 0.000000 0.000000 0.000000 0.000000 0.000000 0.000000 226.000000 0.973373 -0.212576 0.085776
-1.38999999 14.85000038 -0.81999999 41 11 229 0.000000 0.000000 0.000000 0.000000 0.000000 0.000000 226.000000 0.841923 -0.057436 0.536533
-1.33000004 14.72000027 -0.83999997 41 11 229 0.000000 0.000000 0.000000 0.000000 0.000000 0.000000 226.000000 0.934461 -0.140922 0.326993
-1.66999996 15.53999996 -0.88000000 41 11 229 0.000000 0.000000 0.000000 0.000000 0.000000 0.000000 226.000000 0.407376 0.881902 -0.237263
-1.66999996 15.53999996 -0.88000000 41 11 229 0.000000 0.000000 0.000000 0.000000 0.000000 0.000000 226.000000 0.407376 0.881902 -0.237263
-1.73000002 15.61999989 -0.87000000 41 11 229 0.000000 0.000000 0.000000 0.000000 0.000000 0.000000 226.000000 0.318739 0.906277 -0.277611
-1.77999997 15.07999992 -0.40000001 41 11 229 0.000000 0.000000 0.000000 0.000000 0.000000 0.000000 156.000000 0.998642 -0.032417 0.040782
-1.50000000 15.14999962 -0.81999999 41 11 229 0.000000 0.000000 0.000000 0.000000 0.000000 0.000000 226.000000 0.606906 0.623718 0.492586
-1.52999997 15.01000023 -0.56999999 41 11 229 0.000000 0.000000 0.000000 0.000000 0.000000 0.000000 134.000000 0.986833 -0.157755 -0.035696
-1.47000003 15.07999992 -0.82999998 41 11 229 0.000000 0.000000 0.000000 0.000000 0.000000 0.000000 226.000000 0.848419 0.525879 0.060301
-1.58000004 15.13000011 -0.77999997 41 11 229 0.000000 0.000000 0.000000 0.000000 0.000000 0.000000 226.000000 0.638842 0.638842 0.428675
-1.54999995 15.10999966 -0.80000001 41 11 229 0.000000 0.000000 0.000000 0.000000 0.000000 0.000000 226.000000 0.722321 0.516418 0.459961
-1.78999996 15.06000042 -0.57999998 41 11 229 0.000000 0.000000 0.000000 0.000000 0.000000 0.000000 156.000000 0.859359 -0.189148 0.475105
-1.77999997 15.14000034 -0.75999999 41 11 229 0.000000 0.000000 0.000000 0.000000 0.000000 0.000000 156.000000 0.475631 0.868857 0.137340
-1.53999996 14.88000011 -0.37000000 41 11 229 0.000000 0.000000 0.000000 0.000000 0.000000 0.000000 156.000000 0.696974 -0.203349 0.687660
-1.55999994 14.73999977 -0.36000001 41 11 229 0.000000 0.000000 0.000000 0.000000 0.000000 0.000000 156.000000 0.672975 -0.334043 0.659939
-1.70000005 14.81999969 -0.34999999 41 11 229 0.000000 0.000000 0.000000 0.000000 0.000000 0.000000 156.000000 0.715574 -0.393154 0.577394
-1.63999999 14.68999958 -0.36000001 41 11 229 0.000000 0.000000 0.000000 0.000000 0.000000 0.000000 156.000000 -0.453072 0.620257 -0.640319
-1.64999998 14.68999958 -0.34999999 41 11 229 0.000000 0.000000 0.000000 0.000000 0.000000 0.000000 156.000000 0.373204 -0.662561 0.649408
-1.63999999 14.68999958 -0.36000001 41 11 229 0.000000 0.000000 0.000000 0.000000 0.000000 0.000000 156.000000 -0.453072 0.620257 -0.640319
-1.74000001 14.64000034 -0.33000001 41 11 229 0.000000 0.000000 0.000000 0.000000 0.000000 0.000000 156.000000 0.596050 -0.589296 0.545394
-1.77999997 14.68999958 -0.30000001 41 11 229 0.000000 0.000000 0.000000 0.000000 0.000000 0.000000 156.000000 -0.506322 0.640892 -0.576971
-1.45000005 14.93000031 -0.82999998 41 11 229 0.000000 0.000000 0.000000 0.000000 0.000000 0.000000 226.000000 0.955152 0.033800 0.294182
-1.45000005 14.94999981 -0.83999997 41 11 229 0.000000 0.000000 0.000000 0.000000 0.000000 0.000000 226.000000 0.852256 0.317083 0.416074
-1.92999995 15.17000008 -0.27000001 41 11 229 0.000000 0.000000 0.000000 0.000000 0.000000 0.000000 156.000000 0.864377 0.497332 -0.074250
-1.94000006 15.17000008 -0.25000000 41 11 229 0.000000 0.000000 0.000000 0.000000 0.000000 0.000000 156.000000 0.778284 0.463071 0.424075
-1.88000000 15.14999962 -0.36000001 41 11 229 0.000000 0.000000 0.000000 0.000000 0.000000 0.000000 156.000000 0.848034 0.229075 0.477873
-1.91999996 15.18000031 -0.44999999 41 11 229 0.000000 0.000000 0.000000 0.000000 0.000000 0.000000 156.000000 0.248571 0.933898 -0.256997
-1.94000006 15.18000031 -0.38000000 41 11 229 0.000000 0.000000 0.000000 0.000000 0.000000 0.000000 156.000000 0.370974 0.916936 0.146990
-1.92999995 15.17000008 -0.38999999 41 11 229 0.000000 0.000000 0.000000 0.000000 0.000000 0.000000 156.000000 0.290036 0.945652 -0.147041
-1.88000000 15.18000031 -0.46000001 41 11 229 0.000000 0.000000 0.000000 0.000000 0.000000 0.000000 156.000000 0.528454 0.843522 0.095952
-1.95000005 15.18000031 -0.50000000 41 11 229 0.000000 0.000000 0.000000 0.000000 0.000000 0.000000 156.000000 0.501457 0.865181 0.001337
-1.86000001 15.11999989 -0.27000001 41 11 229 0.000000 0.000000 0.000000 0.000000 0.000000 0.000000 156.000000 0.927610 0.369191 0.056900
-1.84000003 15.10999966 -0.25000000 41 11 229 0.000000 0.000000 0.000000 0.000000 0.000000 0.000000 156.000000 0.885819 0.456162 0.085094
-1.84000003 15.14000034 -0.25999999 41 11 229 0.000000 0.000000 0.000000 0.000000 0.000000 0.000000 156.000000 0.855128 0.515858 -0.051447
-1.84000003 15.07999992 -0.23000000 41 11 229 0.000000 0.000000 0.000000 0.000000 0.000000 0.000000 156.000000 0.815214 0.438716 0.378093
-1.87000000 15.09000015 -0.20000000 41 11 229 0.000000 0.000000 0.000000 0.000000 0.000000 0.000000 156.000000 0.980361 0.176149 0.088682
-1.87000000 15.09000015 -0.20000000 41 11 229 0.000000 0.000000 0.000000 0.000000 0.000000 0.000000 156.000000 0.980361 0.176149 0.088682
-1.86000001 15.11999989 -0.31999999 41 11 229 0.000000 0.000000 0.000000 0.000000 0.000000 0.000000 156.000000 0.979902 0.196924 -0.031838
-1.86000001 15.11999989 -0.31999999 41 11 229 0.000000 0.000000 0.000000 0.000000 0.000000 0.000000 156.000000 0.979902 0.196924 -0.031838
-1.86000001 15.10999966 -0.34000000 41 11 229 0.000000 0.000000 0.000000 0.000000 0.000000 0.000000 156.000000 0.983189 0.182412 0.008031
-1.85000002 15.10000038 -0.31999999 41 11 229 0.000000 0.000000 0.000000 0.000000 0.000000 0.000000 156.000000 0.860593 0.486549 0.150494
-1.85000002 15.05000019 -0.23999999 41 11 229 0.000000 0.000000 0.000000 0.000000 0.000000 0.000000 156.000000 0.724786 -0.038296 0.687909
-1.88000000 15.13000011 -0.23000000 41 11 229 0.000000 0.000000 0.000000 0.000000 0.000000 0.000000 156.000000 0.982208 0.184237 -0.036378
-1.88000000 15.09000015 -0.36000001 41 11 229 0.000000 0.000000 0.000000 0.000000 0.000000 0.000000 156.000000 0.977931 0.204683 0.041894
-1.88000000 15.09000015 -0.36000001 41 11 229 0.000000 0.000000 0.000000 0.000000 0.000000 0.000000 156.000000 0.977931 0.204683 0.041894
-1.90999997 15.02999973 -0.23999999 41 11 229 0.000000 0.000000 0.000000 0.000000 0.000000 0.000000 156.000000 0.949278 0.049828 0.310464
-1.90999997 15.02999973 -0.23999999 41 11 229 0.000000 0.000000 0.000000 0.000000 0.000000 0.000000 156.000000 0.949278 0.049828 0.310464
-1.89999998 14.98999977 -0.20999999 41 11 229 0.000000 0.000000 0.000000 0.000000 0.000000 0.000000 156.000000 0.825207 -0.384886 0.413396
-1.91999996 14.97999954 -0.23999999 41 11 229 0.000000 0.000000 0.000000 0.000000 0.000000 0.000000 156.000000 0.867987 -0.200992 0.454093
-1.88000000 15.02000046 -0.30000001 41 11 229 0.000000 0.000000 0.000000 0.000000 0.000000 0.000000 156.000000 0.702419 -0.095318 0.705352
-1.88999999 15.01000023 -0.28999999 41 11 229 0.000000 0.000000 0.000000 0.000000 0.000000 0.000000 156.000000 0.759867 -0.448043 0.471019
-1.86000001 15.13000011 -0.38000000 41 11 229 0.000000 0.000000 0.000000 0.000000 0.000000 0.000000 156.000000 0.903354 0.428733 -0.011800
-1.86000001 15.14000034 -0.41999999 41 11 229 0.000000 0.000000 0.000000 0.000000 0.000000 0.000000 156.000000 0.953590 0.293906 -0.065455
-1.86000001 15.14000034 -0.41999999 41 11 229 0.000000 0.000000 0.000000 0.000000 0.000000 0.000000 156.000000 0.953590 0.293906 -0.065455
-1.84000003 15.11999989 -0.41000000 41 11 229 0.000000 0.000000 0.000000 0.000000 0.000000 0.000000 156.000000 0.680586 0.693161 0.237341
-1.84000003 15.10000038 -0.37000000 41 11 229 0.000000 0.000000 0.000000 0.000000 0.000000 0.000000 156.000000 0.730769 0.542716 0.414048
-1.87000000 15.06999969 -0.38000000 41 11 229 0.000000 0.000000 0.000000 0.000000 0.000000 0.000000 156.000000 -0.874641 0.292558 -0.386540
-1.87000000 15.06999969 -0.37000000 41 11 229 0.000000 0.000000 0.000000 0.000000 0.000000 0.000000 156.000000 0.906706 -0.025076 0.421018
-1.87000000 15.07999992 -0.44999999 41 11 229 0.000000 0.000000 0.000000 0.000000 0.000000 0.000000 156.000000 0.932567 0.188186 0.308068
-1.84000003 15.10000038 -0.41999999 41 11 229 0.000000 0.000000 0.000000 0.000000 0.000000 0.000000 156.000000 0.784424 0.151485 0.601441
-1.85000002 15.13000011 -0.46000001 41 11 229 0.000000 0.000000 0.000000 0.000000 0.000000 0.000000 156.000000 0.931125 0.357308 0.073055
-1.83000004 15.03999996 -0.38999999 41 11 229 0.000000 0.000000 0.000000 0.000000 0.000000 0.000000 156.000000 0.944972 0.250987 0.209841
-1.88000000 15.14000034 -0.46000001 41 11 229 0.000000 0.000000 0.000000 0.000000 0.000000 0.000000 156.000000 0.743007 0.664489 0.079971
-1.88999999 15.05000019 -0.43000001 41 11 229 0.000000 0.000000 0.000000 0.000000 0.000000 0.000000 156.000000 0.873952 -0.361477 0.324872
-1.89999998 15.03999996 -0.50999999 41 11 229 0.000000 0.000000 0.000000 0.000000 0.000000 0.000000 156.000000 0.935531 0.281079 0.213955
-1.89999998 15.05000019 -0.50000000 41 11 229 0.000000 0.000000 0.000000 0.000000 0.000000 0.000000 156.000000 0.966463 -0.224610 0.124498
-2.02999997 15.27000046 -0.23999999 41 11 229 0.000000 0.000000 0.000000 0.000000 0.000000 0.000000 95.000000 0.430214 0.900036 0.069654
-1.99000001 15.22000027 -0.22000000 41 11 229 0.000000 0.000000 0.000000 0.000000 0.000000 0.000000 156.000000 0.495063 0.857232 -0.141655
-2.01999998 15.18000031 -0.20000000 41 11 229 0.000000 0.000000 0.000000 0.000000 0.000000 0.000000 156.000000 0.346268 0.900296 -0.263753
-1.98000002 15.18000031 -0.28000000 41 11 229 0.000000 0.000000 0.000000 0.000000 0.000000 0.000000 156.000000 0.822505 0.568151 0.026265
-2.00999999 15.22000027 -0.23000000 41 11 229 0.000000 0.000000 0.000000 0.000000 0.000000 0.000000 156.000000 0.662255 0.724004 0.192965
-1.97000003 15.17000008 -0.28000000 41 11 229 0.000000 0.000000 0.000000 0.000000 0.000000 0.000000 156.000000 0.790936 0.592826 0.151583
-1.97000003 15.17000008 -0.28999999 41 11 229 0.000000 0.000000 0.000000 0.000000 0.000000 0.000000 156.000000 0.723234 0.657910 0.209971
-2.05999994 15.27000046 -0.28000000 41 11 229 0.000000 0.000000 0.000000 0.000000 0.000000 0.000000 95.000000 0.437124 0.892521 -0.111038
-2.09999990 15.30000019 -0.28000000 41 11 229 0.000000 0.000000 0.000000 0.000000 0.000000 0.000000 95.000000 0.119422 0.923807 -0.363757
-1.97000003 15.06000042 -0.43000001 41 11 229 0.000000 0.000000 0.000000 0.000000 0.000000 0.000000 156.000000 0.947462 0.241992 0.209180
-1.87000000 15.17000008 -0.61000001 41 11 229 0.000000 0.000000 0.000000 0.000000 0.000000 0.000000 156.000000 0.565445 0.808421 0.163484
-1.88999999 15.18000031 -0.57999998 41 11 229 0.000000 0.000000 0.000000 0.000000 0.000000 0.000000 156.000000 0.278513 0.959042 -0.051670
-1.91999996 15.18000031 -0.54000002 41 11 229 0.000000 0.000000 0.000000 0.000000 0.000000 0.000000 156.000000 0.529877 0.848073 -0.001348
-1.90999997 15.18000031 -0.55000001 41 11 229 0.000000 0.000000 0.000000 0.000000 0.000000 0.000000 156.000000 0.147408 0.932664 -0.329256
-1.91999996 15.18999958 -0.58999997 41 11 229 0.000000 0.000000 0.000000 0.000000 0.000000 0.000000 156.000000 0.517439 0.850995 0.089803
-1.89999998 15.18000031 -0.58999997 41 11 229 0.000000 0.000000 0.000000 0.000000 0.000000 0.000000 156.000000 0.329165 0.939520 -0.094618
-1.88000000 15.18000031 -0.60000002 41 11 229 0.000000 0.000000 0.000000 0.000000 0.000000 0.000000 156.000000 0.524460 0.836462 0.158972
-1.90999997 15.18000031 -0.62000000 41 11 229 0.000000 0.000000 0.000000 0.000000 0.000000 0.000000 156.000000 0.438103 0.898706 -0.019854
-1.91999996 15.18999958 -0.58999997 41 11 229 0.000000 0.000000 0.000000 0.000000 0.000000 0.000000 156.000000 0.517439 0.850995 0.089803
-1.88999999 15.19999981 -0.68000001 41 11 229 0.000000 0.000000 0.000000 0.000000 0.000000 0.000000 156.000000 0.091814 0.938095 -0.333988
-1.88999999 15.19999981 -0.69000000 41 11 229 0.000000 0.000000 0.000000 0.000000 0.000000 0.000000 156.000000 0.108300 0.919863 -0.376993
-1.88000000 15.15999985 -0.70999998 41 11 229 0.000000 0.000000 0.000000 0.000000 0.000000 0.000000 156.000000 0.139243 0.927829 -0.346040
-1.94000006 15.21000004 -0.68000001 41 11 229 0.000000 0.000000 0.000000 0.000000 0.000000 0.000000 156.000000 0.138238 0.934818 -0.327118
-1.84000003 15.17000008 -0.76999998 41 11 229 0.000000 0.000000 0.000000 0.000000 0.000000 0.000000 156.000000 0.534835 0.812271 0.232738
-1.84000003 15.14999962 -0.75999999 41 11 229 0.000000 0.000000 0.000000 0.000000 0.000000 0.000000 156.000000 0.328570 0.879719 -0.343711
-1.84000003 15.17000008 -0.79000002 41 11 229 0.000000 0.000000 0.000000 0.000000 0.000000 0.000000 156.000000 0.352994 0.872551 0.337712
-1.84000003 15.14999962 -0.75999999 41 11 229 0.000000 0.000000 0.000000 0.000000 0.000000 0.000000 156.000000 0.328570 0.879719 -0.343711
-1.83000004 15.14999962 -0.80000001 41 11 229 0.000000 0.000000 0.000000 0.000000 0.000000 0.000000 156.000000 0.398010 0.898778 0.183808
-1.89999998 15.19999981 -0.74000001 41 11 229 0.000000 0.000000 0.000000 0.000000 0.000000 0.000000 156.000000 0.142732 0.880902 -0.451264
-1.88000000 15.19999981 -0.79000002 41 11 229 0.000000 0.000000 0.000000 0.000000 0.000000 0.000000 156.000000 0.261721 0.961346 -0.085538
-1.89999998 15.19999981 -0.76999998 41 11 229 0.000000 0.000000 0.000000 0.000000 0.000000 0.000000 156.000000 0.083297 0.981458 0.172630
-1.96000004 15.21000004 -0.79000002 41 11 229 0.000000 0.000000 0.000000 0.000000 0.000000 0.000000 156.000000 -0.048692 0.850027 -0.524484
-1.83000004 15.10999966 -0.56999999 41 11 229 0.000000 0.000000 0.000000 0.000000 0.000000 0.000000 156.000000 0.755666 0.647085 0.101245
-1.82000005 15.06999969 -0.54000002 41 11 229 0.000000 0.000000 0.000000 0.000000 0.000000 0.000000 156.000000 0.771618 0.204841 0.602201
-1.83000004 15.07999992 -0.58999997 41 11 229 0.000000 0.000000 0.000000 0.000000 0.000000 0.000000 156.000000 0.955540 0.001223 0.294859
-1.84000003 15.14000034 -0.56999999 41 11 229 0.000000 0.000000 0.000000 0.000000 0.000000 0.000000 156.000000 0.636723 0.757143 0.146010
-1.84000003 15.11999989 -0.56000000 41 11 229 0.000000 0.000000 0.000000 0.000000 0.000000 0.000000 156.000000 0.926130 0.374393 0.045978
-1.86000001 15.06999969 -0.56000000 41 11 229 0.000000 0.000000 0.000000 0.000000 0.000000 0.000000 156.000000 0.938434 -0.034757 0.343706
-1.89999998 15.06999969 -0.70999998 41 11 229 0.000000 0.000000 0.000000 0.000000 0.000000 0.000000 156.000000 -0.292506 0.886517 -0.358507
-1.91999996 15.06000042 -0.63000000 41 11 229 0.000000 0.000000 0.000000 0.000000 0.000000 0.000000 156.000000 0.266592 0.910492 -0.316123
-1.87000000 15.10999966 -0.79000002 41 11 229 0.000000 0.000000 0.000000 0.000000 0.000000 0.000000 156.000000 -0.254273 0.874157 -0.413758
-1.79999995 15.14000034 -0.83999997 41 11 229 0.000000 0.000000 0.000000 0.000000 0.000000 0.000000 156.000000 0.249833 0.894373 -0.371054
