//X Y Z R G B PointSourceId ScanDirectionFlag NumberOfReturns ReturnNumber GpsTime Intensity Classification Nx Ny Nz
8.71000004 5.65999985 -0.67000002 105 16 195 97.000000 1.000000 4.000000 1.000000 176.000000 114.000000 6.000000 0.825872 -0.009556 -0.563777
8.68999958 5.63000011 -0.63999999 105 16 195 97.000000 1.000000 4.000000 1.000000 176.000000 114.000000 6.000000 0.974806 0.186932 -0.121694
8.68999958 5.63999987 -0.63999999 105 16 195 97.000000 1.000000 4.000000 1.000000 176.000000 114.000000 6.000000 0.796442 0.296093 -0.527267
8.68999958 5.63999987 -0.63000000 105 16 195 97.000000 1.000000 4.000000 1.000000 176.000000 114.000000 6.000000 0.821091 0.363694 -0.439927
8.68999958 5.63000011 -0.63999999 105 16 195 97.000000 1.000000 4.000000 1.000000 176.000000 114.000000 6.000000 0.974806 0.186932 -0.121694
8.68999958 5.61999989 -0.63000000 105 16 195 97.000000 1.000000 4.000000 1.000000 176.000000 114.000000 6.000000 0.864328 -0.411512 -0.289129
8.69999981 5.63000011 -0.70999998 105 16 195 97.000000 1.000000 4.000000 1.000000 176.000000 114.000000 6.000000 0.903471 -0.052669 -0.425401
8.77000046 5.55999994 -0.56000000 105 16 195 97.000000 1.000000 4.000000 1.000000 176.000000 114.000000 6.000000 0.956424 -0.270095 -0.110909
8.77000046 5.55999994 -0.55000001 105 16 195 97.000000 1.000000 4.000000 1.000000 176.000000 114.000000 6.000000 0.953111 -0.260668 0.153728
8.71000004 5.61000013 -0.56999999 105 16 195 97.000000 1.000000 4.000000 1.000000 176.000000 114.000000 6.000000 0.820182 -0.469352 -0.327124
8.69999981 5.59000015 -0.57999998 105 16 195 97.000000 1.000000 4.000000 1.000000 176.000000 114.000000 6.000000 0.888514 -0.458286 0.022714
8.69999981 5.59999990 -0.56000000 105 16 195 97.000000 1.000000 4.000000 1.000000 176.000000 114.000000 6.000000 0.916118 -0.376238 0.138467
8.72000027 5.61000013 -0.56999999 105 16 195 97.000000 1.000000 4.000000 1.000000 176.000000 114.000000 6.000000 0.927106 -0.338777 -0.160327
8.69999981 5.59000015 -0.58999997 105 16 195 97.000000 1.000000 4.000000 1.000000 176.000000 114.000000 6.000000 0.947783 -0.316776 0.036894
8.69999981 5.53000021 -0.57999998 105 16 195 97.000000 1.000000 4.000000 1.000000 176.000000 114.000000 6.000000 0.760153 -0.599624 0.250237
8.68999958 5.55000019 -0.62000000 105 16 195 97.000000 1.000000 4.000000 1.000000 176.000000 114.000000 6.000000 0.911527 -0.408246 0.049525
8.71000004 5.53000021 -0.58999997 105 16 195 97.000000 1.000000 4.000000 1.000000 176.000000 114.000000 6.000000 0.739501 -0.670576 -0.058873
8.75000000 5.59999990 -0.69000000 105 16 195 97.000000 1.000000 4.000000 1.000000 176.000000 114.000000 6.000000 0.892290 -0.041847 -0.449520
8.75000000 5.53000021 -0.69999999 105 16 195 97.000000 1.000000 4.000000 1.000000 176.000000 114.000000 6.000000 0.873778 -0.484213 0.045266
8.73999977 5.53000021 -0.70999998 105 16 195 97.000000 1.000000 4.000000 1.000000 176.000000 114.000000 6.000000 0.875892 -0.184011 -0.446042
8.69999981 5.57000017 -0.63000000 105 16 195 97.000000 1.000000 4.000000 1.000000 176.000000 114.000000 6.000000 0.974273 0.067573 0.215003
8.82999992 5.63000011 -0.74000001 105 16 195 97.000000 1.000000 4.000000 1.000000 176.000000 114.000000 6.000000 0.817129 -0.072729 -0.571848
8.77999973 5.59000015 -0.76999998 105 16 195 97.000000 1.000000 4.000000 1.000000 176.000000 114.000000 6.000000 0.838872 0.130296 -0.528504
8.77999973 5.59999990 -0.77999997 105 16 195 97.000000 1.000000 4.000000 1.000000 176.000000 114.000000 6.000000 0.868304 -0.121993 -0.480797
8.81000042 5.53000021 -0.87000000 105 16 195 97.000000 1.000000 4.000000 1.000000 176.000000 114.000000 6.000000 0.783401 0.194700 -0.590233
8.76000023 5.61999989 -0.75000000 105 16 195 97.000000 1.000000 4.000000 1.000000 176.000000 114.000000 6.000000 -0.655337 -0.403157 0.638747
8.68999958 5.63000011 -0.75000000 105 16 195 97.000000 1.000000 4.000000 1.000000 176.000000 114.000000 6.000000 0.771039 0.405896 -0.490661
8.69999981 5.65000010 -0.75000000 105 16 195 97.000000 1.000000 4.000000 1.000000 176.000000 114.000000 6.000000 0.769792 0.073657 -0.634031
8.68999958 5.67999983 -0.85000002 105 16 195 97.000000 1.000000 4.000000 1.000000 176.000000 114.000000 6.000000 0.718343 0.539172 -0.439633
8.69999981 5.63000011 -0.81000000 105 16 195 97.000000 1.000000 4.000000 1.000000 176.000000 114.000000 6.000000 0.747495 0.520782 -0.412355
8.69999981 5.63999987 -0.81999999 105 16 195 97.000000 1.000000 4.000000 1.000000 176.000000 114.000000 6.000000 0.885319 0.327282 -0.330298
8.71000004 5.63000011 -0.80000001 105 16 195 97.000000 1.000000 4.000000 1.000000 176.000000 114.000000 6.000000 0.713253 0.206673 -0.669743
8.72999954 5.59000015 -0.72000003 105 16 195 97.000000 1.000000 4.000000 1.000000 176.000000 114.000000 6.000000 0.945180 0.082589 -0.315934
8.71000004 5.59999990 -0.75000000 105 16 195 97.000000 1.000000 4.000000 1.000000 176.000000 114.000000 6.000000 0.774681 0.026617 -0.631792
8.68999958 5.61000013 -0.74000001 105 16 195 97.000000 1.000000 4.000000 1.000000 176.000000 114.000000 6.000000 0.975344 0.214454 -0.052099
8.68999958 5.59000015 -0.76999998 105 16 195 97.000000 1.000000 4.000000 1.000000 176.000000 114.000000 6.000000 0.969838 0.065815 -0.234698
8.73999977 5.59000015 -0.80000001 105 16 195 97.000000 1.000000 4.000000 1.000000 176.000000 114.000000 6.000000 0.805595 0.246801 -0.538615
8.76000023 5.57999992 -0.88000000 105 16 195 97.000000 1.000000 4.000000 1.000000 176.000000 114.000000 6.000000 -0.651028 -0.092168 0.753437
8.69999981 5.61000013 -0.81999999 105 16 195 97.000000 1.000000 4.000000 1.000000 176.000000 114.000000 6.000000 0.652124 0.461013 -0.601832
8.81000042 5.40000010 -0.64999998 105 16 195 97.000000 1.000000 4.000000 1.000000 176.000000 114.000000 6.000000 0.664472 -0.513073 0.543353
8.75000000 5.48000002 -0.56999999 105 16 195 97.000000 1.000000 4.000000 1.000000 176.000000 114.000000 6.000000 0.625770 -0.665607 0.406668
8.72999954 5.50000000 -0.57999998 105 16 195 97.000000 1.000000 4.000000 1.000000 176.000000 114.000000 6.000000 -0.546125 0.751533 -0.370061
8.77000046 5.51000023 -0.63999999 105 16 195 97.000000 1.000000 4.000000 1.000000 176.000000 114.000000 6.000000 0.842695 -0.420566 0.336140
8.82999992 5.44999981 -0.77999997 105 16 195 97.000000 1.000000 4.000000 1.000000 176.000000 114.000000 6.000000 0.979150 0.202381 -0.017547
8.85999966 5.46999979 -0.88000000 105 16 195 97.000000 1.000000 4.000000 1.000000 176.000000 114.000000 6.000000 0.890490 0.368427 -0.266998
8.85999966 5.46999979 -0.88000000 105 16 195 97.000000 1.000000 4.000000 1.000000 176.000000 114.000000 6.000000 0.890490 0.368427 -0.266998
8.77999973 5.51000023 -0.80000001 105 16 195 97.000000 1.000000 4.000000 1.000000 176.000000 114.000000 6.000000 0.895875 0.334282 -0.292682
8.73999977 5.48000002 -0.75999999 105 16 195 97.000000 1.000000 4.000000 1.000000 176.000000 114.000000 6.000000 0.935854 -0.003789 -0.352366
8.76000023 5.46000004 -0.87000000 105 16 195 97.000000 1.000000 4.000000 1.000000 176.000000 114.000000 6.000000 0.946072 0.152942 -0.285581
8.77000046 5.48000002 -0.88000000 105 16 195 97.000000 1.000000 4.000000 1.000000 176.000000 114.000000 6.000000 0.809726 -0.180107 -0.558484
8.76000023 5.46999979 -0.86000001 105 16 195 97.000000 1.000000 4.000000 1.000000 176.000000 114.000000 6.000000 0.886278 0.251733 -0.388771
8.76000023 5.46999979 -0.86000001 105 16 195 97.000000 1.000000 4.000000 1.000000 176.000000 114.000000 6.000000 0.886278 0.251733 -0.388771
8.71000004 5.51999998 -0.85000002 105 16 195 97.000000 1.000000 4.000000 1.000000 176.000000 114.000000 6.000000 0.918881 -0.182644 -0.349713
8.68000031 5.69000006 -0.55000001 105 16 195 97.000000 1.000000 4.000000 1.000000 176.000000 114.000000 6.000000 0.837228 0.347143 -0.422541
8.64999962 5.69000006 -0.55000001 105 16 195 97.000000 1.000000 4.000000 1.000000 176.000000 114.000000 6.000000 0.966118 -0.023148 -0.257063
8.64999962 5.67000008 -0.55000001 105 16 195 97.000000 1.000000 4.000000 1.000000 176.000000 114.000000 6.000000 0.968545 0.236811 0.076431
8.64999962 5.63000011 -0.56000000 105 16 195 97.000000 1.000000 4.000000 1.000000 176.000000 114.000000 6.000000 0.992858 -0.007646 -0.119056
8.64999962 5.63999987 -0.57999998 105 16 195 97.000000 1.000000 4.000000 1.000000 176.000000 114.000000 6.000000 0.953008 -0.109103 -0.282616
8.68000031 5.65000010 -0.56999999 105 16 195 97.000000 1.000000 4.000000 1.000000 176.000000 114.000000 6.000000 0.976790 0.205065 -0.061884
8.65999985 5.63999987 -0.55000001 105 16 195 97.000000 1.000000 4.000000 1.000000 176.000000 114.000000 6.000000 0.945667 -0.127430 -0.299126
8.68000031 5.65000010 -0.56999999 105 16 195 97.000000 1.000000 4.000000 1.000000 176.000000 114.000000 6.000000 0.976790 0.205065 -0.061884
8.65999985 5.65000010 -0.55000001 105 16 195 97.000000 1.000000 4.000000 1.000000 176.000000 114.000000 6.000000 0.938376 -0.094772 -0.332369
8.67000008 5.63000011 -0.61000001 105 16 195 97.000000 1.000000 4.000000 1.000000 176.000000 114.000000 6.000000 0.917072 -0.183414 -0.354032
8.67000008 5.63000011 -0.61000001 105 16 195 97.000000 1.000000 4.000000 1.000000 176.000000 114.000000 6.000000 0.917072 -0.183414 -0.354032
8.64000034 5.67999983 -0.56999999 105 16 195 97.000000 1.000000 4.000000 1.000000 176.000000 114.000000 6.000000 0.689126 0.401577 -0.603192
8.63000011 5.67999983 -0.58999997 105 16 195 97.000000 1.000000 4.000000 1.000000 176.000000 114.000000 6.000000 0.471103 0.632050 -0.615284
8.64000034 5.65999985 -0.58999997 105 16 195 97.000000 1.000000 4.000000 1.000000 176.000000 114.000000 6.000000 0.879264 -0.170603 -0.444735
8.60999966 5.63000011 -0.58999997 105 16 195 97.000000 1.000000 4.000000 1.000000 176.000000 114.000000 6.000000 0.931826 -0.345874 -0.109866
8.68000031 5.65999985 -0.69000000 105 16 195 97.000000 1.000000 4.000000 1.000000 176.000000 114.000000 6.000000 0.848438 0.154932 -0.506112
8.68000031 5.65000010 -0.63999999 105 16 195 97.000000 1.000000 4.000000 1.000000 176.000000 114.000000 6.000000 0.837539 0.439904 -0.324057
8.68000031 5.65000010 -0.63999999 105 16 195 97.000000 1.000000 4.000000 1.000000 176.000000 114.000000 6.000000 0.837539 0.439904 -0.324057
8.68000031 5.65000010 -0.63999999 105 16 195 97.000000 1.000000 4.000000 1.000000 176.000000 114.000000 6.000000 0.837539 0.439904 -0.324057
8.60999966 5.65999985 -0.70999998 105 16 195 97.000000 1.000000 4.000000 1.000000 176.000000 114.000000 6.000000 0.275879 0.890269 -0.362371
8.65999985 5.57999992 -0.56000000 105 16 195 97.000000 1.000000 4.000000 1.000000 176.000000 114.000000 6.000000 0.936328 -0.312109 0.160867
8.64999962 5.61000013 -0.62000000 105 16 195 97.000000 1.000000 4.000000 1.000000 176.000000 114.000000 6.000000 0.935758 -0.143857 -0.321966
8.65999985 5.59000015 -0.66000003 105 16 195 97.000000 1.000000 4.000000 1.000000 176.000000 114.000000 6.000000 0.906863 0.393116 -0.151853
8.65999985 5.61000013 -0.64999998 105 16 195 97.000000 1.000000 4.000000 1.000000 176.000000 114.000000 6.000000 0.837491 -0.313474 -0.447597
8.68000031 5.59999990 -0.66000003 105 16 195 97.000000 1.000000 4.000000 1.000000 176.000000 114.000000 6.000000 0.853526 -0.209242 -0.477192
8.67000008 5.61000013 -0.63000000 105 16 195 97.000000 1.000000 4.000000 1.000000 176.000000 114.000000 6.000000 0.927198 0.222244 -0.301516
8.67000008 5.59000015 -0.63000000 105 16 195 97.000000 1.000000 4.000000 1.000000 176.000000 114.000000 6.000000 0.985147 -0.099353 -0.140051
8.67000008 5.59999990 -0.63999999 105 16 195 97.000000 1.000000 4.000000 1.000000 176.000000 114.000000 6.000000 0.929333 -0.110214 -0.352412
8.64999962 5.57999992 -0.69999999 105 16 195 97.000000 1.000000 4.000000 1.000000 176.000000 114.000000 6.000000 0.925595 -0.223223 -0.305688
8.64000034 5.59999990 -0.70999998 105 16 195 97.000000 1.000000 4.000000 1.000000 176.000000 114.000000 6.000000 0.967155 0.071317 -0.243978
8.56999969 5.67000008 -0.57999998 105 16 195 97.000000 1.000000 4.000000 1.000000 176.000000 114.000000 6.000000 0.578940 -0.609322 0.541807
8.56000042 5.65999985 -0.57999998 105 16 195 97.000000 1.000000 4.000000 1.000000 176.000000 114.000000 6.000000 0.829301 -0.318238 0.459329
8.59000015 5.65999985 -0.57999998 105 16 195 97.000000 1.000000 4.000000 1.000000 176.000000 114.000000 6.000000 0.757442 0.274712 -0.592297
8.57999992 5.65000010 -0.55000001 105 16 195 97.000000 1.000000 4.000000 1.000000 176.000000 114.000000 6.000000 0.510374 0.611438 -0.604700
8.59000015 5.63999987 -0.58999997 105 16 195 97.000000 1.000000 4.000000 1.000000 176.000000 114.000000 6.000000 0.921833 0.285295 -0.262357
8.52000046 5.67999983 -0.54000002 105 16 195 97.000000 1.000000 4.000000 1.000000 176.000000 114.000000 6.000000 0.962413 -0.139348 -0.233115
8.59000015 5.69000006 -0.66000003 105 16 195 97.000000 1.000000 4.000000 1.000000 176.000000 114.000000 6.000000 -0.390864 -0.588770 0.707513
8.57999992 5.67000008 -0.69999999 105 16 195 97.000000 1.000000 4.000000 1.000000 176.000000 114.000000 6.000000 0.248100 0.922128 -0.296859
8.60000038 5.67000008 -0.67000002 105 16 195 97.000000 1.000000 4.000000 1.000000 176.000000 114.000000 6.000000 0.124991 0.869193 -0.478415
8.52999973 5.67000008 -0.66000003 105 16 195 97.000000 1.000000 4.000000 1.000000 176.000000 114.000000 6.000000 -0.209630 0.846060 -0.490141
8.55000019 5.69000006 -0.66000003 105 16 195 97.000000 1.000000 4.000000 1.000000 176.000000 114.000000 6.000000 -0.146975 0.868751 -0.472938
8.55000019 5.65000010 -0.69999999 105 16 195 97.000000 1.000000 4.000000 1.000000 176.000000 114.000000 6.000000 0.175695 -0.658474 0.731808
8.57999992 5.55999994 -0.60000002 105 16 195 97.000000 1.000000 4.000000 1.000000 176.000000 114.000000 6.000000 0.109926 0.866560 -0.486816
8.65999985 5.65000010 -0.74000001 105 16 195 97.000000 1.000000 4.000000 1.000000 176.000000 114.000000 6.000000 0.804239 0.547994 -0.230003
8.68000031 5.65000010 -0.76999998 105 16 195 97.000000 1.000000 4.000000 1.000000 176.000000 114.000000 6.000000 0.629166 0.406717 -0.662368
8.67000008 5.61999989 -0.75999999 105 16 195 97.000000 1.000000 4.000000 1.000000 176.000000 114.000000 6.000000 0.859392 0.457638 -0.228064
8.65999985 5.63000011 -0.75999999 105 16 195 97.000000 1.000000 4.000000 1.000000 176.000000 114.000000 6.000000 0.713035 0.516909 -0.473695
8.65999985 5.61999989 -0.76999998 105 16 195 97.000000 1.000000 4.000000 1.000000 176.000000 114.000000 6.000000 0.629275 0.511181 -0.585412
8.67000008 5.67999983 -0.86000001 105 16 195 97.000000 1.000000 4.000000 1.000000 176.000000 114.000000 6.000000 -0.361243 -0.398775 0.842901
8.64000034 5.69000006 -0.88000000 105 16 195 97.000000 1.000000 4.000000 1.000000 176.000000 114.000000 6.000000 0.431403 0.752905 -0.497016
8.60999966 5.61999989 -0.81999999 105 16 195 97.000000 1.000000 4.000000 1.000000 176.000000 114.000000 6.000000 0.135192 0.856218 -0.498612
8.68000031 5.59999990 -0.76999998 105 16 195 97.000000 1.000000 4.000000 1.000000 176.000000 114.000000 6.000000 0.564691 0.645602 -0.514122
8.68000031 5.55999994 -0.73000002 105 16 195 97.000000 1.000000 4.000000 1.000000 176.000000 114.000000 6.000000 0.968951 -0.048017 -0.242546
8.67000008 5.59999990 -0.81000000 105 16 195 97.000000 1.000000 4.000000 1.000000 176.000000 114.000000 6.000000 0.632348 0.474681 -0.612220
8.68000031 5.55999994 -0.88000000 105 16 195 97.000000 1.000000 4.000000 1.000000 176.000000 114.000000 6.000000 0.955593 0.241231 -0.169261
8.61999989 5.59999990 -0.85000002 105 16 195 97.000000 1.000000 4.000000 1.000000 176.000000 114.000000 6.000000 0.464636 0.788423 -0.403116
8.59000015 5.65999985 -0.72000003 105 16 195 97.000000 1.000000 4.000000 1.000000 176.000000 114.000000 6.000000 0.314671 0.908887 -0.273691
8.60000038 5.69000006 -0.73000002 105 16 195 97.000000 1.000000 4.000000 1.000000 176.000000 114.000000 6.000000 0.413511 0.853351 -0.317490
8.56000042 5.67000008 -0.75999999 105 16 195 97.000000 1.000000 4.000000 1.000000 176.000000 114.000000 6.000000 0.177636 -0.512009 0.840412
8.60000038 5.63000011 -0.75000000 105 16 195 97.000000 1.000000 4.000000 1.000000 176.000000 114.000000 6.000000 0.544365 0.652226 -0.527511
8.56000042 5.63000011 -0.75000000 105 16 195 97.000000 1.000000 4.000000 1.000000 176.000000 114.000000 6.000000 -0.296838 0.837673 -0.458467
8.56000042 5.61999989 -0.76999998 105 16 195 97.000000 1.000000 4.000000 1.000000 176.000000 114.000000 6.000000 0.321341 0.741184 -0.589395
8.56000042 5.63999987 -0.79000002 105 16 195 97.000000 1.000000 4.000000 1.000000 176.000000 114.000000 6.000000 -0.076783 0.760583 -0.644685
8.60000038 5.63000011 -0.75999999 105 16 195 97.000000 1.000000 4.000000 1.000000 176.000000 114.000000 6.000000 0.449332 0.745595 -0.492126
8.53999996 5.61999989 -0.72000003 105 16 195 97.000000 1.000000 4.000000 1.000000 176.000000 114.000000 6.000000 0.085862 0.766933 -0.635957
8.55000019 5.63999987 -0.74000001 105 16 195 97.000000 1.000000 4.000000 1.000000 176.000000 114.000000 6.000000 0.141417 0.796404 -0.587999
8.56999969 5.65000010 -0.85000002 105 16 195 97.000000 1.000000 4.000000 1.000000 176.000000 114.000000 6.000000 0.140426 -0.545446 0.826299
8.53999996 5.65999985 -0.81000000 105 16 195 97.000000 1.000000 4.000000 1.000000 176.000000 114.000000 6.000000 -0.261148 0.732798 -0.628338
8.52999973 5.69000006 -0.86000001 105 16 195 97.000000 1.000000 4.000000 1.000000 176.000000 114.000000 6.000000 0.172211 -0.647695 0.742182
8.52999973 5.67999983 -0.85000002 105 16 195 97.000000 1.000000 4.000000 1.000000 176.000000 114.000000 6.000000 0.006820 0.822468 -0.568771
8.52000046 5.61999989 -0.81000000 105 16 195 97.000000 1.000000 4.000000 1.000000 176.000000 114.000000 6.000000 -0.357853 0.769141 -0.529493
8.56000042 5.59999990 -0.87000000 105 16 195 97.000000 1.000000 4.000000 1.000000 176.000000 114.000000 6.000000 0.098426 -0.703673 0.703673
8.52000046 5.59999990 -0.81999999 105 16 195 97.000000 1.000000 4.000000 1.000000 176.000000 114.000000 6.000000 0.309417 -0.479047 0.821447
8.52000046 5.61000013 -0.81999999 105 16 195 97.000000 1.000000 4.000000 1.000000 176.000000 114.000000 6.000000 -0.407820 0.836111 -0.366881
8.52000046 5.61000013 -0.85000002 105 16 195 97.000000 1.000000 4.000000 1.000000 176.000000 114.000000 6.000000 -0.057011 0.924105 -0.377862
8.52000046 5.61000013 -0.85000002 105 16 195 97.000000 1.000000 4.000000 1.000000 176.000000 114.000000 6.000000 -0.057011 0.924105 -0.377862
8.52999973 5.61000013 -0.85000002 105 16 195 97.000000 1.000000 4.000000 1.000000 176.000000 114.000000 6.000000 -0.137312 0.961183 -0.239315
8.53999996 5.61000013 -0.88000000 105 16 195 97.000000 1.000000 4.000000 1.000000 176.000000 114.000000 6.000000 0.029480 0.773496 -0.633115
8.52999973 5.61000013 -0.85000002 105 16 195 97.000000 1.000000 4.000000 1.000000 176.000000 114.000000 6.000000 -0.137312 0.961183 -0.239315
8.52999973 5.36999989 -0.63000000 105 16 195 97.000000 1.000000 4.000000 1.000000 176.000000 114.000000 11.000000 0.096501 0.961146 -0.258622
8.67000008 5.48000002 -0.86000001 105 16 195 97.000000 1.000000 4.000000 1.000000 176.000000 114.000000 6.000000 0.950922 0.302391 0.065625
8.68000031 5.46999979 -0.75999999 105 16 195 97.000000 1.000000 4.000000 1.000000 176.000000 114.000000 6.000000 0.946980 -0.192121 -0.257524
8.84000015 5.21999979 -0.25999999 105 16 195 97.000000 1.000000 4.000000 1.000000 176.000000 114.000000 11.000000 0.587038 -0.401832 0.702792
8.78999996 5.21000004 -0.34999999 105 16 195 97.000000 1.000000 4.000000 1.000000 176.000000 114.000000 11.000000 0.296317 -0.484455 0.823103
8.77999973 5.19999981 -0.34999999 105 16 195 97.000000 1.000000 4.000000 1.000000 176.000000 114.000000 11.000000 0.064598 -0.647420 0.759391
8.72000027 5.26999998 -0.34999999 105 16 195 97.000000 1.000000 4.000000 1.000000 176.000000 114.000000 11.000000 0.301819 -0.573296 0.761733
8.72999954 5.23000002 -0.36000001 105 16 195 97.000000 1.000000 4.000000 1.000000 176.000000 114.000000 11.000000 0.447614 -0.762419 0.467289
8.72999954 5.23999977 -0.34999999 105 16 195 97.000000 1.000000 4.000000 1.000000 176.000000 114.000000 11.000000 -0.006611 0.887154 -0.461426
8.68999958 5.28000021 -0.38999999 105 16 195 97.000000 1.000000 4.000000 1.000000 176.000000 114.000000 11.000000 0.324398 -0.449769 0.832150
8.68999958 5.26999998 -0.40000001 105 16 195 97.000000 1.000000 4.000000 1.000000 176.000000 114.000000 11.000000 0.222664 -0.539001 0.812341
8.76000023 5.25000000 -0.37000000 105 16 195 97.000000 1.000000 4.000000 1.000000 176.000000 114.000000 11.000000 -0.035124 0.930130 -0.365548
8.78999996 5.17999983 -0.28000000 105 16 195 97.000000 1.000000 4.000000 1.000000 176.000000 114.000000 11.000000 0.450018 -0.456564 0.767485
8.77999973 5.13999987 -0.30000001 105 16 195 97.000000 1.000000 4.000000 1.000000 176.000000 114.000000 11.000000 0.023891 -0.704089 0.709710
8.63000011 5.26999998 -0.36000001 105 16 195 97.000000 1.000000 4.000000 1.000000 176.000000 114.000000 11.000000 0.082498 -0.623800 0.777218
8.68000031 5.30999994 -0.38000000 105 16 195 97.000000 1.000000 4.000000 1.000000 176.000000 114.000000 11.000000 -0.035312 -0.755684 0.653984
8.64000034 5.32000017 -0.38000000 105 16 195 97.000000 1.000000 4.000000 1.000000 176.000000 114.000000 11.000000 -0.358863 0.699700 -0.617768
8.63000011 5.30999994 -0.38000000 105 16 195 97.000000 1.000000 4.000000 1.000000 176.000000 114.000000 11.000000 0.070804 -0.721048 0.689258
8.64000034 5.34999990 -0.41999999 105 16 195 97.000000 1.000000 4.000000 1.000000 176.000000 114.000000 11.000000 0.039751 0.864930 -0.500316
8.63000011 5.26999998 -0.38000000 105 16 195 97.000000 1.000000 4.000000 1.000000 176.000000 114.000000 11.000000 -0.246174 0.868407 -0.430428
8.60999966 5.28000021 -0.41000000 105 16 195 97.000000 1.000000 4.000000 1.000000 176.000000 114.000000 11.000000 0.182984 -0.681191 0.708869
8.64000034 5.28999996 -0.50000000 105 16 195 97.000000 1.000000 4.000000 1.000000 176.000000 114.000000 11.000000 0.269372 -0.702918 0.658289
8.63000011 5.28000021 -0.51999998 105 16 195 97.000000 1.000000 4.000000 1.000000 176.000000 114.000000 11.000000 -0.067625 -0.651786 0.755382
8.61999989 5.25000000 -0.38999999 105 16 195 97.000000 1.000000 4.000000 1.000000 176.000000 114.000000 11.000000 -0.356839 0.798488 -0.484853
8.60999966 5.25000000 -0.40000001 105 16 195 97.000000 1.000000 4.000000 1.000000 176.000000 114.000000 11.000000 0.126376 0.759741 -0.637826
8.60999966 5.26000023 -0.38000000 105 16 195 97.000000 1.000000 4.000000 1.000000 176.000000 114.000000 11.000000 0.176705 -0.804990 0.566363
8.60999966 5.26000023 -0.37000000 105 16 195 97.000000 1.000000 4.000000 1.000000 176.000000 114.000000 11.000000 0.486117 -0.743182 0.459751
8.61999989 5.25000000 -0.40000001 105 16 195 97.000000 1.000000 4.000000 1.000000 176.000000 114.000000 11.000000 -0.357753 0.797324 -0.486095
8.60999966 5.23999977 -0.40000001 105 16 195 97.000000 1.000000 4.000000 1.000000 176.000000 114.000000 11.000000 0.040837 -0.615376 0.787175
8.60999966 5.25000000 -0.38999999 105 16 195 97.000000 1.000000 4.000000 1.000000 176.000000 114.000000 11.000000 -0.397497 0.796604 -0.455432
8.61999989 5.25000000 -0.38999999 105 16 195 97.000000 1.000000 4.000000 1.000000 176.000000 114.000000 11.000000 -0.356839 0.798488 -0.484853
8.61999989 5.23999977 -0.47999999 105 16 195 97.000000 1.000000 4.000000 1.000000 176.000000 114.000000 11.000000 -0.376586 0.748281 -0.546131
8.60000038 5.30999994 -0.44000000 105 16 195 97.000000 1.000000 4.000000 1.000000 176.000000 114.000000 11.000000 -0.254596 0.919133 -0.300624
8.59000015 5.30999994 -0.47999999 105 16 195 97.000000 1.000000 4.000000 1.000000 176.000000 114.000000 11.000000 0.256349 0.775338 -0.577179
8.56999969 5.34000015 -0.49000001 105 16 195 97.000000 1.000000 4.000000 1.000000 176.000000 114.000000 11.000000 0.112652 0.871270 -0.477701
8.57999992 5.34999990 -0.50000000 105 16 195 97.000000 1.000000 4.000000 1.000000 176.000000 114.000000 11.000000 -0.083141 -0.689922 0.719094
8.57999992 5.30999994 -0.50000000 105 16 195 97.000000 1.000000 4.000000 1.000000 176.000000 114.000000 11.000000 0.429490 -0.568783 0.701444
8.59000015 5.30999994 -0.52999997 105 16 195 97.000000 1.000000 4.000000 1.000000 176.000000 114.000000 11.000000 -0.378995 0.880296 -0.285379
8.59000015 5.28999996 -0.49000001 105 16 195 97.000000 1.000000 4.000000 1.000000 176.000000 114.000000 11.000000 -0.335736 0.876561 -0.344851
8.56000042 5.21000004 -0.41000000 105 16 195 97.000000 1.000000 4.000000 1.000000 176.000000 114.000000 11.000000 -0.026056 -0.527969 0.848864
8.56999969 5.19000006 -0.41999999 105 16 195 97.000000 1.000000 4.000000 1.000000 176.000000 114.000000 11.000000 -0.243155 -0.613378 0.751427
8.53999996 5.23999977 -0.41999999 105 16 195 97.000000 1.000000 4.000000 1.000000 176.000000 114.000000 11.000000 -0.001322 0.881656 -0.471891
8.53999996 5.23999977 -0.41000000 105 16 195 97.000000 1.000000 4.000000 1.000000 176.000000 114.000000 11.000000 0.212038 0.759932 -0.614446
8.53999996 5.23000002 -0.41999999 105 16 195 97.000000 1.000000 4.000000 1.000000 176.000000 114.000000 11.000000 0.332490 0.715258 -0.614700
8.52000046 5.23999977 -0.41000000 105 16 195 97.000000 1.000000 4.000000 1.000000 176.000000 114.000000 11.000000 0.149441 0.747203 -0.647576
8.59000015 5.26000023 -0.50000000 105 16 195 97.000000 1.000000 4.000000 1.000000 176.000000 114.000000 11.000000 0.249639 0.761477 -0.598191
8.52999973 5.34999990 -0.57999998 105 16 195 97.000000 1.000000 4.000000 1.000000 176.000000 114.000000 11.000000 0.245517 0.872112 -0.423253
8.48999977 5.67000008 -0.23000000 105 16 195 97.000000 1.000000 4.000000 1.000000 176.000000 114.000000 6.000000 -0.376957 -0.402193 0.834353
8.51000023 5.65000010 -0.27000001 105 16 195 97.000000 1.000000 4.000000 1.000000 176.000000 114.000000 6.000000 0.133293 0.836374 -0.531706
8.43999958 5.67000008 -0.22000000 105 16 195 97.000000 1.000000 4.000000 1.000000 176.000000 114.000000 6.000000 0.777932 0.107352 -0.619110
8.43999958 5.67000008 -0.22000000 105 16 195 97.000000 1.000000 4.000000 1.000000 176.000000 114.000000 6.000000 0.777932 0.107352 -0.619110
8.44999981 5.67999983 -0.25000000 105 16 195 97.000000 1.000000 4.000000 1.000000 176.000000 114.000000 6.000000 0.502127 0.730819 -0.462355
8.44999981 5.65999985 -0.25999999 105 16 195 97.000000 1.000000 4.000000 1.000000 176.000000 114.000000 6.000000 0.776939 0.204619 -0.595397
8.44999981 5.65999985 -0.31000000 105 16 195 97.000000 1.000000 4.000000 1.000000 176.000000 114.000000 6.000000 0.926309 0.198797 -0.320049
8.44999981 5.65999985 -0.31000000 105 16 195 97.000000 1.000000 4.000000 1.000000 176.000000 114.000000 6.000000 0.926309 0.198797 -0.320049
8.44999981 5.65999985 -0.31000000 105 16 195 97.000000 1.000000 4.000000 1.000000 176.000000 114.000000 6.000000 0.926309 0.198797 -0.320049
8.44999981 5.65000010 -0.36000001 105 16 195 97.000000 1.000000 4.000000 1.000000 176.000000 114.000000 6.000000 0.870893 0.300466 -0.388928
8.43999958 5.65000010 -0.34000000 105 16 195 97.000000 1.000000 4.000000 1.000000 176.000000 114.000000 6.000000 0.949639 0.145995 -0.277257
8.44999981 5.61000013 -0.20000000 105 16 195 97.000000 1.000000 4.000000 1.000000 176.000000 114.000000 6.000000 0.765892 0.388637 -0.512221
8.43000031 5.69000006 -0.22000000 105 16 195 97.000000 1.000000 4.000000 1.000000 176.000000 114.000000 6.000000 0.665479 0.718221 -0.203212
8.40999985 5.67000008 -0.22000000 105 16 195 97.000000 1.000000 4.000000 1.000000 176.000000 114.000000 6.000000 -0.505528 -0.351462 0.787982
8.35999966 5.67000008 -0.20999999 105 16 195 97.000000 1.000000 4.000000 1.000000 176.000000 114.000000 6.000000 -0.500851 -0.359131 0.787511
8.35999966 5.67000008 -0.20999999 105 16 195 97.000000 1.000000 4.000000 1.000000 176.000000 114.000000 6.000000 -0.500851 -0.359131 0.787511
8.36999989 5.65000010 -0.28000000 105 16 195 97.000000 1.000000 4.000000 1.000000 176.000000 114.000000 6.000000 0.793490 0.594747 -0.129035
8.39999962 5.67000008 -0.31999999 105 16 195 97.000000 1.000000 4.000000 1.000000 176.000000 114.000000 6.000000 -0.538054 -0.317723 0.780737
8.40999985 5.65999985 -0.28999999 105 16 195 97.000000 1.000000 4.000000 1.000000 176.000000 114.000000 6.000000 0.954688 0.172728 -0.242354
8.39999962 5.65000010 -0.31999999 105 16 195 97.000000 1.000000 4.000000 1.000000 176.000000 114.000000 6.000000 0.738307 0.012514 -0.674348
8.39000034 5.65000010 -0.34000000 105 16 195 97.000000 1.000000 4.000000 1.000000 176.000000 114.000000 6.000000 0.597482 0.434381 -0.674039
8.39999962 5.63999987 -0.33000001 105 16 195 97.000000 1.000000 4.000000 1.000000 176.000000 114.000000 6.000000 0.873520 0.059527 -0.483135
8.35999966 5.65999985 -0.28999999 105 16 195 97.000000 1.000000 4.000000 1.000000 176.000000 114.000000 6.000000 0.940921 0.319886 -0.111090
8.35999966 5.65999985 -0.28999999 105 16 195 97.000000 1.000000 4.000000 1.000000 176.000000 114.000000 6.000000 0.940921 0.319886 -0.111090
8.35000038 5.65999985 -0.36000001 105 16 195 97.000000 1.000000 4.000000 1.000000 176.000000 114.000000 6.000000 0.871385 0.390831 -0.296545
8.35000038 5.67999983 -0.33000001 105 16 195 97.000000 1.000000 4.000000 1.000000 176.000000 114.000000 6.000000 0.891818 -0.087651 -0.443822
8.35000038 5.67999983 -0.33000001 105 16 195 97.000000 1.000000 4.000000 1.000000 176.000000 114.000000 6.000000 0.891818 -0.087651 -0.443822
8.36999989 5.61999989 -0.30000001 105 16 195 97.000000 1.000000 4.000000 1.000000 176.000000 114.000000 6.000000 0.837386 0.230319 -0.495720
8.36999989 5.65000010 -0.28999999 105 16 195 97.000000 1.000000 4.000000 1.000000 176.000000 114.000000 6.000000 0.703234 0.651973 -0.283536
8.35999966 5.65000010 -0.30000001 105 16 195 97.000000 1.000000 4.000000 1.000000 176.000000 114.000000 6.000000 0.804960 0.406497 -0.432204
8.35999966 5.65000010 -0.30000001 105 16 195 97.000000 1.000000 4.000000 1.000000 176.000000 114.000000 6.000000 0.804960 0.406497 -0.432204
8.36999989 5.63000011 -0.30000001 105 16 195 97.000000 1.000000 4.000000 1.000000 176.000000 114.000000 6.000000 0.767460 0.392692 -0.506752
8.35999966 5.63999987 -0.34999999 105 16 195 97.000000 1.000000 4.000000 1.000000 176.000000 114.000000 6.000000 0.593980 0.310672 -0.742072
8.35000038 5.63999987 -0.34999999 105 16 195 97.000000 1.000000 4.000000 1.000000 176.000000 114.000000 6.000000 0.853585 0.274312 -0.442883
8.38000011 5.61000013 -0.20000000 105 16 195 97.000000 1.000000 4.000000 1.000000 176.000000 114.000000 6.000000 0.755417 0.593201 -0.278312
8.38000011 5.59999990 -0.22000000 105 16 195 97.000000 1.000000 4.000000 1.000000 176.000000 114.000000 6.000000 0.656645 0.676198 -0.334026
8.35999966 5.57999992 -0.25000000 105 16 195 97.000000 1.000000 4.000000 1.000000 176.000000 114.000000 6.000000 0.706243 0.275801 -0.652039
8.36999989 5.57999992 -0.25000000 105 16 195 97.000000 1.000000 4.000000 1.000000 176.000000 114.000000 6.000000 0.720615 0.195970 -0.665064
8.39999962 5.59999990 -0.30000001 105 16 195 97.000000 1.000000 4.000000 1.000000 176.000000 114.000000 6.000000 0.737480 0.523000 -0.427310
8.47999954 5.67999983 -0.44000000 105 16 195 97.000000 1.000000 4.000000 1.000000 176.000000 114.000000 6.000000 0.871483 0.457051 -0.177824
8.46000004 5.67000008 -0.41999999 105 16 195 97.000000 1.000000 4.000000 1.000000 176.000000 114.000000 6.000000 0.930132 0.056731 -0.362817
8.46000004 5.65999985 -0.44000000 105 16 195 97.000000 1.000000 4.000000 1.000000 176.000000 114.000000 6.000000 0.987433 0.130950 -0.088480
8.43999958 5.69000006 -0.41999999 105 16 195 97.000000 1.000000 4.000000 1.000000 176.000000 114.000000 6.000000 0.983890 0.062902 -0.167344
8.43999958 5.69000006 -0.41000000 105 16 195 97.000000 1.000000 4.000000 1.000000 176.000000 114.000000 6.000000 0.905594 -0.101238 -0.411886
8.44999981 5.67999983 -0.44999999 105 16 195 97.000000 1.000000 4.000000 1.000000 176.000000 114.000000 6.000000 0.901762 0.314362 -0.296652
8.46000004 5.67999983 -0.43000001 105 16 195 97.000000 1.000000 4.000000 1.000000 176.000000 114.000000 6.000000 0.799744 -0.073226 -0.595859
8.46000004 5.65999985 -0.43000001 105 16 195 97.000000 1.000000 4.000000 1.000000 176.000000 114.000000 6.000000 0.798149 -0.040822 -0.601075
8.43999958 5.65000010 -0.37000000 105 16 195 97.000000 1.000000 4.000000 1.000000 176.000000 114.000000 6.000000 0.944689 0.307790 -0.113256
8.46000004 5.63999987 -0.41999999 105 16 195 97.000000 1.000000 4.000000 1.000000 176.000000 114.000000 6.000000 0.782341 0.001375 -0.622848
8.47999954 5.65999985 -0.46000001 105 16 195 97.000000 1.000000 4.000000 1.000000 176.000000 114.000000 6.000000 0.859679 0.463597 -0.214545
8.50000000 5.69000006 -0.50999999 105 16 195 97.000000 1.000000 4.000000 1.000000 176.000000 114.000000 6.000000 0.929335 -0.067806 -0.362959
8.47999954 5.65999985 -0.50000000 105 16 195 97.000000 1.000000 4.000000 1.000000 176.000000 114.000000 6.000000 0.878855 -0.149130 -0.453182
8.48999977 5.65000010 -0.49000001 105 16 195 97.000000 1.000000 4.000000 1.000000 176.000000 114.000000 6.000000 0.738037 0.363316 -0.568598
8.48999977 5.65000010 -0.49000001 105 16 195 97.000000 1.000000 4.000000 1.000000 176.000000 114.000000 6.000000 0.738037 0.363316 -0.568598
8.50000000 5.63999987 -0.47999999 105 16 195 97.000000 1.000000 4.000000 1.000000 176.000000 114.000000 6.000000 0.707623 0.511154 -0.487844
8.50000000 5.61999989 -0.50000000 105 16 195 97.000000 1.000000 4.000000 1.000000 176.000000 114.000000 6.000000 0.721907 0.044140 -0.690581
8.47000027 5.69000006 -0.49000001 105 16 195 97.000000 1.000000 4.000000 1.000000 176.000000 114.000000 6.000000 0.988629 0.092647 -0.118448
8.47000027 5.69000006 -0.47000000 105 16 195 97.000000 1.000000 4.000000 1.000000 176.000000 114.000000 6.000000 0.992707 0.098703 0.069206
8.47000027 5.69000006 -0.47999999 105 16 195 97.000000 1.000000 4.000000 1.000000 176.000000 114.000000 6.000000 0.941707 0.336413 -0.003752
8.47000027 5.63999987 -0.50000000 105 16 195 97.000000 1.000000 4.000000 1.000000 176.000000 114.000000 6.000000 0.716000 0.574446 -0.396681
8.48999977 5.61000013 -0.38999999 105 16 195 97.000000 1.000000 4.000000 1.000000 176.000000 114.000000 6.000000 0.470533 0.762362 -0.444301
8.50000000 5.59999990 -0.47000000 105 16 195 97.000000 1.000000 4.000000 1.000000 176.000000 114.000000 6.000000 0.736970 0.402133 -0.543290
8.47999954 5.61000013 -0.50999999 105 16 195 97.000000 1.000000 4.000000 1.000000 176.000000 114.000000 6.000000 0.801613 0.509540 -0.312708
8.42000008 5.69000006 -0.38000000 105 16 195 97.000000 1.000000 4.000000 1.000000 176.000000 114.000000 6.000000 0.974442 0.032441 -0.222283
8.43000031 5.65999985 -0.41000000 105 16 195 97.000000 1.000000 4.000000 1.000000 176.000000 114.000000 6.000000 -0.627372 -0.456727 0.630718
8.39000034 5.63999987 -0.43000001 105 16 195 97.000000 1.000000 4.000000 1.000000 176.000000 114.000000 6.000000 0.851447 0.404786 -0.333445
8.39999962 5.61999989 -0.44999999 105 16 195 97.000000 1.000000 4.000000 1.000000 176.000000 114.000000 6.000000 0.886915 0.404220 -0.223580
8.39999962 5.63000011 -0.41999999 105 16 195 97.000000 1.000000 4.000000 1.000000 176.000000 114.000000 6.000000 0.838651 0.493414 -0.230667
8.35999966 5.67999983 -0.38000000 105 16 195 97.000000 1.000000 4.000000 1.000000 176.000000 114.000000 6.000000 0.981772 0.168269 -0.088372
8.35000038 5.67999983 -0.41000000 105 16 195 97.000000 1.000000 4.000000 1.000000 176.000000 114.000000 6.000000 0.935732 0.114772 -0.333515
8.36999989 5.63000011 -0.38000000 105 16 195 97.000000 1.000000 4.000000 1.000000 176.000000 114.000000 6.000000 0.625737 0.544779 -0.558272
8.35000038 5.63000011 -0.37000000 105 16 195 97.000000 1.000000 4.000000 1.000000 176.000000 114.000000 6.000000 0.844601 0.495318 -0.203246
8.39000034 5.65999985 -0.52999997 105 16 195 97.000000 1.000000 4.000000 1.000000 176.000000 114.000000 6.000000 0.925777 0.219748 -0.307647
8.40999985 5.63000011 -0.47999999 105 16 195 97.000000 1.000000 4.000000 1.000000 176.000000 114.000000 6.000000 0.799227 0.381120 -0.464741
8.39999962 5.63999987 -0.51999998 105 16 195 97.000000 1.000000 4.000000 1.000000 176.000000 114.000000 6.000000 0.965620 0.140900 -0.218460
8.39999962 5.61999989 -0.50999999 105 16 195 97.000000 1.000000 4.000000 1.000000 176.000000 114.000000 6.000000 0.937349 0.343826 0.056215
8.39999962 5.65000010 -0.51999998 105 16 195 97.000000 1.000000 4.000000 1.000000 176.000000 114.000000 6.000000 0.870331 0.274921 -0.408585
8.39999962 5.61999989 -0.50000000 105 16 195 97.000000 1.000000 4.000000 1.000000 176.000000 114.000000 6.000000 0.905649 0.401415 -0.136622
8.35999966 5.65999985 -0.47999999 105 16 195 97.000000 1.000000 4.000000 1.000000 176.000000 114.000000 6.000000 0.917523 0.138257 -0.372875
8.35000038 5.65999985 -0.49000001 105 16 195 97.000000 1.000000 4.000000 1.000000 176.000000 114.000000 6.000000 0.926638 -0.157459 -0.341393
8.35000038 5.65999985 -0.50000000 105 16 195 97.000000 1.000000 4.000000 1.000000 176.000000 114.000000 6.000000 0.951320 0.307080 0.026321
8.35000038 5.65999985 -0.50000000 105 16 195 97.000000 1.000000 4.000000 1.000000 176.000000 114.000000 6.000000 0.951320 0.307080 0.026321
8.35999966 5.63999987 -0.52999997 105 16 195 97.000000 1.000000 4.000000 1.000000 176.000000 114.000000 6.000000 0.987454 0.157223 -0.014704
8.40999985 5.61000013 -0.49000001 105 16 195 97.000000 1.000000 4.000000 1.000000 176.000000 114.000000 6.000000 0.852121 0.202886 -0.482418
8.40999985 5.61000013 -0.49000001 105 16 195 97.000000 1.000000 4.000000 1.000000 176.000000 114.000000 6.000000 0.852121 0.202886 -0.482418
8.34000015 5.69000006 -0.23000000 105 16 195 97.000000 1.000000 4.000000 1.000000 176.000000 114.000000 6.000000 0.965807 0.127657 -0.225656
8.32999992 5.65999985 -0.25999999 105 16 195 97.000000 1.000000 4.000000 1.000000 176.000000 114.000000 6.000000 0.830934 0.367377 -0.417832
8.34000015 5.65999985 -0.25999999 105 16 195 97.000000 1.000000 4.000000 1.000000 176.000000 114.000000 6.000000 0.817357 0.081879 -0.570283
8.32999992 5.67000008 -0.28000000 105 16 195 97.000000 1.000000 4.000000 1.000000 176.000000 114.000000 6.000000 0.941881 0.011318 -0.335757
8.34000015 5.63999987 -0.20000000 105 16 195 97.000000 1.000000 4.000000 1.000000 176.000000 114.000000 6.000000 0.712849 0.655947 -0.248154
8.34000015 5.63000011 -0.20999999 105 16 195 97.000000 1.000000 4.000000 1.000000 176.000000 114.000000 6.000000 0.740783 0.219895 -0.634734
8.32999992 5.65000010 -0.23000000 105 16 195 97.000000 1.000000 4.000000 1.000000 176.000000 114.000000 6.000000 0.969912 0.173428 -0.170859
8.34000015 5.63000011 -0.20999999 105 16 195 97.000000 1.000000 4.000000 1.000000 176.000000 114.000000 6.000000 0.740783 0.219895 -0.634734
8.34000015 5.63999987 -0.20000000 105 16 195 97.000000 1.000000 4.000000 1.000000 176.000000 114.000000 6.000000 0.712849 0.655947 -0.248154
8.32999992 5.65000010 -0.20000000 105 16 195 97.000000 1.000000 4.000000 1.000000 176.000000 114.000000 6.000000 0.801464 0.550328 -0.234083
8.34000015 5.63000011 -0.20999999 105 16 195 97.000000 1.000000 4.000000 1.000000 176.000000 114.000000 6.000000 0.740783 0.219895 -0.634734
8.34000015 5.63999987 -0.27000001 105 16 195 97.000000 1.000000 4.000000 1.000000 176.000000 114.000000 6.000000 0.940732 0.069538 -0.331946
8.34000015 5.61999989 -0.28000000 105 16 195 97.000000 1.000000 4.000000 1.000000 176.000000 114.000000 6.000000 0.684252 0.608040 -0.402599
8.34000015 5.65000010 -0.27000001 105 16 195 97.000000 1.000000 4.000000 1.000000 176.000000 114.000000 6.000000 0.725003 0.515963 -0.456238
8.32999992 5.65999985 -0.31999999 105 16 195 97.000000 1.000000 4.000000 1.000000 176.000000 114.000000 6.000000 0.851881 0.428260 -0.301483
8.31000042 5.65999985 -0.33000001 105 16 195 97.000000 1.000000 4.000000 1.000000 176.000000 114.000000 6.000000 0.825025 0.265686 -0.498744
8.34000015 5.67000008 -0.34000000 105 16 195 97.000000 1.000000 4.000000 1.000000 176.000000 114.000000 6.000000 0.998444 0.045240 -0.032615
8.32999992 5.63999987 -0.31999999 105 16 195 97.000000 1.000000 4.000000 1.000000 176.000000 114.000000 6.000000 0.734343 0.041191 -0.677527
8.34000015 5.61000013 -0.28999999 105 16 195 97.000000 1.000000 4.000000 1.000000 176.000000 114.000000 6.000000 0.480445 0.473841 -0.738003
8.34000015 5.65000010 -0.44999999 105 16 195 97.000000 1.000000 4.000000 1.000000 176.000000 114.000000 6.000000 0.862089 0.144411 -0.485745
8.34000015 5.63999987 -0.40000001 105 16 195 97.000000 1.000000 4.000000 1.000000 176.000000 114.000000 6.000000 0.925423 0.360572 -0.116535
8.50000000 5.65999985 -0.58999997 105 16 195 97.000000 1.000000 4.000000 1.000000 176.000000 114.000000 6.000000 0.977844 -0.115259 -0.174748
8.48999977 5.65000010 -0.62000000 105 16 195 97.000000 1.000000 4.000000 1.000000 176.000000 114.000000 6.000000 0.974527 -0.184846 0.127003
8.46000004 5.65999985 -0.56000000 105 16 195 97.000000 1.000000 4.000000 1.000000 176.000000 114.000000 6.000000 0.907896 0.200632 -0.368066
8.50000000 5.63999987 -0.63999999 105 16 195 97.000000 1.000000 4.000000 1.000000 176.000000 114.000000 6.000000 0.972496 -0.179244 -0.148735
8.48999977 5.63000011 -0.67000002 105 16 195 97.000000 1.000000 4.000000 1.000000 176.000000 114.000000 6.000000 0.985297 -0.170815 0.003394
8.51000023 5.63999987 -0.69000000 105 16 195 97.000000 1.000000 4.000000 1.000000 176.000000 114.000000 6.000000 0.763282 -0.343719 0.547045
8.47999954 5.59999990 -0.57999998 105 16 195 97.000000 1.000000 4.000000 1.000000 176.000000 114.000000 6.000000 0.870311 0.306361 -0.385619
8.43999958 5.59999990 -0.55000001 105 16 195 97.000000 1.000000 4.000000 1.000000 176.000000 114.000000 6.000000 0.908249 -0.017038 -0.418083
8.43999958 5.61000013 -0.57999998 105 16 195 97.000000 1.000000 4.000000 1.000000 176.000000 114.000000 6.000000 0.889135 -0.061650 -0.453473
8.46000004 5.57000017 -0.57999998 105 16 195 97.000000 1.000000 4.000000 1.000000 176.000000 114.000000 6.000000 0.726650 0.156252 -0.669003
8.47000027 5.59999990 -0.60000002 105 16 195 97.000000 1.000000 4.000000 1.000000 176.000000 114.000000 6.000000 0.975367 0.069756 -0.209269
8.47000027 5.59000015 -0.60000002 105 16 195 97.000000 1.000000 4.000000 1.000000 176.000000 114.000000 6.000000 0.750122 0.330699 -0.572674
8.50000000 5.57999992 -0.63999999 105 16 195 97.000000 1.000000 4.000000 1.000000 176.000000 114.000000 6.000000 0.988978 0.023790 -0.146138
8.48999977 5.59000015 -0.64999998 105 16 195 97.000000 1.000000 4.000000 1.000000 176.000000 114.000000 6.000000 0.945949 -0.127108 -0.298369
8.48999977 5.59000015 -0.69000000 105 16 195 97.000000 1.000000 4.000000 1.000000 176.000000 114.000000 6.000000 -0.733232 0.508131 -0.451856
8.46000004 5.59999990 -0.66000003 105 16 195 97.000000 1.000000 4.000000 1.000000 176.000000 114.000000 6.000000 0.971132 -0.060464 -0.230752
8.46000004 5.59999990 -0.66000003 105 16 195 97.000000 1.000000 4.000000 1.000000 176.000000 114.000000 6.000000 0.971132 -0.060464 -0.230752
8.46000004 5.59999990 -0.66000003 105 16 195 97.000000 1.000000 4.000000 1.000000 176.000000 114.000000 6.000000 0.971132 -0.060464 -0.230752
8.39999962 5.67999983 -0.56999999 105 16 195 97.000000 1.000000 4.000000 1.000000 176.000000 114.000000 6.000000 0.894121 -0.272253 0.355565
8.39999962 5.67999983 -0.61000001 105 16 195 97.000000 1.000000 4.000000 1.000000 176.000000 114.000000 6.000000 0.963205 -0.013361 0.268434
8.39000034 5.65000010 -0.54000002 105 16 195 97.000000 1.000000 4.000000 1.000000 176.000000 114.000000 6.000000 0.940518 0.336729 -0.045155
8.39000034 5.63999987 -0.57999998 105 16 195 97.000000 1.000000 4.000000 1.000000 176.000000 114.000000 6.000000 0.991455 0.126879 -0.030316
8.39000034 5.65000010 -0.61000001 105 16 195 97.000000 1.000000 4.000000 1.000000 176.000000 114.000000 6.000000 0.959269 -0.010998 0.282282
8.39000034 5.65000010 -0.58999997 105 16 195 97.000000 1.000000 4.000000 1.000000 176.000000 114.000000 6.000000 0.929193 0.162505 -0.331954
8.38000011 5.67000008 -0.58999997 105 16 195 97.000000 1.000000 4.000000 1.000000 176.000000 114.000000 6.000000 0.974318 -0.008247 -0.225024
8.38000011 5.65999985 -0.58999997 105 16 195 97.000000 1.000000 4.000000 1.000000 176.000000 114.000000 6.000000 0.975581 0.082635 0.203503
8.38000011 5.61999989 -0.56000000 105 16 195 97.000000 1.000000 4.000000 1.000000 176.000000 114.000000 6.000000 0.924455 0.378486 -0.046157
8.40999985 5.67999983 -0.63000000 105 16 195 97.000000 1.000000 4.000000 1.000000 176.000000 114.000000 6.000000 0.917522 -0.182937 0.353111
8.40999985 5.67999983 -0.63999999 105 16 195 97.000000 1.000000 4.000000 1.000000 176.000000 114.000000 6.000000 0.970554 -0.133913 0.200232
8.39999962 5.69000006 -0.66000003 105 16 195 97.000000 1.000000 4.000000 1.000000 176.000000 114.000000 6.000000 0.956424 -0.110909 0.270095
8.40999985 5.67000008 -0.67000002 105 16 195 97.000000 1.000000 4.000000 1.000000 176.000000 114.000000 6.000000 0.937814 -0.097661 0.333118
8.42000008 5.61999989 -0.70999998 105 16 195 97.000000 1.000000 4.000000 1.000000 176.000000 114.000000 6.000000 0.957331 -0.028633 0.287573
8.43000031 5.59999990 -0.54000002 105 16 195 97.000000 1.000000 4.000000 1.000000 176.000000 114.000000 6.000000 0.859392 0.457638 -0.228064
8.43000031 5.57000017 -0.56000000 105 16 195 97.000000 1.000000 4.000000 1.000000 176.000000 114.000000 6.000000 0.952284 0.304080 0.026279
8.43000031 5.61000013 -0.60000002 105 16 195 97.000000 1.000000 4.000000 1.000000 176.000000 114.000000 6.000000 0.923630 0.256325 -0.284965
8.43000031 5.55000019 -0.61000001 105 16 195 97.000000 1.000000 4.000000 1.000000 176.000000 114.000000 6.000000 0.855880 0.254781 -0.450062
8.43000031 5.61000013 -0.69000000 105 16 195 97.000000 1.000000 4.000000 1.000000 176.000000 114.000000 6.000000 0.980892 0.031794 0.191939
8.47999954 5.69000006 -0.75999999 105 16 195 97.000000 1.000000 4.000000 1.000000 176.000000 114.000000 6.000000 0.161984 -0.631283 0.758448
8.47999954 5.69000006 -0.75999999 105 16 195 97.000000 1.000000 4.000000 1.000000 176.000000 114.000000 6.000000 0.161984 -0.631283 0.758448
8.48999977 5.61999989 -0.74000001 105 16 195 97.000000 1.000000 4.000000 1.000000 176.000000 114.000000 6.000000 -0.447048 0.889918 -0.090524
8.48999977 5.61999989 -0.74000001 105 16 195 97.000000 1.000000 4.000000 1.000000 176.000000 114.000000 6.000000 -0.447048 0.889918 -0.090524
8.50000000 5.61999989 -0.76999998 105 16 195 97.000000 1.000000 4.000000 1.000000 176.000000 114.000000 6.000000 -0.279587 0.878053 -0.388399
8.48999977 5.67999983 -0.86000001 105 16 195 97.000000 1.000000 4.000000 1.000000 176.000000 114.000000 6.000000 0.012217 0.845716 -0.533493
8.50000000 5.61999989 -0.81000000 105 16 195 97.000000 1.000000 4.000000 1.000000 176.000000 114.000000 6.000000 -0.276610 0.782410 -0.557961
8.51000023 5.63000011 -0.80000001 105 16 195 97.000000 1.000000 4.000000 1.000000 176.000000 114.000000 6.000000 -0.346789 0.922430 -0.169884
8.46000004 5.67999983 -0.81000000 105 16 195 97.000000 1.000000 4.000000 1.000000 176.000000 114.000000 6.000000 -0.297741 0.929913 -0.215898
8.44999981 5.69000006 -0.81000000 105 16 195 97.000000 1.000000 4.000000 1.000000 176.000000 114.000000 6.000000 -0.417830 0.811647 -0.408225
8.43999958 5.63999987 -0.80000001 105 16 195 97.000000 1.000000 4.000000 1.000000 176.000000 114.000000 6.000000 -0.576927 0.603997 -0.549857
8.44999981 5.63999987 -0.80000001 105 16 195 97.000000 1.000000 4.000000 1.000000 176.000000 114.000000 6.000000 -0.341972 0.830504 -0.439679
8.47999954 5.57999992 -0.75000000 105 16 195 97.000000 1.000000 4.000000 1.000000 176.000000 114.000000 6.000000 -0.532905 0.836587 -0.127021
8.47999954 5.57999992 -0.76999998 105 16 195 97.000000 1.000000 4.000000 1.000000 176.000000 114.000000 6.000000 -0.586722 0.801413 -0.116168
8.50000000 5.59999990 -0.77999997 105 16 195 97.000000 1.000000 4.000000 1.000000 176.000000 114.000000 6.000000 0.622109 -0.500722 0.601878
8.44999981 5.59999990 -0.73000002 105 16 195 97.000000 1.000000 4.000000 1.000000 176.000000 114.000000 6.000000 -0.620430 0.673373 -0.402039
