//X Y Z R G B PointSourceId ScanDirectionFlag NumberOfReturns ReturnNumber GpsTime Intensity Classification Nx Ny Nz
-3.67000008 -21.38999939 0.41000000 229 127 77 97.000000 1.000000 4.000000 1.000000 0.000000 114.000000 106.000000 0.240652 0.838449 0.488968
-3.67000008 -21.40999985 0.34999999 229 127 77 97.000000 1.000000 4.000000 1.000000 0.000000 114.000000 106.000000 -0.394106 0.871902 0.290634
-3.67000008 -21.40999985 0.34000000 229 127 77 97.000000 1.000000 4.000000 1.000000 0.000000 114.000000 106.000000 -0.095417 0.975239 0.199509
-3.51999998 -21.36000061 0.31999999 229 127 77 97.000000 1.000000 4.000000 1.000000 0.000000 114.000000 106.000000 0.128386 0.963546 -0.234726
-3.71000004 -21.30999947 0.36000001 229 127 77 97.000000 1.000000 4.000000 1.000000 0.000000 114.000000 106.000000 0.254713 0.964897 -0.063992
-3.74000001 -21.31999969 0.38999999 229 127 77 97.000000 1.000000 4.000000 1.000000 0.000000 114.000000 106.000000 -0.133973 0.990955 0.007750
-3.71000004 -21.40999985 0.37000000 229 127 77 97.000000 1.000000 4.000000 1.000000 0.000000 114.000000 106.000000 -0.072063 0.997400 0.001044
-3.72000003 -21.43000031 0.37000000 229 127 77 97.000000 1.000000 4.000000 1.000000 0.000000 114.000000 106.000000 0.035239 0.970883 0.236949
-3.70000005 -21.43000031 0.37000000 229 127 77 97.000000 1.000000 4.000000 1.000000 0.000000 114.000000 106.000000 0.186428 0.982463 -0.003431
-3.75999999 -21.37000084 0.38999999 229 127 77 97.000000 1.000000 4.000000 1.000000 0.000000 114.000000 106.000000 0.325310 0.931634 0.161963
-3.74000001 -21.42000008 0.36000001 229 127 77 97.000000 1.000000 4.000000 1.000000 0.000000 114.000000 106.000000 -0.323339 0.918283 0.228493
-3.84999990 -21.36000061 0.44000000 229 127 77 97.000000 1.000000 4.000000 1.000000 0.000000 114.000000 112.000000 0.001199 0.964929 0.262509
-3.83999991 -21.36000061 0.41999999 229 127 77 97.000000 1.000000 4.000000 1.000000 0.000000 114.000000 112.000000 -0.082242 0.996516 0.013885
-3.81999993 -21.34000015 0.38000000 229 127 77 97.000000 1.000000 4.000000 1.000000 0.000000 114.000000 112.000000 0.173226 0.922463 0.345043
-3.76999998 -21.36000061 0.38000000 229 127 77 97.000000 1.000000 4.000000 1.000000 0.000000 114.000000 106.000000 0.165577 0.833854 0.526566
-3.76999998 -21.40999985 0.34000000 229 127 77 97.000000 1.000000 4.000000 1.000000 0.000000 114.000000 106.000000 -0.062942 0.997469 -0.033071
-3.82999992 -21.40999985 0.37000000 229 127 77 97.000000 1.000000 4.000000 1.000000 0.000000 114.000000 112.000000 0.124371 0.984102 0.126786
-3.84999990 -21.40999985 0.38000000 229 127 77 97.000000 1.000000 4.000000 1.000000 0.000000 114.000000 112.000000 0.273205 0.961730 -0.020827
-3.84999990 -21.40999985 0.37000000 229 127 77 97.000000 1.000000 4.000000 1.000000 0.000000 114.000000 112.000000 0.343115 0.926551 0.154194
-3.82999992 -21.42000008 0.38000000 229 127 77 97.000000 1.000000 4.000000 1.000000 0.000000 114.000000 112.000000 0.348726 0.927639 0.133701
-3.58999991 -21.47999954 0.33000001 229 127 77 97.000000 1.000000 4.000000 1.000000 0.000000 114.000000 106.000000 -0.294563 0.933947 0.202425
-3.51999998 -21.62000084 0.44000000 229 127 77 97.000000 1.000000 4.000000 1.000000 0.000000 114.000000 106.000000 0.206068 -0.034543 0.977928
-3.52999997 -21.62000084 0.44000000 229 127 77 97.000000 1.000000 4.000000 1.000000 0.000000 114.000000 106.000000 0.314160 -0.317137 0.894834
-3.58999991 -21.57999992 0.41000000 229 127 77 97.000000 1.000000 4.000000 1.000000 0.000000 114.000000 106.000000 0.176279 -0.150915 0.972703
-3.58999991 -21.57999992 0.41000000 229 127 77 97.000000 1.000000 4.000000 1.000000 0.000000 114.000000 106.000000 0.176279 -0.150915 0.972703
-3.58999991 -21.61000061 0.44000000 229 127 77 97.000000 1.000000 4.000000 1.000000 0.000000 114.000000 106.000000 0.277999 -0.064739 0.958397
-3.66000009 -21.46999931 0.38000000 229 127 77 97.000000 1.000000 4.000000 1.000000 0.000000 114.000000 106.000000 -0.149912 0.946742 0.284968
-3.66000009 -21.53000069 0.34999999 229 127 77 97.000000 1.000000 4.000000 1.000000 0.000000 114.000000 106.000000 0.078922 0.929674 0.359831
-3.66000009 -21.53000069 0.34000000 229 127 77 97.000000 1.000000 4.000000 1.000000 0.000000 114.000000 106.000000 0.268265 0.956594 0.113849
-3.66000009 -21.53000069 0.33000001 229 127 77 97.000000 1.000000 4.000000 1.000000 0.000000 114.000000 106.000000 -0.317195 0.946406 0.060850
-3.59999990 -21.56999969 0.41000000 229 127 77 97.000000 1.000000 4.000000 1.000000 0.000000 114.000000 106.000000 -0.023621 0.029783 0.999277
-3.60999990 -21.59000015 0.41000000 229 127 77 97.000000 1.000000 4.000000 1.000000 0.000000 114.000000 106.000000 -0.105645 -0.154217 0.982373
-3.54999995 -21.46999931 0.31000000 229 127 77 97.000000 1.000000 4.000000 1.000000 0.000000 114.000000 106.000000 -0.100562 0.937241 -0.333867
-3.53999996 -21.51000023 0.31000000 229 127 77 97.000000 1.000000 4.000000 1.000000 0.000000 114.000000 106.000000 0.026698 0.942066 -0.334363
-3.56999993 -21.47999954 0.31000000 229 127 77 97.000000 1.000000 4.000000 1.000000 0.000000 114.000000 106.000000 -0.352774 0.911454 0.211665
-3.56999993 -21.47999954 0.31999999 229 127 77 97.000000 1.000000 4.000000 1.000000 0.000000 114.000000 106.000000 -0.226745 0.973948 -0.003525
-3.52999997 -21.55999947 0.31999999 229 127 77 97.000000 1.000000 4.000000 1.000000 0.000000 114.000000 106.000000 -0.254756 0.909843 0.327544
-3.52999997 -21.55999947 0.31999999 229 127 77 97.000000 1.000000 4.000000 1.000000 0.000000 114.000000 106.000000 -0.254756 0.909843 0.327544
-3.56999993 -21.60000038 0.31000000 229 127 77 97.000000 1.000000 4.000000 1.000000 0.000000 114.000000 106.000000 -0.222025 0.892513 0.392588
-3.61999989 -21.45999908 0.31999999 229 127 77 97.000000 1.000000 4.000000 1.000000 0.000000 114.000000 106.000000 -0.115894 0.975752 -0.185679
-3.61999989 -21.45999908 0.31999999 229 127 77 97.000000 1.000000 4.000000 1.000000 0.000000 114.000000 106.000000 -0.115894 0.975752 -0.185679
-3.51999998 -21.63999939 0.47000000 229 127 77 97.000000 1.000000 4.000000 1.000000 0.000000 114.000000 106.000000 -0.133181 0.109184 0.985059
-3.51999998 -21.65999985 0.46000001 229 127 77 97.000000 1.000000 4.000000 1.000000 0.000000 114.000000 106.000000 0.333079 -0.638537 0.693779
-3.53999996 -21.64999962 0.47000000 229 127 77 97.000000 1.000000 4.000000 1.000000 0.000000 114.000000 106.000000 -0.082902 -0.122602 0.988987
-3.53999996 -21.67000008 0.46000001 229 127 77 97.000000 1.000000 4.000000 1.000000 0.000000 114.000000 106.000000 0.423191 -0.455620 0.783147
-3.55999994 -21.63999939 0.44000000 229 127 77 97.000000 1.000000 4.000000 1.000000 0.000000 114.000000 106.000000 0.429568 -0.104943 0.896916
-3.58999991 -21.63999939 0.41999999 229 127 77 97.000000 1.000000 4.000000 1.000000 0.000000 114.000000 106.000000 -0.019436 0.027620 0.999430
-3.58999991 -21.70000076 0.44000000 229 127 77 97.000000 1.000000 4.000000 1.000000 0.000000 114.000000 106.000000 0.308118 -0.669471 0.675923
-3.54999995 -21.65999985 0.40000001 229 127 77 97.000000 1.000000 4.000000 1.000000 0.000000 114.000000 106.000000 -0.139537 0.736694 -0.661674
-3.54999995 -21.62999916 0.40000001 229 127 77 97.000000 1.000000 4.000000 1.000000 0.000000 114.000000 106.000000 0.230575 -0.549357 0.803145
-3.54999995 -21.68000031 0.38000000 229 127 77 97.000000 1.000000 4.000000 1.000000 0.000000 114.000000 106.000000 -0.165895 0.823498 -0.542522
-3.54999995 -21.68000031 0.38000000 229 127 77 97.000000 1.000000 4.000000 1.000000 0.000000 114.000000 106.000000 -0.165895 0.823498 -0.542522
-3.55999994 -21.64999962 0.40000001 229 127 77 97.000000 1.000000 4.000000 1.000000 0.000000 114.000000 106.000000 -0.075124 -0.213056 0.974147
-3.56999993 -21.68000031 0.38999999 229 127 77 97.000000 1.000000 4.000000 1.000000 0.000000 114.000000 106.000000 -0.469675 0.718620 -0.512826
-3.56999993 -21.69000053 0.38000000 229 127 77 97.000000 1.000000 4.000000 1.000000 0.000000 114.000000 106.000000 0.373783 -0.546800 0.749197
-3.55999994 -21.67000008 0.38999999 229 127 77 97.000000 1.000000 4.000000 1.000000 0.000000 114.000000 106.000000 0.176445 0.809835 -0.559495
-3.59999990 -21.62999916 0.41999999 229 127 77 97.000000 1.000000 4.000000 1.000000 0.000000 114.000000 106.000000 -0.271196 -0.321037 0.907407
-3.71000004 -21.59000015 0.33000001 229 127 77 97.000000 1.000000 4.000000 1.000000 0.000000 114.000000 106.000000 0.079586 0.990787 0.109575
-3.86999989 -21.39999962 0.37000000 229 127 77 97.000000 1.000000 4.000000 1.000000 0.000000 114.000000 112.000000 -0.271976 0.960139 0.064515
-3.85999990 -21.38999939 0.38999999 229 127 77 97.000000 1.000000 4.000000 1.000000 0.000000 114.000000 112.000000 -0.193816 0.961167 0.196453
-3.90000010 -21.40999985 0.38000000 229 127 77 97.000000 1.000000 4.000000 1.000000 0.000000 114.000000 112.000000 0.029844 0.999274 0.023670
-3.56999993 -21.81999969 0.03000000 229 127 77 97.000000 1.000000 4.000000 1.000000 0.000000 114.000000 211.000000 -0.020296 0.864630 0.501999
-3.51999998 -21.93000031 0.09000000 229 127 77 97.000000 1.000000 4.000000 1.000000 0.000000 114.000000 211.000000 0.105973 0.953755 0.281286
-3.51999998 -21.93000031 0.09000000 229 127 77 97.000000 1.000000 4.000000 1.000000 0.000000 114.000000 211.000000 0.105973 0.953755 0.281286
-3.53999996 -21.92000008 0.07000000 229 127 77 97.000000 1.000000 4.000000 1.000000 0.000000 114.000000 211.000000 -0.036595 0.952734 0.301594
-3.25000000 -21.44000053 0.49000001 229 127 77 97.000000 1.000000 4.000000 1.000000 0.000000 114.000000 106.000000 0.264102 0.748025 0.608858
-3.24000001 -21.42000008 0.44999999 229 127 77 97.000000 1.000000 4.000000 1.000000 0.000000 114.000000 106.000000 0.102295 0.837093 0.537411
-3.32999992 -21.35000038 0.36000001 229 127 77 97.000000 1.000000 4.000000 1.000000 0.000000 114.000000 106.000000 0.189843 0.938128 0.289614
-3.25000000 -21.34000015 0.28999999 229 127 77 97.000000 1.000000 4.000000 1.000000 0.000000 114.000000 106.000000 0.102164 0.994753 -0.005377
-3.28999996 -21.34000015 0.30000001 229 127 77 97.000000 1.000000 4.000000 1.000000 0.000000 114.000000 106.000000 0.099901 0.882225 0.460108
-3.47000003 -21.26000023 0.33000001 229 127 77 97.000000 1.000000 4.000000 1.000000 0.000000 114.000000 70.000000 -0.188397 0.970179 -0.152512
-3.47000003 -21.26000023 0.33000001 229 127 77 97.000000 1.000000 4.000000 1.000000 0.000000 114.000000 70.000000 -0.188397 0.970179 -0.152512
-3.49000001 -21.13999939 0.30000001 229 127 77 97.000000 1.000000 4.000000 1.000000 0.000000 114.000000 70.000000 0.005316 0.996270 0.086124
-3.48000002 -21.13999939 0.30000001 229 127 77 97.000000 1.000000 4.000000 1.000000 0.000000 114.000000 70.000000 0.246758 0.925698 0.286695
-3.48000002 -21.17000008 0.30000001 229 127 77 97.000000 1.000000 4.000000 1.000000 0.000000 114.000000 70.000000 -0.416179 0.905156 0.086532
-3.50000000 -21.18000031 0.31000000 229 127 77 97.000000 1.000000 4.000000 1.000000 0.000000 114.000000 70.000000 0.001287 0.917539 0.397643
-3.46000004 -21.27000046 0.31000000 229 127 77 97.000000 1.000000 4.000000 1.000000 0.000000 114.000000 70.000000 0.148969 0.938915 -0.310238
-3.35999990 -21.29999924 0.38999999 229 127 77 97.000000 1.000000 4.000000 1.000000 0.000000 114.000000 106.000000 0.183060 0.940073 0.287665
-3.35999990 -21.36000061 0.38000000 229 127 77 97.000000 1.000000 4.000000 1.000000 0.000000 114.000000 106.000000 -0.311104 0.849732 0.425640
-3.41000009 -21.31999969 0.36000001 229 127 77 97.000000 1.000000 4.000000 1.000000 0.000000 114.000000 106.000000 -0.174367 0.950233 0.258172
-3.42000008 -21.37999916 0.36000001 229 127 77 97.000000 1.000000 4.000000 1.000000 0.000000 114.000000 106.000000 -0.386577 0.918290 0.085454
-3.39000010 -21.44000053 0.37000000 229 127 77 97.000000 1.000000 4.000000 1.000000 0.000000 114.000000 106.000000 -0.099653 0.958999 0.265310
-3.40000010 -21.43000031 0.36000001 229 127 77 97.000000 1.000000 4.000000 1.000000 0.000000 114.000000 106.000000 0.034604 0.840180 0.541203
-3.46000004 -21.35000038 0.34999999 229 127 77 97.000000 1.000000 4.000000 1.000000 0.000000 114.000000 106.000000 -0.242649 0.969377 -0.037800
-3.45000005 -21.35000038 0.34000000 229 127 77 97.000000 1.000000 4.000000 1.000000 0.000000 114.000000 106.000000 -0.022826 0.971904 -0.234266
-3.43000007 -21.35000038 0.36000001 229 127 77 97.000000 1.000000 4.000000 1.000000 0.000000 114.000000 106.000000 0.406139 0.879718 0.247280
-3.45000005 -21.35000038 0.34000000 229 127 77 97.000000 1.000000 4.000000 1.000000 0.000000 114.000000 106.000000 -0.022826 0.971904 -0.234266
-3.47000003 -21.36000061 0.36000001 229 127 77 97.000000 1.000000 4.000000 1.000000 0.000000 114.000000 106.000000 0.085526 0.778432 0.621876
-3.47000003 -21.35000038 0.34999999 229 127 77 97.000000 1.000000 4.000000 1.000000 0.000000 114.000000 106.000000 -0.381950 0.901867 0.201867
-3.50000000 -21.37999916 0.34000000 229 127 77 97.000000 1.000000 4.000000 1.000000 0.000000 114.000000 106.000000 0.106381 0.993265 -0.045912
-3.19000006 -21.53000069 0.44000000 229 127 77 97.000000 1.000000 4.000000 1.000000 0.000000 114.000000 106.000000 -0.183606 0.210025 0.960301
-3.23000002 -21.45999908 0.49000001 229 127 77 97.000000 1.000000 4.000000 1.000000 0.000000 114.000000 106.000000 -0.014594 0.147062 0.989020
-3.24000001 -21.48999977 0.47000000 229 127 77 97.000000 1.000000 4.000000 1.000000 0.000000 114.000000 106.000000 0.118691 0.561217 0.819114
-3.23000002 -21.47999954 0.44999999 229 127 77 97.000000 1.000000 4.000000 1.000000 0.000000 114.000000 106.000000 0.361906 0.238829 0.901102
-3.24000001 -21.48999977 0.47000000 229 127 77 97.000000 1.000000 4.000000 1.000000 0.000000 114.000000 106.000000 0.118691 0.561217 0.819114
-3.18000007 -21.54999924 0.41000000 229 127 77 97.000000 1.000000 4.000000 1.000000 0.000000 114.000000 106.000000 0.466903 0.255649 0.846549
-3.21000004 -21.54999924 0.41000000 229 127 77 97.000000 1.000000 4.000000 1.000000 0.000000 114.000000 106.000000 -0.281378 0.275606 0.919167
-3.22000003 -21.54999924 0.43000001 229 127 77 97.000000 1.000000 4.000000 1.000000 0.000000 114.000000 106.000000 -0.075464 0.548180 0.832949
-3.22000003 -21.57999992 0.41999999 229 127 77 97.000000 1.000000 4.000000 1.000000 0.000000 114.000000 106.000000 -0.171970 0.295789 0.939646
-3.25000000 -21.62000084 0.47000000 229 127 77 97.000000 1.000000 4.000000 1.000000 0.000000 114.000000 106.000000 0.105833 -0.555260 0.824916
-3.25000000 -21.55999947 0.40000001 229 127 77 97.000000 1.000000 4.000000 1.000000 0.000000 114.000000 106.000000 0.408390 0.447131 0.795796
-3.25000000 -21.55999947 0.40000001 229 127 77 97.000000 1.000000 4.000000 1.000000 0.000000 114.000000 106.000000 0.408390 0.447131 0.795796
-3.26999998 -21.46999931 0.46000001 229 127 77 97.000000 1.000000 4.000000 1.000000 0.000000 114.000000 106.000000 -0.269671 0.572459 0.774318
-3.27999997 -21.47999954 0.43000001 229 127 77 97.000000 1.000000 4.000000 1.000000 0.000000 114.000000 106.000000 0.360723 0.370012 0.856137
-3.28999996 -21.51000023 0.44999999 229 127 77 97.000000 1.000000 4.000000 1.000000 0.000000 114.000000 106.000000 0.065295 0.293188 0.953822
-3.25999999 -21.52000046 0.43000001 229 127 77 97.000000 1.000000 4.000000 1.000000 0.000000 114.000000 106.000000 0.276375 0.650200 0.707712
-3.25999999 -21.52000046 0.43000001 229 127 77 97.000000 1.000000 4.000000 1.000000 0.000000 114.000000 106.000000 0.276375 0.650200 0.707712
-3.28999996 -21.55999947 0.41000000 229 127 77 97.000000 1.000000 4.000000 1.000000 0.000000 114.000000 106.000000 0.247621 0.543519 0.802042
-3.26999998 -21.55999947 0.41000000 229 127 77 97.000000 1.000000 4.000000 1.000000 0.000000 114.000000 106.000000 0.353968 0.282279 0.891642
-3.29999995 -21.54999924 0.41000000 229 127 77 97.000000 1.000000 4.000000 1.000000 0.000000 114.000000 106.000000 0.004041 0.526721 0.850028
-3.29999995 -21.59000015 0.47000000 229 127 77 97.000000 1.000000 4.000000 1.000000 0.000000 114.000000 106.000000 0.064123 -0.095623 0.993350
-3.31999993 -21.61000061 0.46000001 229 127 77 97.000000 1.000000 4.000000 1.000000 0.000000 114.000000 106.000000 -0.122948 -0.276302 0.953174
-3.32999992 -21.61000061 0.46000001 229 127 77 97.000000 1.000000 4.000000 1.000000 0.000000 114.000000 106.000000 0.012229 -0.136740 0.990532
-3.30999994 -21.62000084 0.41000000 229 127 77 97.000000 1.000000 4.000000 1.000000 0.000000 114.000000 106.000000 0.095648 -0.199992 0.975118
-3.31999993 -21.60000038 0.41000000 229 127 77 97.000000 1.000000 4.000000 1.000000 0.000000 114.000000 106.000000 0.308554 -0.375432 0.873982
-3.32999992 -21.60000038 0.37000000 229 127 77 97.000000 1.000000 4.000000 1.000000 0.000000 114.000000 106.000000 0.092040 -0.402502 0.910780
-3.31999993 -21.62000084 0.38000000 229 127 77 97.000000 1.000000 4.000000 1.000000 0.000000 114.000000 106.000000 -0.129101 -0.503348 0.854385
-3.26999998 -21.67000008 0.44999999 229 127 77 97.000000 1.000000 4.000000 1.000000 0.000000 114.000000 106.000000 -0.029607 -0.099786 0.994568
-3.31999993 -21.65999985 0.46000001 229 127 77 97.000000 1.000000 4.000000 1.000000 0.000000 114.000000 106.000000 -0.198152 -0.284065 0.938106
-3.30999994 -21.62999916 0.43000001 229 127 77 97.000000 1.000000 4.000000 1.000000 0.000000 114.000000 106.000000 0.140811 -0.321268 0.936461
-3.30999994 -21.62999916 0.43000001 229 127 77 97.000000 1.000000 4.000000 1.000000 0.000000 114.000000 106.000000 0.140811 -0.321268 0.936461
-3.30999994 -21.64999962 0.38000000 229 127 77 97.000000 1.000000 4.000000 1.000000 0.000000 114.000000 106.000000 -0.040258 -0.545571 0.837097
-3.29999995 -21.70000076 0.38999999 229 127 77 97.000000 1.000000 4.000000 1.000000 0.000000 114.000000 106.000000 -0.016852 0.921675 -0.387596
-3.31999993 -21.70000076 0.36000001 229 127 77 97.000000 1.000000 4.000000 1.000000 0.000000 114.000000 106.000000 0.206930 0.804727 -0.556412
-3.31999993 -21.78000069 0.47999999 229 127 77 97.000000 1.000000 4.000000 1.000000 0.000000 114.000000 106.000000 -0.259419 0.880224 -0.397375
-3.34999990 -21.62000084 0.44999999 229 127 77 97.000000 1.000000 4.000000 1.000000 0.000000 114.000000 106.000000 -0.187668 -0.411705 0.891785
-3.36999989 -21.62000084 0.44999999 229 127 77 97.000000 1.000000 4.000000 1.000000 0.000000 114.000000 106.000000 -0.068187 0.009441 0.997628
-3.36999989 -21.62000084 0.44999999 229 127 77 97.000000 1.000000 4.000000 1.000000 0.000000 114.000000 106.000000 -0.068187 0.009441 0.997628
-3.38000011 -21.62000084 0.41999999 229 127 77 97.000000 1.000000 4.000000 1.000000 0.000000 114.000000 106.000000 0.003506 -0.218537 0.975822
-3.40000010 -21.54000092 0.47000000 229 127 77 97.000000 1.000000 4.000000 1.000000 0.000000 114.000000 106.000000 -0.133911 -0.068702 0.988609
-3.39000010 -21.60000038 0.47999999 229 127 77 97.000000 1.000000 4.000000 1.000000 0.000000 114.000000 106.000000 0.164702 0.169809 0.971616
-3.40000010 -21.61000061 0.44000000 229 127 77 97.000000 1.000000 4.000000 1.000000 0.000000 114.000000 106.000000 -0.213904 0.146492 0.965808
-3.39000010 -21.61000061 0.38000000 229 127 77 97.000000 1.000000 4.000000 1.000000 0.000000 114.000000 106.000000 0.281264 -0.408974 0.868119
-3.38000011 -21.61000061 0.37000000 229 127 77 97.000000 1.000000 4.000000 1.000000 0.000000 114.000000 106.000000 0.298254 -0.437335 0.848400
-3.50000000 -21.50000000 0.41000000 229 127 77 97.000000 1.000000 4.000000 1.000000 0.000000 114.000000 106.000000 0.066935 0.900203 0.430295
-3.43000007 -21.45999908 0.34000000 229 127 77 97.000000 1.000000 4.000000 1.000000 0.000000 114.000000 106.000000 0.018007 0.793678 0.608071
-3.50999999 -21.47999954 0.33000001 229 127 77 97.000000 1.000000 4.000000 1.000000 0.000000 114.000000 106.000000 -0.126706 0.989233 0.073233
-3.45000005 -21.55999947 0.47000000 229 127 77 97.000000 1.000000 4.000000 1.000000 0.000000 114.000000 106.000000 0.214813 0.152322 0.964704
-3.45000005 -21.55999947 0.47000000 229 127 77 97.000000 1.000000 4.000000 1.000000 0.000000 114.000000 106.000000 0.214813 0.152322 0.964704
-3.48000002 -21.56999969 0.47000000 229 127 77 97.000000 1.000000 4.000000 1.000000 0.000000 114.000000 106.000000 0.257439 0.001197 0.966294
-3.49000001 -21.55999947 0.44000000 229 127 77 97.000000 1.000000 4.000000 1.000000 0.000000 114.000000 106.000000 0.281853 -0.078507 0.956240
-3.50000000 -21.61000061 0.41999999 229 127 77 97.000000 1.000000 4.000000 1.000000 0.000000 114.000000 106.000000 -0.061319 -0.041955 0.997236
-3.47000003 -21.61000061 0.36000001 229 127 77 97.000000 1.000000 4.000000 1.000000 0.000000 114.000000 106.000000 0.195875 -0.209200 0.958055
-3.50999999 -21.56999969 0.31999999 229 127 77 97.000000 1.000000 4.000000 1.000000 0.000000 114.000000 106.000000 0.112451 0.819284 0.562254
-3.36999989 -21.62999916 0.44999999 229 127 77 97.000000 1.000000 4.000000 1.000000 0.000000 114.000000 106.000000 0.003014 -0.027126 0.999627
-3.39000010 -21.62999916 0.47000000 229 127 77 97.000000 1.000000 4.000000 1.000000 0.000000 114.000000 106.000000 0.074337 -0.106360 0.991545
-3.36999989 -21.65999985 0.38000000 229 127 77 97.000000 1.000000 4.000000 1.000000 0.000000 114.000000 106.000000 -0.298540 -0.566746 0.767901
-3.36999989 -21.63999939 0.34999999 229 127 77 97.000000 1.000000 4.000000 1.000000 0.000000 114.000000 106.000000 0.184472 -0.453063 0.872183
-3.36999989 -21.67000008 0.38000000 229 127 77 97.000000 1.000000 4.000000 1.000000 0.000000 114.000000 106.000000 0.158364 0.845101 -0.510613
-3.33999991 -21.68000031 0.38000000 229 127 77 97.000000 1.000000 4.000000 1.000000 0.000000 114.000000 106.000000 -0.366234 0.785710 -0.498530
-3.35999990 -21.67000008 0.37000000 229 127 77 97.000000 1.000000 4.000000 1.000000 0.000000 114.000000 106.000000 -0.070033 0.810381 -0.581702
-3.40000010 -21.65999985 0.40000001 229 127 77 97.000000 1.000000 4.000000 1.000000 0.000000 114.000000 106.000000 -0.180707 -0.500304 0.846783
-3.40000010 -21.64999962 0.40000001 229 127 77 97.000000 1.000000 4.000000 1.000000 0.000000 114.000000 106.000000 -0.103936 -0.601658 0.791963
-3.39000010 -21.62999916 0.37000000 229 127 77 97.000000 1.000000 4.000000 1.000000 0.000000 114.000000 106.000000 0.194238 -0.407462 0.892327
-3.42000008 -21.63999939 0.38000000 229 127 77 97.000000 1.000000 4.000000 1.000000 0.000000 114.000000 106.000000 0.221724 -0.073082 0.972367
-3.39000010 -21.62999916 0.37000000 229 127 77 97.000000 1.000000 4.000000 1.000000 0.000000 114.000000 106.000000 0.194238 -0.407462 0.892327
-3.41000009 -21.62999916 0.38999999 229 127 77 97.000000 1.000000 4.000000 1.000000 0.000000 114.000000 106.000000 0.206598 -0.362631 0.908744
-3.41000009 -21.70000076 0.34999999 229 127 77 97.000000 1.000000 4.000000 1.000000 0.000000 114.000000 106.000000 -0.408505 0.743183 -0.529908
-3.48000002 -21.63999939 0.41000000 229 127 77 97.000000 1.000000 4.000000 1.000000 0.000000 114.000000 106.000000 0.297038 -0.165629 0.940391
-3.44000006 -21.63999939 0.38999999 229 127 77 97.000000 1.000000 4.000000 1.000000 0.000000 114.000000 106.000000 -0.003282 -0.123630 0.992323
-3.43000007 -21.62999916 0.38999999 229 127 77 97.000000 1.000000 4.000000 1.000000 0.000000 114.000000 106.000000 0.248202 0.063610 0.966617
-3.45000005 -21.67000008 0.38999999 229 127 77 97.000000 1.000000 4.000000 1.000000 0.000000 114.000000 106.000000 0.372465 -0.311654 0.874152
-3.50999999 -21.65999985 0.40000001 229 127 77 97.000000 1.000000 4.000000 1.000000 0.000000 114.000000 106.000000 0.289971 -0.310578 0.905239
-3.48000002 -21.64999962 0.37000000 229 127 77 97.000000 1.000000 4.000000 1.000000 0.000000 114.000000 106.000000 0.086717 -0.521726 0.848694
-3.50000000 -21.65999985 0.38999999 229 127 77 97.000000 1.000000 4.000000 1.000000 0.000000 114.000000 106.000000 -0.474536 0.601974 -0.642217
-3.48000002 -21.69000053 0.37000000 229 127 77 97.000000 1.000000 4.000000 1.000000 0.000000 114.000000 106.000000 -0.090447 0.834120 -0.544116
-3.49000001 -21.70000076 0.36000001 229 127 77 97.000000 1.000000 4.000000 1.000000 0.000000 114.000000 106.000000 0.199875 -0.673996 0.711182
-3.25000000 -21.85000038 0.52999997 229 127 77 97.000000 1.000000 4.000000 1.000000 0.000000 114.000000 106.000000 -0.042472 -0.486368 0.872721
-3.25000000 -21.88999939 0.50000000 229 127 77 97.000000 1.000000 4.000000 1.000000 0.000000 114.000000 106.000000 0.237714 -0.563989 0.790828
-3.28999996 -21.81999969 0.54000002 229 127 77 97.000000 1.000000 4.000000 1.000000 0.000000 114.000000 106.000000 0.153808 0.807867 -0.568941
-3.26999998 -21.85000038 0.52999997 229 127 77 97.000000 1.000000 4.000000 1.000000 0.000000 114.000000 106.000000 -0.206302 -0.702669 0.680953
-3.29999995 -21.87000084 0.54000002 229 127 77 97.000000 1.000000 4.000000 1.000000 0.000000 114.000000 106.000000 -0.479387 0.699872 -0.529497
-3.35999990 -21.82999992 0.52999997 229 127 77 97.000000 1.000000 4.000000 1.000000 0.000000 114.000000 106.000000 -0.294563 0.804930 -0.515092
-3.33999991 -21.81999969 0.51999998 229 127 77 97.000000 1.000000 4.000000 1.000000 0.000000 114.000000 106.000000 -0.118599 -0.472968 0.873061
-3.35999990 -21.87999916 0.50000000 229 127 77 97.000000 1.000000 4.000000 1.000000 0.000000 114.000000 106.000000 0.322190 -0.540190 0.777424
-3.40000010 -21.84000015 0.50999999 229 127 77 97.000000 1.000000 4.000000 1.000000 0.000000 114.000000 106.000000 -0.352036 0.640214 -0.682786
-3.41000009 -21.85000038 0.50999999 229 127 77 97.000000 1.000000 4.000000 1.000000 0.000000 114.000000 106.000000 0.421249 -0.506482 0.752347
-3.30999994 -22.13999939 0.30000001 229 127 77 97.000000 1.000000 4.000000 1.000000 0.000000 114.000000 211.000000 0.049543 0.998237 -0.032677
-3.34999990 -21.84000015 0.47999999 229 127 77 97.000000 1.000000 4.000000 1.000000 0.000000 114.000000 106.000000 -0.213156 -0.683033 0.698592
-3.33999991 -22.12999916 0.34999999 229 127 77 97.000000 1.000000 4.000000 1.000000 0.000000 114.000000 211.000000 -0.268329 0.882937 -0.385255
-3.36999989 -22.12999916 0.33000001 229 127 77 97.000000 1.000000 4.000000 1.000000 0.000000 114.000000 211.000000 0.130206 0.990695 0.039628
-3.38000011 -22.12000084 0.33000001 229 127 77 97.000000 1.000000 4.000000 1.000000 0.000000 114.000000 211.000000 -0.085046 0.948593 -0.304858
-3.35999990 -22.13999939 0.31999999 229 127 77 97.000000 1.000000 4.000000 1.000000 0.000000 114.000000 211.000000 0.320705 0.925382 -0.202030
-3.40000010 -22.05999947 0.23000000 229 127 77 97.000000 1.000000 4.000000 1.000000 0.000000 114.000000 211.000000 0.204753 0.970349 0.128447
-3.43000007 -22.01000023 0.20000000 229 127 77 97.000000 1.000000 4.000000 1.000000 0.000000 114.000000 211.000000 0.286521 0.957940 0.015986
-3.43000007 -21.95999908 0.12000000 229 127 77 97.000000 1.000000 4.000000 1.000000 0.000000 114.000000 211.000000 0.156689 0.941495 0.298390
-3.46000004 -21.93000031 0.10000000 229 127 77 97.000000 1.000000 4.000000 1.000000 0.000000 114.000000 211.000000 0.335416 0.885921 0.320375
-3.40000010 -22.23999977 0.28999999 229 127 77 97.000000 1.000000 4.000000 1.000000 0.000000 114.000000 211.000000 0.105178 0.969412 -0.221761
-3.40000010 -22.26000023 0.28999999 229 127 77 97.000000 1.000000 4.000000 1.000000 0.000000 114.000000 211.000000 -0.146404 0.971362 -0.187143
-3.43000007 -22.28000069 0.28000000 229 127 77 97.000000 1.000000 4.000000 1.000000 0.000000 114.000000 211.000000 0.049508 0.989010 0.139313
-3.44000006 -22.32999992 0.28000000 229 127 77 97.000000 1.000000 4.000000 1.000000 0.000000 114.000000 211.000000 -0.095973 0.995313 -0.011862
-3.67000008 -21.36000061 0.34999999 229 127 77 97.000000 1.000000 4.000000 1.000000 0.000000 114.000000 106.000000 -0.166642 0.967559 -0.189895
-3.65000010 -21.36000061 0.34000000 229 127 77 97.000000 1.000000 4.000000 1.000000 0.000000 114.000000 106.000000 0.178757 0.983741 -0.017299
-3.67000008 -21.36000061 0.34000000 229 127 77 97.000000 1.000000 4.000000 1.000000 0.000000 114.000000 106.000000 0.170852 0.983869 0.053023
-3.66000009 -21.38999939 0.37000000 229 127 77 97.000000 1.000000 4.000000 1.000000 0.000000 114.000000 106.000000 0.264066 0.959654 0.096609
-3.67000008 -21.42000008 0.36000001 229 127 77 97.000000 1.000000 4.000000 1.000000 0.000000 114.000000 106.000000 0.275305 0.868505 0.412197
-3.55999994 -21.32999992 0.31000000 229 127 77 97.000000 1.000000 4.000000 1.000000 0.000000 114.000000 106.000000 -0.089407 0.968367 -0.232962
-3.70000005 -21.40999985 0.37000000 229 127 77 97.000000 1.000000 4.000000 1.000000 0.000000 114.000000 106.000000 -0.399821 0.899235 0.177538
-3.69000006 -21.45000076 0.38999999 229 127 77 97.000000 1.000000 4.000000 1.000000 0.000000 114.000000 106.000000 0.038864 0.901906 0.430181
-3.80999994 -21.40999985 0.34999999 229 127 77 97.000000 1.000000 4.000000 1.000000 0.000000 114.000000 112.000000 -0.261145 0.964888 -0.028199
-3.84999990 -21.40999985 0.37000000 229 127 77 97.000000 1.000000 4.000000 1.000000 0.000000 114.000000 112.000000 0.343115 0.926551 0.154194
-3.83999991 -21.40999985 0.37000000 229 127 77 97.000000 1.000000 4.000000 1.000000 0.000000 114.000000 112.000000 0.273509 0.945717 0.175536
-3.84999990 -21.40999985 0.36000001 229 127 77 97.000000 1.000000 4.000000 1.000000 0.000000 114.000000 112.000000 0.264182 0.962826 -0.056342
-3.54999995 -21.47999954 0.34000000 229 127 77 97.000000 1.000000 4.000000 1.000000 0.000000 114.000000 106.000000 0.101311 0.985696 -0.134684
-3.52999997 -21.48999977 0.33000001 229 127 77 97.000000 1.000000 4.000000 1.000000 0.000000 114.000000 106.000000 0.022485 0.996853 -0.076022
-3.56999993 -21.47999954 0.33000001 229 127 77 97.000000 1.000000 4.000000 1.000000 0.000000 114.000000 106.000000 0.044418 0.998893 0.015495
-3.53999996 -21.54000092 0.46000001 229 127 77 97.000000 1.000000 4.000000 1.000000 0.000000 114.000000 106.000000 -0.031837 -0.021567 0.999260
-3.52999997 -21.54999924 0.47000000 229 127 77 97.000000 1.000000 4.000000 1.000000 0.000000 114.000000 106.000000 0.048149 -0.003073 0.998835
-3.54999995 -21.61000061 0.46000001 229 127 77 97.000000 1.000000 4.000000 1.000000 0.000000 114.000000 106.000000 -0.075707 -0.174246 0.981788
-3.56999993 -21.60000038 0.44999999 229 127 77 97.000000 1.000000 4.000000 1.000000 0.000000 114.000000 106.000000 -0.281895 -0.043850 0.958443
-3.52999997 -21.56999969 0.34000000 229 127 77 97.000000 1.000000 4.000000 1.000000 0.000000 114.000000 106.000000 0.370947 0.775911 0.510255
-3.51999998 -21.56999969 0.34000000 229 127 77 97.000000 1.000000 4.000000 1.000000 0.000000 114.000000 106.000000 0.252129 0.848070 0.466056
-3.52999997 -21.55999947 0.33000001 229 127 77 97.000000 1.000000 4.000000 1.000000 0.000000 114.000000 106.000000 -0.085396 0.880560 0.466179
-3.61999989 -21.47999954 0.37000000 229 127 77 97.000000 1.000000 4.000000 1.000000 0.000000 114.000000 106.000000 -0.240908 0.836272 0.492557
-3.65000010 -21.47999954 0.37000000 229 127 77 97.000000 1.000000 4.000000 1.000000 0.000000 114.000000 106.000000 0.318826 0.807376 0.496481
-3.66000009 -21.46999931 0.38000000 229 127 77 97.000000 1.000000 4.000000 1.000000 0.000000 114.000000 106.000000 -0.149912 0.946742 0.284968
-3.66000009 -21.53000069 0.34000000 229 127 77 97.000000 1.000000 4.000000 1.000000 0.000000 114.000000 106.000000 0.268265 0.956594 0.113849
-3.67000008 -21.56999969 0.33000001 229 127 77 97.000000 1.000000 4.000000 1.000000 0.000000 114.000000 106.000000 -0.360404 0.907523 0.215663
-3.52999997 -21.55999947 0.31999999 229 127 77 97.000000 1.000000 4.000000 1.000000 0.000000 114.000000 106.000000 -0.254756 0.909843 0.327544
-3.53999996 -21.67000008 0.46000001 229 127 77 97.000000 1.000000 4.000000 1.000000 0.000000 114.000000 106.000000 0.423191 -0.455620 0.783147
-3.52999997 -21.70000076 0.44000000 229 127 77 97.000000 1.000000 4.000000 1.000000 0.000000 114.000000 106.000000 -0.387730 0.641817 -0.661616
-3.51999998 -21.68000031 0.43000001 229 127 77 97.000000 1.000000 4.000000 1.000000 0.000000 114.000000 106.000000 0.221314 -0.243308 0.944363
-3.55999994 -21.65999985 0.41999999 229 127 77 97.000000 1.000000 4.000000 1.000000 0.000000 114.000000 106.000000 -0.249662 -0.431235 0.867009
-3.55999994 -21.65999985 0.41999999 229 127 77 97.000000 1.000000 4.000000 1.000000 0.000000 114.000000 106.000000 -0.249662 -0.431235 0.867009
-3.55999994 -21.65999985 0.41999999 229 127 77 97.000000 1.000000 4.000000 1.000000 0.000000 114.000000 106.000000 -0.249662 -0.431235 0.867009
-3.56999993 -21.68000031 0.44000000 229 127 77 97.000000 1.000000 4.000000 1.000000 0.000000 114.000000 106.000000 0.060954 -0.182863 0.981247
-3.56999993 -21.70000076 0.43000001 229 127 77 97.000000 1.000000 4.000000 1.000000 0.000000 114.000000 106.000000 -0.034434 -0.325208 0.945015
-3.52999997 -21.65999985 0.40000001 229 127 77 97.000000 1.000000 4.000000 1.000000 0.000000 114.000000 106.000000 0.056792 -0.497276 0.865732
-3.51999998 -21.68000031 0.37000000 229 127 77 97.000000 1.000000 4.000000 1.000000 0.000000 114.000000 106.000000 0.177074 0.797589 -0.576625
-3.51999998 -21.67000008 0.40000001 229 127 77 97.000000 1.000000 4.000000 1.000000 0.000000 114.000000 106.000000 0.384709 -0.545141 0.744862
-3.57999992 -21.67000008 0.40000001 229 127 77 97.000000 1.000000 4.000000 1.000000 0.000000 114.000000 106.000000 -0.424772 0.664643 -0.614670
-3.55999994 -21.67000008 0.38999999 229 127 77 97.000000 1.000000 4.000000 1.000000 0.000000 114.000000 106.000000 0.176445 0.809835 -0.559495
-3.89000010 -21.42000008 0.40000001 229 127 77 97.000000 1.000000 4.000000 1.000000 0.000000 114.000000 112.000000 -0.427408 0.877154 0.218916
-3.89000010 -21.42000008 0.40000001 229 127 77 97.000000 1.000000 4.000000 1.000000 0.000000 114.000000 112.000000 -0.427408 0.877154 0.218916
-3.88000011 -21.43000031 0.36000001 229 127 77 97.000000 1.000000 4.000000 1.000000 0.000000 114.000000 112.000000 -0.240583 0.970628 -0.001185
-3.52999997 -21.89999962 0.07000000 229 127 77 97.000000 1.000000 4.000000 1.000000 0.000000 114.000000 211.000000 0.237633 0.892969 0.382279
-3.23000002 -21.56999969 0.50999999 229 127 77 97.000000 1.000000 4.000000 1.000000 0.000000 114.000000 106.000000 0.371934 0.350327 0.859614
-3.24000001 -21.42000008 0.33000001 229 127 77 97.000000 1.000000 4.000000 1.000000 0.000000 114.000000 106.000000 0.043861 0.913096 0.405378
-3.24000001 -21.42000008 0.31999999 229 127 77 97.000000 1.000000 4.000000 1.000000 0.000000 114.000000 106.000000 0.163387 0.949263 0.268710
-3.25000000 -21.42000008 0.31999999 229 127 77 97.000000 1.000000 4.000000 1.000000 0.000000 114.000000 106.000000 -0.329285 0.895477 0.299486
-3.22000003 -21.43000031 0.31999999 229 127 77 97.000000 1.000000 4.000000 1.000000 0.000000 114.000000 106.000000 0.158855 0.932410 0.324617
-3.25999999 -21.34000015 0.28999999 229 127 77 97.000000 1.000000 4.000000 1.000000 0.000000 114.000000 106.000000 -0.069386 0.986699 0.147005
-3.41000009 -21.26000023 0.37000000 229 127 77 97.000000 1.000000 4.000000 1.000000 0.000000 114.000000 106.000000 0.193901 0.950522 0.242715
-3.49000001 -21.18000031 0.33000001 229 127 77 97.000000 1.000000 4.000000 1.000000 0.000000 114.000000 70.000000 -0.022842 0.995250 -0.094630
-3.38000011 -21.27000046 0.31000000 229 127 77 97.000000 1.000000 4.000000 1.000000 0.000000 114.000000 106.000000 0.244762 0.950650 0.190671
-3.49000001 -21.13999939 0.31000000 229 127 77 97.000000 1.000000 4.000000 1.000000 0.000000 114.000000 70.000000 0.272486 0.947601 0.166745
-3.46000004 -21.27000046 0.31000000 229 127 77 97.000000 1.000000 4.000000 1.000000 0.000000 114.000000 70.000000 0.148969 0.938915 -0.310238
-3.42000008 -21.35000038 0.34999999 229 127 77 97.000000 1.000000 4.000000 1.000000 0.000000 114.000000 106.000000 0.007558 0.994471 0.104738
-3.35999990 -21.32999992 0.37000000 229 127 77 97.000000 1.000000 4.000000 1.000000 0.000000 114.000000 106.000000 0.407673 0.877023 0.254231
-3.41000009 -21.37999916 0.37000000 229 127 77 97.000000 1.000000 4.000000 1.000000 0.000000 114.000000 106.000000 0.027220 0.926786 0.374603
-3.42000008 -21.37999916 0.37000000 229 127 77 97.000000 1.000000 4.000000 1.000000 0.000000 114.000000 106.000000 0.036889 0.867568 0.495948
-3.47000003 -21.35000038 0.34999999 229 127 77 97.000000 1.000000 4.000000 1.000000 0.000000 114.000000 106.000000 -0.381950 0.901867 0.201867
-3.45000005 -21.39999962 0.34999999 229 127 77 97.000000 1.000000 4.000000 1.000000 0.000000 114.000000 106.000000 0.023111 0.993778 0.108952
-3.21000004 -21.47999954 0.41999999 229 127 77 97.000000 1.000000 4.000000 1.000000 0.000000 114.000000 106.000000 -0.120753 0.525205 0.842365
-3.23000002 -21.47999954 0.44999999 229 127 77 97.000000 1.000000 4.000000 1.000000 0.000000 114.000000 106.000000 0.361906 0.238829 0.901102
-3.21000004 -21.54000092 0.41999999 229 127 77 97.000000 1.000000 4.000000 1.000000 0.000000 114.000000 106.000000 -0.133002 0.515930 0.846243
-3.26999998 -21.45999908 0.44999999 229 127 77 97.000000 1.000000 4.000000 1.000000 0.000000 114.000000 106.000000 0.075339 0.541589 0.837260
-3.26999998 -21.61000061 0.41999999 229 127 77 97.000000 1.000000 4.000000 1.000000 0.000000 114.000000 106.000000 0.489141 -0.106955 0.865622
-3.31999993 -21.61000061 0.34999999 229 127 77 97.000000 1.000000 4.000000 1.000000 0.000000 114.000000 106.000000 0.245462 -0.461957 0.852258
-3.30999994 -21.67000008 0.46000001 229 127 77 97.000000 1.000000 4.000000 1.000000 0.000000 114.000000 106.000000 0.127871 -0.264971 0.955740
-3.33999991 -21.62000084 0.41999999 229 127 77 97.000000 1.000000 4.000000 1.000000 0.000000 114.000000 106.000000 0.246242 -0.478719 0.842729
-3.41000009 -21.57999992 0.49000001 229 127 77 97.000000 1.000000 4.000000 1.000000 0.000000 114.000000 106.000000 0.049288 -0.286883 0.956697
-3.39000010 -21.60000038 0.47999999 229 127 77 97.000000 1.000000 4.000000 1.000000 0.000000 114.000000 106.000000 0.164702 0.169809 0.971616
-3.35999990 -21.62000084 0.36000001 229 127 77 97.000000 1.000000 4.000000 1.000000 0.000000 114.000000 106.000000 -0.193402 -0.242091 0.950782
-3.35999990 -21.61000061 0.36000001 229 127 77 97.000000 1.000000 4.000000 1.000000 0.000000 114.000000 106.000000 0.480743 -0.209477 0.851473
-3.34999990 -21.61000061 0.38999999 229 127 77 97.000000 1.000000 4.000000 1.000000 0.000000 114.000000 106.000000 -0.218728 -0.327377 0.919229
-3.46000004 -21.45999908 0.38999999 229 127 77 97.000000 1.000000 4.000000 1.000000 0.000000 114.000000 106.000000 0.229054 0.903086 0.363277
-3.50999999 -21.48999977 0.33000001 229 127 77 97.000000 1.000000 4.000000 1.000000 0.000000 114.000000 106.000000 -0.050908 0.992146 -0.114261
-3.44000006 -21.55999947 0.47000000 229 127 77 97.000000 1.000000 4.000000 1.000000 0.000000 114.000000 106.000000 0.099949 -0.083866 0.991452
-3.45000005 -21.57999992 0.44999999 229 127 77 97.000000 1.000000 4.000000 1.000000 0.000000 114.000000 106.000000 -0.034822 -0.122439 0.991865
-3.46000004 -21.57999992 0.49000001 229 127 77 97.000000 1.000000 4.000000 1.000000 0.000000 114.000000 106.000000 -0.186143 0.231674 0.954818
-3.48000002 -21.56999969 0.47000000 229 127 77 97.000000 1.000000 4.000000 1.000000 0.000000 114.000000 106.000000 0.257439 0.001197 0.966294
-3.36999989 -21.62999916 0.44999999 229 127 77 97.000000 1.000000 4.000000 1.000000 0.000000 114.000000 106.000000 0.003014 -0.027126 0.999627
-3.39000010 -21.69000053 0.34999999 229 127 77 97.000000 1.000000 4.000000 1.000000 0.000000 114.000000 106.000000 -0.234385 0.857397 -0.458186
-3.50999999 -21.67000008 0.43000001 229 127 77 97.000000 1.000000 4.000000 1.000000 0.000000 114.000000 106.000000 0.197884 -0.584447 0.786933
-3.44000006 -21.68000031 0.38000000 229 127 77 97.000000 1.000000 4.000000 1.000000 0.000000 114.000000 106.000000 -0.098369 -0.753185 0.650412
-3.25999999 -21.82999992 0.56000000 229 127 77 97.000000 1.000000 4.000000 1.000000 0.000000 114.000000 106.000000 -0.261148 -0.732798 0.628338
-3.32999992 -21.82999992 0.50999999 229 127 77 97.000000 1.000000 4.000000 1.000000 0.000000 114.000000 106.000000 0.166075 0.862710 -0.477650
-3.33999991 -21.84000015 0.54000002 229 127 77 97.000000 1.000000 4.000000 1.000000 0.000000 114.000000 106.000000 0.087056 -0.354922 0.930834
-3.34999990 -21.85000038 0.52999997 229 127 77 97.000000 1.000000 4.000000 1.000000 0.000000 114.000000 106.000000 -0.037646 0.933352 -0.356984
-3.34999990 -21.86000061 0.51999998 229 127 77 97.000000 1.000000 4.000000 1.000000 0.000000 114.000000 106.000000 -0.120418 -0.682369 0.721022
-3.34999990 -21.85000038 0.52999997 229 127 77 97.000000 1.000000 4.000000 1.000000 0.000000 114.000000 106.000000 -0.037646 0.933352 -0.356984
-3.40000010 -21.84000015 0.50999999 229 127 77 97.000000 1.000000 4.000000 1.000000 0.000000 114.000000 106.000000 -0.352036 0.640214 -0.682786
-3.39000010 -21.86000061 0.49000001 229 127 77 97.000000 1.000000 4.000000 1.000000 0.000000 114.000000 106.000000 -0.185495 0.933053 -0.308228
-3.38000011 -21.87999916 0.47000000 229 127 77 97.000000 1.000000 4.000000 1.000000 0.000000 114.000000 106.000000 -0.171416 0.916579 -0.361248
-3.35999990 -21.82999992 0.49000001 229 127 77 97.000000 1.000000 4.000000 1.000000 0.000000 114.000000 106.000000 0.370241 -0.636814 0.676306
-3.36999989 -22.10000038 0.33000001 229 127 77 97.000000 1.000000 4.000000 1.000000 0.000000 114.000000 211.000000 -0.083659 0.996489 0.003177
-3.38000011 -22.07999992 0.30000001 229 127 77 97.000000 1.000000 4.000000 1.000000 0.000000 114.000000 211.000000 -0.212513 0.919940 -0.329467
-3.33999991 -22.06999969 0.31999999 229 127 77 97.000000 1.000000 4.000000 1.000000 0.000000 114.000000 211.000000 0.158756 0.953870 -0.254810
-3.36999989 -22.06999969 0.25999999 229 127 77 97.000000 1.000000 4.000000 1.000000 0.000000 114.000000 211.000000 0.279586 0.959117 -0.043881
-3.40000010 -22.06999969 0.27000001 229 127 77 97.000000 1.000000 4.000000 1.000000 0.000000 114.000000 211.000000 0.138541 0.986367 -0.088809
-3.45000005 -21.98999977 0.15000001 229 127 77 97.000000 1.000000 4.000000 1.000000 0.000000 114.000000 211.000000 0.354458 0.925452 0.133784
-3.43000007 -21.98999977 0.15000001 229 127 77 97.000000 1.000000 4.000000 1.000000 0.000000 114.000000 211.000000 0.044824 0.995975 0.077623
-3.44000006 -21.96999931 0.15000001 229 127 77 97.000000 1.000000 4.000000 1.000000 0.000000 114.000000 211.000000 0.180737 0.954558 0.236966
-3.48000002 -21.93000031 0.11000000 229 127 77 97.000000 1.000000 4.000000 1.000000 0.000000 114.000000 211.000000 0.296840 0.916584 0.267880
-3.44000006 -21.98999977 0.14000000 229 127 77 97.000000 1.000000 4.000000 1.000000 0.000000 114.000000 211.000000 -0.185775 0.969873 0.157588
-3.40000010 -22.26000023 0.28999999 229 127 77 97.000000 1.000000 4.000000 1.000000 0.000000 114.000000 211.000000 -0.146404 0.971362 -0.187143
-3.41000009 -22.23999977 0.30000001 229 127 77 97.000000 1.000000 4.000000 1.000000 0.000000 114.000000 211.000000 0.036084 0.959333 -0.279961
-3.67000008 -21.42000008 0.36000001 229 127 77 97.000000 1.000000 4.000000 1.000000 0.000000 114.000000 106.000000 0.275305 0.868505 0.412197
-3.70000005 -21.35000038 0.34999999 229 127 77 97.000000 1.000000 4.000000 1.000000 0.000000 114.000000 106.000000 0.134973 0.896507 0.421969
-3.70000005 -21.40999985 0.36000001 229 127 77 97.000000 1.000000 4.000000 1.000000 0.000000 114.000000 106.000000 -0.351690 0.933889 -0.064542
-3.72000003 -21.42000008 0.34999999 229 127 77 97.000000 1.000000 4.000000 1.000000 0.000000 114.000000 106.000000 0.138247 0.986634 -0.086257
-3.75000000 -21.38999939 0.38000000 229 127 77 97.000000 1.000000 4.000000 1.000000 0.000000 114.000000 106.000000 0.164113 0.802497 0.573642
-3.83999991 -21.40999985 0.37000000 229 127 77 97.000000 1.000000 4.000000 1.000000 0.000000 114.000000 112.000000 0.273509 0.945717 0.175536
-3.81999993 -21.42000008 0.34999999 229 127 77 97.000000 1.000000 4.000000 1.000000 0.000000 114.000000 112.000000 -0.085757 0.943325 -0.320599
-3.54999995 -21.47999954 0.34000000 229 127 77 97.000000 1.000000 4.000000 1.000000 0.000000 114.000000 106.000000 0.101311 0.985696 -0.134684
-3.56999993 -21.53000069 0.34000000 229 127 77 97.000000 1.000000 4.000000 1.000000 0.000000 114.000000 106.000000 0.281911 0.923009 0.261877
-3.54999995 -21.46999931 0.34999999 229 127 77 97.000000 1.000000 4.000000 1.000000 0.000000 114.000000 106.000000 0.126387 0.936353 0.327520
-3.51999998 -21.54999924 0.44000000 229 127 77 97.000000 1.000000 4.000000 1.000000 0.000000 114.000000 106.000000 0.328175 0.006239 0.944596
-3.51999998 -21.61000061 0.47999999 229 127 77 97.000000 1.000000 4.000000 1.000000 0.000000 114.000000 106.000000 0.156997 0.085090 0.983927
-3.51999998 -21.62000084 0.44000000 229 127 77 97.000000 1.000000 4.000000 1.000000 0.000000 114.000000 106.000000 0.206068 -0.034543 0.977928
-3.58999991 -21.62000084 0.43000001 229 127 77 97.000000 1.000000 4.000000 1.000000 0.000000 114.000000 106.000000 0.476356 -0.246602 0.843962
-3.52999997 -21.56999969 0.33000001 229 127 77 97.000000 1.000000 4.000000 1.000000 0.000000 114.000000 106.000000 0.287852 0.803782 0.520649
-3.52999997 -21.56999969 0.33000001 229 127 77 97.000000 1.000000 4.000000 1.000000 0.000000 114.000000 106.000000 0.287852 0.803782 0.520649
-3.52999997 -21.56999969 0.34000000 229 127 77 97.000000 1.000000 4.000000 1.000000 0.000000 114.000000 106.000000 0.370947 0.775911 0.510255
-3.59999990 -21.59000015 0.40000001 229 127 77 97.000000 1.000000 4.000000 1.000000 0.000000 114.000000 106.000000 -0.184090 -0.105018 0.977283
-3.65000010 -21.59000015 0.31999999 229 127 77 97.000000 1.000000 4.000000 1.000000 0.000000 114.000000 106.000000 -0.283603 0.958847 -0.013505
-3.56999993 -21.69000053 0.38000000 229 127 77 97.000000 1.000000 4.000000 1.000000 0.000000 114.000000 106.000000 0.373783 -0.546800 0.749197
-3.54999995 -21.72999954 0.41000000 229 127 77 97.000000 1.000000 4.000000 1.000000 0.000000 114.000000 106.000000 -0.364124 0.775179 -0.516247
-3.88000011 -21.43000031 0.36000001 229 127 77 97.000000 1.000000 4.000000 1.000000 0.000000 114.000000 112.000000 -0.240583 0.970628 -0.001185
-3.25000000 -21.44000053 0.49000001 229 127 77 97.000000 1.000000 4.000000 1.000000 0.000000 114.000000 106.000000 0.264102 0.748025 0.608858
-3.41000009 -21.27000046 0.34999999 229 127 77 97.000000 1.000000 4.000000 1.000000 0.000000 114.000000 106.000000 0.220964 0.959274 -0.175977
-3.39000010 -21.27000046 0.31999999 229 127 77 97.000000 1.000000 4.000000 1.000000 0.000000 114.000000 106.000000 0.145527 0.973132 0.178429
-3.49000001 -21.13999939 0.30000001 229 127 77 97.000000 1.000000 4.000000 1.000000 0.000000 114.000000 70.000000 0.005316 0.996270 0.086124
-3.41000009 -21.35000038 0.34999999 229 127 77 97.000000 1.000000 4.000000 1.000000 0.000000 114.000000 106.000000 -0.197560 0.964248 0.176626
-3.38000011 -21.38999939 0.36000001 229 127 77 97.000000 1.000000 4.000000 1.000000 0.000000 114.000000 106.000000 0.291208 0.804363 0.517878
-3.45000005 -21.34000015 0.36000001 229 127 77 97.000000 1.000000 4.000000 1.000000 0.000000 114.000000 106.000000 -0.322947 0.946397 -0.006234
-3.39000010 -21.39999962 0.31999999 229 127 77 97.000000 1.000000 4.000000 1.000000 0.000000 114.000000 106.000000 -0.388057 0.921145 0.030052
-3.22000003 -21.47999954 0.41000000 229 127 77 97.000000 1.000000 4.000000 1.000000 0.000000 114.000000 106.000000 0.134606 0.415155 0.899738
-3.19000006 -21.54999924 0.43000001 229 127 77 97.000000 1.000000 4.000000 1.000000 0.000000 114.000000 106.000000 0.321426 -0.023949 0.946632
-3.18000007 -21.54000092 0.41000000 229 127 77 97.000000 1.000000 4.000000 1.000000 0.000000 114.000000 106.000000 0.340228 -0.003766 0.940335
-3.25000000 -21.54000092 0.44000000 229 127 77 97.000000 1.000000 4.000000 1.000000 0.000000 114.000000 106.000000 0.039628 0.130206 0.990695
-3.25999999 -21.45999908 0.44999999 229 127 77 97.000000 1.000000 4.000000 1.000000 0.000000 114.000000 106.000000 0.136380 0.529390 0.837345
-3.31999993 -21.52000046 0.37000000 229 127 77 97.000000 1.000000 4.000000 1.000000 0.000000 114.000000 106.000000 0.321648 0.395520 0.860294
-3.29999995 -21.50000000 0.38999999 229 127 77 97.000000 1.000000 4.000000 1.000000 0.000000 114.000000 106.000000 0.364644 0.418315 0.831894
