//X Y Z R G B PointSourceId ScanDirectionFlag NumberOfReturns ReturnNumber GpsTime Intensity Classification Nx Ny Nz
0.79000002 -18.35000038 -0.15000001 112 35 182 0.000000 0.000000 0.000000 0.000000 0.000000 0.000000 15.000000 0.107128 0.971712 -0.210475
0.75999999 -18.34000015 0.07000000 112 35 182 0.000000 0.000000 0.000000 0.000000 0.000000 0.000000 15.000000 0.164178 0.903693 0.395455
0.72000003 -18.34000015 -0.08000000 112 35 182 0.000000 0.000000 0.000000 0.000000 0.000000 0.000000 15.000000 0.418132 0.905726 -0.069462
0.74000001 -18.35000038 -0.08000000 112 35 182 0.000000 0.000000 0.000000 0.000000 0.000000 0.000000 15.000000 0.229780 0.866555 0.443039
0.76999998 -18.30999947 -0.16000000 112 35 182 0.000000 0.000000 0.000000 0.000000 0.000000 0.000000 15.000000 0.420422 0.866646 0.268645
0.75999999 -18.36000061 -0.12000000 112 35 182 0.000000 0.000000 0.000000 0.000000 0.000000 0.000000 15.000000 0.307973 0.807047 0.503812
0.75999999 -18.36000061 -0.12000000 112 35 182 0.000000 0.000000 0.000000 0.000000 0.000000 0.000000 15.000000 0.307973 0.807047 0.503812
0.75999999 -18.31999969 -0.13000000 112 35 182 0.000000 0.000000 0.000000 0.000000 0.000000 0.000000 15.000000 0.423034 0.885591 0.191756
0.76999998 -18.32999992 -0.13000000 112 35 182 0.000000 0.000000 0.000000 0.000000 0.000000 0.000000 15.000000 0.221049 0.938417 0.265537
0.77999997 -18.34000015 -0.19000000 112 35 182 0.000000 0.000000 0.000000 0.000000 0.000000 0.000000 15.000000 0.357543 0.793649 0.492223
0.76999998 -18.34000015 -0.17000000 112 35 182 0.000000 0.000000 0.000000 0.000000 0.000000 0.000000 15.000000 0.573433 0.811019 0.115860
0.72000003 -18.36000061 -0.17000000 112 35 182 0.000000 0.000000 0.000000 0.000000 0.000000 0.000000 15.000000 0.176708 0.883541 0.433738
0.69999999 -18.36000061 -0.16000000 112 35 182 0.000000 0.000000 0.000000 0.000000 0.000000 0.000000 15.000000 0.366165 0.920285 0.137834
0.73000002 -18.31999969 -0.19000000 112 35 182 0.000000 0.000000 0.000000 0.000000 0.000000 0.000000 15.000000 0.504548 0.833800 -0.224074
0.63999999 -18.56999969 0.51999998 112 35 182 0.000000 0.000000 0.000000 0.000000 0.000000 0.000000 15.000000 0.784768 0.612964 -0.091726
0.63999999 -18.61000061 0.54000002 112 35 182 0.000000 0.000000 0.000000 0.000000 0.000000 0.000000 15.000000 0.565594 0.816969 -0.112534
0.62000000 -18.57999992 0.51999998 112 35 182 0.000000 0.000000 0.000000 0.000000 0.000000 0.000000 15.000000 0.642121 0.730040 0.233927
0.63999999 -18.62000084 0.51999998 112 35 182 0.000000 0.000000 0.000000 0.000000 0.000000 0.000000 15.000000 0.676373 0.724364 -0.133475
0.68000001 -18.52000046 0.49000001 112 35 182 0.000000 0.000000 0.000000 0.000000 0.000000 0.000000 15.000000 0.519544 0.654053 0.549808
0.67000002 -18.48999977 0.38000000 112 35 182 0.000000 0.000000 0.000000 0.000000 0.000000 0.000000 15.000000 0.289234 0.953306 0.086900
0.68000001 -18.53000069 0.38000000 112 35 182 0.000000 0.000000 0.000000 0.000000 0.000000 0.000000 15.000000 0.649495 0.672399 0.355014
0.69000000 -18.51000023 0.38999999 112 35 182 0.000000 0.000000 0.000000 0.000000 0.000000 0.000000 15.000000 0.392694 0.913529 0.106096
0.69000000 -18.51000023 0.40000001 112 35 182 0.000000 0.000000 0.000000 0.000000 0.000000 0.000000 15.000000 0.494145 0.859320 -0.131869
0.66000003 -18.52000046 0.34999999 112 35 182 0.000000 0.000000 0.000000 0.000000 0.000000 0.000000 15.000000 0.451900 0.750976 0.481479
0.66000003 -18.52000046 0.34999999 112 35 182 0.000000 0.000000 0.000000 0.000000 0.000000 0.000000 15.000000 0.451900 0.750976 0.481479
0.68000001 -18.53000069 0.36000001 112 35 182 0.000000 0.000000 0.000000 0.000000 0.000000 0.000000 15.000000 0.262772 0.934458 0.240289
0.63000000 -18.47999954 0.38000000 112 35 182 0.000000 0.000000 0.000000 0.000000 0.000000 0.000000 15.000000 0.871170 0.461208 0.168377
0.72000003 -18.44000053 0.25999999 112 35 182 0.000000 0.000000 0.000000 0.000000 0.000000 0.000000 15.000000 0.264974 0.791786 0.550330
0.73000002 -18.43000031 0.15000001 112 35 182 0.000000 0.000000 0.000000 0.000000 0.000000 0.000000 15.000000 0.466179 0.865761 0.182032
0.72000003 -18.40999985 0.18000001 112 35 182 0.000000 0.000000 0.000000 0.000000 0.000000 0.000000 15.000000 0.364080 0.800334 0.476351
0.69999999 -18.46999931 0.25999999 112 35 182 0.000000 0.000000 0.000000 0.000000 0.000000 0.000000 15.000000 0.676648 0.731944 0.080034
0.75000000 -18.46999931 0.28999999 112 35 182 0.000000 0.000000 0.000000 0.000000 0.000000 0.000000 15.000000 0.171026 0.981280 -0.088546
0.73000002 -18.45999908 0.18000001 112 35 182 0.000000 0.000000 0.000000 0.000000 0.000000 0.000000 15.000000 0.406430 0.904272 0.130789
0.72000003 -18.45999908 0.15000001 112 35 182 0.000000 0.000000 0.000000 0.000000 0.000000 0.000000 15.000000 0.500502 0.859028 -0.107558
0.69999999 -18.45999908 0.23000000 112 35 182 0.000000 0.000000 0.000000 0.000000 0.000000 0.000000 15.000000 0.401085 0.915831 0.019597
0.69000000 -18.44000053 0.20000000 112 35 182 0.000000 0.000000 0.000000 0.000000 0.000000 0.000000 15.000000 0.412448 0.906281 0.092421
0.68000001 -18.44000053 0.23000000 112 35 182 0.000000 0.000000 0.000000 0.000000 0.000000 0.000000 15.000000 0.753658 0.601978 0.263859
0.67000002 -18.51000023 0.28999999 112 35 182 0.000000 0.000000 0.000000 0.000000 0.000000 0.000000 15.000000 0.521810 0.844488 0.120641
0.69000000 -18.52000046 0.23999999 112 35 182 0.000000 0.000000 0.000000 0.000000 0.000000 0.000000 15.000000 0.166612 0.925466 0.340224
0.69000000 -18.51000023 0.25999999 112 35 182 0.000000 0.000000 0.000000 0.000000 0.000000 0.000000 15.000000 0.744796 0.664433 0.061708
0.63999999 -18.47999954 0.25000000 112 35 182 0.000000 0.000000 0.000000 0.000000 0.000000 0.000000 15.000000 0.743270 0.652811 -0.146242
0.67000002 -18.47999954 0.19000000 112 35 182 0.000000 0.000000 0.000000 0.000000 0.000000 0.000000 15.000000 0.759386 0.650303 -0.020978
0.68000001 -18.51000023 0.18000001 112 35 182 0.000000 0.000000 0.000000 0.000000 0.000000 0.000000 15.000000 0.198157 0.833469 0.515813
0.63999999 -18.47999954 0.20999999 112 35 182 0.000000 0.000000 0.000000 0.000000 0.000000 0.000000 15.000000 0.767444 0.614870 -0.181562
0.64999998 -18.52000046 0.23000000 112 35 182 0.000000 0.000000 0.000000 0.000000 0.000000 0.000000 15.000000 0.261791 0.962429 0.072087
0.62000000 -18.48999977 0.20000000 112 35 182 0.000000 0.000000 0.000000 0.000000 0.000000 0.000000 15.000000 0.833656 0.420768 0.357731
0.63999999 -18.51000023 0.22000000 112 35 182 0.000000 0.000000 0.000000 0.000000 0.000000 0.000000 15.000000 0.323853 0.864120 0.385247
0.63999999 -18.54999924 0.49000001 112 35 182 0.000000 0.000000 0.000000 0.000000 0.000000 0.000000 15.000000 0.337614 0.934202 0.115250
0.63000000 -18.55999947 0.44999999 112 35 182 0.000000 0.000000 0.000000 0.000000 0.000000 0.000000 15.000000 0.664650 0.728530 0.165782
0.63999999 -18.54999924 0.47000000 112 35 182 0.000000 0.000000 0.000000 0.000000 0.000000 0.000000 15.000000 0.332420 0.885953 0.323395
0.63999999 -18.54000092 0.47999999 112 35 182 0.000000 0.000000 0.000000 0.000000 0.000000 0.000000 15.000000 0.363694 0.821091 0.439927
0.67000002 -18.54000092 0.34000000 112 35 182 0.000000 0.000000 0.000000 0.000000 0.000000 0.000000 15.000000 0.668729 0.743494 -0.004154
0.79000002 -18.39999962 -0.15000001 112 35 182 0.000000 0.000000 0.000000 0.000000 0.000000 0.000000 15.000000 0.076455 0.986863 0.142325
0.75000000 -18.40999985 0.07000000 112 35 182 0.000000 0.000000 0.000000 0.000000 0.000000 0.000000 15.000000 0.440154 0.834883 0.330507
0.70999998 -18.39999962 0.11000000 112 35 182 0.000000 0.000000 0.000000 0.000000 0.000000 0.000000 15.000000 0.628223 0.773310 -0.085601
0.72000003 -18.43000031 0.13000000 112 35 182 0.000000 0.000000 0.000000 0.000000 0.000000 0.000000 15.000000 0.636284 0.719209 0.279072
0.73000002 -18.43000031 0.14000000 112 35 182 0.000000 0.000000 0.000000 0.000000 0.000000 0.000000 15.000000 0.443103 0.881847 -0.161260
0.74000001 -18.43000031 0.09000000 112 35 182 0.000000 0.000000 0.000000 0.000000 0.000000 0.000000 15.000000 -0.024174 0.940223 0.339702
0.74000001 -18.43000031 0.09000000 112 35 182 0.000000 0.000000 0.000000 0.000000 0.000000 0.000000 15.000000 -0.024174 0.940223 0.339702
0.75000000 -18.37999916 0.02000000 112 35 182 0.000000 0.000000 0.000000 0.000000 0.000000 0.000000 15.000000 0.597566 0.661172 0.453614
0.75000000 -18.38999939 0.06000000 112 35 182 0.000000 0.000000 0.000000 0.000000 0.000000 0.000000 15.000000 0.051425 0.979467 0.194937
0.75000000 -18.37999916 0.01000000 112 35 182 0.000000 0.000000 0.000000 0.000000 0.000000 0.000000 15.000000 0.668888 0.743362 0.001379
0.74000001 -18.39999962 0.05000000 112 35 182 0.000000 0.000000 0.000000 0.000000 0.000000 0.000000 15.000000 0.354002 0.929086 0.107150
0.74000001 -18.38999939 0.06000000 112 35 182 0.000000 0.000000 0.000000 0.000000 0.000000 0.000000 15.000000 0.659084 0.746767 0.089144
0.70999998 -18.38999939 0.01000000 112 35 182 0.000000 0.000000 0.000000 0.000000 0.000000 0.000000 15.000000 0.178711 0.952679 0.245896
0.73000002 -18.44000053 0.01000000 112 35 182 0.000000 0.000000 0.000000 0.000000 0.000000 0.000000 15.000000 0.063247 0.990095 0.125343
0.69999999 -18.44000053 0.00000000 112 35 182 0.000000 0.000000 0.000000 0.000000 0.000000 0.000000 15.000000 0.562931 0.807421 0.176576
0.70999998 -18.48999977 0.06000000 112 35 182 0.000000 0.000000 0.000000 0.000000 0.000000 0.000000 15.000000 0.586049 0.741037 0.327735
0.68000001 -18.40999985 0.04000000 112 35 182 0.000000 0.000000 0.000000 0.000000 0.000000 0.000000 15.000000 0.710096 0.695271 -0.111184
0.67000002 -18.46999931 0.09000000 112 35 182 0.000000 0.000000 0.000000 0.000000 0.000000 0.000000 15.000000 0.502241 0.742658 0.442960
0.68000001 -18.46999931 0.10000000 112 35 182 0.000000 0.000000 0.000000 0.000000 0.000000 0.000000 15.000000 0.395455 0.903693 0.164178
0.67000002 -18.48999977 0.14000000 112 35 182 0.000000 0.000000 0.000000 0.000000 0.000000 0.000000 15.000000 0.716740 0.667203 0.202792
0.68000001 -18.48999977 0.11000000 112 35 182 0.000000 0.000000 0.000000 0.000000 0.000000 0.000000 15.000000 0.434322 0.892695 0.120252
0.72000003 -18.37999916 -0.06000000 112 35 182 0.000000 0.000000 0.000000 0.000000 0.000000 0.000000 15.000000 0.760211 0.588807 0.274565
0.70999998 -18.39999962 -0.10000000 112 35 182 0.000000 0.000000 0.000000 0.000000 0.000000 0.000000 15.000000 0.528165 0.835891 -0.149425
0.70999998 -18.39999962 -0.10000000 112 35 182 0.000000 0.000000 0.000000 0.000000 0.000000 0.000000 15.000000 0.528165 0.835891 -0.149425
0.72000003 -18.37999916 -0.07000000 112 35 182 0.000000 0.000000 0.000000 0.000000 0.000000 0.000000 15.000000 0.594130 0.761179 0.260030
0.72000003 -18.39999962 -0.10000000 112 35 182 0.000000 0.000000 0.000000 0.000000 0.000000 0.000000 15.000000 0.496368 0.700263 0.513080
0.72000003 -18.42000008 -0.10000000 112 35 182 0.000000 0.000000 0.000000 0.000000 0.000000 0.000000 15.000000 0.326920 0.920802 0.212712
0.68000001 -18.37999916 -0.12000000 112 35 182 0.000000 0.000000 0.000000 0.000000 0.000000 0.000000 15.000000 0.487303 0.850157 0.199420
0.61000001 -18.61000061 0.55000001 112 35 182 0.000000 0.000000 0.000000 0.000000 0.000000 0.000000 15.000000 0.302689 0.874605 0.378742
0.57999998 -18.57999992 0.56999999 112 35 182 0.000000 0.000000 0.000000 0.000000 0.000000 0.000000 15.000000 0.897486 0.359290 0.255791
0.58999997 -18.59000015 0.55000001 112 35 182 0.000000 0.000000 0.000000 0.000000 0.000000 0.000000 15.000000 0.498547 0.745353 0.442605
0.57999998 -18.62000084 0.58999997 112 35 182 0.000000 0.000000 0.000000 0.000000 0.000000 0.000000 15.000000 0.804600 0.462285 0.372707
0.61000001 -18.54999924 0.41999999 112 35 182 0.000000 0.000000 0.000000 0.000000 0.000000 0.000000 15.000000 0.833059 0.440847 0.334165
0.61000001 -18.59000015 0.49000001 112 35 182 0.000000 0.000000 0.000000 0.000000 0.000000 0.000000 15.000000 0.826242 0.546410 0.136971
0.83999997 -18.28000069 -0.28000000 112 35 182 0.000000 0.000000 0.000000 0.000000 0.000000 0.000000 15.000000 -0.170866 0.976553 0.130955
0.80000001 -18.31999969 -0.20999999 112 35 182 0.000000 0.000000 0.000000 0.000000 0.000000 0.000000 15.000000 -0.071819 0.854781 0.513995
0.79000002 -18.29000092 -0.34000000 112 35 182 0.000000 0.000000 0.000000 0.000000 0.000000 0.000000 15.000000 0.061341 0.940997 0.332808
0.81999999 -18.31999969 -0.34000000 112 35 182 0.000000 0.000000 0.000000 0.000000 0.000000 0.000000 15.000000 0.192236 0.856867 0.478355
0.81000000 -18.25000000 -0.44000000 112 35 182 0.000000 0.000000 0.000000 0.000000 0.000000 0.000000 15.000000 -0.119177 0.957342 0.263236
0.81000000 -18.26000023 -0.46000001 112 35 182 0.000000 0.000000 0.000000 0.000000 0.000000 0.000000 15.000000 0.139835 0.990033 0.016780
0.81999999 -18.26000023 -0.47000000 112 35 182 0.000000 0.000000 0.000000 0.000000 0.000000 0.000000 15.000000 0.019752 0.907281 0.420062
0.80000001 -18.26000023 -0.46000001 112 35 182 0.000000 0.000000 0.000000 0.000000 0.000000 0.000000 15.000000 0.001193 0.967781 0.251790
0.86000001 -18.34000015 -0.38999999 112 35 182 0.000000 0.000000 0.000000 0.000000 0.000000 0.000000 15.000000 -0.045936 0.964656 0.259476
0.85000002 -18.32999992 -0.41999999 112 35 182 0.000000 0.000000 0.000000 0.000000 0.000000 0.000000 15.000000 -0.443832 0.832772 0.330913
0.80000001 -18.28000069 -0.38000000 112 35 182 0.000000 0.000000 0.000000 0.000000 0.000000 0.000000 15.000000 0.165637 0.969426 0.181045
0.80000001 -18.28000069 -0.40000001 112 35 182 0.000000 0.000000 0.000000 0.000000 0.000000 0.000000 15.000000 0.129907 0.931229 0.340494
0.80000001 -18.28000069 -0.43000001 112 35 182 0.000000 0.000000 0.000000 0.000000 0.000000 0.000000 15.000000 -0.229404 0.970939 0.068201
0.80000001 -18.34000015 -0.37000000 112 35 182 0.000000 0.000000 0.000000 0.000000 0.000000 0.000000 15.000000 -0.275686 0.957847 0.080782
0.80000001 -18.32999992 -0.51999998 112 35 182 0.000000 0.000000 0.000000 0.000000 0.000000 0.000000 15.000000 0.164165 0.976216 0.141608
0.82999998 -18.34000015 -0.50999999 112 35 182 0.000000 0.000000 0.000000 0.000000 0.000000 0.000000 15.000000 -0.343585 0.924175 0.166884
0.81000000 -18.32999992 -0.50999999 112 35 182 0.000000 0.000000 0.000000 0.000000 0.000000 0.000000 15.000000 -0.145838 0.951294 0.271607
0.80000001 -18.32999992 -0.49000001 112 35 182 0.000000 0.000000 0.000000 0.000000 0.000000 0.000000 15.000000 0.293557 0.954378 0.054645
0.80000001 -18.34000015 -0.50000000 112 35 182 0.000000 0.000000 0.000000 0.000000 0.000000 0.000000 15.000000 -0.139426 0.843894 0.518077
0.79000002 -18.30999947 -0.46000001 112 35 182 0.000000 0.000000 0.000000 0.000000 0.000000 0.000000 15.000000 0.261115 0.952065 0.159347
0.79000002 -18.29000092 -0.51999998 112 35 182 0.000000 0.000000 0.000000 0.000000 0.000000 0.000000 15.000000 -0.037875 0.996649 0.072503
0.79000002 -18.31999969 -0.51999998 112 35 182 0.000000 0.000000 0.000000 0.000000 0.000000 0.000000 15.000000 0.440056 0.863477 0.246492
0.75000000 -18.30999947 -0.20999999 112 35 182 0.000000 0.000000 0.000000 0.000000 0.000000 0.000000 15.000000 0.243082 0.949242 0.199626
0.75999999 -18.32999992 -0.22000000 112 35 182 0.000000 0.000000 0.000000 0.000000 0.000000 0.000000 15.000000 0.219483 0.975079 -0.032383
0.75999999 -18.31999969 -0.27000001 112 35 182 0.000000 0.000000 0.000000 0.000000 0.000000 0.000000 15.000000 0.305844 0.948766 -0.079389
0.77999997 -18.32999992 -0.25999999 112 35 182 0.000000 0.000000 0.000000 0.000000 0.000000 0.000000 15.000000 0.057968 0.815790 0.575436
0.72000003 -18.30999947 -0.20000000 112 35 182 0.000000 0.000000 0.000000 0.000000 0.000000 0.000000 15.000000 0.448164 0.787928 0.422278
0.74000001 -18.36000061 -0.27000001 112 35 182 0.000000 0.000000 0.000000 0.000000 0.000000 0.000000 15.000000 0.275375 0.850738 0.447676
0.75999999 -18.31999969 -0.31999999 112 35 182 0.000000 0.000000 0.000000 0.000000 0.000000 0.000000 15.000000 0.319068 0.828318 0.460526
0.75999999 -18.36000061 -0.28999999 112 35 182 0.000000 0.000000 0.000000 0.000000 0.000000 0.000000 15.000000 0.368105 0.928779 0.043229
0.75000000 -18.35000038 -0.38999999 112 35 182 0.000000 0.000000 0.000000 0.000000 0.000000 0.000000 15.000000 0.069474 0.997226 -0.026721
0.77999997 -18.36000061 -0.40000001 112 35 182 0.000000 0.000000 0.000000 0.000000 0.000000 0.000000 15.000000 0.301663 0.949391 0.087495
0.76999998 -18.31999969 -0.41000000 112 35 182 0.000000 0.000000 0.000000 0.000000 0.000000 0.000000 15.000000 0.160434 0.885998 0.435050
0.75999999 -18.35000038 -0.44000000 112 35 182 0.000000 0.000000 0.000000 0.000000 0.000000 0.000000 15.000000 0.605280 0.787894 0.113398
0.74000001 -18.30999947 -0.43000001 112 35 182 0.000000 0.000000 0.000000 0.000000 0.000000 0.000000 15.000000 0.456976 0.881210 -0.121006
0.74000001 -18.35000038 -0.43000001 112 35 182 0.000000 0.000000 0.000000 0.000000 0.000000 0.000000 15.000000 0.305152 0.949217 0.076613
0.75999999 -18.35000038 -0.49000001 112 35 182 0.000000 0.000000 0.000000 0.000000 0.000000 0.000000 15.000000 0.461550 0.882415 -0.091188
0.82999998 -18.18000031 -0.64999998 112 35 182 0.000000 0.000000 0.000000 0.000000 0.000000 0.000000 15.000000 -0.408974 0.868119 0.281264
0.87000000 -18.18000031 -0.88000000 112 35 182 0.000000 0.000000 0.000000 0.000000 0.000000 0.000000 15.000000 -0.110730 0.989576 -0.092081
0.94000000 -18.22999954 -0.69999999 112 35 182 0.000000 0.000000 0.000000 0.000000 0.000000 0.000000 15.000000 0.789007 -0.603877 0.113135
0.87000000 -18.22999954 -0.61000001 112 35 182 0.000000 0.000000 0.000000 0.000000 0.000000 0.000000 15.000000 0.751254 -0.638945 -0.165428
0.85000002 -18.23999977 -0.56000000 112 35 182 0.000000 0.000000 0.000000 0.000000 0.000000 0.000000 15.000000 -0.342195 0.937430 0.064243
0.86000001 -18.26000023 -0.61000001 112 35 182 0.000000 0.000000 0.000000 0.000000 0.000000 0.000000 15.000000 0.635557 -0.741224 -0.215996
0.82999998 -18.23999977 -0.62000000 112 35 182 0.000000 0.000000 0.000000 0.000000 0.000000 0.000000 15.000000 -0.200581 0.972627 0.117321
0.81000000 -18.21999931 -0.55000001 112 35 182 0.000000 0.000000 0.000000 0.000000 0.000000 0.000000 15.000000 0.270478 0.939044 0.212221
0.81000000 -18.25000000 -0.56000000 112 35 182 0.000000 0.000000 0.000000 0.000000 0.000000 0.000000 15.000000 -0.078632 0.969794 0.230903
0.86000001 -18.22999954 -0.63000000 112 35 182 0.000000 0.000000 0.000000 0.000000 0.000000 0.000000 15.000000 -0.350853 0.857811 0.375582
0.86000001 -18.20999908 -0.69000000 112 35 182 0.000000 0.000000 0.000000 0.000000 0.000000 0.000000 15.000000 -0.133181 0.985059 -0.109184
0.86000001 -18.20999908 -0.69000000 112 35 182 0.000000 0.000000 0.000000 0.000000 0.000000 0.000000 15.000000 -0.133181 0.985059 -0.109184
0.80000001 -18.21999931 -0.63000000 112 35 182 0.000000 0.000000 0.000000 0.000000 0.000000 0.000000 15.000000 0.412652 0.895756 0.165348
0.81999999 -18.23999977 -0.66000003 112 35 182 0.000000 0.000000 0.000000 0.000000 0.000000 0.000000 15.000000 0.173755 0.980563 -0.091130
0.83999997 -18.31999969 -0.60000002 112 35 182 0.000000 0.000000 0.000000 0.000000 0.000000 0.000000 15.000000 -0.149709 0.825626 0.543994
0.81000000 -18.30999947 -0.63000000 112 35 182 0.000000 0.000000 0.000000 0.000000 0.000000 0.000000 15.000000 0.034145 0.994598 -0.098028
0.86000001 -18.29000092 -0.66000003 112 35 182 0.000000 0.000000 0.000000 0.000000 0.000000 0.000000 15.000000 -0.493582 0.807824 0.322177
0.85000002 -18.29000092 -0.63000000 112 35 182 0.000000 0.000000 0.000000 0.000000 0.000000 0.000000 15.000000 -0.052099 0.975344 -0.214454
0.81000000 -18.29000092 -0.68000001 112 35 182 0.000000 0.000000 0.000000 0.000000 0.000000 0.000000 15.000000 0.228467 0.891757 0.390604
0.83999997 -18.29999924 -0.66000003 112 35 182 0.000000 0.000000 0.000000 0.000000 0.000000 0.000000 15.000000 0.086927 0.847896 0.522988
0.82999998 -18.29000092 -0.68000001 112 35 182 0.000000 0.000000 0.000000 0.000000 0.000000 0.000000 15.000000 -0.372924 0.927854 0.003818
0.87000000 -18.22999954 -0.72000003 112 35 182 0.000000 0.000000 0.000000 0.000000 0.000000 0.000000 15.000000 -0.133085 0.911980 0.388047
0.85000002 -18.22999954 -0.74000001 112 35 182 0.000000 0.000000 0.000000 0.000000 0.000000 0.000000 15.000000 -0.081215 0.980639 0.178188
0.87000000 -18.27000046 -0.75000000 112 35 182 0.000000 0.000000 0.000000 0.000000 0.000000 0.000000 15.000000 -0.629314 0.770140 0.104152
0.82999998 -18.27000046 -0.75000000 112 35 182 0.000000 0.000000 0.000000 0.000000 0.000000 0.000000 15.000000 -0.056786 0.997512 -0.041786
0.87000000 -18.25000000 -0.74000001 112 35 182 0.000000 0.000000 0.000000 0.000000 0.000000 0.000000 15.000000 -0.267420 0.955070 0.127782
0.85000002 -18.27000046 -0.75999999 112 35 182 0.000000 0.000000 0.000000 0.000000 0.000000 0.000000 15.000000 -0.034526 0.977445 0.208347
0.81999999 -18.21999931 -0.76999998 112 35 182 0.000000 0.000000 0.000000 0.000000 0.000000 0.000000 15.000000 0.038530 0.960763 0.274681
0.87000000 -18.25000000 -0.87000000 112 35 182 0.000000 0.000000 0.000000 0.000000 0.000000 0.000000 15.000000 -0.071317 0.967155 0.243978
0.85000002 -18.25000000 -0.85000002 112 35 182 0.000000 0.000000 0.000000 0.000000 0.000000 0.000000 15.000000 0.191939 0.980892 0.031794
0.83999997 -18.25000000 -0.85000002 112 35 182 0.000000 0.000000 0.000000 0.000000 0.000000 0.000000 15.000000 -0.481211 0.830050 0.281874
0.85000002 -18.28000069 -0.79000002 112 35 182 0.000000 0.000000 0.000000 0.000000 0.000000 0.000000 15.000000 -0.164113 0.962361 0.216630
0.83999997 -18.28000069 -0.75000000 112 35 182 0.000000 0.000000 0.000000 0.000000 0.000000 0.000000 15.000000 -0.502641 0.863441 0.042690
0.95999998 -18.17000008 -1.08000004 112 35 182 0.000000 0.000000 0.000000 0.000000 0.000000 0.000000 15.000000 0.896642 -0.438085 -0.064143
0.98000002 -18.14999962 -1.08000004 112 35 182 0.000000 0.000000 0.000000 0.000000 0.000000 0.000000 15.000000 0.898746 -0.388922 0.202473
0.95999998 -18.18000031 -1.05999994 112 35 182 0.000000 0.000000 0.000000 0.000000 0.000000 0.000000 15.000000 0.680355 -0.680355 0.272461
0.91000003 -18.18000031 -0.94999999 112 35 182 0.000000 0.000000 0.000000 0.000000 0.000000 0.000000 15.000000 -0.308905 0.874977 0.372816
0.93000001 -18.15999985 -0.94000000 112 35 182 0.000000 0.000000 0.000000 0.000000 0.000000 0.000000 15.000000 0.804520 -0.503023 -0.315778
0.91000003 -18.17000008 -0.95999998 112 35 182 0.000000 0.000000 0.000000 0.000000 0.000000 0.000000 15.000000 -0.288786 0.946949 0.141035
0.91000003 -18.17000008 -0.95999998 112 35 182 0.000000 0.000000 0.000000 0.000000 0.000000 0.000000 15.000000 -0.288786 0.946949 0.141035
0.88999999 -18.17000008 -0.99000001 112 35 182 0.000000 0.000000 0.000000 0.000000 0.000000 0.000000 15.000000 -0.218282 0.974342 -0.054875
0.89999998 -18.17000008 -0.98000002 112 35 182 0.000000 0.000000 0.000000 0.000000 0.000000 0.000000 15.000000 -0.209481 0.967726 0.140083
0.88999999 -18.23999977 -0.92000002 112 35 182 0.000000 0.000000 0.000000 0.000000 0.000000 0.000000 15.000000 -0.292709 0.795851 0.530040
0.88000000 -18.22999954 -0.93000001 112 35 182 0.000000 0.000000 0.000000 0.000000 0.000000 0.000000 15.000000 -0.309231 0.891841 0.330145
0.89999998 -18.22999954 -0.93000001 112 35 182 0.000000 0.000000 0.000000 0.000000 0.000000 0.000000 15.000000 -0.001090 0.992658 0.120950
0.88000000 -18.23999977 -0.94000000 112 35 182 0.000000 0.000000 0.000000 0.000000 0.000000 0.000000 15.000000 -0.123857 0.991968 0.025664
0.88000000 -18.25000000 -0.95999998 112 35 182 0.000000 0.000000 0.000000 0.000000 0.000000 0.000000 15.000000 -0.252312 0.961375 0.109982
0.92000002 -18.23999977 -0.91000003 112 35 182 0.000000 0.000000 0.000000 0.000000 0.000000 0.000000 15.000000 -0.467169 0.787236 0.402509
0.91000003 -18.22999954 -0.99000001 112 35 182 0.000000 0.000000 0.000000 0.000000 0.000000 0.000000 15.000000 -0.237620 0.964608 0.114314
0.88999999 -18.22999954 -1.01999998 112 35 182 0.000000 0.000000 0.000000 0.000000 0.000000 0.000000 15.000000 0.011096 0.999669 0.023201
0.91000003 -18.22999954 -1.01999998 112 35 182 0.000000 0.000000 0.000000 0.000000 0.000000 0.000000 15.000000 -0.243647 0.968405 0.053182
0.92000002 -18.21999931 -1.04999995 112 35 182 0.000000 0.000000 0.000000 0.000000 0.000000 0.000000 15.000000 -0.434167 0.899442 0.050044
0.93000001 -18.20999908 -1.02999997 112 35 182 0.000000 0.000000 0.000000 0.000000 0.000000 0.000000 15.000000 0.772599 -0.634881 0.004132
0.81000000 -18.23999977 -0.95999998 112 35 182 0.000000 0.000000 0.000000 0.000000 0.000000 0.000000 15.000000 0.078598 0.821701 0.564473
0.87000000 -18.25000000 -0.89999998 112 35 182 0.000000 0.000000 0.000000 0.000000 0.000000 0.000000 15.000000 0.118740 0.990266 0.072627
0.87000000 -18.23999977 -0.94000000 112 35 182 0.000000 0.000000 0.000000 0.000000 0.000000 0.000000 15.000000 -0.184536 0.977172 0.105272
0.85000002 -18.25000000 -0.92000002 112 35 182 0.000000 0.000000 0.000000 0.000000 0.000000 0.000000 15.000000 0.233115 0.962413 0.139348
0.83999997 -18.20999908 -1.04999995 112 35 182 0.000000 0.000000 0.000000 0.000000 0.000000 0.000000 15.000000 0.137950 0.861101 0.489361
0.74000001 -18.37999916 -0.20000000 112 35 182 0.000000 0.000000 0.000000 0.000000 0.000000 0.000000 15.000000 0.303851 0.928512 0.213402
0.69999999 -18.37999916 -0.23000000 112 35 182 0.000000 0.000000 0.000000 0.000000 0.000000 0.000000 15.000000 0.332582 0.935303 -0.120816
0.72000003 -18.37000084 -0.25000000 112 35 182 0.000000 0.000000 0.000000 0.000000 0.000000 0.000000 15.000000 0.193180 0.896179 0.399431
0.73000002 -18.31999969 -0.19000000 112 35 182 0.000000 0.000000 0.000000 0.000000 0.000000 0.000000 15.000000 0.504548 0.833800 -0.224074
0.77999997 -18.32999992 -0.11000000 112 35 182 0.000000 0.000000 0.000000 0.000000 0.000000 0.000000 15.000000 0.184803 0.958584 0.216712
0.64999998 -18.53000069 0.50000000 112 35 182 0.000000 0.000000 0.000000 0.000000 0.000000 0.000000 15.000000 0.616885 0.711290 0.336927
0.63000000 -18.61000061 0.52999997 112 35 182 0.000000 0.000000 0.000000 0.000000 0.000000 0.000000 15.000000 0.733013 0.679136 -0.038281
0.66000003 -18.55999947 0.51999998 112 35 182 0.000000 0.000000 0.000000 0.000000 0.000000 0.000000 15.000000 0.796446 0.550187 0.250935
0.69999999 -18.51000023 0.33000001 112 35 182 0.000000 0.000000 0.000000 0.000000 0.000000 0.000000 15.000000 0.167386 0.902739 0.396289
0.63999999 -18.52000046 0.43000001 112 35 182 0.000000 0.000000 0.000000 0.000000 0.000000 0.000000 15.000000 0.471979 0.804765 0.359984
0.62000000 -18.53000069 0.46000001 112 35 182 0.000000 0.000000 0.000000 0.000000 0.000000 0.000000 15.000000 0.812445 0.573233 0.106478
0.67000002 -18.51000023 0.33000001 112 35 182 0.000000 0.000000 0.000000 0.000000 0.000000 0.000000 15.000000 0.606252 0.774232 0.181723
0.68000001 -18.45999908 0.33000001 112 35 182 0.000000 0.000000 0.000000 0.000000 0.000000 0.000000 15.000000 0.585760 0.801179 0.122464
0.73000002 -18.40999985 0.16000000 112 35 182 0.000000 0.000000 0.000000 0.000000 0.000000 0.000000 15.000000 0.236548 0.969723 -0.060685
0.69000000 -18.40999985 0.19000000 112 35 182 0.000000 0.000000 0.000000 0.000000 0.000000 0.000000 15.000000 0.497822 0.858563 0.122652
0.68000001 -18.45999908 0.31999999 112 35 182 0.000000 0.000000 0.000000 0.000000 0.000000 0.000000 15.000000 0.473294 0.879754 0.045011
0.69000000 -18.45999908 0.23000000 112 35 182 0.000000 0.000000 0.000000 0.000000 0.000000 0.000000 15.000000 0.713765 0.683457 -0.153058
0.69000000 -18.45999908 0.22000000 112 35 182 0.000000 0.000000 0.000000 0.000000 0.000000 0.000000 15.000000 0.615967 0.765755 0.184943
0.69000000 -18.51000023 0.20999999 112 35 182 0.000000 0.000000 0.000000 0.000000 0.000000 0.000000 15.000000 0.618120 0.786073 -0.004130
0.69999999 -18.55999947 0.41000000 112 35 182 0.000000 0.000000 0.000000 0.000000 0.000000 0.000000 15.000000 0.417678 0.896653 0.146829
0.62000000 -18.55999947 0.43000001 112 35 182 0.000000 0.000000 0.000000 0.000000 0.000000 0.000000 15.000000 0.499590 0.864193 -0.059839
0.63000000 -18.54000092 0.47000000 112 35 182 0.000000 0.000000 0.000000 0.000000 0.000000 0.000000 15.000000 0.349236 0.936055 0.042843
0.79000002 -18.45000076 0.07000000 112 35 182 0.000000 0.000000 0.000000 0.000000 0.000000 0.000000 15.000000 0.155588 0.982979 -0.097695
0.79000002 -18.37999916 0.00000000 112 35 182 0.000000 0.000000 0.000000 0.000000 0.000000 0.000000 15.000000 -0.149876 0.984385 0.092324
0.75999999 -18.40999985 0.07000000 112 35 182 0.000000 0.000000 0.000000 0.000000 0.000000 0.000000 15.000000 0.512750 0.815102 0.269623
0.69999999 -18.39999962 0.08000000 112 35 182 0.000000 0.000000 0.000000 0.000000 0.000000 0.000000 15.000000 0.677876 0.732567 0.061887
0.70999998 -18.40999985 0.08000000 112 35 182 0.000000 0.000000 0.000000 0.000000 0.000000 0.000000 15.000000 0.222949 0.973422 -0.052387
0.69999999 -18.42000008 0.12000000 112 35 182 0.000000 0.000000 0.000000 0.000000 0.000000 0.000000 15.000000 0.177829 0.914753 0.362772
0.75000000 -18.38999939 0.04000000 112 35 182 0.000000 0.000000 0.000000 0.000000 0.000000 0.000000 15.000000 0.616841 0.734789 0.282121
0.74000001 -18.38999939 0.04000000 112 35 182 0.000000 0.000000 0.000000 0.000000 0.000000 0.000000 15.000000 0.389157 0.833457 0.392308
0.73000002 -18.44000053 0.00000000 112 35 182 0.000000 0.000000 0.000000 0.000000 0.000000 0.000000 15.000000 0.164151 0.981259 -0.100923
0.69000000 -18.42000008 0.06000000 112 35 182 0.000000 0.000000 0.000000 0.000000 0.000000 0.000000 15.000000 0.642635 0.688189 0.336773
0.69000000 -18.42000008 0.06000000 112 35 182 0.000000 0.000000 0.000000 0.000000 0.000000 0.000000 15.000000 0.642635 0.688189 0.336773
0.64999998 -18.46999931 0.12000000 112 35 182 0.000000 0.000000 0.000000 0.000000 0.000000 0.000000 15.000000 0.838653 0.478571 0.260059
0.75000000 -18.37000084 -0.09000000 112 35 182 0.000000 0.000000 0.000000 0.000000 0.000000 0.000000 15.000000 0.457757 0.790965 0.405996
0.73000002 -18.38999939 -0.04000000 112 35 182 0.000000 0.000000 0.000000 0.000000 0.000000 0.000000 15.000000 0.256245 0.882620 0.394107
0.76999998 -18.37999916 -0.04000000 112 35 182 0.000000 0.000000 0.000000 0.000000 0.000000 0.000000 15.000000 0.051649 0.998197 -0.030568
0.61000001 -18.61000061 0.50999999 112 35 182 0.000000 0.000000 0.000000 0.000000 0.000000 0.000000 15.000000 0.728680 0.675253 0.114274
0.61000001 -18.54000092 0.54000002 112 35 182 0.000000 0.000000 0.000000 0.000000 0.000000 0.000000 15.000000 0.722396 0.571006 0.389995
0.57999998 -18.63999939 0.56999999 112 35 182 0.000000 0.000000 0.000000 0.000000 0.000000 0.000000 15.000000 0.308480 0.901825 0.302576
0.61000001 -18.54999924 0.40000001 112 35 182 0.000000 0.000000 0.000000 0.000000 0.000000 0.000000 15.000000 0.680776 0.727425 -0.086008
0.79000002 -18.36000061 -0.30000001 112 35 182 0.000000 0.000000 0.000000 0.000000 0.000000 0.000000 15.000000 -0.086700 0.995407 0.040606
0.82999998 -18.30999947 -0.23000000 112 35 182 0.000000 0.000000 0.000000 0.000000 0.000000 0.000000 15.000000 -0.156349 0.896499 0.414541
0.80000001 -18.34000015 -0.28999999 112 35 182 0.000000 0.000000 0.000000 0.000000 0.000000 0.000000 15.000000 0.141526 0.964715 0.222027
0.82999998 -18.26000023 -0.47000000 112 35 182 0.000000 0.000000 0.000000 0.000000 0.000000 0.000000 15.000000 0.218971 0.975196 0.032307
0.81000000 -18.25000000 -0.50000000 112 35 182 0.000000 0.000000 0.000000 0.000000 0.000000 0.000000 15.000000 -0.344563 0.904662 0.250725
0.81999999 -18.26000023 -0.51999998 112 35 182 0.000000 0.000000 0.000000 0.000000 0.000000 0.000000 15.000000 0.237484 0.916833 0.320964
0.80000001 -18.36000061 -0.41999999 112 35 182 0.000000 0.000000 0.000000 0.000000 0.000000 0.000000 15.000000 -0.276480 0.960982 -0.008526
0.82999998 -18.34000015 -0.40000001 112 35 182 0.000000 0.000000 0.000000 0.000000 0.000000 0.000000 15.000000 -0.293142 0.950412 -0.103849
0.80000001 -18.28000069 -0.40000001 112 35 182 0.000000 0.000000 0.000000 0.000000 0.000000 0.000000 15.000000 0.129907 0.931229 0.340494
0.81999999 -18.34000015 -0.52999997 112 35 182 0.000000 0.000000 0.000000 0.000000 0.000000 0.000000 15.000000 0.188094 0.966413 -0.175122
0.73000002 -18.27000046 -0.33000001 112 35 182 0.000000 0.000000 0.000000 0.000000 0.000000 0.000000 15.000000 0.289556 0.948730 0.126764
0.77999997 -18.30999947 -0.22000000 112 35 182 0.000000 0.000000 0.000000 0.000000 0.000000 0.000000 15.000000 0.384864 0.922901 0.011585
0.75999999 -18.35000038 -0.20000000 112 35 182 0.000000 0.000000 0.000000 0.000000 0.000000 0.000000 15.000000 -0.041113 0.998308 0.041113
0.76999998 -18.32999992 -0.20000000 112 35 182 0.000000 0.000000 0.000000 0.000000 0.000000 0.000000 15.000000 0.469694 0.799923 0.373511
0.72000003 -18.30999947 -0.20999999 112 35 182 0.000000 0.000000 0.000000 0.000000 0.000000 0.000000 15.000000 0.258825 0.897753 0.356439
0.73000002 -18.28000069 -0.28999999 112 35 182 0.000000 0.000000 0.000000 0.000000 0.000000 0.000000 15.000000 0.620377 0.705048 0.343568
0.74000001 -18.34000015 -0.36000001 112 35 182 0.000000 0.000000 0.000000 0.000000 0.000000 0.000000 15.000000 0.321635 0.906159 0.274638
0.76999998 -18.23999977 -0.38999999 112 35 182 0.000000 0.000000 0.000000 0.000000 0.000000 0.000000 15.000000 0.420931 0.861760 0.283172
0.73000002 -18.30999947 -0.41000000 112 35 182 0.000000 0.000000 0.000000 0.000000 0.000000 0.000000 15.000000 0.432587 0.854397 0.287878
0.73000002 -18.29999924 -0.43000001 112 35 182 0.000000 0.000000 0.000000 0.000000 0.000000 0.000000 15.000000 0.178885 0.983285 0.033906
0.74000001 -18.30999947 -0.46000001 112 35 182 0.000000 0.000000 0.000000 0.000000 0.000000 0.000000 15.000000 0.661425 0.745738 0.079952
0.86000001 -18.18000031 -0.77999997 112 35 182 0.000000 0.000000 0.000000 0.000000 0.000000 0.000000 15.000000 -0.177721 0.979306 -0.096827
0.88000000 -18.22999954 -0.55000001 112 35 182 0.000000 0.000000 0.000000 0.000000 0.000000 0.000000 15.000000 -0.384860 0.921813 0.046289
0.88999999 -18.21999931 -0.57999998 112 35 182 0.000000 0.000000 0.000000 0.000000 0.000000 0.000000 15.000000 -0.629992 0.768678 0.110654
0.88000000 -18.25000000 -0.68000001 112 35 182 0.000000 0.000000 0.000000 0.000000 0.000000 0.000000 15.000000 -0.431890 0.901849 0.011815
0.85000002 -18.23999977 -0.55000001 112 35 182 0.000000 0.000000 0.000000 0.000000 0.000000 0.000000 15.000000 -0.162259 0.942195 0.293157
0.81000000 -18.23999977 -0.62000000 112 35 182 0.000000 0.000000 0.000000 0.000000 0.000000 0.000000 15.000000 -0.045169 0.877366 0.477692
0.81000000 -18.23999977 -0.58999997 112 35 182 0.000000 0.000000 0.000000 0.000000 0.000000 0.000000 15.000000 -0.022264 0.997658 0.064673
0.85000002 -18.23999977 -0.57999998 112 35 182 0.000000 0.000000 0.000000 0.000000 0.000000 0.000000 15.000000 0.038986 0.954534 0.295541
0.81000000 -18.20999908 -0.57999998 112 35 182 0.000000 0.000000 0.000000 0.000000 0.000000 0.000000 15.000000 0.322963 0.946270 -0.016337
0.86000001 -18.22999954 -0.55000001 112 35 182 0.000000 0.000000 0.000000 0.000000 0.000000 0.000000 15.000000 -0.228814 0.925206 0.302717
0.81999999 -18.20000076 -0.60000002 112 35 182 0.000000 0.000000 0.000000 0.000000 0.000000 0.000000 15.000000 0.049992 0.994276 0.094428
0.86000001 -18.20999908 -0.69000000 112 35 182 0.000000 0.000000 0.000000 0.000000 0.000000 0.000000 15.000000 -0.133181 0.985059 -0.109184
0.85000002 -18.22999954 -0.63999999 112 35 182 0.000000 0.000000 0.000000 0.000000 0.000000 0.000000 15.000000 -0.347919 0.937483 0.008856
0.81000000 -18.29000092 -0.60000002 112 35 182 0.000000 0.000000 0.000000 0.000000 0.000000 0.000000 15.000000 0.356657 0.921713 0.152453
0.82999998 -18.31999969 -0.58999997 112 35 182 0.000000 0.000000 0.000000 0.000000 0.000000 0.000000 15.000000 0.177921 0.912381 0.368653
0.85000002 -18.29999924 -0.66000003 112 35 182 0.000000 0.000000 0.000000 0.000000 0.000000 0.000000 15.000000 -0.281215 0.871007 0.402822
0.88999999 -18.23999977 -0.74000001 112 35 182 0.000000 0.000000 0.000000 0.000000 0.000000 0.000000 15.000000 0.696713 -0.664827 -0.269438
0.86000001 -18.20000076 -0.75999999 112 35 182 0.000000 0.000000 0.000000 0.000000 0.000000 0.000000 15.000000 -0.220043 0.916128 0.335099
0.86000001 -18.21999931 -0.75000000 112 35 182 0.000000 0.000000 0.000000 0.000000 0.000000 0.000000 15.000000 -0.425046 0.819844 0.383655
0.83999997 -18.27000046 -0.72000003 112 35 182 0.000000 0.000000 0.000000 0.000000 0.000000 0.000000 15.000000 -0.265753 0.956974 -0.116513
0.85000002 -18.26000023 -0.83999997 112 35 182 0.000000 0.000000 0.000000 0.000000 0.000000 0.000000 15.000000 0.085330 0.919670 0.383309
0.80000001 -18.27000046 -0.83999997 112 35 182 0.000000 0.000000 0.000000 0.000000 0.000000 0.000000 15.000000 -0.300985 0.949861 0.084693
0.85000002 -18.29000092 -0.77999997 112 35 182 0.000000 0.000000 0.000000 0.000000 0.000000 0.000000 15.000000 -0.381260 0.918051 0.108735
0.80000001 -18.29000092 -0.73000002 112 35 182 0.000000 0.000000 0.000000 0.000000 0.000000 0.000000 15.000000 0.372487 0.882206 0.288037
0.83999997 -18.28000069 -0.74000001 112 35 182 0.000000 0.000000 0.000000 0.000000 0.000000 0.000000 15.000000 -0.484611 0.858748 0.166447
0.85000002 -18.29999924 -0.73000002 112 35 182 0.000000 0.000000 0.000000 0.000000 0.000000 0.000000 15.000000 -0.161850 0.873409 0.459305
0.95999998 -18.19000053 -1.05999994 112 35 182 0.000000 0.000000 0.000000 0.000000 0.000000 0.000000 15.000000 0.819682 -0.465908 -0.333243
0.91000003 -18.18000031 -1.00999999 112 35 182 0.000000 0.000000 0.000000 0.000000 0.000000 0.000000 15.000000 -0.423215 0.891206 0.163219
0.88000000 -18.15999985 -0.91000003 112 35 182 0.000000 0.000000 0.000000 0.000000 0.000000 0.000000 15.000000 -0.507260 0.861665 -0.014880
0.88000000 -18.17000008 -0.88999999 112 35 182 0.000000 0.000000 0.000000 0.000000 0.000000 0.000000 15.000000 -0.536163 0.670624 0.512633
0.93000001 -18.20000076 -0.92000002 112 35 182 0.000000 0.000000 0.000000 0.000000 0.000000 0.000000 15.000000 0.729036 -0.609944 -0.310605
0.88999999 -18.23999977 -0.93000001 112 35 182 0.000000 0.000000 0.000000 0.000000 0.000000 0.000000 15.000000 -0.392159 0.918582 0.049186
0.88000000 -18.22999954 -0.94000000 112 35 182 0.000000 0.000000 0.000000 0.000000 0.000000 0.000000 15.000000 -0.275577 0.903361 0.328629
0.91000003 -18.22999954 -0.98000002 112 35 182 0.000000 0.000000 0.000000 0.000000 0.000000 0.000000 15.000000 -0.453716 0.889719 -0.050413
0.92000002 -18.21999931 -1.03999996 112 35 182 0.000000 0.000000 0.000000 0.000000 0.000000 0.000000 15.000000 0.746347 -0.665131 -0.023805
0.94000000 -18.21999931 -1.00999999 112 35 182 0.000000 0.000000 0.000000 0.000000 0.000000 0.000000 15.000000 -0.461421 0.753709 0.467989
0.82999998 -18.23999977 -0.92000002 112 35 182 0.000000 0.000000 0.000000 0.000000 0.000000 0.000000 15.000000 0.224511 0.957826 0.179343
0.91000003 -18.21999931 -1.05999994 112 35 182 0.000000 0.000000 0.000000 0.000000 0.000000 0.000000 15.000000 -0.104316 0.991574 0.076804
0.75000000 -18.37999916 -0.25999999 112 35 182 0.000000 0.000000 0.000000 0.000000 0.000000 0.000000 15.000000 0.476914 0.820039 0.316368
0.80000001 -18.37000084 -0.40000001 112 35 182 0.000000 0.000000 0.000000 0.000000 0.000000 0.000000 15.000000 -0.209405 0.931780 0.296539
0.75999999 -18.37999916 -0.31999999 112 35 182 0.000000 0.000000 0.000000 0.000000 0.000000 0.000000 15.000000 0.113910 0.990672 0.074789
0.81000000 -18.35000038 -0.15000001 112 35 182 0.000000 0.000000 0.000000 0.000000 0.000000 0.000000 15.000000 0.326732 0.886844 0.326732
0.73000002 -18.31999969 -0.09000000 112 35 182 0.000000 0.000000 0.000000 0.000000 0.000000 0.000000 15.000000 0.282299 0.958822 -0.031090
0.76999998 -18.34000015 -0.17000000 112 35 182 0.000000 0.000000 0.000000 0.000000 0.000000 0.000000 15.000000 0.573433 0.811019 0.115860
0.63999999 -18.52000046 0.47999999 112 35 182 0.000000 0.000000 0.000000 0.000000 0.000000 0.000000 15.000000 0.880746 0.468717 0.067750
0.64999998 -18.53000069 0.43000001 112 35 182 0.000000 0.000000 0.000000 0.000000 0.000000 0.000000 15.000000 0.483188 0.831207 0.274998
0.67000002 -18.50000000 0.41000000 112 35 182 0.000000 0.000000 0.000000 0.000000 0.000000 0.000000 15.000000 0.245027 0.969245 0.022934
0.67000002 -18.48999977 0.38000000 112 35 182 0.000000 0.000000 0.000000 0.000000 0.000000 0.000000 15.000000 0.289234 0.953306 0.086900
0.69999999 -18.52000046 0.20000000 112 35 182 0.000000 0.000000 0.000000 0.000000 0.000000 0.000000 15.000000 0.266128 0.954617 0.133726
0.64999998 -18.45000076 0.28000000 112 35 182 0.000000 0.000000 0.000000 0.000000 0.000000 0.000000 15.000000 0.370545 0.865631 0.336720
0.64999998 -18.51000023 0.25000000 112 35 182 0.000000 0.000000 0.000000 0.000000 0.000000 0.000000 15.000000 0.341667 0.908688 0.239894
0.66000003 -18.50000000 0.20000000 112 35 182 0.000000 0.000000 0.000000 0.000000 0.000000 0.000000 15.000000 0.356609 0.930924 0.078801
0.62000000 -18.57999992 0.44000000 112 35 182 0.000000 0.000000 0.000000 0.000000 0.000000 0.000000 15.000000 0.637449 0.673687 0.373904
0.62000000 -18.60000038 0.49000001 112 35 182 0.000000 0.000000 0.000000 0.000000 0.000000 0.000000 15.000000 0.602929 0.781239 -0.161688
0.69999999 -18.44000053 0.00000000 112 35 182 0.000000 0.000000 0.000000 0.000000 0.000000 0.000000 15.000000 0.562931 0.807421 0.176576
0.73000002 -18.44000053 0.00000000 112 35 182 0.000000 0.000000 0.000000 0.000000 0.000000 0.000000 15.000000 0.164151 0.981259 -0.100923
0.68000001 -18.45000076 0.05000000 112 35 182 0.000000 0.000000 0.000000 0.000000 0.000000 0.000000 15.000000 0.597975 0.658275 0.457275
0.74000001 -18.42000008 -0.10000000 112 35 182 0.000000 0.000000 0.000000 0.000000 0.000000 0.000000 15.000000 0.028288 0.885002 0.464727
0.70999998 -18.39999962 -0.11000000 112 35 182 0.000000 0.000000 0.000000 0.000000 0.000000 0.000000 15.000000 0.400462 0.916268 -0.009072
0.77999997 -18.38999939 -0.16000000 112 35 182 0.000000 0.000000 0.000000 0.000000 0.000000 0.000000 15.000000 0.074706 0.985403 -0.152969
0.60000002 -18.60000038 0.55000001 112 35 182 0.000000 0.000000 0.000000 0.000000 0.000000 0.000000 15.000000 0.739782 0.509115 0.439915
0.58999997 -18.60000038 0.52999997 112 35 182 0.000000 0.000000 0.000000 0.000000 0.000000 0.000000 15.000000 0.506793 0.840645 -0.190987
0.57999998 -18.59000015 0.50000000 112 35 182 0.000000 0.000000 0.000000 0.000000 0.000000 0.000000 15.000000 0.664827 0.696713 0.269438
0.80000001 -18.29000092 -0.34000000 112 35 182 0.000000 0.000000 0.000000 0.000000 0.000000 0.000000 15.000000 0.209365 0.970691 0.118006
0.80000001 -18.28000069 -0.40000001 112 35 182 0.000000 0.000000 0.000000 0.000000 0.000000 0.000000 15.000000 0.129907 0.931229 0.340494
0.81000000 -18.34000015 -0.37000000 112 35 182 0.000000 0.000000 0.000000 0.000000 0.000000 0.000000 15.000000 0.119004 0.991697 -0.048735
0.83999997 -18.34000015 -0.47000000 112 35 182 0.000000 0.000000 0.000000 0.000000 0.000000 0.000000 15.000000 -0.363277 0.869106 0.335686
0.82999998 -18.34000015 -0.49000001 112 35 182 0.000000 0.000000 0.000000 0.000000 0.000000 0.000000 15.000000 -0.394799 0.909021 0.133473
0.75000000 -18.35000038 -0.34999999 112 35 182 0.000000 0.000000 0.000000 0.000000 0.000000 0.000000 15.000000 0.340158 0.902671 0.263586
0.75999999 -18.34000015 -0.41999999 112 35 182 0.000000 0.000000 0.000000 0.000000 0.000000 0.000000 15.000000 0.246279 0.917427 0.312530
0.86000001 -18.18000031 -0.76999998 112 35 182 0.000000 0.000000 0.000000 0.000000 0.000000 0.000000 15.000000 -0.274076 0.922675 0.271206
0.91000003 -18.22999954 -0.62000000 112 35 182 0.000000 0.000000 0.000000 0.000000 0.000000 0.000000 15.000000 0.814384 -0.580128 -0.015158
0.83999997 -18.23999977 -0.56999999 112 35 182 0.000000 0.000000 0.000000 0.000000 0.000000 0.000000 15.000000 0.123675 0.980826 0.150614
0.81999999 -18.23999977 -0.61000001 112 35 182 0.000000 0.000000 0.000000 0.000000 0.000000 0.000000 15.000000 -0.098515 0.981497 0.164191
0.85000002 -18.22999954 -0.63999999 112 35 182 0.000000 0.000000 0.000000 0.000000 0.000000 0.000000 15.000000 -0.347919 0.937483 0.008856
0.82999998 -18.23999977 -0.67000002 112 35 182 0.000000 0.000000 0.000000 0.000000 0.000000 0.000000 15.000000 -0.151912 0.957706 0.244380
0.80000001 -18.30999947 -0.63999999 112 35 182 0.000000 0.000000 0.000000 0.000000 0.000000 0.000000 15.000000 -0.289268 0.914319 0.283453
0.82999998 -18.29999924 -0.64999998 112 35 182 0.000000 0.000000 0.000000 0.000000 0.000000 0.000000 15.000000 0.087315 0.837361 0.539632
0.87000000 -18.27000046 -0.75000000 112 35 182 0.000000 0.000000 0.000000 0.000000 0.000000 0.000000 15.000000 -0.629314 0.770140 0.104152
0.88000000 -18.25000000 -0.85000002 112 35 182 0.000000 0.000000 0.000000 0.000000 0.000000 0.000000 15.000000 -0.416102 0.894116 -0.165577
0.82999998 -18.21999931 -0.77999997 112 35 182 0.000000 0.000000 0.000000 0.000000 0.000000 0.000000 15.000000 -0.358340 0.865860 0.349112
0.85000002 -18.25000000 -0.76999998 112 35 182 0.000000 0.000000 0.000000 0.000000 0.000000 0.000000 15.000000 0.110511 0.958191 0.263925
0.88999999 -18.23999977 -0.74000001 112 35 182 0.000000 0.000000 0.000000 0.000000 0.000000 0.000000 15.000000 0.696713 -0.664827 -0.269438
0.83999997 -18.27000046 -0.76999998 112 35 182 0.000000 0.000000 0.000000 0.000000 0.000000 0.000000 15.000000 -0.025643 0.965897 0.257654
0.91000003 -18.17000008 -0.94999999 112 35 182 0.000000 0.000000 0.000000 0.000000 0.000000 0.000000 15.000000 -0.566835 0.823095 0.034818
0.91000003 -18.22999954 -1.02999997 112 35 182 0.000000 0.000000 0.000000 0.000000 0.000000 0.000000 15.000000 -0.351749 0.934044 -0.061918
0.94000000 -18.21999931 -1.01999998 112 35 182 0.000000 0.000000 0.000000 0.000000 0.000000 0.000000 15.000000 -0.170865 0.951195 0.256971
0.87000000 -18.25000000 -0.92000002 112 35 182 0.000000 0.000000 0.000000 0.000000 0.000000 0.000000 15.000000 -0.133389 0.954851 0.265456
0.93000001 -18.19000053 -0.93000001 112 35 182 0.000000 0.000000 0.000000 0.000000 0.000000 0.000000 15.000000 -0.507452 0.804652 0.308265
0.89999998 -18.21999931 -1.07000005 112 35 182 0.000000 0.000000 0.000000 0.000000 0.000000 0.000000 15.000000 -0.078121 0.992924 0.089442
0.77999997 -18.39999962 -0.22000000 112 35 182 0.000000 0.000000 0.000000 0.000000 0.000000 0.000000 15.000000 0.199810 0.922527 0.330182
0.74000001 -18.34000015 -0.13000000 112 35 182 0.000000 0.000000 0.000000 0.000000 0.000000 0.000000 15.000000 0.647807 0.749541 -0.136144
0.62000000 -18.56999969 0.50000000 112 35 182 0.000000 0.000000 0.000000 0.000000 0.000000 0.000000 15.000000 0.322855 0.887476 0.328862
0.62000000 -18.53000069 0.47000000 112 35 182 0.000000 0.000000 0.000000 0.000000 0.000000 0.000000 15.000000 0.801999 0.572425 0.170670
0.69000000 -18.45999908 0.28000000 112 35 182 0.000000 0.000000 0.000000 0.000000 0.000000 0.000000 15.000000 0.331246 0.929985 -0.159386
0.69000000 -18.47999954 0.31000000 112 35 182 0.000000 0.000000 0.000000 0.000000 0.000000 0.000000 15.000000 0.752910 0.655760 -0.055718
0.66000003 -18.54000092 0.33000001 112 35 182 0.000000 0.000000 0.000000 0.000000 0.000000 0.000000 15.000000 0.453990 0.790040 0.411984
0.79000002 -18.37000084 -0.10000000 112 35 182 0.000000 0.000000 0.000000 0.000000 0.000000 0.000000 15.000000 -0.088070 0.922704 0.375314
0.70999998 -18.43000031 0.03000000 112 35 182 0.000000 0.000000 0.000000 0.000000 0.000000 0.000000 15.000000 0.754897 0.649767 0.089069
0.81000000 -18.29000092 -0.31999999 112 35 182 0.000000 0.000000 0.000000 0.000000 0.000000 0.000000 15.000000 0.323849 0.877282 0.354258
0.77999997 -18.30999947 -0.23000000 112 35 182 0.000000 0.000000 0.000000 0.000000 0.000000 0.000000 15.000000 0.208698 0.911076 0.355507
0.75999999 -18.29999924 -0.22000000 112 35 182 0.000000 0.000000 0.000000 0.000000 0.000000 0.000000 15.000000 0.037422 0.997568 0.058806
0.88999999 -18.21999931 -0.60000002 112 35 182 0.000000 0.000000 0.000000 0.000000 0.000000 0.000000 15.000000 -0.519707 0.839527 0.158429
