//X Y Z R G B PointSourceId ScanDirectionFlag NumberOfReturns ReturnNumber GpsTime Intensity Classification Nx Ny Nz
-16.46999931 2.46000004 -0.86000001 64 222 112 0.000000 0.000000 0.000000 0.000000 -0.000107 0.000000 186.000000 0.982001 0.183165 0.046087
-16.46999931 2.46000004 -0.85000002 64 222 112 0.000000 0.000000 0.000000 0.000000 -0.000107 0.000000 186.000000 0.996381 0.084186 -0.011722
-16.52000046 2.51999998 -0.73000002 64 222 112 0.000000 0.000000 0.000000 0.000000 -0.000107 0.000000 186.000000 0.779573 0.591983 0.204503
-16.51000023 2.53999996 -0.75999999 64 222 112 0.000000 0.000000 0.000000 0.000000 -0.000107 0.000000 186.000000 0.740382 0.623563 0.251004
-16.51000023 2.52999997 -0.75999999 64 222 112 0.000000 0.000000 0.000000 0.000000 -0.000107 0.000000 186.000000 0.870606 0.004000 0.491965
-16.53000069 2.52999997 -0.79000002 64 222 112 0.000000 0.000000 0.000000 0.000000 -0.000107 0.000000 186.000000 0.853511 0.368456 0.368456
-16.53000069 2.52999997 -0.77999997 64 222 112 0.000000 0.000000 0.000000 0.000000 -0.000107 0.000000 186.000000 0.935723 0.037532 0.350734
-16.53000069 2.51999998 -0.76999998 64 222 112 0.000000 0.000000 0.000000 0.000000 -0.000107 0.000000 186.000000 0.954213 0.041597 0.296222
-16.54000092 2.51999998 -0.75999999 64 222 112 0.000000 0.000000 0.000000 0.000000 -0.000107 0.000000 186.000000 0.971846 0.212473 0.101836
-16.52000046 2.53999996 -0.81999999 64 222 112 0.000000 0.000000 0.000000 0.000000 -0.000107 0.000000 186.000000 0.913885 0.348625 0.208027
-16.52000046 2.53999996 -0.81000000 64 222 112 0.000000 0.000000 0.000000 0.000000 -0.000107 0.000000 186.000000 0.731630 0.424444 0.533446
-16.51000023 2.52999997 -0.86000001 64 222 112 0.000000 0.000000 0.000000 0.000000 -0.000107 0.000000 186.000000 0.838034 0.004062 0.545602
-16.48999977 2.52999997 -0.87000000 64 222 112 0.000000 0.000000 0.000000 0.000000 -0.000107 0.000000 186.000000 0.998544 -0.047151 -0.026195
-16.52000046 2.53999996 -0.85000002 64 222 112 0.000000 0.000000 0.000000 0.000000 -0.000107 0.000000 186.000000 0.745076 0.373353 0.552693
-16.52000046 2.53999996 -0.85000002 64 222 112 0.000000 0.000000 0.000000 0.000000 -0.000107 0.000000 186.000000 0.745076 0.373353 0.552693
-16.50000000 2.52999997 -0.86000001 64 222 112 0.000000 0.000000 0.000000 0.000000 -0.000107 0.000000 186.000000 0.918692 0.361568 0.158977
-16.52000046 2.52999997 -0.88000000 64 222 112 0.000000 0.000000 0.000000 0.000000 -0.000107 0.000000 186.000000 0.950099 0.026427 0.310827
-16.53000069 2.53999996 -0.80000001 64 222 112 0.000000 0.000000 0.000000 0.000000 -0.000107 0.000000 186.000000 0.723181 0.678263 0.130262
-16.54000092 2.55999994 -0.82999998 64 222 112 0.000000 0.000000 0.000000 0.000000 -0.000107 0.000000 186.000000 0.949587 0.013726 0.313202
-16.54000092 2.55999994 -0.82999998 64 222 112 0.000000 0.000000 0.000000 0.000000 -0.000107 0.000000 186.000000 0.949587 0.013726 0.313202
-16.54000092 2.52999997 -0.80000001 64 222 112 0.000000 0.000000 0.000000 0.000000 -0.000107 0.000000 186.000000 0.829815 0.175567 0.529701
-16.53000069 2.55999994 -0.83999997 64 222 112 0.000000 0.000000 0.000000 0.000000 -0.000107 0.000000 186.000000 0.872743 0.370116 0.318330
-16.48999977 2.50000000 -0.75000000 64 222 112 0.000000 0.000000 0.000000 0.000000 -0.000107 0.000000 186.000000 0.998181 0.017806 0.057607
-16.50000000 2.48000002 -0.74000001 64 222 112 0.000000 0.000000 0.000000 0.000000 -0.000107 0.000000 186.000000 0.965562 -0.020699 0.259350
-16.50000000 2.50000000 -0.74000001 64 222 112 0.000000 0.000000 0.000000 0.000000 -0.000107 0.000000 186.000000 0.764412 0.309291 0.565697
-16.50000000 2.49000001 -0.74000001 64 222 112 0.000000 0.000000 0.000000 0.000000 -0.000107 0.000000 186.000000 0.870871 0.356613 0.338247
-16.48999977 2.49000001 -0.75000000 64 222 112 0.000000 0.000000 0.000000 0.000000 -0.000107 0.000000 186.000000 0.970005 -0.126190 0.207767
-16.52000046 2.50000000 -0.76999998 64 222 112 0.000000 0.000000 0.000000 0.000000 -0.000107 0.000000 186.000000 0.777074 0.616608 0.126293
-16.48999977 2.49000001 -0.79000002 64 222 112 0.000000 0.000000 0.000000 0.000000 -0.000107 0.000000 186.000000 0.979989 0.163127 0.114066
-16.48999977 2.48000002 -0.75999999 64 222 112 0.000000 0.000000 0.000000 0.000000 -0.000107 0.000000 186.000000 0.987803 -0.073822 0.137097
-16.50000000 2.47000003 -0.73000002 64 222 112 0.000000 0.000000 0.000000 0.000000 -0.000107 0.000000 186.000000 0.957033 0.275099 -0.091700
-16.48999977 2.46000004 -0.73000002 64 222 112 0.000000 0.000000 0.000000 0.000000 -0.000107 0.000000 186.000000 0.852314 0.519226 -0.062979
-16.48999977 2.46000004 -0.76999998 64 222 112 0.000000 0.000000 0.000000 0.000000 -0.000107 0.000000 186.000000 0.983035 0.129698 -0.129698
-16.48999977 2.44000006 -0.75999999 64 222 112 0.000000 0.000000 0.000000 0.000000 -0.000107 0.000000 186.000000 0.852256 0.317083 0.416074
-16.53000069 2.50000000 -0.73000002 64 222 112 0.000000 0.000000 0.000000 0.000000 -0.000107 0.000000 186.000000 0.974846 -0.057201 0.215415
-16.53000069 2.48000002 -0.72000003 64 222 112 0.000000 0.000000 0.000000 0.000000 -0.000107 0.000000 186.000000 0.924836 -0.102154 0.366393
-16.53000069 2.50000000 -0.77999997 64 222 112 0.000000 0.000000 0.000000 0.000000 -0.000107 0.000000 186.000000 0.824422 0.529877 0.198894
-16.55999947 2.48000002 -0.75999999 64 222 112 0.000000 0.000000 0.000000 0.000000 -0.000107 0.000000 186.000000 0.877857 0.193276 0.438191
-16.54999924 2.45000005 -0.75000000 64 222 112 0.000000 0.000000 0.000000 0.000000 -0.000107 0.000000 186.000000 0.915682 0.398528 -0.051982
-16.56999969 2.45000005 -0.75000000 64 222 112 0.000000 0.000000 0.000000 0.000000 -0.000107 0.000000 186.000000 0.989397 -0.058879 0.132766
-16.56999969 2.44000006 -0.75000000 64 222 112 0.000000 0.000000 0.000000 0.000000 -0.000107 0.000000 186.000000 0.981085 0.051135 0.186703
-16.56999969 2.44000006 -0.74000001 64 222 112 0.000000 0.000000 0.000000 0.000000 -0.000107 0.000000 186.000000 0.903935 -0.089703 0.418156
-16.51000023 2.50000000 -0.81000000 64 222 112 0.000000 0.000000 0.000000 0.000000 -0.000107 0.000000 186.000000 0.867931 -0.012111 0.496537
-16.51000023 2.48000002 -0.80000001 64 222 112 0.000000 0.000000 0.000000 0.000000 -0.000107 0.000000 186.000000 0.835971 0.543594 0.075223
-16.51000023 2.48000002 -0.80000001 64 222 112 0.000000 0.000000 0.000000 0.000000 -0.000107 0.000000 186.000000 0.835971 0.543594 0.075223
-16.50000000 2.49000001 -0.81999999 64 222 112 0.000000 0.000000 0.000000 0.000000 -0.000107 0.000000 186.000000 0.775920 0.463600 0.427813
-16.51000023 2.49000001 -0.80000001 64 222 112 0.000000 0.000000 0.000000 0.000000 -0.000107 0.000000 186.000000 0.979730 0.167989 -0.109131
-16.51000023 2.50999999 -0.81000000 64 222 112 0.000000 0.000000 0.000000 0.000000 -0.000107 0.000000 186.000000 0.836341 0.467047 0.287056
-16.52000046 2.48000002 -0.88000000 64 222 112 0.000000 0.000000 0.000000 0.000000 -0.000107 0.000000 186.000000 0.974674 0.111356 0.193934
-16.50000000 2.50999999 -0.83999997 64 222 112 0.000000 0.000000 0.000000 0.000000 -0.000107 0.000000 186.000000 0.996484 0.016021 0.082239
-16.50000000 2.50000000 -0.83999997 64 222 112 0.000000 0.000000 0.000000 0.000000 -0.000107 0.000000 186.000000 0.989010 -0.049508 0.139313
-16.52000046 2.50999999 -0.88000000 64 222 112 0.000000 0.000000 0.000000 0.000000 -0.000107 0.000000 186.000000 0.900250 0.434922 0.019829
-16.50000000 2.50999999 -0.83999997 64 222 112 0.000000 0.000000 0.000000 0.000000 -0.000107 0.000000 186.000000 0.996484 0.016021 0.082239
-16.50000000 2.50000000 -0.83999997 64 222 112 0.000000 0.000000 0.000000 0.000000 -0.000107 0.000000 186.000000 0.989010 -0.049508 0.139313
-16.52000046 2.50999999 -0.87000000 64 222 112 0.000000 0.000000 0.000000 0.000000 -0.000107 0.000000 186.000000 0.850112 0.526389 -0.014962
-16.52000046 2.49000001 -0.83999997 64 222 112 0.000000 0.000000 0.000000 0.000000 -0.000107 0.000000 186.000000 0.972887 0.230389 -0.020293
-16.48999977 2.45000005 -0.81000000 64 222 112 0.000000 0.000000 0.000000 0.000000 -0.000107 0.000000 186.000000 0.974246 0.221474 0.042359
-16.48999977 2.46000004 -0.81999999 64 222 112 0.000000 0.000000 0.000000 0.000000 -0.000107 0.000000 186.000000 0.975344 0.214454 0.052099
-16.50000000 2.45000005 -0.81999999 64 222 112 0.000000 0.000000 0.000000 0.000000 -0.000107 0.000000 186.000000 0.896649 0.429440 0.107710
-16.50000000 2.44000006 -0.80000001 64 222 112 0.000000 0.000000 0.000000 0.000000 -0.000107 0.000000 186.000000 0.846564 0.268872 0.459388
-16.52000046 2.45000005 -0.80000001 64 222 112 0.000000 0.000000 0.000000 0.000000 -0.000107 0.000000 186.000000 0.942112 0.279195 -0.185672
-16.50000000 2.44000006 -0.87000000 64 222 112 0.000000 0.000000 0.000000 0.000000 -0.000107 0.000000 186.000000 0.993898 0.097047 -0.052428
-16.48999977 2.47000003 -0.87000000 64 222 112 0.000000 0.000000 0.000000 0.000000 -0.000107 0.000000 186.000000 0.964982 -0.133056 0.226067
-16.48999977 2.45000005 -0.86000001 64 222 112 0.000000 0.000000 0.000000 0.000000 -0.000107 0.000000 186.000000 0.983897 0.165371 0.067814
-16.53000069 2.49000001 -0.81999999 64 222 112 0.000000 0.000000 0.000000 0.000000 -0.000107 0.000000 186.000000 0.740707 0.295963 0.603124
-16.54999924 2.50999999 -0.86000001 64 222 112 0.000000 0.000000 0.000000 0.000000 -0.000107 0.000000 186.000000 0.766280 0.597729 0.235658
-16.40999985 2.41000009 -0.66000003 64 222 112 0.000000 0.000000 0.000000 0.000000 -0.000107 0.000000 186.000000 0.904787 0.409741 -0.116070
-16.42000008 2.40000010 -0.66000003 64 222 112 0.000000 0.000000 0.000000 0.000000 -0.000107 0.000000 186.000000 0.984235 -0.005702 0.176775
-16.42000008 2.40000010 -0.68000001 64 222 112 0.000000 0.000000 0.000000 0.000000 -0.000107 0.000000 186.000000 0.984424 0.116878 -0.131337
-16.40999985 2.41000009 -0.67000002 64 222 112 0.000000 0.000000 0.000000 0.000000 -0.000107 0.000000 186.000000 0.939463 0.341969 -0.021611
-16.56999969 2.40000010 -0.70999998 64 222 112 0.000000 0.000000 0.000000 0.000000 -0.000107 0.000000 186.000000 0.910618 -0.060708 0.408766
-16.44000053 2.43000007 -0.72000003 64 222 112 0.000000 0.000000 0.000000 0.000000 -0.000107 0.000000 186.000000 0.892758 0.324503 0.312540
-16.43000031 2.42000008 -0.75000000 64 222 112 0.000000 0.000000 0.000000 0.000000 -0.000107 0.000000 186.000000 0.984973 0.074853 0.155647
-16.43000031 2.43000007 -0.74000001 64 222 112 0.000000 0.000000 0.000000 0.000000 -0.000107 0.000000 186.000000 0.973346 -0.190629 0.127507
-16.44000053 2.43000007 -0.72000003 64 222 112 0.000000 0.000000 0.000000 0.000000 -0.000107 0.000000 186.000000 0.892758 0.324503 0.312540
-16.44000053 2.41000009 -0.75999999 64 222 112 0.000000 0.000000 0.000000 0.000000 -0.000107 0.000000 186.000000 0.983689 0.105007 0.146045
-16.39999962 2.43000007 -0.76999998 64 222 112 0.000000 0.000000 0.000000 0.000000 -0.000107 0.000000 186.000000 0.918131 -0.237076 0.317538
-16.39999962 2.39000010 -0.77999997 64 222 112 0.000000 0.000000 0.000000 0.000000 -0.000107 0.000000 186.000000 0.954478 0.218818 0.202709
-16.45000076 2.41000009 -0.74000001 64 222 112 0.000000 0.000000 0.000000 0.000000 -0.000107 0.000000 186.000000 0.997679 0.060691 0.030878
-16.43000031 2.42000008 -0.80000001 64 222 112 0.000000 0.000000 0.000000 0.000000 -0.000107 0.000000 186.000000 0.996490 0.074656 0.037869
-16.42000008 2.43000007 -0.81999999 64 222 112 0.000000 0.000000 0.000000 0.000000 -0.000107 0.000000 186.000000 0.892650 0.427044 0.144252
-16.47999954 2.43000007 -0.81999999 64 222 112 0.000000 0.000000 0.000000 0.000000 -0.000107 0.000000 186.000000 0.851881 0.301483 0.428260
-16.47999954 2.42000008 -0.85000002 64 222 112 0.000000 0.000000 0.000000 0.000000 -0.000107 0.000000 186.000000 0.986622 0.162355 0.014760
-16.47999954 2.43000007 -0.83999997 64 222 112 0.000000 0.000000 0.000000 0.000000 -0.000107 0.000000 186.000000 0.904547 0.411158 -0.112894
-16.52000046 2.42000008 -0.75000000 64 222 112 0.000000 0.000000 0.000000 0.000000 -0.000107 0.000000 186.000000 0.863059 0.237303 0.445889
-16.56999969 2.42000008 -0.74000001 64 222 112 0.000000 0.000000 0.000000 0.000000 -0.000107 0.000000 186.000000 0.818541 0.256279 0.514112
-16.56999969 2.42000008 -0.74000001 64 222 112 0.000000 0.000000 0.000000 0.000000 -0.000107 0.000000 186.000000 0.818541 0.256279 0.514112
-16.39999962 2.66000009 -0.92000002 64 222 112 0.000000 0.000000 0.000000 0.000000 -0.000107 0.000000 186.000000 0.827137 0.538011 0.162447
-16.47999954 2.63000011 -0.92000002 64 222 112 0.000000 0.000000 0.000000 0.000000 -0.000107 0.000000 186.000000 0.909677 0.086180 0.406277
-16.47999954 2.63000011 -0.92000002 64 222 112 0.000000 0.000000 0.000000 0.000000 -0.000107 0.000000 186.000000 0.909677 0.086180 0.406277
-16.47999954 2.63000011 -0.93000001 64 222 112 0.000000 0.000000 0.000000 0.000000 -0.000107 0.000000 186.000000 0.962000 0.267153 0.056441
-16.47999954 2.63000011 -0.95999998 64 222 112 0.000000 0.000000 0.000000 0.000000 -0.000107 0.000000 186.000000 0.902496 0.146389 0.405057
-16.47999954 2.60999990 -0.93000001 64 222 112 0.000000 0.000000 0.000000 0.000000 -0.000107 0.000000 186.000000 0.909261 0.297230 0.291374
-16.53000069 2.71000004 -0.93000001 64 222 112 0.000000 0.000000 0.000000 0.000000 -0.000107 0.000000 186.000000 0.553246 0.768130 0.322326
-16.54000092 2.69000006 -0.91000003 64 222 112 0.000000 0.000000 0.000000 0.000000 -0.000107 0.000000 186.000000 0.774920 0.388272 0.498743
-16.52000046 2.69000006 -0.97000003 64 222 112 0.000000 0.000000 0.000000 0.000000 -0.000107 0.000000 186.000000 0.923812 0.267834 0.273563
-16.52000046 2.72000003 -0.97000003 64 222 112 0.000000 0.000000 0.000000 0.000000 -0.000107 0.000000 186.000000 0.847810 0.518507 0.111212
-16.53000069 2.70000005 -0.98000002 64 222 112 0.000000 0.000000 0.000000 0.000000 -0.000107 0.000000 186.000000 0.716047 0.581068 0.386830
-16.50000000 2.66000009 -0.92000002 64 222 112 0.000000 0.000000 0.000000 0.000000 -0.000107 0.000000 186.000000 0.623358 0.576057 0.528756
-16.51000023 2.65000010 -0.92000002 64 222 112 0.000000 0.000000 0.000000 0.000000 -0.000107 0.000000 186.000000 0.977770 0.079345 0.194089
-16.50000000 2.64000010 -0.91000003 64 222 112 0.000000 0.000000 0.000000 0.000000 -0.000107 0.000000 186.000000 0.669637 0.376774 0.640022
-16.48999977 2.61999989 -0.91000003 64 222 112 0.000000 0.000000 0.000000 0.000000 -0.000107 0.000000 186.000000 0.645920 0.605654 0.464727
-16.48999977 2.60999990 -0.95999998 64 222 112 0.000000 0.000000 0.000000 0.000000 -0.000107 0.000000 186.000000 0.993263 0.113547 0.023150
-16.48999977 2.60999990 -0.95999998 64 222 112 0.000000 0.000000 0.000000 0.000000 -0.000107 0.000000 186.000000 0.993263 0.113547 0.023150
-16.48999977 2.64000010 -0.94999999 64 222 112 0.000000 0.000000 0.000000 0.000000 -0.000107 0.000000 186.000000 0.908175 0.417840 0.025044
-16.51000023 2.60999990 -0.94000000 64 222 112 0.000000 0.000000 0.000000 0.000000 -0.000107 0.000000 186.000000 0.963225 0.045986 0.264732
-16.48999977 2.64000010 -0.95999998 64 222 112 0.000000 0.000000 0.000000 0.000000 -0.000107 0.000000 186.000000 0.617727 0.604262 0.503271
-16.55999947 2.65000010 -0.95999998 64 222 112 0.000000 0.000000 0.000000 0.000000 -0.000107 0.000000 186.000000 0.671588 0.412902 0.615208
-16.56999969 2.63000011 -0.92000002 64 222 112 0.000000 0.000000 0.000000 0.000000 -0.000107 0.000000 186.000000 0.981011 0.166955 0.098710
-16.51000023 2.61999989 -0.97000003 64 222 112 0.000000 0.000000 0.000000 0.000000 -0.000107 0.000000 186.000000 0.805621 0.558909 0.196456
-16.35000038 2.57999992 -0.95999998 64 222 112 0.000000 0.000000 0.000000 0.000000 -0.000107 0.000000 186.000000 0.901605 0.270039 0.337917
-16.34000015 2.54999995 -0.95999998 64 222 112 0.000000 0.000000 0.000000 0.000000 -0.000107 0.000000 186.000000 0.994763 0.045267 0.091637
-16.34000015 2.55999994 -0.95999998 64 222 112 0.000000 0.000000 0.000000 0.000000 -0.000107 0.000000 186.000000 0.908599 0.414708 -0.049658
-16.34000015 2.55999994 -0.95999998 64 222 112 0.000000 0.000000 0.000000 0.000000 -0.000107 0.000000 186.000000 0.908599 0.414708 -0.049658
-16.37000084 2.56999993 -0.92000002 64 222 112 0.000000 0.000000 0.000000 0.000000 -0.000107 0.000000 186.000000 0.798981 0.177383 0.574599
-16.34000015 2.54999995 -0.97000003 64 222 112 0.000000 0.000000 0.000000 0.000000 -0.000107 0.000000 186.000000 0.969137 0.243201 -0.040330
-16.37999916 2.31999993 -1.03999996 64 222 112 0.000000 0.000000 0.000000 0.000000 -0.000107 0.000000 214.000000 0.997391 -0.070864 0.013750
-16.37999916 2.29999995 -1.03999996 64 222 112 0.000000 0.000000 0.000000 0.000000 -0.000107 0.000000 214.000000 0.938584 0.011369 -0.344863
-16.37999916 2.27999997 -1.03999996 64 222 112 0.000000 0.000000 0.000000 0.000000 -0.000107 0.000000 214.000000 0.973492 -0.224279 -0.044856
-16.37999916 2.32999992 -1.02999997 64 222 112 0.000000 0.000000 0.000000 0.000000 -0.000107 0.000000 214.000000 0.908474 0.052335 0.414651
-16.37999916 2.27999997 -1.03999996 64 222 112 0.000000 0.000000 0.000000 0.000000 -0.000107 0.000000 214.000000 0.973492 -0.224279 -0.044856
-16.43000031 2.58999991 -0.91000003 64 222 112 0.000000 0.000000 0.000000 0.000000 -0.000107 0.000000 186.000000 0.939201 0.323816 -0.114209
-16.44000053 2.59999990 -0.92000002 64 222 112 0.000000 0.000000 0.000000 0.000000 -0.000107 0.000000 186.000000 0.785478 0.577877 0.221545
-16.40999985 2.58999991 -0.94000000 64 222 112 0.000000 0.000000 0.000000 0.000000 -0.000107 0.000000 186.000000 0.978991 0.114523 0.168707
-16.42000008 2.55999994 -0.88999999 64 222 112 0.000000 0.000000 0.000000 0.000000 -0.000107 0.000000 186.000000 0.797648 0.281615 0.533339
-16.40999985 2.55999994 -0.92000002 64 222 112 0.000000 0.000000 0.000000 0.000000 -0.000107 0.000000 186.000000 0.891964 0.439661 -0.105350
-16.45999908 2.57999992 -0.88999999 64 222 112 0.000000 0.000000 0.000000 0.000000 -0.000107 0.000000 186.000000 0.947138 0.305145 -0.099073
-16.45999908 2.58999991 -0.94000000 64 222 112 0.000000 0.000000 0.000000 0.000000 -0.000107 0.000000 186.000000 0.768309 0.425751 0.477950
-16.47999954 2.54999995 -0.88999999 64 222 112 0.000000 0.000000 0.000000 0.000000 -0.000107 0.000000 186.000000 0.958124 -0.021017 0.285583
-16.47999954 2.55999994 -0.88999999 64 222 112 0.000000 0.000000 0.000000 0.000000 -0.000107 0.000000 186.000000 0.828666 0.558479 -0.037603
-16.46999931 2.52999997 -0.93000001 64 222 112 0.000000 0.000000 0.000000 0.000000 -0.000107 0.000000 186.000000 0.896328 0.423384 0.131688
-16.46999931 2.52999997 -0.94999999 64 222 112 0.000000 0.000000 0.000000 0.000000 -0.000107 0.000000 186.000000 0.976011 0.079800 0.202568
-16.47999954 2.52999997 -0.93000001 64 222 112 0.000000 0.000000 0.000000 0.000000 -0.000107 0.000000 186.000000 0.846051 0.485836 0.219459
-16.46999931 2.51999998 -0.93000001 64 222 112 0.000000 0.000000 0.000000 0.000000 -0.000107 0.000000 186.000000 0.971381 0.228342 0.065417
-16.42000008 2.56999993 -0.98000002 64 222 112 0.000000 0.000000 0.000000 0.000000 -0.000107 0.000000 186.000000 0.975805 0.208839 0.064728
-16.42000008 2.50000000 -0.94999999 64 222 112 0.000000 0.000000 0.000000 0.000000 -0.000107 0.000000 186.000000 0.880908 -0.064996 0.468803
-16.45999908 2.50000000 -0.89999998 64 222 112 0.000000 0.000000 0.000000 0.000000 -0.000107 0.000000 186.000000 0.968028 0.250704 0.008397
-16.45999908 2.50000000 -0.91000003 64 222 112 0.000000 0.000000 0.000000 0.000000 -0.000107 0.000000 186.000000 0.951622 0.303655 -0.047009
-16.45999908 2.49000001 -0.88999999 64 222 112 0.000000 0.000000 0.000000 0.000000 -0.000107 0.000000 186.000000 0.951277 0.242217 0.190797
-16.45999908 2.50000000 -0.92000002 64 222 112 0.000000 0.000000 0.000000 0.000000 -0.000107 0.000000 186.000000 0.887035 0.461471 -0.014629
-16.45000076 2.48000002 -0.89999998 64 222 112 0.000000 0.000000 0.000000 0.000000 -0.000107 0.000000 186.000000 0.994147 0.047870 0.096854
-16.45999908 2.49000001 -0.91000003 64 222 112 0.000000 0.000000 0.000000 0.000000 -0.000107 0.000000 186.000000 0.957433 0.276306 0.083534
-16.45999908 2.50000000 -0.92000002 64 222 112 0.000000 0.000000 0.000000 0.000000 -0.000107 0.000000 186.000000 0.887035 0.461471 -0.014629
-16.45999908 2.50999999 -0.88999999 64 222 112 0.000000 0.000000 0.000000 0.000000 -0.000107 0.000000 186.000000 0.975699 0.219035 0.005857
-16.46999931 2.50999999 -0.88999999 64 222 112 0.000000 0.000000 0.000000 0.000000 -0.000107 0.000000 186.000000 0.877838 0.426293 0.218345
-16.45999908 2.50999999 -0.93000001 64 222 112 0.000000 0.000000 0.000000 0.000000 -0.000107 0.000000 186.000000 0.922468 0.384905 -0.030010
-16.47999954 2.46000004 -0.92000002 64 222 112 0.000000 0.000000 0.000000 0.000000 -0.000107 0.000000 186.000000 0.996748 0.020298 0.077988
-16.45999908 2.46000004 -0.89999998 64 222 112 0.000000 0.000000 0.000000 0.000000 -0.000107 0.000000 186.000000 0.917982 -0.065858 0.391117
-16.47999954 2.46000004 -0.89999998 64 222 112 0.000000 0.000000 0.000000 0.000000 -0.000107 0.000000 186.000000 0.947624 0.310675 -0.074094
-16.45999908 2.45000005 -0.94999999 64 222 112 0.000000 0.000000 0.000000 0.000000 -0.000107 0.000000 186.000000 0.946898 -0.166622 0.274993
-16.46999931 2.44000006 -0.94999999 64 222 112 0.000000 0.000000 0.000000 0.000000 -0.000107 0.000000 186.000000 0.997071 0.075231 0.013775
-16.46999931 2.45000005 -0.93000001 64 222 112 0.000000 0.000000 0.000000 0.000000 -0.000107 0.000000 186.000000 0.932836 0.170489 0.317414
-16.47999954 2.50000000 -0.97000003 64 222 112 0.000000 0.000000 0.000000 0.000000 -0.000107 0.000000 186.000000 0.980297 0.005773 0.197445
-16.47999954 2.48000002 -0.98000002 64 222 112 0.000000 0.000000 0.000000 0.000000 -0.000107 0.000000 186.000000 0.952783 -0.253271 0.167507
-16.50000000 2.56999993 -0.91000003 64 222 112 0.000000 0.000000 0.000000 0.000000 -0.000107 0.000000 186.000000 0.896049 0.346235 0.277879
-16.50000000 2.58999991 -0.92000002 64 222 112 0.000000 0.000000 0.000000 0.000000 -0.000107 0.000000 186.000000 0.947710 0.222910 0.228380
-16.50000000 2.57999992 -0.91000003 64 222 112 0.000000 0.000000 0.000000 0.000000 -0.000107 0.000000 186.000000 0.940382 0.066703 0.333515
-16.50000000 2.58999991 -0.92000002 64 222 112 0.000000 0.000000 0.000000 0.000000 -0.000107 0.000000 186.000000 0.947710 0.222910 0.228380
-16.48999977 2.57999992 -0.94999999 64 222 112 0.000000 0.000000 0.000000 0.000000 -0.000107 0.000000 186.000000 0.806193 0.144548 0.573723
-16.48999977 2.52999997 -0.88999999 64 222 112 0.000000 0.000000 0.000000 0.000000 -0.000107 0.000000 186.000000 0.959564 0.048919 0.277207
-16.52000046 2.48000002 -0.89999998 64 222 112 0.000000 0.000000 0.000000 0.000000 -0.000107 0.000000 186.000000 0.925489 0.378668 -0.008985
-16.48999977 2.50000000 -0.89999998 64 222 112 0.000000 0.000000 0.000000 0.000000 -0.000107 0.000000 186.000000 0.996691 0.057481 -0.057481
-16.51000023 2.50999999 -0.88999999 64 222 112 0.000000 0.000000 0.000000 0.000000 -0.000107 0.000000 186.000000 0.996853 0.076022 -0.022485
-16.52000046 2.47000003 -0.89999998 64 222 112 0.000000 0.000000 0.000000 0.000000 -0.000107 0.000000 186.000000 0.948067 0.309970 -0.071332
-16.56999969 2.49000001 -0.93000001 64 222 112 0.000000 0.000000 0.000000 0.000000 -0.000107 0.000000 186.000000 0.947065 0.301520 -0.110247
-16.56999969 2.50000000 -0.93000001 64 222 112 0.000000 0.000000 0.000000 0.000000 -0.000107 0.000000 186.000000 0.956808 0.097369 0.273930
-16.50000000 2.50000000 -0.99000001 64 222 112 0.000000 0.000000 0.000000 0.000000 -0.000107 0.000000 186.000000 0.976470 0.069661 0.204093
-16.45999908 2.42000008 -0.89999998 64 222 112 0.000000 0.000000 0.000000 0.000000 -0.000107 0.000000 186.000000 0.971852 -0.209960 -0.106866
-16.43000031 2.34999990 -0.99000001 64 222 112 0.000000 0.000000 0.000000 0.000000 -0.000107 0.000000 214.000000 0.935357 0.132066 0.328124
-16.45999908 2.42000008 -0.97000003 64 222 112 0.000000 0.000000 0.000000 0.000000 -0.000107 0.000000 186.000000 0.985068 0.106526 0.135252
-16.45999908 2.39000010 -1.02999997 64 222 112 0.000000 0.000000 0.000000 0.000000 -0.000107 0.000000 214.000000 0.998724 0.050399 -0.003086
-16.45999908 2.39000010 -1.01999998 64 222 112 0.000000 0.000000 0.000000 0.000000 -0.000107 0.000000 214.000000 0.994111 -0.094837 0.052439
-16.45999908 2.35999990 -1.04999995 64 222 112 0.000000 0.000000 0.000000 0.000000 -0.000107 0.000000 214.000000 0.957363 0.078178 0.278109
-16.40999985 2.30999994 -1.03999996 64 222 112 0.000000 0.000000 0.000000 0.000000 -0.000107 0.000000 214.000000 0.899334 -0.423792 -0.107696
-16.44000053 2.27999997 -1.04999995 64 222 112 0.000000 0.000000 0.000000 0.000000 -0.000107 0.000000 214.000000 0.831382 -0.555620 0.009556
-16.45000076 2.32999992 -1.03999996 64 222 112 0.000000 0.000000 0.000000 0.000000 -0.000107 0.000000 214.000000 0.907136 -0.363144 0.212678
-16.45000076 2.31999993 -1.04999995 64 222 112 0.000000 0.000000 0.000000 0.000000 -0.000107 0.000000 214.000000 0.931798 0.024487 0.362151
-16.45000076 2.31999993 -1.04999995 64 222 112 0.000000 0.000000 0.000000 0.000000 -0.000107 0.000000 214.000000 0.931798 0.024487 0.362151
-16.45000076 2.28999996 -0.98000002 64 222 112 0.000000 0.000000 0.000000 0.000000 -0.000107 0.000000 214.000000 0.916879 0.126227 0.378681
-16.45000076 2.26999998 -1.04999995 64 222 112 0.000000 0.000000 0.000000 0.000000 -0.000107 0.000000 214.000000 0.979125 0.197260 0.049016
-16.45000076 2.26999998 -1.04999995 64 222 112 0.000000 0.000000 0.000000 0.000000 -0.000107 0.000000 214.000000 0.979125 0.197260 0.049016
-16.48999977 2.41000009 -0.88999999 64 222 112 0.000000 0.000000 0.000000 0.000000 -0.000107 0.000000 186.000000 0.939466 0.330873 -0.089030
-16.51000023 2.41000009 -0.92000002 64 222 112 0.000000 0.000000 0.000000 0.000000 -0.000107 0.000000 186.000000 0.976680 -0.213759 -0.020077
-16.56999969 2.42000008 -0.93000001 64 222 112 0.000000 0.000000 0.000000 0.000000 -0.000107 0.000000 186.000000 0.992660 -0.014323 -0.120089
-16.54999924 2.40000010 -0.97000003 64 222 112 0.000000 0.000000 0.000000 0.000000 -0.000107 0.000000 214.000000 0.851642 -0.012186 0.523983
-16.56999969 2.36999989 -0.99000001 64 222 112 0.000000 0.000000 0.000000 0.000000 -0.000107 0.000000 214.000000 0.960257 0.102100 -0.259773
-16.54999924 2.34999990 -0.98000002 64 222 112 0.000000 0.000000 0.000000 0.000000 -0.000107 0.000000 214.000000 0.997373 -0.003146 0.072365
-16.54999924 2.34999990 -0.98000002 64 222 112 0.000000 0.000000 0.000000 0.000000 -0.000107 0.000000 214.000000 0.997373 -0.003146 0.072365
-16.51000023 2.33999991 -0.88999999 64 222 112 0.000000 0.000000 0.000000 0.000000 -0.000107 0.000000 214.000000 0.983393 0.053124 -0.173540
-16.50000000 2.33999991 -0.91000003 64 222 112 0.000000 0.000000 0.000000 0.000000 -0.000107 0.000000 214.000000 0.939435 -0.220635 -0.262265
-16.55999947 2.30999994 -0.92000002 64 222 112 0.000000 0.000000 0.000000 0.000000 -0.000107 0.000000 214.000000 0.937349 -0.343826 -0.056215
-16.55999947 2.30999994 -0.94000000 64 222 112 0.000000 0.000000 0.000000 0.000000 -0.000107 0.000000 214.000000 0.989785 -0.012302 -0.142037
-16.53000069 2.27999997 -0.89999998 64 222 112 0.000000 0.000000 0.000000 0.000000 -0.000107 0.000000 214.000000 0.991172 -0.115465 -0.065164
-16.54000092 2.28999996 -0.89999998 64 222 112 0.000000 0.000000 0.000000 0.000000 -0.000107 0.000000 214.000000 0.965051 -0.196657 0.173214
-16.48999977 2.32999992 -1.03999996 64 222 112 0.000000 0.000000 0.000000 0.000000 -0.000107 0.000000 214.000000 0.940819 -0.338795 0.008816
-16.48999977 2.28999996 -1.02999997 64 222 112 0.000000 0.000000 0.000000 0.000000 -0.000107 0.000000 214.000000 0.976034 -0.190233 0.105685
-16.50000000 2.25999999 -1.02999997 64 222 112 0.000000 0.000000 0.000000 0.000000 -0.000107 0.000000 214.000000 0.974158 -0.211129 -0.080254
-16.48999977 2.27999997 -1.03999996 64 222 112 0.000000 0.000000 0.000000 0.000000 -0.000107 0.000000 214.000000 0.801502 -0.575939 0.160902
-16.54999924 2.33999991 -0.98000002 64 222 112 0.000000 0.000000 0.000000 0.000000 -0.000107 0.000000 214.000000 0.939752 -0.272653 0.206220
-16.54999924 2.33999991 -0.98000002 64 222 112 0.000000 0.000000 0.000000 0.000000 -0.000107 0.000000 214.000000 0.939752 -0.272653 0.206220
-16.54000092 2.30999994 -0.98000002 64 222 112 0.000000 0.000000 0.000000 0.000000 -0.000107 0.000000 214.000000 0.983741 0.178757 0.017299
-16.54999924 2.33999991 -1.01999998 64 222 112 0.000000 0.000000 0.000000 0.000000 -0.000107 0.000000 214.000000 0.999488 -0.025471 0.019358
-16.56999969 2.27999997 -0.99000001 64 222 112 0.000000 0.000000 0.000000 0.000000 -0.000107 0.000000 214.000000 0.984401 0.024235 0.174261
-16.54000092 2.27999997 -1.03999996 64 222 112 0.000000 0.000000 0.000000 0.000000 -0.000107 0.000000 214.000000 0.845719 -0.521888 0.111317
-16.54000092 2.27999997 -1.03999996 64 222 112 0.000000 0.000000 0.000000 0.000000 -0.000107 0.000000 214.000000 0.845719 -0.521888 0.111317
-16.44000053 2.27999997 -1.05999994 64 222 112 0.000000 0.000000 0.000000 0.000000 -0.000107 0.000000 214.000000 0.903927 -0.389450 -0.176762
-16.47999954 2.25999999 -1.10000002 64 222 112 0.000000 0.000000 0.000000 0.000000 -0.000107 0.000000 214.000000 0.888825 -0.405351 0.213731
-16.48999977 2.32999992 -1.05999994 64 222 112 0.000000 0.000000 0.000000 0.000000 -0.000107 0.000000 214.000000 0.988861 0.056672 -0.137631
-16.37999916 2.23000002 -1.01999998 64 222 112 0.000000 0.000000 0.000000 0.000000 -0.000107 0.000000 214.000000 0.863160 -0.364650 -0.349264
-16.39999962 2.24000001 -1.04999995 64 222 112 0.000000 0.000000 0.000000 0.000000 -0.000107 0.000000 214.000000 0.779050 -0.626838 0.012454
-16.39999962 2.24000001 -1.04999995 64 222 112 0.000000 0.000000 0.000000 0.000000 -0.000107 0.000000 214.000000 0.779050 -0.626838 0.012454
-16.39999962 2.25000000 -1.02999997 64 222 112 0.000000 0.000000 0.000000 0.000000 -0.000107 0.000000 214.000000 0.974175 -0.119108 -0.191826
-16.45999908 2.23000002 -1.04999995 64 222 112 0.000000 0.000000 0.000000 0.000000 -0.000107 0.000000 214.000000 0.907272 -0.258594 0.331644
-16.47999954 2.21000004 -1.03999996 64 222 112 0.000000 0.000000 0.000000 0.000000 -0.000107 0.000000 214.000000 0.865873 -0.480074 0.140686
-16.47999954 2.21000004 -1.02999997 64 222 112 0.000000 0.000000 0.000000 0.000000 -0.000107 0.000000 214.000000 0.799887 -0.599568 -0.026431
-16.54000092 2.21000004 -0.93000001 64 222 112 0.000000 0.000000 0.000000 0.000000 -0.000107 0.000000 214.000000 0.868069 -0.395132 0.300544
-16.54999924 2.19000006 -0.95999998 64 222 112 0.000000 0.000000 0.000000 0.000000 -0.000107 0.000000 214.000000 0.871766 -0.200491 -0.447021
-16.48999977 2.20000005 -1.03999996 64 222 112 0.000000 0.000000 0.000000 0.000000 -0.000107 0.000000 214.000000 0.762537 -0.599696 -0.242697
-16.48999977 2.21000004 -1.03999996 64 222 112 0.000000 0.000000 0.000000 0.000000 -0.000107 0.000000 214.000000 0.950007 -0.309039 0.044512
-16.54999924 2.25000000 -0.97000003 64 222 112 0.000000 0.000000 0.000000 0.000000 -0.000107 0.000000 214.000000 0.863867 -0.295091 0.408234
-16.56999969 2.18000007 -0.99000001 64 222 112 0.000000 0.000000 0.000000 0.000000 -0.000107 0.000000 214.000000 0.956630 -0.259224 0.132902
-16.56999969 2.18000007 -0.99000001 64 222 112 0.000000 0.000000 0.000000 0.000000 -0.000107 0.000000 214.000000 0.956630 -0.259224 0.132902
-16.52000046 2.14000010 -1.04999995 64 222 112 0.000000 0.000000 0.000000 0.000000 -0.000107 0.000000 214.000000 0.784924 -0.618039 0.043843
-16.52000046 2.15000010 -1.02999997 64 222 112 0.000000 0.000000 0.000000 0.000000 -0.000107 0.000000 214.000000 0.701561 -0.707395 -0.086054
-16.50000000 2.17000008 -1.02999997 64 222 112 0.000000 0.000000 0.000000 0.000000 -0.000107 0.000000 214.000000 0.783306 -0.594704 -0.180997
-16.53000069 2.17000008 -0.98000002 64 222 112 0.000000 0.000000 0.000000 0.000000 -0.000107 0.000000 214.000000 0.821454 -0.559752 0.109043
-16.39999962 2.22000003 -1.05999994 64 222 112 0.000000 0.000000 0.000000 0.000000 -0.000107 0.000000 214.000000 0.887539 -0.452826 0.084992
-16.44000053 2.25000000 -1.09000003 64 222 112 0.000000 0.000000 0.000000 0.000000 -0.000107 0.000000 214.000000 0.885001 -0.457181 0.088081
-16.43000031 2.21000004 -1.10000002 64 222 112 0.000000 0.000000 0.000000 0.000000 -0.000107 0.000000 214.000000 0.950603 -0.084759 -0.298612
-16.46999931 2.23000002 -1.07000005 64 222 112 0.000000 0.000000 0.000000 0.000000 -0.000107 0.000000 214.000000 0.882420 -0.436105 -0.176484
-16.45000076 2.23000002 -1.08000004 64 222 112 0.000000 0.000000 0.000000 0.000000 -0.000107 0.000000 214.000000 0.966953 -0.103193 0.233139
-16.87000084 3.18000007 -0.58999997 64 222 112 0.000000 0.000000 0.000000 0.000000 -0.000107 0.000000 213.000000 0.399522 0.641556 0.654819
-16.90999985 3.18000007 -0.58999997 64 222 112 0.000000 0.000000 0.000000 0.000000 -0.000107 0.000000 213.000000 0.277857 0.763709 0.582705
-16.87999916 3.14000010 -0.60000002 64 222 112 0.000000 0.000000 0.000000 0.000000 -0.000107 0.000000 213.000000 -0.037924 0.927176 0.372701
-16.88999939 3.14000010 -0.60000002 64 222 112 0.000000 0.000000 0.000000 0.000000 -0.000107 0.000000 213.000000 -0.078281 0.981518 0.174626
-16.80999947 3.16000009 -0.74000001 64 222 112 0.000000 0.000000 0.000000 0.000000 -0.000107 0.000000 213.000000 0.012518 0.732984 0.680131
-16.84000015 3.16000009 -0.72000003 64 222 112 0.000000 0.000000 0.000000 0.000000 -0.000107 0.000000 213.000000 0.021031 0.727668 0.685607
-16.84000015 3.13000011 -0.73000002 64 222 112 0.000000 0.000000 0.000000 0.000000 -0.000107 0.000000 213.000000 -0.082966 0.688476 0.720498
-16.82999992 3.14000010 -0.73000002 64 222 112 0.000000 0.000000 0.000000 0.000000 -0.000107 0.000000 213.000000 0.094875 0.617417 0.780894
-16.88999939 3.17000008 -0.79000002 64 222 112 0.000000 0.000000 0.000000 0.000000 -0.000107 0.000000 213.000000 0.263010 0.770130 0.581141
-16.90999985 3.14000010 -0.75999999 64 222 112 0.000000 0.000000 0.000000 0.000000 -0.000107 0.000000 213.000000 0.004135 0.640856 0.767650
-16.90999985 3.15000010 -0.77999997 64 222 112 0.000000 0.000000 0.000000 0.000000 -0.000107 0.000000 213.000000 -0.143425 0.873591 0.465046
-16.88999939 3.16000009 -0.77999997 64 222 112 0.000000 0.000000 0.000000 0.000000 -0.000107 0.000000 213.000000 0.182440 0.824751 0.535259
-16.86000061 3.15000010 -0.87000000 64 222 112 0.000000 0.000000 0.000000 0.000000 -0.000107 0.000000 213.000000 0.009256 0.892530 0.450893
-16.88999939 3.17000008 -0.80000001 64 222 112 0.000000 0.000000 0.000000 0.000000 -0.000107 0.000000 213.000000 0.161856 0.776003 0.609608
-16.88999939 3.17000008 -0.88000000 64 222 112 0.000000 0.000000 0.000000 0.000000 -0.000107 0.000000 213.000000 0.199512 0.895620 0.397568
-16.89999962 3.17000008 -0.88000000 64 222 112 0.000000 0.000000 0.000000 0.000000 -0.000107 0.000000 213.000000 0.346536 0.900993 0.261008
-16.89999962 3.15000010 -0.86000001 64 222 112 0.000000 0.000000 0.000000 0.000000 -0.000107 0.000000 213.000000 0.226943 0.687090 0.690220
-16.87999916 3.14000010 -0.87000000 64 222 112 0.000000 0.000000 0.000000 0.000000 -0.000107 0.000000 213.000000 -0.031083 0.879785 0.474354
-16.87999916 3.14000010 -0.87000000 64 222 112 0.000000 0.000000 0.000000 0.000000 -0.000107 0.000000 213.000000 -0.031083 0.879785 0.474354
-16.82999992 3.07999992 -0.86000001 64 222 112 0.000000 0.000000 0.000000 0.000000 -0.000107 0.000000 229.000000 0.179871 0.851786 0.492044
-16.89999962 3.06999993 -0.88000000 64 222 112 0.000000 0.000000 0.000000 0.000000 -0.000107 0.000000 213.000000 0.334969 0.912101 0.236363
-16.89999962 3.01999998 -0.73000002 64 222 112 0.000000 0.000000 0.000000 0.000000 -0.000107 0.000000 213.000000 0.110151 0.782806 0.612439
-16.89999962 3.01999998 -0.73000002 64 222 112 0.000000 0.000000 0.000000 0.000000 -0.000107 0.000000 213.000000 0.110151 0.782806 0.612439
-17.00000000 3.16000009 -0.49000001 64 222 112 0.000000 0.000000 0.000000 0.000000 -0.000107 0.000000 213.000000 -0.070741 0.993741 0.086461
-17.00000000 3.16000009 -0.49000001 64 222 112 0.000000 0.000000 0.000000 0.000000 -0.000107 0.000000 213.000000 -0.070741 0.993741 0.086461
-17.00000000 3.13000011 -0.51999998 64 222 112 0.000000 0.000000 0.000000 0.000000 -0.000107 0.000000 213.000000 -0.174469 0.941031 0.289865
-17.04000092 3.15000010 -0.51999998 64 222 112 0.000000 0.000000 0.000000 0.000000 -0.000107 0.000000 213.000000 -0.258664 0.931472 0.255837
-17.01000023 3.13000011 -0.51999998 64 222 112 0.000000 0.000000 0.000000 0.000000 -0.000107 0.000000 213.000000 -0.111502 0.965065 0.237101
-17.00000000 3.25999999 -0.70999998 64 222 112 0.000000 0.000000 0.000000 0.000000 -0.000107 0.000000 213.000000 -0.152979 0.670988 0.725515
-16.95000076 3.14000010 -0.56000000 64 222 112 0.000000 0.000000 0.000000 0.000000 -0.000107 0.000000 213.000000 -0.069382 0.904693 0.420376
-16.97999954 3.17000008 -0.58999997 64 222 112 0.000000 0.000000 0.000000 0.000000 -0.000107 0.000000 213.000000 0.347079 0.725118 0.594760
-16.95999908 3.17000008 -0.61000001 64 222 112 0.000000 0.000000 0.000000 0.000000 -0.000107 0.000000 213.000000 -0.001384 0.707106 0.707106
-16.95999908 3.18000007 -0.62000000 64 222 112 0.000000 0.000000 0.000000 0.000000 -0.000107 0.000000 213.000000 0.349941 0.724296 0.594085
-16.97999954 3.16000009 -0.61000001 64 222 112 0.000000 0.000000 0.000000 0.000000 -0.000107 0.000000 213.000000 -0.317867 0.831465 0.455661
-16.92000008 3.13000011 -0.68000001 64 222 112 0.000000 0.000000 0.000000 0.000000 -0.000107 0.000000 213.000000 0.119214 0.796233 0.593128
-17.02000046 3.17000008 -0.60000002 64 222 112 0.000000 0.000000 0.000000 0.000000 -0.000107 0.000000 213.000000 0.003957 0.890428 0.455107
-17.01000023 3.15000010 -0.56999999 64 222 112 0.000000 0.000000 0.000000 0.000000 -0.000107 0.000000 213.000000 -0.092287 0.739758 0.666515
-17.01000023 3.15000010 -0.54000002 64 222 112 0.000000 0.000000 0.000000 0.000000 -0.000107 0.000000 213.000000 -0.383312 0.868943 0.313064
-17.02000046 3.15000010 -0.57999998 64 222 112 0.000000 0.000000 0.000000 0.000000 -0.000107 0.000000 213.000000 0.293885 0.717849 0.631129
-17.02000046 3.16000009 -0.57999998 64 222 112 0.000000 0.000000 0.000000 0.000000 -0.000107 0.000000 213.000000 -0.422278 0.787928 0.448164
-17.03000069 3.15000010 -0.57999998 64 222 112 0.000000 0.000000 0.000000 0.000000 -0.000107 0.000000 213.000000 0.169147 0.641540 0.748209
-17.04000092 3.13000011 -0.62000000 64 222 112 0.000000 0.000000 0.000000 0.000000 -0.000107 0.000000 213.000000 -0.156353 0.684615 0.711939
-17.05999947 3.20000005 -0.60000002 64 222 112 0.000000 0.000000 0.000000 0.000000 -0.000107 0.000000 213.000000 -0.185182 0.757562 0.625945
-17.04999924 3.11999989 -0.62000000 64 222 112 0.000000 0.000000 0.000000 0.000000 -0.000107 0.000000 213.000000 -0.160694 0.923643 0.347938
-17.04000092 3.17000008 -0.70999998 64 222 112 0.000000 0.000000 0.000000 0.000000 -0.000107 0.000000 213.000000 0.101122 0.904558 0.414185
-17.02000046 3.15000010 -0.64999998 64 222 112 0.000000 0.000000 0.000000 0.000000 -0.000107 0.000000 213.000000 0.152354 0.764788 0.626010
-17.02000046 3.15000010 -0.64999998 64 222 112 0.000000 0.000000 0.000000 0.000000 -0.000107 0.000000 213.000000 0.152354 0.764788 0.626010
-17.04999924 3.19000006 -0.67000002 64 222 112 0.000000 0.000000 0.000000 0.000000 -0.000107 0.000000 213.000000 -0.130754 0.830069 0.542116
-16.92000008 3.17000008 -0.79000002 64 222 112 0.000000 0.000000 0.000000 0.000000 -0.000107 0.000000 213.000000 -0.157641 0.938992 0.305686
-16.94000053 3.16000009 -0.75999999 64 222 112 0.000000 0.000000 0.000000 0.000000 -0.000107 0.000000 213.000000 0.105741 0.883991 0.455389
-16.97999954 3.15000010 -0.75999999 64 222 112 0.000000 0.000000 0.000000 0.000000 -0.000107 0.000000 213.000000 -0.221618 0.896744 0.383061
-16.97999954 3.16000009 -0.77999997 64 222 112 0.000000 0.000000 0.000000 0.000000 -0.000107 0.000000 213.000000 -0.140099 0.904273 0.403314
-16.95000076 3.19000006 -0.86000001 64 222 112 0.000000 0.000000 0.000000 0.000000 -0.000107 0.000000 213.000000 -0.285228 0.900018 0.329563
-16.93000031 3.20000005 -0.86000001 64 222 112 0.000000 0.000000 0.000000 0.000000 -0.000107 0.000000 213.000000 0.256981 -0.752023 -0.606978
-16.95000076 3.16000009 -0.80000001 64 222 112 0.000000 0.000000 0.000000 0.000000 -0.000107 0.000000 213.000000 0.153227 0.825642 0.542989
-16.92000008 3.15000010 -0.88000000 64 222 112 0.000000 0.000000 0.000000 0.000000 -0.000107 0.000000 213.000000 -0.127217 0.931557 0.340613
-16.93000031 3.14000010 -0.88000000 64 222 112 0.000000 0.000000 0.000000 0.000000 -0.000107 0.000000 213.000000 0.152078 0.612827 0.775445
-16.95000076 3.14000010 -0.86000001 64 222 112 0.000000 0.000000 0.000000 0.000000 -0.000107 0.000000 213.000000 -0.018072 0.774326 0.632529
-16.97999954 3.19000006 -0.88000000 64 222 112 0.000000 0.000000 0.000000 0.000000 -0.000107 0.000000 213.000000 0.228651 0.769946 0.595736
-16.97999954 3.19000006 -0.83999997 64 222 112 0.000000 0.000000 0.000000 0.000000 -0.000107 0.000000 213.000000 0.360442 0.866594 0.345104
-16.96999931 3.19000006 -0.87000000 64 222 112 0.000000 0.000000 0.000000 0.000000 -0.000107 0.000000 213.000000 0.241844 0.901420 0.359102
-17.00000000 3.17000008 -0.85000002 64 222 112 0.000000 0.000000 0.000000 0.000000 -0.000107 0.000000 213.000000 -0.073690 0.657430 0.749904
-16.95999908 3.19000006 -0.87000000 64 222 112 0.000000 0.000000 0.000000 0.000000 -0.000107 0.000000 213.000000 -0.017625 0.860928 0.508422
-16.97999954 3.20000005 -0.83999997 64 222 112 0.000000 0.000000 0.000000 0.000000 -0.000107 0.000000 213.000000 0.149951 0.826957 0.541902
-16.98999977 3.16000009 -0.83999997 64 222 112 0.000000 0.000000 0.000000 0.000000 -0.000107 0.000000 213.000000 0.188710 0.863312 0.468061
-16.96999931 3.11999989 -0.88000000 64 222 112 0.000000 0.000000 0.000000 0.000000 -0.000107 0.000000 213.000000 0.254777 -0.697866 -0.669382
-17.03000069 3.27999997 -0.73000002 64 222 112 0.000000 0.000000 0.000000 0.000000 -0.000107 0.000000 213.000000 0.367230 0.771668 0.519299
-17.07999992 3.25000000 -0.74000001 64 222 112 0.000000 0.000000 0.000000 0.000000 -0.000107 0.000000 213.000000 -0.113196 0.607141 0.786490
-17.05999947 3.27999997 -0.73000002 64 222 112 0.000000 0.000000 0.000000 0.000000 -0.000107 0.000000 213.000000 -0.103936 0.791963 0.601658
-17.04999924 3.22000003 -0.80000001 64 222 112 0.000000 0.000000 0.000000 0.000000 -0.000107 0.000000 213.000000 0.138400 0.947304 0.288894
-17.03000069 3.17000008 -0.79000002 64 222 112 0.000000 0.000000 0.000000 0.000000 -0.000107 0.000000 213.000000 0.127332 0.835708 0.534209
-17.04000092 3.11999989 -0.76999998 64 222 112 0.000000 0.000000 0.000000 0.000000 -0.000107 0.000000 213.000000 0.168834 0.762033 0.625141
-17.05999947 3.18000007 -0.76999998 64 222 112 0.000000 0.000000 0.000000 0.000000 -0.000107 0.000000 213.000000 -0.128834 0.858412 0.496518
-17.07999992 3.13000011 -0.79000002 64 222 112 0.000000 0.000000 0.000000 0.000000 -0.000107 0.000000 213.000000 -0.003688 0.952774 0.303658
-17.05999947 3.14000010 -0.76999998 64 222 112 0.000000 0.000000 0.000000 0.000000 -0.000107 0.000000 213.000000 -0.017310 0.890804 0.454057
-17.04000092 3.17000008 -0.80000001 64 222 112 0.000000 0.000000 0.000000 0.000000 -0.000107 0.000000 213.000000 0.029566 0.699723 0.713802
-17.01000023 3.17000008 -0.85000002 64 222 112 0.000000 0.000000 0.000000 0.000000 -0.000107 0.000000 213.000000 -0.283716 0.930194 0.232902
-17.03000069 3.17000008 -0.83999997 64 222 112 0.000000 0.000000 0.000000 0.000000 -0.000107 0.000000 213.000000 0.207026 0.951235 0.228675
-17.02000046 3.15000010 -0.80000001 64 222 112 0.000000 0.000000 0.000000 0.000000 -0.000107 0.000000 213.000000 0.061775 0.682396 0.728368
-17.04000092 3.13000011 -0.82999998 64 222 112 0.000000 0.000000 0.000000 0.000000 -0.000107 0.000000 213.000000 0.159798 0.929609 0.332102
-17.01000023 3.14000010 -0.81000000 64 222 112 0.000000 0.000000 0.000000 0.000000 -0.000107 0.000000 213.000000 -0.006862 0.808301 0.588729
-17.04999924 3.18000007 -0.83999997 64 222 112 0.000000 0.000000 0.000000 0.000000 -0.000107 0.000000 213.000000 0.011335 0.940795 0.338787
-17.05999947 3.19000006 -0.86000001 64 222 112 0.000000 0.000000 0.000000 0.000000 -0.000107 0.000000 213.000000 -0.291753 0.921248 0.257260
-17.05999947 3.13000011 -0.81999999 64 222 112 0.000000 0.000000 0.000000 0.000000 -0.000107 0.000000 213.000000 -0.415099 0.819064 0.396014
-17.07999992 3.15000010 -0.87000000 64 222 112 0.000000 0.000000 0.000000 0.000000 -0.000107 0.000000 213.000000 0.193156 0.851985 0.486634
-17.05999947 3.16000009 -0.88000000 64 222 112 0.000000 0.000000 0.000000 0.000000 -0.000107 0.000000 213.000000 -0.233836 0.864440 0.445043
-17.06999969 3.14000010 -0.86000001 64 222 112 0.000000 0.000000 0.000000 0.000000 -0.000107 0.000000 213.000000 -0.207342 0.903317 0.375536
-17.07999992 3.14000010 -0.87000000 64 222 112 0.000000 0.000000 0.000000 0.000000 -0.000107 0.000000 213.000000 -0.087030 0.840343 0.535023
-17.06999969 3.16000009 -0.88000000 64 222 112 0.000000 0.000000 0.000000 0.000000 -0.000107 0.000000 213.000000 -0.023885 0.723564 0.689844
-17.04000092 3.10999990 -0.60000002 64 222 112 0.000000 0.000000 0.000000 0.000000 -0.000107 0.000000 213.000000 0.129592 0.639025 0.758190
-17.03000069 3.10999990 -0.60000002 64 222 112 0.000000 0.000000 0.000000 0.000000 -0.000107 0.000000 213.000000 0.250679 0.733118 0.632216
-17.02000046 3.09999990 -0.60000002 64 222 112 0.000000 0.000000 0.000000 0.000000 -0.000107 0.000000 213.000000 -0.004045 0.848067 0.529873
-17.05999947 3.10999990 -0.56999999 64 222 112 0.000000 0.000000 0.000000 0.000000 -0.000107 0.000000 213.000000 0.037860 0.806272 0.590332
-17.05999947 3.10999990 -0.56999999 64 222 112 0.000000 0.000000 0.000000 0.000000 -0.000107 0.000000 213.000000 0.037860 0.806272 0.590332
-17.05999947 3.08999991 -0.56000000 64 222 112 0.000000 0.000000 0.000000 0.000000 -0.000107 0.000000 213.000000 -0.038309 0.705167 0.708005
-17.05999947 3.10999990 -0.57999998 64 222 112 0.000000 0.000000 0.000000 0.000000 -0.000107 0.000000 213.000000 -0.288065 0.891062 0.350753
-17.04999924 3.08999991 -0.68000001 64 222 112 0.000000 0.000000 0.000000 0.000000 -0.000107 0.000000 213.000000 0.175442 0.826226 0.535323
-17.04999924 3.08999991 -0.68000001 64 222 112 0.000000 0.000000 0.000000 0.000000 -0.000107 0.000000 213.000000 0.175442 0.826226 0.535323
-16.93000031 3.03999996 -0.76999998 64 222 112 0.000000 0.000000 0.000000 0.000000 -0.000107 0.000000 213.000000 -0.315675 0.824523 0.469586
-16.95999908 3.08999991 -0.75999999 64 222 112 0.000000 0.000000 0.000000 0.000000 -0.000107 0.000000 213.000000 0.058255 0.601025 0.797104
-16.95999908 3.06999993 -0.74000001 64 222 112 0.000000 0.000000 0.000000 0.000000 -0.000107 0.000000 213.000000 0.331359 0.810166 0.483563
-16.95999908 3.05999994 -0.73000002 64 222 112 0.000000 0.000000 0.000000 0.000000 -0.000107 0.000000 213.000000 0.413562 0.679305 0.606226
-16.95999908 3.06999993 -0.74000001 64 222 112 0.000000 0.000000 0.000000 0.000000 -0.000107 0.000000 213.000000 0.331359 0.810166 0.483563
-16.98999977 3.06999993 -0.72000003 64 222 112 0.000000 0.000000 0.000000 0.000000 -0.000107 0.000000 213.000000 0.073798 0.730744 0.678651
-17.00000000 3.06999993 -0.73000002 64 222 112 0.000000 0.000000 0.000000 0.000000 -0.000107 0.000000 213.000000 -0.169738 0.857545 0.485598
-17.00000000 3.06999993 -0.73000002 64 222 112 0.000000 0.000000 0.000000 0.000000 -0.000107 0.000000 213.000000 -0.169738 0.857545 0.485598
-16.92000008 3.09999990 -0.83999997 64 222 112 0.000000 0.000000 0.000000 0.000000 -0.000107 0.000000 213.000000 0.082767 0.871158 0.483977
-16.92000008 3.10999990 -0.86000001 64 222 112 0.000000 0.000000 0.000000 0.000000 -0.000107 0.000000 213.000000 0.079911 0.751159 0.655266
-16.92000008 3.10999990 -0.86000001 64 222 112 0.000000 0.000000 0.000000 0.000000 -0.000107 0.000000 213.000000 0.079911 0.751159 0.655266
