//X Y Z R G B PointSourceId ScanDirectionFlag NumberOfReturns ReturnNumber GpsTime Intensity Classification Nx Ny Nz
-6810.00000000 10480.00000000 130.00000000 160 42 154 97.000000 1.000000 4.000000 1.000000 -60.708740 114.000000 148.000000 0.729074 0.616909 0.296437
-6810.00000000 10480.00000000 120.00000000 160 42 154 97.000000 1.000000 4.000000 1.000000 -60.708740 114.000000 148.000000 0.658593 0.729212 0.185757
-6790.00000000 10460.00000000 110.00000000 160 42 154 97.000000 1.000000 4.000000 1.000000 -60.708740 114.000000 148.000000 0.713646 0.699458 0.038307
-6800.00000000 10470.00000000 110.00000000 160 42 154 97.000000 1.000000 4.000000 1.000000 -60.708740 114.000000 148.000000 0.755890 0.568932 0.323953
-6820.00000000 10480.00000000 140.00000000 160 42 154 97.000000 1.000000 4.000000 1.000000 -60.708740 114.000000 148.000000 0.761546 0.587388 0.273903
-6790.00000000 10470.00000000 70.00000000 160 42 154 97.000000 1.000000 4.000000 1.000000 -60.708740 114.000000 148.000000 0.695278 0.585759 0.416503
-6810.00000000 10490.00000000 90.00000000 160 42 154 97.000000 1.000000 4.000000 1.000000 -60.708740 114.000000 148.000000 0.576400 0.692677 0.433546
-6770.00000000 10460.00000000 60.00000000 160 42 154 97.000000 1.000000 4.000000 1.000000 -60.708740 114.000000 148.000000 0.781948 0.493776 0.380451
-6780.00000000 10460.00000000 40.00000000 160 42 154 97.000000 1.000000 4.000000 1.000000 -60.708740 114.000000 148.000000 0.817320 0.561079 0.131066
-6770.00000000 10460.00000000 60.00000000 160 42 154 97.000000 1.000000 4.000000 1.000000 -60.708740 114.000000 148.000000 0.781948 0.493776 0.380451
-6750.00000000 10460.00000000 60.00000000 160 42 154 97.000000 1.000000 4.000000 1.000000 -60.708740 114.000000 148.000000 0.624522 0.699530 0.347319
-6780.00000000 10460.00000000 40.00000000 160 42 154 97.000000 1.000000 4.000000 1.000000 -60.708740 114.000000 148.000000 0.817320 0.561079 0.131066
-6770.00000000 10460.00000000 30.00000000 160 42 154 97.000000 1.000000 4.000000 1.000000 -60.708740 114.000000 148.000000 0.670708 0.699115 0.247768
-6780.00000000 10460.00000000 -10.00000000 160 42 154 97.000000 1.000000 4.000000 1.000000 -60.708740 114.000000 148.000000 0.842660 0.528643 -0.102272
-6780.00000000 10480.00000000 10.00000000 160 42 154 97.000000 1.000000 4.000000 1.000000 -60.708740 114.000000 148.000000 0.919500 0.330334 0.213072
-6780.00000000 10460.00000000 -10.00000000 160 42 154 97.000000 1.000000 4.000000 1.000000 -60.708740 114.000000 148.000000 0.842660 0.528643 -0.102272
-6780.00000000 10470.00000000 -10.00000000 160 42 154 97.000000 1.000000 4.000000 1.000000 -60.708740 114.000000 148.000000 0.817161 0.571011 -0.078711
-6780.00000000 10470.00000000 -10.00000000 160 42 154 97.000000 1.000000 4.000000 1.000000 -60.708740 114.000000 148.000000 0.817161 0.571011 -0.078711
-6780.00000000 10460.00000000 0.00000000 160 42 154 97.000000 1.000000 4.000000 1.000000 -60.708740 114.000000 148.000000 0.903708 0.418051 -0.092440
-6770.00000000 10440.00000000 40.00000000 160 42 154 97.000000 1.000000 4.000000 1.000000 -60.708740 114.000000 148.000000 0.731502 0.640651 0.233391
-6750.00000000 10450.00000000 50.00000000 160 42 154 97.000000 1.000000 4.000000 1.000000 -60.708740 114.000000 148.000000 0.776261 0.620125 -0.113420
-6770.00000000 10440.00000000 30.00000000 160 42 154 97.000000 1.000000 4.000000 1.000000 -60.708740 114.000000 148.000000 0.790598 0.611489 0.032184
-6770.00000000 10440.00000000 50.00000000 160 42 154 97.000000 1.000000 4.000000 1.000000 -60.708740 114.000000 148.000000 0.881070 0.466285 -0.079338
-6750.00000000 10440.00000000 10.00000000 160 42 154 97.000000 1.000000 4.000000 1.000000 -60.708740 114.000000 148.000000 0.859571 0.466539 0.208517
-6750.00000000 10430.00000000 0.00000000 160 42 154 97.000000 1.000000 4.000000 1.000000 -60.708740 114.000000 148.000000 0.852452 0.281079 0.440818
-6780.00000000 10450.00000000 -10.00000000 160 42 154 97.000000 1.000000 4.000000 1.000000 -60.708740 114.000000 148.000000 0.790425 0.578622 -0.201060
-6760.00000000 10430.00000000 20.00000000 160 42 154 97.000000 1.000000 4.000000 1.000000 -60.708740 114.000000 148.000000 0.878334 0.471878 0.076558
-6750.00000000 10440.00000000 20.00000000 160 42 154 97.000000 1.000000 4.000000 1.000000 -60.708740 114.000000 148.000000 0.819728 0.445539 0.359919
-6750.00000000 10440.00000000 0.00000000 160 42 154 97.000000 1.000000 4.000000 1.000000 -60.708740 114.000000 148.000000 0.786159 0.406857 0.465211
-6780.00000000 10450.00000000 10.00000000 160 42 154 97.000000 1.000000 4.000000 1.000000 -60.708740 114.000000 148.000000 0.765819 0.642616 0.023801
-6810.00000000 10480.00000000 60.00000000 160 42 154 97.000000 1.000000 4.000000 1.000000 -60.708740 114.000000 148.000000 0.638327 0.732429 0.236824
-6820.00000000 10480.00000000 30.00000000 160 42 154 97.000000 1.000000 4.000000 1.000000 -60.708740 114.000000 148.000000 0.630732 0.729234 0.265320
-6790.00000000 10480.00000000 30.00000000 160 42 154 97.000000 1.000000 4.000000 1.000000 -60.708740 114.000000 148.000000 0.723767 0.665374 -0.182863
-6810.00000000 10480.00000000 60.00000000 160 42 154 97.000000 1.000000 4.000000 1.000000 -60.708740 114.000000 148.000000 0.638327 0.732429 0.236824
-6820.00000000 10490.00000000 0.00000000 160 42 154 97.000000 1.000000 4.000000 1.000000 -60.708740 114.000000 148.000000 0.630140 0.760097 -0.158668
-6810.00000000 10480.00000000 20.00000000 160 42 154 97.000000 1.000000 4.000000 1.000000 -60.708740 114.000000 148.000000 0.536082 0.801779 0.264134
-6820.00000000 10490.00000000 0.00000000 160 42 154 97.000000 1.000000 4.000000 1.000000 -60.708740 114.000000 148.000000 0.630140 0.760097 -0.158668
-6810.00000000 10490.00000000 10.00000000 160 42 154 97.000000 1.000000 4.000000 1.000000 -60.708740 114.000000 148.000000 0.773167 0.633858 -0.020896
-6840.00000000 10500.00000000 120.00000000 160 42 154 97.000000 1.000000 4.000000 1.000000 -60.708740 114.000000 148.000000 0.517661 0.811680 0.270560
-6850.00000000 10510.00000000 110.00000000 160 42 154 97.000000 1.000000 4.000000 1.000000 -60.708740 114.000000 148.000000 0.536675 0.843735 -0.009511
-6850.00000000 10500.00000000 110.00000000 160 42 154 97.000000 1.000000 4.000000 1.000000 -60.708740 114.000000 148.000000 0.496299 0.866091 0.059778
-6870.00000000 10510.00000000 140.00000000 160 42 154 97.000000 1.000000 4.000000 1.000000 -60.708740 114.000000 148.000000 0.380471 0.922476 0.065414
-6850.00000000 10510.00000000 110.00000000 160 42 154 97.000000 1.000000 4.000000 1.000000 -60.708740 114.000000 148.000000 0.536675 0.843735 -0.009511
-6860.00000000 10500.00000000 120.00000000 160 42 154 97.000000 1.000000 4.000000 1.000000 -60.708740 114.000000 148.000000 0.408619 0.886571 0.216848
-6840.00000000 10500.00000000 80.00000000 160 42 154 97.000000 1.000000 4.000000 1.000000 -60.708740 114.000000 148.000000 0.574445 0.790055 0.214069
-6830.00000000 10510.00000000 40.00000000 160 42 154 97.000000 1.000000 4.000000 1.000000 -60.708740 114.000000 148.000000 0.641245 0.764616 0.064555
-6850.00000000 10510.00000000 10.00000000 160 42 154 97.000000 1.000000 4.000000 1.000000 -60.708740 114.000000 148.000000 0.465392 0.793903 0.391315
-6830.00000000 10500.00000000 -10.00000000 160 42 154 97.000000 1.000000 4.000000 1.000000 -60.708740 114.000000 148.000000 0.852941 0.481185 -0.202367
-6830.00000000 10490.00000000 110.00000000 160 42 154 97.000000 1.000000 4.000000 1.000000 -60.708740 114.000000 148.000000 0.681355 0.642141 0.351298
-6840.00000000 10490.00000000 80.00000000 160 42 154 97.000000 1.000000 4.000000 1.000000 -60.708740 114.000000 148.000000 0.542578 0.803762 0.244082
-6830.00000000 10490.00000000 70.00000000 160 42 154 97.000000 1.000000 4.000000 1.000000 -60.708740 114.000000 148.000000 0.509748 0.836471 0.201177
-6940.00000000 10550.00000000 240.00000000 160 42 154 97.000000 1.000000 4.000000 1.000000 -60.708740 114.000000 148.000000 0.288863 0.938459 0.189350
-6920.00000000 10520.00000000 310.00000000 160 42 154 97.000000 1.000000 4.000000 1.000000 -60.708740 114.000000 148.000000 0.399163 0.852687 0.337037
-6930.00000000 10520.00000000 240.00000000 160 42 154 97.000000 1.000000 4.000000 1.000000 -60.708740 114.000000 148.000000 0.483708 0.864283 0.137995
-6930.00000000 10520.00000000 240.00000000 160 42 154 97.000000 1.000000 4.000000 1.000000 -60.708740 114.000000 148.000000 0.483708 0.864283 0.137995
-6960.00000000 10530.00000000 250.00000000 160 42 154 97.000000 1.000000 4.000000 1.000000 -60.708740 114.000000 148.000000 0.154796 0.975341 0.157313
-6920.00000000 10540.00000000 190.00000000 160 42 154 97.000000 1.000000 4.000000 1.000000 -60.708740 114.000000 148.000000 0.299891 0.902627 0.308755
-6920.00000000 10520.00000000 230.00000000 160 42 154 97.000000 1.000000 4.000000 1.000000 -60.708740 114.000000 148.000000 0.380774 0.900145 0.211541
-6920.00000000 10520.00000000 230.00000000 160 42 154 97.000000 1.000000 4.000000 1.000000 -60.708740 114.000000 148.000000 0.380774 0.900145 0.211541
-6920.00000000 10520.00000000 230.00000000 160 42 154 97.000000 1.000000 4.000000 1.000000 -60.708740 114.000000 148.000000 0.380774 0.900145 0.211541
-6920.00000000 10530.00000000 210.00000000 160 42 154 97.000000 1.000000 4.000000 1.000000 -60.708740 114.000000 148.000000 0.293961 0.934824 0.199225
-6930.00000000 10530.00000000 170.00000000 160 42 154 97.000000 1.000000 4.000000 1.000000 -60.708740 114.000000 148.000000 0.210271 0.969797 0.123614
-6930.00000000 10530.00000000 170.00000000 160 42 154 97.000000 1.000000 4.000000 1.000000 -60.708740 114.000000 148.000000 0.210271 0.969797 0.123614
-6960.00000000 10540.00000000 170.00000000 160 42 154 97.000000 1.000000 4.000000 1.000000 -60.708740 114.000000 148.000000 0.143313 0.967043 0.210451
-7060.00000000 10540.00000000 230.00000000 160 42 154 97.000000 1.000000 4.000000 1.000000 -60.708740 114.000000 148.000000 -0.099792 0.994631 0.027415
-7080.00000000 10540.00000000 220.00000000 160 42 154 97.000000 1.000000 4.000000 1.000000 -60.708740 114.000000 148.000000 -0.054528 0.997549 0.043837
-7050.00000000 10520.00000000 210.00000000 160 42 154 97.000000 1.000000 4.000000 1.000000 -60.708740 114.000000 148.000000 0.093246 0.994985 -0.036201
-7080.00000000 10510.00000000 200.00000000 160 42 154 97.000000 1.000000 4.000000 1.000000 -60.708740 114.000000 148.000000 -0.091738 0.985293 -0.144160
-7070.00000000 10510.00000000 230.00000000 160 42 154 97.000000 1.000000 4.000000 1.000000 -60.708740 114.000000 148.000000 0.031582 0.948714 -0.314554
-7050.00000000 10520.00000000 210.00000000 160 42 154 97.000000 1.000000 4.000000 1.000000 -60.708740 114.000000 148.000000 0.093246 0.994985 -0.036201
-7080.00000000 10510.00000000 220.00000000 160 42 154 97.000000 1.000000 4.000000 1.000000 -60.708740 114.000000 148.000000 -0.100106 0.993189 0.059614
-7080.00000000 10510.00000000 200.00000000 160 42 154 97.000000 1.000000 4.000000 1.000000 -60.708740 114.000000 148.000000 -0.091738 0.985293 -0.144160
-7050.00000000 10530.00000000 230.00000000 160 42 154 97.000000 1.000000 4.000000 1.000000 -60.708740 114.000000 148.000000 -0.255488 0.885992 -0.386968
-7080.00000000 10510.00000000 230.00000000 160 42 154 97.000000 1.000000 4.000000 1.000000 -60.708740 114.000000 148.000000 -0.122829 0.986212 -0.110904
-7060.00000000 10530.00000000 200.00000000 160 42 154 97.000000 1.000000 4.000000 1.000000 -60.708740 114.000000 148.000000 -0.130199 0.989745 0.058763
-7050.00000000 10520.00000000 220.00000000 160 42 154 97.000000 1.000000 4.000000 1.000000 -60.708740 114.000000 148.000000 -0.044734 0.996158 0.075285
-7080.00000000 10510.00000000 220.00000000 160 42 154 97.000000 1.000000 4.000000 1.000000 -60.708740 114.000000 148.000000 -0.100106 0.993189 0.059614
-7060.00000000 10510.00000000 160.00000000 160 42 154 97.000000 1.000000 4.000000 1.000000 -60.708740 114.000000 148.000000 -0.122200 0.978834 0.164168
-7060.00000000 10510.00000000 190.00000000 160 42 154 97.000000 1.000000 4.000000 1.000000 -60.708740 114.000000 148.000000 -0.088630 0.986750 0.135900
-7080.00000000 10530.00000000 190.00000000 160 42 154 97.000000 1.000000 4.000000 1.000000 -60.708740 114.000000 148.000000 -0.365654 0.883288 -0.293426
-7050.00000000 10530.00000000 190.00000000 160 42 154 97.000000 1.000000 4.000000 1.000000 -60.708740 114.000000 148.000000 0.030912 0.960737 -0.275733
-7060.00000000 10510.00000000 170.00000000 160 42 154 97.000000 1.000000 4.000000 1.000000 -60.708740 114.000000 148.000000 -0.090688 0.947626 -0.306237
-7070.00000000 10510.00000000 170.00000000 160 42 154 97.000000 1.000000 4.000000 1.000000 -60.708740 114.000000 148.000000 -0.214439 0.953510 -0.211741
-7080.00000000 10520.00000000 180.00000000 160 42 154 97.000000 1.000000 4.000000 1.000000 -60.708740 114.000000 148.000000 0.019358 0.999488 -0.025471
-7000.00000000 10540.00000000 120.00000000 160 42 154 97.000000 1.000000 4.000000 1.000000 -60.708740 114.000000 148.000000 0.033447 0.986121 0.162623
-7040.00000000 10530.00000000 100.00000000 160 42 154 97.000000 1.000000 4.000000 1.000000 -60.708740 114.000000 148.000000 -0.012723 0.981985 0.188532
-7040.00000000 10530.00000000 100.00000000 160 42 154 97.000000 1.000000 4.000000 1.000000 -60.708740 114.000000 148.000000 -0.012723 0.981985 0.188532
-6720.00000000 10400.00000000 510.00000000 160 42 154 97.000000 1.000000 4.000000 1.000000 -60.708740 114.000000 148.000000 0.979271 0.198710 0.039266
-6720.00000000 10400.00000000 510.00000000 160 42 154 97.000000 1.000000 4.000000 1.000000 -60.708740 114.000000 148.000000 0.979271 0.198710 0.039266
-6690.00000000 10370.00000000 440.00000000 160 42 154 97.000000 1.000000 4.000000 1.000000 -60.708740 114.000000 148.000000 0.906753 0.346055 0.240925
-6700.00000000 10370.00000000 410.00000000 160 42 154 97.000000 1.000000 4.000000 1.000000 -60.708740 114.000000 148.000000 0.943252 -0.230634 0.238920
-6720.00000000 10400.00000000 420.00000000 160 42 154 97.000000 1.000000 4.000000 1.000000 -60.708740 114.000000 148.000000 0.969660 0.229557 0.084046
-6680.00000000 10380.00000000 370.00000000 160 42 154 97.000000 1.000000 4.000000 1.000000 -60.708740 114.000000 148.000000 0.872381 0.450214 0.190418
-6690.00000000 10350.00000000 330.00000000 160 42 154 97.000000 1.000000 4.000000 1.000000 -60.708740 114.000000 148.000000 0.942926 0.260165 0.207857
-6660.00000000 10360.00000000 300.00000000 160 42 154 97.000000 1.000000 4.000000 1.000000 -60.708740 114.000000 148.000000 0.857794 0.107403 0.502647
-6660.00000000 10360.00000000 300.00000000 160 42 154 97.000000 1.000000 4.000000 1.000000 -60.708740 114.000000 148.000000 0.857794 0.107403 0.502647
-6660.00000000 10310.00000000 250.00000000 160 42 154 97.000000 1.000000 4.000000 1.000000 -60.708740 114.000000 148.000000 0.994723 -0.078911 0.065574
-6660.00000000 10310.00000000 250.00000000 160 42 154 97.000000 1.000000 4.000000 1.000000 -60.708740 114.000000 148.000000 0.994723 -0.078911 0.065574
-6660.00000000 10310.00000000 250.00000000 160 42 154 97.000000 1.000000 4.000000 1.000000 -60.708740 114.000000 148.000000 0.994723 -0.078911 0.065574
-6650.00000000 10310.00000000 160.00000000 160 42 154 97.000000 1.000000 4.000000 1.000000 -60.708740 114.000000 148.000000 0.875202 -0.450062 0.177386
-6640.00000000 10310.00000000 150.00000000 160 42 154 97.000000 1.000000 4.000000 1.000000 -60.708740 114.000000 148.000000 0.937114 -0.328598 -0.117646
-6640.00000000 10300.00000000 180.00000000 160 42 154 97.000000 1.000000 4.000000 1.000000 -60.708740 114.000000 148.000000 0.898434 0.301458 0.319278
-6710.00000000 10390.00000000 250.00000000 160 42 154 97.000000 1.000000 4.000000 1.000000 -60.708740 114.000000 148.000000 0.946887 0.305064 0.101688
-6700.00000000 10390.00000000 200.00000000 160 42 154 97.000000 1.000000 4.000000 1.000000 -60.708740 114.000000 148.000000 0.907108 0.405482 0.112866
-6700.00000000 10400.00000000 220.00000000 160 42 154 97.000000 1.000000 4.000000 1.000000 -60.708740 114.000000 148.000000 0.880653 0.459533 0.115239
-6680.00000000 10390.00000000 150.00000000 160 42 154 97.000000 1.000000 4.000000 1.000000 -60.708740 114.000000 148.000000 0.980825 0.194303 0.015125
-6680.00000000 10390.00000000 150.00000000 160 42 154 97.000000 1.000000 4.000000 1.000000 -60.708740 114.000000 148.000000 0.980825 0.194303 0.015125
-6680.00000000 10330.00000000 210.00000000 160 42 154 97.000000 1.000000 4.000000 1.000000 -60.708740 114.000000 148.000000 0.921902 0.205972 0.328135
-6670.00000000 10330.00000000 160.00000000 160 42 154 97.000000 1.000000 4.000000 1.000000 -60.708740 114.000000 148.000000 0.990378 -0.086875 -0.107725
-6670.00000000 10330.00000000 160.00000000 160 42 154 97.000000 1.000000 4.000000 1.000000 -60.708740 114.000000 148.000000 0.990378 -0.086875 -0.107725
-6680.00000000 10350.00000000 190.00000000 160 42 154 97.000000 1.000000 4.000000 1.000000 -60.708740 114.000000 148.000000 0.851881 0.428260 0.301483
-6710.00000000 10390.00000000 220.00000000 160 42 154 97.000000 1.000000 4.000000 1.000000 -60.708740 114.000000 148.000000 0.818414 0.529743 0.222645
-6730.00000000 10400.00000000 230.00000000 160 42 154 97.000000 1.000000 4.000000 1.000000 -60.708740 114.000000 148.000000 0.993810 -0.014182 0.110181
-6730.00000000 10400.00000000 230.00000000 160 42 154 97.000000 1.000000 4.000000 1.000000 -60.708740 114.000000 148.000000 0.993810 -0.014182 0.110181
-6720.00000000 10390.00000000 150.00000000 160 42 154 97.000000 1.000000 4.000000 1.000000 -60.708740 114.000000 148.000000 0.965017 0.252892 -0.069199
-6660.00000000 10370.00000000 20.00000000 160 42 154 97.000000 1.000000 4.000000 1.000000 -60.708740 114.000000 148.000000 0.932734 0.152930 0.326526
-6630.00000000 10270.00000000 80.00000000 160 42 154 97.000000 1.000000 4.000000 1.000000 -60.708740 114.000000 148.000000 0.940324 0.006277 0.340224
-6650.00000000 10290.00000000 60.00000000 160 42 154 97.000000 1.000000 4.000000 1.000000 -60.708740 114.000000 148.000000 0.977569 -0.188136 0.094683
-6650.00000000 10300.00000000 10.00000000 160 42 154 97.000000 1.000000 4.000000 1.000000 -60.708740 114.000000 148.000000 0.909534 0.212562 0.357162
-6640.00000000 10250.00000000 50.00000000 160 42 154 97.000000 1.000000 4.000000 1.000000 -60.708740 114.000000 148.000000 0.915883 -0.390174 0.094463
-6640.00000000 10280.00000000 -10.00000000 160 42 154 97.000000 1.000000 4.000000 1.000000 -60.708740 114.000000 148.000000 0.890412 0.219292 0.398846
-6640.00000000 10280.00000000 -10.00000000 160 42 154 97.000000 1.000000 4.000000 1.000000 -60.708740 114.000000 148.000000 0.890412 0.219292 0.398846
-6650.00000000 10280.00000000 -10.00000000 160 42 154 97.000000 1.000000 4.000000 1.000000 -60.708740 114.000000 148.000000 0.850402 -0.352909 0.390221
-6680.00000000 10400.00000000 110.00000000 160 42 154 97.000000 1.000000 4.000000 1.000000 -60.708740 114.000000 148.000000 0.967234 0.224193 -0.119143
-6670.00000000 10360.00000000 100.00000000 160 42 154 97.000000 1.000000 4.000000 1.000000 -60.708740 114.000000 148.000000 0.964924 -0.194552 0.176272
-6680.00000000 10350.00000000 70.00000000 160 42 154 97.000000 1.000000 4.000000 1.000000 -60.708740 114.000000 148.000000 0.984821 0.167455 -0.045669
-6680.00000000 10360.00000000 70.00000000 160 42 154 97.000000 1.000000 4.000000 1.000000 -60.708740 114.000000 148.000000 0.999120 -0.041843 -0.003062
-6710.00000000 10400.00000000 110.00000000 160 42 154 97.000000 1.000000 4.000000 1.000000 -60.708740 114.000000 148.000000 0.840916 0.494209 0.220493
-6710.00000000 10400.00000000 100.00000000 160 42 154 97.000000 1.000000 4.000000 1.000000 -60.708740 114.000000 148.000000 0.811783 0.478174 0.335198
-6680.00000000 10370.00000000 30.00000000 160 42 154 97.000000 1.000000 4.000000 1.000000 -60.708740 114.000000 148.000000 0.967611 0.200240 -0.153733
-6700.00000000 10400.00000000 40.00000000 160 42 154 97.000000 1.000000 4.000000 1.000000 -60.708740 114.000000 148.000000 0.878524 0.428151 0.211853
-6680.00000000 10370.00000000 30.00000000 160 42 154 97.000000 1.000000 4.000000 1.000000 -60.708740 114.000000 148.000000 0.967611 0.200240 -0.153733
-6690.00000000 10370.00000000 10.00000000 160 42 154 97.000000 1.000000 4.000000 1.000000 -60.708740 114.000000 148.000000 0.929689 -0.037813 0.366399
-6680.00000000 10360.00000000 30.00000000 160 42 154 97.000000 1.000000 4.000000 1.000000 -60.708740 114.000000 148.000000 0.978537 0.180483 -0.099450
-6670.00000000 10330.00000000 0.00000000 160 42 154 97.000000 1.000000 4.000000 1.000000 -60.708740 114.000000 148.000000 0.894786 0.308188 0.323076
-6720.00000000 10400.00000000 30.00000000 160 42 154 97.000000 1.000000 4.000000 1.000000 -60.708740 114.000000 148.000000 0.889564 0.408877 -0.203706
-6730.00000000 10400.00000000 0.00000000 160 42 154 97.000000 1.000000 4.000000 1.000000 -60.708740 114.000000 148.000000 0.990321 0.075112 0.116712
-6710.00000000 10400.00000000 0.00000000 160 42 154 97.000000 1.000000 4.000000 1.000000 -60.708740 114.000000 148.000000 0.908461 0.379122 -0.175970
-6720.00000000 10400.00000000 -10.00000000 160 42 154 97.000000 1.000000 4.000000 1.000000 -60.708740 114.000000 148.000000 0.916312 0.249641 0.313133
-6670.00000000 10320.00000000 140.00000000 160 42 154 97.000000 1.000000 4.000000 1.000000 -60.708740 114.000000 148.000000 0.906281 0.092421 0.412448
-6640.00000000 10220.00000000 40.00000000 160 42 154 97.000000 1.000000 4.000000 1.000000 -60.708740 114.000000 148.000000 0.926901 -0.127706 0.352909
-6750.00000000 10400.00000000 430.00000000 160 42 154 97.000000 1.000000 4.000000 1.000000 -60.708740 114.000000 148.000000 0.824554 0.349763 0.444721
-7100.00000000 10500.00000000 600.00000000 160 42 154 97.000000 1.000000 4.000000 1.000000 -60.708740 114.000000 148.000000 0.201405 0.962266 0.182975
-7150.00000000 10490.00000000 620.00000000 160 42 154 97.000000 1.000000 4.000000 1.000000 -60.708740 114.000000 148.000000 -0.710235 0.672936 -0.206698
-7160.00000000 10480.00000000 620.00000000 160 42 154 97.000000 1.000000 4.000000 1.000000 -60.708740 114.000000 148.000000 -0.596244 0.663050 -0.452611
-7130.00000000 10490.00000000 580.00000000 160 42 154 97.000000 1.000000 4.000000 1.000000 -60.708740 114.000000 148.000000 -0.560685 0.754582 -0.340936
-7140.00000000 10480.00000000 580.00000000 160 42 154 97.000000 1.000000 4.000000 1.000000 -60.708740 114.000000 148.000000 -0.672974 0.734286 0.089049
-7150.00000000 10490.00000000 610.00000000 160 42 154 97.000000 1.000000 4.000000 1.000000 -60.708740 114.000000 148.000000 0.496033 -0.728289 0.472807
-7160.00000000 10460.00000000 540.00000000 160 42 154 97.000000 1.000000 4.000000 1.000000 -60.708740 114.000000 148.000000 0.731679 -0.680730 -0.035381
-7180.00000000 10480.00000000 620.00000000 160 42 154 97.000000 1.000000 4.000000 1.000000 -60.708740 114.000000 148.000000 0.800146 -0.599766 -0.006862
-7170.00000000 10480.00000000 580.00000000 160 42 154 97.000000 1.000000 4.000000 1.000000 -60.708740 114.000000 148.000000 0.764230 -0.633643 0.120199
-7180.00000000 10470.00000000 590.00000000 160 42 154 97.000000 1.000000 4.000000 1.000000 -60.708740 114.000000 148.000000 -0.650830 0.516292 -0.556653
-7200.00000000 10440.00000000 570.00000000 160 42 154 97.000000 1.000000 4.000000 1.000000 -60.708740 114.000000 148.000000 0.890092 -0.409120 0.200894
-7200.00000000 10450.00000000 600.00000000 160 42 154 97.000000 1.000000 4.000000 1.000000 -60.708740 114.000000 148.000000 0.851642 -0.523983 0.012186
-7240.00000000 10410.00000000 580.00000000 160 42 154 97.000000 1.000000 4.000000 1.000000 -60.708740 114.000000 148.000000 0.918731 -0.227891 0.322488
-7220.00000000 10430.00000000 610.00000000 160 42 154 97.000000 1.000000 4.000000 1.000000 -60.708740 114.000000 148.000000 0.869058 -0.494487 0.014821
-7190.00000000 10470.00000000 530.00000000 160 42 154 97.000000 1.000000 4.000000 1.000000 -60.708740 114.000000 148.000000 0.716571 -0.690086 -0.101526
-7190.00000000 10460.00000000 510.00000000 160 42 154 97.000000 1.000000 4.000000 1.000000 -60.708740 114.000000 148.000000 0.702092 -0.707906 -0.077041
-7190.00000000 10470.00000000 500.00000000 160 42 154 97.000000 1.000000 4.000000 1.000000 -60.708740 114.000000 148.000000 -0.663372 0.650203 -0.370369
-7190.00000000 10450.00000000 560.00000000 160 42 154 97.000000 1.000000 4.000000 1.000000 -60.708740 114.000000 148.000000 0.754039 -0.337461 0.563511
-7230.00000000 10430.00000000 540.00000000 160 42 154 97.000000 1.000000 4.000000 1.000000 -60.708740 114.000000 148.000000 0.788260 -0.548149 0.279603
-7230.00000000 10420.00000000 530.00000000 160 42 154 97.000000 1.000000 4.000000 1.000000 -60.708740 114.000000 148.000000 0.825991 -0.512206 0.235338
-7230.00000000 10430.00000000 540.00000000 160 42 154 97.000000 1.000000 4.000000 1.000000 -60.708740 114.000000 148.000000 0.788260 -0.548149 0.279603
-7220.00000000 10450.00000000 530.00000000 160 42 154 97.000000 1.000000 4.000000 1.000000 -60.708740 114.000000 148.000000 0.743567 -0.353072 0.567845
-7210.00000000 10440.00000000 510.00000000 160 42 154 97.000000 1.000000 4.000000 1.000000 -60.708740 114.000000 148.000000 0.865883 -0.104134 0.489288
-7100.00000000 10500.00000000 350.00000000 160 42 154 97.000000 1.000000 4.000000 1.000000 -60.708740 114.000000 148.000000 -0.548500 0.795403 -0.257842
-7110.00000000 10510.00000000 320.00000000 160 42 154 97.000000 1.000000 4.000000 1.000000 -60.708740 114.000000 148.000000 -0.597853 0.800419 -0.043608
-7130.00000000 10500.00000000 340.00000000 160 42 154 97.000000 1.000000 4.000000 1.000000 -60.708740 114.000000 148.000000 -0.565550 0.755678 -0.330307
-7140.00000000 10510.00000000 320.00000000 160 42 154 97.000000 1.000000 4.000000 1.000000 -60.708740 114.000000 148.000000 -0.683008 0.730304 0.012519
-7110.00000000 10480.00000000 470.00000000 160 42 154 97.000000 1.000000 4.000000 1.000000 -60.708740 114.000000 148.000000 -0.439027 0.785713 -0.435787
-7160.00000000 10460.00000000 470.00000000 160 42 154 97.000000 1.000000 4.000000 1.000000 -60.708740 114.000000 148.000000 0.704808 -0.692683 -0.153087
-7160.00000000 10460.00000000 480.00000000 160 42 154 97.000000 1.000000 4.000000 1.000000 -60.708740 114.000000 148.000000 0.661953 -0.652098 0.369577
-7150.00000000 10490.00000000 430.00000000 160 42 154 97.000000 1.000000 4.000000 1.000000 -60.708740 114.000000 148.000000 -0.621608 0.591285 -0.513795
-7090.00000000 10490.00000000 330.00000000 160 42 154 97.000000 1.000000 4.000000 1.000000 -60.708740 114.000000 148.000000 -0.410764 0.826286 -0.385389
-7160.00000000 10480.00000000 320.00000000 160 42 154 97.000000 1.000000 4.000000 1.000000 -60.708740 114.000000 148.000000 -0.606777 0.529028 -0.593255
-7200.00000000 10460.00000000 470.00000000 160 42 154 97.000000 1.000000 4.000000 1.000000 -60.708740 114.000000 148.000000 0.727278 -0.669821 -0.149689
-7190.00000000 10450.00000000 470.00000000 160 42 154 97.000000 1.000000 4.000000 1.000000 -60.708740 114.000000 148.000000 0.848158 -0.486599 0.209403
-7240.00000000 10410.00000000 460.00000000 160 42 154 97.000000 1.000000 4.000000 1.000000 -60.708740 114.000000 148.000000 0.892790 -0.318533 0.318533
-7230.00000000 10410.00000000 430.00000000 160 42 154 97.000000 1.000000 4.000000 1.000000 -60.708740 114.000000 148.000000 0.981985 0.058324 0.179733
-7180.00000000 10470.00000000 360.00000000 160 42 154 97.000000 1.000000 4.000000 1.000000 -60.708740 114.000000 148.000000 0.505944 -0.650499 0.566455
-7180.00000000 10470.00000000 370.00000000 160 42 154 97.000000 1.000000 4.000000 1.000000 -60.708740 114.000000 148.000000 0.930387 -0.253484 0.264813
-7180.00000000 10470.00000000 360.00000000 160 42 154 97.000000 1.000000 4.000000 1.000000 -60.708740 114.000000 148.000000 0.505944 -0.650499 0.566455
-7200.00000000 10460.00000000 350.00000000 160 42 154 97.000000 1.000000 4.000000 1.000000 -60.708740 114.000000 148.000000 0.665244 -0.584811 0.464162
-7200.00000000 10440.00000000 390.00000000 160 42 154 97.000000 1.000000 4.000000 1.000000 -60.708740 114.000000 148.000000 0.760819 -0.647052 0.049773
-7220.00000000 10450.00000000 400.00000000 160 42 154 97.000000 1.000000 4.000000 1.000000 -60.708740 114.000000 148.000000 0.790540 -0.508319 0.341552
-7230.00000000 10430.00000000 380.00000000 160 42 154 97.000000 1.000000 4.000000 1.000000 -60.708740 114.000000 148.000000 0.742795 -0.499040 0.446336
-7230.00000000 10420.00000000 350.00000000 160 42 154 97.000000 1.000000 4.000000 1.000000 -60.708740 114.000000 148.000000 0.933912 -0.254193 0.251384
-7260.00000000 10410.00000000 530.00000000 160 42 154 97.000000 1.000000 4.000000 1.000000 -60.708740 114.000000 148.000000 0.913715 -0.339215 0.223737
-7260.00000000 10420.00000000 530.00000000 160 42 154 97.000000 1.000000 4.000000 1.000000 -60.708740 114.000000 148.000000 0.856363 -0.472424 0.208467
-7270.00000000 10410.00000000 530.00000000 160 42 154 97.000000 1.000000 4.000000 1.000000 -60.708740 114.000000 148.000000 0.869560 -0.371359 0.325512
-7280.00000000 10410.00000000 390.00000000 160 42 154 97.000000 1.000000 4.000000 1.000000 -60.708740 114.000000 148.000000 0.881271 -0.394846 0.259727
-7120.00000000 10540.00000000 270.00000000 160 42 154 97.000000 1.000000 4.000000 1.000000 -60.708740 114.000000 148.000000 -0.472938 0.868751 0.146975
-7100.00000000 10510.00000000 310.00000000 160 42 154 97.000000 1.000000 4.000000 1.000000 -60.708740 114.000000 148.000000 0.622851 -0.719417 0.307402
-7160.00000000 10510.00000000 280.00000000 160 42 154 97.000000 1.000000 4.000000 1.000000 -60.708740 114.000000 148.000000 0.748959 -0.613358 0.250704
-7130.00000000 10510.00000000 300.00000000 160 42 154 97.000000 1.000000 4.000000 1.000000 -60.708740 114.000000 148.000000 -0.612407 0.788598 0.055415
-7150.00000000 10500.00000000 270.00000000 160 42 154 97.000000 1.000000 4.000000 1.000000 -60.708740 114.000000 148.000000 -0.408982 0.767452 -0.493711
-7090.00000000 10540.00000000 200.00000000 160 42 154 97.000000 1.000000 4.000000 1.000000 -60.708740 114.000000 148.000000 0.028229 0.963467 -0.266334
-7110.00000000 10500.00000000 210.00000000 160 42 154 97.000000 1.000000 4.000000 1.000000 -60.708740 114.000000 148.000000 -0.364101 0.930480 0.040456
-7100.00000000 10520.00000000 230.00000000 160 42 154 97.000000 1.000000 4.000000 1.000000 -60.708740 114.000000 148.000000 -0.314319 0.885808 -0.341390
-7100.00000000 10500.00000000 200.00000000 160 42 154 97.000000 1.000000 4.000000 1.000000 -60.708740 114.000000 148.000000 -0.100886 0.934881 -0.340323
-7120.00000000 10500.00000000 210.00000000 160 42 154 97.000000 1.000000 4.000000 1.000000 -60.708740 114.000000 148.000000 -0.435164 0.898797 0.052870
-7090.00000000 10510.00000000 220.00000000 160 42 154 97.000000 1.000000 4.000000 1.000000 -60.708740 114.000000 148.000000 -0.214077 0.976799 -0.005849
-7120.00000000 10500.00000000 230.00000000 160 42 154 97.000000 1.000000 4.000000 1.000000 -60.708740 114.000000 148.000000 -0.342572 0.919685 -0.191897
-7120.00000000 10500.00000000 180.00000000 160 42 154 97.000000 1.000000 4.000000 1.000000 -60.708740 114.000000 148.000000 -0.473420 0.866227 -0.159761
-7120.00000000 10510.00000000 190.00000000 160 42 154 97.000000 1.000000 4.000000 1.000000 -60.708740 114.000000 148.000000 -0.350147 0.870015 -0.347089
-7120.00000000 10500.00000000 190.00000000 160 42 154 97.000000 1.000000 4.000000 1.000000 -60.708740 114.000000 148.000000 -0.407978 0.842530 -0.351705
-7100.00000000 10520.00000000 190.00000000 160 42 154 97.000000 1.000000 4.000000 1.000000 -60.708740 114.000000 148.000000 -0.402107 0.893409 0.200323
-7120.00000000 10500.00000000 160.00000000 160 42 154 97.000000 1.000000 4.000000 1.000000 -60.708740 114.000000 148.000000 -0.312416 0.804034 -0.505891
-7090.00000000 10530.00000000 190.00000000 160 42 154 97.000000 1.000000 4.000000 1.000000 -60.708740 114.000000 148.000000 -0.347089 0.862323 -0.368685
-7110.00000000 10500.00000000 180.00000000 160 42 154 97.000000 1.000000 4.000000 1.000000 -60.708740 114.000000 148.000000 -0.448586 0.881305 0.148567
-7100.00000000 10510.00000000 160.00000000 160 42 154 97.000000 1.000000 4.000000 1.000000 -60.708740 114.000000 148.000000 -0.332387 0.923612 -0.190946
-7100.00000000 10520.00000000 180.00000000 160 42 154 97.000000 1.000000 4.000000 1.000000 -60.708740 114.000000 148.000000 -0.161163 0.905648 -0.392210
-7130.00000000 10510.00000000 200.00000000 160 42 154 97.000000 1.000000 4.000000 1.000000 -60.708740 114.000000 148.000000 -0.359860 0.928626 -0.090302
-7150.00000000 10520.00000000 150.00000000 160 42 154 97.000000 1.000000 4.000000 1.000000 -60.708740 114.000000 148.000000 0.609683 -0.599550 0.518484
-7150.00000000 10510.00000000 190.00000000 160 42 154 97.000000 1.000000 4.000000 1.000000 -60.708740 114.000000 148.000000 -0.458224 0.870774 0.178280
-7110.00000000 10490.00000000 310.00000000 160 42 154 97.000000 1.000000 4.000000 1.000000 -60.708740 114.000000 148.000000 -0.544571 0.790812 -0.279389
-7110.00000000 10490.00000000 310.00000000 160 42 154 97.000000 1.000000 4.000000 1.000000 -60.708740 114.000000 148.000000 -0.544571 0.790812 -0.279389
-7100.00000000 10490.00000000 260.00000000 160 42 154 97.000000 1.000000 4.000000 1.000000 -60.708740 114.000000 148.000000 -0.325017 0.806995 -0.493075
-7140.00000000 10490.00000000 300.00000000 160 42 154 97.000000 1.000000 4.000000 1.000000 -60.708740 114.000000 148.000000 0.805600 -0.545829 0.230392
-7140.00000000 10490.00000000 300.00000000 160 42 154 97.000000 1.000000 4.000000 1.000000 -60.708740 114.000000 148.000000 0.805600 -0.545829 0.230392
-7140.00000000 10470.00000000 270.00000000 160 42 154 97.000000 1.000000 4.000000 1.000000 -60.708740 114.000000 148.000000 0.699219 -0.660993 0.272361
-7140.00000000 10480.00000000 270.00000000 160 42 154 97.000000 1.000000 4.000000 1.000000 -60.708740 114.000000 148.000000 0.801914 -0.589428 0.097510
-7090.00000000 10490.00000000 200.00000000 160 42 154 97.000000 1.000000 4.000000 1.000000 -60.708740 114.000000 148.000000 -0.496968 0.694416 -0.520394
-7150.00000000 10470.00000000 210.00000000 160 42 154 97.000000 1.000000 4.000000 1.000000 -60.708740 114.000000 148.000000 -0.542364 0.692557 -0.475611
-7130.00000000 10490.00000000 200.00000000 160 42 154 97.000000 1.000000 4.000000 1.000000 -60.708740 114.000000 148.000000 -0.657064 0.745657 -0.110741
-7130.00000000 10490.00000000 210.00000000 160 42 154 97.000000 1.000000 4.000000 1.000000 -60.708740 114.000000 148.000000 -0.314567 0.914709 -0.253683
-7140.00000000 10480.00000000 200.00000000 160 42 154 97.000000 1.000000 4.000000 1.000000 -60.708740 114.000000 148.000000 -0.514347 0.786743 -0.341296
-7140.00000000 10490.00000000 220.00000000 160 42 154 97.000000 1.000000 4.000000 1.000000 -60.708740 114.000000 148.000000 -0.656236 0.754181 -0.023787
-7150.00000000 10490.00000000 220.00000000 160 42 154 97.000000 1.000000 4.000000 1.000000 -60.708740 114.000000 148.000000 -0.662914 0.747722 -0.038164
-7130.00000000 10480.00000000 180.00000000 160 42 154 97.000000 1.000000 4.000000 1.000000 -60.708740 114.000000 148.000000 0.744283 -0.654430 -0.133282
-7130.00000000 10490.00000000 180.00000000 160 42 154 97.000000 1.000000 4.000000 1.000000 -60.708740 114.000000 148.000000 -0.700287 0.709022 0.082986
-7190.00000000 10430.00000000 310.00000000 160 42 154 97.000000 1.000000 4.000000 1.000000 -60.708740 114.000000 148.000000 -0.676705 0.528938 -0.512147
-7190.00000000 10450.00000000 310.00000000 160 42 154 97.000000 1.000000 4.000000 1.000000 -60.708740 114.000000 148.000000 -0.575507 0.656045 -0.488258
-7190.00000000 10450.00000000 310.00000000 160 42 154 97.000000 1.000000 4.000000 1.000000 -60.708740 114.000000 148.000000 -0.575507 0.656045 -0.488258
-7240.00000000 10430.00000000 250.00000000 160 42 154 97.000000 1.000000 4.000000 1.000000 -60.708740 114.000000 148.000000 0.813044 -0.183200 0.552628
-7190.00000000 10470.00000000 220.00000000 160 42 154 97.000000 1.000000 4.000000 1.000000 -60.708740 114.000000 148.000000 0.718151 -0.566266 0.404476
-7190.00000000 10460.00000000 210.00000000 160 42 154 97.000000 1.000000 4.000000 1.000000 -60.708740 114.000000 148.000000 -0.608965 0.688180 -0.394424
-7190.00000000 10460.00000000 220.00000000 160 42 154 97.000000 1.000000 4.000000 1.000000 -60.708740 114.000000 148.000000 0.735696 -0.531610 0.419692
-7180.00000000 10490.00000000 180.00000000 160 42 154 97.000000 1.000000 4.000000 1.000000 -60.708740 114.000000 148.000000 0.630472 -0.711095 0.311205
-7170.00000000 10480.00000000 180.00000000 160 42 154 97.000000 1.000000 4.000000 1.000000 -60.708740 114.000000 148.000000 0.698750 -0.481954 0.528648
-7170.00000000 10460.00000000 160.00000000 160 42 154 97.000000 1.000000 4.000000 1.000000 -60.708740 114.000000 148.000000 -0.723980 0.576229 -0.379228
-7100.00000000 10510.00000000 110.00000000 160 42 154 97.000000 1.000000 4.000000 1.000000 -60.708740 114.000000 148.000000 -0.246878 0.841839 -0.479956
-7090.00000000 10500.00000000 120.00000000 160 42 154 97.000000 1.000000 4.000000 1.000000 -60.708740 114.000000 148.000000 -0.138342 0.932780 -0.332842
-7100.00000000 10500.00000000 120.00000000 160 42 154 97.000000 1.000000 4.000000 1.000000 -60.708740 114.000000 148.000000 -0.101259 0.903008 -0.417520
-7100.00000000 10510.00000000 120.00000000 160 42 154 97.000000 1.000000 4.000000 1.000000 -60.708740 114.000000 148.000000 -0.386277 0.882274 -0.269041
-7100.00000000 10510.00000000 120.00000000 160 42 154 97.000000 1.000000 4.000000 1.000000 -60.708740 114.000000 148.000000 -0.386277 0.882274 -0.269041
-7110.00000000 10510.00000000 110.00000000 160 42 154 97.000000 1.000000 4.000000 1.000000 -60.708740 114.000000 148.000000 -0.163573 0.924120 -0.345322
-7120.00000000 10500.00000000 130.00000000 160 42 154 97.000000 1.000000 4.000000 1.000000 -60.708740 114.000000 148.000000 -0.660168 0.745068 0.095146
-7100.00000000 10500.00000000 100.00000000 160 42 154 97.000000 1.000000 4.000000 1.000000 -60.708740 114.000000 148.000000 -0.238927 0.951658 -0.193031
-7130.00000000 10500.00000000 120.00000000 160 42 154 97.000000 1.000000 4.000000 1.000000 -60.708740 114.000000 148.000000 -0.627813 0.778154 0.018097
-7130.00000000 10500.00000000 100.00000000 160 42 154 97.000000 1.000000 4.000000 1.000000 -60.708740 114.000000 148.000000 -0.613682 0.787392 -0.058378
-7110.00000000 10490.00000000 110.00000000 160 42 154 97.000000 1.000000 4.000000 1.000000 -60.708740 114.000000 148.000000 -0.387591 0.865568 -0.317120
-7130.00000000 10490.00000000 120.00000000 160 42 154 97.000000 1.000000 4.000000 1.000000 -60.708740 114.000000 148.000000 0.700929 -0.706807 -0.095514
-7150.00000000 10490.00000000 110.00000000 160 42 154 97.000000 1.000000 4.000000 1.000000 -60.708740 114.000000 148.000000 0.808900 -0.585071 -0.058082
-7150.00000000 10490.00000000 110.00000000 160 42 154 97.000000 1.000000 4.000000 1.000000 -60.708740 114.000000 148.000000 0.808900 -0.585071 -0.058082
-7170.00000000 10470.00000000 110.00000000 160 42 154 97.000000 1.000000 4.000000 1.000000 -60.708740 114.000000 148.000000 0.745129 -0.665649 0.041160
-7170.00000000 10470.00000000 110.00000000 160 42 154 97.000000 1.000000 4.000000 1.000000 -60.708740 114.000000 148.000000 0.745129 -0.665649 0.041160
-7320.00000000 10120.00000000 1130.00000000 160 42 154 97.000000 1.000000 4.000000 1.000000 -60.708740 114.000000 148.000000 -0.072793 0.990221 -0.119011
-7320.00000000 10120.00000000 1040.00000000 160 42 154 97.000000 1.000000 4.000000 1.000000 -60.708740 114.000000 148.000000 0.319832 0.946753 -0.036953
-7310.00000000 10120.00000000 1040.00000000 160 42 154 97.000000 1.000000 4.000000 1.000000 -60.708740 114.000000 148.000000 0.191883 0.974463 -0.116635
-7320.00000000 10120.00000000 1020.00000000 160 42 154 97.000000 1.000000 4.000000 1.000000 -60.708740 114.000000 148.000000 0.182004 0.983281 0.005723
-7310.00000000 10120.00000000 1020.00000000 160 42 154 97.000000 1.000000 4.000000 1.000000 -60.708740 114.000000 148.000000 0.604826 0.794631 -0.052409
-7310.00000000 10110.00000000 1020.00000000 160 42 154 97.000000 1.000000 4.000000 1.000000 -60.708740 114.000000 148.000000 0.515490 0.818902 0.252327
-7310.00000000 10110.00000000 1020.00000000 160 42 154 97.000000 1.000000 4.000000 1.000000 -60.708740 114.000000 148.000000 0.515490 0.818902 0.252327
-7340.00000000 10120.00000000 1080.00000000 160 42 154 97.000000 1.000000 4.000000 1.000000 -60.708740 114.000000 148.000000 0.081022 0.980732 0.177765
-7340.00000000 10120.00000000 1120.00000000 160 42 154 97.000000 1.000000 4.000000 1.000000 -60.708740 114.000000 148.000000 0.205790 0.963414 -0.171710
-7340.00000000 10120.00000000 1090.00000000 160 42 154 97.000000 1.000000 4.000000 1.000000 -60.708740 114.000000 148.000000 0.046997 0.989219 0.138697
-7340.00000000 10120.00000000 1110.00000000 160 42 154 97.000000 1.000000 4.000000 1.000000 -60.708740 114.000000 148.000000 0.363557 0.931373 0.019270
-7320.00000000 10260.00000000 660.00000000 160 42 154 97.000000 1.000000 4.000000 1.000000 -60.708740 114.000000 148.000000 0.835518 0.527929 -0.152316
-7330.00000000 10260.00000000 670.00000000 160 42 154 97.000000 1.000000 4.000000 1.000000 -60.708740 114.000000 148.000000 0.920307 0.283725 0.269323
-7370.00000000 10250.00000000 690.00000000 160 42 154 97.000000 1.000000 4.000000 1.000000 -60.708740 114.000000 148.000000 0.927294 0.348596 0.136407
-7320.00000000 10120.00000000 970.00000000 160 42 154 97.000000 1.000000 4.000000 1.000000 -60.708740 114.000000 148.000000 0.274452 0.933138 0.232229
-7320.00000000 10120.00000000 980.00000000 160 42 154 97.000000 1.000000 4.000000 1.000000 -60.708740 114.000000 148.000000 0.464287 0.868143 0.175397
-7330.00000000 10120.00000000 950.00000000 160 42 154 97.000000 1.000000 4.000000 1.000000 -60.708740 114.000000 148.000000 0.087230 0.967110 -0.238933
-7330.00000000 10120.00000000 880.00000000 160 42 154 97.000000 1.000000 4.000000 1.000000 -60.708740 114.000000 148.000000 0.630666 0.750940 0.195830
-7330.00000000 10120.00000000 890.00000000 160 42 154 97.000000 1.000000 4.000000 1.000000 -60.708740 114.000000 148.000000 0.675735 0.737038 -0.012539
-7330.00000000 10120.00000000 870.00000000 160 42 154 97.000000 1.000000 4.000000 1.000000 -60.708740 114.000000 148.000000 0.081300 0.996194 -0.031436
-7330.00000000 10120.00000000 870.00000000 160 42 154 97.000000 1.000000 4.000000 1.000000 -60.708740 114.000000 148.000000 0.081300 0.996194 -0.031436
-7360.00000000 10120.00000000 840.00000000 160 42 154 97.000000 1.000000 4.000000 1.000000 -60.708740 114.000000 148.000000 0.196474 0.977490 -0.076881
-7360.00000000 10120.00000000 840.00000000 160 42 154 97.000000 1.000000 4.000000 1.000000 -60.708740 114.000000 148.000000 0.196474 0.977490 -0.076881
-7350.00000000 10120.00000000 830.00000000 160 42 154 97.000000 1.000000 4.000000 1.000000 -60.708740 114.000000 148.000000 0.319570 0.945772 0.058221
-7330.00000000 10120.00000000 800.00000000 160 42 154 97.000000 1.000000 4.000000 1.000000 -60.708740 114.000000 148.000000 0.521291 0.841408 -0.142437
-7310.00000000 10120.00000000 790.00000000 160 42 154 97.000000 1.000000 4.000000 1.000000 -60.708740 114.000000 148.000000 0.160161 0.969937 0.183224
-7330.00000000 10120.00000000 800.00000000 160 42 154 97.000000 1.000000 4.000000 1.000000 -60.708740 114.000000 148.000000 0.521291 0.841408 -0.142437
-7350.00000000 10240.00000000 690.00000000 160 42 154 97.000000 1.000000 4.000000 1.000000 -60.708740 114.000000 148.000000 0.583662 0.747667 0.316753
-7350.00000000 10240.00000000 690.00000000 160 42 154 97.000000 1.000000 4.000000 1.000000 -60.708740 114.000000 148.000000 0.583662 0.747667 0.316753
-7370.00000000 10180.00000000 660.00000000 160 42 154 97.000000 1.000000 4.000000 1.000000 -60.708740 114.000000 148.000000 0.494418 0.860546 -0.122523
-7340.00000000 10170.00000000 680.00000000 160 42 154 97.000000 1.000000 4.000000 1.000000 -60.708740 114.000000 148.000000 0.848802 0.516222 -0.114234
-7380.00000000 10140.00000000 780.00000000 160 42 154 97.000000 1.000000 4.000000 1.000000 -60.708740 114.000000 148.000000 0.466512 0.873808 0.137209
-7350.00000000 10110.00000000 750.00000000 160 42 154 97.000000 1.000000 4.000000 1.000000 -60.708740 114.000000 148.000000 0.696305 0.693230 0.185989
-7350.00000000 10120.00000000 730.00000000 160 42 154 97.000000 1.000000 4.000000 1.000000 -60.708740 114.000000 148.000000 0.772967 0.626848 0.097899
-7360.00000000 10140.00000000 690.00000000 160 42 154 97.000000 1.000000 4.000000 1.000000 -60.708740 114.000000 148.000000 0.673140 0.695314 0.251834
-7230.00000000 10400.00000000 440.00000000 160 42 154 97.000000 1.000000 4.000000 1.000000 -60.708740 114.000000 148.000000 0.877525 -0.244507 0.412512
-7270.00000000 10370.00000000 580.00000000 160 42 154 97.000000 1.000000 4.000000 1.000000 -60.708740 114.000000 148.000000 0.988834 -0.126953 0.078035
-7270.00000000 10360.00000000 570.00000000 160 42 154 97.000000 1.000000 4.000000 1.000000 -60.708740 114.000000 148.000000 0.989272 -0.056431 0.134744
-7260.00000000 10400.00000000 530.00000000 160 42 154 97.000000 1.000000 4.000000 1.000000 -60.708740 114.000000 148.000000 0.933723 -0.187858 0.304747
-7260.00000000 10390.00000000 530.00000000 160 42 154 97.000000 1.000000 4.000000 1.000000 -60.708740 114.000000 148.000000 0.913008 -0.262726 0.312077
-7290.00000000 10360.00000000 510.00000000 160 42 154 97.000000 1.000000 4.000000 1.000000 -60.708740 114.000000 148.000000 0.947964 -0.021345 0.317662
-7310.00000000 10350.00000000 500.00000000 160 42 154 97.000000 1.000000 4.000000 1.000000 -60.708740 114.000000 148.000000 0.925870 -0.098958 0.364654
-7300.00000000 10340.00000000 520.00000000 160 42 154 97.000000 1.000000 4.000000 1.000000 -60.708740 114.000000 148.000000 0.931609 0.354199 0.081533
-7300.00000000 10270.00000000 610.00000000 160 42 154 97.000000 1.000000 4.000000 1.000000 -60.708740 114.000000 148.000000 0.678638 0.681831 -0.273052
-7360.00000000 10280.00000000 630.00000000 160 42 154 97.000000 1.000000 4.000000 1.000000 -60.708740 114.000000 148.000000 0.646265 0.763010 -0.012508
-7350.00000000 10320.00000000 510.00000000 160 42 154 97.000000 1.000000 4.000000 1.000000 -60.708740 114.000000 148.000000 0.741184 0.589395 0.321341
-7350.00000000 10270.00000000 540.00000000 160 42 154 97.000000 1.000000 4.000000 1.000000 -60.708740 114.000000 148.000000 0.860600 0.429536 0.273619
-7350.00000000 10270.00000000 540.00000000 160 42 154 97.000000 1.000000 4.000000 1.000000 -60.708740 114.000000 148.000000 0.860600 0.429536 0.273619
-7250.00000000 10390.00000000 470.00000000 160 42 154 97.000000 1.000000 4.000000 1.000000 -60.708740 114.000000 148.000000 0.867059 0.326874 0.375981
-7250.00000000 10390.00000000 480.00000000 160 42 154 97.000000 1.000000 4.000000 1.000000 -60.708740 114.000000 148.000000 0.877116 -0.270230 0.397042
-7270.00000000 10390.00000000 430.00000000 160 42 154 97.000000 1.000000 4.000000 1.000000 -60.708740 114.000000 148.000000 0.965591 -0.087550 0.244887
-7270.00000000 10390.00000000 430.00000000 160 42 154 97.000000 1.000000 4.000000 1.000000 -60.708740 114.000000 148.000000 0.965591 -0.087550 0.244887
-7270.00000000 10390.00000000 430.00000000 160 42 154 97.000000 1.000000 4.000000 1.000000 -60.708740 114.000000 148.000000 0.965591 -0.087550 0.244887
-7320.00000000 10330.00000000 480.00000000 160 42 154 97.000000 1.000000 4.000000 1.000000 -60.708740 114.000000 148.000000 0.986508 0.140592 0.083883
-7320.00000000 10330.00000000 450.00000000 160 42 154 97.000000 1.000000 4.000000 1.000000 -60.708740 114.000000 148.000000 0.995322 -0.088692 0.038324
-7280.00000000 10400.00000000 390.00000000 160 42 154 97.000000 1.000000 4.000000 1.000000 -60.708740 114.000000 148.000000 0.929678 -0.032416 0.366944
-7280.00000000 10390.00000000 360.00000000 160 42 154 97.000000 1.000000 4.000000 1.000000 -60.708740 114.000000 148.000000 0.953439 0.291077 0.078914
-7280.00000000 10390.00000000 380.00000000 160 42 154 97.000000 1.000000 4.000000 1.000000 -60.708740 114.000000 148.000000 0.867182 -0.372965 0.329989
