//X Y Z R G B PointSourceId ScanDirectionFlag NumberOfReturns ReturnNumber GpsTime Intensity Classification Nx Ny Nz
11040.00000000 8760.00000000 360.00000000 192 214 52 97.000000 1.000000 4.000000 1.000000 -60.708740 114.000000 144.000000 0.645960 0.759185 -0.079838
11040.00000000 8760.00000000 360.00000000 192 214 52 97.000000 1.000000 4.000000 1.000000 -60.708740 114.000000 144.000000 0.645960 0.759185 -0.079838
11110.00000000 8970.00000000 90.00000000 192 214 52 97.000000 1.000000 4.000000 1.000000 -60.708740 114.000000 144.000000 -0.647752 0.689961 -0.323064
11110.00000000 8940.00000000 70.00000000 192 214 52 97.000000 1.000000 4.000000 1.000000 -60.708740 114.000000 144.000000 -0.550754 0.817877 -0.166577
11080.00000000 8900.00000000 140.00000000 192 214 52 97.000000 1.000000 4.000000 1.000000 -60.708740 114.000000 144.000000 0.938551 0.244051 -0.244051
11110.00000000 8950.00000000 50.00000000 192 214 52 97.000000 1.000000 4.000000 1.000000 -60.708740 114.000000 144.000000 -0.404533 0.911222 -0.077638
11110.00000000 8950.00000000 60.00000000 192 214 52 97.000000 1.000000 4.000000 1.000000 -60.708740 114.000000 144.000000 -0.529734 0.842693 0.096185
11110.00000000 8970.00000000 0.00000000 192 214 52 97.000000 1.000000 4.000000 1.000000 -60.708740 114.000000 144.000000 -0.369249 0.909472 -0.191090
11050.00000000 8910.00000000 0.00000000 192 214 52 97.000000 1.000000 4.000000 1.000000 -60.708740 114.000000 144.000000 0.855076 -0.486278 0.179938
11060.00000000 8910.00000000 0.00000000 192 214 52 97.000000 1.000000 4.000000 1.000000 -60.708740 114.000000 144.000000 0.780714 -0.616661 -0.101068
11040.00000000 8860.00000000 210.00000000 192 214 52 97.000000 1.000000 4.000000 1.000000 -60.708740 114.000000 144.000000 0.975728 0.215358 -0.039703
11040.00000000 8860.00000000 230.00000000 192 214 52 97.000000 1.000000 4.000000 1.000000 -60.708740 114.000000 144.000000 0.985089 0.168243 0.035969
11050.00000000 8880.00000000 200.00000000 192 214 52 97.000000 1.000000 4.000000 1.000000 -60.708740 114.000000 144.000000 0.997025 -0.073735 -0.022441
11060.00000000 8880.00000000 170.00000000 192 214 52 97.000000 1.000000 4.000000 1.000000 -60.708740 114.000000 144.000000 0.928389 0.245208 -0.279225
11030.00000000 8750.00000000 190.00000000 192 214 52 97.000000 1.000000 4.000000 1.000000 -60.708740 114.000000 144.000000 0.848828 0.528668 0.001345
11040.00000000 8770.00000000 150.00000000 192 214 52 97.000000 1.000000 4.000000 1.000000 -60.708740 114.000000 144.000000 0.599103 0.798330 0.061191
11050.00000000 8750.00000000 170.00000000 192 214 52 97.000000 1.000000 4.000000 1.000000 -60.708740 114.000000 144.000000 0.677930 0.730415 0.083101
11010.00000000 8830.00000000 310.00000000 192 214 52 97.000000 1.000000 4.000000 1.000000 -60.708740 114.000000 144.000000 0.542146 0.831485 -0.121289
11010.00000000 8840.00000000 200.00000000 192 214 52 97.000000 1.000000 4.000000 1.000000 -60.708740 114.000000 144.000000 0.989123 0.010082 -0.146744
11010.00000000 8830.00000000 210.00000000 192 214 52 97.000000 1.000000 4.000000 1.000000 -60.708740 114.000000 144.000000 0.958126 0.268379 -0.099832
11040.00000000 8870.00000000 120.00000000 192 214 52 97.000000 1.000000 4.000000 1.000000 -60.708740 114.000000 144.000000 0.945646 0.266091 -0.186946
11030.00000000 8870.00000000 -10.00000000 192 214 52 97.000000 1.000000 4.000000 1.000000 -60.708740 114.000000 144.000000 0.991947 0.018841 -0.125240
11070.00000000 8750.00000000 50.00000000 192 214 52 97.000000 1.000000 4.000000 1.000000 -60.708740 114.000000 144.000000 0.300050 0.951660 0.065676
11010.00000000 8840.00000000 90.00000000 192 214 52 97.000000 1.000000 4.000000 1.000000 -60.708740 114.000000 144.000000 0.968919 0.247307 0.005974
11020.00000000 8890.00000000 40.00000000 192 214 52 97.000000 1.000000 4.000000 1.000000 -60.708740 114.000000 144.000000 0.908886 -0.413375 -0.055206
11020.00000000 8860.00000000 10.00000000 192 214 52 97.000000 1.000000 4.000000 1.000000 -60.708740 114.000000 144.000000 0.915009 -0.068727 -0.397537
11020.00000000 8860.00000000 20.00000000 192 214 52 97.000000 1.000000 4.000000 1.000000 -60.708740 114.000000 144.000000 0.965627 -0.249883 -0.071574
11020.00000000 8840.00000000 20.00000000 192 214 52 97.000000 1.000000 4.000000 1.000000 -60.708740 114.000000 144.000000 0.997797 -0.056319 0.035066
11010.00000000 8850.00000000 20.00000000 192 214 52 97.000000 1.000000 4.000000 1.000000 -60.708740 114.000000 144.000000 0.992707 0.069206 0.098703
11010.00000000 8830.00000000 0.00000000 192 214 52 97.000000 1.000000 4.000000 1.000000 -60.708740 114.000000 144.000000 0.916669 0.369195 -0.153012
11010.00000000 8820.00000000 10.00000000 192 214 52 97.000000 1.000000 4.000000 1.000000 -60.708740 114.000000 144.000000 0.936330 0.137655 -0.323013
11010.00000000 8770.00000000 110.00000000 192 214 52 97.000000 1.000000 4.000000 1.000000 -60.708740 114.000000 144.000000 0.922783 0.253229 -0.290426
11010.00000000 8770.00000000 110.00000000 192 214 52 97.000000 1.000000 4.000000 1.000000 -60.708740 114.000000 144.000000 0.922783 0.253229 -0.290426
11000.00000000 8730.00000000 90.00000000 192 214 52 97.000000 1.000000 4.000000 1.000000 -60.708740 114.000000 144.000000 0.697972 0.709727 -0.095512
11000.00000000 8730.00000000 90.00000000 192 214 52 97.000000 1.000000 4.000000 1.000000 -60.708740 114.000000 144.000000 0.697972 0.709727 -0.095512
11000.00000000 8800.00000000 50.00000000 192 214 52 97.000000 1.000000 4.000000 1.000000 -60.708740 114.000000 144.000000 0.832772 0.443832 -0.330913
11000.00000000 8780.00000000 10.00000000 192 214 52 97.000000 1.000000 4.000000 1.000000 -60.708740 114.000000 144.000000 0.976790 0.138472 -0.163422
11020.00000000 8750.00000000 40.00000000 192 214 52 97.000000 1.000000 4.000000 1.000000 -60.708740 114.000000 144.000000 0.890844 0.440496 -0.111180
11050.00000000 8710.00000000 470.00000000 192 214 52 97.000000 1.000000 4.000000 1.000000 -60.708740 114.000000 144.000000 0.707090 0.707090 -0.006946
11080.00000000 8670.00000000 370.00000000 192 214 52 97.000000 1.000000 4.000000 1.000000 -60.708740 114.000000 144.000000 0.283407 0.956976 0.062273
11050.00000000 8700.00000000 360.00000000 192 214 52 97.000000 1.000000 4.000000 1.000000 -60.708740 114.000000 144.000000 0.183665 0.975797 -0.118695
11060.00000000 8690.00000000 380.00000000 192 214 52 97.000000 1.000000 4.000000 1.000000 -60.708740 114.000000 144.000000 0.087177 0.966523 -0.241315
11060.00000000 8710.00000000 400.00000000 192 214 52 97.000000 1.000000 4.000000 1.000000 -60.708740 114.000000 144.000000 0.663774 0.620521 -0.417562
11060.00000000 8700.00000000 400.00000000 192 214 52 97.000000 1.000000 4.000000 1.000000 -60.708740 114.000000 144.000000 0.579327 0.649853 -0.492008
11060.00000000 8690.00000000 350.00000000 192 214 52 97.000000 1.000000 4.000000 1.000000 -60.708740 114.000000 144.000000 0.695245 0.717901 0.035399
11110.00000000 8630.00000000 400.00000000 192 214 52 97.000000 1.000000 4.000000 1.000000 -60.708740 114.000000 144.000000 0.377545 0.923038 0.073897
11100.00000000 8630.00000000 390.00000000 192 214 52 97.000000 1.000000 4.000000 1.000000 -60.708740 114.000000 144.000000 -0.094382 0.939831 -0.328343
11110.00000000 8630.00000000 360.00000000 192 214 52 97.000000 1.000000 4.000000 1.000000 -60.708740 114.000000 144.000000 0.587694 0.799794 -0.122252
11080.00000000 8650.00000000 310.00000000 192 214 52 97.000000 1.000000 4.000000 1.000000 -60.708740 114.000000 144.000000 0.503176 0.863944 -0.020344
11090.00000000 8650.00000000 260.00000000 192 214 52 97.000000 1.000000 4.000000 1.000000 -60.708740 114.000000 144.000000 0.315627 0.944239 -0.093764
11100.00000000 8650.00000000 270.00000000 192 214 52 97.000000 1.000000 4.000000 1.000000 -60.708740 114.000000 144.000000 0.377406 0.892454 -0.247164
11040.00000000 8720.00000000 300.00000000 192 214 52 97.000000 1.000000 4.000000 1.000000 -60.708740 114.000000 144.000000 0.756281 0.616517 -0.218964
11040.00000000 8660.00000000 290.00000000 192 214 52 97.000000 1.000000 4.000000 1.000000 -60.708740 114.000000 144.000000 0.559592 0.620454 -0.549448
11050.00000000 8650.00000000 250.00000000 192 214 52 97.000000 1.000000 4.000000 1.000000 -60.708740 114.000000 144.000000 0.454211 0.762485 -0.460770
11030.00000000 8660.00000000 190.00000000 192 214 52 97.000000 1.000000 4.000000 1.000000 -60.708740 114.000000 144.000000 0.781906 0.609142 -0.132552
11070.00000000 8650.00000000 190.00000000 192 214 52 97.000000 1.000000 4.000000 1.000000 -60.708740 114.000000 144.000000 0.560939 0.826721 -0.043364
11070.00000000 8630.00000000 240.00000000 192 214 52 97.000000 1.000000 4.000000 1.000000 -60.708740 114.000000 144.000000 0.444029 0.758618 -0.476799
11110.00000000 8610.00000000 240.00000000 192 214 52 97.000000 1.000000 4.000000 1.000000 -60.708740 114.000000 144.000000 0.530809 0.837889 -0.127219
11090.00000000 8640.00000000 230.00000000 192 214 52 97.000000 1.000000 4.000000 1.000000 -60.708740 114.000000 144.000000 0.363791 0.928799 -0.070626
11070.00000000 8620.00000000 190.00000000 192 214 52 97.000000 1.000000 4.000000 1.000000 -60.708740 114.000000 144.000000 0.385042 0.918386 -0.091158
11090.00000000 8600.00000000 160.00000000 192 214 52 97.000000 1.000000 4.000000 1.000000 -60.708740 114.000000 144.000000 0.293463 0.895286 -0.335174
11060.00000000 8620.00000000 210.00000000 192 214 52 97.000000 1.000000 4.000000 1.000000 -60.708740 114.000000 144.000000 0.488485 0.806717 -0.332552
11040.00000000 8680.00000000 120.00000000 192 214 52 97.000000 1.000000 4.000000 1.000000 -60.708740 114.000000 144.000000 0.260800 0.931830 -0.252341
11030.00000000 8670.00000000 90.00000000 192 214 52 97.000000 1.000000 4.000000 1.000000 -60.708740 114.000000 144.000000 0.480425 0.871567 0.097786
11050.00000000 8660.00000000 80.00000000 192 214 52 97.000000 1.000000 4.000000 1.000000 -60.708740 114.000000 144.000000 0.393769 0.798789 -0.454843
11050.00000000 8670.00000000 100.00000000 192 214 52 97.000000 1.000000 4.000000 1.000000 -60.708740 114.000000 144.000000 0.437124 0.892521 -0.111038
11070.00000000 8650.00000000 60.00000000 192 214 52 97.000000 1.000000 4.000000 1.000000 -60.708740 114.000000 144.000000 0.433891 0.899065 -0.058487
11070.00000000 8650.00000000 60.00000000 192 214 52 97.000000 1.000000 4.000000 1.000000 -60.708740 114.000000 144.000000 0.433891 0.899065 -0.058487
11060.00000000 8650.00000000 60.00000000 192 214 52 97.000000 1.000000 4.000000 1.000000 -60.708740 114.000000 144.000000 0.156731 0.987291 -0.026313
11050.00000000 8670.00000000 30.00000000 192 214 52 97.000000 1.000000 4.000000 1.000000 -60.708740 114.000000 144.000000 0.708408 0.582909 -0.397963
11030.00000000 8650.00000000 60.00000000 192 214 52 97.000000 1.000000 4.000000 1.000000 -60.708740 114.000000 144.000000 0.455542 0.881095 -0.127095
11050.00000000 8650.00000000 10.00000000 192 214 52 97.000000 1.000000 4.000000 1.000000 -60.708740 114.000000 144.000000 0.548438 0.834579 -0.051898
11030.00000000 8670.00000000 -10.00000000 192 214 52 97.000000 1.000000 4.000000 1.000000 -60.708740 114.000000 144.000000 0.760507 0.529261 -0.376182
11090.00000000 8630.00000000 90.00000000 192 214 52 97.000000 1.000000 4.000000 1.000000 -60.708740 114.000000 144.000000 0.642294 0.751106 -0.152639
11070.00000000 8620.00000000 70.00000000 192 214 52 97.000000 1.000000 4.000000 1.000000 -60.708740 114.000000 144.000000 0.495469 0.859487 0.125673
11080.00000000 8600.00000000 140.00000000 192 214 52 97.000000 1.000000 4.000000 1.000000 -60.708740 114.000000 144.000000 0.111090 0.940921 -0.319886
11110.00000000 8630.00000000 120.00000000 192 214 52 97.000000 1.000000 4.000000 1.000000 -60.708740 114.000000 144.000000 0.457292 0.811017 -0.364878
11060.00000000 8630.00000000 140.00000000 192 214 52 97.000000 1.000000 4.000000 1.000000 -60.708740 114.000000 144.000000 0.365976 0.884065 -0.290672
11100.00000000 8620.00000000 60.00000000 192 214 52 97.000000 1.000000 4.000000 1.000000 -60.708740 114.000000 144.000000 0.383697 0.913897 -0.132550
11110.00000000 8620.00000000 50.00000000 192 214 52 97.000000 1.000000 4.000000 1.000000 -60.708740 114.000000 144.000000 0.262578 0.957560 0.118879
11100.00000000 8610.00000000 20.00000000 192 214 52 97.000000 1.000000 4.000000 1.000000 -60.708740 114.000000 144.000000 0.291114 0.867246 -0.403902
11070.00000000 8630.00000000 0.00000000 192 214 52 97.000000 1.000000 4.000000 1.000000 -60.708740 114.000000 144.000000 0.508455 0.855063 -0.101691
11100.00000000 8580.00000000 -10.00000000 192 214 52 97.000000 1.000000 4.000000 1.000000 -60.708740 114.000000 144.000000 0.372528 0.913613 -0.162892
11030.00000000 8630.00000000 -10.00000000 192 214 52 97.000000 1.000000 4.000000 1.000000 -60.708740 114.000000 144.000000 0.331610 0.879751 -0.340695
11020.00000000 8700.00000000 70.00000000 192 214 52 97.000000 1.000000 4.000000 1.000000 -60.708740 114.000000 144.000000 0.496581 0.843734 -0.203764
11020.00000000 8720.00000000 100.00000000 192 214 52 97.000000 1.000000 4.000000 1.000000 -60.708740 114.000000 144.000000 0.661078 0.502957 -0.556786
11000.00000000 8660.00000000 10.00000000 192 214 52 97.000000 1.000000 4.000000 1.000000 -60.708740 114.000000 144.000000 0.772334 0.584342 -0.249089
11020.00000000 8710.00000000 40.00000000 192 214 52 97.000000 1.000000 4.000000 1.000000 -60.708740 114.000000 144.000000 0.663319 0.623420 -0.413951
11020.00000000 8680.00000000 50.00000000 192 214 52 97.000000 1.000000 4.000000 1.000000 -60.708740 114.000000 144.000000 0.741044 0.670198 -0.041090
11020.00000000 8630.00000000 50.00000000 192 214 52 97.000000 1.000000 4.000000 1.000000 -60.708740 114.000000 144.000000 0.594965 0.745711 -0.299888
11350.00000000 8780.00000000 -40.00000000 192 214 52 97.000000 1.000000 4.000000 1.000000 -60.708740 114.000000 144.000000 0.893362 -0.347502 0.284862
11340.00000000 8780.00000000 -90.00000000 192 214 52 97.000000 1.000000 4.000000 1.000000 -60.708740 114.000000 144.000000 0.926338 -0.172375 -0.334939
11340.00000000 8740.00000000 -30.00000000 192 214 52 97.000000 1.000000 4.000000 1.000000 -60.708740 114.000000 144.000000 0.910022 -0.348673 -0.224250
11350.00000000 8750.00000000 -30.00000000 192 214 52 97.000000 1.000000 4.000000 1.000000 -60.708740 114.000000 144.000000 0.868986 -0.436744 0.232630
11350.00000000 8740.00000000 -100.00000000 192 214 52 97.000000 1.000000 4.000000 1.000000 -60.708740 114.000000 144.000000 0.970797 -0.236928 0.037665
11330.00000000 8730.00000000 -100.00000000 192 214 52 97.000000 1.000000 4.000000 1.000000 -60.708740 114.000000 144.000000 0.694575 -0.625935 0.354642
11340.00000000 8770.00000000 -120.00000000 192 214 52 97.000000 1.000000 4.000000 1.000000 -60.708740 114.000000 144.000000 0.953740 -0.186982 -0.235408
11340.00000000 8770.00000000 -140.00000000 192 214 52 97.000000 1.000000 4.000000 1.000000 -60.708740 114.000000 144.000000 0.994301 0.045447 -0.096437
11320.00000000 8730.00000000 -210.00000000 192 214 52 97.000000 1.000000 4.000000 1.000000 -60.708740 114.000000 144.000000 0.964591 -0.263727 0.003613
11310.00000000 8740.00000000 -270.00000000 192 214 52 97.000000 1.000000 4.000000 1.000000 -60.708740 114.000000 144.000000 0.987046 -0.155849 -0.038097
11210.00000000 8950.00000000 -50.00000000 192 214 52 97.000000 1.000000 4.000000 1.000000 -60.708740 114.000000 144.000000 0.358127 0.766490 -0.533140
11200.00000000 8960.00000000 -40.00000000 192 214 52 97.000000 1.000000 4.000000 1.000000 -60.708740 114.000000 144.000000 0.095364 0.995428 0.005358
11230.00000000 8950.00000000 -30.00000000 192 214 52 97.000000 1.000000 4.000000 1.000000 -60.708740 114.000000 144.000000 0.438211 0.898794 -0.011844
11230.00000000 8950.00000000 -50.00000000 192 214 52 97.000000 1.000000 4.000000 1.000000 -60.708740 114.000000 144.000000 0.399786 0.912822 -0.083232
11220.00000000 8960.00000000 -90.00000000 192 214 52 97.000000 1.000000 4.000000 1.000000 -60.708740 114.000000 144.000000 0.412911 0.880976 -0.231051
11240.00000000 8950.00000000 -140.00000000 192 214 52 97.000000 1.000000 4.000000 1.000000 -60.708740 114.000000 144.000000 0.476205 0.875149 0.085689
11240.00000000 8950.00000000 -180.00000000 192 214 52 97.000000 1.000000 4.000000 1.000000 -60.708740 114.000000 144.000000 0.472295 0.837743 -0.274086
11210.00000000 8940.00000000 -120.00000000 192 214 52 97.000000 1.000000 4.000000 1.000000 -60.708740 114.000000 144.000000 0.378681 0.916879 0.126227
11220.00000000 8940.00000000 -130.00000000 192 214 52 97.000000 1.000000 4.000000 1.000000 -60.708740 114.000000 144.000000 0.521519 0.850455 0.068880
11210.00000000 8940.00000000 -140.00000000 192 214 52 97.000000 1.000000 4.000000 1.000000 -60.708740 114.000000 144.000000 0.387873 0.909737 0.148097
11210.00000000 8950.00000000 -140.00000000 192 214 52 97.000000 1.000000 4.000000 1.000000 -60.708740 114.000000 144.000000 0.429186 0.902494 -0.036100
11200.00000000 8950.00000000 -140.00000000 192 214 52 97.000000 1.000000 4.000000 1.000000 -60.708740 114.000000 144.000000 0.570598 0.816172 -0.091007
11230.00000000 8940.00000000 -170.00000000 192 214 52 97.000000 1.000000 4.000000 1.000000 -60.708740 114.000000 144.000000 0.435986 0.832623 -0.341549
11190.00000000 8950.00000000 -20.00000000 192 214 52 97.000000 1.000000 4.000000 1.000000 -60.708740 114.000000 144.000000 0.152794 0.988071 -0.019241
11190.00000000 8960.00000000 -60.00000000 192 214 52 97.000000 1.000000 4.000000 1.000000 -60.708740 114.000000 144.000000 0.523043 0.785365 -0.331101
11140.00000000 8950.00000000 -50.00000000 192 214 52 97.000000 1.000000 4.000000 1.000000 -60.708740 114.000000 144.000000 -0.515472 0.814477 -0.266301
11130.00000000 8950.00000000 -20.00000000 192 214 52 97.000000 1.000000 4.000000 1.000000 -60.708740 114.000000 144.000000 -0.630637 0.773638 -0.061491
11140.00000000 8950.00000000 -50.00000000 192 214 52 97.000000 1.000000 4.000000 1.000000 -60.708740 114.000000 144.000000 -0.515472 0.814477 -0.266301
11150.00000000 8970.00000000 -100.00000000 192 214 52 97.000000 1.000000 4.000000 1.000000 -60.708740 114.000000 144.000000 -0.414875 0.849950 -0.324752
11180.00000000 8940.00000000 -140.00000000 192 214 52 97.000000 1.000000 4.000000 1.000000 -60.708740 114.000000 144.000000 0.037646 0.989064 -0.142599
11170.00000000 8950.00000000 -140.00000000 192 214 52 97.000000 1.000000 4.000000 1.000000 -60.708740 114.000000 144.000000 0.147658 0.912667 -0.381098
11170.00000000 8960.00000000 -130.00000000 192 214 52 97.000000 1.000000 4.000000 1.000000 -60.708740 114.000000 144.000000 0.038790 0.994145 -0.100855
11180.00000000 8950.00000000 -160.00000000 192 214 52 97.000000 1.000000 4.000000 1.000000 -60.708740 114.000000 144.000000 -0.060394 0.913961 -0.401284
11180.00000000 8950.00000000 -160.00000000 192 214 52 97.000000 1.000000 4.000000 1.000000 -60.708740 114.000000 144.000000 -0.060394 0.913961 -0.401284
11130.00000000 8950.00000000 -170.00000000 192 214 52 97.000000 1.000000 4.000000 1.000000 -60.708740 114.000000 144.000000 -0.116601 0.984498 0.131026
11120.00000000 8950.00000000 -170.00000000 192 214 52 97.000000 1.000000 4.000000 1.000000 -60.708740 114.000000 144.000000 0.007472 0.995848 0.090726
11120.00000000 8950.00000000 -150.00000000 192 214 52 97.000000 1.000000 4.000000 1.000000 -60.708740 114.000000 144.000000 0.073087 0.989570 -0.124131
11200.00000000 8940.00000000 -230.00000000 192 214 52 97.000000 1.000000 4.000000 1.000000 -60.708740 114.000000 144.000000 0.555423 0.819063 0.143669
11220.00000000 8940.00000000 -200.00000000 192 214 52 97.000000 1.000000 4.000000 1.000000 -60.708740 114.000000 144.000000 0.377813 0.915953 -0.135232
11210.00000000 8950.00000000 -240.00000000 192 214 52 97.000000 1.000000 4.000000 1.000000 -60.708740 114.000000 144.000000 0.364588 0.931161 -0.003811
11220.00000000 8930.00000000 -190.00000000 192 214 52 97.000000 1.000000 4.000000 1.000000 -60.708740 114.000000 144.000000 0.493019 0.867323 0.068436
11220.00000000 8920.00000000 -270.00000000 192 214 52 97.000000 1.000000 4.000000 1.000000 -60.708740 114.000000 144.000000 0.370970 0.928075 -0.032541
11200.00000000 8950.00000000 -290.00000000 192 214 52 97.000000 1.000000 4.000000 1.000000 -60.708740 114.000000 144.000000 0.163387 0.949263 -0.268710
11210.00000000 8940.00000000 -290.00000000 192 214 52 97.000000 1.000000 4.000000 1.000000 -60.708740 114.000000 144.000000 0.609231 0.777709 0.154940
11200.00000000 8950.00000000 -290.00000000 192 214 52 97.000000 1.000000 4.000000 1.000000 -60.708740 114.000000 144.000000 0.163387 0.949263 -0.268710
11230.00000000 8930.00000000 -280.00000000 192 214 52 97.000000 1.000000 4.000000 1.000000 -60.708740 114.000000 144.000000 0.715443 0.542807 -0.439889
11200.00000000 8920.00000000 -350.00000000 192 214 52 97.000000 1.000000 4.000000 1.000000 -60.708740 114.000000 144.000000 0.396721 0.804686 -0.441694
11200.00000000 8930.00000000 -340.00000000 192 214 52 97.000000 1.000000 4.000000 1.000000 -60.708740 114.000000 144.000000 0.452885 0.862136 -0.227195
11170.00000000 8950.00000000 -210.00000000 192 214 52 97.000000 1.000000 4.000000 1.000000 -60.708740 114.000000 144.000000 -0.058397 0.990461 -0.124809
11170.00000000 8960.00000000 -240.00000000 192 214 52 97.000000 1.000000 4.000000 1.000000 -60.708740 114.000000 144.000000 -0.133973 0.990955 0.007750
11180.00000000 8950.00000000 -270.00000000 192 214 52 97.000000 1.000000 4.000000 1.000000 -60.708740 114.000000 144.000000 0.181548 0.953464 -0.240719
11140.00000000 8950.00000000 -210.00000000 192 214 52 97.000000 1.000000 4.000000 1.000000 -60.708740 114.000000 144.000000 0.050457 0.997340 0.052605
11120.00000000 8950.00000000 -210.00000000 192 214 52 97.000000 1.000000 4.000000 1.000000 -60.708740 114.000000 144.000000 -0.016882 0.989261 -0.145182
11150.00000000 8950.00000000 -230.00000000 192 214 52 97.000000 1.000000 4.000000 1.000000 -60.708740 114.000000 144.000000 -0.218550 0.944299 -0.246040
11140.00000000 8950.00000000 -190.00000000 192 214 52 97.000000 1.000000 4.000000 1.000000 -60.708740 114.000000 144.000000 0.099554 0.984742 0.142734
11150.00000000 8950.00000000 -200.00000000 192 214 52 97.000000 1.000000 4.000000 1.000000 -60.708740 114.000000 144.000000 -0.049948 0.997891 0.041446
11130.00000000 8950.00000000 -220.00000000 192 214 52 97.000000 1.000000 4.000000 1.000000 -60.708740 114.000000 144.000000 -0.058646 0.990085 -0.127642
11140.00000000 8940.00000000 -260.00000000 192 214 52 97.000000 1.000000 4.000000 1.000000 -60.708740 114.000000 144.000000 -0.296076 0.922556 -0.247445
11130.00000000 8940.00000000 -240.00000000 192 214 52 97.000000 1.000000 4.000000 1.000000 -60.708740 114.000000 144.000000 -0.132437 0.979042 -0.154716
11140.00000000 8940.00000000 -270.00000000 192 214 52 97.000000 1.000000 4.000000 1.000000 -60.708740 114.000000 144.000000 -0.171933 0.971740 -0.161744
11130.00000000 8950.00000000 -240.00000000 192 214 52 97.000000 1.000000 4.000000 1.000000 -60.708740 114.000000 144.000000 -0.281186 0.950168 -0.134596
11140.00000000 8950.00000000 -240.00000000 192 214 52 97.000000 1.000000 4.000000 1.000000 -60.708740 114.000000 144.000000 0.254753 0.966600 0.028035
11140.00000000 8970.00000000 -240.00000000 192 214 52 97.000000 1.000000 4.000000 1.000000 -60.708740 114.000000 144.000000 0.331521 0.924026 -0.190448
11150.00000000 8950.00000000 -280.00000000 192 214 52 97.000000 1.000000 4.000000 1.000000 -60.708740 114.000000 144.000000 -0.005377 0.994753 0.102164
11120.00000000 8940.00000000 -350.00000000 192 214 52 97.000000 1.000000 4.000000 1.000000 -60.708740 114.000000 144.000000 0.095413 0.902965 -0.418987
11120.00000000 8920.00000000 -300.00000000 192 214 52 97.000000 1.000000 4.000000 1.000000 -60.708740 114.000000 144.000000 0.061135 0.994826 0.081142
11190.00000000 8950.00000000 -280.00000000 192 214 52 97.000000 1.000000 4.000000 1.000000 -60.708740 114.000000 144.000000 0.124166 0.992232 -0.007692
11280.00000000 8770.00000000 -520.00000000 192 214 52 97.000000 1.000000 4.000000 1.000000 -60.708740 114.000000 144.000000 0.964894 -0.221472 -0.141172
11300.00000000 8740.00000000 -510.00000000 192 214 52 97.000000 1.000000 4.000000 1.000000 -60.708740 114.000000 144.000000 0.906438 -0.361125 0.218995
11300.00000000 8740.00000000 -500.00000000 192 214 52 97.000000 1.000000 4.000000 1.000000 -60.708740 114.000000 144.000000 0.921848 -0.143213 0.360119
11290.00000000 8760.00000000 -500.00000000 192 214 52 97.000000 1.000000 4.000000 1.000000 -60.708740 114.000000 144.000000 0.960830 -0.059186 -0.270745
11280.00000000 8730.00000000 -500.00000000 192 214 52 97.000000 1.000000 4.000000 1.000000 -60.708740 114.000000 144.000000 0.885303 -0.324259 -0.333308
11280.00000000 8820.00000000 -590.00000000 192 214 52 97.000000 1.000000 4.000000 1.000000 -60.708740 114.000000 144.000000 0.942798 0.332079 -0.029264
11280.00000000 8830.00000000 -600.00000000 192 214 52 97.000000 1.000000 4.000000 1.000000 -60.708740 114.000000 144.000000 0.935283 0.352182 -0.034831
11290.00000000 8810.00000000 -590.00000000 192 214 52 97.000000 1.000000 4.000000 1.000000 -60.708740 114.000000 144.000000 0.974304 0.027496 -0.223552
11280.00000000 8820.00000000 -630.00000000 192 214 52 97.000000 1.000000 4.000000 1.000000 -60.708740 114.000000 144.000000 0.981951 0.169884 -0.083135
11280.00000000 8730.00000000 -590.00000000 192 214 52 97.000000 1.000000 4.000000 1.000000 -60.708740 114.000000 144.000000 0.909199 -0.415896 0.019680
11290.00000000 8740.00000000 -590.00000000 192 214 52 97.000000 1.000000 4.000000 1.000000 -60.708740 114.000000 144.000000 0.936044 -0.349887 -0.037442
11280.00000000 8780.00000000 -540.00000000 192 214 52 97.000000 1.000000 4.000000 1.000000 -60.708740 114.000000 144.000000 0.993137 -0.084932 -0.080402
11280.00000000 8770.00000000 -600.00000000 192 214 52 97.000000 1.000000 4.000000 1.000000 -60.708740 114.000000 144.000000 0.982460 -0.015008 -0.185871
11290.00000000 8800.00000000 -540.00000000 192 214 52 97.000000 1.000000 4.000000 1.000000 -60.708740 114.000000 144.000000 0.931529 0.153185 -0.329830
11300.00000000 8800.00000000 -530.00000000 192 214 52 97.000000 1.000000 4.000000 1.000000 -60.708740 114.000000 144.000000 0.858353 0.138444 -0.494027
11280.00000000 8780.00000000 -540.00000000 192 214 52 97.000000 1.000000 4.000000 1.000000 -60.708740 114.000000 144.000000 0.993137 -0.084932 -0.080402
11280.00000000 8730.00000000 -580.00000000 192 214 52 97.000000 1.000000 4.000000 1.000000 -60.708740 114.000000 144.000000 0.947397 -0.306163 -0.093294
11280.00000000 8780.00000000 -590.00000000 192 214 52 97.000000 1.000000 4.000000 1.000000 -60.708740 114.000000 144.000000 0.972654 -0.001179 -0.232258
11310.00000000 8740.00000000 -540.00000000 192 214 52 97.000000 1.000000 4.000000 1.000000 -60.708740 114.000000 144.000000 0.997524 0.005234 -0.070130
11290.00000000 8730.00000000 -550.00000000 192 214 52 97.000000 1.000000 4.000000 1.000000 -60.708740 114.000000 144.000000 0.921935 -0.188352 -0.338468
11290.00000000 8760.00000000 -610.00000000 192 214 52 97.000000 1.000000 4.000000 1.000000 -60.708740 114.000000 144.000000 0.943317 0.156539 0.292660
11280.00000000 8750.00000000 -690.00000000 192 214 52 97.000000 1.000000 4.000000 1.000000 -60.708740 114.000000 144.000000 0.970329 -0.152133 -0.187929
11290.00000000 8750.00000000 -620.00000000 192 214 52 97.000000 1.000000 4.000000 1.000000 -60.708740 114.000000 144.000000 0.891663 -0.114099 -0.438084
11290.00000000 8780.00000000 -670.00000000 192 214 52 97.000000 1.000000 4.000000 1.000000 -60.708740 114.000000 144.000000 0.979993 -0.044058 -0.194093
11220.00000000 8930.00000000 -390.00000000 192 214 52 97.000000 1.000000 4.000000 1.000000 -60.708740 114.000000 144.000000 0.351535 0.936167 0.003780
11200.00000000 8920.00000000 -360.00000000 192 214 52 97.000000 1.000000 4.000000 1.000000 -60.708740 114.000000 144.000000 0.300690 0.852726 -0.427134
11210.00000000 8900.00000000 -370.00000000 192 214 52 97.000000 1.000000 4.000000 1.000000 -60.708740 114.000000 144.000000 0.635587 0.727517 -0.258356
11230.00000000 8900.00000000 -430.00000000 192 214 52 97.000000 1.000000 4.000000 1.000000 -60.708740 114.000000 144.000000 0.708067 0.599639 -0.372926
11230.00000000 8910.00000000 -410.00000000 192 214 52 97.000000 1.000000 4.000000 1.000000 -60.708740 114.000000 144.000000 0.397201 0.904024 -0.158026
11220.00000000 8920.00000000 -420.00000000 192 214 52 97.000000 1.000000 4.000000 1.000000 -60.708740 114.000000 144.000000 0.544695 0.838310 -0.023324
11240.00000000 8910.00000000 -510.00000000 192 214 52 97.000000 1.000000 4.000000 1.000000 -60.708740 114.000000 144.000000 0.381147 0.776890 -0.501167
11210.00000000 8900.00000000 -470.00000000 192 214 52 97.000000 1.000000 4.000000 1.000000 -60.708740 114.000000 144.000000 0.522985 0.851402 -0.040017
11200.00000000 8910.00000000 -460.00000000 192 214 52 97.000000 1.000000 4.000000 1.000000 -60.708740 114.000000 144.000000 0.237175 0.962956 -0.128308
11230.00000000 8910.00000000 -470.00000000 192 214 52 97.000000 1.000000 4.000000 1.000000 -60.708740 114.000000 144.000000 0.314418 0.908156 -0.276395
11200.00000000 8910.00000000 -450.00000000 192 214 52 97.000000 1.000000 4.000000 1.000000 -60.708740 114.000000 144.000000 0.451821 0.891576 0.030836
11210.00000000 8910.00000000 -460.00000000 192 214 52 97.000000 1.000000 4.000000 1.000000 -60.708740 114.000000 144.000000 0.348293 0.936920 0.029560
11180.00000000 8940.00000000 -370.00000000 192 214 52 97.000000 1.000000 4.000000 1.000000 -60.708740 114.000000 144.000000 0.143127 0.987924 -0.059345
11160.00000000 8940.00000000 -380.00000000 192 214 52 97.000000 1.000000 4.000000 1.000000 -60.708740 114.000000 144.000000 -0.181581 0.975530 -0.123976
11160.00000000 8940.00000000 -440.00000000 192 214 52 97.000000 1.000000 4.000000 1.000000 -60.708740 114.000000 144.000000 0.131896 0.979978 -0.149154
11170.00000000 8940.00000000 -440.00000000 192 214 52 97.000000 1.000000 4.000000 1.000000 -60.708740 114.000000 144.000000 0.237843 0.969857 0.052991
11160.00000000 8940.00000000 -400.00000000 192 214 52 97.000000 1.000000 4.000000 1.000000 -60.708740 114.000000 144.000000 0.117118 0.984033 0.134022
11190.00000000 8930.00000000 -410.00000000 192 214 52 97.000000 1.000000 4.000000 1.000000 -60.708740 114.000000 144.000000 0.150659 0.981120 -0.121262
11130.00000000 8940.00000000 -390.00000000 192 214 52 97.000000 1.000000 4.000000 1.000000 -60.708740 114.000000 144.000000 0.179244 0.972496 -0.148735
11120.00000000 8950.00000000 -390.00000000 192 214 52 97.000000 1.000000 4.000000 1.000000 -60.708740 114.000000 144.000000 0.158599 0.985664 0.057566
11130.00000000 8940.00000000 -370.00000000 192 214 52 97.000000 1.000000 4.000000 1.000000 -60.708740 114.000000 144.000000 -0.131026 0.984498 -0.116601
11150.00000000 8940.00000000 -390.00000000 192 214 52 97.000000 1.000000 4.000000 1.000000 -60.708740 114.000000 144.000000 -0.192847 0.978790 -0.069134
11150.00000000 8940.00000000 -390.00000000 192 214 52 97.000000 1.000000 4.000000 1.000000 -60.708740 114.000000 144.000000 -0.192847 0.978790 -0.069134
11150.00000000 8940.00000000 -370.00000000 192 214 52 97.000000 1.000000 4.000000 1.000000 -60.708740 114.000000 144.000000 -0.007089 0.999544 -0.029369
11140.00000000 8940.00000000 -430.00000000 192 214 52 97.000000 1.000000 4.000000 1.000000 -60.708740 114.000000 144.000000 -0.000978 0.999999 -0.000978
11150.00000000 8950.00000000 -410.00000000 192 214 52 97.000000 1.000000 4.000000 1.000000 -60.708740 114.000000 144.000000 0.452678 0.890404 -0.047579
11120.00000000 8940.00000000 -440.00000000 192 214 52 97.000000 1.000000 4.000000 1.000000 -60.708740 114.000000 144.000000 -0.005275 0.997016 0.077018
11130.00000000 8930.00000000 -480.00000000 192 214 52 97.000000 1.000000 4.000000 1.000000 -60.708740 114.000000 144.000000 -0.058779 0.994800 -0.083177
11190.00000000 8920.00000000 -470.00000000 192 214 52 97.000000 1.000000 4.000000 1.000000 -60.708740 114.000000 144.000000 0.373290 0.833209 -0.407942
11170.00000000 8930.00000000 -450.00000000 192 214 52 97.000000 1.000000 4.000000 1.000000 -60.708740 114.000000 144.000000 -0.060455 0.991232 -0.117488
11140.00000000 8900.00000000 -500.00000000 192 214 52 97.000000 1.000000 4.000000 1.000000 -60.708740 114.000000 144.000000 0.235402 0.771681 -0.590842
11120.00000000 8940.00000000 -520.00000000 192 214 52 97.000000 1.000000 4.000000 1.000000 -60.708740 114.000000 144.000000 0.028747 0.997611 0.062816
11160.00000000 8930.00000000 -490.00000000 192 214 52 97.000000 1.000000 4.000000 1.000000 -60.708740 114.000000 144.000000 0.177561 0.984029 0.012601
11130.00000000 8920.00000000 -450.00000000 192 214 52 97.000000 1.000000 4.000000 1.000000 -60.708740 114.000000 144.000000 -0.015283 0.999505 -0.027509
11170.00000000 8930.00000000 -520.00000000 192 214 52 97.000000 1.000000 4.000000 1.000000 -60.708740 114.000000 144.000000 0.221212 0.939107 -0.262950
11180.00000000 8930.00000000 -450.00000000 192 214 52 97.000000 1.000000 4.000000 1.000000 -60.708740 114.000000 144.000000 0.247681 0.967074 -0.058497
11180.00000000 8930.00000000 -450.00000000 192 214 52 97.000000 1.000000 4.000000 1.000000 -60.708740 114.000000 144.000000 0.247681 0.967074 -0.058497
11130.00000000 8940.00000000 -520.00000000 192 214 52 97.000000 1.000000 4.000000 1.000000 -60.708740 114.000000 144.000000 -0.135858 0.984669 0.109408
11150.00000000 8910.00000000 -460.00000000 192 214 52 97.000000 1.000000 4.000000 1.000000 -60.708740 114.000000 144.000000 0.518412 0.846594 -0.120527
11270.00000000 8840.00000000 -520.00000000 192 214 52 97.000000 1.000000 4.000000 1.000000 -60.708740 114.000000 144.000000 0.713854 0.403913 -0.572072
11230.00000000 8890.00000000 -470.00000000 192 214 52 97.000000 1.000000 4.000000 1.000000 -60.708740 114.000000 144.000000 0.751123 0.660161 0.001378
11230.00000000 8890.00000000 -490.00000000 192 214 52 97.000000 1.000000 4.000000 1.000000 -60.708740 114.000000 144.000000 0.782554 0.611600 -0.116425
11250.00000000 8860.00000000 -520.00000000 192 214 52 97.000000 1.000000 4.000000 1.000000 -60.708740 114.000000 144.000000 0.740803 0.557646 -0.374490
11250.00000000 8870.00000000 -540.00000000 192 214 52 97.000000 1.000000 4.000000 1.000000 -60.708740 114.000000 144.000000 0.679880 0.731408 0.052959
11240.00000000 8870.00000000 -530.00000000 192 214 52 97.000000 1.000000 4.000000 1.000000 -60.708740 114.000000 144.000000 0.888284 0.449038 -0.096522
11250.00000000 8860.00000000 -540.00000000 192 214 52 97.000000 1.000000 4.000000 1.000000 -60.708740 114.000000 144.000000 0.929662 0.356527 0.092832
11260.00000000 8860.00000000 -600.00000000 192 214 52 97.000000 1.000000 4.000000 1.000000 -60.708740 114.000000 144.000000 0.868876 0.461729 0.178496
11260.00000000 8860.00000000 -580.00000000 192 214 52 97.000000 1.000000 4.000000 1.000000 -60.708740 114.000000 144.000000 0.743604 0.668549 0.009729
11260.00000000 8860.00000000 -590.00000000 192 214 52 97.000000 1.000000 4.000000 1.000000 -60.708740 114.000000 144.000000 0.852533 0.520916 0.042834
11250.00000000 8860.00000000 -570.00000000 192 214 52 97.000000 1.000000 4.000000 1.000000 -60.708740 114.000000 144.000000 0.444660 0.837833 -0.316723
11260.00000000 8860.00000000 -570.00000000 192 214 52 97.000000 1.000000 4.000000 1.000000 -60.708740 114.000000 144.000000 0.669006 0.662495 -0.336945
11260.00000000 8840.00000000 -630.00000000 192 214 52 97.000000 1.000000 4.000000 1.000000 -60.708740 114.000000 144.000000 0.723554 0.682292 -0.104628
11260.00000000 8840.00000000 -620.00000000 192 214 52 97.000000 1.000000 4.000000 1.000000 -60.708740 114.000000 144.000000 0.789724 0.581982 -0.193994
11270.00000000 8760.00000000 -560.00000000 192 214 52 97.000000 1.000000 4.000000 1.000000 -60.708740 114.000000 144.000000 0.988844 -0.106491 -0.104150
11270.00000000 8760.00000000 -540.00000000 192 214 52 97.000000 1.000000 4.000000 1.000000 -60.708740 114.000000 144.000000 0.897741 0.183596 -0.400442
11270.00000000 8800.00000000 -560.00000000 192 214 52 97.000000 1.000000 4.000000 1.000000 -60.708740 114.000000 144.000000 0.824044 0.478730 -0.302934
11250.00000000 8740.00000000 -600.00000000 192 214 52 97.000000 1.000000 4.000000 1.000000 -60.708740 114.000000 144.000000 0.984454 -0.174270 -0.021928
11270.00000000 8770.00000000 -620.00000000 192 214 52 97.000000 1.000000 4.000000 1.000000 -60.708740 114.000000 144.000000 0.994541 -0.104292 -0.003226
11270.00000000 8770.00000000 -630.00000000 192 214 52 97.000000 1.000000 4.000000 1.000000 -60.708740 114.000000 144.000000 0.970610 -0.123071 -0.206810
11270.00000000 8780.00000000 -610.00000000 192 214 52 97.000000 1.000000 4.000000 1.000000 -60.708740 114.000000 144.000000 0.992560 -0.107273 0.057589
11270.00000000 8780.00000000 -610.00000000 192 214 52 97.000000 1.000000 4.000000 1.000000 -60.708740 114.000000 144.000000 0.992560 -0.107273 0.057589
11270.00000000 8770.00000000 -680.00000000 192 214 52 97.000000 1.000000 4.000000 1.000000 -60.708740 114.000000 144.000000 0.906415 0.371529 0.200944
11260.00000000 8780.00000000 -690.00000000 192 214 52 97.000000 1.000000 4.000000 1.000000 -60.708740 114.000000 144.000000 0.973532 0.228301 0.010646
11270.00000000 8750.00000000 -630.00000000 192 214 52 97.000000 1.000000 4.000000 1.000000 -60.708740 114.000000 144.000000 0.875445 0.143255 -0.461599
11260.00000000 8730.00000000 -630.00000000 192 214 52 97.000000 1.000000 4.000000 1.000000 -60.708740 114.000000 144.000000 0.980661 0.093802 0.171768
11260.00000000 8730.00000000 -630.00000000 192 214 52 97.000000 1.000000 4.000000 1.000000 -60.708740 114.000000 144.000000 0.980661 0.093802 0.171768
11270.00000000 8740.00000000 -640.00000000 192 214 52 97.000000 1.000000 4.000000 1.000000 -60.708740 114.000000 144.000000 0.963931 -0.207958 -0.166105
11270.00000000 8760.00000000 -680.00000000 192 214 52 97.000000 1.000000 4.000000 1.000000 -60.708740 114.000000 144.000000 0.959478 0.281332 0.015971
11340.00000000 8720.00000000 -50.00000000 192 214 52 97.000000 1.000000 4.000000 1.000000 -60.708740 114.000000 144.000000 -0.662587 0.712712 -0.230261
11340.00000000 8720.00000000 -30.00000000 192 214 52 97.000000 1.000000 4.000000 1.000000 -60.708740 114.000000 144.000000 0.920038 -0.389399 0.043560
11330.00000000 8720.00000000 -20.00000000 192 214 52 97.000000 1.000000 4.000000 1.000000 -60.708740 114.000000 144.000000 0.727098 -0.666125 0.166150
11330.00000000 8720.00000000 -70.00000000 192 214 52 97.000000 1.000000 4.000000 1.000000 -60.708740 114.000000 144.000000 0.935084 -0.348519 -0.064443
11320.00000000 8690.00000000 -50.00000000 192 214 52 97.000000 1.000000 4.000000 1.000000 -60.708740 114.000000 144.000000 -0.690279 0.696456 -0.196120
11320.00000000 8700.00000000 -40.00000000 192 214 52 97.000000 1.000000 4.000000 1.000000 -60.708740 114.000000 144.000000 0.852105 -0.473728 0.222486
11310.00000000 8670.00000000 -20.00000000 192 214 52 97.000000 1.000000 4.000000 1.000000 -60.708740 114.000000 144.000000 0.792734 -0.578895 -0.190928
11310.00000000 8680.00000000 -40.00000000 192 214 52 97.000000 1.000000 4.000000 1.000000 -60.708740 114.000000 144.000000 0.659194 -0.700693 0.272935
11280.00000000 8670.00000000 -40.00000000 192 214 52 97.000000 1.000000 4.000000 1.000000 -60.708740 114.000000 144.000000 -0.640012 0.688868 -0.340362
11280.00000000 8650.00000000 -100.00000000 192 214 52 97.000000 1.000000 4.000000 1.000000 -60.708740 114.000000 144.000000 -0.562348 0.782877 -0.266210
11290.00000000 8660.00000000 -90.00000000 192 214 52 97.000000 1.000000 4.000000 1.000000 -60.708740 114.000000 144.000000 -0.666285 0.732462 -0.139875
11300.00000000 8670.00000000 -70.00000000 192 214 52 97.000000 1.000000 4.000000 1.000000 -60.708740 114.000000 144.000000 0.777400 -0.623947 0.079622
11290.00000000 8660.00000000 -80.00000000 192 214 52 97.000000 1.000000 4.000000 1.000000 -60.708740 114.000000 144.000000 -0.649664 0.758179 0.055685
11280.00000000 8660.00000000 -70.00000000 192 214 52 97.000000 1.000000 4.000000 1.000000 -60.708740 114.000000 144.000000 -0.637164 0.767198 0.073686
11310.00000000 8700.00000000 -180.00000000 192 214 52 97.000000 1.000000 4.000000 1.000000 -60.708740 114.000000 144.000000 0.932160 -0.353394 -0.078680
11320.00000000 8720.00000000 -160.00000000 192 214 52 97.000000 1.000000 4.000000 1.000000 -60.708740 114.000000 144.000000 0.967776 -0.251789 -0.003580
11300.00000000 8680.00000000 -120.00000000 192 214 52 97.000000 1.000000 4.000000 1.000000 -60.708740 114.000000 144.000000 0.763225 -0.604025 -0.229436
11300.00000000 8680.00000000 -130.00000000 192 214 52 97.000000 1.000000 4.000000 1.000000 -60.708740 114.000000 144.000000 -0.502609 0.864488 -0.006701
11280.00000000 8660.00000000 -170.00000000 192 214 52 97.000000 1.000000 4.000000 1.000000 -60.708740 114.000000 144.000000 0.717947 -0.691840 -0.076871
11280.00000000 8670.00000000 -150.00000000 192 214 52 97.000000 1.000000 4.000000 1.000000 -60.708740 114.000000 144.000000 0.831815 -0.452721 0.321134
11280.00000000 8640.00000000 -30.00000000 192 214 52 97.000000 1.000000 4.000000 1.000000 -60.708740 114.000000 144.000000 -0.198143 0.885041 -0.421238
11320.00000000 8720.00000000 -190.00000000 192 214 52 97.000000 1.000000 4.000000 1.000000 -60.708740 114.000000 144.000000 0.730751 -0.667469 -0.143137
11300.00000000 8700.00000000 -220.00000000 192 214 52 97.000000 1.000000 4.000000 1.000000 -60.708740 114.000000 144.000000 0.777160 -0.565064 -0.276992
11300.00000000 8690.00000000 -200.00000000 192 214 52 97.000000 1.000000 4.000000 1.000000 -60.708740 114.000000 144.000000 -0.567418 0.712995 -0.411916
11300.00000000 8700.00000000 -190.00000000 192 214 52 97.000000 1.000000 4.000000 1.000000 -60.708740 114.000000 144.000000 0.784873 -0.614937 -0.076327
11300.00000000 8700.00000000 -220.00000000 192 214 52 97.000000 1.000000 4.000000 1.000000 -60.708740 114.000000 144.000000 0.777160 -0.565064 -0.276992
11290.00000000 8690.00000000 -260.00000000 192 214 52 97.000000 1.000000 4.000000 1.000000 -60.708740 114.000000 144.000000 0.912902 -0.407052 0.030298
11310.00000000 8720.00000000 -250.00000000 192 214 52 97.000000 1.000000 4.000000 1.000000 -60.708740 114.000000 144.000000 0.946976 -0.317372 -0.050111
11310.00000000 8720.00000000 -250.00000000 192 214 52 97.000000 1.000000 4.000000 1.000000 -60.708740 114.000000 144.000000 0.946976 -0.317372 -0.050111
11300.00000000 8700.00000000 -240.00000000 192 214 52 97.000000 1.000000 4.000000 1.000000 -60.708740 114.000000 144.000000 0.835560 -0.549316 -0.009541
11280.00000000 8670.00000000 -190.00000000 192 214 52 97.000000 1.000000 4.000000 1.000000 -60.708740 114.000000 144.000000 0.865175 -0.501454 0.004012
11300.00000000 8680.00000000 -210.00000000 192 214 52 97.000000 1.000000 4.000000 1.000000 -60.708740 114.000000 144.000000 -0.660656 0.733556 -0.159469
11300.00000000 8660.00000000 -230.00000000 192 214 52 97.000000 1.000000 4.000000 1.000000 -60.708740 114.000000 144.000000 0.684429 -0.693827 -0.223967
11290.00000000 8670.00000000 -250.00000000 192 214 52 97.000000 1.000000 4.000000 1.000000 -60.708740 114.000000 144.000000 0.790634 -0.559838 0.247950
11290.00000000 8670.00000000 -240.00000000 192 214 52 97.000000 1.000000 4.000000 1.000000 -60.708740 114.000000 144.000000 0.755705 -0.653621 -0.041117
11290.00000000 8690.00000000 -280.00000000 192 214 52 97.000000 1.000000 4.000000 1.000000 -60.708740 114.000000 144.000000 -0.700167 0.713977 -0.001381
11310.00000000 8710.00000000 -320.00000000 192 214 52 97.000000 1.000000 4.000000 1.000000 -60.708740 114.000000 144.000000 0.848864 -0.527969 -0.026056
11280.00000000 8700.00000000 -320.00000000 192 214 52 97.000000 1.000000 4.000000 1.000000 -60.708740 114.000000 144.000000 -0.700080 0.713998 0.009743
11320.00000000 8710.00000000 -350.00000000 192 214 52 97.000000 1.000000 4.000000 1.000000 -60.708740 114.000000 144.000000 0.939884 -0.215188 -0.265167
11300.00000000 8680.00000000 -300.00000000 192 214 52 97.000000 1.000000 4.000000 1.000000 -60.708740 114.000000 144.000000 0.696932 -0.681270 0.223958
11290.00000000 8680.00000000 -310.00000000 192 214 52 97.000000 1.000000 4.000000 1.000000 -60.708740 114.000000 144.000000 0.869310 -0.463338 0.172097
11300.00000000 8680.00000000 -310.00000000 192 214 52 97.000000 1.000000 4.000000 1.000000 -60.708740 114.000000 144.000000 0.823986 -0.556590 -0.106086
11310.00000000 8680.00000000 -320.00000000 192 214 52 97.000000 1.000000 4.000000 1.000000 -60.708740 114.000000 144.000000 0.914265 -0.396499 0.083115
11280.00000000 8680.00000000 -330.00000000 192 214 52 97.000000 1.000000 4.000000 1.000000 -60.708740 114.000000 144.000000 0.904787 -0.402284 -0.139741
11280.00000000 8640.00000000 -190.00000000 192 214 52 97.000000 1.000000 4.000000 1.000000 -60.708740 114.000000 144.000000 -0.685067 0.712288 -0.152741
11270.00000000 8650.00000000 -60.00000000 192 214 52 97.000000 1.000000 4.000000 1.000000 -60.708740 114.000000 144.000000 -0.376714 0.904979 0.197739
11250.00000000 8580.00000000 -90.00000000 192 214 52 97.000000 1.000000 4.000000 1.000000 -60.708740 114.000000 144.000000 -0.030690 0.997954 -0.056089
11230.00000000 8610.00000000 -80.00000000 192 214 52 97.000000 1.000000 4.000000 1.000000 -60.708740 114.000000 144.000000 -0.399666 0.909345 0.115583
11220.00000000 8590.00000000 -70.00000000 192 214 52 97.000000 1.000000 4.000000 1.000000 -60.708740 114.000000 144.000000 -0.141279 0.971135 -0.192191
11270.00000000 8640.00000000 -120.00000000 192 214 52 97.000000 1.000000 4.000000 1.000000 -60.708740 114.000000 144.000000 -0.169407 0.962600 -0.211431
11270.00000000 8610.00000000 -130.00000000 192 214 52 97.000000 1.000000 4.000000 1.000000 -60.708740 114.000000 144.000000 -0.505075 0.849645 -0.151670
11270.00000000 8640.00000000 -120.00000000 192 214 52 97.000000 1.000000 4.000000 1.000000 -60.708740 114.000000 144.000000 -0.169407 0.962600 -0.211431
11240.00000000 8630.00000000 -140.00000000 192 214 52 97.000000 1.000000 4.000000 1.000000 -60.708740 114.000000 144.000000 -0.550880 0.827046 0.111920
11260.00000000 8600.00000000 -120.00000000 192 214 52 97.000000 1.000000 4.000000 1.000000 -60.708740 114.000000 144.000000 -0.633072 0.772490 0.049792
11250.00000000 8640.00000000 -160.00000000 192 214 52 97.000000 1.000000 4.000000 1.000000 -60.708740 114.000000 144.000000 -0.434076 0.889642 0.141827
11260.00000000 8610.00000000 -180.00000000 192 214 52 97.000000 1.000000 4.000000 1.000000 -60.708740 114.000000 144.000000 0.771158 -0.635321 -0.041034
11250.00000000 8630.00000000 -160.00000000 192 214 52 97.000000 1.000000 4.000000 1.000000 -60.708740 114.000000 144.000000 -0.597735 0.801160 -0.029260
11230.00000000 8600.00000000 -160.00000000 192 214 52 97.000000 1.000000 4.000000 1.000000 -60.708740 114.000000 144.000000 -0.466589 0.856168 -0.221970
11160.00000000 8600.00000000 -50.00000000 192 214 52 97.000000 1.000000 4.000000 1.000000 -60.708740 114.000000 144.000000 0.042193 0.883332 -0.466846
11160.00000000 8580.00000000 -30.00000000 192 214 52 97.000000 1.000000 4.000000 1.000000 -60.708740 114.000000 144.000000 -0.313190 0.949552 -0.016221
11160.00000000 8580.00000000 -30.00000000 192 214 52 97.000000 1.000000 4.000000 1.000000 -60.708740 114.000000 144.000000 -0.313190 0.949552 -0.016221
11170.00000000 8580.00000000 -70.00000000 192 214 52 97.000000 1.000000 4.000000 1.000000 -60.708740 114.000000 144.000000 -0.077313 0.944790 -0.318424
11170.00000000 8590.00000000 -70.00000000 192 214 52 97.000000 1.000000 4.000000 1.000000 -60.708740 114.000000 144.000000 -0.031993 0.993978 -0.104803
11140.00000000 8590.00000000 -50.00000000 192 214 52 97.000000 1.000000 4.000000 1.000000 -60.708740 114.000000 144.000000 0.132336 0.856551 -0.498806
11150.00000000 8570.00000000 -40.00000000 192 214 52 97.000000 1.000000 4.000000 1.000000 -60.708740 114.000000 144.000000 -0.089379 0.990130 0.107951
11160.00000000 8590.00000000 -170.00000000 192 214 52 97.000000 1.000000 4.000000 1.000000 -60.708740 114.000000 144.000000 -0.125938 0.976334 -0.175815
