//X Y Z R G B PointSourceId ScanDirectionFlag NumberOfReturns ReturnNumber GpsTime Intensity Classification Nx Ny Nz
15130.00000000 9380.00000000 350.00000000 77 214 110 0.000000 0.000000 0.000000 0.000000 -60.708740 0.000000 71.000000 0.561474 0.291076 0.774611
15090.00000000 9370.00000000 380.00000000 77 214 110 0.000000 0.000000 0.000000 0.000000 -60.708740 0.000000 71.000000 0.508532 0.151822 0.847553
15090.00000000 9370.00000000 380.00000000 77 214 110 0.000000 0.000000 0.000000 0.000000 -60.708740 0.000000 71.000000 0.508532 0.151822 0.847553
15080.00000000 9360.00000000 400.00000000 77 214 110 0.000000 0.000000 0.000000 0.000000 -60.708740 0.000000 71.000000 0.551761 0.162986 0.817922
15080.00000000 9320.00000000 320.00000000 77 214 110 0.000000 0.000000 0.000000 0.000000 -60.708740 0.000000 71.000000 0.683012 0.095475 0.724140
15090.00000000 9300.00000000 410.00000000 77 214 110 0.000000 0.000000 0.000000 0.000000 -60.708740 0.000000 71.000000 0.633354 0.472076 0.613194
15070.00000000 9240.00000000 420.00000000 77 214 110 0.000000 0.000000 0.000000 0.000000 -60.708740 0.000000 71.000000 0.543519 -0.247621 0.802042
15120.00000000 9300.00000000 340.00000000 77 214 110 0.000000 0.000000 0.000000 0.000000 -60.708740 0.000000 71.000000 0.400237 0.419371 0.814824
15090.00000000 9290.00000000 340.00000000 77 214 110 0.000000 0.000000 0.000000 0.000000 -60.708740 0.000000 71.000000 0.486974 0.012074 0.873333
15090.00000000 9250.00000000 390.00000000 77 214 110 0.000000 0.000000 0.000000 0.000000 -60.708740 0.000000 71.000000 0.492431 0.522478 0.696081
15080.00000000 9240.00000000 330.00000000 77 214 110 0.000000 0.000000 0.000000 0.000000 -60.708740 0.000000 71.000000 0.424615 -0.072362 0.902478
15090.00000000 9250.00000000 340.00000000 77 214 110 0.000000 0.000000 0.000000 0.000000 -60.708740 0.000000 71.000000 0.478619 -0.067978 0.875387
15020.00000000 9340.00000000 440.00000000 77 214 110 0.000000 0.000000 0.000000 0.000000 -60.708740 0.000000 71.000000 0.361525 -0.003806 0.932355
15060.00000000 9360.00000000 320.00000000 77 214 110 0.000000 0.000000 0.000000 0.000000 -60.708740 0.000000 71.000000 0.692550 0.258319 0.673532
15050.00000000 9390.00000000 330.00000000 77 214 110 0.000000 0.000000 0.000000 0.000000 -60.708740 0.000000 71.000000 0.526406 0.313299 0.790405
15060.00000000 9320.00000000 380.00000000 77 214 110 0.000000 0.000000 0.000000 0.000000 -60.708740 0.000000 71.000000 0.588244 -0.177841 0.788886
15060.00000000 9330.00000000 380.00000000 77 214 110 0.000000 0.000000 0.000000 0.000000 -60.708740 0.000000 71.000000 0.602547 0.184578 0.776446
15040.00000000 9320.00000000 360.00000000 77 214 110 0.000000 0.000000 0.000000 0.000000 -60.708740 0.000000 71.000000 0.652652 -0.032421 0.756964
15060.00000000 9320.00000000 380.00000000 77 214 110 0.000000 0.000000 0.000000 0.000000 -60.708740 0.000000 71.000000 0.588244 -0.177841 0.788886
15020.00000000 9370.00000000 340.00000000 77 214 110 0.000000 0.000000 0.000000 0.000000 -60.708740 0.000000 71.000000 0.765128 0.507367 0.396431
15020.00000000 9340.00000000 320.00000000 77 214 110 0.000000 0.000000 0.000000 0.000000 -60.708740 0.000000 71.000000 0.671804 0.133164 0.728661
15010.00000000 9340.00000000 330.00000000 77 214 110 0.000000 0.000000 0.000000 0.000000 -60.708740 0.000000 71.000000 0.856340 0.405797 0.319392
15030.00000000 9310.00000000 450.00000000 77 214 110 0.000000 0.000000 0.000000 0.000000 -60.708740 0.000000 71.000000 0.619788 0.369900 0.692124
14990.00000000 9290.00000000 430.00000000 77 214 110 0.000000 0.000000 0.000000 0.000000 -60.708740 0.000000 71.000000 0.350034 -0.214630 0.911817
15000.00000000 9230.00000000 450.00000000 77 214 110 0.000000 0.000000 0.000000 0.000000 -60.708740 0.000000 71.000000 0.241235 0.114813 0.963651
15000.00000000 9270.00000000 450.00000000 77 214 110 0.000000 0.000000 0.000000 0.000000 -60.708740 0.000000 71.000000 0.113882 0.157966 0.980856
15020.00000000 9260.00000000 450.00000000 77 214 110 0.000000 0.000000 0.000000 0.000000 -60.708740 0.000000 71.000000 0.250594 -0.244994 0.936579
15000.00000000 9240.00000000 430.00000000 77 214 110 0.000000 0.000000 0.000000 0.000000 -60.708740 0.000000 71.000000 0.442503 0.256986 0.859156
15040.00000000 9280.00000000 340.00000000 77 214 110 0.000000 0.000000 0.000000 0.000000 -60.708740 0.000000 71.000000 0.714772 0.346803 0.607312
15050.00000000 9310.00000000 340.00000000 77 214 110 0.000000 0.000000 0.000000 0.000000 -60.708740 0.000000 71.000000 0.717967 0.244582 0.651693
15060.00000000 9310.00000000 330.00000000 77 214 110 0.000000 0.000000 0.000000 0.000000 -60.708740 0.000000 71.000000 0.656993 -0.035322 0.753069
15050.00000000 9310.00000000 340.00000000 77 214 110 0.000000 0.000000 0.000000 0.000000 -60.708740 0.000000 71.000000 0.717967 0.244582 0.651693
15060.00000000 9270.00000000 400.00000000 77 214 110 0.000000 0.000000 0.000000 0.000000 -60.708740 0.000000 71.000000 0.466754 0.011968 0.884306
15020.00000000 9250.00000000 360.00000000 77 214 110 0.000000 0.000000 0.000000 0.000000 -60.708740 0.000000 71.000000 0.553630 0.051859 0.831146
15020.00000000 9260.00000000 400.00000000 77 214 110 0.000000 0.000000 0.000000 0.000000 -60.708740 0.000000 71.000000 0.674890 0.369465 0.638764
15000.00000000 9230.00000000 400.00000000 77 214 110 0.000000 0.000000 0.000000 0.000000 -60.708740 0.000000 71.000000 0.197427 -0.306641 0.931125
14990.00000000 9240.00000000 380.00000000 77 214 110 0.000000 0.000000 0.000000 0.000000 -60.708740 0.000000 71.000000 0.480840 0.390177 0.785210
15150.00000000 9090.00000000 500.00000000 77 214 110 0.000000 0.000000 0.000000 0.000000 -60.708740 0.000000 71.000000 0.500959 0.311321 0.807539
15020.00000000 9090.00000000 510.00000000 77 214 110 0.000000 0.000000 0.000000 0.000000 -60.708740 0.000000 71.000000 -0.106922 -0.207555 0.972362
15150.00000000 9150.00000000 480.00000000 77 214 110 0.000000 0.000000 0.000000 0.000000 -60.708740 0.000000 71.000000 0.320626 -0.381990 0.866765
15080.00000000 9150.00000000 370.00000000 77 214 110 0.000000 0.000000 0.000000 0.000000 -60.708740 0.000000 71.000000 0.293304 -0.006136 0.955999
15090.00000000 9090.00000000 450.00000000 77 214 110 0.000000 0.000000 0.000000 0.000000 -60.708740 0.000000 71.000000 0.159490 -0.047731 0.986045
15120.00000000 9100.00000000 340.00000000 77 214 110 0.000000 0.000000 0.000000 0.000000 -60.708740 0.000000 71.000000 0.568802 0.020659 0.822215
15090.00000000 9140.00000000 360.00000000 77 214 110 0.000000 0.000000 0.000000 0.000000 -60.708740 0.000000 71.000000 0.137038 0.051821 0.989209
15070.00000000 9120.00000000 320.00000000 77 214 110 0.000000 0.000000 0.000000 0.000000 -60.708740 0.000000 71.000000 0.287158 -0.295904 0.911033
15100.00000000 9090.00000000 360.00000000 77 214 110 0.000000 0.000000 0.000000 0.000000 -60.708740 0.000000 71.000000 0.193045 -0.108354 0.975189
15100.00000000 9070.00000000 320.00000000 77 214 110 0.000000 0.000000 0.000000 0.000000 -60.708740 0.000000 71.000000 -0.622928 0.388297 -0.679107
14990.00000000 9190.00000000 440.00000000 77 214 110 0.000000 0.000000 0.000000 0.000000 -60.708740 0.000000 71.000000 0.002967 0.010880 0.999936
15010.00000000 9200.00000000 430.00000000 77 214 110 0.000000 0.000000 0.000000 0.000000 -60.708740 0.000000 71.000000 0.207903 0.046868 0.977026
14990.00000000 9220.00000000 430.00000000 77 214 110 0.000000 0.000000 0.000000 0.000000 -60.708740 0.000000 71.000000 0.222778 -0.334885 0.915545
14990.00000000 9160.00000000 460.00000000 77 214 110 0.000000 0.000000 0.000000 0.000000 -60.708740 0.000000 71.000000 -0.111197 -0.157630 0.981218
14990.00000000 9180.00000000 440.00000000 77 214 110 0.000000 0.000000 0.000000 0.000000 -60.708740 0.000000 71.000000 0.115253 -0.392970 0.912300
15050.00000000 9200.00000000 380.00000000 77 214 110 0.000000 0.000000 0.000000 0.000000 -60.708740 0.000000 71.000000 0.590282 0.221549 0.776198
15050.00000000 9210.00000000 380.00000000 77 214 110 0.000000 0.000000 0.000000 0.000000 -60.708740 0.000000 71.000000 0.592312 0.303379 0.746410
15050.00000000 9210.00000000 380.00000000 77 214 110 0.000000 0.000000 0.000000 0.000000 -60.708740 0.000000 71.000000 0.592312 0.303379 0.746410
15030.00000000 9210.00000000 340.00000000 77 214 110 0.000000 0.000000 0.000000 0.000000 -60.708740 0.000000 71.000000 0.226366 -0.191541 0.955024
15050.00000000 9220.00000000 340.00000000 77 214 110 0.000000 0.000000 0.000000 0.000000 -60.708740 0.000000 71.000000 0.517674 0.042794 0.854507
15040.00000000 9150.00000000 370.00000000 77 214 110 0.000000 0.000000 0.000000 0.000000 -60.708740 0.000000 71.000000 0.492212 0.009388 0.870425
15060.00000000 9170.00000000 370.00000000 77 214 110 0.000000 0.000000 0.000000 0.000000 -60.708740 0.000000 71.000000 0.589441 -0.171226 0.789456
15040.00000000 9160.00000000 370.00000000 77 214 110 0.000000 0.000000 0.000000 0.000000 -60.708740 0.000000 71.000000 0.453767 -0.339930 0.823737
15040.00000000 9180.00000000 360.00000000 77 214 110 0.000000 0.000000 0.000000 0.000000 -60.708740 0.000000 71.000000 0.414709 -0.348982 0.840374
15040.00000000 9170.00000000 350.00000000 77 214 110 0.000000 0.000000 0.000000 0.000000 -60.708740 0.000000 71.000000 0.194980 -0.283482 0.938947
15020.00000000 9190.00000000 350.00000000 77 214 110 0.000000 0.000000 0.000000 0.000000 -60.708740 0.000000 71.000000 0.143606 -0.109817 0.983523
15010.00000000 9170.00000000 370.00000000 77 214 110 0.000000 0.000000 0.000000 0.000000 -60.708740 0.000000 71.000000 0.296474 0.147560 0.943573
14990.00000000 9140.00000000 460.00000000 77 214 110 0.000000 0.000000 0.000000 0.000000 -60.708740 0.000000 71.000000 0.070741 0.086461 0.993741
15040.00000000 9110.00000000 380.00000000 77 214 110 0.000000 0.000000 0.000000 0.000000 -60.708740 0.000000 71.000000 0.474313 -0.112525 0.873135
15040.00000000 9110.00000000 380.00000000 77 214 110 0.000000 0.000000 0.000000 0.000000 -60.708740 0.000000 71.000000 0.474313 -0.112525 0.873135
15040.00000000 9120.00000000 350.00000000 77 214 110 0.000000 0.000000 0.000000 0.000000 -60.708740 0.000000 71.000000 0.583203 0.058178 0.810241
15060.00000000 9120.00000000 340.00000000 77 214 110 0.000000 0.000000 0.000000 0.000000 -60.708740 0.000000 71.000000 0.667587 0.098304 0.738014
15040.00000000 9120.00000000 350.00000000 77 214 110 0.000000 0.000000 0.000000 0.000000 -60.708740 0.000000 71.000000 0.583203 0.058178 0.810241
15050.00000000 9090.00000000 360.00000000 77 214 110 0.000000 0.000000 0.000000 0.000000 -60.708740 0.000000 71.000000 0.186543 -0.391886 0.900903
15060.00000000 9090.00000000 370.00000000 77 214 110 0.000000 0.000000 0.000000 0.000000 -60.708740 0.000000 71.000000 -0.026679 -0.329044 0.943938
15020.00000000 9080.00000000 370.00000000 77 214 110 0.000000 0.000000 0.000000 0.000000 -60.708740 0.000000 71.000000 0.331281 0.055863 0.941877
14830.00000000 9320.00000000 510.00000000 77 214 110 0.000000 0.000000 0.000000 0.000000 -60.708740 0.000000 71.000000 0.450045 -0.067438 0.890456
14880.00000000 9230.00000000 520.00000000 77 214 110 0.000000 0.000000 0.000000 0.000000 -60.708740 0.000000 71.000000 0.340377 -0.610724 0.714954
14880.00000000 9230.00000000 520.00000000 77 214 110 0.000000 0.000000 0.000000 0.000000 -60.708740 0.000000 71.000000 0.340377 -0.610724 0.714954
14890.00000000 9260.00000000 500.00000000 77 214 110 0.000000 0.000000 0.000000 0.000000 -60.708740 0.000000 71.000000 0.596877 -0.313723 0.738455
14950.00000000 9380.00000000 410.00000000 77 214 110 0.000000 0.000000 0.000000 0.000000 -60.708740 0.000000 71.000000 0.459620 0.453077 0.763852
14960.00000000 9390.00000000 350.00000000 77 214 110 0.000000 0.000000 0.000000 0.000000 -60.708740 0.000000 71.000000 0.504857 0.381484 0.774331
14980.00000000 9330.00000000 370.00000000 77 214 110 0.000000 0.000000 0.000000 0.000000 -60.708740 0.000000 71.000000 0.311307 0.125332 0.942008
14970.00000000 9350.00000000 350.00000000 77 214 110 0.000000 0.000000 0.000000 0.000000 -60.708740 0.000000 71.000000 0.676068 0.398368 0.619867
14910.00000000 9390.00000000 380.00000000 77 214 110 0.000000 0.000000 0.000000 0.000000 -60.708740 0.000000 71.000000 0.358442 0.202973 0.911220
14910.00000000 9390.00000000 380.00000000 77 214 110 0.000000 0.000000 0.000000 0.000000 -60.708740 0.000000 71.000000 0.358442 0.202973 0.911220
14920.00000000 9340.00000000 380.00000000 77 214 110 0.000000 0.000000 0.000000 0.000000 -60.708740 0.000000 71.000000 0.376760 0.156631 0.912973
14960.00000000 9240.00000000 450.00000000 77 214 110 0.000000 0.000000 0.000000 0.000000 -60.708740 0.000000 71.000000 0.124124 0.027956 0.991873
14970.00000000 9230.00000000 390.00000000 77 214 110 0.000000 0.000000 0.000000 0.000000 -60.708740 0.000000 71.000000 0.250789 -0.296647 0.921469
14920.00000000 9260.00000000 370.00000000 77 214 110 0.000000 0.000000 0.000000 0.000000 -60.708740 0.000000 71.000000 0.284358 -0.399926 0.871321
14890.00000000 9320.00000000 330.00000000 77 214 110 0.000000 0.000000 0.000000 0.000000 -60.708740 0.000000 71.000000 0.589756 0.339557 0.732727
14870.00000000 9300.00000000 460.00000000 77 214 110 0.000000 0.000000 0.000000 0.000000 -60.708740 0.000000 71.000000 0.391373 -0.501801 0.771377
14860.00000000 9300.00000000 470.00000000 77 214 110 0.000000 0.000000 0.000000 0.000000 -60.708740 0.000000 71.000000 0.608304 -0.288984 0.739225
14870.00000000 9300.00000000 450.00000000 77 214 110 0.000000 0.000000 0.000000 0.000000 -60.708740 0.000000 71.000000 0.349298 0.244070 0.904666
14980.00000000 9220.00000000 490.00000000 77 214 110 0.000000 0.000000 0.000000 0.000000 -60.708740 0.000000 71.000000 0.180964 0.081373 0.980118
14910.00000000 9160.00000000 510.00000000 77 214 110 0.000000 0.000000 0.000000 0.000000 -60.708740 0.000000 71.000000 0.096906 -0.559743 0.822981
14900.00000000 9160.00000000 510.00000000 77 214 110 0.000000 0.000000 0.000000 0.000000 -60.708740 0.000000 71.000000 -0.092400 -0.501804 0.860032
14970.00000000 9070.00000000 530.00000000 77 214 110 0.000000 0.000000 0.000000 0.000000 -60.708740 0.000000 71.000000 -0.164389 -0.313583 0.935223
14890.00000000 9160.00000000 610.00000000 77 214 110 0.000000 0.000000 0.000000 0.000000 -60.708740 0.000000 71.000000 0.325996 -0.554033 0.766011
14820.00000000 9190.00000000 540.00000000 77 214 110 0.000000 0.000000 0.000000 0.000000 -60.708740 0.000000 71.000000 0.337498 -0.286947 0.896525
14850.00000000 9200.00000000 540.00000000 77 214 110 0.000000 0.000000 0.000000 0.000000 -60.708740 0.000000 71.000000 -0.061904 -0.683826 0.727015
14820.00000000 9220.00000000 550.00000000 77 214 110 0.000000 0.000000 0.000000 0.000000 -60.708740 0.000000 71.000000 0.427956 -0.147423 0.891695
14840.00000000 9220.00000000 500.00000000 77 214 110 0.000000 0.000000 0.000000 0.000000 -60.708740 0.000000 71.000000 0.458830 -0.468697 0.754849
14870.00000000 9100.00000000 600.00000000 77 214 110 0.000000 0.000000 0.000000 0.000000 -60.708740 0.000000 71.000000 0.247462 -0.622596 0.742386
14860.00000000 9100.00000000 600.00000000 77 214 110 0.000000 0.000000 0.000000 0.000000 -60.708740 0.000000 71.000000 0.459840 -0.379728 0.802717
14850.00000000 9110.00000000 610.00000000 77 214 110 0.000000 0.000000 0.000000 0.000000 -60.708740 0.000000 71.000000 -0.206326 -0.690339 0.693442
14850.00000000 9110.00000000 610.00000000 77 214 110 0.000000 0.000000 0.000000 0.000000 -60.708740 0.000000 71.000000 -0.206326 -0.690339 0.693442
14840.00000000 9110.00000000 540.00000000 77 214 110 0.000000 0.000000 0.000000 0.000000 -60.708740 0.000000 71.000000 0.192732 0.698460 -0.689209
14830.00000000 9140.00000000 500.00000000 77 214 110 0.000000 0.000000 0.000000 0.000000 -60.708740 0.000000 71.000000 0.206673 -0.669743 0.713253
14950.00000000 9190.00000000 450.00000000 77 214 110 0.000000 0.000000 0.000000 0.000000 -60.708740 0.000000 71.000000 0.013560 0.057371 0.998261
14970.00000000 9200.00000000 460.00000000 77 214 110 0.000000 0.000000 0.000000 0.000000 -60.708740 0.000000 71.000000 0.225981 0.209743 0.951284
14980.00000000 9160.00000000 460.00000000 77 214 110 0.000000 0.000000 0.000000 0.000000 -60.708740 0.000000 71.000000 0.048807 -0.063992 0.996756
14940.00000000 9220.00000000 450.00000000 77 214 110 0.000000 0.000000 0.000000 0.000000 -60.708740 0.000000 71.000000 -0.072647 -0.271469 0.959701
14940.00000000 9220.00000000 450.00000000 77 214 110 0.000000 0.000000 0.000000 0.000000 -60.708740 0.000000 71.000000 -0.072647 -0.271469 0.959701
14920.00000000 9220.00000000 420.00000000 77 214 110 0.000000 0.000000 0.000000 0.000000 -60.708740 0.000000 71.000000 0.106506 -0.470048 0.876192
14920.00000000 9220.00000000 420.00000000 77 214 110 0.000000 0.000000 0.000000 0.000000 -60.708740 0.000000 71.000000 0.106506 -0.470048 0.876192
14940.00000000 9190.00000000 430.00000000 77 214 110 0.000000 0.000000 0.000000 0.000000 -60.708740 0.000000 71.000000 -0.138166 -0.188869 0.972234
14930.00000000 9180.00000000 470.00000000 77 214 110 0.000000 0.000000 0.000000 0.000000 -60.708740 0.000000 71.000000 -0.029997 -0.379529 0.924694
14920.00000000 9170.00000000 410.00000000 77 214 110 0.000000 0.000000 0.000000 0.000000 -60.708740 0.000000 71.000000 0.023528 0.023528 0.999446
14920.00000000 9150.00000000 420.00000000 77 214 110 0.000000 0.000000 0.000000 0.000000 -60.708740 0.000000 71.000000 -0.085213 -0.054226 0.994886
14960.00000000 9210.00000000 360.00000000 77 214 110 0.000000 0.000000 0.000000 0.000000 -60.708740 0.000000 71.000000 0.524878 0.221887 0.821748
14980.00000000 9210.00000000 350.00000000 77 214 110 0.000000 0.000000 0.000000 0.000000 -60.708740 0.000000 71.000000 0.438720 0.287862 0.851270
14900.00000000 9210.00000000 400.00000000 77 214 110 0.000000 0.000000 0.000000 0.000000 -60.708740 0.000000 71.000000 -0.045145 0.032547 0.998450
14930.00000000 9210.00000000 370.00000000 77 214 110 0.000000 0.000000 0.000000 0.000000 -60.708740 0.000000 71.000000 0.327688 -0.482825 0.812096
14910.00000000 9220.00000000 340.00000000 77 214 110 0.000000 0.000000 0.000000 0.000000 -60.708740 0.000000 71.000000 0.048788 -0.378439 0.924340
14980.00000000 9110.00000000 480.00000000 77 214 110 0.000000 0.000000 0.000000 0.000000 -60.708740 0.000000 71.000000 0.236675 -0.631656 0.738238
14970.00000000 9120.00000000 460.00000000 77 214 110 0.000000 0.000000 0.000000 0.000000 -60.708740 0.000000 71.000000 0.024500 -0.367497 0.929702
14970.00000000 9120.00000000 460.00000000 77 214 110 0.000000 0.000000 0.000000 0.000000 -60.708740 0.000000 71.000000 0.024500 -0.367497 0.929702
14950.00000000 9140.00000000 450.00000000 77 214 110 0.000000 0.000000 0.000000 0.000000 -60.708740 0.000000 71.000000 -0.168932 -0.330883 0.928428
14940.00000000 9120.00000000 470.00000000 77 214 110 0.000000 0.000000 0.000000 0.000000 -60.708740 0.000000 71.000000 -0.061465 -0.627515 0.776175
14910.00000000 9100.00000000 460.00000000 77 214 110 0.000000 0.000000 0.000000 0.000000 -60.708740 0.000000 71.000000 -0.089109 -0.720179 0.688042
15070.00000000 9370.00000000 300.00000000 77 214 110 0.000000 0.000000 0.000000 0.000000 -60.708740 0.000000 71.000000 0.563616 0.418167 0.712371
15110.00000000 9360.00000000 290.00000000 77 214 110 0.000000 0.000000 0.000000 0.000000 -60.708740 0.000000 71.000000 0.705048 0.620377 0.343568
15080.00000000 9360.00000000 270.00000000 77 214 110 0.000000 0.000000 0.000000 0.000000 -60.708740 0.000000 71.000000 0.555504 0.672983 0.488374
15110.00000000 9380.00000000 250.00000000 77 214 110 0.000000 0.000000 0.000000 0.000000 -60.708740 0.000000 71.000000 0.538230 0.828845 0.152721
15090.00000000 9360.00000000 270.00000000 77 214 110 0.000000 0.000000 0.000000 0.000000 -60.708740 0.000000 71.000000 0.563260 0.780991 0.269797
15070.00000000 9350.00000000 300.00000000 77 214 110 0.000000 0.000000 0.000000 0.000000 -60.708740 0.000000 71.000000 0.519153 0.312762 0.795399
15080.00000000 9330.00000000 310.00000000 77 214 110 0.000000 0.000000 0.000000 0.000000 -60.708740 0.000000 71.000000 0.478340 0.397265 0.783180
15090.00000000 9370.00000000 190.00000000 77 214 110 0.000000 0.000000 0.000000 0.000000 -60.708740 0.000000 71.000000 0.490003 0.858603 0.150658
15130.00000000 9370.00000000 170.00000000 77 214 110 0.000000 0.000000 0.000000 0.000000 -60.708740 0.000000 71.000000 0.918979 0.389262 0.062870
15120.00000000 9280.00000000 280.00000000 77 214 110 0.000000 0.000000 0.000000 0.000000 -60.708740 0.000000 71.000000 0.789869 0.064275 0.609899
15140.00000000 9300.00000000 270.00000000 77 214 110 0.000000 0.000000 0.000000 0.000000 -60.708740 0.000000 71.000000 0.858009 0.086510 0.506296
15130.00000000 9250.00000000 300.00000000 77 214 110 0.000000 0.000000 0.000000 0.000000 -60.708740 0.000000 71.000000 0.815954 0.303428 0.492088
15130.00000000 9250.00000000 270.00000000 77 214 110 0.000000 0.000000 0.000000 0.000000 -60.708740 0.000000 71.000000 0.724814 0.264866 0.635996
15100.00000000 9290.00000000 290.00000000 77 214 110 0.000000 0.000000 0.000000 0.000000 -60.708740 0.000000 71.000000 0.486938 0.437753 0.755820
15080.00000000 9310.00000000 310.00000000 77 214 110 0.000000 0.000000 0.000000 0.000000 -60.708740 0.000000 71.000000 0.647448 0.258029 0.717100
15020.00000000 9340.00000000 310.00000000 77 214 110 0.000000 0.000000 0.000000 0.000000 -60.708740 0.000000 71.000000 0.554227 0.112009 0.824795
15130.00000000 9360.00000000 140.00000000 77 214 110 0.000000 0.000000 0.000000 0.000000 -60.708740 0.000000 71.000000 0.748282 0.619647 -0.236878
15120.00000000 9370.00000000 110.00000000 77 214 110 0.000000 0.000000 0.000000 0.000000 -60.708740 0.000000 71.000000 0.572215 0.818055 0.057928
15120.00000000 9370.00000000 130.00000000 77 214 110 0.000000 0.000000 0.000000 0.000000 -60.708740 0.000000 71.000000 0.770366 0.577379 -0.270498
15120.00000000 9360.00000000 130.00000000 77 214 110 0.000000 0.000000 0.000000 0.000000 -60.708740 0.000000 71.000000 0.742234 0.662866 -0.098475
15120.00000000 9370.00000000 110.00000000 77 214 110 0.000000 0.000000 0.000000 0.000000 -60.708740 0.000000 71.000000 0.572215 0.818055 0.057928
15140.00000000 9350.00000000 130.00000000 77 214 110 0.000000 0.000000 0.000000 0.000000 -60.708740 0.000000 71.000000 0.906929 0.370558 0.200418
15130.00000000 9350.00000000 110.00000000 77 214 110 0.000000 0.000000 0.000000 0.000000 -60.708740 0.000000 71.000000 0.796720 0.603491 0.032205
15090.00000000 9250.00000000 10.00000000 77 214 110 0.000000 0.000000 0.000000 0.000000 -60.708740 0.000000 71.000000 0.344066 0.792152 -0.504097
15080.00000000 9230.00000000 50.00000000 77 214 110 0.000000 0.000000 0.000000 0.000000 -60.708740 0.000000 71.000000 0.754401 0.636004 -0.162416
15030.00000000 9310.00000000 70.00000000 77 214 110 0.000000 0.000000 0.000000 0.000000 -60.708740 0.000000 71.000000 0.842116 0.443629 -0.306649
15090.00000000 9220.00000000 150.00000000 77 214 110 0.000000 0.000000 0.000000 0.000000 -60.708740 0.000000 71.000000 0.528459 0.809056 0.257214
15030.00000000 9210.00000000 190.00000000 77 214 110 0.000000 0.000000 0.000000 0.000000 -60.708740 0.000000 71.000000 0.607254 0.340258 0.717960
14990.00000000 9150.00000000 150.00000000 77 214 110 0.000000 0.000000 0.000000 0.000000 -60.708740 0.000000 71.000000 0.853985 0.232078 0.465672
14990.00000000 9150.00000000 150.00000000 77 214 110 0.000000 0.000000 0.000000 0.000000 -60.708740 0.000000 71.000000 0.853985 0.232078 0.465672
15010.00000000 9150.00000000 210.00000000 77 214 110 0.000000 0.000000 0.000000 0.000000 -60.708740 0.000000 71.000000 0.657648 -0.088950 0.748056
15010.00000000 9220.00000000 190.00000000 77 214 110 0.000000 0.000000 0.000000 0.000000 -60.708740 0.000000 71.000000 0.572829 0.576208 0.582967
14990.00000000 9080.00000000 250.00000000 77 214 110 0.000000 0.000000 0.000000 0.000000 -60.708740 0.000000 71.000000 0.038125 -0.634007 0.772387
15060.00000000 9070.00000000 150.00000000 77 214 110 0.000000 0.000000 0.000000 0.000000 -60.708740 0.000000 71.000000 0.511575 0.113843 0.851664
15110.00000000 9200.00000000 140.00000000 77 214 110 0.000000 0.000000 0.000000 0.000000 -60.708740 0.000000 71.000000 0.935778 0.343782 0.078313
15100.00000000 9190.00000000 90.00000000 77 214 110 0.000000 0.000000 0.000000 0.000000 -60.708740 0.000000 71.000000 0.891185 0.449025 0.064539
15130.00000000 9200.00000000 10.00000000 77 214 110 0.000000 0.000000 0.000000 0.000000 -60.708740 0.000000 71.000000 0.271259 0.756671 -0.594867
15150.00000000 9190.00000000 20.00000000 77 214 110 0.000000 0.000000 0.000000 0.000000 -60.708740 0.000000 71.000000 0.433611 0.900577 -0.030686
15080.00000000 9220.00000000 60.00000000 77 214 110 0.000000 0.000000 0.000000 0.000000 -60.708740 0.000000 71.000000 0.812590 0.552319 -0.186124
15140.00000000 9110.00000000 80.00000000 77 214 110 0.000000 0.000000 0.000000 0.000000 -60.708740 0.000000 71.000000 0.659876 0.579281 0.478536
15090.00000000 9070.00000000 80.00000000 77 214 110 0.000000 0.000000 0.000000 0.000000 -60.708740 0.000000 71.000000 0.570656 0.651457 0.499955
15130.00000000 9140.00000000 60.00000000 77 214 110 0.000000 0.000000 0.000000 0.000000 -60.708740 0.000000 71.000000 0.887422 0.434332 0.154397
15150.00000000 9120.00000000 10.00000000 77 214 110 0.000000 0.000000 0.000000 0.000000 -60.708740 0.000000 71.000000 0.414740 0.831058 -0.370585
15150.00000000 9120.00000000 20.00000000 77 214 110 0.000000 0.000000 0.000000 0.000000 -60.708740 0.000000 71.000000 0.577789 0.728375 -0.368279
15130.00000000 9100.00000000 40.00000000 77 214 110 0.000000 0.000000 0.000000 0.000000 -60.708740 0.000000 71.000000 0.725861 0.682047 0.089090
15140.00000000 9090.00000000 40.00000000 77 214 110 0.000000 0.000000 0.000000 0.000000 -60.708740 0.000000 71.000000 0.746470 0.664627 0.032455
15090.00000000 9100.00000000 40.00000000 77 214 110 0.000000 0.000000 0.000000 0.000000 -60.708740 0.000000 71.000000 0.639474 0.681996 -0.354900
15040.00000000 9160.00000000 100.00000000 77 214 110 0.000000 0.000000 0.000000 0.000000 -60.708740 0.000000 71.000000 0.858226 0.495186 0.135051
15030.00000000 9200.00000000 50.00000000 77 214 110 0.000000 0.000000 0.000000 0.000000 -60.708740 0.000000 71.000000 0.616875 0.579694 -0.532372
15030.00000000 9200.00000000 50.00000000 77 214 110 0.000000 0.000000 0.000000 0.000000 -60.708740 0.000000 71.000000 0.616875 0.579694 -0.532372
15030.00000000 9200.00000000 50.00000000 77 214 110 0.000000 0.000000 0.000000 0.000000 -60.708740 0.000000 71.000000 0.616875 0.579694 -0.532372
15050.00000000 9200.00000000 60.00000000 77 214 110 0.000000 0.000000 0.000000 0.000000 -60.708740 0.000000 71.000000 0.259850 0.844129 -0.468961
15020.00000000 9190.00000000 30.00000000 77 214 110 0.000000 0.000000 0.000000 0.000000 -60.708740 0.000000 71.000000 0.073686 -0.767198 0.637164
15020.00000000 9190.00000000 40.00000000 77 214 110 0.000000 0.000000 0.000000 0.000000 -60.708740 0.000000 71.000000 0.208996 0.822255 -0.529355
15010.00000000 9200.00000000 40.00000000 77 214 110 0.000000 0.000000 0.000000 0.000000 -60.708740 0.000000 71.000000 0.241485 0.793005 -0.559310
15050.00000000 9110.00000000 120.00000000 77 214 110 0.000000 0.000000 0.000000 0.000000 -60.708740 0.000000 71.000000 0.644582 0.637920 0.421393
15060.00000000 9080.00000000 140.00000000 77 214 110 0.000000 0.000000 0.000000 0.000000 -60.708740 0.000000 71.000000 0.607528 -0.246465 0.755093
15010.00000000 9120.00000000 110.00000000 77 214 110 0.000000 0.000000 0.000000 0.000000 -60.708740 0.000000 71.000000 0.718509 0.516065 0.466284
14990.00000000 9120.00000000 140.00000000 77 214 110 0.000000 0.000000 0.000000 0.000000 -60.708740 0.000000 71.000000 0.345840 0.024247 0.937980
15000.00000000 9140.00000000 140.00000000 77 214 110 0.000000 0.000000 0.000000 0.000000 -60.708740 0.000000 71.000000 0.512590 0.051398 0.857094
15010.00000000 9120.00000000 120.00000000 77 214 110 0.000000 0.000000 0.000000 0.000000 -60.708740 0.000000 71.000000 0.773488 0.521579 0.360100
15010.00000000 9130.00000000 110.00000000 77 214 110 0.000000 0.000000 0.000000 0.000000 -60.708740 0.000000 71.000000 0.782271 0.369361 0.501621
15010.00000000 9130.00000000 110.00000000 77 214 110 0.000000 0.000000 0.000000 0.000000 -60.708740 0.000000 71.000000 0.782271 0.369361 0.501621
14990.00000000 9140.00000000 140.00000000 77 214 110 0.000000 0.000000 0.000000 0.000000 -60.708740 0.000000 71.000000 0.761919 -0.136217 0.633186
15000.00000000 9130.00000000 130.00000000 77 214 110 0.000000 0.000000 0.000000 0.000000 -60.708740 0.000000 71.000000 0.613432 -0.101019 0.783260
15060.00000000 9100.00000000 50.00000000 77 214 110 0.000000 0.000000 0.000000 0.000000 -60.708740 0.000000 71.000000 0.613459 0.646890 -0.452990
14970.00000000 9340.00000000 260.00000000 77 214 110 0.000000 0.000000 0.000000 0.000000 -60.708740 0.000000 71.000000 0.863684 0.482090 0.147103
14900.00000000 9340.00000000 310.00000000 77 214 110 0.000000 0.000000 0.000000 0.000000 -60.708740 0.000000 71.000000 0.324311 0.411208 0.851898
14950.00000000 9380.00000000 220.00000000 77 214 110 0.000000 0.000000 0.000000 0.000000 -60.708740 0.000000 71.000000 0.941295 0.331992 0.061191
14970.00000000 9350.00000000 150.00000000 77 214 110 0.000000 0.000000 0.000000 0.000000 -60.708740 0.000000 71.000000 0.721437 0.686316 -0.092192
14910.00000000 9380.00000000 150.00000000 77 214 110 0.000000 0.000000 0.000000 0.000000 -60.708740 0.000000 71.000000 0.562304 0.811217 -0.160444
14930.00000000 9320.00000000 150.00000000 77 214 110 0.000000 0.000000 0.000000 0.000000 -60.708740 0.000000 71.000000 0.713903 0.524195 -0.464287
14930.00000000 9340.00000000 160.00000000 77 214 110 0.000000 0.000000 0.000000 0.000000 -60.708740 0.000000 71.000000 0.725950 0.578465 -0.371988
14950.00000000 9310.00000000 160.00000000 77 214 110 0.000000 0.000000 0.000000 0.000000 -60.708740 0.000000 71.000000 0.675253 0.728680 0.114274
14920.00000000 9230.00000000 150.00000000 77 214 110 0.000000 0.000000 0.000000 0.000000 -60.708740 0.000000 71.000000 0.520612 0.850756 0.071954
14890.00000000 9380.00000000 220.00000000 77 214 110 0.000000 0.000000 0.000000 0.000000 -60.708740 0.000000 71.000000 0.631806 0.751711 -0.189081
14960.00000000 9390.00000000 110.00000000 77 214 110 0.000000 0.000000 0.000000 0.000000 -60.708740 0.000000 71.000000 0.402409 0.849876 -0.340261
14950.00000000 9370.00000000 80.00000000 77 214 110 0.000000 0.000000 0.000000 0.000000 -60.708740 0.000000 71.000000 0.696526 0.684060 -0.216593
14940.00000000 9390.00000000 110.00000000 77 214 110 0.000000 0.000000 0.000000 0.000000 -60.708740 0.000000 71.000000 0.653713 0.583132 -0.482303
14910.00000000 9390.00000000 110.00000000 77 214 110 0.000000 0.000000 0.000000 0.000000 -60.708740 0.000000 71.000000 -0.217812 -0.582376 0.783196
14930.00000000 9390.00000000 110.00000000 77 214 110 0.000000 0.000000 0.000000 0.000000 -60.708740 0.000000 71.000000 0.276375 0.650200 -0.707712
14930.00000000 9330.00000000 120.00000000 77 214 110 0.000000 0.000000 0.000000 0.000000 -60.708740 0.000000 71.000000 0.291084 0.854770 -0.429695
14940.00000000 9320.00000000 130.00000000 77 214 110 0.000000 0.000000 0.000000 0.000000 -60.708740 0.000000 71.000000 0.724786 0.687909 -0.038296
14960.00000000 9340.00000000 60.00000000 77 214 110 0.000000 0.000000 0.000000 0.000000 -60.708740 0.000000 71.000000 0.523309 0.647826 -0.553597
14960.00000000 9280.00000000 130.00000000 77 214 110 0.000000 0.000000 0.000000 0.000000 -60.708740 0.000000 71.000000 0.367051 0.893109 -0.260057
14960.00000000 9280.00000000 130.00000000 77 214 110 0.000000 0.000000 0.000000 0.000000 -60.708740 0.000000 71.000000 0.367051 0.893109 -0.260057
14980.00000000 9280.00000000 130.00000000 77 214 110 0.000000 0.000000 0.000000 0.000000 -60.708740 0.000000 71.000000 0.726946 0.659036 0.192926
14950.00000000 9240.00000000 140.00000000 77 214 110 0.000000 0.000000 0.000000 0.000000 -60.708740 0.000000 71.000000 0.781665 0.613850 -0.110405
14980.00000000 9230.00000000 120.00000000 77 214 110 0.000000 0.000000 0.000000 0.000000 -60.708740 0.000000 71.000000 0.732433 0.677753 -0.064753
14980.00000000 9260.00000000 70.00000000 77 214 110 0.000000 0.000000 0.000000 0.000000 -60.708740 0.000000 71.000000 0.715972 0.476761 -0.509984
14980.00000000 9260.00000000 70.00000000 77 214 110 0.000000 0.000000 0.000000 0.000000 -60.708740 0.000000 71.000000 0.715972 0.476761 -0.509984
14920.00000000 9300.00000000 120.00000000 77 214 110 0.000000 0.000000 0.000000 0.000000 -60.708740 0.000000 71.000000 0.533648 0.793346 -0.292952
14910.00000000 9290.00000000 110.00000000 77 214 110 0.000000 0.000000 0.000000 0.000000 -60.708740 0.000000 71.000000 -0.103755 -0.591840 0.799350
14910.00000000 9230.00000000 130.00000000 77 214 110 0.000000 0.000000 0.000000 0.000000 -60.708740 0.000000 71.000000 0.264938 0.721838 -0.639342
14920.00000000 9270.00000000 120.00000000 77 214 110 0.000000 0.000000 0.000000 0.000000 -60.708740 0.000000 71.000000 0.076118 0.805706 -0.587404
14910.00000000 9260.00000000 90.00000000 77 214 110 0.000000 0.000000 0.000000 0.000000 -60.708740 0.000000 71.000000 0.174058 -0.585743 0.791586
14930.00000000 9230.00000000 90.00000000 77 214 110 0.000000 0.000000 0.000000 0.000000 -60.708740 0.000000 71.000000 0.457671 0.621963 -0.635374
14920.00000000 9260.00000000 90.00000000 77 214 110 0.000000 0.000000 0.000000 0.000000 -60.708740 0.000000 71.000000 0.043504 -0.585192 0.809727
14910.00000000 9230.00000000 90.00000000 77 214 110 0.000000 0.000000 0.000000 0.000000 -60.708740 0.000000 71.000000 0.135669 -0.503288 0.853402
14920.00000000 9260.00000000 90.00000000 77 214 110 0.000000 0.000000 0.000000 0.000000 -60.708740 0.000000 71.000000 0.043504 -0.585192 0.809727
14880.00000000 9390.00000000 100.00000000 77 214 110 0.000000 0.000000 0.000000 0.000000 -60.708740 0.000000 71.000000 0.555754 0.589538 -0.586160
14890.00000000 9270.00000000 90.00000000 77 214 110 0.000000 0.000000 0.000000 0.000000 -60.708740 0.000000 71.000000 0.240710 -0.554410 0.796673
14860.00000000 9260.00000000 80.00000000 77 214 110 0.000000 0.000000 0.000000 0.000000 -60.708740 0.000000 71.000000 0.542730 -0.286397 0.789570
14950.00000000 9200.00000000 210.00000000 77 214 110 0.000000 0.000000 0.000000 0.000000 -60.708740 0.000000 71.000000 0.663983 0.044076 0.746448
14980.00000000 9170.00000000 160.00000000 77 214 110 0.000000 0.000000 0.000000 0.000000 -60.708740 0.000000 71.000000 0.694092 -0.140023 0.706137
14960.00000000 9160.00000000 180.00000000 77 214 110 0.000000 0.000000 0.000000 0.000000 -60.708740 0.000000 71.000000 0.336353 0.178732 0.924620
14900.00000000 9200.00000000 150.00000000 77 214 110 0.000000 0.000000 0.000000 0.000000 -60.708740 0.000000 71.000000 0.848617 0.463299 0.255350
14900.00000000 9190.00000000 150.00000000 77 214 110 0.000000 0.000000 0.000000 0.000000 -60.708740 0.000000 71.000000 0.714543 0.697359 -0.055846
14900.00000000 9160.00000000 190.00000000 77 214 110 0.000000 0.000000 0.000000 0.000000 -60.708740 0.000000 71.000000 0.026401 -0.593324 0.804531
14980.00000000 9090.00000000 260.00000000 77 214 110 0.000000 0.000000 0.000000 0.000000 -60.708740 0.000000 71.000000 0.199324 -0.635056 0.746307
14940.00000000 9140.00000000 250.00000000 77 214 110 0.000000 0.000000 0.000000 0.000000 -60.708740 0.000000 71.000000 0.141074 -0.420372 0.896318
14930.00000000 9130.00000000 240.00000000 77 214 110 0.000000 0.000000 0.000000 0.000000 -60.708740 0.000000 71.000000 -0.200478 -0.336973 0.919923
14920.00000000 9080.00000000 280.00000000 77 214 110 0.000000 0.000000 0.000000 0.000000 -60.708740 0.000000 71.000000 -0.481054 -0.313868 0.818580
14900.00000000 9090.00000000 260.00000000 77 214 110 0.000000 0.000000 0.000000 0.000000 -60.708740 0.000000 71.000000 0.138146 0.862324 -0.487148
14980.00000000 9110.00000000 190.00000000 77 214 110 0.000000 0.000000 0.000000 0.000000 -60.708740 0.000000 71.000000 -0.127848 -0.472606 0.871951
14980.00000000 9080.00000000 210.00000000 77 214 110 0.000000 0.000000 0.000000 0.000000 -60.708740 0.000000 71.000000 0.187550 -0.334206 0.923651
14950.00000000 9100.00000000 230.00000000 77 214 110 0.000000 0.000000 0.000000 0.000000 -60.708740 0.000000 71.000000 -0.214346 -0.581356 0.784908
14980.00000000 9080.00000000 210.00000000 77 214 110 0.000000 0.000000 0.000000 0.000000 -60.708740 0.000000 71.000000 0.187550 -0.334206 0.923651
14950.00000000 9100.00000000 190.00000000 77 214 110 0.000000 0.000000 0.000000 0.000000 -60.708740 0.000000 71.000000 0.232018 -0.471618 0.850732
14960.00000000 9100.00000000 150.00000000 77 214 110 0.000000 0.000000 0.000000 0.000000 -60.708740 0.000000 71.000000 -0.101062 0.768950 -0.631271
14920.00000000 9110.00000000 190.00000000 77 214 110 0.000000 0.000000 0.000000 0.000000 -60.708740 0.000000 71.000000 -0.266910 -0.576462 0.772302
14940.00000000 9130.00000000 160.00000000 77 214 110 0.000000 0.000000 0.000000 0.000000 -60.708740 0.000000 71.000000 0.109585 -0.471075 0.875260
14910.00000000 9080.00000000 220.00000000 77 214 110 0.000000 0.000000 0.000000 0.000000 -60.708740 0.000000 71.000000 -0.101407 0.739243 -0.665760
14910.00000000 9080.00000000 220.00000000 77 214 110 0.000000 0.000000 0.000000 0.000000 -60.708740 0.000000 71.000000 -0.101407 0.739243 -0.665760
14940.00000000 9100.00000000 190.00000000 77 214 110 0.000000 0.000000 0.000000 0.000000 -60.708740 0.000000 71.000000 -0.163639 -0.559975 0.812189
14880.00000000 9190.00000000 150.00000000 77 214 110 0.000000 0.000000 0.000000 0.000000 -60.708740 0.000000 71.000000 0.750255 0.658795 -0.055733
14870.00000000 9150.00000000 190.00000000 77 214 110 0.000000 0.000000 0.000000 0.000000 -60.708740 0.000000 71.000000 0.717057 0.541519 -0.438846
14890.00000000 9100.00000000 270.00000000 77 214 110 0.000000 0.000000 0.000000 0.000000 -60.708740 0.000000 71.000000 -0.058708 0.660102 -0.748879
14950.00000000 9220.00000000 110.00000000 77 214 110 0.000000 0.000000 0.000000 0.000000 -60.708740 0.000000 71.000000 0.687294 0.674536 -0.269496
14980.00000000 9220.00000000 110.00000000 77 214 110 0.000000 0.000000 0.000000 0.000000 -60.708740 0.000000 71.000000 0.606777 0.784805 -0.126103
14970.00000000 9200.00000000 120.00000000 77 214 110 0.000000 0.000000 0.000000 0.000000 -60.708740 0.000000 71.000000 0.381613 0.865910 -0.323375
14960.00000000 9210.00000000 120.00000000 77 214 110 0.000000 0.000000 0.000000 0.000000 -60.708740 0.000000 71.000000 0.694669 0.619126 -0.366220
14980.00000000 9220.00000000 130.00000000 77 214 110 0.000000 0.000000 0.000000 0.000000 -60.708740 0.000000 71.000000 0.585548 0.749180 0.309618
14950.00000000 9160.00000000 110.00000000 77 214 110 0.000000 0.000000 0.000000 0.000000 -60.708740 0.000000 71.000000 -0.125456 -0.415837 0.900744
14950.00000000 9170.00000000 140.00000000 77 214 110 0.000000 0.000000 0.000000 0.000000 -60.708740 0.000000 71.000000 0.822468 0.121684 0.555643
14960.00000000 9160.00000000 110.00000000 77 214 110 0.000000 0.000000 0.000000 0.000000 -60.708740 0.000000 71.000000 0.202637 0.728566 -0.654317
14960.00000000 9160.00000000 110.00000000 77 214 110 0.000000 0.000000 0.000000 0.000000 -60.708740 0.000000 71.000000 0.202637 0.728566 -0.654317
14970.00000000 9170.00000000 80.00000000 77 214 110 0.000000 0.000000 0.000000 0.000000 -60.708740 0.000000 71.000000 0.402250 0.633999 -0.660485
14960.00000000 9150.00000000 70.00000000 77 214 110 0.000000 0.000000 0.000000 0.000000 -60.708740 0.000000 71.000000 0.267410 0.018316 0.963409
14970.00000000 9170.00000000 80.00000000 77 214 110 0.000000 0.000000 0.000000 0.000000 -60.708740 0.000000 71.000000 0.402250 0.633999 -0.660485
14980.00000000 9180.00000000 100.00000000 77 214 110 0.000000 0.000000 0.000000 0.000000 -60.708740 0.000000 71.000000 0.393327 0.820094 -0.415620
14920.00000000 9220.00000000 140.00000000 77 214 110 0.000000 0.000000 0.000000 0.000000 -60.708740 0.000000 71.000000 0.775255 0.352975 -0.523821
14920.00000000 9220.00000000 90.00000000 77 214 110 0.000000 0.000000 0.000000 0.000000 -60.708740 0.000000 71.000000 0.146924 -0.250167 0.956990
14910.00000000 9190.00000000 100.00000000 77 214 110 0.000000 0.000000 0.000000 0.000000 -60.708740 0.000000 71.000000 0.055631 -0.022042 0.998208
14910.00000000 9220.00000000 90.00000000 77 214 110 0.000000 0.000000 0.000000 0.000000 -60.708740 0.000000 71.000000 0.422128 -0.162800 0.891798
14910.00000000 9220.00000000 90.00000000 77 214 110 0.000000 0.000000 0.000000 0.000000 -60.708740 0.000000 71.000000 0.422128 -0.162800 0.891798
14920.00000000 9170.00000000 140.00000000 77 214 110 0.000000 0.000000 0.000000 0.000000 -60.708740 0.000000 71.000000 0.910618 0.408766 -0.060708
14920.00000000 9170.00000000 110.00000000 77 214 110 0.000000 0.000000 0.000000 0.000000 -60.708740 0.000000 71.000000 0.582736 -0.151302 0.798453
14930.00000000 9160.00000000 130.00000000 77 214 110 0.000000 0.000000 0.000000 0.000000 -60.708740 0.000000 71.000000 0.680486 0.729608 0.067904
14970.00000000 9140.00000000 120.00000000 77 214 110 0.000000 0.000000 0.000000 0.000000 -60.708740 0.000000 71.000000 0.706506 0.041225 0.706506
14980.00000000 9140.00000000 120.00000000 77 214 110 0.000000 0.000000 0.000000 0.000000 -60.708740 0.000000 71.000000 0.875205 0.115647 0.469726
14940.00000000 9130.00000000 90.00000000 77 214 110 0.000000 0.000000 0.000000 0.000000 -60.708740 0.000000 71.000000 0.825450 0.255533 0.503323
14880.00000000 9200.00000000 140.00000000 77 214 110 0.000000 0.000000 0.000000 0.000000 -60.708740 0.000000 71.000000 0.835491 0.533011 0.133620
14800.00000000 9730.00000000 420.00000000 77 214 110 0.000000 0.000000 0.000000 0.000000 -60.708740 0.000000 71.000000 0.834070 0.517335 0.191550
14800.00000000 9730.00000000 380.00000000 77 214 110 0.000000 0.000000 0.000000 0.000000 -60.708740 0.000000 71.000000 0.575459 0.795262 0.190802
14800.00000000 9660.00000000 390.00000000 77 214 110 0.000000 0.000000 0.000000 0.000000 -60.708740 0.000000 71.000000 0.917201 0.395368 0.049255
14800.00000000 9660.00000000 370.00000000 77 214 110 0.000000 0.000000 0.000000 0.000000 -60.708740 0.000000 71.000000 0.819952 0.557921 0.128072
14810.00000000 9690.00000000 350.00000000 77 214 110 0.000000 0.000000 0.000000 0.000000 -60.708740 0.000000 71.000000 0.708545 0.549247 0.443048
14770.00000000 9710.00000000 400.00000000 77 214 110 0.000000 0.000000 0.000000 0.000000 -60.708740 0.000000 71.000000 0.593497 0.633848 0.495982
14760.00000000 9720.00000000 370.00000000 77 214 110 0.000000 0.000000 0.000000 0.000000 -60.708740 0.000000 71.000000 0.853162 0.521602 -0.006739
14770.00000000 9710.00000000 360.00000000 77 214 110 0.000000 0.000000 0.000000 0.000000 -60.708740 0.000000 71.000000 0.860773 0.508944 0.006714
14770.00000000 9710.00000000 360.00000000 77 214 110 0.000000 0.000000 0.000000 0.000000 -60.708740 0.000000 71.000000 0.860773 0.508944 0.006714
14760.00000000 9700.00000000 350.00000000 77 214 110 0.000000 0.000000 0.000000 0.000000 -60.708740 0.000000 71.000000 0.877370 0.433506 0.205657
14770.00000000 9680.00000000 360.00000000 77 214 110 0.000000 0.000000 0.000000 0.000000 -60.708740 0.000000 71.000000 0.628932 0.541252 0.558114
14740.00000000 9680.00000000 360.00000000 77 214 110 0.000000 0.000000 0.000000 0.000000 -60.708740 0.000000 71.000000 0.654144 0.736483 0.172304
14750.00000000 9670.00000000 350.00000000 77 214 110 0.000000 0.000000 0.000000 0.000000 -60.708740 0.000000 71.000000 0.807171 0.552920 -0.206771
14740.00000000 9610.00000000 470.00000000 77 214 110 0.000000 0.000000 0.000000 0.000000 -60.708740 0.000000 71.000000 0.862342 -0.039885 0.504752
14770.00000000 9610.00000000 430.00000000 77 214 110 0.000000 0.000000 0.000000 0.000000 -60.708740 0.000000 71.000000 0.546417 0.580251 0.603935
14740.00000000 9580.00000000 450.00000000 77 214 110 0.000000 0.000000 0.000000 0.000000 -60.708740 0.000000 71.000000 0.850543 -0.042873 0.524156
14760.00000000 9600.00000000 450.00000000 77 214 110 0.000000 0.000000 0.000000 0.000000 -60.708740 0.000000 71.000000 0.841614 0.043124 0.538355
14750.00000000 9570.00000000 420.00000000 77 214 110 0.000000 0.000000 0.000000 0.000000 -60.708740 0.000000 71.000000 0.847228 0.200144 0.492084
14810.00000000 9640.00000000 390.00000000 77 214 110 0.000000 0.000000 0.000000 0.000000 -60.708740 0.000000 71.000000 0.715133 0.580326 0.389624
14780.00000000 9630.00000000 380.00000000 77 214 110 0.000000 0.000000 0.000000 0.000000 -60.708740 0.000000 71.000000 0.890089 0.191464 0.413621
14800.00000000 9650.00000000 390.00000000 77 214 110 0.000000 0.000000 0.000000 0.000000 -60.708740 0.000000 71.000000 0.720852 0.314466 0.617643
14810.00000000 9640.00000000 400.00000000 77 214 110 0.000000 0.000000 0.000000 0.000000 -60.708740 0.000000 71.000000 0.632019 0.369362 0.681267
14800.00000000 9650.00000000 340.00000000 77 214 110 0.000000 0.000000 0.000000 0.000000 -60.708740 0.000000 71.000000 0.888465 0.414227 -0.197599
14800.00000000 9640.00000000 340.00000000 77 214 110 0.000000 0.000000 0.000000 0.000000 -60.708740 0.000000 71.000000 0.572141 0.771835 0.277354
14810.00000000 9640.00000000 330.00000000 77 214 110 0.000000 0.000000 0.000000 0.000000 -60.708740 0.000000 71.000000 0.543860 0.822532 0.166304
14780.00000000 9600.00000000 390.00000000 77 214 110 0.000000 0.000000 0.000000 0.000000 -60.708740 0.000000 71.000000 0.686172 0.555950 0.469135
14740.00000000 9620.00000000 400.00000000 77 214 110 0.000000 0.000000 0.000000 0.000000 -60.708740 0.000000 71.000000 0.827836 0.325165 0.457116
14770.00000000 9610.00000000 390.00000000 77 214 110 0.000000 0.000000 0.000000 0.000000 -60.708740 0.000000 71.000000 0.588396 0.675072 0.445048
14770.00000000 9610.00000000 390.00000000 77 214 110 0.000000 0.000000 0.000000 0.000000 -60.708740 0.000000 71.000000 0.588396 0.675072 0.445048
14740.00000000 9640.00000000 330.00000000 77 214 110 0.000000 0.000000 0.000000 0.000000 -60.708740 0.000000 71.000000 0.819667 0.541916 0.185670
14750.00000000 9580.00000000 380.00000000 77 214 110 0.000000 0.000000 0.000000 0.000000 -60.708740 0.000000 71.000000 0.725870 0.324944 0.606238
14770.00000000 9600.00000000 400.00000000 77 214 110 0.000000 0.000000 0.000000 0.000000 -60.708740 0.000000 71.000000 0.686655 0.383671 0.617496
14750.00000000 9580.00000000 390.00000000 77 214 110 0.000000 0.000000 0.000000 0.000000 -60.708740 0.000000 71.000000 0.545777 0.730451 0.410570
14710.00000000 9660.00000000 410.00000000 77 214 110 0.000000 0.000000 0.000000 0.000000 -60.708740 0.000000 71.000000 0.660286 0.519156 0.542678
14720.00000000 9660.00000000 410.00000000 77 214 110 0.000000 0.000000 0.000000 0.000000 -60.708740 0.000000 71.000000 0.586610 0.459594 0.666830
14730.00000000 9730.00000000 350.00000000 77 214 110 0.000000 0.000000 0.000000 0.000000 -60.708740 0.000000 71.000000 0.920601 0.369625 -0.125977
14730.00000000 9630.00000000 420.00000000 77 214 110 0.000000 0.000000 0.000000 0.000000 -60.708740 0.000000 71.000000 0.623643 0.562800 0.542518
14710.00000000 9650.00000000 430.00000000 77 214 110 0.000000 0.000000 0.000000 0.000000 -60.708740 0.000000 71.000000 0.641007 0.395867 0.657570
14730.00000000 9620.00000000 410.00000000 77 214 110 0.000000 0.000000 0.000000 0.000000 -60.708740 0.000000 71.000000 0.868595 0.398424 0.294620
14660.00000000 9610.00000000 430.00000000 77 214 110 0.000000 0.000000 0.000000 0.000000 -60.708740 0.000000 71.000000 0.829291 0.355410 0.431231
14670.00000000 9630.00000000 420.00000000 77 214 110 0.000000 0.000000 0.000000 0.000000 -60.708740 0.000000 71.000000 0.842217 0.426578 0.329699
14670.00000000 9600.00000000 440.00000000 77 214 110 0.000000 0.000000 0.000000 0.000000 -60.708740 0.000000 71.000000 0.566930 0.331113 0.754291
14680.00000000 9600.00000000 430.00000000 77 214 110 0.000000 0.000000 0.000000 0.000000 -60.708740 0.000000 71.000000 0.665569 0.133114 0.734369
14690.00000000 9580.00000000 400.00000000 77 214 110 0.000000 0.000000 0.000000 0.000000 -60.708740 0.000000 71.000000 0.653345 0.340521 0.676155
14680.00000000 9580.00000000 390.00000000 77 214 110 0.000000 0.000000 0.000000 0.000000 -60.708740 0.000000 71.000000 0.563315 0.556548 0.610681
