//X Y Z R G B PointSourceId ScanDirectionFlag NumberOfReturns ReturnNumber GpsTime Intensity Classification Nx Ny Nz
3150.00000000 -21740.00000000 1430.00000000 0 170 170 0.000000 0.000000 0.000000 0.000000 -60.708740 0.000000 157.000000 0.633894 0.769625 -0.076529
3160.00000000 -21730.00000000 1450.00000000 0 170 170 0.000000 0.000000 0.000000 0.000000 -60.708740 0.000000 157.000000 0.786696 0.449309 0.423356
3130.00000000 -21710.00000000 1450.00000000 0 170 170 0.000000 0.000000 0.000000 0.000000 -60.708740 0.000000 157.000000 0.960258 0.267236 0.080554
3140.00000000 -21740.00000000 1460.00000000 0 170 170 0.000000 0.000000 0.000000 0.000000 -60.708740 0.000000 157.000000 0.674661 0.738126 0.001380
3170.00000000 -21760.00000000 1420.00000000 0 170 170 0.000000 0.000000 0.000000 0.000000 -60.708740 0.000000 157.000000 0.699946 0.687585 0.193142
3150.00000000 -21750.00000000 1450.00000000 0 170 170 0.000000 0.000000 0.000000 0.000000 -60.708740 0.000000 157.000000 0.732598 0.678119 -0.058780
3160.00000000 -21760.00000000 1390.00000000 0 170 170 0.000000 0.000000 0.000000 0.000000 -60.708740 0.000000 157.000000 0.652716 0.757592 -0.004140
3160.00000000 -21740.00000000 1350.00000000 0 170 170 0.000000 0.000000 0.000000 0.000000 -60.708740 0.000000 157.000000 0.815237 0.545010 0.195839
3160.00000000 -21740.00000000 1330.00000000 0 170 170 0.000000 0.000000 0.000000 0.000000 -60.708740 0.000000 157.000000 0.911630 0.304849 -0.275677
3140.00000000 -21740.00000000 1390.00000000 0 170 170 0.000000 0.000000 0.000000 0.000000 -60.708740 0.000000 157.000000 0.573004 0.789232 -0.220861
3110.00000000 -21740.00000000 1370.00000000 0 170 170 0.000000 0.000000 0.000000 0.000000 -60.708740 0.000000 157.000000 0.660901 0.745520 0.086078
3090.00000000 -21710.00000000 1360.00000000 0 170 170 0.000000 0.000000 0.000000 0.000000 -60.708740 0.000000 157.000000 0.623245 0.639954 -0.449472
3100.00000000 -21720.00000000 1370.00000000 0 170 170 0.000000 0.000000 0.000000 0.000000 -60.708740 0.000000 157.000000 0.687399 0.724556 -0.050019
3090.00000000 -21720.00000000 1370.00000000 0 170 170 0.000000 0.000000 0.000000 0.000000 -60.708740 0.000000 157.000000 0.561919 0.820373 -0.105995
3160.00000000 -21780.00000000 1500.00000000 0 170 170 0.000000 0.000000 0.000000 0.000000 -60.708740 0.000000 157.000000 0.952995 0.250647 0.170226
3180.00000000 -21780.00000000 1430.00000000 0 170 170 0.000000 0.000000 0.000000 0.000000 -60.708740 0.000000 157.000000 0.847621 0.519509 -0.107931
3190.00000000 -21790.00000000 1460.00000000 0 170 170 0.000000 0.000000 0.000000 0.000000 -60.708740 0.000000 157.000000 0.945392 0.204446 -0.253843
3190.00000000 -21800.00000000 1450.00000000 0 170 170 0.000000 0.000000 0.000000 0.000000 -60.708740 0.000000 157.000000 0.810840 0.585072 0.015143
3170.00000000 -21790.00000000 1340.00000000 0 170 170 0.000000 0.000000 0.000000 0.000000 -60.708740 0.000000 157.000000 0.828565 0.550931 -0.099775
3180.00000000 -21790.00000000 1380.00000000 0 170 170 0.000000 0.000000 0.000000 0.000000 -60.708740 0.000000 157.000000 0.839272 0.543696 -0.004068
3160.00000000 -21770.00000000 1340.00000000 0 170 170 0.000000 0.000000 0.000000 0.000000 -60.708740 0.000000 157.000000 0.622027 0.778622 0.082647
3190.00000000 -21820.00000000 1370.00000000 0 170 170 0.000000 0.000000 0.000000 0.000000 -60.708740 0.000000 157.000000 0.941502 0.319176 -0.108173
3190.00000000 -21800.00000000 1380.00000000 0 170 170 0.000000 0.000000 0.000000 0.000000 -60.708740 0.000000 157.000000 0.798624 0.457963 0.390474
3210.00000000 -21800.00000000 1280.00000000 0 170 170 0.000000 0.000000 0.000000 0.000000 -60.708740 0.000000 157.000000 0.965065 0.237101 0.111502
3210.00000000 -21830.00000000 1290.00000000 0 170 170 0.000000 0.000000 0.000000 0.000000 -60.708740 0.000000 157.000000 0.916513 0.339927 -0.210841
3220.00000000 -21840.00000000 1320.00000000 0 170 170 0.000000 0.000000 0.000000 0.000000 -60.708740 0.000000 157.000000 0.979026 0.197723 -0.049131
3200.00000000 -21790.00000000 1300.00000000 0 170 170 0.000000 0.000000 0.000000 0.000000 -60.708740 0.000000 157.000000 0.954222 0.297176 0.033855
3210.00000000 -21830.00000000 1280.00000000 0 170 170 0.000000 0.000000 0.000000 0.000000 -60.708740 0.000000 157.000000 0.982631 0.181969 -0.036394
3210.00000000 -21830.00000000 1290.00000000 0 170 170 0.000000 0.000000 0.000000 0.000000 -60.708740 0.000000 157.000000 0.916513 0.339927 -0.210841
3210.00000000 -21840.00000000 1220.00000000 0 170 170 0.000000 0.000000 0.000000 0.000000 -60.708740 0.000000 157.000000 0.930387 0.264813 0.253484
3200.00000000 -21840.00000000 1240.00000000 0 170 170 0.000000 0.000000 0.000000 0.000000 -60.708740 0.000000 157.000000 0.779249 0.487638 0.393675
3200.00000000 -21810.00000000 1210.00000000 0 170 170 0.000000 0.000000 0.000000 0.000000 -60.708740 0.000000 157.000000 0.851545 0.520467 -0.063129
3230.00000000 -21890.00000000 1320.00000000 0 170 170 0.000000 0.000000 0.000000 0.000000 -60.708740 0.000000 157.000000 0.950520 0.305753 -0.055010
3220.00000000 -21880.00000000 1280.00000000 0 170 170 0.000000 0.000000 0.000000 0.000000 -60.708740 0.000000 157.000000 0.972770 0.057655 -0.224485
3230.00000000 -21880.00000000 1300.00000000 0 170 170 0.000000 0.000000 0.000000 0.000000 -60.708740 0.000000 157.000000 0.844707 0.441728 0.302235
3220.00000000 -21860.00000000 1300.00000000 0 170 170 0.000000 0.000000 0.000000 0.000000 -60.708740 0.000000 157.000000 0.961986 0.259340 0.085595
3230.00000000 -21890.00000000 1200.00000000 0 170 170 0.000000 0.000000 0.000000 0.000000 -60.708740 0.000000 157.000000 0.974273 0.114104 -0.194353
3230.00000000 -21870.00000000 1190.00000000 0 170 170 0.000000 0.000000 0.000000 0.000000 -60.708740 0.000000 157.000000 0.938717 0.329819 0.100148
3220.00000000 -21850.00000000 1180.00000000 0 170 170 0.000000 0.000000 0.000000 0.000000 -60.708740 0.000000 157.000000 0.958028 0.278630 -0.067431
3220.00000000 -21880.00000000 1170.00000000 0 170 170 0.000000 0.000000 0.000000 0.000000 -60.708740 0.000000 157.000000 0.936353 0.327520 0.126387
3220.00000000 -21860.00000000 1170.00000000 0 170 170 0.000000 0.000000 0.000000 0.000000 -60.708740 0.000000 157.000000 0.766353 0.601580 0.225398
3210.00000000 -21850.00000000 1220.00000000 0 170 170 0.000000 0.000000 0.000000 0.000000 -60.708740 0.000000 157.000000 0.858729 0.496702 -0.125986
3230.00000000 -21880.00000000 1200.00000000 0 170 170 0.000000 0.000000 0.000000 0.000000 -60.708740 0.000000 157.000000 0.977418 0.115209 -0.177149
3200.00000000 -21820.00000000 1120.00000000 0 170 170 0.000000 0.000000 0.000000 0.000000 -60.708740 0.000000 157.000000 0.755819 0.627039 -0.188572
3200.00000000 -21820.00000000 1090.00000000 0 170 170 0.000000 0.000000 0.000000 0.000000 -60.708740 0.000000 157.000000 0.900919 0.421914 -0.101649
3200.00000000 -21810.00000000 1120.00000000 0 170 170 0.000000 0.000000 0.000000 0.000000 -60.708740 0.000000 157.000000 0.810178 0.475920 -0.342217
3200.00000000 -21800.00000000 1130.00000000 0 170 170 0.000000 0.000000 0.000000 0.000000 -60.708740 0.000000 157.000000 0.744719 0.643792 0.175858
3200.00000000 -21810.00000000 1100.00000000 0 170 170 0.000000 0.000000 0.000000 0.000000 -60.708740 0.000000 157.000000 0.755895 0.520801 0.396723
3200.00000000 -21810.00000000 1140.00000000 0 170 170 0.000000 0.000000 0.000000 0.000000 -60.708740 0.000000 157.000000 0.862651 0.481854 0.153783
3200.00000000 -21820.00000000 1100.00000000 0 170 170 0.000000 0.000000 0.000000 0.000000 -60.708740 0.000000 157.000000 0.880656 0.338014 0.331951
3200.00000000 -21810.00000000 1040.00000000 0 170 170 0.000000 0.000000 0.000000 0.000000 -60.708740 0.000000 157.000000 0.922115 0.383441 0.051745
3200.00000000 -21790.00000000 1050.00000000 0 170 170 0.000000 0.000000 0.000000 0.000000 -60.708740 0.000000 157.000000 0.737539 0.592291 0.324388
3220.00000000 -21840.00000000 1070.00000000 0 170 170 0.000000 0.000000 0.000000 0.000000 -60.708740 0.000000 157.000000 0.819595 0.431282 0.377173
3200.00000000 -21830.00000000 1070.00000000 0 170 170 0.000000 0.000000 0.000000 0.000000 -60.708740 0.000000 157.000000 0.786895 0.553507 0.272811
3210.00000000 -21840.00000000 1050.00000000 0 170 170 0.000000 0.000000 0.000000 0.000000 -60.708740 0.000000 157.000000 0.872183 0.453063 0.184472
3200.00000000 -21820.00000000 1070.00000000 0 170 170 0.000000 0.000000 0.000000 0.000000 -60.708740 0.000000 157.000000 0.754897 0.649767 0.089069
3240.00000000 -21910.00000000 1090.00000000 0 170 170 0.000000 0.000000 0.000000 0.000000 -60.708740 0.000000 157.000000 0.941268 0.225960 -0.250912
3220.00000000 -21860.00000000 1130.00000000 0 170 170 0.000000 0.000000 0.000000 0.000000 -60.708740 0.000000 157.000000 0.906753 0.332525 0.259281
3230.00000000 -21880.00000000 1090.00000000 0 170 170 0.000000 0.000000 0.000000 0.000000 -60.708740 0.000000 157.000000 0.997461 0.050355 -0.050355
3220.00000000 -21910.00000000 1090.00000000 0 170 170 0.000000 0.000000 0.000000 0.000000 -60.708740 0.000000 157.000000 0.914545 -0.057578 0.400365
3230.00000000 -21900.00000000 1080.00000000 0 170 170 0.000000 0.000000 0.000000 0.000000 -60.708740 0.000000 157.000000 0.893646 0.361324 -0.266161
3240.00000000 -21890.00000000 1140.00000000 0 170 170 0.000000 0.000000 0.000000 0.000000 -60.708740 0.000000 157.000000 0.853687 0.395082 0.339306
3230.00000000 -21850.00000000 1100.00000000 0 170 170 0.000000 0.000000 0.000000 0.000000 -60.708740 0.000000 157.000000 0.988395 0.071183 0.134198
3240.00000000 -21850.00000000 1070.00000000 0 170 170 0.000000 0.000000 0.000000 0.000000 -60.708740 0.000000 157.000000 0.905251 0.210018 0.369342
3220.00000000 -21870.00000000 1030.00000000 0 170 170 0.000000 0.000000 0.000000 0.000000 -60.708740 0.000000 157.000000 0.972931 0.230400 0.017907
3220.00000000 -21870.00000000 1000.00000000 0 170 170 0.000000 0.000000 0.000000 0.000000 -60.708740 0.000000 157.000000 0.917622 0.394405 0.049135
3220.00000000 -21850.00000000 1010.00000000 0 170 170 0.000000 0.000000 0.000000 0.000000 -60.708740 0.000000 157.000000 0.815619 0.567577 0.112348
3220.00000000 -21860.00000000 1010.00000000 0 170 170 0.000000 0.000000 0.000000 0.000000 -60.708740 0.000000 157.000000 0.802979 0.561320 -0.200362
3220.00000000 -21860.00000000 1020.00000000 0 170 170 0.000000 0.000000 0.000000 0.000000 -60.708740 0.000000 157.000000 0.949660 0.299962 -0.090381
3230.00000000 -21890.00000000 1060.00000000 0 170 170 0.000000 0.000000 0.000000 0.000000 -60.708740 0.000000 157.000000 0.967370 0.207386 0.145556
3220.00000000 -21900.00000000 1040.00000000 0 170 170 0.000000 0.000000 0.000000 0.000000 -60.708740 0.000000 157.000000 0.993684 0.043397 0.103486
3230.00000000 -21910.00000000 1070.00000000 0 170 170 0.000000 0.000000 0.000000 0.000000 -60.708740 0.000000 157.000000 0.979109 0.005807 -0.203255
3230.00000000 -21920.00000000 1010.00000000 0 170 170 0.000000 0.000000 0.000000 0.000000 -60.708740 0.000000 157.000000 0.998393 0.041116 0.039008
3120.00000000 -21720.00000000 1300.00000000 0 170 170 0.000000 0.000000 0.000000 0.000000 -60.708740 0.000000 157.000000 0.611030 0.790828 0.035117
3140.00000000 -21750.00000000 1320.00000000 0 170 170 0.000000 0.000000 0.000000 0.000000 -60.708740 0.000000 157.000000 0.616993 0.770864 -0.158397
3120.00000000 -21730.00000000 1280.00000000 0 170 170 0.000000 0.000000 0.000000 0.000000 -60.708740 0.000000 157.000000 0.638434 0.729864 0.244339
3130.00000000 -21740.00000000 1290.00000000 0 170 170 0.000000 0.000000 0.000000 0.000000 -60.708740 0.000000 157.000000 0.706990 0.706990 -0.018200
3140.00000000 -21750.00000000 1310.00000000 0 170 170 0.000000 0.000000 0.000000 0.000000 -60.708740 0.000000 157.000000 0.782126 0.596123 0.181429
3130.00000000 -21730.00000000 1270.00000000 0 170 170 0.000000 0.000000 0.000000 0.000000 -60.708740 0.000000 157.000000 0.738397 0.673945 0.023819
3110.00000000 -21750.00000000 1310.00000000 0 170 170 0.000000 0.000000 0.000000 0.000000 -60.708740 0.000000 157.000000 0.493876 0.840349 0.223384
3110.00000000 -21710.00000000 1270.00000000 0 170 170 0.000000 0.000000 0.000000 0.000000 -60.708740 0.000000 157.000000 0.614938 0.783573 0.088679
3140.00000000 -21740.00000000 1250.00000000 0 170 170 0.000000 0.000000 0.000000 0.000000 -60.708740 0.000000 157.000000 0.790832 0.583601 0.184375
3110.00000000 -21720.00000000 1170.00000000 0 170 170 0.000000 0.000000 0.000000 0.000000 -60.708740 0.000000 157.000000 0.358646 0.932481 -0.043038
3140.00000000 -21750.00000000 1240.00000000 0 170 170 0.000000 0.000000 0.000000 0.000000 -60.708740 0.000000 157.000000 0.700361 0.711819 0.052993
3150.00000000 -21750.00000000 1190.00000000 0 170 170 0.000000 0.000000 0.000000 0.000000 -60.708740 0.000000 157.000000 0.834092 0.493082 -0.247309
3130.00000000 -21740.00000000 1190.00000000 0 170 170 0.000000 0.000000 0.000000 0.000000 -60.708740 0.000000 157.000000 0.778516 0.626473 0.038011
3060.00000000 -21690.00000000 1250.00000000 0 170 170 0.000000 0.000000 0.000000 0.000000 -60.708740 0.000000 157.000000 0.140798 0.990023 0.005543
3100.00000000 -21730.00000000 1310.00000000 0 170 170 0.000000 0.000000 0.000000 0.000000 -60.708740 0.000000 157.000000 0.604048 0.777502 -0.174976
3060.00000000 -21700.00000000 1250.00000000 0 170 170 0.000000 0.000000 0.000000 0.000000 -60.708740 0.000000 157.000000 0.329699 0.842217 -0.426578
3100.00000000 -21700.00000000 1300.00000000 0 170 170 0.000000 0.000000 0.000000 0.000000 -60.708740 0.000000 157.000000 0.485254 0.872350 -0.059447
3070.00000000 -21680.00000000 1210.00000000 0 170 170 0.000000 0.000000 0.000000 0.000000 -60.708740 0.000000 157.000000 0.415166 0.909722 0.006507
3080.00000000 -21710.00000000 1200.00000000 0 170 170 0.000000 0.000000 0.000000 0.000000 -60.708740 0.000000 157.000000 0.235546 0.966376 -0.103131
3090.00000000 -21690.00000000 1200.00000000 0 170 170 0.000000 0.000000 0.000000 0.000000 -60.708740 0.000000 157.000000 0.512009 0.840412 -0.177636
3070.00000000 -21710.00000000 1180.00000000 0 170 170 0.000000 0.000000 0.000000 0.000000 -60.708740 0.000000 157.000000 0.678098 0.700023 -0.223945
3030.00000000 -21690.00000000 1220.00000000 0 170 170 0.000000 0.000000 0.000000 0.000000 -60.708740 0.000000 157.000000 0.445223 0.848851 0.285005
3040.00000000 -21690.00000000 1210.00000000 0 170 170 0.000000 0.000000 0.000000 0.000000 -60.708740 0.000000 157.000000 0.607464 0.792407 0.055483
3040.00000000 -21690.00000000 1180.00000000 0 170 170 0.000000 0.000000 0.000000 0.000000 -60.708740 0.000000 157.000000 0.381023 0.875898 -0.296014
3030.00000000 -21690.00000000 1200.00000000 0 170 170 0.000000 0.000000 0.000000 0.000000 -60.708740 0.000000 157.000000 0.276210 0.923085 -0.267623
3130.00000000 -21750.00000000 1090.00000000 0 170 170 0.000000 0.000000 0.000000 0.000000 -60.708740 0.000000 157.000000 0.804726 0.561331 -0.193195
3170.00000000 -21760.00000000 1120.00000000 0 170 170 0.000000 0.000000 0.000000 0.000000 -60.708740 0.000000 157.000000 0.520754 0.838250 0.161716
3120.00000000 -21730.00000000 1150.00000000 0 170 170 0.000000 0.000000 0.000000 0.000000 -60.708740 0.000000 157.000000 0.830120 0.557503 0.009542
3140.00000000 -21750.00000000 1110.00000000 0 170 170 0.000000 0.000000 0.000000 0.000000 -60.708740 0.000000 157.000000 0.591270 0.719024 -0.365245
3120.00000000 -21720.00000000 1100.00000000 0 170 170 0.000000 0.000000 0.000000 0.000000 -60.708740 0.000000 157.000000 0.628153 0.756535 -0.181874
3160.00000000 -21760.00000000 1130.00000000 0 170 170 0.000000 0.000000 0.000000 0.000000 -60.708740 0.000000 157.000000 0.660895 0.731105 -0.169421
3160.00000000 -21760.00000000 1140.00000000 0 170 170 0.000000 0.000000 0.000000 0.000000 -60.708740 0.000000 157.000000 0.521441 0.851360 0.057317
3130.00000000 -21740.00000000 1110.00000000 0 170 170 0.000000 0.000000 0.000000 0.000000 -60.708740 0.000000 157.000000 0.371126 0.917310 -0.144249
3170.00000000 -21750.00000000 1090.00000000 0 170 170 0.000000 0.000000 0.000000 0.000000 -60.708740 0.000000 157.000000 0.724794 0.688060 0.035321
3120.00000000 -21720.00000000 1120.00000000 0 170 170 0.000000 0.000000 0.000000 0.000000 -60.708740 0.000000 157.000000 0.780854 0.602632 -0.164629
3150.00000000 -21760.00000000 1110.00000000 0 170 170 0.000000 0.000000 0.000000 0.000000 -60.708740 0.000000 157.000000 0.774620 0.631743 0.029416
3130.00000000 -21720.00000000 1050.00000000 0 170 170 0.000000 0.000000 0.000000 0.000000 -60.708740 0.000000 157.000000 0.436358 0.874206 -0.212967
3110.00000000 -21710.00000000 1020.00000000 0 170 170 0.000000 0.000000 0.000000 0.000000 -60.708740 0.000000 157.000000 0.391707 0.915803 -0.088714
3130.00000000 -21720.00000000 1040.00000000 0 170 170 0.000000 0.000000 0.000000 0.000000 -60.708740 0.000000 157.000000 0.533502 0.830717 0.159010
3140.00000000 -21750.00000000 1010.00000000 0 170 170 0.000000 0.000000 0.000000 0.000000 -60.708740 0.000000 157.000000 0.758943 0.587107 -0.281621
3090.00000000 -21690.00000000 1120.00000000 0 170 170 0.000000 0.000000 0.000000 0.000000 -60.708740 0.000000 157.000000 0.606269 0.786232 0.119484
3080.00000000 -21710.00000000 1140.00000000 0 170 170 0.000000 0.000000 0.000000 0.000000 -60.708740 0.000000 157.000000 0.420565 0.861010 0.285984
3070.00000000 -21690.00000000 1090.00000000 0 170 170 0.000000 0.000000 0.000000 0.000000 -60.708740 0.000000 157.000000 0.708359 0.702588 -0.067806
3080.00000000 -21720.00000000 1110.00000000 0 170 170 0.000000 0.000000 0.000000 0.000000 -60.708740 0.000000 157.000000 0.579329 0.802721 0.141481
3070.00000000 -21700.00000000 1100.00000000 0 170 170 0.000000 0.000000 0.000000 0.000000 -60.708740 0.000000 157.000000 0.250580 0.962484 0.104087
3090.00000000 -21700.00000000 1110.00000000 0 170 170 0.000000 0.000000 0.000000 0.000000 -60.708740 0.000000 157.000000 0.483837 0.870342 -0.091689
3080.00000000 -21730.00000000 1090.00000000 0 170 170 0.000000 0.000000 0.000000 0.000000 -60.708740 0.000000 157.000000 0.513536 0.826257 0.231475
3050.00000000 -21700.00000000 1140.00000000 0 170 170 0.000000 0.000000 0.000000 0.000000 -60.708740 0.000000 157.000000 0.541661 0.778139 -0.317966
3060.00000000 -21700.00000000 1110.00000000 0 170 170 0.000000 0.000000 0.000000 0.000000 -60.708740 0.000000 157.000000 0.446507 0.851585 0.274655
3050.00000000 -21700.00000000 1080.00000000 0 170 170 0.000000 0.000000 0.000000 0.000000 -60.708740 0.000000 157.000000 0.180926 0.875209 -0.448637
3060.00000000 -21710.00000000 1090.00000000 0 170 170 0.000000 0.000000 0.000000 0.000000 -60.708740 0.000000 157.000000 0.601334 0.775767 -0.191264
3060.00000000 -21700.00000000 1110.00000000 0 170 170 0.000000 0.000000 0.000000 0.000000 -60.708740 0.000000 157.000000 0.446507 0.851585 0.274655
3040.00000000 -21700.00000000 1100.00000000 0 170 170 0.000000 0.000000 0.000000 0.000000 -60.708740 0.000000 157.000000 0.078940 0.991898 0.099533
3030.00000000 -21700.00000000 1080.00000000 0 170 170 0.000000 0.000000 0.000000 0.000000 -60.708740 0.000000 157.000000 0.268329 0.882937 -0.385255
3040.00000000 -21690.00000000 1090.00000000 0 170 170 0.000000 0.000000 0.000000 0.000000 -60.708740 0.000000 157.000000 0.490324 0.871237 0.022963
3080.00000000 -21710.00000000 1050.00000000 0 170 170 0.000000 0.000000 0.000000 0.000000 -60.708740 0.000000 157.000000 0.578566 0.770896 -0.266424
3080.00000000 -21710.00000000 1050.00000000 0 170 170 0.000000 0.000000 0.000000 0.000000 -60.708740 0.000000 157.000000 0.578566 0.770896 -0.266424
3070.00000000 -21710.00000000 1020.00000000 0 170 170 0.000000 0.000000 0.000000 0.000000 -60.708740 0.000000 157.000000 0.423810 0.861389 -0.279990
3060.00000000 -21700.00000000 1060.00000000 0 170 170 0.000000 0.000000 0.000000 0.000000 -60.708740 0.000000 157.000000 0.179156 0.983624 0.019649
3040.00000000 -21700.00000000 1070.00000000 0 170 170 0.000000 0.000000 0.000000 0.000000 -60.708740 0.000000 157.000000 0.656543 0.749711 -0.082978
3040.00000000 -21710.00000000 1060.00000000 0 170 170 0.000000 0.000000 0.000000 0.000000 -60.708740 0.000000 157.000000 0.616608 0.777074 -0.126293
3040.00000000 -21710.00000000 1010.00000000 0 170 170 0.000000 0.000000 0.000000 0.000000 -60.708740 0.000000 157.000000 0.200661 0.967056 -0.156645
3030.00000000 -21690.00000000 1030.00000000 0 170 170 0.000000 0.000000 0.000000 0.000000 -60.708740 0.000000 157.000000 0.127169 0.967254 -0.219655
3060.00000000 -21710.00000000 1020.00000000 0 170 170 0.000000 0.000000 0.000000 0.000000 -60.708740 0.000000 157.000000 0.114119 0.919829 -0.375356
3040.00000000 -21710.00000000 1020.00000000 0 170 170 0.000000 0.000000 0.000000 0.000000 -60.708740 0.000000 157.000000 0.202063 0.935064 -0.291249
3180.00000000 -21800.00000000 1320.00000000 0 170 170 0.000000 0.000000 0.000000 0.000000 -60.708740 0.000000 157.000000 0.813900 0.575616 0.078950
3170.00000000 -21780.00000000 1290.00000000 0 170 170 0.000000 0.000000 0.000000 0.000000 -60.708740 0.000000 157.000000 0.725953 0.609542 0.318514
3190.00000000 -21800.00000000 1230.00000000 0 170 170 0.000000 0.000000 0.000000 0.000000 -60.708740 0.000000 157.000000 0.819640 0.557708 0.130966
3180.00000000 -21780.00000000 1210.00000000 0 170 170 0.000000 0.000000 0.000000 0.000000 -60.708740 0.000000 157.000000 0.888502 0.443543 0.117617
3190.00000000 -21810.00000000 1240.00000000 0 170 170 0.000000 0.000000 0.000000 0.000000 -60.708740 0.000000 157.000000 0.797273 0.462257 0.388167
3190.00000000 -21810.00000000 1160.00000000 0 170 170 0.000000 0.000000 0.000000 0.000000 -60.708740 0.000000 157.000000 0.749569 0.565010 -0.344834
3170.00000000 -21780.00000000 1170.00000000 0 170 170 0.000000 0.000000 0.000000 0.000000 -60.708740 0.000000 157.000000 0.765838 0.638440 -0.076729
3180.00000000 -21770.00000000 1230.00000000 0 170 170 0.000000 0.000000 0.000000 0.000000 -60.708740 0.000000 157.000000 0.886761 0.431044 -0.166903
3170.00000000 -21780.00000000 1090.00000000 0 170 170 0.000000 0.000000 0.000000 0.000000 -60.708740 0.000000 157.000000 0.722261 0.673807 0.155960
3170.00000000 -21780.00000000 1130.00000000 0 170 170 0.000000 0.000000 0.000000 0.000000 -60.708740 0.000000 157.000000 0.666961 0.744935 0.015316
3180.00000000 -21790.00000000 1100.00000000 0 170 170 0.000000 0.000000 0.000000 0.000000 -60.708740 0.000000 157.000000 0.674907 0.723223 0.146456
3190.00000000 -21770.00000000 1100.00000000 0 170 170 0.000000 0.000000 0.000000 0.000000 -60.708740 0.000000 157.000000 0.760886 0.608398 -0.225621
3170.00000000 -21780.00000000 1080.00000000 0 170 170 0.000000 0.000000 0.000000 0.000000 -60.708740 0.000000 157.000000 0.612394 0.777097 -0.145238
3170.00000000 -21810.00000000 1080.00000000 0 170 170 0.000000 0.000000 0.000000 0.000000 -60.708740 0.000000 157.000000 0.799824 0.586932 0.125666
3170.00000000 -21790.00000000 1140.00000000 0 170 170 0.000000 0.000000 0.000000 0.000000 -60.708740 0.000000 157.000000 0.731941 0.616624 0.289893
3160.00000000 -21770.00000000 1030.00000000 0 170 170 0.000000 0.000000 0.000000 0.000000 -60.708740 0.000000 157.000000 0.612935 0.790035 0.012452
3160.00000000 -21770.00000000 1010.00000000 0 170 170 0.000000 0.000000 0.000000 0.000000 -60.708740 0.000000 157.000000 0.613391 0.726088 0.310721
3190.00000000 -21800.00000000 1060.00000000 0 170 170 0.000000 0.000000 0.000000 0.000000 -60.708740 0.000000 157.000000 0.568523 0.821199 0.049132
3160.00000000 -21770.00000000 1060.00000000 0 170 170 0.000000 0.000000 0.000000 0.000000 -60.708740 0.000000 157.000000 0.592063 0.777566 -0.211782
3170.00000000 -21770.00000000 1010.00000000 0 170 170 0.000000 0.000000 0.000000 0.000000 -60.708740 0.000000 157.000000 0.685018 0.703491 0.189342
3170.00000000 -21770.00000000 1060.00000000 0 170 170 0.000000 0.000000 0.000000 0.000000 -60.708740 0.000000 157.000000 0.703898 0.685415 0.186371
3170.00000000 -21770.00000000 1040.00000000 0 170 170 0.000000 0.000000 0.000000 0.000000 -60.708740 0.000000 157.000000 0.480763 0.873735 0.073856
3190.00000000 -21810.00000000 1030.00000000 0 170 170 0.000000 0.000000 0.000000 0.000000 -60.708740 0.000000 157.000000 0.816854 0.576843 -0.001364
3200.00000000 -21820.00000000 910.00000000 0 170 170 0.000000 0.000000 0.000000 0.000000 -60.708740 0.000000 157.000000 0.784556 0.612798 -0.094612
3210.00000000 -21830.00000000 950.00000000 0 170 170 0.000000 0.000000 0.000000 0.000000 -60.708740 0.000000 157.000000 0.843603 0.405367 -0.352153
3210.00000000 -21820.00000000 960.00000000 0 170 170 0.000000 0.000000 0.000000 0.000000 -60.708740 0.000000 157.000000 0.934208 0.304905 0.185171
3210.00000000 -21830.00000000 890.00000000 0 170 170 0.000000 0.000000 0.000000 0.000000 -60.708740 0.000000 157.000000 0.944151 0.238450 0.227423
3210.00000000 -21840.00000000 880.00000000 0 170 170 0.000000 0.000000 0.000000 0.000000 -60.708740 0.000000 157.000000 0.915119 0.399446 0.054774
3200.00000000 -21840.00000000 830.00000000 0 170 170 0.000000 0.000000 0.000000 0.000000 -60.708740 0.000000 157.000000 0.830427 0.553146 -0.066491
3200.00000000 -21820.00000000 900.00000000 0 170 170 0.000000 0.000000 0.000000 0.000000 -60.708740 0.000000 157.000000 0.681326 0.706045 -0.193120
3210.00000000 -21840.00000000 890.00000000 0 170 170 0.000000 0.000000 0.000000 0.000000 -60.708740 0.000000 157.000000 0.874404 0.484885 0.017461
3220.00000000 -21840.00000000 870.00000000 0 170 170 0.000000 0.000000 0.000000 0.000000 -60.708740 0.000000 157.000000 0.631026 0.702401 0.329301
3240.00000000 -21880.00000000 980.00000000 0 170 170 0.000000 0.000000 0.000000 0.000000 -60.708740 0.000000 157.000000 0.767496 0.631969 0.107538
3250.00000000 -21920.00000000 970.00000000 0 170 170 0.000000 0.000000 0.000000 0.000000 -60.708740 0.000000 157.000000 0.987708 0.139097 0.071302
3240.00000000 -21890.00000000 920.00000000 0 170 170 0.000000 0.000000 0.000000 0.000000 -60.708740 0.000000 157.000000 0.749013 0.660894 -0.046902
3240.00000000 -21900.00000000 940.00000000 0 170 170 0.000000 0.000000 0.000000 0.000000 -60.708740 0.000000 157.000000 0.999343 -0.031774 -0.017424
3220.00000000 -21850.00000000 960.00000000 0 170 170 0.000000 0.000000 0.000000 0.000000 -60.708740 0.000000 157.000000 0.996838 0.079282 -0.005285
3230.00000000 -21850.00000000 950.00000000 0 170 170 0.000000 0.000000 0.000000 0.000000 -60.708740 0.000000 157.000000 0.732475 0.670073 -0.120346
3230.00000000 -21850.00000000 960.00000000 0 170 170 0.000000 0.000000 0.000000 0.000000 -60.708740 0.000000 157.000000 0.845931 0.454553 0.278895
3230.00000000 -21880.00000000 920.00000000 0 170 170 0.000000 0.000000 0.000000 0.000000 -60.708740 0.000000 157.000000 0.896544 0.439429 0.055779
3220.00000000 -21850.00000000 940.00000000 0 170 170 0.000000 0.000000 0.000000 0.000000 -60.708740 0.000000 157.000000 0.843519 0.529519 -0.089918
3230.00000000 -21870.00000000 940.00000000 0 170 170 0.000000 0.000000 0.000000 0.000000 -60.708740 0.000000 157.000000 0.947579 0.288161 -0.138049
3230.00000000 -21920.00000000 960.00000000 0 170 170 0.000000 0.000000 0.000000 0.000000 -60.708740 0.000000 157.000000 0.985745 0.168243 -0.001129
3240.00000000 -21860.00000000 840.00000000 0 170 170 0.000000 0.000000 0.000000 0.000000 -60.708740 0.000000 157.000000 0.884997 0.384847 0.262055
3240.00000000 -21930.00000000 900.00000000 0 170 170 0.000000 0.000000 0.000000 0.000000 -60.708740 0.000000 157.000000 0.993423 0.007617 0.114249
3250.00000000 -21910.00000000 830.00000000 0 170 170 0.000000 0.000000 0.000000 0.000000 -60.708740 0.000000 157.000000 0.893420 0.406630 0.190927
3230.00000000 -21870.00000000 880.00000000 0 170 170 0.000000 0.000000 0.000000 0.000000 -60.708740 0.000000 157.000000 0.718647 0.672678 0.176214
3230.00000000 -21850.00000000 880.00000000 0 170 170 0.000000 0.000000 0.000000 0.000000 -60.708740 0.000000 157.000000 0.874530 0.483113 -0.042426
3230.00000000 -21860.00000000 900.00000000 0 170 170 0.000000 0.000000 0.000000 0.000000 -60.708740 0.000000 157.000000 0.955752 0.294171 0.001221
3230.00000000 -21880.00000000 900.00000000 0 170 170 0.000000 0.000000 0.000000 0.000000 -60.708740 0.000000 157.000000 0.970932 0.157345 -0.180371
3220.00000000 -21850.00000000 900.00000000 0 170 170 0.000000 0.000000 0.000000 0.000000 -60.708740 0.000000 157.000000 0.677265 0.735674 -0.009735
3200.00000000 -21850.00000000 840.00000000 0 170 170 0.000000 0.000000 0.000000 0.000000 -60.708740 0.000000 157.000000 0.816260 0.530338 -0.229045
3230.00000000 -21860.00000000 860.00000000 0 170 170 0.000000 0.000000 0.000000 0.000000 -60.708740 0.000000 157.000000 0.809874 0.538373 -0.232935
3230.00000000 -21900.00000000 890.00000000 0 170 170 0.000000 0.000000 0.000000 0.000000 -60.708740 0.000000 157.000000 0.968571 0.209109 -0.134702
3230.00000000 -21910.00000000 840.00000000 0 170 170 0.000000 0.000000 0.000000 0.000000 -60.708740 0.000000 157.000000 0.822323 0.567361 -0.043428
3210.00000000 -21830.00000000 780.00000000 0 170 170 0.000000 0.000000 0.000000 0.000000 -60.708740 0.000000 157.000000 0.796710 0.516828 -0.313277
3220.00000000 -21840.00000000 790.00000000 0 170 170 0.000000 0.000000 0.000000 0.000000 -60.708740 0.000000 157.000000 0.797909 0.601587 0.037862
3200.00000000 -21820.00000000 760.00000000 0 170 170 0.000000 0.000000 0.000000 0.000000 -60.708740 0.000000 157.000000 0.788418 0.559573 0.255491
3210.00000000 -21840.00000000 780.00000000 0 170 170 0.000000 0.000000 0.000000 0.000000 -60.708740 0.000000 157.000000 0.957988 0.286786 0.003661
3210.00000000 -21820.00000000 790.00000000 0 170 170 0.000000 0.000000 0.000000 0.000000 -60.708740 0.000000 157.000000 0.674905 0.725785 0.133185
3200.00000000 -21800.00000000 800.00000000 0 170 170 0.000000 0.000000 0.000000 0.000000 -60.708740 0.000000 157.000000 0.646683 0.746638 -0.155991
3210.00000000 -21840.00000000 800.00000000 0 170 170 0.000000 0.000000 0.000000 0.000000 -60.708740 0.000000 157.000000 0.767232 0.496828 0.405607
3210.00000000 -21830.00000000 760.00000000 0 170 170 0.000000 0.000000 0.000000 0.000000 -60.708740 0.000000 157.000000 0.821309 0.568599 0.046330
3200.00000000 -21820.00000000 770.00000000 0 170 170 0.000000 0.000000 0.000000 0.000000 -60.708740 0.000000 157.000000 0.489710 0.869201 -0.068364
3240.00000000 -21840.00000000 800.00000000 0 170 170 0.000000 0.000000 0.000000 0.000000 -60.708740 0.000000 157.000000 0.818176 0.502169 -0.280026
3210.00000000 -21830.00000000 710.00000000 0 170 170 0.000000 0.000000 0.000000 0.000000 -60.708740 0.000000 157.000000 0.781913 0.587592 0.208202
3200.00000000 -21820.00000000 720.00000000 0 170 170 0.000000 0.000000 0.000000 0.000000 -60.708740 0.000000 157.000000 0.681382 0.722947 0.114306
3200.00000000 -21820.00000000 710.00000000 0 170 170 0.000000 0.000000 0.000000 0.000000 -60.708740 0.000000 157.000000 0.784924 0.618039 0.043843
3200.00000000 -21810.00000000 690.00000000 0 170 170 0.000000 0.000000 0.000000 0.000000 -60.708740 0.000000 157.000000 0.835934 0.548624 -0.015050
3240.00000000 -21880.00000000 760.00000000 0 170 170 0.000000 0.000000 0.000000 0.000000 -60.708740 0.000000 157.000000 0.824110 0.417612 0.382679
3240.00000000 -21870.00000000 740.00000000 0 170 170 0.000000 0.000000 0.000000 0.000000 -60.708740 0.000000 157.000000 0.846769 0.487533 -0.212824
3240.00000000 -21900.00000000 820.00000000 0 170 170 0.000000 0.000000 0.000000 0.000000 -60.708740 0.000000 157.000000 0.969171 0.155324 0.191267
3240.00000000 -21930.00000000 790.00000000 0 170 170 0.000000 0.000000 0.000000 0.000000 -60.708740 0.000000 157.000000 0.976409 0.012956 0.215540
3250.00000000 -21890.00000000 790.00000000 0 170 170 0.000000 0.000000 0.000000 0.000000 -60.708740 0.000000 157.000000 0.878519 0.396313 -0.266720
3260.00000000 -21890.00000000 760.00000000 0 170 170 0.000000 0.000000 0.000000 0.000000 -60.708740 0.000000 157.000000 0.940069 0.267207 0.211827
3260.00000000 -21930.00000000 770.00000000 0 170 170 0.000000 0.000000 0.000000 0.000000 -60.708740 0.000000 157.000000 0.976207 0.178286 0.123428
3210.00000000 -21860.00000000 800.00000000 0 170 170 0.000000 0.000000 0.000000 0.000000 -60.708740 0.000000 157.000000 0.869823 0.456325 0.187551
3230.00000000 -21860.00000000 760.00000000 0 170 170 0.000000 0.000000 0.000000 0.000000 -60.708740 0.000000 157.000000 0.934569 0.254371 0.248750
3210.00000000 -21850.00000000 770.00000000 0 170 170 0.000000 0.000000 0.000000 0.000000 -60.708740 0.000000 157.000000 0.949012 0.293331 -0.115474
3240.00000000 -21880.00000000 730.00000000 0 170 170 0.000000 0.000000 0.000000 0.000000 -60.708740 0.000000 157.000000 0.822526 0.557571 0.112096
3240.00000000 -21850.00000000 730.00000000 0 170 170 0.000000 0.000000 0.000000 0.000000 -60.708740 0.000000 157.000000 0.957008 0.276927 -0.086298
3260.00000000 -21870.00000000 660.00000000 0 170 170 0.000000 0.000000 0.000000 0.000000 -60.708740 0.000000 157.000000 0.821417 0.557861 -0.118600
3270.00000000 -21920.00000000 730.00000000 0 170 170 0.000000 0.000000 0.000000 0.000000 -60.708740 0.000000 157.000000 0.987615 0.019320 0.155700
3240.00000000 -21900.00000000 720.00000000 0 170 170 0.000000 0.000000 0.000000 0.000000 -60.708740 0.000000 157.000000 0.970071 0.232271 -0.070799
3270.00000000 -21930.00000000 670.00000000 0 170 170 0.000000 0.000000 0.000000 0.000000 -60.708740 0.000000 157.000000 0.915250 0.399503 -0.052109
3250.00000000 -21910.00000000 660.00000000 0 170 170 0.000000 0.000000 0.000000 0.000000 -60.708740 0.000000 157.000000 0.989613 0.094415 -0.108403
3250.00000000 -21930.00000000 660.00000000 0 170 170 0.000000 0.000000 0.000000 0.000000 -60.708740 0.000000 157.000000 0.902354 0.430994 -0.001302
3250.00000000 -21920.00000000 680.00000000 0 170 170 0.000000 0.000000 0.000000 0.000000 -60.708740 0.000000 157.000000 0.960159 0.235114 0.151051
3230.00000000 -21860.00000000 730.00000000 0 170 170 0.000000 0.000000 0.000000 0.000000 -60.708740 0.000000 157.000000 0.969534 0.217287 -0.113091
3230.00000000 -21860.00000000 690.00000000 0 170 170 0.000000 0.000000 0.000000 0.000000 -60.708740 0.000000 157.000000 0.757681 0.642027 0.117137
3220.00000000 -21850.00000000 690.00000000 0 170 170 0.000000 0.000000 0.000000 0.000000 -60.708740 0.000000 157.000000 0.720807 0.675283 -0.156301
3230.00000000 -21910.00000000 680.00000000 0 170 170 0.000000 0.000000 0.000000 0.000000 -60.708740 0.000000 157.000000 0.908482 0.294050 -0.296976
3160.00000000 -21760.00000000 960.00000000 0 170 170 0.000000 0.000000 0.000000 0.000000 -60.708740 0.000000 157.000000 0.425116 0.836115 -0.346682
3180.00000000 -21760.00000000 910.00000000 0 170 170 0.000000 0.000000 0.000000 0.000000 -60.708740 0.000000 157.000000 0.534252 0.814464 0.226326
3110.00000000 -21730.00000000 990.00000000 0 170 170 0.000000 0.000000 0.000000 0.000000 -60.708740 0.000000 157.000000 0.598658 0.762071 -0.246691
3130.00000000 -21740.00000000 980.00000000 0 170 170 0.000000 0.000000 0.000000 0.000000 -60.708740 0.000000 157.000000 0.801135 0.586519 -0.119068
3140.00000000 -21740.00000000 950.00000000 0 170 170 0.000000 0.000000 0.000000 0.000000 -60.708740 0.000000 157.000000 0.481844 0.875957 0.022945
3110.00000000 -21730.00000000 970.00000000 0 170 170 0.000000 0.000000 0.000000 0.000000 -60.708740 0.000000 157.000000 0.541657 0.836067 0.087180
3130.00000000 -21740.00000000 950.00000000 0 170 170 0.000000 0.000000 0.000000 0.000000 -60.708740 0.000000 157.000000 0.353669 0.890887 -0.285024
3120.00000000 -21730.00000000 960.00000000 0 170 170 0.000000 0.000000 0.000000 0.000000 -60.708740 0.000000 157.000000 0.450890 0.892578 0.001315
3130.00000000 -21750.00000000 940.00000000 0 170 170 0.000000 0.000000 0.000000 0.000000 -60.708740 0.000000 157.000000 0.237768 0.962767 -0.128629
3130.00000000 -21740.00000000 940.00000000 0 170 170 0.000000 0.000000 0.000000 0.000000 -60.708740 0.000000 157.000000 0.357124 0.925213 -0.128234
3130.00000000 -21740.00000000 920.00000000 0 170 170 0.000000 0.000000 0.000000 0.000000 -60.708740 0.000000 157.000000 0.698608 0.715341 0.015339
3160.00000000 -21740.00000000 890.00000000 0 170 170 0.000000 0.000000 0.000000 0.000000 -60.708740 0.000000 157.000000 0.572726 0.779849 0.252627
3130.00000000 -21750.00000000 860.00000000 0 170 170 0.000000 0.000000 0.000000 0.000000 -60.708740 0.000000 157.000000 0.565378 0.804868 -0.180375
3130.00000000 -21750.00000000 850.00000000 0 170 170 0.000000 0.000000 0.000000 0.000000 -60.708740 0.000000 157.000000 0.479472 0.877475 -0.012020
3110.00000000 -21730.00000000 830.00000000 0 170 170 0.000000 0.000000 0.000000 0.000000 -60.708740 0.000000 157.000000 0.573474 0.805842 -0.147465
3110.00000000 -21740.00000000 860.00000000 0 170 170 0.000000 0.000000 0.000000 0.000000 -60.708740 0.000000 157.000000 0.333078 0.898571 -0.285707
3130.00000000 -21750.00000000 850.00000000 0 170 170 0.000000 0.000000 0.000000 0.000000 -60.708740 0.000000 157.000000 0.479472 0.877475 -0.012020
3150.00000000 -21760.00000000 890.00000000 0 170 170 0.000000 0.000000 0.000000 0.000000 -60.708740 0.000000 157.000000 0.359926 0.914753 -0.183520
3120.00000000 -21750.00000000 840.00000000 0 170 170 0.000000 0.000000 0.000000 0.000000 -60.708740 0.000000 157.000000 0.668211 0.742299 -0.049867
3080.00000000 -21710.00000000 960.00000000 0 170 170 0.000000 0.000000 0.000000 0.000000 -60.708740 0.000000 157.000000 0.220594 0.955907 -0.193855
3090.00000000 -21720.00000000 920.00000000 0 170 170 0.000000 0.000000 0.000000 0.000000 -60.708740 0.000000 157.000000 0.658324 0.746297 -0.098236
3100.00000000 -21720.00000000 940.00000000 0 170 170 0.000000 0.000000 0.000000 0.000000 -60.708740 0.000000 157.000000 0.375344 0.918276 0.126038
3060.00000000 -21710.00000000 980.00000000 0 170 170 0.000000 0.000000 0.000000 0.000000 -60.708740 0.000000 157.000000 0.445735 0.884304 0.139023
3050.00000000 -21690.00000000 980.00000000 0 170 170 0.000000 0.000000 0.000000 0.000000 -60.708740 0.000000 157.000000 0.332387 0.923612 -0.190946
3030.00000000 -21710.00000000 920.00000000 0 170 170 0.000000 0.000000 0.000000 0.000000 -60.708740 0.000000 157.000000 0.370960 0.909497 0.187628
3040.00000000 -21710.00000000 910.00000000 0 170 170 0.000000 0.000000 0.000000 0.000000 -60.708740 0.000000 157.000000 0.122665 0.964538 0.233710
3050.00000000 -21700.00000000 910.00000000 0 170 170 0.000000 0.000000 0.000000 0.000000 -60.708740 0.000000 157.000000 0.182001 0.983266 0.008013
3070.00000000 -21710.00000000 900.00000000 0 170 170 0.000000 0.000000 0.000000 0.000000 -60.708740 0.000000 157.000000 0.659758 0.732895 -0.166082
3100.00000000 -21710.00000000 830.00000000 0 170 170 0.000000 0.000000 0.000000 0.000000 -60.708740 0.000000 157.000000 0.341471 0.857541 -0.384735
3080.00000000 -21700.00000000 840.00000000 0 170 170 0.000000 0.000000 0.000000 0.000000 -60.708740 0.000000 157.000000 0.424937 0.896461 -0.125646
3090.00000000 -21710.00000000 850.00000000 0 170 170 0.000000 0.000000 0.000000 0.000000 -60.708740 0.000000 157.000000 0.702874 0.708624 -0.061807
3080.00000000 -21700.00000000 840.00000000 0 170 170 0.000000 0.000000 0.000000 0.000000 -60.708740 0.000000 157.000000 0.424937 0.896461 -0.125646
3050.00000000 -21720.00000000 900.00000000 0 170 170 0.000000 0.000000 0.000000 0.000000 -60.708740 0.000000 157.000000 0.292780 0.953147 0.076097
3030.00000000 -21700.00000000 890.00000000 0 170 170 0.000000 0.000000 0.000000 0.000000 -60.708740 0.000000 157.000000 0.327684 0.791237 -0.516302
3040.00000000 -21700.00000000 870.00000000 0 170 170 0.000000 0.000000 0.000000 0.000000 -60.708740 0.000000 157.000000 0.330125 0.840176 -0.430258
3030.00000000 -21700.00000000 870.00000000 0 170 170 0.000000 0.000000 0.000000 0.000000 -60.708740 0.000000 157.000000 0.071183 0.988395 0.134198
3060.00000000 -21680.00000000 840.00000000 0 170 170 0.000000 0.000000 0.000000 0.000000 -60.708740 0.000000 157.000000 0.163986 0.947322 -0.275117
3050.00000000 -21710.00000000 830.00000000 0 170 170 0.000000 0.000000 0.000000 0.000000 -60.708740 0.000000 157.000000 0.572262 0.812290 -0.112696
3040.00000000 -21700.00000000 830.00000000 0 170 170 0.000000 0.000000 0.000000 0.000000 -60.708740 0.000000 157.000000 0.249009 0.968098 -0.027938
3030.00000000 -21700.00000000 860.00000000 0 170 170 0.000000 0.000000 0.000000 0.000000 -60.708740 0.000000 157.000000 0.171578 0.972277 -0.158869
3050.00000000 -21710.00000000 860.00000000 0 170 170 0.000000 0.000000 0.000000 0.000000 -60.708740 0.000000 157.000000 0.429777 0.889740 0.153800
3160.00000000 -21760.00000000 740.00000000 0 170 170 0.000000 0.000000 0.000000 0.000000 -60.708740 0.000000 157.000000 0.822532 0.543860 -0.166304
3130.00000000 -21760.00000000 820.00000000 0 170 170 0.000000 0.000000 0.000000 0.000000 -60.708740 0.000000 157.000000 0.303914 0.881503 -0.361371
3130.00000000 -21730.00000000 760.00000000 0 170 170 0.000000 0.000000 0.000000 0.000000 -60.708740 0.000000 157.000000 0.503023 0.804520 -0.315778
3140.00000000 -21760.00000000 770.00000000 0 170 170 0.000000 0.000000 0.000000 0.000000 -60.708740 0.000000 157.000000 0.407139 0.905219 0.121722
3130.00000000 -21740.00000000 760.00000000 0 170 170 0.000000 0.000000 0.000000 0.000000 -60.708740 0.000000 157.000000 0.237488 0.970656 -0.037755
3120.00000000 -21730.00000000 770.00000000 0 170 170 0.000000 0.000000 0.000000 0.000000 -60.708740 0.000000 157.000000 0.129486 0.933659 -0.333937
3130.00000000 -21730.00000000 750.00000000 0 170 170 0.000000 0.000000 0.000000 0.000000 -60.708740 0.000000 157.000000 0.238884 0.969152 -0.060649
3120.00000000 -21730.00000000 690.00000000 0 170 170 0.000000 0.000000 0.000000 0.000000 -60.708740 0.000000 157.000000 0.664128 0.744803 0.064828
3140.00000000 -21750.00000000 670.00000000 0 170 170 0.000000 0.000000 0.000000 0.000000 -60.708740 0.000000 157.000000 0.336885 0.897864 0.283458
3110.00000000 -21740.00000000 710.00000000 0 170 170 0.000000 0.000000 0.000000 0.000000 -60.708740 0.000000 157.000000 0.081470 0.996107 -0.033674
3040.00000000 -21700.00000000 820.00000000 0 170 170 0.000000 0.000000 0.000000 0.000000 -60.708740 0.000000 157.000000 0.206512 0.977651 0.039393
3050.00000000 -21690.00000000 810.00000000 0 170 170 0.000000 0.000000 0.000000 0.000000 -60.708740 0.000000 157.000000 -0.086343 0.991218 0.100158
3040.00000000 -21690.00000000 820.00000000 0 170 170 0.000000 0.000000 0.000000 0.000000 -60.708740 0.000000 157.000000 -0.071609 0.987267 -0.142044
3040.00000000 -21710.00000000 790.00000000 0 170 170 0.000000 0.000000 0.000000 0.000000 -60.708740 0.000000 157.000000 0.471589 0.793492 -0.384675
3040.00000000 -21720.00000000 750.00000000 0 170 170 0.000000 0.000000 0.000000 0.000000 -60.708740 0.000000 157.000000 0.274542 0.956342 -0.100188
3040.00000000 -21690.00000000 770.00000000 0 170 170 0.000000 0.000000 0.000000 0.000000 -60.708740 0.000000 157.000000 0.275027 0.936768 0.216392
3060.00000000 -21700.00000000 680.00000000 0 170 170 0.000000 0.000000 0.000000 0.000000 -60.708740 0.000000 157.000000 0.003122 0.997978 0.063479
3070.00000000 -21700.00000000 680.00000000 0 170 170 0.000000 0.000000 0.000000 0.000000 -60.708740 0.000000 157.000000 -0.150667 0.986927 -0.057230
3190.00000000 -21810.00000000 960.00000000 0 170 170 0.000000 0.000000 0.000000 0.000000 -60.708740 0.000000 157.000000 0.802352 0.578231 0.147920
3180.00000000 -21810.00000000 940.00000000 0 170 170 0.000000 0.000000 0.000000 0.000000 -60.708740 0.000000 157.000000 0.873648 0.436080 -0.215807
3160.00000000 -21790.00000000 920.00000000 0 170 170 0.000000 0.000000 0.000000 0.000000 -60.708740 0.000000 157.000000 0.900868 0.434043 -0.006557
3170.00000000 -21780.00000000 950.00000000 0 170 170 0.000000 0.000000 0.000000 0.000000 -60.708740 0.000000 157.000000 0.737165 0.655089 -0.165672
3190.00000000 -21790.00000000 940.00000000 0 170 170 0.000000 0.000000 0.000000 0.000000 -60.708740 0.000000 157.000000 0.776965 0.621864 -0.098035
3190.00000000 -21810.00000000 930.00000000 0 170 170 0.000000 0.000000 0.000000 0.000000 -60.708740 0.000000 157.000000 0.883536 0.441045 0.157619
3180.00000000 -21800.00000000 970.00000000 0 170 170 0.000000 0.000000 0.000000 0.000000 -60.708740 0.000000 157.000000 0.787293 0.565916 0.244762
3180.00000000 -21800.00000000 950.00000000 0 170 170 0.000000 0.000000 0.000000 0.000000 -60.708740 0.000000 157.000000 0.888578 0.446401 0.105615
3180.00000000 -21780.00000000 990.00000000 0 170 170 0.000000 0.000000 0.000000 0.000000 -60.708740 0.000000 157.000000 0.885960 0.380978 -0.264443
3190.00000000 -21810.00000000 920.00000000 0 170 170 0.000000 0.000000 0.000000 0.000000 -60.708740 0.000000 157.000000 0.825046 0.491285 0.279174
3170.00000000 -21810.00000000 920.00000000 0 170 170 0.000000 0.000000 0.000000 0.000000 -60.708740 0.000000 157.000000 0.620586 0.768560 0.155524
3170.00000000 -21780.00000000 850.00000000 0 170 170 0.000000 0.000000 0.000000 0.000000 -60.708740 0.000000 157.000000 0.526238 0.844562 -0.098938
3190.00000000 -21810.00000000 890.00000000 0 170 170 0.000000 0.000000 0.000000 0.000000 -60.708740 0.000000 157.000000 0.758072 0.643257 0.107455
3180.00000000 -21800.00000000 890.00000000 0 170 170 0.000000 0.000000 0.000000 0.000000 -60.708740 0.000000 157.000000 0.861549 0.443645 0.246806
3170.00000000 -21770.00000000 870.00000000 0 170 170 0.000000 0.000000 0.000000 0.000000 -60.708740 0.000000 157.000000 0.730068 0.673795 0.114027
3190.00000000 -21790.00000000 840.00000000 0 170 170 0.000000 0.000000 0.000000 0.000000 -60.708740 0.000000 157.000000 0.773881 0.613976 0.155380
3150.00000000 -21780.00000000 840.00000000 0 170 170 0.000000 0.000000 0.000000 0.000000 -60.708740 0.000000 157.000000 0.338433 0.910719 -0.236758
3180.00000000 -21790.00000000 870.00000000 0 170 170 0.000000 0.000000 0.000000 0.000000 -60.708740 0.000000 157.000000 0.855873 0.514633 0.051325
3180.00000000 -21790.00000000 840.00000000 0 170 170 0.000000 0.000000 0.000000 0.000000 -60.708740 0.000000 157.000000 0.797773 0.572017 -0.190672
3190.00000000 -21820.00000000 860.00000000 0 170 170 0.000000 0.000000 0.000000 0.000000 -60.708740 0.000000 157.000000 0.772276 0.619912 -0.138920
3190.00000000 -21810.00000000 900.00000000 0 170 170 0.000000 0.000000 0.000000 0.000000 -60.708740 0.000000 157.000000 0.761546 0.587388 -0.273903
3190.00000000 -21790.00000000 810.00000000 0 170 170 0.000000 0.000000 0.000000 0.000000 -60.708740 0.000000 157.000000 0.641653 0.740607 -0.199454
3180.00000000 -21800.00000000 750.00000000 0 170 170 0.000000 0.000000 0.000000 0.000000 -60.708740 0.000000 157.000000 0.544786 0.769771 -0.332657
3190.00000000 -21800.00000000 800.00000000 0 170 170 0.000000 0.000000 0.000000 0.000000 -60.708740 0.000000 157.000000 0.664246 0.747451 0.009707
3190.00000000 -21800.00000000 760.00000000 0 170 170 0.000000 0.000000 0.000000 0.000000 -60.708740 0.000000 157.000000 0.759006 0.645808 0.082721
3190.00000000 -21780.00000000 700.00000000 0 170 170 0.000000 0.000000 0.000000 0.000000 -60.708740 0.000000 157.000000 0.492997 0.829903 -0.261180
3150.00000000 -21770.00000000 680.00000000 0 170 170 0.000000 0.000000 0.000000 0.000000 -60.708740 0.000000 157.000000 0.680843 0.684018 0.261863
3190.00000000 -21810.00000000 730.00000000 0 170 170 0.000000 0.000000 0.000000 0.000000 -60.708740 0.000000 157.000000 0.778473 0.626986 -0.029456
3160.00000000 -21780.00000000 700.00000000 0 170 170 0.000000 0.000000 0.000000 0.000000 -60.708740 0.000000 157.000000 0.704720 0.676718 0.213127
3180.00000000 -21810.00000000 710.00000000 0 170 170 0.000000 0.000000 0.000000 0.000000 -60.708740 0.000000 157.000000 0.609864 0.792408 -0.012446
3170.00000000 -21780.00000000 690.00000000 0 170 170 0.000000 0.000000 0.000000 0.000000 -60.708740 0.000000 157.000000 0.541172 0.821556 -0.179386
3170.00000000 -21780.00000000 690.00000000 0 170 170 0.000000 0.000000 0.000000 0.000000 -60.708740 0.000000 157.000000 0.541172 0.821556 -0.179386
3170.00000000 -21770.00000000 670.00000000 0 170 170 0.000000 0.000000 0.000000 0.000000 -60.708740 0.000000 157.000000 0.588998 0.735030 0.335875
3170.00000000 -21770.00000000 670.00000000 0 170 170 0.000000 0.000000 0.000000 0.000000 -60.708740 0.000000 157.000000 0.588998 0.735030 0.335875
