//X Y Z R G B PointSourceId ScanDirectionFlag NumberOfReturns ReturnNumber GpsTime Intensity Classification Nx Ny Nz
10520.00000000 -2610.00000000 -480.00000000 192 129 95 0.000000 0.000000 0.000000 0.000000 -60.708740 0.000000 50.000000 0.528363 0.823759 0.205559
10520.00000000 -2620.00000000 -470.00000000 192 129 95 0.000000 0.000000 0.000000 0.000000 -60.708740 0.000000 50.000000 0.083066 0.942735 0.323035
10490.00000000 -2620.00000000 -500.00000000 192 129 95 0.000000 0.000000 0.000000 0.000000 -60.708740 0.000000 50.000000 -0.645389 0.697149 0.312180
10490.00000000 -2620.00000000 -500.00000000 192 129 95 0.000000 0.000000 0.000000 0.000000 -60.708740 0.000000 50.000000 -0.645389 0.697149 0.312180
10520.00000000 -2610.00000000 -490.00000000 192 129 95 0.000000 0.000000 0.000000 0.000000 -60.708740 0.000000 50.000000 0.454594 0.694380 0.557835
10470.00000000 -2600.00000000 -520.00000000 192 129 95 0.000000 0.000000 0.000000 0.000000 -60.708740 0.000000 50.000000 0.878659 -0.466832 -0.100136
10460.00000000 -2610.00000000 -520.00000000 192 129 95 0.000000 0.000000 0.000000 0.000000 -60.708740 0.000000 50.000000 0.821480 -0.567850 -0.052135
10460.00000000 -2640.00000000 -520.00000000 192 129 95 0.000000 0.000000 0.000000 0.000000 -60.708740 0.000000 50.000000 0.953496 0.209041 -0.217133
10450.00000000 -2650.00000000 -440.00000000 192 129 95 0.000000 0.000000 0.000000 0.000000 -60.708740 0.000000 50.000000 0.999544 -0.021353 -0.021353
10440.00000000 -2700.00000000 -390.00000000 192 129 95 0.000000 0.000000 0.000000 0.000000 -60.708740 0.000000 50.000000 0.800060 0.295091 0.522327
10450.00000000 -2720.00000000 -440.00000000 192 129 95 0.000000 0.000000 0.000000 0.000000 -60.708740 0.000000 50.000000 0.769470 0.509184 0.385548
10500.00000000 -2710.00000000 -520.00000000 192 129 95 0.000000 0.000000 0.000000 0.000000 -60.708740 0.000000 50.000000 0.336574 0.802353 0.492897
10480.00000000 -2700.00000000 -520.00000000 192 129 95 0.000000 0.000000 0.000000 0.000000 -60.708740 0.000000 50.000000 0.706165 0.678229 0.203313
10460.00000000 -2680.00000000 -480.00000000 192 129 95 0.000000 0.000000 0.000000 0.000000 -60.708740 0.000000 50.000000 0.858621 0.477673 0.186010
10450.00000000 -2650.00000000 -450.00000000 192 129 95 0.000000 0.000000 0.000000 0.000000 -60.708740 0.000000 50.000000 0.963757 -0.139166 0.227608
10460.00000000 -2670.00000000 -490.00000000 192 129 95 0.000000 0.000000 0.000000 0.000000 -60.708740 0.000000 50.000000 0.952184 0.273004 -0.137168
10460.00000000 -2650.00000000 -510.00000000 192 129 95 0.000000 0.000000 0.000000 0.000000 -60.708740 0.000000 50.000000 0.962793 -0.252557 0.096151
10440.00000000 -2700.00000000 -490.00000000 192 129 95 0.000000 0.000000 0.000000 0.000000 -60.708740 0.000000 50.000000 0.856674 0.412130 0.310255
10590.00000000 -2580.00000000 -540.00000000 192 129 95 0.000000 0.000000 0.000000 0.000000 -60.708740 0.000000 50.000000 0.893785 0.420351 -0.156376
10590.00000000 -2580.00000000 -600.00000000 192 129 95 0.000000 0.000000 0.000000 0.000000 -60.708740 0.000000 50.000000 0.918748 0.371113 0.134824
10580.00000000 -2570.00000000 -590.00000000 192 129 95 0.000000 0.000000 0.000000 0.000000 -60.708740 0.000000 50.000000 0.458532 0.881573 0.112149
10590.00000000 -2580.00000000 -580.00000000 192 129 95 0.000000 0.000000 0.000000 0.000000 -60.708740 0.000000 50.000000 0.652205 0.740382 0.162671
10590.00000000 -2620.00000000 -540.00000000 192 129 95 0.000000 0.000000 0.000000 0.000000 -60.708740 0.000000 50.000000 0.952996 0.184147 -0.240601
10590.00000000 -2640.00000000 -560.00000000 192 129 95 0.000000 0.000000 0.000000 0.000000 -60.708740 0.000000 50.000000 0.886050 -0.442309 -0.138848
10580.00000000 -2610.00000000 -560.00000000 192 129 95 0.000000 0.000000 0.000000 0.000000 -60.708740 0.000000 50.000000 0.990231 0.114391 0.079727
10580.00000000 -2640.00000000 -590.00000000 192 129 95 0.000000 0.000000 0.000000 0.000000 -60.708740 0.000000 50.000000 0.991808 -0.127155 -0.012163
10580.00000000 -2640.00000000 -580.00000000 192 129 95 0.000000 0.000000 0.000000 0.000000 -60.708740 0.000000 50.000000 0.963135 -0.023252 -0.268013
10540.00000000 -2570.00000000 -560.00000000 192 129 95 0.000000 0.000000 0.000000 0.000000 -60.708740 0.000000 50.000000 0.195302 0.755064 0.625888
10530.00000000 -2580.00000000 -530.00000000 192 129 95 0.000000 0.000000 0.000000 0.000000 -60.708740 0.000000 50.000000 0.292209 0.848797 0.440633
10530.00000000 -2580.00000000 -530.00000000 192 129 95 0.000000 0.000000 0.000000 0.000000 -60.708740 0.000000 50.000000 0.292209 0.848797 0.440633
10530.00000000 -2590.00000000 -550.00000000 192 129 95 0.000000 0.000000 0.000000 0.000000 -60.708740 0.000000 50.000000 0.380559 0.696868 0.607906
10540.00000000 -2570.00000000 -560.00000000 192 129 95 0.000000 0.000000 0.000000 0.000000 -60.708740 0.000000 50.000000 0.195302 0.755064 0.625888
10580.00000000 -2570.00000000 -610.00000000 192 129 95 0.000000 0.000000 0.000000 0.000000 -60.708740 0.000000 50.000000 0.634837 0.684049 0.359249
10590.00000000 -2580.00000000 -620.00000000 192 129 95 0.000000 0.000000 0.000000 0.000000 -60.708740 0.000000 50.000000 0.632713 0.733695 0.247721
10590.00000000 -2590.00000000 -610.00000000 192 129 95 0.000000 0.000000 0.000000 0.000000 -60.708740 0.000000 50.000000 0.916845 0.337181 0.213787
10590.00000000 -2600.00000000 -690.00000000 192 129 95 0.000000 0.000000 0.000000 0.000000 -60.708740 0.000000 50.000000 0.994921 -0.098948 0.018485
10590.00000000 -2570.00000000 -660.00000000 192 129 95 0.000000 0.000000 0.000000 0.000000 -60.708740 0.000000 50.000000 0.921902 0.205972 0.328135
10590.00000000 -2620.00000000 -650.00000000 192 129 95 0.000000 0.000000 0.000000 0.000000 -60.708740 0.000000 50.000000 0.819409 -0.555657 -0.140766
10590.00000000 -2610.00000000 -660.00000000 192 129 95 0.000000 0.000000 0.000000 0.000000 -60.708740 0.000000 50.000000 0.971758 -0.164295 0.169389
10580.00000000 -2620.00000000 -680.00000000 192 129 95 0.000000 0.000000 0.000000 0.000000 -60.708740 0.000000 50.000000 -0.668390 0.723452 -0.172833
10560.00000000 -2640.00000000 -650.00000000 192 129 95 0.000000 0.000000 0.000000 0.000000 -60.708740 0.000000 50.000000 0.899854 -0.436174 0.003929
10540.00000000 -2640.00000000 -690.00000000 192 129 95 0.000000 0.000000 0.000000 0.000000 -60.708740 0.000000 50.000000 0.033313 0.963599 0.265267
10550.00000000 -2640.00000000 -660.00000000 192 129 95 0.000000 0.000000 0.000000 0.000000 -60.708740 0.000000 50.000000 -0.668610 0.684644 0.290212
10560.00000000 -2640.00000000 -690.00000000 192 129 95 0.000000 0.000000 0.000000 0.000000 -60.708740 0.000000 50.000000 -0.453129 0.722019 0.522841
10600.00000000 -2660.00000000 -550.00000000 192 129 95 0.000000 0.000000 0.000000 0.000000 -60.708740 0.000000 50.000000 0.890748 -0.345820 -0.294920
10600.00000000 -2660.00000000 -550.00000000 192 129 95 0.000000 0.000000 0.000000 0.000000 -60.708740 0.000000 50.000000 0.890748 -0.345820 -0.294920
10580.00000000 -2670.00000000 -560.00000000 192 129 95 0.000000 0.000000 0.000000 0.000000 -60.708740 0.000000 50.000000 0.951496 -0.299998 -0.068240
10600.00000000 -2650.00000000 -540.00000000 192 129 95 0.000000 0.000000 0.000000 0.000000 -60.708740 0.000000 50.000000 0.981168 -0.085898 0.173005
10590.00000000 -2660.00000000 -600.00000000 192 129 95 0.000000 0.000000 0.000000 0.000000 -60.708740 0.000000 50.000000 0.889434 -0.428139 0.160012
10580.00000000 -2670.00000000 -590.00000000 192 129 95 0.000000 0.000000 0.000000 0.000000 -60.708740 0.000000 50.000000 -0.509755 0.832347 -0.217597
10570.00000000 -2700.00000000 -530.00000000 192 129 95 0.000000 0.000000 0.000000 0.000000 -60.708740 0.000000 50.000000 0.878013 -0.467991 -0.100385
10540.00000000 -2680.00000000 -590.00000000 192 129 95 0.000000 0.000000 0.000000 0.000000 -60.708740 0.000000 50.000000 -0.333681 0.897232 0.289191
10560.00000000 -2680.00000000 -570.00000000 192 129 95 0.000000 0.000000 0.000000 0.000000 -60.708740 0.000000 50.000000 0.598869 -0.642485 -0.478089
10550.00000000 -2720.00000000 -530.00000000 192 129 95 0.000000 0.000000 0.000000 0.000000 -60.708740 0.000000 50.000000 -0.187273 0.974071 -0.126943
10540.00000000 -2700.00000000 -540.00000000 192 129 95 0.000000 0.000000 0.000000 0.000000 -60.708740 0.000000 50.000000 -0.492235 0.861772 -0.122698
10530.00000000 -2690.00000000 -570.00000000 192 129 95 0.000000 0.000000 0.000000 0.000000 -60.708740 0.000000 50.000000 -0.416228 0.907025 -0.063722
10550.00000000 -2710.00000000 -600.00000000 192 129 95 0.000000 0.000000 0.000000 0.000000 -60.708740 0.000000 50.000000 -0.656222 0.700928 0.279413
10530.00000000 -2690.00000000 -580.00000000 192 129 95 0.000000 0.000000 0.000000 0.000000 -60.708740 0.000000 50.000000 -0.430697 0.856795 0.283555
10600.00000000 -2660.00000000 -650.00000000 192 129 95 0.000000 0.000000 0.000000 0.000000 -60.708740 0.000000 50.000000 0.744619 -0.640219 -0.188842
10570.00000000 -2660.00000000 -640.00000000 192 129 95 0.000000 0.000000 0.000000 0.000000 -60.708740 0.000000 50.000000 -0.290191 0.948136 0.129717
10530.00000000 -2680.00000000 -650.00000000 192 129 95 0.000000 0.000000 0.000000 0.000000 -60.708740 0.000000 50.000000 -0.357953 0.904380 0.232305
10560.00000000 -2660.00000000 -620.00000000 192 129 95 0.000000 0.000000 0.000000 0.000000 -60.708740 0.000000 50.000000 -0.694435 0.691342 0.199515
10560.00000000 -2660.00000000 -620.00000000 192 129 95 0.000000 0.000000 0.000000 0.000000 -60.708740 0.000000 50.000000 -0.694435 0.691342 0.199515
10560.00000000 -2670.00000000 -640.00000000 192 129 95 0.000000 0.000000 0.000000 0.000000 -60.708740 0.000000 50.000000 -0.403862 0.914819 -0.001290
10540.00000000 -2670.00000000 -650.00000000 192 129 95 0.000000 0.000000 0.000000 0.000000 -60.708740 0.000000 50.000000 -0.299079 0.860426 0.412575
10560.00000000 -2650.00000000 -670.00000000 192 129 95 0.000000 0.000000 0.000000 0.000000 -60.708740 0.000000 50.000000 -0.326703 0.945060 -0.011266
10530.00000000 -2650.00000000 -690.00000000 192 129 95 0.000000 0.000000 0.000000 0.000000 -60.708740 0.000000 50.000000 -0.001304 0.903365 0.428870
10490.00000000 -2590.00000000 -550.00000000 192 129 95 0.000000 0.000000 0.000000 0.000000 -60.708740 0.000000 50.000000 -0.245256 0.912815 0.326524
10520.00000000 -2570.00000000 -560.00000000 192 129 95 0.000000 0.000000 0.000000 0.000000 -60.708740 0.000000 50.000000 0.133100 0.991097 -0.003300
10490.00000000 -2590.00000000 -530.00000000 192 129 95 0.000000 0.000000 0.000000 0.000000 -60.708740 0.000000 50.000000 -0.285395 0.850014 0.442748
10510.00000000 -2600.00000000 -540.00000000 192 129 95 0.000000 0.000000 0.000000 0.000000 -60.708740 0.000000 50.000000 -0.120337 0.971560 0.203939
10490.00000000 -2580.00000000 -530.00000000 192 129 95 0.000000 0.000000 0.000000 0.000000 -60.708740 0.000000 50.000000 -0.249657 0.817202 0.519473
10480.00000000 -2580.00000000 -540.00000000 192 129 95 0.000000 0.000000 0.000000 0.000000 -60.708740 0.000000 50.000000 -0.605659 0.734181 0.306846
10510.00000000 -2570.00000000 -560.00000000 192 129 95 0.000000 0.000000 0.000000 0.000000 -60.708740 0.000000 50.000000 -0.175547 0.925486 0.335647
10480.00000000 -2590.00000000 -530.00000000 192 129 95 0.000000 0.000000 0.000000 0.000000 -60.708740 0.000000 50.000000 0.716784 -0.650327 -0.251586
10500.00000000 -2580.00000000 -560.00000000 192 129 95 0.000000 0.000000 0.000000 0.000000 -60.708740 0.000000 50.000000 -0.429377 0.741950 0.514923
10520.00000000 -2570.00000000 -580.00000000 192 129 95 0.000000 0.000000 0.000000 0.000000 -60.708740 0.000000 50.000000 -0.405281 0.875347 0.263659
10510.00000000 -2570.00000000 -580.00000000 192 129 95 0.000000 0.000000 0.000000 0.000000 -60.708740 0.000000 50.000000 -0.205921 0.971490 -0.117488
10480.00000000 -2580.00000000 -600.00000000 192 129 95 0.000000 0.000000 0.000000 0.000000 -60.708740 0.000000 50.000000 0.763511 -0.643633 -0.052804
10500.00000000 -2570.00000000 -570.00000000 192 129 95 0.000000 0.000000 0.000000 0.000000 -60.708740 0.000000 50.000000 0.019787 0.981186 0.192047
10490.00000000 -2570.00000000 -570.00000000 192 129 95 0.000000 0.000000 0.000000 0.000000 -60.708740 0.000000 50.000000 -0.197575 0.978180 -0.064242
10500.00000000 -2570.00000000 -580.00000000 192 129 95 0.000000 0.000000 0.000000 0.000000 -60.708740 0.000000 50.000000 -0.142350 0.987038 0.074116
10480.00000000 -2620.00000000 -580.00000000 192 129 95 0.000000 0.000000 0.000000 0.000000 -60.708740 0.000000 50.000000 0.934802 0.299527 0.190861
10470.00000000 -2600.00000000 -560.00000000 192 129 95 0.000000 0.000000 0.000000 0.000000 -60.708740 0.000000 50.000000 0.904866 -0.422091 0.055290
10460.00000000 -2600.00000000 -590.00000000 192 129 95 0.000000 0.000000 0.000000 0.000000 -60.708740 0.000000 50.000000 0.902210 -0.419923 -0.098398
10460.00000000 -2600.00000000 -580.00000000 192 129 95 0.000000 0.000000 0.000000 0.000000 -60.708740 0.000000 50.000000 0.899850 -0.315763 -0.300938
10470.00000000 -2590.00000000 -600.00000000 192 129 95 0.000000 0.000000 0.000000 0.000000 -60.708740 0.000000 50.000000 0.982468 -0.186429 -0.001144
10470.00000000 -2590.00000000 -590.00000000 192 129 95 0.000000 0.000000 0.000000 0.000000 -60.708740 0.000000 50.000000 0.944000 -0.320777 -0.077248
10460.00000000 -2620.00000000 -530.00000000 192 129 95 0.000000 0.000000 0.000000 0.000000 -60.708740 0.000000 50.000000 0.858437 -0.399166 -0.322107
10460.00000000 -2620.00000000 -540.00000000 192 129 95 0.000000 0.000000 0.000000 0.000000 -60.708740 0.000000 50.000000 0.988750 -0.148030 -0.021470
10460.00000000 -2620.00000000 -540.00000000 192 129 95 0.000000 0.000000 0.000000 0.000000 -60.708740 0.000000 50.000000 0.988750 -0.148030 -0.021470
10460.00000000 -2610.00000000 -550.00000000 192 129 95 0.000000 0.000000 0.000000 0.000000 -60.708740 0.000000 50.000000 0.995600 -0.091885 -0.018377
10450.00000000 -2640.00000000 -590.00000000 192 129 95 0.000000 0.000000 0.000000 0.000000 -60.708740 0.000000 50.000000 0.906321 0.011770 0.422427
10480.00000000 -2580.00000000 -610.00000000 192 129 95 0.000000 0.000000 0.000000 0.000000 -60.708740 0.000000 50.000000 -0.638052 0.714810 0.286244
10490.00000000 -2570.00000000 -620.00000000 192 129 95 0.000000 0.000000 0.000000 0.000000 -60.708740 0.000000 50.000000 -0.342384 0.919180 0.194633
10480.00000000 -2570.00000000 -620.00000000 192 129 95 0.000000 0.000000 0.000000 0.000000 -60.708740 0.000000 50.000000 -0.624944 0.743982 -0.236508
10510.00000000 -2570.00000000 -630.00000000 192 129 95 0.000000 0.000000 0.000000 0.000000 -60.708740 0.000000 50.000000 -0.268926 0.849805 0.453332
10490.00000000 -2630.00000000 -610.00000000 192 129 95 0.000000 0.000000 0.000000 0.000000 -60.708740 0.000000 50.000000 0.986245 0.115678 0.118063
10480.00000000 -2610.00000000 -660.00000000 192 129 95 0.000000 0.000000 0.000000 0.000000 -60.708740 0.000000 50.000000 0.993871 0.097263 -0.052544
10460.00000000 -2570.00000000 -640.00000000 192 129 95 0.000000 0.000000 0.000000 0.000000 -60.708740 0.000000 50.000000 0.856301 -0.394858 -0.332920
10470.00000000 -2580.00000000 -610.00000000 192 129 95 0.000000 0.000000 0.000000 0.000000 -60.708740 0.000000 50.000000 0.851857 -0.496300 0.167409
10450.00000000 -2570.00000000 -680.00000000 192 129 95 0.000000 0.000000 0.000000 0.000000 -60.708740 0.000000 50.000000 0.942123 -0.332892 0.039844
10460.00000000 -2590.00000000 -660.00000000 192 129 95 0.000000 0.000000 0.000000 0.000000 -60.708740 0.000000 50.000000 0.785555 -0.610012 0.103863
10470.00000000 -2590.00000000 -670.00000000 192 129 95 0.000000 0.000000 0.000000 0.000000 -60.708740 0.000000 50.000000 0.978608 -0.202839 -0.034400
10470.00000000 -2590.00000000 -670.00000000 192 129 95 0.000000 0.000000 0.000000 0.000000 -60.708740 0.000000 50.000000 0.978608 -0.202839 -0.034400
10450.00000000 -2610.00000000 -640.00000000 192 129 95 0.000000 0.000000 0.000000 0.000000 -60.708740 0.000000 50.000000 0.956862 -0.152198 0.247487
10470.00000000 -2610.00000000 -650.00000000 192 129 95 0.000000 0.000000 0.000000 0.000000 -60.708740 0.000000 50.000000 0.952464 0.231023 0.198599
10450.00000000 -2620.00000000 -610.00000000 192 129 95 0.000000 0.000000 0.000000 0.000000 -60.708740 0.000000 50.000000 0.997950 0.052076 0.037197
10470.00000000 -2630.00000000 -670.00000000 192 129 95 0.000000 0.000000 0.000000 0.000000 -60.708740 0.000000 50.000000 0.929872 0.317415 -0.185974
10460.00000000 -2620.00000000 -660.00000000 192 129 95 0.000000 0.000000 0.000000 0.000000 -60.708740 0.000000 50.000000 0.994681 0.018521 0.101320
10460.00000000 -2610.00000000 -670.00000000 192 129 95 0.000000 0.000000 0.000000 0.000000 -60.708740 0.000000 50.000000 0.979557 0.149466 -0.134643
10470.00000000 -2620.00000000 -660.00000000 192 129 95 0.000000 0.000000 0.000000 0.000000 -60.708740 0.000000 50.000000 0.898989 0.428024 -0.092808
10470.00000000 -2620.00000000 -670.00000000 192 129 95 0.000000 0.000000 0.000000 0.000000 -60.708740 0.000000 50.000000 0.900250 0.434922 -0.019829
10490.00000000 -2700.00000000 -600.00000000 192 129 95 0.000000 0.000000 0.000000 0.000000 -60.708740 0.000000 50.000000 0.171890 0.871205 0.459843
10500.00000000 -2690.00000000 -590.00000000 192 129 95 0.000000 0.000000 0.000000 0.000000 -60.708740 0.000000 50.000000 0.516931 0.838709 0.171317
10450.00000000 -2650.00000000 -540.00000000 192 129 95 0.000000 0.000000 0.000000 0.000000 -60.708740 0.000000 50.000000 0.938623 0.336637 0.075248
10460.00000000 -2680.00000000 -560.00000000 192 129 95 0.000000 0.000000 0.000000 0.000000 -60.708740 0.000000 50.000000 0.789562 0.606349 0.094515
10460.00000000 -2680.00000000 -550.00000000 192 129 95 0.000000 0.000000 0.000000 0.000000 -60.708740 0.000000 50.000000 0.847987 0.446390 0.285752
10470.00000000 -2670.00000000 -590.00000000 192 129 95 0.000000 0.000000 0.000000 0.000000 -60.708740 0.000000 50.000000 0.821932 0.569452 0.012350
10460.00000000 -2660.00000000 -600.00000000 192 129 95 0.000000 0.000000 0.000000 0.000000 -60.708740 0.000000 50.000000 0.736149 0.660879 -0.146026
10460.00000000 -2690.00000000 -530.00000000 192 129 95 0.000000 0.000000 0.000000 0.000000 -60.708740 0.000000 50.000000 0.758448 0.631283 0.161984
10460.00000000 -2690.00000000 -530.00000000 192 129 95 0.000000 0.000000 0.000000 0.000000 -60.708740 0.000000 50.000000 0.758448 0.631283 0.161984
10480.00000000 -2660.00000000 -630.00000000 192 129 95 0.000000 0.000000 0.000000 0.000000 -60.708740 0.000000 50.000000 0.552365 0.708288 0.439570
10500.00000000 -2680.00000000 -610.00000000 192 129 95 0.000000 0.000000 0.000000 0.000000 -60.708740 0.000000 50.000000 0.445098 0.838658 0.313911
10490.00000000 -2670.00000000 -620.00000000 192 129 95 0.000000 0.000000 0.000000 0.000000 -60.708740 0.000000 50.000000 0.465977 0.794902 0.388583
10480.00000000 -2660.00000000 -640.00000000 192 129 95 0.000000 0.000000 0.000000 0.000000 -60.708740 0.000000 50.000000 0.393303 0.816859 0.421964
10510.00000000 -2670.00000000 -690.00000000 192 129 95 0.000000 0.000000 0.000000 0.000000 -60.708740 0.000000 50.000000 0.427862 0.903843 -0.001300
10510.00000000 -2670.00000000 -670.00000000 192 129 95 0.000000 0.000000 0.000000 0.000000 -60.708740 0.000000 50.000000 0.226118 0.845288 0.484106
10510.00000000 -2670.00000000 -690.00000000 192 129 95 0.000000 0.000000 0.000000 0.000000 -60.708740 0.000000 50.000000 0.427862 0.903843 -0.001300
10500.00000000 -2670.00000000 -660.00000000 192 129 95 0.000000 0.000000 0.000000 0.000000 -60.708740 0.000000 50.000000 0.178934 0.908982 0.376476
10500.00000000 -2670.00000000 -670.00000000 192 129 95 0.000000 0.000000 0.000000 0.000000 -60.708740 0.000000 50.000000 0.303581 0.819512 0.486044
10500.00000000 -2660.00000000 -680.00000000 192 129 95 0.000000 0.000000 0.000000 0.000000 -60.708740 0.000000 50.000000 0.660733 0.745330 0.088973
10490.00000000 -2650.00000000 -680.00000000 192 129 95 0.000000 0.000000 0.000000 0.000000 -60.708740 0.000000 50.000000 0.400639 0.875359 0.270620
10460.00000000 -2650.00000000 -620.00000000 192 129 95 0.000000 0.000000 0.000000 0.000000 -60.708740 0.000000 50.000000 0.760654 0.505467 0.407318
10470.00000000 -2660.00000000 -630.00000000 192 129 95 0.000000 0.000000 0.000000 0.000000 -60.708740 0.000000 50.000000 0.710048 0.523806 0.470594
10470.00000000 -2650.00000000 -630.00000000 192 129 95 0.000000 0.000000 0.000000 0.000000 -60.708740 0.000000 50.000000 0.650779 0.446679 0.613974
10460.00000000 -2660.00000000 -620.00000000 192 129 95 0.000000 0.000000 0.000000 0.000000 -60.708740 0.000000 50.000000 0.705273 0.664250 0.247713
10620.00000000 -2780.00000000 -150.00000000 192 129 95 0.000000 0.000000 0.000000 0.000000 -60.708740 0.000000 50.000000 0.963293 -0.260656 -0.064220
10610.00000000 -2780.00000000 -170.00000000 192 129 95 0.000000 0.000000 0.000000 0.000000 -60.708740 0.000000 50.000000 -0.678405 0.717865 -0.156322
10580.00000000 -2790.00000000 -100.00000000 192 129 95 0.000000 0.000000 0.000000 0.000000 -60.708740 0.000000 50.000000 0.946010 -0.287447 0.149796
10600.00000000 -2740.00000000 -130.00000000 192 129 95 0.000000 0.000000 0.000000 0.000000 -60.708740 0.000000 50.000000 0.965173 0.261476 0.008435
10590.00000000 -2800.00000000 -140.00000000 192 129 95 0.000000 0.000000 0.000000 0.000000 -60.708740 0.000000 50.000000 0.863494 -0.475142 0.169168
10570.00000000 -2790.00000000 -160.00000000 192 129 95 0.000000 0.000000 0.000000 0.000000 -60.708740 0.000000 50.000000 -0.666763 0.732691 -0.136349
10540.00000000 -2740.00000000 -180.00000000 192 129 95 0.000000 0.000000 0.000000 0.000000 -60.708740 0.000000 50.000000 0.950702 -0.176655 -0.254869
10570.00000000 -2850.00000000 -130.00000000 192 129 95 0.000000 0.000000 0.000000 0.000000 -60.708740 0.000000 50.000000 -0.553724 0.793931 -0.251125
10560.00000000 -2830.00000000 -170.00000000 192 129 95 0.000000 0.000000 0.000000 0.000000 -60.708740 0.000000 50.000000 -0.582692 0.738509 0.339227
10560.00000000 -2830.00000000 -170.00000000 192 129 95 0.000000 0.000000 0.000000 0.000000 -60.708740 0.000000 50.000000 -0.582692 0.738509 0.339227
10510.00000000 -2730.00000000 -110.00000000 192 129 95 0.000000 0.000000 0.000000 0.000000 -60.708740 0.000000 50.000000 0.965512 0.108700 0.236582
10490.00000000 -2780.00000000 -140.00000000 192 129 95 0.000000 0.000000 0.000000 0.000000 -60.708740 0.000000 50.000000 -0.453819 0.867464 0.203847
10490.00000000 -2780.00000000 -130.00000000 192 129 95 0.000000 0.000000 0.000000 0.000000 -60.708740 0.000000 50.000000 0.735535 -0.663630 -0.136321
10490.00000000 -2790.00000000 -120.00000000 192 129 95 0.000000 0.000000 0.000000 0.000000 -60.708740 0.000000 50.000000 0.740466 -0.663917 0.104519
10490.00000000 -2850.00000000 -150.00000000 192 129 95 0.000000 0.000000 0.000000 0.000000 -60.708740 0.000000 50.000000 -0.490141 0.846060 0.209630
10460.00000000 -2870.00000000 -180.00000000 192 129 95 0.000000 0.000000 0.000000 0.000000 -60.708740 0.000000 50.000000 -0.185670 0.819667 0.541916
10470.00000000 -2860.00000000 -160.00000000 192 129 95 0.000000 0.000000 0.000000 0.000000 -60.708740 0.000000 50.000000 -0.081213 0.991716 0.099515
10590.00000000 -2750.00000000 -200.00000000 192 129 95 0.000000 0.000000 0.000000 0.000000 -60.708740 0.000000 50.000000 0.983040 0.038665 -0.179267
10590.00000000 -2740.00000000 -230.00000000 192 129 95 0.000000 0.000000 0.000000 0.000000 -60.708740 0.000000 50.000000 0.996311 -0.003176 -0.085761
10580.00000000 -2770.00000000 -190.00000000 192 129 95 0.000000 0.000000 0.000000 0.000000 -60.708740 0.000000 50.000000 0.913206 -0.334311 0.233005
10590.00000000 -2760.00000000 -270.00000000 192 129 95 0.000000 0.000000 0.000000 0.000000 -60.708740 0.000000 50.000000 0.827633 -0.561268 0.001359
10590.00000000 -2800.00000000 -210.00000000 192 129 95 0.000000 0.000000 0.000000 0.000000 -60.708740 0.000000 50.000000 0.879500 -0.461773 -0.115088
10570.00000000 -2800.00000000 -270.00000000 192 129 95 0.000000 0.000000 0.000000 0.000000 -60.708740 0.000000 50.000000 0.587107 -0.758943 -0.281621
10580.00000000 -2790.00000000 -270.00000000 192 129 95 0.000000 0.000000 0.000000 0.000000 -60.708740 0.000000 50.000000 -0.577450 0.765161 0.284748
10530.00000000 -2730.00000000 -200.00000000 192 129 95 0.000000 0.000000 0.000000 0.000000 -60.708740 0.000000 50.000000 0.964441 -0.258266 -0.056145
10540.00000000 -2780.00000000 -210.00000000 192 129 95 0.000000 0.000000 0.000000 0.000000 -60.708740 0.000000 50.000000 -0.501731 0.860717 -0.086213
10560.00000000 -2780.00000000 -250.00000000 192 129 95 0.000000 0.000000 0.000000 0.000000 -60.708740 0.000000 50.000000 -0.704085 0.698105 -0.130054
10550.00000000 -2780.00000000 -260.00000000 192 129 95 0.000000 0.000000 0.000000 0.000000 -60.708740 0.000000 50.000000 0.887573 -0.388034 -0.248282
10600.00000000 -2770.00000000 -290.00000000 192 129 95 0.000000 0.000000 0.000000 0.000000 -60.708740 0.000000 50.000000 0.871935 -0.457288 -0.174975
10600.00000000 -2760.00000000 -320.00000000 192 129 95 0.000000 0.000000 0.000000 0.000000 -60.708740 0.000000 50.000000 0.823290 -0.523912 -0.218424
10570.00000000 -2810.00000000 -300.00000000 192 129 95 0.000000 0.000000 0.000000 0.000000 -60.708740 0.000000 50.000000 0.714531 -0.644510 0.272126
10560.00000000 -2780.00000000 -310.00000000 192 129 95 0.000000 0.000000 0.000000 0.000000 -60.708740 0.000000 50.000000 0.816506 -0.564371 0.121670
10560.00000000 -2800.00000000 -280.00000000 192 129 95 0.000000 0.000000 0.000000 0.000000 -60.708740 0.000000 50.000000 -0.703928 0.669283 0.237792
10540.00000000 -2800.00000000 -310.00000000 192 129 95 0.000000 0.000000 0.000000 0.000000 -60.708740 0.000000 50.000000 -0.702312 0.657721 0.272325
10550.00000000 -2780.00000000 -280.00000000 192 129 95 0.000000 0.000000 0.000000 0.000000 -60.708740 0.000000 50.000000 0.828338 -0.505609 0.241278
10550.00000000 -2790.00000000 -300.00000000 192 129 95 0.000000 0.000000 0.000000 0.000000 -60.708740 0.000000 50.000000 0.788821 -0.597228 -0.145191
10530.00000000 -2800.00000000 -310.00000000 192 129 95 0.000000 0.000000 0.000000 0.000000 -60.708740 0.000000 50.000000 -0.528099 0.794527 0.299732
10560.00000000 -2780.00000000 -290.00000000 192 129 95 0.000000 0.000000 0.000000 0.000000 -60.708740 0.000000 50.000000 0.746104 -0.581735 0.323903
10540.00000000 -2780.00000000 -330.00000000 192 129 95 0.000000 0.000000 0.000000 0.000000 -60.708740 0.000000 50.000000 -0.472155 0.748539 0.465575
10570.00000000 -2820.00000000 -230.00000000 192 129 95 0.000000 0.000000 0.000000 0.000000 -60.708740 0.000000 50.000000 0.773996 -0.543239 -0.325303
10600.00000000 -2840.00000000 -200.00000000 192 129 95 0.000000 0.000000 0.000000 0.000000 -60.708740 0.000000 50.000000 -0.445133 0.877044 -0.180697
10540.00000000 -2830.00000000 -210.00000000 192 129 95 0.000000 0.000000 0.000000 0.000000 -60.708740 0.000000 50.000000 0.706734 -0.672411 -0.219977
10530.00000000 -2830.00000000 -230.00000000 192 129 95 0.000000 0.000000 0.000000 0.000000 -60.708740 0.000000 50.000000 -0.252399 0.885636 0.389799
10540.00000000 -2830.00000000 -240.00000000 192 129 95 0.000000 0.000000 0.000000 0.000000 -60.708740 0.000000 50.000000 -0.529599 0.837677 -0.133500
10540.00000000 -2850.00000000 -240.00000000 192 129 95 0.000000 0.000000 0.000000 0.000000 -60.708740 0.000000 50.000000 -0.368225 0.877374 0.307611
10560.00000000 -2830.00000000 -240.00000000 192 129 95 0.000000 0.000000 0.000000 0.000000 -60.708740 0.000000 50.000000 0.714677 -0.583242 -0.386090
10540.00000000 -2830.00000000 -260.00000000 192 129 95 0.000000 0.000000 0.000000 0.000000 -60.708740 0.000000 50.000000 -0.416738 0.815912 0.400771
10530.00000000 -2860.00000000 -220.00000000 192 129 95 0.000000 0.000000 0.000000 0.000000 -60.708740 0.000000 50.000000 -0.171278 0.963601 0.205272
10560.00000000 -2860.00000000 -210.00000000 192 129 95 0.000000 0.000000 0.000000 0.000000 -60.708740 0.000000 50.000000 0.716231 -0.692892 0.083147
10540.00000000 -2820.00000000 -280.00000000 192 129 95 0.000000 0.000000 0.000000 0.000000 -60.708740 0.000000 50.000000 0.706912 -0.625657 -0.329892
10540.00000000 -2820.00000000 -290.00000000 192 129 95 0.000000 0.000000 0.000000 0.000000 -60.708740 0.000000 50.000000 0.778068 -0.609512 -0.152002
10480.00000000 -2730.00000000 -220.00000000 192 129 95 0.000000 0.000000 0.000000 0.000000 -60.708740 0.000000 50.000000 -0.185224 0.981090 0.056165
10480.00000000 -2750.00000000 -230.00000000 192 129 95 0.000000 0.000000 0.000000 0.000000 -60.708740 0.000000 50.000000 -0.284204 0.837083 0.467462
10520.00000000 -2750.00000000 -330.00000000 192 129 95 0.000000 0.000000 0.000000 0.000000 -60.708740 0.000000 50.000000 -0.318696 0.830494 0.456850
10520.00000000 -2810.00000000 -320.00000000 192 129 95 0.000000 0.000000 0.000000 0.000000 -60.708740 0.000000 50.000000 -0.393526 0.785433 0.477737
10520.00000000 -2790.00000000 -350.00000000 192 129 95 0.000000 0.000000 0.000000 0.000000 -60.708740 0.000000 50.000000 -0.174496 0.968128 0.179666
10520.00000000 -2810.00000000 -340.00000000 192 129 95 0.000000 0.000000 0.000000 0.000000 -60.708740 0.000000 50.000000 -0.089937 0.976984 0.193426
10480.00000000 -2790.00000000 -330.00000000 192 129 95 0.000000 0.000000 0.000000 0.000000 -60.708740 0.000000 50.000000 -0.018198 0.996606 -0.080285
10490.00000000 -2780.00000000 -350.00000000 192 129 95 0.000000 0.000000 0.000000 0.000000 -60.708740 0.000000 50.000000 -0.101784 0.899328 0.425264
10460.00000000 -2770.00000000 -340.00000000 192 129 95 0.000000 0.000000 0.000000 0.000000 -60.708740 0.000000 50.000000 -0.118460 0.976359 0.180807
10460.00000000 -2770.00000000 -330.00000000 192 129 95 0.000000 0.000000 0.000000 0.000000 -60.708740 0.000000 50.000000 0.047465 0.893690 0.446167
10470.00000000 -2800.00000000 -330.00000000 192 129 95 0.000000 0.000000 0.000000 0.000000 -60.708740 0.000000 50.000000 -0.008562 0.957757 0.287450
10510.00000000 -2840.00000000 -220.00000000 192 129 95 0.000000 0.000000 0.000000 0.000000 -60.708740 0.000000 50.000000 -0.157905 0.969254 -0.188716
10480.00000000 -2820.00000000 -270.00000000 192 129 95 0.000000 0.000000 0.000000 0.000000 -60.708740 0.000000 50.000000 0.274848 0.961357 -0.015880
10480.00000000 -2860.00000000 -230.00000000 192 129 95 0.000000 0.000000 0.000000 0.000000 -60.708740 0.000000 50.000000 0.208005 0.943599 0.257596
10500.00000000 -2870.00000000 -230.00000000 192 129 95 0.000000 0.000000 0.000000 0.000000 -60.708740 0.000000 50.000000 0.043727 0.918266 0.393543
10480.00000000 -2860.00000000 -220.00000000 192 129 95 0.000000 0.000000 0.000000 0.000000 -60.708740 0.000000 50.000000 0.032617 0.972470 0.230735
10490.00000000 -2860.00000000 -240.00000000 192 129 95 0.000000 0.000000 0.000000 0.000000 -60.708740 0.000000 50.000000 -0.202830 0.809795 0.550538
10500.00000000 -2860.00000000 -250.00000000 192 129 95 0.000000 0.000000 0.000000 0.000000 -60.708740 0.000000 50.000000 -0.136446 0.990617 0.007765
10510.00000000 -2860.00000000 -260.00000000 192 129 95 0.000000 0.000000 0.000000 0.000000 -60.708740 0.000000 50.000000 -0.396246 0.917554 0.032911
10500.00000000 -2860.00000000 -250.00000000 192 129 95 0.000000 0.000000 0.000000 0.000000 -60.708740 0.000000 50.000000 -0.136446 0.990617 0.007765
10470.00000000 -2840.00000000 -240.00000000 192 129 95 0.000000 0.000000 0.000000 0.000000 -60.708740 0.000000 50.000000 0.243848 0.955403 0.166563
10460.00000000 -2860.00000000 -210.00000000 192 129 95 0.000000 0.000000 0.000000 0.000000 -60.708740 0.000000 50.000000 0.110930 0.981308 0.157253
10470.00000000 -2860.00000000 -190.00000000 192 129 95 0.000000 0.000000 0.000000 0.000000 -60.708740 0.000000 50.000000 -0.225145 0.878214 0.421960
10460.00000000 -2860.00000000 -200.00000000 192 129 95 0.000000 0.000000 0.000000 0.000000 -60.708740 0.000000 50.000000 -0.338795 0.940819 0.008816
10480.00000000 -2830.00000000 -280.00000000 192 129 95 0.000000 0.000000 0.000000 0.000000 -60.708740 0.000000 50.000000 0.086764 0.851992 0.516316
10470.00000000 -2820.00000000 -280.00000000 192 129 95 0.000000 0.000000 0.000000 0.000000 -60.708740 0.000000 50.000000 0.085618 0.992028 -0.092468
10520.00000000 -2900.00000000 -150.00000000 192 129 95 0.000000 0.000000 0.000000 0.000000 -60.708740 0.000000 50.000000 0.682500 -0.723774 -0.101712
10500.00000000 -2910.00000000 -140.00000000 192 129 95 0.000000 0.000000 0.000000 0.000000 -60.708740 0.000000 50.000000 -0.496051 0.851431 -0.170286
10590.00000000 -2730.00000000 -390.00000000 192 129 95 0.000000 0.000000 0.000000 0.000000 -60.708740 0.000000 50.000000 -0.633468 0.744983 -0.209091
10570.00000000 -2740.00000000 -390.00000000 192 129 95 0.000000 0.000000 0.000000 0.000000 -60.708740 0.000000 50.000000 0.773039 -0.621695 0.126120
10580.00000000 -2760.00000000 -360.00000000 192 129 95 0.000000 0.000000 0.000000 0.000000 -60.708740 0.000000 50.000000 -0.635754 0.768383 -0.073523
10570.00000000 -2730.00000000 -370.00000000 192 129 95 0.000000 0.000000 0.000000 0.000000 -60.708740 0.000000 50.000000 0.975699 -0.203014 0.082436
10570.00000000 -2730.00000000 -430.00000000 192 129 95 0.000000 0.000000 0.000000 0.000000 -60.708740 0.000000 50.000000 0.719684 -0.609214 -0.333037
10560.00000000 -2740.00000000 -370.00000000 192 129 95 0.000000 0.000000 0.000000 0.000000 -60.708740 0.000000 50.000000 -0.573474 0.805842 0.147465
10560.00000000 -2760.00000000 -420.00000000 192 129 95 0.000000 0.000000 0.000000 0.000000 -60.708740 0.000000 50.000000 0.741563 -0.661634 0.111012
10540.00000000 -2750.00000000 -430.00000000 192 129 95 0.000000 0.000000 0.000000 0.000000 -60.708740 0.000000 50.000000 -0.497051 0.850179 0.173597
10530.00000000 -2770.00000000 -410.00000000 192 129 95 0.000000 0.000000 0.000000 0.000000 -60.708740 0.000000 50.000000 -0.598903 0.707197 0.375750
10550.00000000 -2750.00000000 -440.00000000 192 129 95 0.000000 0.000000 0.000000 0.000000 -60.708740 0.000000 50.000000 -0.204609 0.917165 0.341970
10540.00000000 -2780.00000000 -430.00000000 192 129 95 0.000000 0.000000 0.000000 0.000000 -60.708740 0.000000 50.000000 -0.003537 0.972648 0.232257
10540.00000000 -2730.00000000 -510.00000000 192 129 95 0.000000 0.000000 0.000000 0.000000 -60.708740 0.000000 50.000000 -0.590267 0.806184 -0.040660
10530.00000000 -2730.00000000 -510.00000000 192 129 95 0.000000 0.000000 0.000000 0.000000 -60.708740 0.000000 50.000000 -0.373255 0.906477 -0.197436
10550.00000000 -2750.00000000 -460.00000000 192 129 95 0.000000 0.000000 0.000000 0.000000 -60.708740 0.000000 50.000000 0.747519 -0.656466 -0.101334
10530.00000000 -2750.00000000 -470.00000000 192 129 95 0.000000 0.000000 0.000000 0.000000 -60.708740 0.000000 50.000000 0.074020 0.995404 -0.060763
10560.00000000 -2740.00000000 -450.00000000 192 129 95 0.000000 0.000000 0.000000 0.000000 -60.708740 0.000000 50.000000 -0.504209 0.776580 0.377752
10580.00000000 -2750.00000000 -450.00000000 192 129 95 0.000000 0.000000 0.000000 0.000000 -60.708740 0.000000 50.000000 0.781300 -0.575449 0.241720
10540.00000000 -2730.00000000 -520.00000000 192 129 95 0.000000 0.000000 0.000000 0.000000 -60.708740 0.000000 50.000000 -0.551599 0.832311 0.054739
10500.00000000 -2770.00000000 -430.00000000 192 129 95 0.000000 0.000000 0.000000 0.000000 -60.708740 0.000000 50.000000 0.196095 0.914633 0.353544
10510.00000000 -2770.00000000 -400.00000000 192 129 95 0.000000 0.000000 0.000000 0.000000 -60.708740 0.000000 50.000000 -0.059436 0.976445 0.207419
10510.00000000 -2780.00000000 -390.00000000 192 129 95 0.000000 0.000000 0.000000 0.000000 -60.708740 0.000000 50.000000 -0.019467 0.985927 0.166039
10480.00000000 -2780.00000000 -370.00000000 192 129 95 0.000000 0.000000 0.000000 0.000000 -60.708740 0.000000 50.000000 0.281216 0.956649 0.075761
10510.00000000 -2800.00000000 -360.00000000 192 129 95 0.000000 0.000000 0.000000 0.000000 -60.708740 0.000000 50.000000 -0.046265 0.991878 -0.118484
10510.00000000 -2780.00000000 -390.00000000 192 129 95 0.000000 0.000000 0.000000 0.000000 -60.708740 0.000000 50.000000 -0.019467 0.985927 0.166039
10510.00000000 -2780.00000000 -400.00000000 192 129 95 0.000000 0.000000 0.000000 0.000000 -60.708740 0.000000 50.000000 -0.018253 0.964995 0.261632
10460.00000000 -2730.00000000 -430.00000000 192 129 95 0.000000 0.000000 0.000000 0.000000 -60.708740 0.000000 50.000000 0.413051 0.732301 0.541409
10470.00000000 -2760.00000000 -440.00000000 192 129 95 0.000000 0.000000 0.000000 0.000000 -60.708740 0.000000 50.000000 0.555457 0.815968 0.160199
10460.00000000 -2730.00000000 -430.00000000 192 129 95 0.000000 0.000000 0.000000 0.000000 -60.708740 0.000000 50.000000 0.413051 0.732301 0.541409
10510.00000000 -2760.00000000 -450.00000000 192 129 95 0.000000 0.000000 0.000000 0.000000 -60.708740 0.000000 50.000000 0.257088 0.951629 0.168251
10500.00000000 -2760.00000000 -450.00000000 192 129 95 0.000000 0.000000 0.000000 0.000000 -60.708740 0.000000 50.000000 -0.072336 0.990882 0.113670
10510.00000000 -2730.00000000 -480.00000000 192 129 95 0.000000 0.000000 0.000000 0.000000 -60.708740 0.000000 50.000000 0.273709 0.916707 0.291087
10480.00000000 -2740.00000000 -480.00000000 192 129 95 0.000000 0.000000 0.000000 0.000000 -60.708740 0.000000 50.000000 0.305809 0.754116 0.581197
10500.00000000 -2740.00000000 -510.00000000 192 129 95 0.000000 0.000000 0.000000 0.000000 -60.708740 0.000000 50.000000 0.345318 0.842201 0.414069
10480.00000000 -2730.00000000 -520.00000000 192 129 95 0.000000 0.000000 0.000000 0.000000 -60.708740 0.000000 50.000000 0.409578 0.912064 0.019628
10490.00000000 -2740.00000000 -510.00000000 192 129 95 0.000000 0.000000 0.000000 0.000000 -60.708740 0.000000 50.000000 0.056185 0.886622 0.459070
10560.00000000 -2730.00000000 -550.00000000 192 129 95 0.000000 0.000000 0.000000 0.000000 -60.708740 0.000000 50.000000 -0.468262 0.835404 0.287802
10620.00000000 -2560.00000000 -730.00000000 192 129 95 0.000000 0.000000 0.000000 0.000000 -60.708740 0.000000 50.000000 0.756903 0.487636 0.435096
10610.00000000 -2510.00000000 -760.00000000 192 129 95 0.000000 0.000000 0.000000 0.000000 -60.708740 0.000000 50.000000 0.831989 0.469848 0.295021
10610.00000000 -2510.00000000 -740.00000000 192 129 95 0.000000 0.000000 0.000000 0.000000 -60.708740 0.000000 50.000000 0.665714 0.639284 0.384892
10610.00000000 -2510.00000000 -830.00000000 192 129 95 0.000000 0.000000 0.000000 0.000000 -60.708740 0.000000 50.000000 0.395875 0.727687 0.560138
10620.00000000 -2500.00000000 -860.00000000 192 129 95 0.000000 0.000000 0.000000 0.000000 -60.708740 0.000000 50.000000 0.458537 0.799624 0.387745
10610.00000000 -2550.00000000 -790.00000000 192 129 95 0.000000 0.000000 0.000000 0.000000 -60.708740 0.000000 50.000000 0.890560 0.451417 -0.055916
10620.00000000 -2560.00000000 -820.00000000 192 129 95 0.000000 0.000000 0.000000 0.000000 -60.708740 0.000000 50.000000 0.995685 0.047101 -0.079961
10620.00000000 -2560.00000000 -830.00000000 192 129 95 0.000000 0.000000 0.000000 0.000000 -60.708740 0.000000 50.000000 0.997202 -0.039716 -0.063331
10610.00000000 -2550.00000000 -830.00000000 192 129 95 0.000000 0.000000 0.000000 0.000000 -60.708740 0.000000 50.000000 0.926855 0.246307 0.283324
10620.00000000 -2530.00000000 -830.00000000 192 129 95 0.000000 0.000000 0.000000 0.000000 -60.708740 0.000000 50.000000 0.916775 0.396694 0.046436
10630.00000000 -2550.00000000 -850.00000000 192 129 95 0.000000 0.000000 0.000000 0.000000 -60.708740 0.000000 50.000000 0.978282 0.206877 -0.012857
10610.00000000 -2520.00000000 -890.00000000 192 129 95 0.000000 0.000000 0.000000 0.000000 -60.708740 0.000000 50.000000 0.766190 0.468862 0.439456
10620.00000000 -2560.00000000 -890.00000000 192 129 95 0.000000 0.000000 0.000000 0.000000 -60.708740 0.000000 50.000000 0.999160 -0.019551 0.036015
10620.00000000 -2590.00000000 -810.00000000 192 129 95 0.000000 0.000000 0.000000 0.000000 -60.708740 0.000000 50.000000 0.974070 0.111573 0.196820
10590.00000000 -2500.00000000 -750.00000000 192 129 95 0.000000 0.000000 0.000000 0.000000 -60.708740 0.000000 50.000000 0.356030 0.872502 0.334638
10590.00000000 -2500.00000000 -750.00000000 192 129 95 0.000000 0.000000 0.000000 0.000000 -60.708740 0.000000 50.000000 0.356030 0.872502 0.334638
10600.00000000 -2500.00000000 -760.00000000 192 129 95 0.000000 0.000000 0.000000 0.000000 -60.708740 0.000000 50.000000 0.475390 0.823695 0.309082
10600.00000000 -2530.00000000 -730.00000000 192 129 95 0.000000 0.000000 0.000000 0.000000 -60.708740 0.000000 50.000000 0.739599 0.671197 -0.049877
10570.00000000 -2520.00000000 -730.00000000 192 129 95 0.000000 0.000000 0.000000 0.000000 -60.708740 0.000000 50.000000 0.531358 0.825043 0.192258
10590.00000000 -2540.00000000 -700.00000000 192 129 95 0.000000 0.000000 0.000000 0.000000 -60.708740 0.000000 50.000000 0.642093 0.652048 0.403175
10580.00000000 -2540.00000000 -700.00000000 192 129 95 0.000000 0.000000 0.000000 0.000000 -60.708740 0.000000 50.000000 0.718903 0.608552 0.335921
10590.00000000 -2530.00000000 -720.00000000 192 129 95 0.000000 0.000000 0.000000 0.000000 -60.708740 0.000000 50.000000 0.625070 0.777386 0.070410
10580.00000000 -2520.00000000 -710.00000000 192 129 95 0.000000 0.000000 0.000000 0.000000 -60.708740 0.000000 50.000000 0.394446 0.869608 0.296976
10590.00000000 -2530.00000000 -740.00000000 192 129 95 0.000000 0.000000 0.000000 0.000000 -60.708740 0.000000 50.000000 0.715948 0.672837 0.186301
10580.00000000 -2540.00000000 -760.00000000 192 129 95 0.000000 0.000000 0.000000 0.000000 -60.708740 0.000000 50.000000 0.539551 0.840695 0.046008
10550.00000000 -2530.00000000 -700.00000000 192 129 95 0.000000 0.000000 0.000000 0.000000 -60.708740 0.000000 50.000000 -0.033140 0.908042 0.417567
10550.00000000 -2520.00000000 -720.00000000 192 129 95 0.000000 0.000000 0.000000 0.000000 -60.708740 0.000000 50.000000 0.079159 0.887415 0.454123
10560.00000000 -2520.00000000 -730.00000000 192 129 95 0.000000 0.000000 0.000000 0.000000 -60.708740 0.000000 50.000000 0.361264 0.854319 0.373668
10540.00000000 -2520.00000000 -740.00000000 192 129 95 0.000000 0.000000 0.000000 0.000000 -60.708740 0.000000 50.000000 -0.121522 0.987510 -0.100285
10540.00000000 -2520.00000000 -770.00000000 192 129 95 0.000000 0.000000 0.000000 0.000000 -60.708740 0.000000 50.000000 -0.109063 0.935789 0.335268
10590.00000000 -2490.00000000 -820.00000000 192 129 95 0.000000 0.000000 0.000000 0.000000 -60.708740 0.000000 50.000000 0.259107 0.916284 0.305428
10580.00000000 -2500.00000000 -810.00000000 192 129 95 0.000000 0.000000 0.000000 0.000000 -60.708740 0.000000 50.000000 0.601878 0.665234 0.441822
10570.00000000 -2500.00000000 -800.00000000 192 129 95 0.000000 0.000000 0.000000 0.000000 -60.708740 0.000000 50.000000 0.378731 0.923573 0.059800
10600.00000000 -2500.00000000 -800.00000000 192 129 95 0.000000 0.000000 0.000000 0.000000 -60.708740 0.000000 50.000000 0.355953 0.917537 0.177268
10570.00000000 -2500.00000000 -800.00000000 192 129 95 0.000000 0.000000 0.000000 0.000000 -60.708740 0.000000 50.000000 0.378731 0.923573 0.059800
10590.00000000 -2490.00000000 -790.00000000 192 129 95 0.000000 0.000000 0.000000 0.000000 -60.708740 0.000000 50.000000 0.512760 0.855537 -0.071646
10600.00000000 -2500.00000000 -800.00000000 192 129 95 0.000000 0.000000 0.000000 0.000000 -60.708740 0.000000 50.000000 0.355953 0.917537 0.177268
10600.00000000 -2510.00000000 -860.00000000 192 129 95 0.000000 0.000000 0.000000 0.000000 -60.708740 0.000000 50.000000 0.630137 0.545668 0.552426
10570.00000000 -2500.00000000 -860.00000000 192 129 95 0.000000 0.000000 0.000000 0.000000 -60.708740 0.000000 50.000000 0.282937 0.915556 0.285839
10600.00000000 -2550.00000000 -780.00000000 192 129 95 0.000000 0.000000 0.000000 0.000000 -60.708740 0.000000 50.000000 0.745462 0.633875 0.206126
10600.00000000 -2550.00000000 -800.00000000 192 129 95 0.000000 0.000000 0.000000 0.000000 -60.708740 0.000000 50.000000 0.835428 0.547156 -0.051777
10600.00000000 -2560.00000000 -860.00000000 192 129 95 0.000000 0.000000 0.000000 0.000000 -60.708740 0.000000 50.000000 0.926067 -0.266833 0.266833
10600.00000000 -2560.00000000 -860.00000000 192 129 95 0.000000 0.000000 0.000000 0.000000 -60.708740 0.000000 50.000000 0.926067 -0.266833 0.266833
10550.00000000 -2490.00000000 -790.00000000 192 129 95 0.000000 0.000000 0.000000 0.000000 -60.708740 0.000000 50.000000 0.234156 0.837144 0.494328
10560.00000000 -2480.00000000 -800.00000000 192 129 95 0.000000 0.000000 0.000000 0.000000 -60.708740 0.000000 50.000000 0.178280 0.870774 0.458224
10550.00000000 -2480.00000000 -800.00000000 192 129 95 0.000000 0.000000 0.000000 0.000000 -60.708740 0.000000 50.000000 0.066044 0.847329 0.526946
10550.00000000 -2500.00000000 -800.00000000 192 129 95 0.000000 0.000000 0.000000 0.000000 -60.708740 0.000000 50.000000 0.169323 0.980609 -0.098670
10560.00000000 -2500.00000000 -780.00000000 192 129 95 0.000000 0.000000 0.000000 0.000000 -60.708740 0.000000 50.000000 0.301281 0.953438 0.013638
10550.00000000 -2480.00000000 -830.00000000 192 129 95 0.000000 0.000000 0.000000 0.000000 -60.708740 0.000000 50.000000 0.140185 0.990125 -0.001104
10540.00000000 -2480.00000000 -830.00000000 192 129 95 0.000000 0.000000 0.000000 0.000000 -60.708740 0.000000 50.000000 0.140083 0.967726 0.209481
10510.00000000 -2470.00000000 -770.00000000 192 129 95 0.000000 0.000000 0.000000 0.000000 -60.708740 0.000000 50.000000 -0.622213 0.752551 0.215680
10510.00000000 -2470.00000000 -800.00000000 192 129 95 0.000000 0.000000 0.000000 0.000000 -60.708740 0.000000 50.000000 -0.208457 0.882616 0.421349
10520.00000000 -2440.00000000 -820.00000000 192 129 95 0.000000 0.000000 0.000000 0.000000 -60.708740 0.000000 50.000000 -0.230818 0.918973 0.319705
10500.00000000 -2500.00000000 -720.00000000 192 129 95 0.000000 0.000000 0.000000 0.000000 -60.708740 0.000000 50.000000 -0.516550 0.843257 -0.148637
10480.00000000 -2490.00000000 -770.00000000 192 129 95 0.000000 0.000000 0.000000 0.000000 -60.708740 0.000000 50.000000 -0.334427 0.917162 0.216732
10490.00000000 -2480.00000000 -770.00000000 192 129 95 0.000000 0.000000 0.000000 0.000000 -60.708740 0.000000 50.000000 -0.345671 0.930443 0.121600
10520.00000000 -2500.00000000 -760.00000000 192 129 95 0.000000 0.000000 0.000000 0.000000 -60.708740 0.000000 50.000000 -0.336885 0.923262 -0.184652
10480.00000000 -2560.00000000 -700.00000000 192 129 95 0.000000 0.000000 0.000000 0.000000 -60.708740 0.000000 50.000000 0.747104 -0.655381 -0.110956
10500.00000000 -2520.00000000 -710.00000000 192 129 95 0.000000 0.000000 0.000000 0.000000 -60.708740 0.000000 50.000000 -0.342275 0.931369 0.124092
10510.00000000 -2530.00000000 -730.00000000 192 129 95 0.000000 0.000000 0.000000 0.000000 -60.708740 0.000000 50.000000 0.718828 -0.679646 -0.146177
10470.00000000 -2490.00000000 -730.00000000 192 129 95 0.000000 0.000000 0.000000 0.000000 -60.708740 0.000000 50.000000 -0.741327 0.593383 0.313577
10470.00000000 -2540.00000000 -710.00000000 192 129 95 0.000000 0.000000 0.000000 0.000000 -60.708740 0.000000 50.000000 0.813546 -0.571089 0.109544
10450.00000000 -2530.00000000 -770.00000000 192 129 95 0.000000 0.000000 0.000000 0.000000 -60.708740 0.000000 50.000000 0.914633 -0.353544 -0.196095
10480.00000000 -2500.00000000 -790.00000000 192 129 95 0.000000 0.000000 0.000000 0.000000 -60.708740 0.000000 50.000000 0.807941 -0.564205 -0.170014
10490.00000000 -2490.00000000 -810.00000000 192 129 95 0.000000 0.000000 0.000000 0.000000 -60.708740 0.000000 50.000000 -0.511295 0.859353 -0.009443
10490.00000000 -2480.00000000 -860.00000000 192 129 95 0.000000 0.000000 0.000000 0.000000 -60.708740 0.000000 50.000000 0.778585 -0.627537 0.001373
10480.00000000 -2490.00000000 -850.00000000 192 129 95 0.000000 0.000000 0.000000 0.000000 -60.708740 0.000000 50.000000 -0.428867 0.903359 0.003911
10460.00000000 -2500.00000000 -800.00000000 192 129 95 0.000000 0.000000 0.000000 0.000000 -60.708740 0.000000 50.000000 0.763410 -0.643994 0.049757
10460.00000000 -2510.00000000 -800.00000000 192 129 95 0.000000 0.000000 0.000000 0.000000 -60.708740 0.000000 50.000000 0.818228 -0.518159 -0.249026
