//X Y Z R G B PointSourceId ScanDirectionFlag NumberOfReturns ReturnNumber GpsTime Intensity Classification Nx Ny Nz
15120.00000000 14640.00000000 -1070.00000000 35 34 221 97.000000 1.000000 4.000000 1.000000 -60.708740 114.000000 224.000000 -0.603977 0.765451 -0.222027
15070.00000000 14620.00000000 -1060.00000000 35 34 221 97.000000 1.000000 4.000000 1.000000 -60.708740 114.000000 224.000000 0.886553 -0.448225 -0.114531
15110.00000000 14640.00000000 -1060.00000000 35 34 221 97.000000 1.000000 4.000000 1.000000 -60.708740 114.000000 224.000000 -0.447572 0.893808 -0.028057
15070.00000000 14630.00000000 -1060.00000000 35 34 221 97.000000 1.000000 4.000000 1.000000 -60.708740 114.000000 224.000000 0.806100 -0.559241 0.193525
15070.00000000 14620.00000000 -1070.00000000 35 34 221 97.000000 1.000000 4.000000 1.000000 -60.708740 114.000000 224.000000 0.766112 -0.593776 -0.245971
15070.00000000 14620.00000000 -1040.00000000 35 34 221 97.000000 1.000000 4.000000 1.000000 -60.708740 114.000000 224.000000 -0.544766 0.802405 -0.243670
15110.00000000 14620.00000000 -1100.00000000 35 34 221 97.000000 1.000000 4.000000 1.000000 -60.708740 114.000000 224.000000 -0.655378 0.726648 0.206064
15060.00000000 14630.00000000 -1040.00000000 35 34 221 97.000000 1.000000 4.000000 1.000000 -60.708740 114.000000 224.000000 -0.669154 0.740798 0.058748
15110.00000000 14610.00000000 -1090.00000000 35 34 221 97.000000 1.000000 4.000000 1.000000 -60.708740 114.000000 224.000000 -0.609742 0.787280 -0.091680
15090.00000000 14600.00000000 -1070.00000000 35 34 221 97.000000 1.000000 4.000000 1.000000 -60.708740 114.000000 224.000000 0.701011 -0.685536 -0.196531
15110.00000000 14610.00000000 -1110.00000000 35 34 221 97.000000 1.000000 4.000000 1.000000 -60.708740 114.000000 224.000000 -0.746972 0.554940 0.366163
15070.00000000 14610.00000000 -1060.00000000 35 34 221 97.000000 1.000000 4.000000 1.000000 -60.708740 114.000000 224.000000 0.896916 -0.429568 -0.104943
15110.00000000 14600.00000000 -1090.00000000 35 34 221 97.000000 1.000000 4.000000 1.000000 -60.708740 114.000000 224.000000 -0.394396 0.890716 0.226002
15100.00000000 14600.00000000 -1070.00000000 35 34 221 97.000000 1.000000 4.000000 1.000000 -60.708740 114.000000 224.000000 -0.668431 0.733934 0.120586
15080.00000000 14610.00000000 -1140.00000000 35 34 221 97.000000 1.000000 4.000000 1.000000 -60.708740 114.000000 224.000000 -0.459028 0.824988 0.329680
15100.00000000 14600.00000000 -1120.00000000 35 34 221 97.000000 1.000000 4.000000 1.000000 -60.708740 114.000000 224.000000 0.815475 -0.317041 -0.484237
15030.00000000 14600.00000000 -1070.00000000 35 34 221 97.000000 1.000000 4.000000 1.000000 -60.708740 114.000000 224.000000 -0.365731 0.916445 0.162390
15040.00000000 14610.00000000 -1070.00000000 35 34 221 97.000000 1.000000 4.000000 1.000000 -60.708740 114.000000 224.000000 0.812361 -0.565831 -0.141086
15030.00000000 14570.00000000 -1110.00000000 35 34 221 97.000000 1.000000 4.000000 1.000000 -60.708740 114.000000 224.000000 0.755350 -0.615182 -0.225826
15040.00000000 14560.00000000 -1080.00000000 35 34 221 97.000000 1.000000 4.000000 1.000000 -60.708740 114.000000 224.000000 0.732534 -0.631276 -0.254725
15000.00000000 14590.00000000 -1050.00000000 35 34 221 97.000000 1.000000 4.000000 1.000000 -60.708740 114.000000 224.000000 -0.665528 0.729201 -0.159181
14840.00000000 14780.00000000 -1070.00000000 35 34 221 97.000000 1.000000 4.000000 1.000000 -60.708740 114.000000 224.000000 0.927983 -0.370408 0.040575
14820.00000000 14750.00000000 -1110.00000000 35 34 221 97.000000 1.000000 4.000000 1.000000 -60.708740 114.000000 224.000000 0.801968 -0.128492 0.583384
14940.00000000 14550.00000000 -1040.00000000 35 34 221 97.000000 1.000000 4.000000 1.000000 -60.708740 114.000000 224.000000 0.623239 -0.698486 -0.351697
14800.00000000 14850.00000000 -1030.00000000 35 34 221 97.000000 1.000000 4.000000 1.000000 -60.708740 114.000000 224.000000 0.722019 -0.608443 0.329371
14790.00000000 14870.00000000 -1180.00000000 35 34 221 97.000000 1.000000 4.000000 1.000000 -60.708740 114.000000 224.000000 0.554268 -0.731897 0.396376
14800.00000000 14790.00000000 -1180.00000000 35 34 221 97.000000 1.000000 4.000000 1.000000 -60.708740 114.000000 224.000000 -0.398491 0.769332 -0.499334
14810.00000000 14790.00000000 -1190.00000000 35 34 221 97.000000 1.000000 4.000000 1.000000 -60.708740 114.000000 224.000000 0.572926 -0.485559 0.660293
14640.00000000 14880.00000000 -1160.00000000 35 34 221 97.000000 1.000000 4.000000 1.000000 -60.708740 114.000000 224.000000 0.607012 -0.535997 0.586722
14770.00000000 14760.00000000 -1010.00000000 35 34 221 97.000000 1.000000 4.000000 1.000000 -60.708740 114.000000 224.000000 0.790832 -0.583601 -0.184375
14700.00000000 14630.00000000 -1030.00000000 35 34 221 97.000000 1.000000 4.000000 1.000000 -60.708740 114.000000 224.000000 0.902561 -0.399072 0.161631
14770.00000000 14560.00000000 -1020.00000000 35 34 221 97.000000 1.000000 4.000000 1.000000 -60.708740 114.000000 224.000000 -0.477722 0.782169 -0.399991
14750.00000000 14480.00000000 -1030.00000000 35 34 221 97.000000 1.000000 4.000000 1.000000 -60.708740 114.000000 224.000000 0.228493 -0.081159 0.970157
14680.00000000 14540.00000000 -1030.00000000 35 34 221 97.000000 1.000000 4.000000 1.000000 -60.708740 114.000000 224.000000 -0.558424 0.811295 -0.173096
14780.00000000 14760.00000000 -1110.00000000 35 34 221 97.000000 1.000000 4.000000 1.000000 -60.708740 114.000000 224.000000 0.584844 -0.375152 0.719178
14750.00000000 14740.00000000 -1070.00000000 35 34 221 97.000000 1.000000 4.000000 1.000000 -60.708740 114.000000 224.000000 -0.516222 0.848802 -0.114234
14760.00000000 14740.00000000 -1070.00000000 35 34 221 97.000000 1.000000 4.000000 1.000000 -60.708740 114.000000 224.000000 0.487967 -0.805860 0.335378
14750.00000000 14740.00000000 -1070.00000000 35 34 221 97.000000 1.000000 4.000000 1.000000 -60.708740 114.000000 224.000000 -0.516222 0.848802 -0.114234
14800.00000000 14750.00000000 -1130.00000000 35 34 221 97.000000 1.000000 4.000000 1.000000 -60.708740 114.000000 224.000000 0.707585 -0.623000 0.333459
14790.00000000 14750.00000000 -1120.00000000 35 34 221 97.000000 1.000000 4.000000 1.000000 -60.708740 114.000000 224.000000 0.733626 -0.591111 0.335233
14790.00000000 14750.00000000 -1120.00000000 35 34 221 97.000000 1.000000 4.000000 1.000000 -60.708740 114.000000 224.000000 0.733626 -0.591111 0.335233
14780.00000000 14780.00000000 -1180.00000000 35 34 221 97.000000 1.000000 4.000000 1.000000 -60.708740 114.000000 224.000000 0.739747 -0.206261 0.640493
14760.00000000 14730.00000000 -1180.00000000 35 34 221 97.000000 1.000000 4.000000 1.000000 -60.708740 114.000000 224.000000 0.683321 -0.556347 0.472811
14760.00000000 14730.00000000 -1180.00000000 35 34 221 97.000000 1.000000 4.000000 1.000000 -60.708740 114.000000 224.000000 0.683321 -0.556347 0.472811
14780.00000000 14700.00000000 -1070.00000000 35 34 221 97.000000 1.000000 4.000000 1.000000 -60.708740 114.000000 224.000000 -0.713781 0.663801 -0.223349
14660.00000000 14710.00000000 -1060.00000000 35 34 221 97.000000 1.000000 4.000000 1.000000 -60.708740 114.000000 224.000000 -0.686072 0.726010 0.047069
14660.00000000 14710.00000000 -1040.00000000 35 34 221 97.000000 1.000000 4.000000 1.000000 -60.708740 114.000000 224.000000 -0.498391 0.864895 -0.059696
14720.00000000 14710.00000000 -1110.00000000 35 34 221 97.000000 1.000000 4.000000 1.000000 -60.708740 114.000000 224.000000 -0.458954 0.748474 -0.478694
14710.00000000 14730.00000000 -1040.00000000 35 34 221 97.000000 1.000000 4.000000 1.000000 -60.708740 114.000000 224.000000 -0.447408 0.803410 -0.392885
14690.00000000 14710.00000000 -1140.00000000 35 34 221 97.000000 1.000000 4.000000 1.000000 -60.708740 114.000000 224.000000 0.764999 -0.453758 0.457034
14700.00000000 14710.00000000 -1160.00000000 35 34 221 97.000000 1.000000 4.000000 1.000000 -60.708740 114.000000 224.000000 0.806249 -0.116018 0.580088
14720.00000000 14750.00000000 -1120.00000000 35 34 221 97.000000 1.000000 4.000000 1.000000 -60.708740 114.000000 224.000000 0.831015 -0.479969 0.281147
14700.00000000 14620.00000000 -1050.00000000 35 34 221 97.000000 1.000000 4.000000 1.000000 -60.708740 114.000000 224.000000 0.939237 -0.309444 0.148588
14660.00000000 14670.00000000 -1070.00000000 35 34 221 97.000000 1.000000 4.000000 1.000000 -60.708740 114.000000 224.000000 0.891869 -0.420638 0.166232
14650.00000000 14700.00000000 -1050.00000000 35 34 221 97.000000 1.000000 4.000000 1.000000 -60.708740 114.000000 224.000000 0.914172 -0.403506 0.038366
14660.00000000 14670.00000000 -1080.00000000 35 34 221 97.000000 1.000000 4.000000 1.000000 -60.708740 114.000000 224.000000 -0.781163 0.548882 -0.297510
14660.00000000 14670.00000000 -1120.00000000 35 34 221 97.000000 1.000000 4.000000 1.000000 -60.708740 114.000000 224.000000 0.800185 -0.275113 0.532933
14780.00000000 14510.00000000 -1070.00000000 35 34 221 97.000000 1.000000 4.000000 1.000000 -60.708740 114.000000 224.000000 -0.001287 0.402911 0.915238
14790.00000000 14460.00000000 -1050.00000000 35 34 221 97.000000 1.000000 4.000000 1.000000 -60.708740 114.000000 224.000000 -0.627555 0.446819 0.637595
14770.00000000 14520.00000000 -1070.00000000 35 34 221 97.000000 1.000000 4.000000 1.000000 -60.708740 114.000000 224.000000 0.371974 0.329113 0.867940
14730.00000000 14600.00000000 -1060.00000000 35 34 221 97.000000 1.000000 4.000000 1.000000 -60.708740 114.000000 224.000000 0.724237 -0.655707 0.213377
14660.00000000 14590.00000000 -1100.00000000 35 34 221 97.000000 1.000000 4.000000 1.000000 -60.708740 114.000000 224.000000 -0.457530 0.741628 -0.490565
14690.00000000 14480.00000000 -1100.00000000 35 34 221 97.000000 1.000000 4.000000 1.000000 -60.708740 114.000000 224.000000 0.492337 -0.213598 0.843789
14680.00000000 14520.00000000 -1040.00000000 35 34 221 97.000000 1.000000 4.000000 1.000000 -60.708740 114.000000 224.000000 0.638691 -0.457645 0.618575
14670.00000000 14470.00000000 -1120.00000000 35 34 221 97.000000 1.000000 4.000000 1.000000 -60.708740 114.000000 224.000000 -0.015836 -0.066511 0.997660
14650.00000000 14490.00000000 -1190.00000000 35 34 221 97.000000 1.000000 4.000000 1.000000 -60.708740 114.000000 224.000000 0.026615 0.064941 0.997534
14680.00000000 14460.00000000 -1120.00000000 35 34 221 97.000000 1.000000 4.000000 1.000000 -60.708740 114.000000 224.000000 -0.001063 -0.090344 0.995910
14670.00000000 14470.00000000 -1120.00000000 35 34 221 97.000000 1.000000 4.000000 1.000000 -60.708740 114.000000 224.000000 -0.015836 -0.066511 0.997660
14590.00000000 14760.00000000 -1180.00000000 35 34 221 97.000000 1.000000 4.000000 1.000000 -60.708740 114.000000 224.000000 0.544571 -0.279389 0.790812
14580.00000000 14730.00000000 -1170.00000000 35 34 221 97.000000 1.000000 4.000000 1.000000 -60.708740 114.000000 224.000000 -0.498446 0.828685 -0.254624
14610.00000000 14730.00000000 -1190.00000000 35 34 221 97.000000 1.000000 4.000000 1.000000 -60.708740 114.000000 224.000000 -0.632019 0.369362 -0.681267
14620.00000000 14620.00000000 -1120.00000000 35 34 221 97.000000 1.000000 4.000000 1.000000 -60.708740 114.000000 224.000000 0.705955 -0.512360 0.488995
14610.00000000 14540.00000000 -1080.00000000 35 34 221 97.000000 1.000000 4.000000 1.000000 -60.708740 114.000000 224.000000 0.457835 -0.328823 0.825992
14620.00000000 14570.00000000 -1170.00000000 35 34 221 97.000000 1.000000 4.000000 1.000000 -60.708740 114.000000 224.000000 0.710685 -0.534262 0.457701
14570.00000000 14540.00000000 -1120.00000000 35 34 221 97.000000 1.000000 4.000000 1.000000 -60.708740 114.000000 224.000000 0.385063 -0.234579 0.892580
14580.00000000 14500.00000000 -1090.00000000 35 34 221 97.000000 1.000000 4.000000 1.000000 -60.708740 114.000000 224.000000 0.440766 -0.414934 0.795962
14610.00000000 14500.00000000 -1130.00000000 35 34 221 97.000000 1.000000 4.000000 1.000000 -60.708740 114.000000 224.000000 0.534743 -0.353803 0.767381
14590.00000000 14520.00000000 -1120.00000000 35 34 221 97.000000 1.000000 4.000000 1.000000 -60.708740 114.000000 224.000000 0.826077 -0.241516 0.509183
14600.00000000 14500.00000000 -1120.00000000 35 34 221 97.000000 1.000000 4.000000 1.000000 -60.708740 114.000000 224.000000 0.320410 -0.584467 0.745477
14600.00000000 14480.00000000 -1130.00000000 35 34 221 97.000000 1.000000 4.000000 1.000000 -60.708740 114.000000 224.000000 0.139162 -0.091585 0.986025
14600.00000000 14480.00000000 -1130.00000000 35 34 221 97.000000 1.000000 4.000000 1.000000 -60.708740 114.000000 224.000000 0.139162 -0.091585 0.986025
14590.00000000 14490.00000000 -1160.00000000 35 34 221 97.000000 1.000000 4.000000 1.000000 -60.708740 114.000000 224.000000 0.682710 -0.426901 0.593011
14530.00000000 14560.00000000 -1110.00000000 35 34 221 97.000000 1.000000 4.000000 1.000000 -60.708740 114.000000 224.000000 -0.456887 0.709421 -0.536634
14520.00000000 14550.00000000 -1110.00000000 35 34 221 97.000000 1.000000 4.000000 1.000000 -60.708740 114.000000 224.000000 -0.429674 0.711699 -0.555756
14510.00000000 14550.00000000 -1110.00000000 35 34 221 97.000000 1.000000 4.000000 1.000000 -60.708740 114.000000 224.000000 0.384921 -0.642636 0.662461
14550.00000000 14550.00000000 -1150.00000000 35 34 221 97.000000 1.000000 4.000000 1.000000 -60.708740 114.000000 224.000000 0.676993 -0.603804 0.420833
14540.00000000 14550.00000000 -1120.00000000 35 34 221 97.000000 1.000000 4.000000 1.000000 -60.708740 114.000000 224.000000 0.648145 -0.300752 0.699611
14560.00000000 14530.00000000 -1110.00000000 35 34 221 97.000000 1.000000 4.000000 1.000000 -60.708740 114.000000 224.000000 -0.549556 0.712264 -0.436656
14550.00000000 14520.00000000 -1190.00000000 35 34 221 97.000000 1.000000 4.000000 1.000000 -60.708740 114.000000 224.000000 0.470913 -0.645201 0.601629
14560.00000000 14470.00000000 -1140.00000000 35 34 221 97.000000 1.000000 4.000000 1.000000 -60.708740 114.000000 224.000000 0.486351 -0.196037 0.851488
14500.00000000 14500.00000000 -1150.00000000 35 34 221 97.000000 1.000000 4.000000 1.000000 -60.708740 114.000000 224.000000 0.204624 -0.458536 0.864797
14910.00000000 14420.00000000 -1100.00000000 35 34 221 97.000000 1.000000 4.000000 1.000000 -60.708740 114.000000 224.000000 -0.606617 0.373176 0.701966
14830.00000000 14400.00000000 -1050.00000000 35 34 221 97.000000 1.000000 4.000000 1.000000 -60.708740 114.000000 224.000000 0.495076 -0.545423 -0.676324
14760.00000000 14380.00000000 -1070.00000000 35 34 221 97.000000 1.000000 4.000000 1.000000 -60.708740 114.000000 224.000000 -0.408943 0.298666 0.862302
14750.00000000 14380.00000000 -1080.00000000 35 34 221 97.000000 1.000000 4.000000 1.000000 -60.708740 114.000000 224.000000 -0.412110 0.570996 0.710021
14740.00000000 14380.00000000 -1100.00000000 35 34 221 97.000000 1.000000 4.000000 1.000000 -60.708740 114.000000 224.000000 0.553664 -0.440604 -0.706629
14750.00000000 14380.00000000 -1080.00000000 35 34 221 97.000000 1.000000 4.000000 1.000000 -60.708740 114.000000 224.000000 -0.412110 0.570996 0.710021
14740.00000000 14320.00000000 -1050.00000000 35 34 221 97.000000 1.000000 4.000000 1.000000 -60.708740 114.000000 224.000000 0.794327 -0.524795 -0.305998
14740.00000000 14290.00000000 -1110.00000000 35 34 221 97.000000 1.000000 4.000000 1.000000 -60.708740 114.000000 224.000000 -0.064370 0.619379 0.782449
14690.00000000 14450.00000000 -1090.00000000 35 34 221 97.000000 1.000000 4.000000 1.000000 -60.708740 114.000000 224.000000 0.253013 0.045666 0.966385
14700.00000000 14450.00000000 -1100.00000000 35 34 221 97.000000 1.000000 4.000000 1.000000 -60.708740 114.000000 224.000000 0.092688 -0.353289 0.930911
14710.00000000 14450.00000000 -1090.00000000 35 34 221 97.000000 1.000000 4.000000 1.000000 -60.708740 114.000000 224.000000 -0.070131 -0.003140 0.997533
14690.00000000 14450.00000000 -1090.00000000 35 34 221 97.000000 1.000000 4.000000 1.000000 -60.708740 114.000000 224.000000 0.253013 0.045666 0.966385
14700.00000000 14410.00000000 -1100.00000000 35 34 221 97.000000 1.000000 4.000000 1.000000 -60.708740 114.000000 224.000000 0.084581 -0.075559 0.993548
14720.00000000 14440.00000000 -1100.00000000 35 34 221 97.000000 1.000000 4.000000 1.000000 -60.708740 114.000000 224.000000 -0.077097 -0.111618 0.990756
14660.00000000 14440.00000000 -1100.00000000 35 34 221 97.000000 1.000000 4.000000 1.000000 -60.708740 114.000000 224.000000 0.248957 0.197261 0.948213
14680.00000000 14450.00000000 -1120.00000000 35 34 221 97.000000 1.000000 4.000000 1.000000 -60.708740 114.000000 224.000000 -0.038922 0.292539 0.955461
14670.00000000 14360.00000000 -1110.00000000 35 34 221 97.000000 1.000000 4.000000 1.000000 -60.708740 114.000000 224.000000 -0.115666 0.182826 0.976318
14680.00000000 14340.00000000 -1110.00000000 35 34 221 97.000000 1.000000 4.000000 1.000000 -60.708740 114.000000 224.000000 0.085761 0.003176 0.996311
14660.00000000 14340.00000000 -1150.00000000 35 34 221 97.000000 1.000000 4.000000 1.000000 -60.708740 114.000000 224.000000 0.005555 -0.141108 0.989979
14700.00000000 14260.00000000 -1100.00000000 35 34 221 97.000000 1.000000 4.000000 1.000000 -60.708740 114.000000 224.000000 -0.073937 0.484077 0.871896
14660.00000000 14230.00000000 -1070.00000000 35 34 221 97.000000 1.000000 4.000000 1.000000 -60.708740 114.000000 224.000000 -0.572939 0.676502 0.462694
14690.00000000 14220.00000000 -1150.00000000 35 34 221 97.000000 1.000000 4.000000 1.000000 -60.708740 114.000000 224.000000 -0.067317 0.602984 0.794908
14670.00000000 14180.00000000 -1100.00000000 35 34 221 97.000000 1.000000 4.000000 1.000000 -60.708740 114.000000 224.000000 -0.288706 0.330161 0.898689
14650.00000000 14160.00000000 -1060.00000000 35 34 221 97.000000 1.000000 4.000000 1.000000 -60.708740 114.000000 224.000000 0.702687 -0.475691 -0.529102
14640.00000000 14440.00000000 -1100.00000000 35 34 221 97.000000 1.000000 4.000000 1.000000 -60.708740 114.000000 224.000000 0.032351 -0.358444 0.932990
14640.00000000 14410.00000000 -1110.00000000 35 34 221 97.000000 1.000000 4.000000 1.000000 -60.708740 114.000000 224.000000 0.520916 -0.042834 0.852533
14640.00000000 14370.00000000 -1130.00000000 35 34 221 97.000000 1.000000 4.000000 1.000000 -60.708740 114.000000 224.000000 0.220581 0.215168 0.951339
14580.00000000 14420.00000000 -1180.00000000 35 34 221 97.000000 1.000000 4.000000 1.000000 -60.708740 114.000000 224.000000 0.572821 -0.100062 0.813550
14570.00000000 14400.00000000 -1150.00000000 35 34 221 97.000000 1.000000 4.000000 1.000000 -60.708740 114.000000 224.000000 -0.001061 0.088049 0.996116
14600.00000000 14390.00000000 -1130.00000000 35 34 221 97.000000 1.000000 4.000000 1.000000 -60.708740 114.000000 224.000000 0.270243 0.067244 0.960441
14580.00000000 14400.00000000 -1180.00000000 35 34 221 97.000000 1.000000 4.000000 1.000000 -60.708740 114.000000 224.000000 0.007286 -0.059331 0.998212
14570.00000000 14370.00000000 -1170.00000000 35 34 221 97.000000 1.000000 4.000000 1.000000 -60.708740 114.000000 224.000000 0.331621 -0.091895 0.938927
14630.00000000 14330.00000000 -1120.00000000 35 34 221 97.000000 1.000000 4.000000 1.000000 -60.708740 114.000000 224.000000 0.346535 0.346535 0.871681
14630.00000000 14350.00000000 -1130.00000000 35 34 221 97.000000 1.000000 4.000000 1.000000 -60.708740 114.000000 224.000000 0.197225 0.136149 0.970858
14610.00000000 14320.00000000 -1120.00000000 35 34 221 97.000000 1.000000 4.000000 1.000000 -60.708740 114.000000 224.000000 -0.136728 0.310007 0.940851
14580.00000000 14340.00000000 -1130.00000000 35 34 221 97.000000 1.000000 4.000000 1.000000 -60.708740 114.000000 224.000000 0.178957 0.277315 0.943965
14580.00000000 14290.00000000 -1130.00000000 35 34 221 97.000000 1.000000 4.000000 1.000000 -60.708740 114.000000 224.000000 -0.192422 -0.066561 0.979052
14580.00000000 14300.00000000 -1120.00000000 35 34 221 97.000000 1.000000 4.000000 1.000000 -60.708740 114.000000 224.000000 0.267779 0.085843 0.959649
14580.00000000 14320.00000000 -1120.00000000 35 34 221 97.000000 1.000000 4.000000 1.000000 -60.708740 114.000000 224.000000 0.142215 0.341040 0.929229
14480.00000000 14410.00000000 -1150.00000000 35 34 221 97.000000 1.000000 4.000000 1.000000 -60.708740 114.000000 224.000000 0.716740 -0.202792 0.667203
14550.00000000 14300.00000000 -1100.00000000 35 34 221 97.000000 1.000000 4.000000 1.000000 -60.708740 114.000000 224.000000 0.013219 0.027454 0.999536
14550.00000000 14350.00000000 -1110.00000000 35 34 221 97.000000 1.000000 4.000000 1.000000 -60.708740 114.000000 224.000000 0.662216 -0.021001 0.749018
14560.00000000 14340.00000000 -1150.00000000 35 34 221 97.000000 1.000000 4.000000 1.000000 -60.708740 114.000000 224.000000 0.031773 -0.019474 0.999305
14560.00000000 14360.00000000 -1120.00000000 35 34 221 97.000000 1.000000 4.000000 1.000000 -60.708740 114.000000 224.000000 0.378583 -0.088200 0.921355
14540.00000000 14330.00000000 -1150.00000000 35 34 221 97.000000 1.000000 4.000000 1.000000 -60.708740 114.000000 224.000000 0.019280 -0.368883 0.929276
14550.00000000 14450.00000000 -1230.00000000 35 34 221 97.000000 1.000000 4.000000 1.000000 -60.708740 114.000000 224.000000 0.198420 -0.103578 0.974629
14560.00000000 14450.00000000 -1220.00000000 35 34 221 97.000000 1.000000 4.000000 1.000000 -60.708740 114.000000 224.000000 0.345671 -0.121600 0.930443
14510.00000000 14450.00000000 -1220.00000000 35 34 221 97.000000 1.000000 4.000000 1.000000 -60.708740 114.000000 224.000000 0.093998 -0.316416 0.943952
14500.00000000 14320.00000000 -1210.00000000 35 34 221 97.000000 1.000000 4.000000 1.000000 -60.708740 114.000000 224.000000 0.442294 0.186616 0.877240
14530.00000000 14310.00000000 -1210.00000000 35 34 221 97.000000 1.000000 4.000000 1.000000 -60.708740 114.000000 224.000000 0.063465 0.406447 0.911467
14520.00000000 14290.00000000 -1200.00000000 35 34 221 97.000000 1.000000 4.000000 1.000000 -60.708740 114.000000 224.000000 0.048274 -0.251271 0.966712
14620.00000000 14250.00000000 -1060.00000000 35 34 221 97.000000 1.000000 4.000000 1.000000 -60.708740 114.000000 224.000000 -0.360188 0.731784 0.578582
14640.00000000 14260.00000000 -1060.00000000 35 34 221 97.000000 1.000000 4.000000 1.000000 -60.708740 114.000000 224.000000 -0.247419 0.539965 0.804501
14640.00000000 14250.00000000 -1060.00000000 35 34 221 97.000000 1.000000 4.000000 1.000000 -60.708740 114.000000 224.000000 -0.240527 0.799170 0.550884
14640.00000000 14260.00000000 -1070.00000000 35 34 221 97.000000 1.000000 4.000000 1.000000 -60.708740 114.000000 224.000000 0.239930 -0.744881 -0.622564
14640.00000000 14250.00000000 -1110.00000000 35 34 221 97.000000 1.000000 4.000000 1.000000 -60.708740 114.000000 224.000000 0.141973 0.611233 0.778613
14630.00000000 14280.00000000 -1080.00000000 35 34 221 97.000000 1.000000 4.000000 1.000000 -60.708740 114.000000 224.000000 0.142257 0.233615 0.961866
14570.00000000 14270.00000000 -1130.00000000 35 34 221 97.000000 1.000000 4.000000 1.000000 -60.708740 114.000000 224.000000 0.425086 0.122865 0.896775
14580.00000000 14280.00000000 -1130.00000000 35 34 221 97.000000 1.000000 4.000000 1.000000 -60.708740 114.000000 224.000000 0.100048 -0.226690 0.968815
14570.00000000 14240.00000000 -1120.00000000 35 34 221 97.000000 1.000000 4.000000 1.000000 -60.708740 114.000000 224.000000 -0.127151 -0.014374 0.991779
14570.00000000 14160.00000000 -1100.00000000 35 34 221 97.000000 1.000000 4.000000 1.000000 -60.708740 114.000000 224.000000 0.127876 0.408923 0.903565
14570.00000000 14140.00000000 -1130.00000000 35 34 221 97.000000 1.000000 4.000000 1.000000 -60.708740 114.000000 224.000000 0.146916 0.322665 0.935042
14540.00000000 14200.00000000 -1110.00000000 35 34 221 97.000000 1.000000 4.000000 1.000000 -60.708740 114.000000 224.000000 -0.152297 0.245000 0.957487
14500.00000000 14250.00000000 -1110.00000000 35 34 221 97.000000 1.000000 4.000000 1.000000 -60.708740 114.000000 224.000000 0.036231 0.283604 0.958257
14500.00000000 14240.00000000 -1100.00000000 35 34 221 97.000000 1.000000 4.000000 1.000000 -60.708740 114.000000 224.000000 0.328906 0.106055 0.938389
14480.00000000 14200.00000000 -1110.00000000 35 34 221 97.000000 1.000000 4.000000 1.000000 -60.708740 114.000000 224.000000 0.217651 -0.039682 0.975220
14560.00000000 14260.00000000 -1190.00000000 35 34 221 97.000000 1.000000 4.000000 1.000000 -60.708740 114.000000 224.000000 0.289528 0.415143 0.862456
14510.00000000 14250.00000000 -1180.00000000 35 34 221 97.000000 1.000000 4.000000 1.000000 -60.708740 114.000000 224.000000 0.029088 -0.180345 0.983173
14500.00000000 14270.00000000 -1170.00000000 35 34 221 97.000000 1.000000 4.000000 1.000000 -60.708740 114.000000 224.000000 0.062513 0.161590 0.984876
14490.00000000 14210.00000000 -1180.00000000 35 34 221 97.000000 1.000000 4.000000 1.000000 -60.708740 114.000000 224.000000 -0.171538 0.405061 0.898053
14530.00000000 14180.00000000 -1120.00000000 35 34 221 97.000000 1.000000 4.000000 1.000000 -60.708740 114.000000 224.000000 -0.268324 -0.046177 0.962221
14680.00000000 14070.00000000 -1190.00000000 35 34 221 97.000000 1.000000 4.000000 1.000000 -60.708740 114.000000 224.000000 -0.026673 0.649982 0.759482
14650.00000000 14080.00000000 -1170.00000000 35 34 221 97.000000 1.000000 4.000000 1.000000 -60.708740 114.000000 224.000000 -0.306257 0.791825 0.528412
14580.00000000 14080.00000000 -1100.00000000 35 34 221 97.000000 1.000000 4.000000 1.000000 -60.708740 114.000000 224.000000 -0.235829 0.850504 0.470136
14640.00000000 14100.00000000 -1160.00000000 35 34 221 97.000000 1.000000 4.000000 1.000000 -60.708740 114.000000 224.000000 -0.204133 0.581702 0.787370
14570.00000000 14110.00000000 -1150.00000000 35 34 221 97.000000 1.000000 4.000000 1.000000 -60.708740 114.000000 224.000000 -0.564945 0.419153 0.710737
14470.00000000 14470.00000000 -1150.00000000 35 34 221 97.000000 1.000000 4.000000 1.000000 -60.708740 114.000000 224.000000 0.241903 -0.278684 0.929418
14440.00000000 14420.00000000 -1150.00000000 35 34 221 97.000000 1.000000 4.000000 1.000000 -60.708740 114.000000 224.000000 0.513564 -0.355792 0.780810
14450.00000000 14450.00000000 -1120.00000000 35 34 221 97.000000 1.000000 4.000000 1.000000 -60.708740 114.000000 224.000000 -0.359197 0.746024 -0.560737
14460.00000000 14410.00000000 -1160.00000000 35 34 221 97.000000 1.000000 4.000000 1.000000 -60.708740 114.000000 224.000000 0.237611 -0.165930 0.957083
14420.00000000 14410.00000000 -1180.00000000 35 34 221 97.000000 1.000000 4.000000 1.000000 -60.708740 114.000000 224.000000 0.775190 -0.391658 0.495666
14400.00000000 14390.00000000 -1150.00000000 35 34 221 97.000000 1.000000 4.000000 1.000000 -60.708740 114.000000 224.000000 0.474978 -0.458542 0.751089
14430.00000000 14400.00000000 -1140.00000000 35 34 221 97.000000 1.000000 4.000000 1.000000 -60.708740 114.000000 224.000000 0.443356 -0.539665 0.715679
14400.00000000 14320.00000000 -1180.00000000 35 34 221 97.000000 1.000000 4.000000 1.000000 -60.708740 114.000000 224.000000 0.128882 -0.490909 0.861625
14390.00000000 14420.00000000 -1120.00000000 35 34 221 97.000000 1.000000 4.000000 1.000000 -60.708740 114.000000 224.000000 0.401060 -0.348002 0.847376
14390.00000000 14400.00000000 -1130.00000000 35 34 221 97.000000 1.000000 4.000000 1.000000 -60.708740 114.000000 224.000000 0.315293 -0.664542 0.677477
15710.00000000 15470.00000000 -840.00000000 35 34 221 97.000000 1.000000 4.000000 1.000000 -60.708740 114.000000 224.000000 0.084247 0.143576 0.986047
15720.00000000 15480.00000000 -860.00000000 35 34 221 97.000000 1.000000 4.000000 1.000000 -60.708740 114.000000 224.000000 -0.252205 0.161464 0.954108
15700.00000000 15480.00000000 -830.00000000 35 34 221 97.000000 1.000000 4.000000 1.000000 -60.708740 114.000000 224.000000 0.108738 0.127857 0.985814
15760.00000000 15570.00000000 -960.00000000 35 34 221 97.000000 1.000000 4.000000 1.000000 -60.708740 114.000000 224.000000 0.363681 0.410913 0.835995
15660.00000000 15560.00000000 -880.00000000 35 34 221 97.000000 1.000000 4.000000 1.000000 -60.708740 114.000000 224.000000 0.034857 0.581412 0.812862
15660.00000000 15560.00000000 -890.00000000 35 34 221 97.000000 1.000000 4.000000 1.000000 -60.708740 114.000000 224.000000 0.046410 0.586450 0.808654
15700.00000000 15550.00000000 -950.00000000 35 34 221 97.000000 1.000000 4.000000 1.000000 -60.708740 114.000000 224.000000 -0.270856 0.069939 0.960076
15530.00000000 15680.00000000 -920.00000000 35 34 221 97.000000 1.000000 4.000000 1.000000 -60.708740 114.000000 224.000000 -0.453112 0.627000 0.633688
15600.00000000 15580.00000000 -910.00000000 35 34 221 97.000000 1.000000 4.000000 1.000000 -60.708740 114.000000 224.000000 -0.237076 0.317538 0.918131
15660.00000000 15430.00000000 -850.00000000 35 34 221 97.000000 1.000000 4.000000 1.000000 -60.708740 114.000000 224.000000 -0.061269 0.431608 0.899978
15660.00000000 15410.00000000 -840.00000000 35 34 221 97.000000 1.000000 4.000000 1.000000 -60.708740 114.000000 224.000000 0.194176 0.333075 0.922690
15660.00000000 15380.00000000 -840.00000000 35 34 221 97.000000 1.000000 4.000000 1.000000 -60.708740 114.000000 224.000000 0.357953 0.232305 0.904380
15710.00000000 15460.00000000 -850.00000000 35 34 221 97.000000 1.000000 4.000000 1.000000 -60.708740 114.000000 224.000000 -0.123728 0.291359 0.948579
15630.00000000 15320.00000000 -790.00000000 35 34 221 97.000000 1.000000 4.000000 1.000000 -60.708740 114.000000 224.000000 0.147234 0.164852 0.975267
15620.00000000 15440.00000000 -910.00000000 35 34 221 97.000000 1.000000 4.000000 1.000000 -60.708740 114.000000 224.000000 -0.085460 -0.087739 0.992471
15560.00000000 15370.00000000 -1010.00000000 35 34 221 97.000000 1.000000 4.000000 1.000000 -60.708740 114.000000 224.000000 0.262424 0.217993 0.940007
15610.00000000 15250.00000000 -810.00000000 35 34 221 97.000000 1.000000 4.000000 1.000000 -60.708740 114.000000 224.000000 0.026751 -0.182607 0.982822
15610.00000000 15240.00000000 -800.00000000 35 34 221 97.000000 1.000000 4.000000 1.000000 -60.708740 114.000000 224.000000 0.431157 0.192770 0.881444
15600.00000000 15280.00000000 -800.00000000 35 34 221 97.000000 1.000000 4.000000 1.000000 -60.708740 114.000000 224.000000 0.066331 0.318651 0.945548
15600.00000000 15190.00000000 -800.00000000 35 34 221 97.000000 1.000000 4.000000 1.000000 -60.708740 114.000000 224.000000 0.477180 0.153223 0.865345
15570.00000000 15270.00000000 -820.00000000 35 34 221 97.000000 1.000000 4.000000 1.000000 -60.708740 114.000000 224.000000 0.278461 0.409322 0.868858
15530.00000000 15210.00000000 -790.00000000 35 34 221 97.000000 1.000000 4.000000 1.000000 -60.708740 114.000000 224.000000 0.019787 0.192047 0.981186
15570.00000000 15180.00000000 -780.00000000 35 34 221 97.000000 1.000000 4.000000 1.000000 -60.708740 114.000000 224.000000 -0.011908 -0.100676 0.994848
15490.00000000 15270.00000000 -990.00000000 35 34 221 97.000000 1.000000 4.000000 1.000000 -60.708740 114.000000 224.000000 0.020139 0.068897 0.997420
15500.00000000 15280.00000000 -990.00000000 35 34 221 97.000000 1.000000 4.000000 1.000000 -60.708740 114.000000 224.000000 0.116260 0.226133 0.967134
15480.00000000 15680.00000000 -910.00000000 35 34 221 97.000000 1.000000 4.000000 1.000000 -60.708740 114.000000 224.000000 -0.300157 0.723907 0.621180
15420.00000000 15480.00000000 -970.00000000 35 34 221 97.000000 1.000000 4.000000 1.000000 -60.708740 114.000000 224.000000 -0.261984 0.722442 0.639877
15390.00000000 15550.00000000 -960.00000000 35 34 221 97.000000 1.000000 4.000000 1.000000 -60.708740 114.000000 224.000000 -0.161030 0.790101 0.591447
15340.00000000 15630.00000000 -1100.00000000 35 34 221 97.000000 1.000000 4.000000 1.000000 -60.708740 114.000000 224.000000 -0.504548 0.833800 0.224074
15340.00000000 15530.00000000 -1090.00000000 35 34 221 97.000000 1.000000 4.000000 1.000000 -60.708740 114.000000 224.000000 -0.523712 0.658429 0.540552
15420.00000000 15410.00000000 -1020.00000000 35 34 221 97.000000 1.000000 4.000000 1.000000 -60.708740 114.000000 224.000000 -0.301192 0.636208 0.710298
15480.00000000 15310.00000000 -1000.00000000 35 34 221 97.000000 1.000000 4.000000 1.000000 -60.708740 114.000000 224.000000 0.260428 0.271813 0.926442
15420.00000000 15330.00000000 -1000.00000000 35 34 221 97.000000 1.000000 4.000000 1.000000 -60.708740 114.000000 224.000000 -0.457395 0.155369 0.875585
15480.00000000 15310.00000000 -1000.00000000 35 34 221 97.000000 1.000000 4.000000 1.000000 -60.708740 114.000000 224.000000 0.260428 0.271813 0.926442
15390.00000000 15410.00000000 -1030.00000000 35 34 221 97.000000 1.000000 4.000000 1.000000 -60.708740 114.000000 224.000000 0.770229 -0.552451 -0.318660
15370.00000000 15370.00000000 -1020.00000000 35 34 221 97.000000 1.000000 4.000000 1.000000 -60.708740 114.000000 224.000000 -0.655351 0.540791 0.527314
15370.00000000 15370.00000000 -1020.00000000 35 34 221 97.000000 1.000000 4.000000 1.000000 -60.708740 114.000000 224.000000 -0.655351 0.540791 0.527314
15440.00000000 15240.00000000 -1000.00000000 35 34 221 97.000000 1.000000 4.000000 1.000000 -60.708740 114.000000 224.000000 0.281782 0.448079 0.848425
15420.00000000 15220.00000000 -990.00000000 35 34 221 97.000000 1.000000 4.000000 1.000000 -60.708740 114.000000 224.000000 -0.215721 0.158196 0.963555
15450.00000000 15220.00000000 -990.00000000 35 34 221 97.000000 1.000000 4.000000 1.000000 -60.708740 114.000000 224.000000 0.130772 0.140549 0.981399
15450.00000000 15280.00000000 -1000.00000000 35 34 221 97.000000 1.000000 4.000000 1.000000 -60.708740 114.000000 224.000000 -0.317196 0.356656 0.878740
15380.00000000 15290.00000000 -1000.00000000 35 34 221 97.000000 1.000000 4.000000 1.000000 -60.708740 114.000000 224.000000 -0.383719 0.374322 0.844182
15360.00000000 15230.00000000 -980.00000000 35 34 221 97.000000 1.000000 4.000000 1.000000 -60.708740 114.000000 224.000000 0.001290 0.403862 0.914819
15380.00000000 15210.00000000 -990.00000000 35 34 221 97.000000 1.000000 4.000000 1.000000 -60.708740 114.000000 224.000000 0.191819 0.282898 0.939773
15330.00000000 15220.00000000 -980.00000000 35 34 221 97.000000 1.000000 4.000000 1.000000 -60.708740 114.000000 224.000000 -0.408215 0.526253 0.745935
15340.00000000 15200.00000000 -980.00000000 35 34 221 97.000000 1.000000 4.000000 1.000000 -60.708740 114.000000 224.000000 -0.423621 0.144060 0.894311
15260.00000000 15220.00000000 -1020.00000000 35 34 221 97.000000 1.000000 4.000000 1.000000 -60.708740 114.000000 224.000000 -0.483208 0.725642 0.489850
15250.00000000 15210.00000000 -1030.00000000 35 34 221 97.000000 1.000000 4.000000 1.000000 -60.708740 114.000000 224.000000 0.711569 -0.511596 -0.481600
15280.00000000 15170.00000000 -990.00000000 35 34 221 97.000000 1.000000 4.000000 1.000000 -60.708740 114.000000 224.000000 -0.438810 0.592309 0.675733
15300.00000000 15150.00000000 -960.00000000 35 34 221 97.000000 1.000000 4.000000 1.000000 -60.708740 114.000000 224.000000 -0.322987 0.353315 0.877979
15320.00000000 15130.00000000 -960.00000000 35 34 221 97.000000 1.000000 4.000000 1.000000 -60.708740 114.000000 224.000000 -0.092089 0.278860 0.955906
15300.00000000 15140.00000000 -970.00000000 35 34 221 97.000000 1.000000 4.000000 1.000000 -60.708740 114.000000 224.000000 -0.444805 0.247451 0.860765
15320.00000000 15140.00000000 -970.00000000 35 34 221 97.000000 1.000000 4.000000 1.000000 -60.708740 114.000000 224.000000 -0.143440 0.407597 0.901826
15270.00000000 15130.00000000 -980.00000000 35 34 221 97.000000 1.000000 4.000000 1.000000 -60.708740 114.000000 224.000000 -0.517464 0.207896 0.830067
15260.00000000 15160.00000000 -1010.00000000 35 34 221 97.000000 1.000000 4.000000 1.000000 -60.708740 114.000000 224.000000 -0.408505 0.529908 0.743183
15240.00000000 15130.00000000 -990.00000000 35 34 221 97.000000 1.000000 4.000000 1.000000 -60.708740 114.000000 224.000000 -0.370351 0.466546 0.803228
15240.00000000 15150.00000000 -1010.00000000 35 34 221 97.000000 1.000000 4.000000 1.000000 -60.708740 114.000000 224.000000 0.668839 -0.416572 -0.615730
15230.00000000 15140.00000000 -1000.00000000 35 34 221 97.000000 1.000000 4.000000 1.000000 -60.708740 114.000000 224.000000 -0.587448 0.577291 0.567133
15220.00000000 15140.00000000 -1000.00000000 35 34 221 97.000000 1.000000 4.000000 1.000000 -60.708740 114.000000 224.000000 -0.253019 0.811835 0.526218
15310.00000000 15370.00000000 -1050.00000000 35 34 221 97.000000 1.000000 4.000000 1.000000 -60.708740 114.000000 224.000000 -0.722261 0.673807 0.155960
15310.00000000 15370.00000000 -1050.00000000 35 34 221 97.000000 1.000000 4.000000 1.000000 -60.708740 114.000000 224.000000 -0.722261 0.673807 0.155960
15270.00000000 15320.00000000 -1080.00000000 35 34 221 97.000000 1.000000 4.000000 1.000000 -60.708740 114.000000 224.000000 -0.574289 0.816986 0.052208
15260.00000000 15310.00000000 -1130.00000000 35 34 221 97.000000 1.000000 4.000000 1.000000 -60.708740 114.000000 224.000000 -0.517011 0.854252 -0.054349
15240.00000000 15290.00000000 -1050.00000000 35 34 221 97.000000 1.000000 4.000000 1.000000 -60.708740 114.000000 224.000000 -0.683330 0.726670 0.070789
15250.00000000 15250.00000000 -1050.00000000 35 34 221 97.000000 1.000000 4.000000 1.000000 -60.708740 114.000000 224.000000 0.705352 -0.702419 -0.095318
15230.00000000 15240.00000000 -1040.00000000 35 34 221 97.000000 1.000000 4.000000 1.000000 -60.708740 114.000000 224.000000 -0.635457 0.703369 0.318537
15200.00000000 15180.00000000 -1080.00000000 35 34 221 97.000000 1.000000 4.000000 1.000000 -60.708740 114.000000 224.000000 -0.617285 0.771229 -0.155453
15200.00000000 15200.00000000 -1090.00000000 35 34 221 97.000000 1.000000 4.000000 1.000000 -60.708740 114.000000 224.000000 0.909207 -0.416342 0.001297
15200.00000000 15200.00000000 -1080.00000000 35 34 221 97.000000 1.000000 4.000000 1.000000 -60.708740 114.000000 224.000000 -0.459977 0.781798 0.420968
15230.00000000 15130.00000000 -1040.00000000 35 34 221 97.000000 1.000000 4.000000 1.000000 -60.708740 114.000000 224.000000 -0.557132 0.644658 0.523469
15190.00000000 15180.00000000 -1050.00000000 35 34 221 97.000000 1.000000 4.000000 1.000000 -60.708740 114.000000 224.000000 -0.632034 0.772486 0.061627
15180.00000000 15160.00000000 -1110.00000000 35 34 221 97.000000 1.000000 4.000000 1.000000 -60.708740 114.000000 224.000000 -0.641255 0.740147 -0.202420
15160.00000000 15150.00000000 -1100.00000000 35 34 221 97.000000 1.000000 4.000000 1.000000 -60.708740 114.000000 224.000000 -0.452284 0.870461 0.194260
15200.00000000 15190.00000000 -1130.00000000 35 34 221 97.000000 1.000000 4.000000 1.000000 -60.708740 114.000000 224.000000 0.806004 -0.456682 0.376562
15550.00000000 15070.00000000 -750.00000000 35 34 221 97.000000 1.000000 4.000000 1.000000 -60.708740 114.000000 224.000000 0.443885 0.233228 0.865200
15490.00000000 15010.00000000 -740.00000000 35 34 221 97.000000 1.000000 4.000000 1.000000 -60.708740 114.000000 224.000000 0.284233 -0.298809 0.911002
15550.00000000 15010.00000000 -780.00000000 35 34 221 97.000000 1.000000 4.000000 1.000000 -60.708740 114.000000 224.000000 0.519410 -0.214771 0.827096
15500.00000000 14840.00000000 -840.00000000 35 34 221 97.000000 1.000000 4.000000 1.000000 -60.708740 114.000000 224.000000 0.775728 -0.548608 0.311891
15500.00000000 14760.00000000 -850.00000000 35 34 221 97.000000 1.000000 4.000000 1.000000 -60.708740 114.000000 224.000000 0.388621 -0.317963 0.864797
15430.00000000 15000.00000000 -750.00000000 35 34 221 97.000000 1.000000 4.000000 1.000000 -60.708740 114.000000 224.000000 0.487096 0.163346 0.857937
15480.00000000 14900.00000000 -790.00000000 35 34 221 97.000000 1.000000 4.000000 1.000000 -60.708740 114.000000 224.000000 0.389712 -0.127110 0.912122
15430.00000000 14870.00000000 -730.00000000 35 34 221 97.000000 1.000000 4.000000 1.000000 -60.708740 114.000000 224.000000 0.519702 -0.228424 0.823245
15430.00000000 14820.00000000 -790.00000000 35 34 221 97.000000 1.000000 4.000000 1.000000 -60.708740 114.000000 224.000000 0.674631 -0.206267 0.708750
15410.00000000 14800.00000000 -780.00000000 35 34 221 97.000000 1.000000 4.000000 1.000000 -60.708740 114.000000 224.000000 0.223147 -0.490316 0.842494
15380.00000000 14790.00000000 -760.00000000 35 34 221 97.000000 1.000000 4.000000 1.000000 -60.708740 114.000000 224.000000 0.594336 0.085318 0.799678
15380.00000000 14860.00000000 -720.00000000 35 34 221 97.000000 1.000000 4.000000 1.000000 -60.708740 114.000000 224.000000 0.413284 -0.302665 0.858831
15250.00000000 15070.00000000 -940.00000000 35 34 221 97.000000 1.000000 4.000000 1.000000 -60.708740 114.000000 224.000000 -0.182457 0.473203 0.861852
15270.00000000 15110.00000000 -960.00000000 35 34 221 97.000000 1.000000 4.000000 1.000000 -60.708740 114.000000 224.000000 -0.484643 0.504628 0.714473
15240.00000000 15100.00000000 -970.00000000 35 34 221 97.000000 1.000000 4.000000 1.000000 -60.708740 114.000000 224.000000 0.613797 -0.322284 -0.720685
15280.00000000 15120.00000000 -970.00000000 35 34 221 97.000000 1.000000 4.000000 1.000000 -60.708740 114.000000 224.000000 0.025200 0.428406 0.903235
15320.00000000 15120.00000000 -960.00000000 35 34 221 97.000000 1.000000 4.000000 1.000000 -60.708740 114.000000 224.000000 -0.289441 0.114983 0.950265
15240.00000000 15100.00000000 -980.00000000 35 34 221 97.000000 1.000000 4.000000 1.000000 -60.708740 114.000000 224.000000 -0.391354 0.639046 0.662164
15270.00000000 15080.00000000 -950.00000000 35 34 221 97.000000 1.000000 4.000000 1.000000 -60.708740 114.000000 224.000000 -0.389637 0.389637 0.834486
15250.00000000 15020.00000000 -950.00000000 35 34 221 97.000000 1.000000 4.000000 1.000000 -60.708740 114.000000 224.000000 -0.031117 0.477577 0.878039
15170.00000000 15110.00000000 -1030.00000000 35 34 221 97.000000 1.000000 4.000000 1.000000 -60.708740 114.000000 224.000000 -0.189034 0.824190 0.533833
15180.00000000 15110.00000000 -1020.00000000 35 34 221 97.000000 1.000000 4.000000 1.000000 -60.708740 114.000000 224.000000 0.611820 -0.615191 -0.497209
15210.00000000 15000.00000000 -930.00000000 35 34 221 97.000000 1.000000 4.000000 1.000000 -60.708740 114.000000 224.000000 -0.042933 0.357776 0.932820
15220.00000000 14990.00000000 -930.00000000 35 34 221 97.000000 1.000000 4.000000 1.000000 -60.708740 114.000000 224.000000 -0.061861 0.354054 0.933177
15170.00000000 14960.00000000 -930.00000000 35 34 221 97.000000 1.000000 4.000000 1.000000 -60.708740 114.000000 224.000000 0.030492 0.417602 0.908118
15170.00000000 15030.00000000 -970.00000000 35 34 221 97.000000 1.000000 4.000000 1.000000 -60.708740 114.000000 224.000000 -0.539665 0.443356 0.715679
15270.00000000 14810.00000000 -1010.00000000 35 34 221 97.000000 1.000000 4.000000 1.000000 -60.708740 114.000000 224.000000 -0.504863 0.771093 -0.387981
15160.00000000 15090.00000000 -1040.00000000 35 34 221 97.000000 1.000000 4.000000 1.000000 -60.708740 114.000000 224.000000 -0.430960 0.875341 0.219208
15180.00000000 15110.00000000 -1040.00000000 35 34 221 97.000000 1.000000 4.000000 1.000000 -60.708740 114.000000 224.000000 -0.556224 0.620468 0.552842
15160.00000000 15110.00000000 -1040.00000000 35 34 221 97.000000 1.000000 4.000000 1.000000 -60.708740 114.000000 224.000000 -0.381500 0.767870 0.514619
15280.00000000 14810.00000000 -1070.00000000 35 34 221 97.000000 1.000000 4.000000 1.000000 -60.708740 114.000000 224.000000 -0.584654 0.798878 -0.141329
15290.00000000 14800.00000000 -1120.00000000 35 34 221 97.000000 1.000000 4.000000 1.000000 -60.708740 114.000000 224.000000 -0.548058 0.774951 0.314774
15290.00000000 14810.00000000 -1050.00000000 35 34 221 97.000000 1.000000 4.000000 1.000000 -60.708740 114.000000 224.000000 -0.518269 0.845290 -0.129932
15310.00000000 14800.00000000 -1100.00000000 35 34 221 97.000000 1.000000 4.000000 1.000000 -60.708740 114.000000 224.000000 -0.422187 0.889349 -0.175548
15320.00000000 14850.00000000 -1050.00000000 35 34 221 97.000000 1.000000 4.000000 1.000000 -60.708740 114.000000 224.000000 0.882646 -0.469946 -0.009319
15310.00000000 14850.00000000 -1070.00000000 35 34 221 97.000000 1.000000 4.000000 1.000000 -60.708740 114.000000 224.000000 0.730326 -0.683029 0.009738
15320.00000000 14840.00000000 -1050.00000000 35 34 221 97.000000 1.000000 4.000000 1.000000 -60.708740 114.000000 224.000000 0.928924 -0.369766 0.019326
15320.00000000 14860.00000000 -1040.00000000 35 34 221 97.000000 1.000000 4.000000 1.000000 -60.708740 114.000000 224.000000 0.896019 -0.406755 0.178046
15260.00000000 14790.00000000 -1050.00000000 35 34 221 97.000000 1.000000 4.000000 1.000000 -60.708740 114.000000 224.000000 0.709693 -0.682102 -0.176274
15320.00000000 14840.00000000 -1080.00000000 35 34 221 97.000000 1.000000 4.000000 1.000000 -60.708740 114.000000 224.000000 -0.437737 0.849179 -0.295434
15450.00000000 14780.00000000 -820.00000000 35 34 221 97.000000 1.000000 4.000000 1.000000 -60.708740 114.000000 224.000000 0.632783 -0.366521 0.682091
15460.00000000 14780.00000000 -830.00000000 35 34 221 97.000000 1.000000 4.000000 1.000000 -60.708740 114.000000 224.000000 0.620294 -0.198556 0.758822
15440.00000000 14660.00000000 -960.00000000 35 34 221 97.000000 1.000000 4.000000 1.000000 -60.708740 114.000000 224.000000 -0.474196 0.868635 -0.143564
15410.00000000 14610.00000000 -1030.00000000 35 34 221 97.000000 1.000000 4.000000 1.000000 -60.708740 114.000000 224.000000 0.822446 -0.538740 -0.182598
15200.00000000 14740.00000000 -1020.00000000 35 34 221 97.000000 1.000000 4.000000 1.000000 -60.708740 114.000000 224.000000 -0.440608 0.835745 -0.327712
15210.00000000 14750.00000000 -1010.00000000 35 34 221 97.000000 1.000000 4.000000 1.000000 -60.708740 114.000000 224.000000 -0.383027 0.802915 -0.456748
15160.00000000 14700.00000000 -1020.00000000 35 34 221 97.000000 1.000000 4.000000 1.000000 -60.708740 114.000000 224.000000 -0.519403 0.787895 -0.330820
15260.00000000 14770.00000000 -1090.00000000 35 34 221 97.000000 1.000000 4.000000 1.000000 -60.708740 114.000000 224.000000 0.916671 -0.398496 -0.030249
15250.00000000 14770.00000000 -1120.00000000 35 34 221 97.000000 1.000000 4.000000 1.000000 -60.708740 114.000000 224.000000 -0.571982 0.820071 0.017918
15260.00000000 14770.00000000 -1120.00000000 35 34 221 97.000000 1.000000 4.000000 1.000000 -60.708740 114.000000 224.000000 -0.656431 0.724712 0.209499
15230.00000000 14750.00000000 -1110.00000000 35 34 221 97.000000 1.000000 4.000000 1.000000 -60.708740 114.000000 224.000000 0.520381 -0.735142 -0.434477
15190.00000000 14710.00000000 -1130.00000000 35 34 221 97.000000 1.000000 4.000000 1.000000 -60.708740 114.000000 224.000000 -0.623672 0.717142 0.311030
15160.00000000 14680.00000000 -1060.00000000 35 34 221 97.000000 1.000000 4.000000 1.000000 -60.708740 114.000000 224.000000 -0.601316 0.786337 -0.141750
15150.00000000 15060.00000000 -990.00000000 35 34 221 97.000000 1.000000 4.000000 1.000000 -60.708740 114.000000 224.000000 -0.372963 0.629272 0.681848
15150.00000000 15120.00000000 -1030.00000000 35 34 221 97.000000 1.000000 4.000000 1.000000 -60.708740 114.000000 224.000000 -0.401396 0.778415 0.482650
15120.00000000 15060.00000000 -1020.00000000 35 34 221 97.000000 1.000000 4.000000 1.000000 -60.708740 114.000000 224.000000 0.610227 -0.767011 -0.198285
15150.00000000 15080.00000000 -1010.00000000 35 34 221 97.000000 1.000000 4.000000 1.000000 -60.708740 114.000000 224.000000 -0.400546 0.723620 0.562083
15150.00000000 15020.00000000 -980.00000000 35 34 221 97.000000 1.000000 4.000000 1.000000 -60.708740 114.000000 224.000000 0.662965 -0.501840 -0.555548
15130.00000000 15010.00000000 -960.00000000 35 34 221 97.000000 1.000000 4.000000 1.000000 -60.708740 114.000000 224.000000 0.678527 -0.435124 -0.591835
15120.00000000 15030.00000000 -1010.00000000 35 34 221 97.000000 1.000000 4.000000 1.000000 -60.708740 114.000000 224.000000 -0.565509 0.717190 0.407232
15140.00000000 15040.00000000 -1000.00000000 35 34 221 97.000000 1.000000 4.000000 1.000000 -60.708740 114.000000 224.000000 0.771752 -0.508544 -0.381814
15100.00000000 15010.00000000 -1020.00000000 35 34 221 97.000000 1.000000 4.000000 1.000000 -60.708740 114.000000 224.000000 0.715959 -0.553917 -0.424946
