//X Y Z R G B PointSourceId ScanDirectionFlag NumberOfReturns ReturnNumber GpsTime Intensity Classification Nx Ny Nz
1490.00000000 1030.00000000 -1040.00000000 248 117 73 97.000000 1.000000 4.000000 1.000000 -60.708740 114.000000 50.000000 0.799801 0.504050 -0.325963
1450.00000000 1060.00000000 -1100.00000000 248 117 73 97.000000 1.000000 4.000000 1.000000 -60.708740 114.000000 50.000000 -0.068126 0.871733 -0.485223
1460.00000000 990.00000000 -1060.00000000 248 117 73 97.000000 1.000000 4.000000 1.000000 -60.708740 114.000000 50.000000 -0.631476 0.772443 0.067607
1500.00000000 1030.00000000 -1130.00000000 248 117 73 97.000000 1.000000 4.000000 1.000000 -60.708740 114.000000 50.000000 0.855158 0.352307 -0.380243
1500.00000000 1060.00000000 -1190.00000000 248 117 73 97.000000 1.000000 4.000000 1.000000 -60.708740 114.000000 50.000000 0.654201 0.533115 -0.536479
1410.00000000 1110.00000000 -1070.00000000 248 117 73 97.000000 1.000000 4.000000 1.000000 -60.708740 114.000000 50.000000 -0.237620 0.964608 0.114314
1420.00000000 1120.00000000 -1040.00000000 248 117 73 97.000000 1.000000 4.000000 1.000000 -60.708740 114.000000 50.000000 -0.176646 0.972189 0.153771
1420.00000000 1120.00000000 -1040.00000000 248 117 73 97.000000 1.000000 4.000000 1.000000 -60.708740 114.000000 50.000000 -0.176646 0.972189 0.153771
1390.00000000 1070.00000000 -1050.00000000 248 117 73 97.000000 1.000000 4.000000 1.000000 -60.708740 114.000000 50.000000 -0.452207 0.860555 0.234422
1360.00000000 1110.00000000 -1080.00000000 248 117 73 97.000000 1.000000 4.000000 1.000000 -60.708740 114.000000 50.000000 -0.399945 0.915489 0.043848
1380.00000000 1070.00000000 -1040.00000000 248 117 73 97.000000 1.000000 4.000000 1.000000 -60.708740 114.000000 50.000000 -0.451627 0.881749 -0.136205
1390.00000000 1110.00000000 -1150.00000000 248 117 73 97.000000 1.000000 4.000000 1.000000 -60.708740 114.000000 50.000000 -0.418052 0.892518 -0.169246
1480.00000000 1100.00000000 -1240.00000000 248 117 73 97.000000 1.000000 4.000000 1.000000 -60.708740 114.000000 50.000000 0.621112 0.776757 -0.104253
1430.00000000 1140.00000000 -1240.00000000 248 117 73 97.000000 1.000000 4.000000 1.000000 -60.708740 114.000000 50.000000 0.497128 0.854943 -0.148112
1430.00000000 1090.00000000 -1210.00000000 248 117 73 97.000000 1.000000 4.000000 1.000000 -60.708740 114.000000 50.000000 0.405148 0.689578 -0.600281
1500.00000000 1040.00000000 -1220.00000000 248 117 73 97.000000 1.000000 4.000000 1.000000 -60.708740 114.000000 50.000000 0.594196 0.637961 -0.489833
1490.00000000 990.00000000 -1200.00000000 248 117 73 97.000000 1.000000 4.000000 1.000000 -60.708740 114.000000 50.000000 0.936330 -0.137655 -0.323013
1420.00000000 1130.00000000 -1220.00000000 248 117 73 97.000000 1.000000 4.000000 1.000000 -60.708740 114.000000 50.000000 0.517298 0.716898 -0.467398
1390.00000000 1130.00000000 -1270.00000000 248 117 73 97.000000 1.000000 4.000000 1.000000 -60.708740 114.000000 50.000000 0.399215 0.819106 -0.411939
1330.00000000 1390.00000000 -730.00000000 248 117 73 97.000000 1.000000 4.000000 1.000000 -60.708740 114.000000 50.000000 -0.499856 0.855439 0.135529
1300.00000000 1350.00000000 -720.00000000 248 117 73 97.000000 1.000000 4.000000 1.000000 -60.708740 114.000000 50.000000 -0.691912 0.720445 0.047079
1330.00000000 1340.00000000 -840.00000000 248 117 73 97.000000 1.000000 4.000000 1.000000 -60.708740 114.000000 50.000000 0.621531 -0.680882 0.387427
1190.00000000 1330.00000000 -720.00000000 248 117 73 97.000000 1.000000 4.000000 1.000000 -60.708740 114.000000 50.000000 0.877609 -0.463777 0.121296
1320.00000000 1350.00000000 -890.00000000 248 117 73 97.000000 1.000000 4.000000 1.000000 -60.708740 114.000000 50.000000 -0.473257 0.843899 0.252710
1340.00000000 1370.00000000 -870.00000000 248 117 73 97.000000 1.000000 4.000000 1.000000 -60.708740 114.000000 50.000000 -0.546272 0.833029 -0.087461
1330.00000000 1390.00000000 -930.00000000 248 117 73 97.000000 1.000000 4.000000 1.000000 -60.708740 114.000000 50.000000 -0.608361 0.779604 0.148711
1310.00000000 1380.00000000 -1010.00000000 248 117 73 97.000000 1.000000 4.000000 1.000000 -60.708740 114.000000 50.000000 -0.693549 0.714077 0.095308
1340.00000000 1380.00000000 -1010.00000000 248 117 73 97.000000 1.000000 4.000000 1.000000 -60.708740 114.000000 50.000000 -0.557429 0.823836 -0.102799
1320.00000000 1400.00000000 -1140.00000000 248 117 73 97.000000 1.000000 4.000000 1.000000 -60.708740 114.000000 50.000000 -0.405858 0.734487 -0.543882
1330.00000000 1260.00000000 -710.00000000 248 117 73 97.000000 1.000000 4.000000 1.000000 -60.708740 114.000000 50.000000 0.874904 -0.478616 -0.073955
1330.00000000 1280.00000000 -750.00000000 248 117 73 97.000000 1.000000 4.000000 1.000000 -60.708740 114.000000 50.000000 0.891920 -0.324199 -0.315235
1330.00000000 1230.00000000 -790.00000000 248 117 73 97.000000 1.000000 4.000000 1.000000 -60.708740 114.000000 50.000000 0.915688 -0.359177 -0.180298
1240.00000000 1270.00000000 -700.00000000 248 117 73 97.000000 1.000000 4.000000 1.000000 -60.708740 114.000000 50.000000 0.845989 -0.504025 -0.173956
1240.00000000 1280.00000000 -830.00000000 248 117 73 97.000000 1.000000 4.000000 1.000000 -60.708740 114.000000 50.000000 0.756096 -0.538210 -0.372357
1220.00000000 1280.00000000 -850.00000000 248 117 73 97.000000 1.000000 4.000000 1.000000 -60.708740 114.000000 50.000000 0.948488 -0.214263 -0.233369
1300.00000000 1310.00000000 -880.00000000 248 117 73 97.000000 1.000000 4.000000 1.000000 -60.708740 114.000000 50.000000 -0.616257 0.770700 0.162014
1190.00000000 1280.00000000 -870.00000000 248 117 73 97.000000 1.000000 4.000000 1.000000 -60.708740 114.000000 50.000000 -0.769969 0.537526 0.343823
1220.00000000 1270.00000000 -990.00000000 248 117 73 97.000000 1.000000 4.000000 1.000000 -60.708740 114.000000 50.000000 -0.499608 0.823342 0.269259
1230.00000000 1240.00000000 -1030.00000000 248 117 73 97.000000 1.000000 4.000000 1.000000 -60.708740 114.000000 50.000000 0.758127 -0.611794 0.225726
1250.00000000 1310.00000000 -970.00000000 248 117 73 97.000000 1.000000 4.000000 1.000000 -60.708740 114.000000 50.000000 0.635428 -0.690967 0.344667
1240.00000000 1250.00000000 -1030.00000000 248 117 73 97.000000 1.000000 4.000000 1.000000 -60.708740 114.000000 50.000000 -0.712287 0.655430 -0.251117
1250.00000000 1170.00000000 -1030.00000000 248 117 73 97.000000 1.000000 4.000000 1.000000 -60.708740 114.000000 50.000000 -0.593906 0.804334 0.017997
1340.00000000 1090.00000000 -710.00000000 248 117 73 97.000000 1.000000 4.000000 1.000000 -60.708740 114.000000 50.000000 0.996257 0.007443 -0.086123
1290.00000000 1070.00000000 -860.00000000 248 117 73 97.000000 1.000000 4.000000 1.000000 -60.708740 114.000000 50.000000 0.990261 0.127368 -0.056226
1290.00000000 1020.00000000 -830.00000000 248 117 73 97.000000 1.000000 4.000000 1.000000 -60.708740 114.000000 50.000000 0.888610 0.379557 -0.257503
1310.00000000 1080.00000000 -950.00000000 248 117 73 97.000000 1.000000 4.000000 1.000000 -60.708740 114.000000 50.000000 0.735657 -0.607438 -0.299712
1320.00000000 1100.00000000 -990.00000000 248 117 73 97.000000 1.000000 4.000000 1.000000 -60.708740 114.000000 50.000000 0.700387 -0.645644 -0.304306
1320.00000000 1090.00000000 -990.00000000 248 117 73 97.000000 1.000000 4.000000 1.000000 -60.708740 114.000000 50.000000 0.801098 -0.487694 -0.346982
1310.00000000 1040.00000000 -900.00000000 248 117 73 97.000000 1.000000 4.000000 1.000000 -60.708740 114.000000 50.000000 0.877832 0.164502 -0.449834
1330.00000000 1060.00000000 -930.00000000 248 117 73 97.000000 1.000000 4.000000 1.000000 -60.708740 114.000000 50.000000 0.785097 -0.372397 -0.494917
1340.00000000 1290.00000000 -1040.00000000 248 117 73 97.000000 1.000000 4.000000 1.000000 -60.708740 114.000000 50.000000 0.724916 -0.688318 -0.026744
1330.00000000 1260.00000000 -1080.00000000 248 117 73 97.000000 1.000000 4.000000 1.000000 -60.708740 114.000000 50.000000 -0.702174 0.696134 -0.149495
1270.00000000 1280.00000000 -1130.00000000 248 117 73 97.000000 1.000000 4.000000 1.000000 -60.708740 114.000000 50.000000 0.732798 -0.635092 0.244266
1320.00000000 1220.00000000 -1150.00000000 248 117 73 97.000000 1.000000 4.000000 1.000000 -60.708740 114.000000 50.000000 0.685495 -0.659689 0.308070
1250.00000000 1160.00000000 -1040.00000000 248 117 73 97.000000 1.000000 4.000000 1.000000 -60.708740 114.000000 50.000000 0.617039 -0.698875 -0.361713
1300.00000000 1260.00000000 -1210.00000000 248 117 73 97.000000 1.000000 4.000000 1.000000 -60.708740 114.000000 50.000000 -0.590341 0.686791 -0.424048
1280.00000000 1250.00000000 -1280.00000000 248 117 73 97.000000 1.000000 4.000000 1.000000 -60.708740 114.000000 50.000000 -0.557348 0.828261 0.057851
1310.00000000 1070.00000000 -1040.00000000 248 117 73 97.000000 1.000000 4.000000 1.000000 -60.708740 114.000000 50.000000 0.772977 -0.612634 -0.164882
1340.00000000 1070.00000000 -1090.00000000 248 117 73 97.000000 1.000000 4.000000 1.000000 -60.708740 114.000000 50.000000 -0.448902 0.826925 0.338646
1640.00000000 940.00000000 -100.00000000 248 117 73 97.000000 1.000000 4.000000 1.000000 -60.708740 114.000000 50.000000 -0.043983 -0.662575 0.747703
1660.00000000 900.00000000 -20.00000000 248 117 73 97.000000 1.000000 4.000000 1.000000 -60.708740 114.000000 50.000000 0.557562 0.638417 -0.530611
1670.00000000 910.00000000 -70.00000000 248 117 73 97.000000 1.000000 4.000000 1.000000 -60.708740 114.000000 50.000000 0.551388 0.758361 -0.347649
1640.00000000 950.00000000 -140.00000000 248 117 73 97.000000 1.000000 4.000000 1.000000 -60.708740 114.000000 50.000000 0.384135 0.817681 -0.428764
1670.00000000 920.00000000 -120.00000000 248 117 73 97.000000 1.000000 4.000000 1.000000 -60.708740 114.000000 50.000000 -0.076384 0.791218 -0.606745
1670.00000000 930.00000000 -150.00000000 248 117 73 97.000000 1.000000 4.000000 1.000000 -60.708740 114.000000 50.000000 0.279262 0.957650 -0.070134
1660.00000000 930.00000000 -150.00000000 248 117 73 97.000000 1.000000 4.000000 1.000000 -60.708740 114.000000 50.000000 0.222186 0.961055 -0.164339
1670.00000000 910.00000000 -150.00000000 248 117 73 97.000000 1.000000 4.000000 1.000000 -60.708740 114.000000 50.000000 0.461758 0.838005 -0.290736
1630.00000000 940.00000000 -170.00000000 248 117 73 97.000000 1.000000 4.000000 1.000000 -60.708740 114.000000 50.000000 0.449728 0.670412 -0.590163
1620.00000000 910.00000000 -110.00000000 248 117 73 97.000000 1.000000 4.000000 1.000000 -60.708740 114.000000 50.000000 0.138419 0.790330 -0.596841
1650.00000000 940.00000000 -230.00000000 248 117 73 97.000000 1.000000 4.000000 1.000000 -60.708740 114.000000 50.000000 -0.052990 -0.697468 0.714654
1640.00000000 910.00000000 -210.00000000 248 117 73 97.000000 1.000000 4.000000 1.000000 -60.708740 114.000000 50.000000 0.140594 0.981710 -0.128368
1630.00000000 940.00000000 -220.00000000 248 117 73 97.000000 1.000000 4.000000 1.000000 -60.708740 114.000000 50.000000 0.207904 0.967204 -0.145920
1620.00000000 940.00000000 -270.00000000 248 117 73 97.000000 1.000000 4.000000 1.000000 -60.708740 114.000000 50.000000 0.522951 0.715529 -0.463185
1670.00000000 950.00000000 -310.00000000 248 117 73 97.000000 1.000000 4.000000 1.000000 -60.708740 114.000000 50.000000 -0.120468 0.951829 -0.281974
1600.00000000 950.00000000 -290.00000000 248 117 73 97.000000 1.000000 4.000000 1.000000 -60.708740 114.000000 50.000000 0.445632 0.682635 -0.579155
1630.00000000 960.00000000 -280.00000000 248 117 73 97.000000 1.000000 4.000000 1.000000 -60.708740 114.000000 50.000000 -0.158453 0.780192 -0.605139
1620.00000000 960.00000000 -350.00000000 248 117 73 97.000000 1.000000 4.000000 1.000000 -60.708740 114.000000 50.000000 0.235598 0.957036 -0.169045
1610.00000000 970.00000000 -330.00000000 248 117 73 97.000000 1.000000 4.000000 1.000000 -60.708740 114.000000 50.000000 -0.175970 0.908461 -0.379122
1610.00000000 910.00000000 -350.00000000 248 117 73 97.000000 1.000000 4.000000 1.000000 -60.708740 114.000000 50.000000 0.110787 0.957978 -0.264584
1660.00000000 880.00000000 -320.00000000 248 117 73 97.000000 1.000000 4.000000 1.000000 -60.708740 114.000000 50.000000 0.117524 0.840078 -0.529583
1500.00000000 880.00000000 -200.00000000 248 117 73 97.000000 1.000000 4.000000 1.000000 -60.708740 114.000000 50.000000 0.523690 0.778284 -0.346441
1440.00000000 870.00000000 -310.00000000 248 117 73 97.000000 1.000000 4.000000 1.000000 -60.708740 114.000000 50.000000 0.659758 0.732895 -0.166082
1420.00000000 840.00000000 -270.00000000 248 117 73 97.000000 1.000000 4.000000 1.000000 -60.708740 114.000000 50.000000 0.735800 0.406583 -0.541562
1380.00000000 870.00000000 -340.00000000 248 117 73 97.000000 1.000000 4.000000 1.000000 -60.708740 114.000000 50.000000 0.576891 0.689941 -0.437240
1620.00000000 950.00000000 -400.00000000 248 117 73 97.000000 1.000000 4.000000 1.000000 -60.708740 114.000000 50.000000 0.219284 0.760496 -0.611196
1620.00000000 930.00000000 -390.00000000 248 117 73 97.000000 1.000000 4.000000 1.000000 -60.708740 114.000000 50.000000 -0.166500 0.937079 -0.306856
1600.00000000 920.00000000 -390.00000000 248 117 73 97.000000 1.000000 4.000000 1.000000 -60.708740 114.000000 50.000000 0.266232 0.938084 -0.221628
1610.00000000 920.00000000 -410.00000000 248 117 73 97.000000 1.000000 4.000000 1.000000 -60.708740 114.000000 50.000000 0.461099 0.877668 -0.130717
1610.00000000 930.00000000 -430.00000000 248 117 73 97.000000 1.000000 4.000000 1.000000 -60.708740 114.000000 50.000000 -0.011710 0.912078 -0.409850
1630.00000000 900.00000000 -440.00000000 248 117 73 97.000000 1.000000 4.000000 1.000000 -60.708740 114.000000 50.000000 -0.029256 0.809413 -0.586511
1640.00000000 950.00000000 -460.00000000 248 117 73 97.000000 1.000000 4.000000 1.000000 -60.708740 114.000000 50.000000 -0.012425 0.791072 -0.611597
1670.00000000 910.00000000 -450.00000000 248 117 73 97.000000 1.000000 4.000000 1.000000 -60.708740 114.000000 50.000000 0.207306 0.790835 -0.575851
1660.00000000 910.00000000 -480.00000000 248 117 73 97.000000 1.000000 4.000000 1.000000 -60.708740 114.000000 50.000000 -0.273969 0.914678 -0.297162
1610.00000000 920.00000000 -450.00000000 248 117 73 97.000000 1.000000 4.000000 1.000000 -60.708740 114.000000 50.000000 -0.001242 0.945148 -0.326641
1620.00000000 920.00000000 -520.00000000 248 117 73 97.000000 1.000000 4.000000 1.000000 -60.708740 114.000000 50.000000 -0.415383 0.853929 -0.313468
1610.00000000 900.00000000 -510.00000000 248 117 73 97.000000 1.000000 4.000000 1.000000 -60.708740 114.000000 50.000000 0.264007 0.949071 -0.171943
1660.00000000 890.00000000 -410.00000000 248 117 73 97.000000 1.000000 4.000000 1.000000 -60.708740 114.000000 50.000000 0.129616 0.947398 -0.292638
1620.00000000 890.00000000 -450.00000000 248 117 73 97.000000 1.000000 4.000000 1.000000 -60.708740 114.000000 50.000000 -0.166229 -0.718292 0.675591
1650.00000000 880.00000000 -450.00000000 248 117 73 97.000000 1.000000 4.000000 1.000000 -60.708740 114.000000 50.000000 -0.073657 0.952369 -0.295919
1570.00000000 950.00000000 -410.00000000 248 117 73 97.000000 1.000000 4.000000 1.000000 -60.708740 114.000000 50.000000 0.178994 0.958610 -0.221422
1590.00000000 940.00000000 -470.00000000 248 117 73 97.000000 1.000000 4.000000 1.000000 -60.708740 114.000000 50.000000 -0.190295 0.911412 -0.364851
1570.00000000 950.00000000 -470.00000000 248 117 73 97.000000 1.000000 4.000000 1.000000 -60.708740 114.000000 50.000000 0.418568 0.902494 -0.101513
1560.00000000 960.00000000 -470.00000000 248 117 73 97.000000 1.000000 4.000000 1.000000 -60.708740 114.000000 50.000000 0.552628 0.813044 -0.183200
1590.00000000 910.00000000 -450.00000000 248 117 73 97.000000 1.000000 4.000000 1.000000 -60.708740 114.000000 50.000000 0.368032 0.852531 -0.371138
1570.00000000 910.00000000 -460.00000000 248 117 73 97.000000 1.000000 4.000000 1.000000 -60.708740 114.000000 50.000000 0.345227 0.830752 -0.436657
1550.00000000 950.00000000 -520.00000000 248 117 73 97.000000 1.000000 4.000000 1.000000 -60.708740 114.000000 50.000000 0.497409 0.817508 -0.290286
1640.00000000 930.00000000 -570.00000000 248 117 73 97.000000 1.000000 4.000000 1.000000 -60.708740 114.000000 50.000000 -0.363366 0.907690 -0.209912
1600.00000000 940.00000000 -540.00000000 248 117 73 97.000000 1.000000 4.000000 1.000000 -60.708740 114.000000 50.000000 -0.126951 0.736314 -0.664624
1650.00000000 970.00000000 -670.00000000 248 117 73 97.000000 1.000000 4.000000 1.000000 -60.708740 114.000000 50.000000 -0.315478 0.946435 -0.068808
1630.00000000 960.00000000 -630.00000000 248 117 73 97.000000 1.000000 4.000000 1.000000 -60.708740 114.000000 50.000000 -0.529378 0.817851 -0.225561
1630.00000000 900.00000000 -620.00000000 248 117 73 97.000000 1.000000 4.000000 1.000000 -60.708740 114.000000 50.000000 -0.043299 0.831055 -0.554502
1630.00000000 890.00000000 -570.00000000 248 117 73 97.000000 1.000000 4.000000 1.000000 -60.708740 114.000000 50.000000 0.271424 0.945210 -0.181404
1610.00000000 890.00000000 -610.00000000 248 117 73 97.000000 1.000000 4.000000 1.000000 -60.708740 114.000000 50.000000 -0.419730 0.850303 -0.317508
1560.00000000 940.00000000 -550.00000000 248 117 73 97.000000 1.000000 4.000000 1.000000 -60.708740 114.000000 50.000000 -0.188218 0.957111 -0.220256
1580.00000000 950.00000000 -600.00000000 248 117 73 97.000000 1.000000 4.000000 1.000000 -60.708740 114.000000 50.000000 0.411043 0.833110 -0.370096
1580.00000000 930.00000000 -550.00000000 248 117 73 97.000000 1.000000 4.000000 1.000000 -60.708740 114.000000 50.000000 -0.134980 0.936678 -0.323133
1570.00000000 930.00000000 -590.00000000 248 117 73 97.000000 1.000000 4.000000 1.000000 -60.708740 114.000000 50.000000 -0.003723 0.946925 -0.321433
1580.00000000 960.00000000 -660.00000000 248 117 73 97.000000 1.000000 4.000000 1.000000 -60.708740 114.000000 50.000000 0.307039 0.891163 -0.333999
1570.00000000 900.00000000 -630.00000000 248 117 73 97.000000 1.000000 4.000000 1.000000 -60.708740 114.000000 50.000000 0.196657 0.965051 -0.173214
1580.00000000 900.00000000 -670.00000000 248 117 73 97.000000 1.000000 4.000000 1.000000 -60.708740 114.000000 50.000000 0.277169 0.885442 -0.373054
1510.00000000 940.00000000 -630.00000000 248 117 73 97.000000 1.000000 4.000000 1.000000 -60.708740 114.000000 50.000000 0.360102 0.884434 -0.296820
1540.00000000 940.00000000 -670.00000000 248 117 73 97.000000 1.000000 4.000000 1.000000 -60.708740 114.000000 50.000000 0.246174 0.868407 -0.430428
1520.00000000 960.00000000 -660.00000000 248 117 73 97.000000 1.000000 4.000000 1.000000 -60.708740 114.000000 50.000000 0.241624 0.852522 -0.463492
1540.00000000 940.00000000 -670.00000000 248 117 73 97.000000 1.000000 4.000000 1.000000 -60.708740 114.000000 50.000000 0.246174 0.868407 -0.430428
1450.00000000 940.00000000 -470.00000000 248 117 73 97.000000 1.000000 4.000000 1.000000 -60.708740 114.000000 50.000000 0.674606 0.722900 -0.149409
1380.00000000 940.00000000 -380.00000000 248 117 73 97.000000 1.000000 4.000000 1.000000 -60.708740 114.000000 50.000000 0.642594 0.753437 -0.139304
1370.00000000 900.00000000 -360.00000000 248 117 73 97.000000 1.000000 4.000000 1.000000 -60.708740 114.000000 50.000000 0.575396 0.809655 -0.115665
1390.00000000 940.00000000 -500.00000000 248 117 73 97.000000 1.000000 4.000000 1.000000 -60.708740 114.000000 50.000000 0.517434 0.608449 -0.601707
1420.00000000 940.00000000 -500.00000000 248 117 73 97.000000 1.000000 4.000000 1.000000 -60.708740 114.000000 50.000000 0.479387 0.529497 -0.699872
1410.00000000 920.00000000 -450.00000000 248 117 73 97.000000 1.000000 4.000000 1.000000 -60.708740 114.000000 50.000000 0.263329 0.774218 -0.575539
1370.00000000 930.00000000 -460.00000000 248 117 73 97.000000 1.000000 4.000000 1.000000 -60.708740 114.000000 50.000000 0.659501 0.735305 -0.156158
1370.00000000 900.00000000 -500.00000000 248 117 73 97.000000 1.000000 4.000000 1.000000 -60.708740 114.000000 50.000000 0.348563 0.662761 -0.662761
1390.00000000 890.00000000 -390.00000000 248 117 73 97.000000 1.000000 4.000000 1.000000 -60.708740 114.000000 50.000000 0.699115 0.670708 -0.247768
1400.00000000 870.00000000 -360.00000000 248 117 73 97.000000 1.000000 4.000000 1.000000 -60.708740 114.000000 50.000000 0.419066 0.768015 -0.484290
1360.00000000 840.00000000 -360.00000000 248 117 73 97.000000 1.000000 4.000000 1.000000 -60.708740 114.000000 50.000000 -0.448142 -0.574755 0.684708
1420.00000000 890.00000000 -480.00000000 248 117 73 97.000000 1.000000 4.000000 1.000000 -60.708740 114.000000 50.000000 0.183541 0.900361 -0.394540
1500.00000000 940.00000000 -540.00000000 248 117 73 97.000000 1.000000 4.000000 1.000000 -60.708740 114.000000 50.000000 0.457534 0.835429 -0.304502
1480.00000000 960.00000000 -540.00000000 248 117 73 97.000000 1.000000 4.000000 1.000000 -60.708740 114.000000 50.000000 0.244802 0.699659 -0.671230
1480.00000000 920.00000000 -600.00000000 248 117 73 97.000000 1.000000 4.000000 1.000000 -60.708740 114.000000 50.000000 0.017666 0.852038 -0.523181
1460.00000000 960.00000000 -530.00000000 248 117 73 97.000000 1.000000 4.000000 1.000000 -60.708740 114.000000 50.000000 0.686364 0.472606 -0.552765
1450.00000000 970.00000000 -580.00000000 248 117 73 97.000000 1.000000 4.000000 1.000000 -60.708740 114.000000 50.000000 0.610025 0.764462 -0.208490
1480.00000000 970.00000000 -680.00000000 248 117 73 97.000000 1.000000 4.000000 1.000000 -60.708740 114.000000 50.000000 0.282865 0.845503 -0.452893
1460.00000000 900.00000000 -620.00000000 248 117 73 97.000000 1.000000 4.000000 1.000000 -60.708740 114.000000 50.000000 0.431335 0.894985 -0.113805
1390.00000000 920.00000000 -570.00000000 248 117 73 97.000000 1.000000 4.000000 1.000000 -60.708740 114.000000 50.000000 0.342397 0.867509 -0.360822
1380.00000000 970.00000000 -530.00000000 248 117 73 97.000000 1.000000 4.000000 1.000000 -60.708740 114.000000 50.000000 0.736314 0.664624 -0.126951
1420.00000000 960.00000000 -660.00000000 248 117 73 97.000000 1.000000 4.000000 1.000000 -60.708740 114.000000 50.000000 0.530089 0.687277 -0.496645
1420.00000000 970.00000000 -650.00000000 248 117 73 97.000000 1.000000 4.000000 1.000000 -60.708740 114.000000 50.000000 0.226365 0.843170 -0.487671
1340.00000000 900.00000000 -310.00000000 248 117 73 97.000000 1.000000 4.000000 1.000000 -60.708740 114.000000 50.000000 0.769480 0.540410 -0.340378
1330.00000000 890.00000000 -330.00000000 248 117 73 97.000000 1.000000 4.000000 1.000000 -60.708740 114.000000 50.000000 0.765866 0.574798 -0.288195
1340.00000000 910.00000000 -420.00000000 248 117 73 97.000000 1.000000 4.000000 1.000000 -60.708740 114.000000 50.000000 0.673633 0.265950 -0.689558
1340.00000000 920.00000000 -420.00000000 248 117 73 97.000000 1.000000 4.000000 1.000000 -60.708740 114.000000 50.000000 0.407978 0.705290 -0.579758
1340.00000000 950.00000000 -460.00000000 248 117 73 97.000000 1.000000 4.000000 1.000000 -60.708740 114.000000 50.000000 0.803493 0.254309 -0.538262
1270.00000000 920.00000000 -450.00000000 248 117 73 97.000000 1.000000 4.000000 1.000000 -60.708740 114.000000 50.000000 -0.584342 -0.249089 0.772334
1300.00000000 950.00000000 -560.00000000 248 117 73 97.000000 1.000000 4.000000 1.000000 -60.708740 114.000000 50.000000 0.652029 0.381313 -0.655331
1320.00000000 970.00000000 -630.00000000 248 117 73 97.000000 1.000000 4.000000 1.000000 -60.708740 114.000000 50.000000 0.529919 0.758191 -0.379911
1310.00000000 960.00000000 -610.00000000 248 117 73 97.000000 1.000000 4.000000 1.000000 -60.708740 114.000000 50.000000 0.825355 0.480805 -0.296000
1660.00000000 950.00000000 -760.00000000 248 117 73 97.000000 1.000000 4.000000 1.000000 -60.708740 114.000000 50.000000 -0.567828 0.809267 -0.150527
1640.00000000 920.00000000 -720.00000000 248 117 73 97.000000 1.000000 4.000000 1.000000 -60.708740 114.000000 50.000000 -0.427597 0.900566 -0.078370
1620.00000000 940.00000000 -780.00000000 248 117 73 97.000000 1.000000 4.000000 1.000000 -60.708740 114.000000 50.000000 -0.632187 0.774533 -0.020933
1580.00000000 960.00000000 -700.00000000 248 117 73 97.000000 1.000000 4.000000 1.000000 -60.708740 114.000000 50.000000 -0.266547 0.812111 -0.519065
1570.00000000 920.00000000 -720.00000000 248 117 73 97.000000 1.000000 4.000000 1.000000 -60.708740 114.000000 50.000000 0.130605 0.905810 -0.403051
1530.00000000 940.00000000 -760.00000000 248 117 73 97.000000 1.000000 4.000000 1.000000 -60.708740 114.000000 50.000000 0.305438 0.943225 -0.130518
1530.00000000 950.00000000 -740.00000000 248 117 73 97.000000 1.000000 4.000000 1.000000 -60.708740 114.000000 50.000000 -0.070062 0.959209 -0.273878
1580.00000000 950.00000000 -800.00000000 248 117 73 97.000000 1.000000 4.000000 1.000000 -60.708740 114.000000 50.000000 -0.277611 0.956790 0.086511
1560.00000000 930.00000000 -800.00000000 248 117 73 97.000000 1.000000 4.000000 1.000000 -60.708740 114.000000 50.000000 -0.438998 0.893327 -0.096162
1560.00000000 920.00000000 -810.00000000 248 117 73 97.000000 1.000000 4.000000 1.000000 -60.708740 114.000000 50.000000 -0.018769 0.992555 -0.120343
1510.00000000 970.00000000 -790.00000000 248 117 73 97.000000 1.000000 4.000000 1.000000 -60.708740 114.000000 50.000000 0.001384 -0.707106 0.707106
1650.00000000 910.00000000 -940.00000000 248 117 73 97.000000 1.000000 4.000000 1.000000 -60.708740 114.000000 50.000000 0.716223 -0.696288 0.046989
1600.00000000 970.00000000 -870.00000000 248 117 73 97.000000 1.000000 4.000000 1.000000 -60.708740 114.000000 50.000000 -0.306605 0.951830 0.003694
1650.00000000 940.00000000 -980.00000000 248 117 73 97.000000 1.000000 4.000000 1.000000 -60.708740 114.000000 50.000000 0.908977 -0.387130 0.154569
1640.00000000 960.00000000 -1000.00000000 248 117 73 97.000000 1.000000 4.000000 1.000000 -60.708740 114.000000 50.000000 0.995054 -0.047489 -0.087247
1660.00000000 960.00000000 -1020.00000000 248 117 73 97.000000 1.000000 4.000000 1.000000 -60.708740 114.000000 50.000000 0.772299 -0.615119 -0.158692
1650.00000000 910.00000000 -990.00000000 248 117 73 97.000000 1.000000 4.000000 1.000000 -60.708740 114.000000 50.000000 0.860942 -0.495868 -0.113547
1660.00000000 880.00000000 -920.00000000 248 117 73 97.000000 1.000000 4.000000 1.000000 -60.708740 114.000000 50.000000 -0.693991 0.714446 -0.089123
1670.00000000 860.00000000 -940.00000000 248 117 73 97.000000 1.000000 4.000000 1.000000 -60.708740 114.000000 50.000000 -0.745037 0.629938 -0.219312
1660.00000000 810.00000000 -910.00000000 248 117 73 97.000000 1.000000 4.000000 1.000000 -60.708740 114.000000 50.000000 -0.369527 0.925832 -0.079280
1520.00000000 970.00000000 -930.00000000 248 117 73 97.000000 1.000000 4.000000 1.000000 -60.708740 114.000000 50.000000 -0.238217 0.956859 0.166352
1670.00000000 800.00000000 -870.00000000 248 117 73 97.000000 1.000000 4.000000 1.000000 -60.708740 114.000000 50.000000 -0.415276 0.907656 -0.060871
1470.00000000 950.00000000 -720.00000000 248 117 73 97.000000 1.000000 4.000000 1.000000 -60.708740 114.000000 50.000000 0.263284 0.877110 -0.401695
1470.00000000 960.00000000 -720.00000000 248 117 73 97.000000 1.000000 4.000000 1.000000 -60.708740 114.000000 50.000000 0.457963 0.798624 -0.390474
1450.00000000 970.00000000 -850.00000000 248 117 73 97.000000 1.000000 4.000000 1.000000 -60.708740 114.000000 50.000000 0.306501 0.883268 -0.354817
1460.00000000 970.00000000 -840.00000000 248 117 73 97.000000 1.000000 4.000000 1.000000 -60.708740 114.000000 50.000000 0.424506 0.847456 -0.318768
1480.00000000 970.00000000 -1020.00000000 248 117 73 97.000000 1.000000 4.000000 1.000000 -60.708740 114.000000 50.000000 -0.366048 0.825588 -0.429433
1640.00000000 970.00000000 -1040.00000000 248 117 73 97.000000 1.000000 4.000000 1.000000 -60.708740 114.000000 50.000000 0.991400 -0.044087 -0.123218
1670.00000000 930.00000000 -1070.00000000 248 117 73 97.000000 1.000000 4.000000 1.000000 -60.708740 114.000000 50.000000 0.851701 -0.519467 0.068981
1620.00000000 970.00000000 -1100.00000000 248 117 73 97.000000 1.000000 4.000000 1.000000 -60.708740 114.000000 50.000000 0.960749 0.151144 -0.232630
1830.00000000 1340.00000000 330.00000000 248 117 73 97.000000 1.000000 4.000000 1.000000 -60.708740 114.000000 50.000000 0.686825 0.680480 -0.255378
1750.00000000 1370.00000000 50.00000000 248 117 73 97.000000 1.000000 4.000000 1.000000 -60.708740 114.000000 50.000000 0.716935 0.616596 -0.325291
1770.00000000 1380.00000000 80.00000000 248 117 73 97.000000 1.000000 4.000000 1.000000 -60.708740 114.000000 50.000000 0.586086 0.552306 -0.592842
1740.00000000 1370.00000000 50.00000000 248 117 73 97.000000 1.000000 4.000000 1.000000 -60.708740 114.000000 50.000000 0.790322 0.484495 -0.375041
1740.00000000 1380.00000000 40.00000000 248 117 73 97.000000 1.000000 4.000000 1.000000 -60.708740 114.000000 50.000000 0.986302 0.074238 -0.147297
1950.00000000 1210.00000000 510.00000000 248 117 73 97.000000 1.000000 4.000000 1.000000 -60.708740 114.000000 50.000000 0.443026 0.653672 -0.613549
1920.00000000 1220.00000000 510.00000000 248 117 73 97.000000 1.000000 4.000000 1.000000 -60.708740 114.000000 50.000000 0.087030 0.840343 -0.535023
1860.00000000 1300.00000000 470.00000000 248 117 73 97.000000 1.000000 4.000000 1.000000 -60.708740 114.000000 50.000000 0.304017 0.891083 -0.336964
1960.00000000 1140.00000000 540.00000000 248 117 73 97.000000 1.000000 4.000000 1.000000 -60.708740 114.000000 50.000000 0.514977 0.821180 -0.245890
1940.00000000 1120.00000000 500.00000000 248 117 73 97.000000 1.000000 4.000000 1.000000 -60.708740 114.000000 50.000000 0.136952 0.968906 -0.206069
1940.00000000 1100.00000000 480.00000000 248 117 73 97.000000 1.000000 4.000000 1.000000 -60.708740 114.000000 50.000000 0.368641 0.758394 -0.537534
1950.00000000 1080.00000000 390.00000000 248 117 73 97.000000 1.000000 4.000000 1.000000 -60.708740 114.000000 50.000000 -0.156505 0.867357 -0.472439
1930.00000000 1140.00000000 430.00000000 248 117 73 97.000000 1.000000 4.000000 1.000000 -60.708740 114.000000 50.000000 -0.240239 0.945855 -0.218274
1910.00000000 1130.00000000 430.00000000 248 117 73 97.000000 1.000000 4.000000 1.000000 -60.708740 114.000000 50.000000 0.223235 0.845865 -0.484436
1900.00000000 1110.00000000 350.00000000 248 117 73 97.000000 1.000000 4.000000 1.000000 -60.708740 114.000000 50.000000 0.067256 0.995613 -0.065051
1880.00000000 1150.00000000 280.00000000 248 117 73 97.000000 1.000000 4.000000 1.000000 -60.708740 114.000000 50.000000 -0.055733 -0.658795 0.750255
1890.00000000 1150.00000000 280.00000000 248 117 73 97.000000 1.000000 4.000000 1.000000 -60.708740 114.000000 50.000000 0.486357 0.816891 -0.310072
2000.00000000 1000.00000000 270.00000000 248 117 73 97.000000 1.000000 4.000000 1.000000 -60.708740 114.000000 50.000000 -0.401227 0.794398 -0.456013
1990.00000000 1000.00000000 200.00000000 248 117 73 97.000000 1.000000 4.000000 1.000000 -60.708740 114.000000 50.000000 -0.131019 0.989017 0.068408
1970.00000000 1010.00000000 180.00000000 248 117 73 97.000000 1.000000 4.000000 1.000000 -60.708740 114.000000 50.000000 0.100150 0.881599 -0.461252
1970.00000000 1060.00000000 170.00000000 248 117 73 97.000000 1.000000 4.000000 1.000000 -60.708740 114.000000 50.000000 -0.180062 0.849715 -0.495543
1910.00000000 1070.00000000 270.00000000 248 117 73 97.000000 1.000000 4.000000 1.000000 -60.708740 114.000000 50.000000 0.148197 0.942207 -0.300473
1850.00000000 1130.00000000 290.00000000 248 117 73 97.000000 1.000000 4.000000 1.000000 -60.708740 114.000000 50.000000 0.078558 0.933381 -0.350184
1850.00000000 1130.00000000 310.00000000 248 117 73 97.000000 1.000000 4.000000 1.000000 -60.708740 114.000000 50.000000 -0.015119 0.980379 -0.196541
1880.00000000 1080.00000000 240.00000000 248 117 73 97.000000 1.000000 4.000000 1.000000 -60.708740 114.000000 50.000000 0.320704 0.850564 -0.416761
1850.00000000 1140.00000000 230.00000000 248 117 73 97.000000 1.000000 4.000000 1.000000 -60.708740 114.000000 50.000000 0.024772 0.996247 -0.082931
1870.00000000 1130.00000000 210.00000000 248 117 73 97.000000 1.000000 4.000000 1.000000 -60.708740 114.000000 50.000000 0.497943 0.830933 -0.248201
1890.00000000 1020.00000000 310.00000000 248 117 73 97.000000 1.000000 4.000000 1.000000 -60.708740 114.000000 50.000000 -0.086008 0.727425 -0.680776
1900.00000000 1050.00000000 300.00000000 248 117 73 97.000000 1.000000 4.000000 1.000000 -60.708740 114.000000 50.000000 0.365561 0.916021 -0.165138
1970.00000000 1000.00000000 140.00000000 248 117 73 97.000000 1.000000 4.000000 1.000000 -60.708740 114.000000 50.000000 0.141395 0.946670 -0.289522
1940.00000000 1030.00000000 -10.00000000 248 117 73 97.000000 1.000000 4.000000 1.000000 -60.708740 114.000000 50.000000 0.015435 0.999156 0.038073
1910.00000000 1050.00000000 70.00000000 248 117 73 97.000000 1.000000 4.000000 1.000000 -60.708740 114.000000 50.000000 -0.127085 0.957723 -0.258100
1860.00000000 1020.00000000 140.00000000 248 117 73 97.000000 1.000000 4.000000 1.000000 -60.708740 114.000000 50.000000 0.184051 0.982763 -0.017363
1730.00000000 1170.00000000 200.00000000 248 117 73 97.000000 1.000000 4.000000 1.000000 -60.708740 114.000000 50.000000 0.254124 0.913393 -0.318017
1820.00000000 1150.00000000 100.00000000 248 117 73 97.000000 1.000000 4.000000 1.000000 -60.708740 114.000000 50.000000 -0.244312 -0.679345 0.691955
1830.00000000 1130.00000000 210.00000000 248 117 73 97.000000 1.000000 4.000000 1.000000 -60.708740 114.000000 50.000000 -0.117021 0.748048 -0.653246
1790.00000000 1130.00000000 110.00000000 248 117 73 97.000000 1.000000 4.000000 1.000000 -60.708740 114.000000 50.000000 0.100148 0.938717 -0.329819
1820.00000000 1110.00000000 140.00000000 248 117 73 97.000000 1.000000 4.000000 1.000000 -60.708740 114.000000 50.000000 0.471915 0.854875 -0.215603
1840.00000000 1100.00000000 50.00000000 248 117 73 97.000000 1.000000 4.000000 1.000000 -60.708740 114.000000 50.000000 -0.371184 0.877205 -0.304522
1830.00000000 1140.00000000 30.00000000 248 117 73 97.000000 1.000000 4.000000 1.000000 -60.708740 114.000000 50.000000 0.116094 0.803839 -0.583408
2000.00000000 970.00000000 230.00000000 248 117 73 97.000000 1.000000 4.000000 1.000000 -60.708740 114.000000 50.000000 -0.160161 0.969937 -0.183224
1780.00000000 970.00000000 70.00000000 248 117 73 97.000000 1.000000 4.000000 1.000000 -60.708740 114.000000 50.000000 0.325146 0.944593 -0.044981
1830.00000000 950.00000000 70.00000000 248 117 73 97.000000 1.000000 4.000000 1.000000 -60.708740 114.000000 50.000000 -0.157905 0.969254 -0.188716
1810.00000000 930.00000000 140.00000000 248 117 73 97.000000 1.000000 4.000000 1.000000 -60.708740 114.000000 50.000000 0.009743 0.708464 -0.705680
1820.00000000 940.00000000 20.00000000 248 117 73 97.000000 1.000000 4.000000 1.000000 -60.708740 114.000000 50.000000 -0.110292 0.786749 -0.607340
1710.00000000 970.00000000 70.00000000 248 117 73 97.000000 1.000000 4.000000 1.000000 -60.708740 114.000000 50.000000 0.038462 0.984865 -0.169001
1730.00000000 960.00000000 50.00000000 248 117 73 97.000000 1.000000 4.000000 1.000000 -60.708740 114.000000 50.000000 0.143670 0.897580 -0.416784
1740.00000000 910.00000000 50.00000000 248 117 73 97.000000 1.000000 4.000000 1.000000 -60.708740 114.000000 50.000000 0.243795 0.835651 -0.492191
1730.00000000 910.00000000 50.00000000 248 117 73 97.000000 1.000000 4.000000 1.000000 -60.708740 114.000000 50.000000 0.113077 0.927780 -0.355581
1750.00000000 930.00000000 10.00000000 248 117 73 97.000000 1.000000 4.000000 1.000000 -60.708740 114.000000 50.000000 -0.006225 0.947413 -0.319954
1720.00000000 900.00000000 10.00000000 248 117 73 97.000000 1.000000 4.000000 1.000000 -60.708740 114.000000 50.000000 0.120949 0.985554 -0.118554
1710.00000000 950.00000000 50.00000000 248 117 73 97.000000 1.000000 4.000000 1.000000 -60.708740 114.000000 50.000000 0.020659 0.822215 -0.568802
1700.00000000 910.00000000 0.00000000 248 117 73 97.000000 1.000000 4.000000 1.000000 -60.708740 114.000000 50.000000 0.003794 0.934701 -0.355414
1540.00000000 1520.00000000 450.00000000 248 117 73 97.000000 1.000000 4.000000 1.000000 -60.708740 114.000000 50.000000 0.855347 -0.039944 -0.516514
1540.00000000 1450.00000000 440.00000000 248 117 73 97.000000 1.000000 4.000000 1.000000 -60.708740 114.000000 50.000000 0.865887 -0.269353 -0.421530
1610.00000000 1360.00000000 290.00000000 248 117 73 97.000000 1.000000 4.000000 1.000000 -60.708740 114.000000 50.000000 0.657570 0.395867 -0.641007
1630.00000000 1320.00000000 310.00000000 248 117 73 97.000000 1.000000 4.000000 1.000000 -60.708740 114.000000 50.000000 0.526150 0.670715 -0.522788
1530.00000000 1470.00000000 240.00000000 248 117 73 97.000000 1.000000 4.000000 1.000000 -60.708740 114.000000 50.000000 0.820985 0.131181 -0.555676
1540.00000000 1420.00000000 260.00000000 248 117 73 97.000000 1.000000 4.000000 1.000000 -60.708740 114.000000 50.000000 0.814600 0.390562 -0.428821
1560.00000000 1410.00000000 180.00000000 248 117 73 97.000000 1.000000 4.000000 1.000000 -60.708740 114.000000 50.000000 0.994984 0.089251 -0.045176
1570.00000000 1470.00000000 220.00000000 248 117 73 97.000000 1.000000 4.000000 1.000000 -60.708740 114.000000 50.000000 0.875892 -0.184011 -0.446042
1640.00000000 1400.00000000 30.00000000 248 117 73 97.000000 1.000000 4.000000 1.000000 -60.708740 114.000000 50.000000 0.831183 -0.325245 -0.450944
1620.00000000 1330.00000000 120.00000000 248 117 73 97.000000 1.000000 4.000000 1.000000 -60.708740 114.000000 50.000000 0.835889 -0.121080 -0.535378
1600.00000000 1330.00000000 90.00000000 248 117 73 97.000000 1.000000 4.000000 1.000000 -60.708740 114.000000 50.000000 0.941031 -0.174469 -0.289865
1520.00000000 1400.00000000 140.00000000 248 117 73 97.000000 1.000000 4.000000 1.000000 -60.708740 114.000000 50.000000 0.996972 -0.077178 -0.009515
1560.00000000 1330.00000000 110.00000000 248 117 73 97.000000 1.000000 4.000000 1.000000 -60.708740 114.000000 50.000000 0.785120 0.464597 -0.409557
1450.00000000 1530.00000000 190.00000000 248 117 73 97.000000 1.000000 4.000000 1.000000 -60.708740 114.000000 50.000000 0.805352 0.046544 -0.590967
1430.00000000 1510.00000000 220.00000000 248 117 73 97.000000 1.000000 4.000000 1.000000 -60.708740 114.000000 50.000000 0.885613 -0.418574 -0.201209
1470.00000000 1450.00000000 180.00000000 248 117 73 97.000000 1.000000 4.000000 1.000000 -60.708740 114.000000 50.000000 0.997224 0.074451 0.001049
1420.00000000 1440.00000000 170.00000000 248 117 73 97.000000 1.000000 4.000000 1.000000 -60.708740 114.000000 50.000000 0.926582 0.231291 -0.296563
1390.00000000 1390.00000000 150.00000000 248 117 73 97.000000 1.000000 4.000000 1.000000 -60.708740 114.000000 50.000000 0.920124 0.292309 -0.260630
1500.00000000 1430.00000000 50.00000000 248 117 73 97.000000 1.000000 4.000000 1.000000 -60.708740 114.000000 50.000000 0.999118 0.038150 0.017528
1380.00000000 1420.00000000 20.00000000 248 117 73 97.000000 1.000000 4.000000 1.000000 -60.708740 114.000000 50.000000 0.733135 -0.382149 -0.562562
1410.00000000 1370.00000000 110.00000000 248 117 73 97.000000 1.000000 4.000000 1.000000 -60.708740 114.000000 50.000000 0.905333 -0.298834 -0.301778
1410.00000000 1380.00000000 40.00000000 248 117 73 97.000000 1.000000 4.000000 1.000000 -60.708740 114.000000 50.000000 0.860270 -0.338239 -0.381484
1620.00000000 1290.00000000 470.00000000 248 117 73 97.000000 1.000000 4.000000 1.000000 -60.708740 114.000000 50.000000 0.714027 0.558300 -0.422452
1610.00000000 1310.00000000 360.00000000 248 117 73 97.000000 1.000000 4.000000 1.000000 -60.708740 114.000000 50.000000 0.948406 0.129389 -0.289457
1730.00000000 1400.00000000 -140.00000000 248 117 73 97.000000 1.000000 4.000000 1.000000 -60.708740 114.000000 50.000000 0.755678 -0.565550 -0.330307
1760.00000000 1360.00000000 -60.00000000 248 117 73 97.000000 1.000000 4.000000 1.000000 -60.708740 114.000000 50.000000 0.906781 0.058110 -0.417579
1760.00000000 1380.00000000 -90.00000000 248 117 73 97.000000 1.000000 4.000000 1.000000 -60.708740 114.000000 50.000000 0.795736 -0.353838 -0.491531
1740.00000000 1390.00000000 -120.00000000 248 117 73 97.000000 1.000000 4.000000 1.000000 -60.708740 114.000000 50.000000 0.904858 -0.423693 -0.041434
1690.00000000 1380.00000000 -160.00000000 248 117 73 97.000000 1.000000 4.000000 1.000000 -60.708740 114.000000 50.000000 0.731423 -0.680095 -0.049902
1710.00000000 1350.00000000 -350.00000000 248 117 73 97.000000 1.000000 4.000000 1.000000 -60.708740 114.000000 50.000000 -0.329624 0.927154 0.178137
1740.00000000 1360.00000000 -200.00000000 248 117 73 97.000000 1.000000 4.000000 1.000000 -60.708740 114.000000 50.000000 0.687696 -0.705994 0.169256
1740.00000000 1370.00000000 -250.00000000 248 117 73 97.000000 1.000000 4.000000 1.000000 -60.708740 114.000000 50.000000 -0.099786 0.994568 -0.029607
1690.00000000 1620.00000000 -590.00000000 248 117 73 97.000000 1.000000 4.000000 1.000000 -60.708740 114.000000 50.000000 -0.125671 0.790988 -0.598786
1710.00000000 1640.00000000 -570.00000000 248 117 73 97.000000 1.000000 4.000000 1.000000 -60.708740 114.000000 50.000000 0.029603 0.734427 -0.678041
1730.00000000 1610.00000000 -630.00000000 248 117 73 97.000000 1.000000 4.000000 1.000000 -60.708740 114.000000 50.000000 -0.068839 0.988244 -0.136511
1690.00000000 1370.00000000 -470.00000000 248 117 73 97.000000 1.000000 4.000000 1.000000 -60.708740 114.000000 50.000000 -0.063348 0.997991 -0.001038
1680.00000000 1340.00000000 -580.00000000 248 117 73 97.000000 1.000000 4.000000 1.000000 -60.708740 114.000000 50.000000 0.355836 0.907745 -0.222216
1700.00000000 1380.00000000 -550.00000000 248 117 73 97.000000 1.000000 4.000000 1.000000 -60.708740 114.000000 50.000000 0.075844 0.811390 -0.579564
1850.00000000 1110.00000000 -30.00000000 248 117 73 97.000000 1.000000 4.000000 1.000000 -60.708740 114.000000 50.000000 0.096027 0.980934 -0.168959
1850.00000000 1130.00000000 -100.00000000 248 117 73 97.000000 1.000000 4.000000 1.000000 -60.708740 114.000000 50.000000 -0.357112 0.896483 -0.262277
1860.00000000 1110.00000000 -60.00000000 248 117 73 97.000000 1.000000 4.000000 1.000000 -60.708740 114.000000 50.000000 -0.001034 0.998260 -0.058965
1920.00000000 1070.00000000 -100.00000000 248 117 73 97.000000 1.000000 4.000000 1.000000 -60.708740 114.000000 50.000000 -0.179283 0.983127 0.036325
1860.00000000 1110.00000000 -60.00000000 248 117 73 97.000000 1.000000 4.000000 1.000000 -60.708740 114.000000 50.000000 -0.001034 0.998260 -0.058965
1880.00000000 1050.00000000 -70.00000000 248 117 73 97.000000 1.000000 4.000000 1.000000 -60.708740 114.000000 50.000000 -0.040609 0.810785 -0.583933
1890.00000000 1030.00000000 -90.00000000 248 117 73 97.000000 1.000000 4.000000 1.000000 -60.708740 114.000000 50.000000 -0.423643 0.810518 -0.404459
1750.00000000 1190.00000000 -110.00000000 248 117 73 97.000000 1.000000 4.000000 1.000000 -60.708740 114.000000 50.000000 0.089480 0.904438 -0.417115
1750.00000000 1150.00000000 -170.00000000 248 117 73 97.000000 1.000000 4.000000 1.000000 -60.708740 114.000000 50.000000 -0.276210 0.923085 -0.267623
1810.00000000 1150.00000000 -240.00000000 248 117 73 97.000000 1.000000 4.000000 1.000000 -60.708740 114.000000 50.000000 0.024154 0.985699 -0.166775
1840.00000000 1110.00000000 -60.00000000 248 117 73 97.000000 1.000000 4.000000 1.000000 -60.708740 114.000000 50.000000 0.168060 0.974241 -0.150369
1840.00000000 1110.00000000 -60.00000000 248 117 73 97.000000 1.000000 4.000000 1.000000 -60.708740 114.000000 50.000000 0.168060 0.974241 -0.150369
1830.00000000 1130.00000000 -150.00000000 248 117 73 97.000000 1.000000 4.000000 1.000000 -60.708740 114.000000 50.000000 -0.141586 0.988800 0.047195
1840.00000000 1050.00000000 -180.00000000 248 117 73 97.000000 1.000000 4.000000 1.000000 -60.708740 114.000000 50.000000 -0.561309 0.825786 -0.054865
1760.00000000 1130.00000000 -120.00000000 248 117 73 97.000000 1.000000 4.000000 1.000000 -60.708740 114.000000 50.000000 0.297909 0.694047 -0.655400
1750.00000000 990.00000000 -160.00000000 248 117 73 97.000000 1.000000 4.000000 1.000000 -60.708740 114.000000 50.000000 -0.341198 0.845984 -0.409749
1680.00000000 1010.00000000 -170.00000000 248 117 73 97.000000 1.000000 4.000000 1.000000 -60.708740 114.000000 50.000000 0.594487 0.733795 -0.328831
1700.00000000 1030.00000000 -180.00000000 248 117 73 97.000000 1.000000 4.000000 1.000000 -60.708740 114.000000 50.000000 0.263908 0.964418 -0.015810
1740.00000000 990.00000000 -150.00000000 248 117 73 97.000000 1.000000 4.000000 1.000000 -60.708740 114.000000 50.000000 0.073274 0.888961 -0.452084
1820.00000000 1100.00000000 -250.00000000 248 117 73 97.000000 1.000000 4.000000 1.000000 -60.708740 114.000000 50.000000 -0.332472 0.934993 -0.123490
1710.00000000 980.00000000 -220.00000000 248 117 73 97.000000 1.000000 4.000000 1.000000 -60.708740 114.000000 50.000000 0.250400 0.840299 -0.480829
1690.00000000 980.00000000 -240.00000000 248 117 73 97.000000 1.000000 4.000000 1.000000 -60.708740 114.000000 50.000000 0.382214 0.720138 -0.579063
1830.00000000 1150.00000000 -360.00000000 248 117 73 97.000000 1.000000 4.000000 1.000000 -60.708740 114.000000 50.000000 0.449150 -0.860492 -0.240454
1690.00000000 1200.00000000 -400.00000000 248 117 73 97.000000 1.000000 4.000000 1.000000 -60.708740 114.000000 50.000000 0.280835 0.958366 -0.051633
1710.00000000 1170.00000000 -360.00000000 248 117 73 97.000000 1.000000 4.000000 1.000000 -60.708740 114.000000 50.000000 -0.120441 0.747927 -0.652763
1700.00000000 1180.00000000 -370.00000000 248 117 73 97.000000 1.000000 4.000000 1.000000 -60.708740 114.000000 50.000000 -0.222027 0.964715 -0.141526
1800.00000000 1180.00000000 -560.00000000 248 117 73 97.000000 1.000000 4.000000 1.000000 -60.708740 114.000000 50.000000 0.980098 -0.061331 -0.188804
1780.00000000 1160.00000000 -630.00000000 248 117 73 97.000000 1.000000 4.000000 1.000000 -60.708740 114.000000 50.000000 0.917628 -0.009060 -0.397337
1760.00000000 1170.00000000 -660.00000000 248 117 73 97.000000 1.000000 4.000000 1.000000 -60.708740 114.000000 50.000000 0.843851 0.200057 -0.497887
1850.00000000 1350.00000000 -920.00000000 248 117 73 97.000000 1.000000 4.000000 1.000000 -60.708740 114.000000 50.000000 0.845797 0.395539 -0.358018
1880.00000000 1380.00000000 -900.00000000 248 117 73 97.000000 1.000000 4.000000 1.000000 -60.708740 114.000000 50.000000 0.512853 0.559934 -0.650735
1700.00000000 1370.00000000 -760.00000000 248 117 73 97.000000 1.000000 4.000000 1.000000 -60.708740 114.000000 50.000000 -0.101245 -0.755666 0.647085
1710.00000000 1350.00000000 -1160.00000000 248 117 73 97.000000 1.000000 4.000000 1.000000 -60.708740 114.000000 50.000000 -0.456057 -0.525709 0.718082
1710.00000000 1350.00000000 -1180.00000000 248 117 73 97.000000 1.000000 4.000000 1.000000 -60.708740 114.000000 50.000000 -0.402880 -0.497483 0.768244
1700.00000000 1350.00000000 -1190.00000000 248 117 73 97.000000 1.000000 4.000000 1.000000 -60.708740 114.000000 50.000000 -0.488259 -0.390932 0.780241
1790.00000000 1150.00000000 -710.00000000 248 117 73 97.000000 1.000000 4.000000 1.000000 -60.708740 114.000000 50.000000 0.948178 -0.203278 -0.244207
1700.00000000 1260.00000000 -770.00000000 248 117 73 97.000000 1.000000 4.000000 1.000000 -60.708740 114.000000 50.000000 -0.432718 -0.416632 0.799483
1720.00000000 1170.00000000 -960.00000000 248 117 73 97.000000 1.000000 4.000000 1.000000 -60.708740 114.000000 50.000000 0.731095 0.064890 -0.679183
1740.00000000 1080.00000000 -770.00000000 248 117 73 97.000000 1.000000 4.000000 1.000000 -60.708740 114.000000 50.000000 0.868862 -0.395493 -0.297765
1730.00000000 1120.00000000 -840.00000000 248 117 73 97.000000 1.000000 4.000000 1.000000 -60.708740 114.000000 50.000000 0.792630 -0.160932 -0.588080
1700.00000000 1100.00000000 -860.00000000 248 117 73 97.000000 1.000000 4.000000 1.000000 -60.708740 114.000000 50.000000 0.934369 -0.006339 -0.356252
1680.00000000 980.00000000 -790.00000000 248 117 73 97.000000 1.000000 4.000000 1.000000 -60.708740 114.000000 50.000000 -0.536172 0.839289 -0.090077
