//X Y Z R G B PointSourceId ScanDirectionFlag NumberOfReturns ReturnNumber GpsTime Intensity Classification Nx Ny Nz
14430.00000000 12260.00000000 -1230.00000000 144 238 64 97.000000 1.000000 4.000000 1.000000 -60.708740 114.000000 228.000000 -0.506809 -0.352353 0.786761
14460.00000000 12240.00000000 -1290.00000000 144 238 64 97.000000 1.000000 4.000000 1.000000 -60.708740 114.000000 228.000000 0.967641 -0.129446 -0.216598
14460.00000000 12200.00000000 -1310.00000000 144 238 64 97.000000 1.000000 4.000000 1.000000 -60.708740 114.000000 228.000000 0.930367 0.081658 -0.357421
14470.00000000 12110.00000000 -1270.00000000 144 238 64 97.000000 1.000000 4.000000 1.000000 -60.708740 114.000000 228.000000 0.910353 0.263638 -0.318988
14420.00000000 12130.00000000 -1220.00000000 144 238 64 97.000000 1.000000 4.000000 1.000000 -60.708740 114.000000 228.000000 0.934871 0.037498 -0.353001
14460.00000000 12140.00000000 -1320.00000000 144 238 64 97.000000 1.000000 4.000000 1.000000 -60.708740 114.000000 228.000000 0.975239 -0.095417 -0.199509
14470.00000000 12110.00000000 -1310.00000000 144 238 64 97.000000 1.000000 4.000000 1.000000 -60.708740 114.000000 228.000000 0.865886 0.490527 -0.098105
14460.00000000 12130.00000000 -1330.00000000 144 238 64 97.000000 1.000000 4.000000 1.000000 -60.708740 114.000000 228.000000 0.993563 0.082327 -0.077816
14460.00000000 12120.00000000 -1340.00000000 144 238 64 97.000000 1.000000 4.000000 1.000000 -60.708740 114.000000 228.000000 0.968840 0.220249 0.113307
14380.00000000 12220.00000000 -1250.00000000 144 238 64 97.000000 1.000000 4.000000 1.000000 -60.708740 114.000000 228.000000 0.887520 0.017350 -0.460443
14390.00000000 12180.00000000 -1240.00000000 144 238 64 97.000000 1.000000 4.000000 1.000000 -60.708740 114.000000 228.000000 0.918458 -0.006441 -0.395465
14210.00000000 12240.00000000 -1050.00000000 144 238 64 97.000000 1.000000 4.000000 1.000000 -60.708740 114.000000 228.000000 0.910608 0.106399 -0.399341
14170.00000000 12230.00000000 -1040.00000000 144 238 64 97.000000 1.000000 4.000000 1.000000 -60.708740 114.000000 228.000000 0.434627 0.334208 -0.836304
14220.00000000 12230.00000000 -1130.00000000 144 238 64 97.000000 1.000000 4.000000 1.000000 -60.708740 114.000000 228.000000 0.718809 0.130013 -0.682943
14200.00000000 12100.00000000 -1100.00000000 144 238 64 97.000000 1.000000 4.000000 1.000000 -60.708740 114.000000 228.000000 0.630348 0.188644 -0.753044
14220.00000000 12130.00000000 -1120.00000000 144 238 64 97.000000 1.000000 4.000000 1.000000 -60.708740 114.000000 228.000000 -0.671900 0.035363 0.739797
14450.00000000 12010.00000000 -1250.00000000 144 238 64 97.000000 1.000000 4.000000 1.000000 -60.708740 114.000000 228.000000 -0.708624 0.061807 0.702874
14420.00000000 12060.00000000 -1270.00000000 144 238 64 97.000000 1.000000 4.000000 1.000000 -60.708740 114.000000 228.000000 0.856357 0.428947 -0.287502
14410.00000000 12070.00000000 -1280.00000000 144 238 64 97.000000 1.000000 4.000000 1.000000 -60.708740 114.000000 228.000000 0.965722 0.035676 -0.257116
14410.00000000 12070.00000000 -1290.00000000 144 238 64 97.000000 1.000000 4.000000 1.000000 -60.708740 114.000000 228.000000 0.954276 0.136325 -0.266032
14410.00000000 12080.00000000 -1290.00000000 144 238 64 97.000000 1.000000 4.000000 1.000000 -60.708740 114.000000 228.000000 0.951526 -0.112177 -0.286382
14470.00000000 11960.00000000 -1220.00000000 144 238 64 97.000000 1.000000 4.000000 1.000000 -60.708740 114.000000 228.000000 -0.535900 -0.379528 0.754169
14420.00000000 12000.00000000 -1290.00000000 144 238 64 97.000000 1.000000 4.000000 1.000000 -60.708740 114.000000 228.000000 0.918582 0.392159 0.049186
14460.00000000 11870.00000000 -1170.00000000 144 238 64 97.000000 1.000000 4.000000 1.000000 -60.708740 114.000000 228.000000 0.621410 0.490055 -0.611306
14470.00000000 11770.00000000 -1190.00000000 144 238 64 97.000000 1.000000 4.000000 1.000000 -60.708740 114.000000 228.000000 0.735730 -0.089224 -0.671372
14470.00000000 11840.00000000 -1170.00000000 144 238 64 97.000000 1.000000 4.000000 1.000000 -60.708740 114.000000 228.000000 -0.564402 -0.210690 0.798160
14460.00000000 11760.00000000 -1190.00000000 144 238 64 97.000000 1.000000 4.000000 1.000000 -60.708740 114.000000 228.000000 0.859769 -0.051226 -0.508108
14470.00000000 11790.00000000 -1280.00000000 144 238 64 97.000000 1.000000 4.000000 1.000000 -60.708740 114.000000 228.000000 0.905318 0.424733 0.001299
14250.00000000 12080.00000000 -1080.00000000 144 238 64 97.000000 1.000000 4.000000 1.000000 -60.708740 114.000000 228.000000 0.673435 -0.146137 -0.724658
14250.00000000 12080.00000000 -1080.00000000 144 238 64 97.000000 1.000000 4.000000 1.000000 -60.708740 114.000000 228.000000 0.673435 -0.146137 -0.724658
14310.00000000 11920.00000000 -1090.00000000 144 238 64 97.000000 1.000000 4.000000 1.000000 -60.708740 114.000000 228.000000 0.863457 0.198342 -0.463791
14310.00000000 11920.00000000 -1090.00000000 144 238 64 97.000000 1.000000 4.000000 1.000000 -60.708740 114.000000 228.000000 0.863457 0.198342 -0.463791
14300.00000000 11910.00000000 -1100.00000000 144 238 64 97.000000 1.000000 4.000000 1.000000 -60.708740 114.000000 228.000000 -0.445539 -0.359919 0.819728
14310.00000000 11910.00000000 -1190.00000000 144 238 64 97.000000 1.000000 4.000000 1.000000 -60.708740 114.000000 228.000000 0.652029 0.381313 -0.655331
14280.00000000 11830.00000000 -1120.00000000 144 238 64 97.000000 1.000000 4.000000 1.000000 -60.708740 114.000000 228.000000 0.872048 0.258441 -0.415621
14260.00000000 11780.00000000 -1130.00000000 144 238 64 97.000000 1.000000 4.000000 1.000000 -60.708740 114.000000 228.000000 0.776848 0.579901 -0.245403
14210.00000000 11870.00000000 -1170.00000000 144 238 64 97.000000 1.000000 4.000000 1.000000 -60.708740 114.000000 228.000000 0.960433 0.222652 -0.167318
14470.00000000 11750.00000000 -1280.00000000 144 238 64 97.000000 1.000000 4.000000 1.000000 -60.708740 114.000000 228.000000 0.893781 -0.134991 -0.427707
14440.00000000 11730.00000000 -1210.00000000 144 238 64 97.000000 1.000000 4.000000 1.000000 -60.708740 114.000000 228.000000 0.641386 0.520179 -0.563948
14420.00000000 11700.00000000 -1260.00000000 144 238 64 97.000000 1.000000 4.000000 1.000000 -60.708740 114.000000 228.000000 0.930054 0.286496 -0.230044
14430.00000000 11680.00000000 -1210.00000000 144 238 64 97.000000 1.000000 4.000000 1.000000 -60.708740 114.000000 228.000000 0.934712 0.202591 -0.292010
14500.00000000 11990.00000000 -1370.00000000 144 238 64 97.000000 1.000000 4.000000 1.000000 -60.708740 114.000000 228.000000 0.806262 -0.189798 0.560284
14440.00000000 14400.00000000 -1190.00000000 144 238 64 97.000000 1.000000 4.000000 1.000000 -60.708740 114.000000 224.000000 0.996375 0.074973 0.040203
14410.00000000 14430.00000000 -1140.00000000 144 238 64 97.000000 1.000000 4.000000 1.000000 -60.708740 114.000000 224.000000 0.891496 0.381222 0.244754
14420.00000000 14300.00000000 -1170.00000000 144 238 64 97.000000 1.000000 4.000000 1.000000 -60.708740 114.000000 224.000000 0.988454 -0.066363 -0.136218
14400.00000000 14280.00000000 -1180.00000000 144 238 64 97.000000 1.000000 4.000000 1.000000 -60.708740 114.000000 224.000000 0.869858 0.300109 -0.391512
14340.00000000 13880.00000000 -1030.00000000 144 238 64 97.000000 1.000000 4.000000 1.000000 -60.708740 114.000000 227.000000 0.924932 -0.070943 0.373453
14340.00000000 13890.00000000 -1110.00000000 144 238 64 97.000000 1.000000 4.000000 1.000000 -60.708740 114.000000 227.000000 0.927554 0.268465 0.259942
14370.00000000 13920.00000000 -1170.00000000 144 238 64 97.000000 1.000000 4.000000 1.000000 -60.708740 114.000000 227.000000 0.878605 0.234195 0.416181
14330.00000000 13930.00000000 -1150.00000000 144 238 64 97.000000 1.000000 4.000000 1.000000 -60.708740 114.000000 227.000000 0.752503 0.575254 0.320660
14330.00000000 13820.00000000 -1190.00000000 144 238 64 97.000000 1.000000 4.000000 1.000000 -60.708740 114.000000 227.000000 0.973526 0.180563 -0.140157
14270.00000000 14010.00000000 -1190.00000000 144 238 64 97.000000 1.000000 4.000000 1.000000 -60.708740 114.000000 227.000000 0.987125 0.133268 0.088452
14260.00000000 13870.00000000 -1190.00000000 144 238 64 97.000000 1.000000 4.000000 1.000000 -60.708740 114.000000 227.000000 0.997891 0.049948 0.041446
14260.00000000 13880.00000000 -1180.00000000 144 238 64 97.000000 1.000000 4.000000 1.000000 -60.708740 114.000000 227.000000 0.893961 0.442159 -0.073004
14310.00000000 13820.00000000 -1140.00000000 144 238 64 97.000000 1.000000 4.000000 1.000000 -60.708740 114.000000 227.000000 0.883345 0.455142 0.112013
14270.00000000 13800.00000000 -1190.00000000 144 238 64 97.000000 1.000000 4.000000 1.000000 -60.708740 114.000000 227.000000 0.898609 0.404015 -0.171095
14190.00000000 13880.00000000 -1170.00000000 144 238 64 97.000000 1.000000 4.000000 1.000000 -60.708740 114.000000 227.000000 0.768201 0.266583 0.582066
14190.00000000 13880.00000000 -1170.00000000 144 238 64 97.000000 1.000000 4.000000 1.000000 -60.708740 114.000000 227.000000 0.768201 0.266583 0.582066
14200.00000000 13890.00000000 -1190.00000000 144 238 64 97.000000 1.000000 4.000000 1.000000 -60.708740 114.000000 227.000000 0.895712 0.150000 0.418570
14260.00000000 13780.00000000 -1200.00000000 144 238 64 97.000000 1.000000 4.000000 1.000000 -60.708740 114.000000 227.000000 0.968407 -0.040401 -0.246081
14120.00000000 13800.00000000 -1170.00000000 144 238 64 97.000000 1.000000 4.000000 1.000000 -60.708740 114.000000 227.000000 -0.545511 -0.130864 0.827824
14530.00000000 13490.00000000 -980.00000000 144 238 64 97.000000 1.000000 4.000000 1.000000 -60.708740 114.000000 224.000000 0.805813 0.440554 0.395698
14560.00000000 13520.00000000 -1030.00000000 144 238 64 97.000000 1.000000 4.000000 1.000000 -60.708740 114.000000 224.000000 0.943261 -0.153365 0.294514
14530.00000000 13490.00000000 -990.00000000 144 238 64 97.000000 1.000000 4.000000 1.000000 -60.708740 114.000000 224.000000 0.877744 0.109186 0.466523
14480.00000000 13490.00000000 -970.00000000 144 238 64 97.000000 1.000000 4.000000 1.000000 -60.708740 114.000000 224.000000 0.435083 0.322803 0.840536
14480.00000000 13480.00000000 -970.00000000 144 238 64 97.000000 1.000000 4.000000 1.000000 -60.708740 114.000000 224.000000 0.607356 0.365068 0.705581
14570.00000000 13680.00000000 -1260.00000000 144 238 64 97.000000 1.000000 4.000000 1.000000 -60.708740 114.000000 227.000000 0.822255 0.529355 -0.208996
14580.00000000 13680.00000000 -1260.00000000 144 238 64 97.000000 1.000000 4.000000 1.000000 -60.708740 114.000000 227.000000 0.842799 0.503276 0.190794
14580.00000000 13690.00000000 -1250.00000000 144 238 64 97.000000 1.000000 4.000000 1.000000 -60.708740 114.000000 227.000000 0.934666 0.234017 0.267648
14480.00000000 13750.00000000 -1230.00000000 144 238 64 97.000000 1.000000 4.000000 1.000000 -60.708740 114.000000 227.000000 0.992171 -0.034754 0.119957
14560.00000000 13710.00000000 -1260.00000000 144 238 64 97.000000 1.000000 4.000000 1.000000 -60.708740 114.000000 227.000000 0.962738 0.250646 0.101544
14510.00000000 13550.00000000 -1240.00000000 144 238 64 97.000000 1.000000 4.000000 1.000000 -60.708740 114.000000 227.000000 0.896964 0.339512 -0.283174
14510.00000000 13540.00000000 -1240.00000000 144 238 64 97.000000 1.000000 4.000000 1.000000 -60.708740 114.000000 227.000000 0.952608 0.073476 0.295193
14570.00000000 13440.00000000 -1010.00000000 144 238 64 97.000000 1.000000 4.000000 1.000000 -60.708740 114.000000 224.000000 0.834785 0.449499 0.317939
14490.00000000 13150.00000000 -1210.00000000 144 238 64 97.000000 1.000000 4.000000 1.000000 -60.708740 114.000000 227.000000 0.967267 0.010814 0.253532
14510.00000000 13150.00000000 -1230.00000000 144 238 64 97.000000 1.000000 4.000000 1.000000 -60.708740 114.000000 227.000000 0.983340 -0.104970 0.148406
14490.00000000 13090.00000000 -1110.00000000 144 238 64 97.000000 1.000000 4.000000 1.000000 -60.708740 114.000000 227.000000 0.894067 -0.150203 0.422000
14490.00000000 13070.00000000 -1120.00000000 144 238 64 97.000000 1.000000 4.000000 1.000000 -60.708740 114.000000 227.000000 0.701932 -0.079930 0.707745
14480.00000000 13030.00000000 -1180.00000000 144 238 64 97.000000 1.000000 4.000000 1.000000 -60.708740 114.000000 227.000000 0.987629 0.137073 0.076152
14500.00000000 13040.00000000 -1140.00000000 144 238 64 97.000000 1.000000 4.000000 1.000000 -60.708740 114.000000 227.000000 0.862022 0.433291 0.263015
14490.00000000 12990.00000000 -1100.00000000 144 238 64 97.000000 1.000000 4.000000 1.000000 -60.708740 114.000000 227.000000 0.598202 0.082163 0.797122
14500.00000000 13010.00000000 -1100.00000000 144 238 64 97.000000 1.000000 4.000000 1.000000 -60.708740 114.000000 227.000000 0.781131 0.178153 0.598411
14500.00000000 12970.00000000 -1110.00000000 144 238 64 97.000000 1.000000 4.000000 1.000000 -60.708740 114.000000 227.000000 0.894676 0.259649 0.363508
14490.00000000 12980.00000000 -1110.00000000 144 238 64 97.000000 1.000000 4.000000 1.000000 -60.708740 114.000000 227.000000 0.637599 0.070524 0.767134
14490.00000000 12990.00000000 -1110.00000000 144 238 64 97.000000 1.000000 4.000000 1.000000 -60.708740 114.000000 227.000000 0.806878 0.271048 0.524862
14510.00000000 12970.00000000 -1140.00000000 144 238 64 97.000000 1.000000 4.000000 1.000000 -60.708740 114.000000 227.000000 0.912898 0.141632 0.382828
14520.00000000 12960.00000000 -1140.00000000 144 238 64 97.000000 1.000000 4.000000 1.000000 -60.708740 114.000000 227.000000 0.708145 -0.032510 0.705318
14490.00000000 13010.00000000 -1120.00000000 144 238 64 97.000000 1.000000 4.000000 1.000000 -60.708740 114.000000 227.000000 0.856764 0.325725 0.399823
14570.00000000 12940.00000000 -1250.00000000 144 238 64 97.000000 1.000000 4.000000 1.000000 -60.708740 114.000000 227.000000 0.927039 0.046023 0.372130
14570.00000000 13000.00000000 -1220.00000000 144 238 64 97.000000 1.000000 4.000000 1.000000 -60.708740 114.000000 227.000000 0.930472 -0.165510 0.326847
14570.00000000 12940.00000000 -1210.00000000 144 238 64 97.000000 1.000000 4.000000 1.000000 -60.708740 114.000000 227.000000 0.996991 -0.071904 -0.028976
14570.00000000 13000.00000000 -1200.00000000 144 238 64 97.000000 1.000000 4.000000 1.000000 -60.708740 114.000000 227.000000 0.924927 0.330834 0.187238
14510.00000000 13060.00000000 -1230.00000000 144 238 64 97.000000 1.000000 4.000000 1.000000 -60.708740 114.000000 227.000000 0.923813 -0.011596 0.382667
14480.00000000 12990.00000000 -1200.00000000 144 238 64 97.000000 1.000000 4.000000 1.000000 -60.708740 114.000000 227.000000 0.726997 0.367583 0.579964
14520.00000000 13010.00000000 -1210.00000000 144 238 64 97.000000 1.000000 4.000000 1.000000 -60.708740 114.000000 227.000000 0.774263 0.366926 0.515637
14500.00000000 12940.00000000 -1210.00000000 144 238 64 97.000000 1.000000 4.000000 1.000000 -60.708740 114.000000 227.000000 0.840536 0.322803 0.435083
14500.00000000 12940.00000000 -1210.00000000 144 238 64 97.000000 1.000000 4.000000 1.000000 -60.708740 114.000000 227.000000 0.840536 0.322803 0.435083
14490.00000000 12930.00000000 -1080.00000000 144 238 64 97.000000 1.000000 4.000000 1.000000 -60.708740 114.000000 227.000000 0.530974 0.218816 0.818649
14490.00000000 12860.00000000 -1110.00000000 144 238 64 97.000000 1.000000 4.000000 1.000000 -60.708740 114.000000 227.000000 0.838693 -0.054606 0.541860
14500.00000000 12920.00000000 -1100.00000000 144 238 64 97.000000 1.000000 4.000000 1.000000 -60.708740 114.000000 227.000000 0.660178 0.251723 0.707673
14490.00000000 12910.00000000 -1160.00000000 144 238 64 97.000000 1.000000 4.000000 1.000000 -60.708740 114.000000 227.000000 0.705619 0.159333 0.690445
14570.00000000 12930.00000000 -1240.00000000 144 238 64 97.000000 1.000000 4.000000 1.000000 -60.708740 114.000000 227.000000 0.940953 -0.016464 0.338135
14620.00000000 12790.00000000 -1270.00000000 144 238 64 97.000000 1.000000 4.000000 1.000000 -60.708740 114.000000 227.000000 0.973382 0.116806 0.197188
14580.00000000 12830.00000000 -1240.00000000 144 238 64 97.000000 1.000000 4.000000 1.000000 -60.708740 114.000000 227.000000 0.861101 0.489361 -0.137950
14540.00000000 12880.00000000 -1200.00000000 144 238 64 97.000000 1.000000 4.000000 1.000000 -60.708740 114.000000 227.000000 0.865140 0.324235 0.382628
14530.00000000 12810.00000000 -1220.00000000 144 238 64 97.000000 1.000000 4.000000 1.000000 -60.708740 114.000000 227.000000 0.777709 0.154940 0.609231
14530.00000000 12810.00000000 -1220.00000000 144 238 64 97.000000 1.000000 4.000000 1.000000 -60.708740 114.000000 227.000000 0.777709 0.154940 0.609231
14520.00000000 12790.00000000 -1200.00000000 144 238 64 97.000000 1.000000 4.000000 1.000000 -60.708740 114.000000 227.000000 0.667648 0.519655 0.533109
14510.00000000 12640.00000000 -1190.00000000 144 238 64 97.000000 1.000000 4.000000 1.000000 -60.708740 114.000000 228.000000 0.823067 0.222243 0.522655
14530.00000000 12620.00000000 -1210.00000000 144 238 64 97.000000 1.000000 4.000000 1.000000 -60.708740 114.000000 228.000000 0.752089 0.482193 0.449279
14510.00000000 12630.00000000 -1200.00000000 144 238 64 97.000000 1.000000 4.000000 1.000000 -60.708740 114.000000 228.000000 0.582579 -0.052192 0.811097
14590.00000000 12470.00000000 -1190.00000000 144 238 64 97.000000 1.000000 4.000000 1.000000 -60.708740 114.000000 228.000000 0.752600 0.133164 0.644872
14620.00000000 12460.00000000 -1240.00000000 144 238 64 97.000000 1.000000 4.000000 1.000000 -60.708740 114.000000 228.000000 0.996455 0.048899 0.068459
14620.00000000 12460.00000000 -1260.00000000 144 238 64 97.000000 1.000000 4.000000 1.000000 -60.708740 114.000000 228.000000 0.983989 -0.050673 0.170872
14610.00000000 12470.00000000 -1250.00000000 144 238 64 97.000000 1.000000 4.000000 1.000000 -60.708740 114.000000 228.000000 0.794737 -0.015204 0.606764
14620.00000000 12460.00000000 -1230.00000000 144 238 64 97.000000 1.000000 4.000000 1.000000 -60.708740 114.000000 228.000000 0.987291 0.156731 0.026313
14560.00000000 12540.00000000 -1220.00000000 144 238 64 97.000000 1.000000 4.000000 1.000000 -60.708740 114.000000 228.000000 0.782554 -0.116425 0.611600
14470.00000000 13620.00000000 -1150.00000000 144 238 64 97.000000 1.000000 4.000000 1.000000 -60.708740 114.000000 227.000000 0.929519 -0.073348 0.361406
14340.00000000 13670.00000000 -1160.00000000 144 238 64 97.000000 1.000000 4.000000 1.000000 -60.708740 114.000000 227.000000 0.937830 -0.134754 0.319869
14340.00000000 13740.00000000 -1200.00000000 144 238 64 97.000000 1.000000 4.000000 1.000000 -60.708740 114.000000 227.000000 0.952126 0.243755 -0.184500
14330.00000000 13510.00000000 -1180.00000000 144 238 64 97.000000 1.000000 4.000000 1.000000 -60.708740 114.000000 227.000000 0.873509 0.219497 0.434515
14460.00000000 13540.00000000 -1230.00000000 144 238 64 97.000000 1.000000 4.000000 1.000000 -60.708740 114.000000 227.000000 0.977441 0.099840 -0.186121
14430.00000000 13540.00000000 -1280.00000000 144 238 64 97.000000 1.000000 4.000000 1.000000 -60.708740 114.000000 227.000000 0.989539 0.143913 -0.010040
14400.00000000 13490.00000000 -1240.00000000 144 238 64 97.000000 1.000000 4.000000 1.000000 -60.708740 114.000000 227.000000 0.805145 0.582227 -0.112926
14350.00000000 13490.00000000 -1210.00000000 144 238 64 97.000000 1.000000 4.000000 1.000000 -60.708740 114.000000 227.000000 0.938842 0.198308 0.281514
14330.00000000 13470.00000000 -1280.00000000 144 238 64 97.000000 1.000000 4.000000 1.000000 -60.708740 114.000000 227.000000 0.705670 0.286429 -0.648065
14290.00000000 13670.00000000 -1160.00000000 144 238 64 97.000000 1.000000 4.000000 1.000000 -60.708740 114.000000 227.000000 0.832347 0.509755 0.217597
14290.00000000 13670.00000000 -1160.00000000 144 238 64 97.000000 1.000000 4.000000 1.000000 -60.708740 114.000000 227.000000 0.832347 0.509755 0.217597
14280.00000000 13660.00000000 -1220.00000000 144 238 64 97.000000 1.000000 4.000000 1.000000 -60.708740 114.000000 227.000000 0.988142 0.144465 0.052007
14270.00000000 13670.00000000 -1250.00000000 144 238 64 97.000000 1.000000 4.000000 1.000000 -60.708740 114.000000 227.000000 0.857997 0.405122 -0.315780
14270.00000000 13690.00000000 -1200.00000000 144 238 64 97.000000 1.000000 4.000000 1.000000 -60.708740 114.000000 227.000000 0.999612 -0.015223 0.023341
14260.00000000 13730.00000000 -1200.00000000 144 238 64 97.000000 1.000000 4.000000 1.000000 -60.708740 114.000000 227.000000 0.920172 0.206860 -0.332403
14270.00000000 13620.00000000 -1200.00000000 144 238 64 97.000000 1.000000 4.000000 1.000000 -60.708740 114.000000 227.000000 0.819804 0.571210 -0.040501
14270.00000000 13620.00000000 -1210.00000000 144 238 64 97.000000 1.000000 4.000000 1.000000 -60.708740 114.000000 227.000000 0.912306 0.066227 0.404118
14270.00000000 13660.00000000 -1210.00000000 144 238 64 97.000000 1.000000 4.000000 1.000000 -60.708740 114.000000 227.000000 0.872896 0.485248 -0.050862
14250.00000000 13760.00000000 -1200.00000000 144 238 64 97.000000 1.000000 4.000000 1.000000 -60.708740 114.000000 227.000000 0.943037 0.311670 0.116375
14260.00000000 13720.00000000 -1220.00000000 144 238 64 97.000000 1.000000 4.000000 1.000000 -60.708740 114.000000 227.000000 0.988929 -0.005575 -0.148284
14290.00000000 13570.00000000 -1190.00000000 144 238 64 97.000000 1.000000 4.000000 1.000000 -60.708740 114.000000 227.000000 0.861237 0.434430 0.263706
14240.00000000 13460.00000000 -1150.00000000 144 238 64 97.000000 1.000000 4.000000 1.000000 -60.708740 114.000000 227.000000 0.588563 0.204384 0.782190
14170.00000000 13510.00000000 -1190.00000000 144 238 64 97.000000 1.000000 4.000000 1.000000 -60.708740 114.000000 227.000000 -0.588244 0.177841 0.788886
14280.00000000 13550.00000000 -1240.00000000 144 238 64 97.000000 1.000000 4.000000 1.000000 -60.708740 114.000000 227.000000 0.868498 0.416818 -0.268279
14290.00000000 13580.00000000 -1220.00000000 144 238 64 97.000000 1.000000 4.000000 1.000000 -60.708740 114.000000 227.000000 0.964314 0.043326 0.261194
14280.00000000 13570.00000000 -1210.00000000 144 238 64 97.000000 1.000000 4.000000 1.000000 -60.708740 114.000000 227.000000 0.938660 0.321014 -0.125967
14230.00000000 13500.00000000 -1200.00000000 144 238 64 97.000000 1.000000 4.000000 1.000000 -60.708740 114.000000 227.000000 0.763317 -0.195053 0.615875
14440.00000000 13350.00000000 -940.00000000 144 238 64 97.000000 1.000000 4.000000 1.000000 -60.708740 114.000000 224.000000 0.292993 0.290078 0.911049
14310.00000000 13240.00000000 -990.00000000 144 238 64 97.000000 1.000000 4.000000 1.000000 -60.708740 114.000000 224.000000 0.003880 -0.404815 0.914390
14290.00000000 13260.00000000 -1000.00000000 144 238 64 97.000000 1.000000 4.000000 1.000000 -60.708740 114.000000 224.000000 0.105178 -0.221761 0.969412
14270.00000000 13180.00000000 -1000.00000000 144 238 64 97.000000 1.000000 4.000000 1.000000 -60.708740 114.000000 224.000000 -0.078478 -0.436447 0.896301
14280.00000000 13180.00000000 -1010.00000000 144 238 64 97.000000 1.000000 4.000000 1.000000 -60.708740 114.000000 224.000000 -0.116564 -0.425530 0.897406
14420.00000000 13420.00000000 -1240.00000000 144 238 64 97.000000 1.000000 4.000000 1.000000 -60.708740 114.000000 227.000000 0.965205 0.040783 -0.258294
14420.00000000 13430.00000000 -1230.00000000 144 238 64 97.000000 1.000000 4.000000 1.000000 -60.708740 114.000000 227.000000 0.966087 0.200998 -0.162095
14420.00000000 13390.00000000 -1230.00000000 144 238 64 97.000000 1.000000 4.000000 1.000000 -60.708740 114.000000 227.000000 0.984006 -0.038520 -0.173923
14420.00000000 13340.00000000 -1250.00000000 144 238 64 97.000000 1.000000 4.000000 1.000000 -60.708740 114.000000 227.000000 0.962108 0.268292 -0.048667
14420.00000000 13350.00000000 -1260.00000000 144 238 64 97.000000 1.000000 4.000000 1.000000 -60.708740 114.000000 227.000000 0.984642 0.173490 0.019532
14370.00000000 13420.00000000 -1240.00000000 144 238 64 97.000000 1.000000 4.000000 1.000000 -60.708740 114.000000 227.000000 0.950261 -0.068522 -0.303825
14360.00000000 13440.00000000 -1250.00000000 144 238 64 97.000000 1.000000 4.000000 1.000000 -60.708740 114.000000 227.000000 0.980644 -0.036582 -0.192353
14350.00000000 13360.00000000 -1300.00000000 144 238 64 97.000000 1.000000 4.000000 1.000000 -60.708740 114.000000 227.000000 0.802494 -0.029308 -0.595939
14350.00000000 13350.00000000 -1290.00000000 144 238 64 97.000000 1.000000 4.000000 1.000000 -60.708740 114.000000 227.000000 0.602914 0.572515 -0.555627
14350.00000000 13350.00000000 -1290.00000000 144 238 64 97.000000 1.000000 4.000000 1.000000 -60.708740 114.000000 227.000000 0.602914 0.572515 -0.555627
14350.00000000 13280.00000000 -1290.00000000 144 238 64 97.000000 1.000000 4.000000 1.000000 -60.708740 114.000000 227.000000 0.900921 0.146595 -0.408474
14470.00000000 13130.00000000 -1220.00000000 144 238 64 97.000000 1.000000 4.000000 1.000000 -60.708740 114.000000 227.000000 0.947674 0.283630 0.146520
14410.00000000 13140.00000000 -1200.00000000 144 238 64 97.000000 1.000000 4.000000 1.000000 -60.708740 114.000000 227.000000 0.985664 0.158599 0.057566
14430.00000000 13170.00000000 -1250.00000000 144 238 64 97.000000 1.000000 4.000000 1.000000 -60.708740 114.000000 227.000000 0.898461 0.347839 -0.267910
14390.00000000 13260.00000000 -1250.00000000 144 238 64 97.000000 1.000000 4.000000 1.000000 -60.708740 114.000000 227.000000 0.893440 0.408222 -0.187404
14370.00000000 13200.00000000 -1280.00000000 144 238 64 97.000000 1.000000 4.000000 1.000000 -60.708740 114.000000 227.000000 0.731304 0.402628 -0.550532
14350.00000000 13210.00000000 -1220.00000000 144 238 64 97.000000 1.000000 4.000000 1.000000 -60.708740 114.000000 227.000000 0.895403 0.212493 0.391281
14350.00000000 13210.00000000 -1290.00000000 144 238 64 97.000000 1.000000 4.000000 1.000000 -60.708740 114.000000 227.000000 0.709094 0.593928 -0.380048
14340.00000000 13220.00000000 -1290.00000000 144 238 64 97.000000 1.000000 4.000000 1.000000 -60.708740 114.000000 227.000000 -0.544494 -0.380982 0.747248
14360.00000000 13250.00000000 -1290.00000000 144 238 64 97.000000 1.000000 4.000000 1.000000 -60.708740 114.000000 227.000000 -0.631455 -0.098161 0.769174
14330.00000000 13160.00000000 -1220.00000000 144 238 64 97.000000 1.000000 4.000000 1.000000 -60.708740 114.000000 227.000000 0.697841 -0.044059 0.714896
14380.00000000 13120.00000000 -1280.00000000 144 238 64 97.000000 1.000000 4.000000 1.000000 -60.708740 114.000000 227.000000 0.975664 0.126498 -0.179101
14390.00000000 13140.00000000 -1280.00000000 144 238 64 97.000000 1.000000 4.000000 1.000000 -60.708740 114.000000 227.000000 0.983598 -0.112239 -0.141204
14350.00000000 13180.00000000 -1310.00000000 144 238 64 97.000000 1.000000 4.000000 1.000000 -60.708740 114.000000 227.000000 -0.431600 -0.025232 0.901712
14230.00000000 13420.00000000 -1190.00000000 144 238 64 97.000000 1.000000 4.000000 1.000000 -60.708740 114.000000 227.000000 -0.010006 0.136743 0.990556
14220.00000000 13410.00000000 -1190.00000000 144 238 64 97.000000 1.000000 4.000000 1.000000 -60.708740 114.000000 227.000000 -0.453514 -0.096881 0.885968
14300.00000000 13310.00000000 -1250.00000000 144 238 64 97.000000 1.000000 4.000000 1.000000 -60.708740 114.000000 227.000000 0.846017 0.532372 0.028888
14190.00000000 13390.00000000 -1210.00000000 144 238 64 97.000000 1.000000 4.000000 1.000000 -60.708740 114.000000 227.000000 0.889714 -0.070350 -0.451065
14160.00000000 13360.00000000 -1210.00000000 144 238 64 97.000000 1.000000 4.000000 1.000000 -60.708740 114.000000 227.000000 0.719771 0.350909 -0.598993
14200.00000000 13440.00000000 -1200.00000000 144 238 64 97.000000 1.000000 4.000000 1.000000 -60.708740 114.000000 227.000000 -0.525184 0.172069 0.833411
14170.00000000 13320.00000000 -1240.00000000 144 238 64 97.000000 1.000000 4.000000 1.000000 -60.708740 114.000000 227.000000 0.988727 -0.113768 0.097348
14300.00000000 13150.00000000 -1070.00000000 144 238 64 97.000000 1.000000 4.000000 1.000000 -60.708740 114.000000 224.000000 0.263829 0.154012 0.952195
14200.00000000 13170.00000000 -1040.00000000 144 238 64 97.000000 1.000000 4.000000 1.000000 -60.708740 114.000000 224.000000 -0.226077 0.083686 0.970508
14200.00000000 13160.00000000 -1070.00000000 144 238 64 97.000000 1.000000 4.000000 1.000000 -60.708740 114.000000 224.000000 -0.144986 -0.201441 0.968711
14210.00000000 13160.00000000 -1070.00000000 144 238 64 97.000000 1.000000 4.000000 1.000000 -60.708740 114.000000 224.000000 -0.046087 -0.183165 0.982001
14170.00000000 13130.00000000 -1120.00000000 144 238 64 97.000000 1.000000 4.000000 1.000000 -60.708740 114.000000 224.000000 -0.683033 0.143241 0.716204
14300.00000000 13210.00000000 -1320.00000000 144 238 64 97.000000 1.000000 4.000000 1.000000 -60.708740 114.000000 227.000000 -0.156802 0.129639 0.979085
14130.00000000 13770.00000000 -1170.00000000 144 238 64 97.000000 1.000000 4.000000 1.000000 -60.708740 114.000000 227.000000 -0.029142 0.183014 0.982678
14140.00000000 13380.00000000 -1130.00000000 144 238 64 97.000000 1.000000 4.000000 1.000000 -60.708740 114.000000 227.000000 -0.694861 0.196542 0.691766
14140.00000000 13190.00000000 -1080.00000000 144 238 64 97.000000 1.000000 4.000000 1.000000 -60.708740 114.000000 224.000000 0.694716 0.186387 -0.694716
14140.00000000 13160.00000000 -1090.00000000 144 238 64 97.000000 1.000000 4.000000 1.000000 -60.708740 114.000000 224.000000 0.666539 0.206643 -0.716257
14210.00000000 13100.00000000 -1030.00000000 144 238 64 97.000000 1.000000 4.000000 1.000000 -60.708740 114.000000 224.000000 -0.479160 0.159720 0.863073
14150.00000000 13060.00000000 -1010.00000000 144 238 64 97.000000 1.000000 4.000000 1.000000 -60.708740 114.000000 224.000000 -0.495626 -0.017556 0.868359
14460.00000000 13040.00000000 -1100.00000000 144 238 64 97.000000 1.000000 4.000000 1.000000 -60.708740 114.000000 227.000000 0.544338 -0.137191 0.827571
14410.00000000 12960.00000000 -1190.00000000 144 238 64 97.000000 1.000000 4.000000 1.000000 -60.708740 114.000000 227.000000 0.575891 0.131759 0.806839
14420.00000000 13030.00000000 -1210.00000000 144 238 64 97.000000 1.000000 4.000000 1.000000 -60.708740 114.000000 227.000000 0.699037 -0.050033 0.713333
14440.00000000 13000.00000000 -1210.00000000 144 238 64 97.000000 1.000000 4.000000 1.000000 -60.708740 114.000000 227.000000 0.952082 -0.134115 0.274869
14380.00000000 13090.00000000 -1220.00000000 144 238 64 97.000000 1.000000 4.000000 1.000000 -60.708740 114.000000 227.000000 0.969286 -0.052960 0.240166
14380.00000000 13100.00000000 -1260.00000000 144 238 64 97.000000 1.000000 4.000000 1.000000 -60.708740 114.000000 227.000000 0.969988 -0.013156 -0.242796
14380.00000000 13090.00000000 -1280.00000000 144 238 64 97.000000 1.000000 4.000000 1.000000 -60.708740 114.000000 227.000000 0.904828 -0.110141 -0.411285
14320.00000000 13040.00000000 -1320.00000000 144 238 64 97.000000 1.000000 4.000000 1.000000 -60.708740 114.000000 227.000000 -0.125332 -0.311307 0.942008
14330.00000000 13010.00000000 -1250.00000000 144 238 64 97.000000 1.000000 4.000000 1.000000 -60.708740 114.000000 227.000000 0.358109 0.062107 0.931612
14320.00000000 12940.00000000 -1240.00000000 144 238 64 97.000000 1.000000 4.000000 1.000000 -60.708740 114.000000 227.000000 -0.652561 0.076687 0.753846
14340.00000000 12970.00000000 -1270.00000000 144 238 64 97.000000 1.000000 4.000000 1.000000 -60.708740 114.000000 227.000000 -0.485673 -0.189786 0.853290
14330.00000000 13010.00000000 -1290.00000000 144 238 64 97.000000 1.000000 4.000000 1.000000 -60.708740 114.000000 227.000000 -0.414185 -0.006492 0.910169
14470.00000000 12890.00000000 -1190.00000000 144 238 64 97.000000 1.000000 4.000000 1.000000 -60.708740 114.000000 227.000000 0.660886 0.431157 0.614274
14460.00000000 12840.00000000 -1190.00000000 144 238 64 97.000000 1.000000 4.000000 1.000000 -60.708740 114.000000 227.000000 0.685999 -0.130026 0.715890
14430.00000000 12860.00000000 -1200.00000000 144 238 64 97.000000 1.000000 4.000000 1.000000 -60.708740 114.000000 227.000000 0.518322 -0.066019 0.852633
14430.00000000 12840.00000000 -1200.00000000 144 238 64 97.000000 1.000000 4.000000 1.000000 -60.708740 114.000000 227.000000 0.808858 -0.213342 0.547936
14360.00000000 12930.00000000 -1280.00000000 144 238 64 97.000000 1.000000 4.000000 1.000000 -60.708740 114.000000 227.000000 -0.566711 0.147256 0.810650
14330.00000000 12860.00000000 -1260.00000000 144 238 64 97.000000 1.000000 4.000000 1.000000 -60.708740 114.000000 227.000000 0.772356 0.404877 -0.489430
14350.00000000 12840.00000000 -1210.00000000 144 238 64 97.000000 1.000000 4.000000 1.000000 -60.708740 114.000000 227.000000 -0.149804 -0.362609 0.919823
14320.00000000 12770.00000000 -1300.00000000 144 238 64 97.000000 1.000000 4.000000 1.000000 -60.708740 114.000000 228.000000 0.996116 0.001061 0.088049
14320.00000000 12770.00000000 -1300.00000000 144 238 64 97.000000 1.000000 4.000000 1.000000 -60.708740 114.000000 228.000000 0.996116 0.001061 0.088049
14220.00000000 13070.00000000 -1080.00000000 144 238 64 97.000000 1.000000 4.000000 1.000000 -60.708740 114.000000 224.000000 0.580322 0.411682 -0.702669
14160.00000000 13050.00000000 -1090.00000000 144 238 64 97.000000 1.000000 4.000000 1.000000 -60.708740 114.000000 224.000000 0.891104 0.212867 -0.400777
14290.00000000 13030.00000000 -1310.00000000 144 238 64 97.000000 1.000000 4.000000 1.000000 -60.708740 114.000000 227.000000 0.574553 0.160515 0.802574
14300.00000000 13050.00000000 -1310.00000000 144 238 64 97.000000 1.000000 4.000000 1.000000 -60.708740 114.000000 227.000000 0.305174 0.206731 0.929586
14300.00000000 12890.00000000 -1310.00000000 144 238 64 97.000000 1.000000 4.000000 1.000000 -60.708740 114.000000 227.000000 0.497905 -0.023064 0.866925
14470.00000000 12650.00000000 -1180.00000000 144 238 64 97.000000 1.000000 4.000000 1.000000 -60.708740 114.000000 228.000000 0.449393 -0.200225 0.870607
14450.00000000 12650.00000000 -1170.00000000 144 238 64 97.000000 1.000000 4.000000 1.000000 -60.708740 114.000000 228.000000 0.543937 -0.028918 0.838627
14470.00000000 12640.00000000 -1180.00000000 144 238 64 97.000000 1.000000 4.000000 1.000000 -60.708740 114.000000 228.000000 0.487474 -0.045314 0.871961
14470.00000000 12640.00000000 -1180.00000000 144 238 64 97.000000 1.000000 4.000000 1.000000 -60.708740 114.000000 228.000000 0.487474 -0.045314 0.871961
14470.00000000 12670.00000000 -1230.00000000 144 238 64 97.000000 1.000000 4.000000 1.000000 -60.708740 114.000000 228.000000 0.585072 0.015143 0.810840
14450.00000000 12610.00000000 -1220.00000000 144 238 64 97.000000 1.000000 4.000000 1.000000 -60.708740 114.000000 228.000000 0.167684 0.067787 0.983508
14410.00000000 12610.00000000 -1240.00000000 144 238 64 97.000000 1.000000 4.000000 1.000000 -60.708740 114.000000 228.000000 -0.626088 0.020916 0.779472
14320.00000000 12760.00000000 -1260.00000000 144 238 64 97.000000 1.000000 4.000000 1.000000 -60.708740 114.000000 228.000000 0.982448 -0.063268 -0.175480
14330.00000000 12690.00000000 -1300.00000000 144 238 64 97.000000 1.000000 4.000000 1.000000 -60.708740 114.000000 228.000000 0.895403 0.212493 0.391281
14360.00000000 12660.00000000 -1280.00000000 144 238 64 97.000000 1.000000 4.000000 1.000000 -60.708740 114.000000 228.000000 0.972260 -0.127696 -0.195969
14370.00000000 12630.00000000 -1250.00000000 144 238 64 97.000000 1.000000 4.000000 1.000000 -60.708740 114.000000 228.000000 0.841340 0.472196 -0.263015
14360.00000000 12660.00000000 -1240.00000000 144 238 64 97.000000 1.000000 4.000000 1.000000 -60.708740 114.000000 228.000000 -0.578343 0.072828 0.812536
14380.00000000 12600.00000000 -1260.00000000 144 238 64 97.000000 1.000000 4.000000 1.000000 -60.708740 114.000000 228.000000 0.790540 0.341552 -0.508319
14400.00000000 12580.00000000 -1280.00000000 144 238 64 97.000000 1.000000 4.000000 1.000000 -60.708740 114.000000 228.000000 0.880403 0.442391 -0.170824
14470.00000000 12530.00000000 -1230.00000000 144 238 64 97.000000 1.000000 4.000000 1.000000 -60.708740 114.000000 228.000000 0.125402 0.137577 0.982521
14410.00000000 12590.00000000 -1240.00000000 144 238 64 97.000000 1.000000 4.000000 1.000000 -60.708740 114.000000 228.000000 -0.593373 -0.094301 0.799385
14470.00000000 12490.00000000 -1230.00000000 144 238 64 97.000000 1.000000 4.000000 1.000000 -60.708740 114.000000 228.000000 0.289673 0.337209 0.895757
14470.00000000 12490.00000000 -1230.00000000 144 238 64 97.000000 1.000000 4.000000 1.000000 -60.708740 114.000000 228.000000 0.289673 0.337209 0.895757
14400.00000000 12490.00000000 -1270.00000000 144 238 64 97.000000 1.000000 4.000000 1.000000 -60.708740 114.000000 228.000000 0.723448 0.035394 -0.689470
14360.00000000 12520.00000000 -1280.00000000 144 238 64 97.000000 1.000000 4.000000 1.000000 -60.708740 114.000000 228.000000 0.846815 0.506907 0.161087
14380.00000000 12440.00000000 -1300.00000000 144 238 64 97.000000 1.000000 4.000000 1.000000 -60.708740 114.000000 228.000000 0.953427 0.068010 -0.293856
14310.00000000 12750.00000000 -1290.00000000 144 238 64 97.000000 1.000000 4.000000 1.000000 -60.708740 114.000000 228.000000 0.899614 -0.152549 0.409175
14310.00000000 12730.00000000 -1280.00000000 144 238 64 97.000000 1.000000 4.000000 1.000000 -60.708740 114.000000 228.000000 0.823263 0.363251 0.436218
14310.00000000 12730.00000000 -1290.00000000 144 238 64 97.000000 1.000000 4.000000 1.000000 -60.708740 114.000000 228.000000 0.775706 0.421191 0.469977
14110.00000000 13060.00000000 -1000.00000000 144 238 64 97.000000 1.000000 4.000000 1.000000 -60.708740 114.000000 224.000000 -0.506181 -0.080369 0.858674
14100.00000000 13030.00000000 -1060.00000000 144 238 64 97.000000 1.000000 4.000000 1.000000 -60.708740 114.000000 224.000000 -0.628278 -0.268808 0.730075
14110.00000000 13020.00000000 -1050.00000000 144 238 64 97.000000 1.000000 4.000000 1.000000 -60.708740 114.000000 224.000000 0.687470 -0.004150 -0.726201
14100.00000000 13030.00000000 -1070.00000000 144 238 64 97.000000 1.000000 4.000000 1.000000 -60.708740 114.000000 224.000000 0.717805 0.216431 -0.661751
14000.00000000 12820.00000000 -1060.00000000 144 238 64 97.000000 1.000000 4.000000 1.000000 -60.708740 114.000000 224.000000 0.660979 0.044065 -0.749110
14850.00000000 12140.00000000 -1210.00000000 144 238 64 97.000000 1.000000 4.000000 1.000000 -60.708740 114.000000 228.000000 0.883210 0.427644 0.192513
14910.00000000 12030.00000000 -1290.00000000 144 238 64 97.000000 1.000000 4.000000 1.000000 -60.708740 114.000000 228.000000 0.955865 -0.103020 0.275153
14880.00000000 12070.00000000 -1280.00000000 144 238 64 97.000000 1.000000 4.000000 1.000000 -60.708740 114.000000 228.000000 0.782966 0.393915 0.481451
14820.00000000 12050.00000000 -1300.00000000 144 238 64 97.000000 1.000000 4.000000 1.000000 -60.708740 114.000000 228.000000 0.931261 -0.043102 0.361794
14700.00000000 12270.00000000 -1190.00000000 144 238 64 97.000000 1.000000 4.000000 1.000000 -60.708740 114.000000 228.000000 0.924626 -0.169772 0.340947
14720.00000000 12300.00000000 -1220.00000000 144 238 64 97.000000 1.000000 4.000000 1.000000 -60.708740 114.000000 228.000000 0.969854 0.144773 0.196021
14660.00000000 12330.00000000 -1260.00000000 144 238 64 97.000000 1.000000 4.000000 1.000000 -60.708740 114.000000 228.000000 0.934202 0.115250 0.337614
14670.00000000 12330.00000000 -1250.00000000 144 238 64 97.000000 1.000000 4.000000 1.000000 -60.708740 114.000000 228.000000 0.951526 0.112177 0.286382
14770.00000000 12240.00000000 -1180.00000000 144 238 64 97.000000 1.000000 4.000000 1.000000 -60.708740 114.000000 228.000000 0.757143 0.146010 0.636723
14760.00000000 12250.00000000 -1170.00000000 144 238 64 97.000000 1.000000 4.000000 1.000000 -60.708740 114.000000 228.000000 0.881718 -0.070593 0.466466
14760.00000000 12230.00000000 -1210.00000000 144 238 64 97.000000 1.000000 4.000000 1.000000 -60.708740 114.000000 228.000000 0.880661 -0.224249 0.417311
14770.00000000 12140.00000000 -1230.00000000 144 238 64 97.000000 1.000000 4.000000 1.000000 -60.708740 114.000000 228.000000 0.791316 0.269016 0.549044
14740.00000000 12140.00000000 -1210.00000000 144 238 64 97.000000 1.000000 4.000000 1.000000 -60.708740 114.000000 228.000000 0.608080 0.208882 0.765902
14730.00000000 12240.00000000 -1240.00000000 144 238 64 97.000000 1.000000 4.000000 1.000000 -60.708740 114.000000 228.000000 0.979106 0.094357 0.180136
14730.00000000 12130.00000000 -1200.00000000 144 238 64 97.000000 1.000000 4.000000 1.000000 -60.708740 114.000000 228.000000 0.633454 0.439574 0.636797
14620.00000000 12420.00000000 -1230.00000000 144 238 64 97.000000 1.000000 4.000000 1.000000 -60.708740 114.000000 228.000000 0.939967 0.171527 0.295026
14500.00000000 12400.00000000 -1230.00000000 144 238 64 97.000000 1.000000 4.000000 1.000000 -60.708740 114.000000 228.000000 0.173528 0.280104 0.944156
14480.00000000 12380.00000000 -1220.00000000 144 238 64 97.000000 1.000000 4.000000 1.000000 -60.708740 114.000000 228.000000 -0.385002 -0.176042 0.905971
14510.00000000 12350.00000000 -1220.00000000 144 238 64 97.000000 1.000000 4.000000 1.000000 -60.708740 114.000000 228.000000 0.216342 0.107539 0.970377
14540.00000000 12310.00000000 -1220.00000000 144 238 64 97.000000 1.000000 4.000000 1.000000 -60.708740 114.000000 228.000000 0.125996 -0.046539 0.990939
14530.00000000 12300.00000000 -1210.00000000 144 238 64 97.000000 1.000000 4.000000 1.000000 -60.708740 114.000000 228.000000 0.392124 -0.032786 0.919328
14490.00000000 12340.00000000 -1230.00000000 144 238 64 97.000000 1.000000 4.000000 1.000000 -60.708740 114.000000 228.000000 -0.067356 -0.446748 0.892121
14520.00000000 12340.00000000 -1220.00000000 144 238 64 97.000000 1.000000 4.000000 1.000000 -60.708740 114.000000 228.000000 -0.009701 0.100246 0.994915
14490.00000000 12320.00000000 -1250.00000000 144 238 64 97.000000 1.000000 4.000000 1.000000 -60.708740 114.000000 228.000000 -0.316724 -0.290207 0.903031
14490.00000000 12280.00000000 -1230.00000000 144 238 64 97.000000 1.000000 4.000000 1.000000 -60.708740 114.000000 228.000000 -0.282595 -0.123387 0.951271
14520.00000000 12270.00000000 -1210.00000000 144 238 64 97.000000 1.000000 4.000000 1.000000 -60.708740 114.000000 228.000000 -0.046097 0.265367 0.963045
14480.00000000 12300.00000000 -1260.00000000 144 238 64 97.000000 1.000000 4.000000 1.000000 -60.708740 114.000000 228.000000 -0.316173 -0.402543 0.859066
14480.00000000 12270.00000000 -1260.00000000 144 238 64 97.000000 1.000000 4.000000 1.000000 -60.708740 114.000000 228.000000 -0.456850 -0.318696 0.830494
14640.00000000 12140.00000000 -1180.00000000 144 238 64 97.000000 1.000000 4.000000 1.000000 -60.708740 114.000000 228.000000 0.681996 0.354900 0.639474
14640.00000000 12160.00000000 -1170.00000000 144 238 64 97.000000 1.000000 4.000000 1.000000 -60.708740 114.000000 228.000000 0.805857 -0.026444 0.591519
14580.00000000 12170.00000000 -1210.00000000 144 238 64 97.000000 1.000000 4.000000 1.000000 -60.708740 114.000000 228.000000 0.061664 0.143107 0.987784
14570.00000000 12120.00000000 -1210.00000000 144 238 64 97.000000 1.000000 4.000000 1.000000 -60.708740 114.000000 228.000000 -0.144228 -0.012298 0.989468
14530.00000000 12240.00000000 -1230.00000000 144 238 64 97.000000 1.000000 4.000000 1.000000 -60.708740 114.000000 228.000000 0.132332 -0.182744 0.974214
14530.00000000 12260.00000000 -1220.00000000 144 238 64 97.000000 1.000000 4.000000 1.000000 -60.708740 114.000000 228.000000 0.119524 -0.271884 0.954879
14510.00000000 12240.00000000 -1250.00000000 144 238 64 97.000000 1.000000 4.000000 1.000000 -60.708740 114.000000 228.000000 -0.131352 -0.363639 0.922233
14510.00000000 12200.00000000 -1250.00000000 144 238 64 97.000000 1.000000 4.000000 1.000000 -60.708740 114.000000 228.000000 -0.390709 -0.019471 0.920308
14550.00000000 12160.00000000 -1200.00000000 144 238 64 97.000000 1.000000 4.000000 1.000000 -60.708740 114.000000 228.000000 -0.157253 -0.110930 0.981308
14530.00000000 12150.00000000 -1260.00000000 144 238 64 97.000000 1.000000 4.000000 1.000000 -60.708740 114.000000 228.000000 0.080387 -0.087180 0.992944
14560.00000000 12110.00000000 -1210.00000000 144 238 64 97.000000 1.000000 4.000000 1.000000 -60.708740 114.000000 228.000000 -0.100676 -0.011908 0.994848
14510.00000000 12140.00000000 -1280.00000000 144 238 64 97.000000 1.000000 4.000000 1.000000 -60.708740 114.000000 228.000000 -0.546897 -0.337173 0.766301
14520.00000000 12110.00000000 -1280.00000000 144 238 64 97.000000 1.000000 4.000000 1.000000 -60.708740 114.000000 228.000000 0.821556 0.179386 -0.541172
14520.00000000 12110.00000000 -1270.00000000 144 238 64 97.000000 1.000000 4.000000 1.000000 -60.708740 114.000000 228.000000 0.720179 0.089109 -0.688042
14760.00000000 12080.00000000 -1240.00000000 144 238 64 97.000000 1.000000 4.000000 1.000000 -60.708740 114.000000 228.000000 0.893686 -0.218652 0.391813
14770.00000000 12010.00000000 -1310.00000000 144 238 64 97.000000 1.000000 4.000000 1.000000 -60.708740 114.000000 228.000000 0.975247 0.069923 0.209770
14770.00000000 12020.00000000 -1300.00000000 144 238 64 97.000000 1.000000 4.000000 1.000000 -60.708740 114.000000 228.000000 0.974192 0.224814 0.020221
14660.00000000 12010.00000000 -1200.00000000 144 238 64 97.000000 1.000000 4.000000 1.000000 -60.708740 114.000000 228.000000 0.638573 -0.018086 0.769349
14680.00000000 12000.00000000 -1220.00000000 144 238 64 97.000000 1.000000 4.000000 1.000000 -60.708740 114.000000 228.000000 0.794674 -0.254483 0.551119
14670.00000000 11950.00000000 -1240.00000000 144 238 64 97.000000 1.000000 4.000000 1.000000 -60.708740 114.000000 228.000000 0.565445 -0.163484 0.808421
14690.00000000 11960.00000000 -1240.00000000 144 238 64 97.000000 1.000000 4.000000 1.000000 -60.708740 114.000000 228.000000 0.737525 -0.189385 0.648221
14630.00000000 12050.00000000 -1170.00000000 144 238 64 97.000000 1.000000 4.000000 1.000000 -60.708740 114.000000 228.000000 0.697773 -0.098423 0.709525
14630.00000000 12050.00000000 -1170.00000000 144 238 64 97.000000 1.000000 4.000000 1.000000 -60.708740 114.000000 228.000000 0.697773 -0.098423 0.709525
14620.00000000 12020.00000000 -1190.00000000 144 238 64 97.000000 1.000000 4.000000 1.000000 -60.708740 114.000000 228.000000 -0.000985 0.008867 0.999960
14590.00000000 11990.00000000 -1190.00000000 144 238 64 97.000000 1.000000 4.000000 1.000000 -60.708740 114.000000 228.000000 0.182242 -0.195353 0.963652
14590.00000000 12000.00000000 -1190.00000000 144 238 64 97.000000 1.000000 4.000000 1.000000 -60.708740 114.000000 228.000000 -0.143213 -0.360119 0.921848
14630.00000000 12000.00000000 -1190.00000000 144 238 64 97.000000 1.000000 4.000000 1.000000 -60.708740 114.000000 228.000000 0.038957 -0.190061 0.980999
14490.00000000 12010.00000000 -1140.00000000 144 238 64 97.000000 1.000000 4.000000 1.000000 -60.708740 114.000000 228.000000 -0.387820 -0.170297 0.905867
14490.00000000 12050.00000000 -1190.00000000 144 238 64 97.000000 1.000000 4.000000 1.000000 -60.708740 114.000000 228.000000 -0.483881 -0.267449 0.833265
14530.00000000 12070.00000000 -1140.00000000 144 238 64 97.000000 1.000000 4.000000 1.000000 -60.708740 114.000000 228.000000 -0.015291 -0.210549 0.977464
14490.00000000 12040.00000000 -1190.00000000 144 238 64 97.000000 1.000000 4.000000 1.000000 -60.708740 114.000000 228.000000 -0.603838 -0.313996 0.732657
14500.00000000 12050.00000000 -1180.00000000 144 238 64 97.000000 1.000000 4.000000 1.000000 -60.708740 114.000000 228.000000 -0.670674 -0.155936 0.725176
14500.00000000 11940.00000000 -1160.00000000 144 238 64 97.000000 1.000000 4.000000 1.000000 -60.708740 114.000000 228.000000 0.765701 0.082818 -0.637842
14610.00000000 12060.00000000 -1200.00000000 144 238 64 97.000000 1.000000 4.000000 1.000000 -60.708740 114.000000 228.000000 0.043149 -0.094042 0.994633
14640.00000000 11940.00000000 -1200.00000000 144 238 64 97.000000 1.000000 4.000000 1.000000 -60.708740 114.000000 228.000000 0.273758 -0.212614 0.938004
14620.00000000 11930.00000000 -1200.00000000 144 238 64 97.000000 1.000000 4.000000 1.000000 -60.708740 114.000000 228.000000 0.566109 -0.087869 0.819634
