//X Y Z R G B PointSourceId ScanDirectionFlag NumberOfReturns ReturnNumber GpsTime Intensity Classification Nx Ny Nz
3100.00000000 -21690.00000000 540.00000000 243 152 58 0.000000 0.000000 0.000000 0.000000 -60.708740 0.000000 157.000000 -0.190540 0.970602 -0.147061
3070.00000000 -21720.00000000 550.00000000 243 152 58 0.000000 0.000000 0.000000 0.000000 -60.708740 0.000000 157.000000 0.110871 0.985920 -0.125177
3080.00000000 -21720.00000000 500.00000000 243 152 58 0.000000 0.000000 0.000000 0.000000 -60.708740 0.000000 157.000000 0.370538 0.878704 -0.300967
3090.00000000 -21710.00000000 490.00000000 243 152 58 0.000000 0.000000 0.000000 0.000000 -60.708740 0.000000 157.000000 0.264485 0.917750 -0.296281
3090.00000000 -21720.00000000 500.00000000 243 152 58 0.000000 0.000000 0.000000 0.000000 -60.708740 0.000000 157.000000 0.180927 0.979921 0.083785
3080.00000000 -21730.00000000 550.00000000 243 152 58 0.000000 0.000000 0.000000 0.000000 -60.708740 0.000000 157.000000 0.397375 0.880224 -0.259419
3070.00000000 -21740.00000000 510.00000000 243 152 58 0.000000 0.000000 0.000000 0.000000 -60.708740 0.000000 157.000000 0.230446 0.881641 -0.411829
3050.00000000 -21720.00000000 560.00000000 243 152 58 0.000000 0.000000 0.000000 0.000000 -60.708740 0.000000 157.000000 -0.354470 0.934512 -0.032225
3060.00000000 -21710.00000000 560.00000000 243 152 58 0.000000 0.000000 0.000000 0.000000 -60.708740 0.000000 157.000000 0.224303 0.973595 -0.042436
3060.00000000 -21700.00000000 510.00000000 243 152 58 0.000000 0.000000 0.000000 0.000000 -60.708740 0.000000 157.000000 0.271206 0.922675 -0.274076
3050.00000000 -21700.00000000 500.00000000 243 152 58 0.000000 0.000000 0.000000 0.000000 -60.708740 0.000000 157.000000 -0.007573 0.994219 0.107103
3050.00000000 -21700.00000000 500.00000000 243 152 58 0.000000 0.000000 0.000000 0.000000 -60.708740 0.000000 157.000000 -0.007573 0.994219 0.107103
3170.00000000 -21720.00000000 460.00000000 243 152 58 0.000000 0.000000 0.000000 0.000000 -60.708740 0.000000 157.000000 0.230229 0.930803 -0.283902
3190.00000000 -21750.00000000 440.00000000 243 152 58 0.000000 0.000000 0.000000 0.000000 -60.708740 0.000000 157.000000 0.421413 0.904198 -0.069554
3170.00000000 -21760.00000000 430.00000000 243 152 58 0.000000 0.000000 0.000000 0.000000 -60.708740 0.000000 157.000000 0.069694 0.961772 -0.264836
3120.00000000 -21720.00000000 470.00000000 243 152 58 0.000000 0.000000 0.000000 0.000000 -60.708740 0.000000 157.000000 -0.078558 0.933381 -0.350184
3120.00000000 -21710.00000000 480.00000000 243 152 58 0.000000 0.000000 0.000000 0.000000 -60.708740 0.000000 157.000000 -0.162222 0.915496 -0.368173
3120.00000000 -21720.00000000 480.00000000 243 152 58 0.000000 0.000000 0.000000 0.000000 -60.708740 0.000000 157.000000 -0.232207 0.888895 -0.394900
3120.00000000 -21720.00000000 470.00000000 243 152 58 0.000000 0.000000 0.000000 0.000000 -60.708740 0.000000 157.000000 -0.078558 0.933381 -0.350184
3140.00000000 -21760.00000000 450.00000000 243 152 58 0.000000 0.000000 0.000000 0.000000 -60.708740 0.000000 157.000000 0.496858 0.778465 -0.383568
3130.00000000 -21740.00000000 480.00000000 243 152 58 0.000000 0.000000 0.000000 0.000000 -60.708740 0.000000 157.000000 0.236647 0.971560 -0.008324
3140.00000000 -21740.00000000 450.00000000 243 152 58 0.000000 0.000000 0.000000 0.000000 -60.708740 0.000000 157.000000 -0.180397 0.940544 -0.287809
3110.00000000 -21750.00000000 420.00000000 243 152 58 0.000000 0.000000 0.000000 0.000000 -60.708740 0.000000 157.000000 0.317024 0.868371 -0.381348
3130.00000000 -21750.00000000 420.00000000 243 152 58 0.000000 0.000000 0.000000 0.000000 -60.708740 0.000000 157.000000 0.195765 0.957517 -0.211746
3110.00000000 -21750.00000000 420.00000000 243 152 58 0.000000 0.000000 0.000000 0.000000 -60.708740 0.000000 157.000000 0.317024 0.868371 -0.381348
3120.00000000 -21740.00000000 430.00000000 243 152 58 0.000000 0.000000 0.000000 0.000000 -60.708740 0.000000 157.000000 -0.149340 0.903153 -0.402508
3150.00000000 -21740.00000000 440.00000000 243 152 58 0.000000 0.000000 0.000000 0.000000 -60.708740 0.000000 157.000000 0.572538 0.803957 -0.160791
3140.00000000 -21730.00000000 430.00000000 243 152 58 0.000000 0.000000 0.000000 0.000000 -60.708740 0.000000 157.000000 0.088420 0.996055 0.007457
3160.00000000 -21750.00000000 330.00000000 243 152 58 0.000000 0.000000 0.000000 0.000000 -60.708740 0.000000 157.000000 0.531820 0.776039 -0.339015
3150.00000000 -21740.00000000 380.00000000 243 152 58 0.000000 0.000000 0.000000 0.000000 -60.708740 0.000000 157.000000 0.070255 0.956751 -0.282299
3130.00000000 -21740.00000000 390.00000000 243 152 58 0.000000 0.000000 0.000000 0.000000 -60.708740 0.000000 157.000000 0.118931 0.992573 -0.025565
3120.00000000 -21740.00000000 380.00000000 243 152 58 0.000000 0.000000 0.000000 0.000000 -60.708740 0.000000 157.000000 -0.015013 0.999847 -0.009008
3120.00000000 -21740.00000000 380.00000000 243 152 58 0.000000 0.000000 0.000000 0.000000 -60.708740 0.000000 157.000000 -0.015013 0.999847 -0.009008
3130.00000000 -21740.00000000 380.00000000 243 152 58 0.000000 0.000000 0.000000 0.000000 -60.708740 0.000000 157.000000 0.167314 0.980679 -0.101365
3130.00000000 -21740.00000000 380.00000000 243 152 58 0.000000 0.000000 0.000000 0.000000 -60.708740 0.000000 157.000000 0.167314 0.980679 -0.101365
3130.00000000 -21740.00000000 360.00000000 243 152 58 0.000000 0.000000 0.000000 0.000000 -60.708740 0.000000 157.000000 0.032786 0.919328 -0.392124
3130.00000000 -21740.00000000 360.00000000 243 152 58 0.000000 0.000000 0.000000 0.000000 -60.708740 0.000000 157.000000 0.032786 0.919328 -0.392124
3140.00000000 -21750.00000000 350.00000000 243 152 58 0.000000 0.000000 0.000000 0.000000 -60.708740 0.000000 157.000000 0.323504 0.941223 -0.097184
3150.00000000 -21750.00000000 330.00000000 243 152 58 0.000000 0.000000 0.000000 0.000000 -60.708740 0.000000 157.000000 0.260547 0.937691 -0.229894
3140.00000000 -21760.00000000 330.00000000 243 152 58 0.000000 0.000000 0.000000 0.000000 -60.708740 0.000000 157.000000 0.173396 0.984846 0.003400
3140.00000000 -21750.00000000 330.00000000 243 152 58 0.000000 0.000000 0.000000 0.000000 -60.708740 0.000000 157.000000 0.190897 0.978804 -0.074170
3140.00000000 -21750.00000000 350.00000000 243 152 58 0.000000 0.000000 0.000000 0.000000 -60.708740 0.000000 157.000000 0.323504 0.941223 -0.097184
3150.00000000 -21750.00000000 340.00000000 243 152 58 0.000000 0.000000 0.000000 0.000000 -60.708740 0.000000 157.000000 0.300681 0.951080 -0.070976
3140.00000000 -21740.00000000 350.00000000 243 152 58 0.000000 0.000000 0.000000 0.000000 -60.708740 0.000000 157.000000 0.466397 0.820542 -0.330430
3100.00000000 -21720.00000000 450.00000000 243 152 58 0.000000 0.000000 0.000000 0.000000 -60.708740 0.000000 157.000000 -0.070885 0.993516 0.088888
3070.00000000 -21720.00000000 430.00000000 243 152 58 0.000000 0.000000 0.000000 0.000000 -60.708740 0.000000 157.000000 -0.301484 0.889453 -0.343482
3070.00000000 -21720.00000000 420.00000000 243 152 58 0.000000 0.000000 0.000000 0.000000 -60.708740 0.000000 157.000000 0.104597 0.993109 0.052861
3100.00000000 -21730.00000000 440.00000000 243 152 58 0.000000 0.000000 0.000000 0.000000 -60.708740 0.000000 157.000000 0.279444 0.952229 -0.123167
3100.00000000 -21730.00000000 440.00000000 243 152 58 0.000000 0.000000 0.000000 0.000000 -60.708740 0.000000 157.000000 0.279444 0.952229 -0.123167
3030.00000000 -21720.00000000 470.00000000 243 152 58 0.000000 0.000000 0.000000 0.000000 -60.708740 0.000000 157.000000 -0.469172 0.858899 -0.205356
3040.00000000 -21720.00000000 480.00000000 243 152 58 0.000000 0.000000 0.000000 0.000000 -60.708740 0.000000 157.000000 0.245755 0.933868 -0.259798
3050.00000000 -21720.00000000 440.00000000 243 152 58 0.000000 0.000000 0.000000 0.000000 -60.708740 0.000000 157.000000 0.213567 0.943828 -0.252147
3050.00000000 -21720.00000000 440.00000000 243 152 58 0.000000 0.000000 0.000000 0.000000 -60.708740 0.000000 157.000000 0.213567 0.943828 -0.252147
3050.00000000 -21720.00000000 430.00000000 243 152 58 0.000000 0.000000 0.000000 0.000000 -60.708740 0.000000 157.000000 0.029323 0.995881 0.085796
3090.00000000 -21740.00000000 380.00000000 243 152 58 0.000000 0.000000 0.000000 0.000000 -60.708740 0.000000 157.000000 -0.119938 0.896004 -0.427542
3070.00000000 -21740.00000000 350.00000000 243 152 58 0.000000 0.000000 0.000000 0.000000 -60.708740 0.000000 157.000000 -0.207899 0.936243 -0.283245
3060.00000000 -21730.00000000 390.00000000 243 152 58 0.000000 0.000000 0.000000 0.000000 -60.708740 0.000000 157.000000 0.052808 0.897735 -0.437358
3180.00000000 -21780.00000000 630.00000000 243 152 58 0.000000 0.000000 0.000000 0.000000 -60.708740 0.000000 157.000000 0.562353 0.801391 -0.203795
3170.00000000 -21780.00000000 650.00000000 243 152 58 0.000000 0.000000 0.000000 0.000000 -60.708740 0.000000 157.000000 0.124271 0.828959 -0.545329
3160.00000000 -21770.00000000 630.00000000 243 152 58 0.000000 0.000000 0.000000 0.000000 -60.708740 0.000000 157.000000 0.300726 0.924983 -0.232315
3180.00000000 -21770.00000000 630.00000000 243 152 58 0.000000 0.000000 0.000000 0.000000 -60.708740 0.000000 157.000000 0.594852 0.678165 -0.431559
3170.00000000 -21780.00000000 650.00000000 243 152 58 0.000000 0.000000 0.000000 0.000000 -60.708740 0.000000 157.000000 0.124271 0.828959 -0.545329
3170.00000000 -21790.00000000 640.00000000 243 152 58 0.000000 0.000000 0.000000 0.000000 -60.708740 0.000000 157.000000 0.717161 0.687465 -0.114330
3180.00000000 -21770.00000000 570.00000000 243 152 58 0.000000 0.000000 0.000000 0.000000 -60.708740 0.000000 157.000000 0.364697 0.930561 -0.032446
3190.00000000 -21800.00000000 570.00000000 243 152 58 0.000000 0.000000 0.000000 0.000000 -60.708740 0.000000 157.000000 0.576003 0.814938 0.064000
3170.00000000 -21770.00000000 590.00000000 243 152 58 0.000000 0.000000 0.000000 0.000000 -60.708740 0.000000 157.000000 0.557138 0.826397 0.081637
3160.00000000 -21780.00000000 570.00000000 243 152 58 0.000000 0.000000 0.000000 0.000000 -60.708740 0.000000 157.000000 0.049990 0.947241 -0.316601
3160.00000000 -21770.00000000 580.00000000 243 152 58 0.000000 0.000000 0.000000 0.000000 -60.708740 0.000000 157.000000 0.604044 0.792355 -0.085464
3160.00000000 -21780.00000000 600.00000000 243 152 58 0.000000 0.000000 0.000000 0.000000 -60.708740 0.000000 157.000000 0.512122 0.858113 0.037070
3190.00000000 -21770.00000000 570.00000000 243 152 58 0.000000 0.000000 0.000000 0.000000 -60.708740 0.000000 157.000000 0.339015 0.924202 -0.175838
3190.00000000 -21790.00000000 580.00000000 243 152 58 0.000000 0.000000 0.000000 0.000000 -60.708740 0.000000 157.000000 0.716395 0.633056 -0.293289
3150.00000000 -21770.00000000 630.00000000 243 152 58 0.000000 0.000000 0.000000 0.000000 -60.708740 0.000000 157.000000 0.497872 0.866867 0.025775
3140.00000000 -21780.00000000 580.00000000 243 152 58 0.000000 0.000000 0.000000 0.000000 -60.708740 0.000000 157.000000 0.185074 0.981954 -0.038901
3180.00000000 -21770.00000000 560.00000000 243 152 58 0.000000 0.000000 0.000000 0.000000 -60.708740 0.000000 157.000000 0.621876 0.778432 0.085526
3190.00000000 -21800.00000000 530.00000000 243 152 58 0.000000 0.000000 0.000000 0.000000 -60.708740 0.000000 157.000000 0.719447 0.643215 -0.262050
3190.00000000 -21790.00000000 550.00000000 243 152 58 0.000000 0.000000 0.000000 0.000000 -60.708740 0.000000 157.000000 0.581409 0.812284 0.046456
3170.00000000 -21790.00000000 540.00000000 243 152 58 0.000000 0.000000 0.000000 0.000000 -60.708740 0.000000 157.000000 0.094825 0.993992 -0.054664
3180.00000000 -21780.00000000 510.00000000 243 152 58 0.000000 0.000000 0.000000 0.000000 -60.708740 0.000000 157.000000 0.471316 0.860857 -0.191797
3180.00000000 -21780.00000000 490.00000000 243 152 58 0.000000 0.000000 0.000000 0.000000 -60.708740 0.000000 157.000000 0.299022 0.945340 -0.130068
3180.00000000 -21790.00000000 500.00000000 243 152 58 0.000000 0.000000 0.000000 0.000000 -60.708740 0.000000 157.000000 0.511431 0.850454 -0.123149
3190.00000000 -21800.00000000 510.00000000 243 152 58 0.000000 0.000000 0.000000 0.000000 -60.708740 0.000000 157.000000 0.744746 0.608182 -0.274714
3100.00000000 -21770.00000000 510.00000000 243 152 58 0.000000 0.000000 0.000000 0.000000 -60.708740 0.000000 157.000000 0.096126 0.927409 -0.361486
3180.00000000 -21790.00000000 480.00000000 243 152 58 0.000000 0.000000 0.000000 0.000000 -60.708740 0.000000 157.000000 0.428099 0.896903 -0.110885
3160.00000000 -21770.00000000 420.00000000 243 152 58 0.000000 0.000000 0.000000 0.000000 -60.708740 0.000000 157.000000 0.359478 0.890490 -0.278931
3190.00000000 -21790.00000000 440.00000000 243 152 58 0.000000 0.000000 0.000000 0.000000 -60.708740 0.000000 157.000000 0.661273 0.680675 -0.315277
3190.00000000 -21830.00000000 440.00000000 243 152 58 0.000000 0.000000 0.000000 0.000000 -60.708740 0.000000 157.000000 0.349902 0.836312 -0.422079
3150.00000000 -21790.00000000 460.00000000 243 152 58 0.000000 0.000000 0.000000 0.000000 -60.708740 0.000000 157.000000 0.164020 0.961811 -0.219130
3180.00000000 -21780.00000000 360.00000000 243 152 58 0.000000 0.000000 0.000000 0.000000 -60.708740 0.000000 157.000000 0.448608 0.893198 -0.030800
3160.00000000 -21780.00000000 400.00000000 243 152 58 0.000000 0.000000 0.000000 0.000000 -60.708740 0.000000 157.000000 0.331179 0.943547 0.006249
3180.00000000 -21770.00000000 360.00000000 243 152 58 0.000000 0.000000 0.000000 0.000000 -60.708740 0.000000 157.000000 0.249484 0.960055 -0.126701
3190.00000000 -21780.00000000 330.00000000 243 152 58 0.000000 0.000000 0.000000 0.000000 -60.708740 0.000000 157.000000 0.399028 0.914943 0.060459
3180.00000000 -21780.00000000 330.00000000 243 152 58 0.000000 0.000000 0.000000 0.000000 -60.708740 0.000000 157.000000 0.521154 0.851912 0.051420
3190.00000000 -21770.00000000 340.00000000 243 152 58 0.000000 0.000000 0.000000 0.000000 -60.708740 0.000000 157.000000 0.156035 0.987462 -0.023918
3180.00000000 -21770.00000000 340.00000000 243 152 58 0.000000 0.000000 0.000000 0.000000 -60.708740 0.000000 157.000000 0.372926 0.927860 -0.001273
3180.00000000 -21810.00000000 360.00000000 243 152 58 0.000000 0.000000 0.000000 0.000000 -60.708740 0.000000 157.000000 0.623583 0.765513 -0.158538
3190.00000000 -21820.00000000 330.00000000 243 152 58 0.000000 0.000000 0.000000 0.000000 -60.708740 0.000000 157.000000 0.478486 0.874184 0.082788
3190.00000000 -21820.00000000 330.00000000 243 152 58 0.000000 0.000000 0.000000 0.000000 -60.708740 0.000000 157.000000 0.478486 0.874184 0.082788
3280.00000000 -21900.00000000 300.00000000 243 152 58 0.000000 0.000000 0.000000 0.000000 -60.708740 0.000000 157.000000 0.881289 0.458384 -0.114951
3210.00000000 -21780.00000000 280.00000000 243 152 58 0.000000 0.000000 0.000000 0.000000 -60.708740 0.000000 157.000000 0.186934 0.981696 -0.036446
3210.00000000 -21790.00000000 260.00000000 243 152 58 0.000000 0.000000 0.000000 0.000000 -60.708740 0.000000 157.000000 0.633593 0.747671 -0.198865
3200.00000000 -21790.00000000 270.00000000 243 152 58 0.000000 0.000000 0.000000 0.000000 -60.708740 0.000000 157.000000 0.362715 0.859712 -0.359628
3220.00000000 -21830.00000000 290.00000000 243 152 58 0.000000 0.000000 0.000000 0.000000 -60.708740 0.000000 157.000000 0.515013 0.848683 0.120411
3200.00000000 -21810.00000000 290.00000000 243 152 58 0.000000 0.000000 0.000000 0.000000 -60.708740 0.000000 157.000000 0.657856 0.708583 -0.255217
3220.00000000 -21810.00000000 290.00000000 243 152 58 0.000000 0.000000 0.000000 0.000000 -60.708740 0.000000 157.000000 0.258034 0.966129 0.003600
3210.00000000 -21830.00000000 290.00000000 243 152 58 0.000000 0.000000 0.000000 0.000000 -60.708740 0.000000 157.000000 0.640214 0.752213 -0.155891
3230.00000000 -21810.00000000 280.00000000 243 152 58 0.000000 0.000000 0.000000 0.000000 -60.708740 0.000000 157.000000 0.411986 0.894805 -0.172022
3220.00000000 -21810.00000000 280.00000000 243 152 58 0.000000 0.000000 0.000000 0.000000 -60.708740 0.000000 157.000000 0.654859 0.754296 0.046877
3220.00000000 -21840.00000000 240.00000000 243 152 58 0.000000 0.000000 0.000000 0.000000 -60.708740 0.000000 157.000000 0.737275 0.644536 -0.202480
3210.00000000 -21800.00000000 220.00000000 243 152 58 0.000000 0.000000 0.000000 0.000000 -60.708740 0.000000 157.000000 0.489430 0.772356 -0.404877
3220.00000000 -21820.00000000 150.00000000 243 152 58 0.000000 0.000000 0.000000 0.000000 -60.708740 0.000000 157.000000 0.555647 0.828497 -0.069634
3240.00000000 -21860.00000000 280.00000000 243 152 58 0.000000 0.000000 0.000000 0.000000 -60.708740 0.000000 157.000000 0.643614 0.725443 -0.243912
3250.00000000 -21870.00000000 310.00000000 243 152 58 0.000000 0.000000 0.000000 0.000000 -60.708740 0.000000 157.000000 0.816432 0.576387 0.034890
3240.00000000 -21860.00000000 280.00000000 243 152 58 0.000000 0.000000 0.000000 0.000000 -60.708740 0.000000 157.000000 0.643614 0.725443 -0.243912
3250.00000000 -21870.00000000 250.00000000 243 152 58 0.000000 0.000000 0.000000 0.000000 -60.708740 0.000000 157.000000 0.706905 0.706905 -0.023891
3240.00000000 -21870.00000000 270.00000000 243 152 58 0.000000 0.000000 0.000000 0.000000 -60.708740 0.000000 157.000000 0.361662 0.879187 -0.310212
3250.00000000 -21900.00000000 280.00000000 243 152 58 0.000000 0.000000 0.000000 0.000000 -60.708740 0.000000 157.000000 0.798355 0.596968 -0.079116
3260.00000000 -21930.00000000 300.00000000 243 152 58 0.000000 0.000000 0.000000 0.000000 -60.708740 0.000000 157.000000 0.843207 0.523920 -0.120458
3270.00000000 -21900.00000000 290.00000000 243 152 58 0.000000 0.000000 0.000000 0.000000 -60.708740 0.000000 157.000000 0.624887 0.774158 0.100977
3260.00000000 -21860.00000000 210.00000000 243 152 58 0.000000 0.000000 0.000000 0.000000 -60.708740 0.000000 157.000000 0.738435 0.673238 -0.038268
3260.00000000 -21860.00000000 210.00000000 243 152 58 0.000000 0.000000 0.000000 0.000000 -60.708740 0.000000 157.000000 0.738435 0.673238 -0.038268
3250.00000000 -21880.00000000 200.00000000 243 152 58 0.000000 0.000000 0.000000 0.000000 -60.708740 0.000000 157.000000 0.697301 0.709095 -0.104669
3230.00000000 -21850.00000000 230.00000000 243 152 58 0.000000 0.000000 0.000000 0.000000 -60.708740 0.000000 157.000000 0.634695 0.768315 0.082786
3310.00000000 -21910.00000000 110.00000000 243 152 58 0.000000 0.000000 0.000000 0.000000 -60.708740 0.000000 157.000000 0.617249 0.680133 -0.395503
3280.00000000 -21930.00000000 130.00000000 243 152 58 0.000000 0.000000 0.000000 0.000000 -60.708740 0.000000 157.000000 0.529877 0.848073 0.001348
3310.00000000 -21930.00000000 90.00000000 243 152 58 0.000000 0.000000 0.000000 0.000000 -60.708740 0.000000 157.000000 0.681088 0.604860 -0.412630
3280.00000000 -21930.00000000 80.00000000 243 152 58 0.000000 0.000000 0.000000 0.000000 -60.708740 0.000000 157.000000 0.773610 0.629010 0.076638
3280.00000000 -21930.00000000 80.00000000 243 152 58 0.000000 0.000000 0.000000 0.000000 -60.708740 0.000000 157.000000 0.773610 0.629010 0.076638
3290.00000000 -21920.00000000 60.00000000 243 152 58 0.000000 0.000000 0.000000 0.000000 -60.708740 0.000000 157.000000 0.679312 0.723905 -0.120403
3300.00000000 -21910.00000000 -10.00000000 243 152 58 0.000000 0.000000 0.000000 0.000000 -60.708740 0.000000 157.000000 0.461229 0.885505 0.056114
3210.00000000 -21830.00000000 110.00000000 243 152 58 0.000000 0.000000 0.000000 0.000000 -60.708740 0.000000 157.000000 0.567735 0.706773 -0.422077
3260.00000000 -21930.00000000 110.00000000 243 152 58 0.000000 0.000000 0.000000 0.000000 -60.708740 0.000000 157.000000 0.729735 0.582808 -0.357521
3270.00000000 -21930.00000000 70.00000000 243 152 58 0.000000 0.000000 0.000000 0.000000 -60.708740 0.000000 157.000000 0.479969 0.831015 -0.281147
3260.00000000 -21930.00000000 30.00000000 243 152 58 0.000000 0.000000 0.000000 0.000000 -60.708740 0.000000 157.000000 0.588363 0.793010 -0.158000
3190.00000000 -21780.00000000 290.00000000 243 152 58 0.000000 0.000000 0.000000 0.000000 -60.708740 0.000000 157.000000 0.209512 0.892257 -0.399977
3180.00000000 -21820.00000000 300.00000000 243 152 58 0.000000 0.000000 0.000000 0.000000 -60.708740 0.000000 157.000000 -0.142594 0.952846 -0.267863
3280.00000000 -21980.00000000 770.00000000 243 152 58 0.000000 0.000000 0.000000 0.000000 -60.708740 0.000000 157.000000 0.982896 0.058237 -0.174711
3280.00000000 -21940.00000000 690.00000000 243 152 58 0.000000 0.000000 0.000000 0.000000 -60.708740 0.000000 157.000000 0.923776 0.381758 0.029967
3240.00000000 -21940.00000000 740.00000000 243 152 58 0.000000 0.000000 0.000000 0.000000 -60.708740 0.000000 157.000000 0.915795 0.401391 0.014289
3240.00000000 -21960.00000000 740.00000000 243 152 58 0.000000 0.000000 0.000000 0.000000 -60.708740 0.000000 157.000000 0.983591 -0.050652 0.173159
3250.00000000 -21950.00000000 740.00000000 243 152 58 0.000000 0.000000 0.000000 0.000000 -60.708740 0.000000 157.000000 0.922513 -0.322666 0.211794
3240.00000000 -21960.00000000 750.00000000 243 152 58 0.000000 0.000000 0.000000 0.000000 -60.708740 0.000000 157.000000 0.998002 0.019981 0.059943
3240.00000000 -22010.00000000 760.00000000 243 152 58 0.000000 0.000000 0.000000 0.000000 -60.708740 0.000000 157.000000 0.968862 -0.129267 -0.211179
3240.00000000 -22010.00000000 760.00000000 243 152 58 0.000000 0.000000 0.000000 0.000000 -60.708740 0.000000 157.000000 0.968862 -0.129267 -0.211179
3250.00000000 -22010.00000000 750.00000000 243 152 58 0.000000 0.000000 0.000000 0.000000 -60.708740 0.000000 157.000000 0.982619 -0.177038 -0.055844
3240.00000000 -22010.00000000 740.00000000 243 152 58 0.000000 0.000000 0.000000 0.000000 -60.708740 0.000000 157.000000 0.952780 0.001229 0.303660
3250.00000000 -21990.00000000 750.00000000 243 152 58 0.000000 0.000000 0.000000 0.000000 -60.708740 0.000000 157.000000 0.927712 -0.306413 -0.213218
3250.00000000 -21980.00000000 760.00000000 243 152 58 0.000000 0.000000 0.000000 0.000000 -60.708740 0.000000 157.000000 0.982616 0.178550 0.050845
3240.00000000 -22010.00000000 740.00000000 243 152 58 0.000000 0.000000 0.000000 0.000000 -60.708740 0.000000 157.000000 0.952780 0.001229 0.303660
3250.00000000 -21980.00000000 760.00000000 243 152 58 0.000000 0.000000 0.000000 0.000000 -60.708740 0.000000 157.000000 0.982616 0.178550 0.050845
3250.00000000 -21990.00000000 750.00000000 243 152 58 0.000000 0.000000 0.000000 0.000000 -60.708740 0.000000 157.000000 0.927712 -0.306413 -0.213218
3260.00000000 -21950.00000000 700.00000000 243 152 58 0.000000 0.000000 0.000000 0.000000 -60.708740 0.000000 157.000000 0.993672 0.088902 -0.068646
3260.00000000 -21950.00000000 730.00000000 243 152 58 0.000000 0.000000 0.000000 0.000000 -60.708740 0.000000 157.000000 0.973394 -0.140503 -0.181008
3250.00000000 -21970.00000000 710.00000000 243 152 58 0.000000 0.000000 0.000000 0.000000 -60.708740 0.000000 157.000000 0.944191 0.088230 0.317364
3250.00000000 -21950.00000000 730.00000000 243 152 58 0.000000 0.000000 0.000000 0.000000 -60.708740 0.000000 157.000000 0.990411 -0.077430 -0.114412
3250.00000000 -21950.00000000 730.00000000 243 152 58 0.000000 0.000000 0.000000 0.000000 -60.708740 0.000000 157.000000 0.990411 -0.077430 -0.114412
3270.00000000 -21960.00000000 700.00000000 243 152 58 0.000000 0.000000 0.000000 0.000000 -60.708740 0.000000 157.000000 0.991397 -0.104297 0.079083
3250.00000000 -21960.00000000 720.00000000 243 152 58 0.000000 0.000000 0.000000 0.000000 -60.708740 0.000000 157.000000 0.930924 0.014085 0.364942
3250.00000000 -21950.00000000 720.00000000 243 152 58 0.000000 0.000000 0.000000 0.000000 -60.708740 0.000000 157.000000 0.936472 0.184520 0.298284
3260.00000000 -21950.00000000 660.00000000 243 152 58 0.000000 0.000000 0.000000 0.000000 -60.708740 0.000000 157.000000 0.985150 0.128393 0.113994
3260.00000000 -21960.00000000 680.00000000 243 152 58 0.000000 0.000000 0.000000 0.000000 -60.708740 0.000000 157.000000 0.983409 0.131847 0.124589
3270.00000000 -21940.00000000 660.00000000 243 152 58 0.000000 0.000000 0.000000 0.000000 -60.708740 0.000000 157.000000 0.968509 0.248977 0.001191
3270.00000000 -21970.00000000 660.00000000 243 152 58 0.000000 0.000000 0.000000 0.000000 -60.708740 0.000000 157.000000 0.976463 0.198248 0.084963
3270.00000000 -21960.00000000 660.00000000 243 152 58 0.000000 0.000000 0.000000 0.000000 -60.708740 0.000000 157.000000 0.965588 0.167646 0.198836
3260.00000000 -21970.00000000 670.00000000 243 152 58 0.000000 0.000000 0.000000 0.000000 -60.708740 0.000000 157.000000 0.979251 -0.031971 0.200113
3260.00000000 -21970.00000000 690.00000000 243 152 58 0.000000 0.000000 0.000000 0.000000 -60.708740 0.000000 157.000000 0.998861 0.028122 0.038538
3270.00000000 -21940.00000000 690.00000000 243 152 58 0.000000 0.000000 0.000000 0.000000 -60.708740 0.000000 157.000000 0.967647 0.250148 -0.032946
3270.00000000 -21970.00000000 670.00000000 243 152 58 0.000000 0.000000 0.000000 0.000000 -60.708740 0.000000 157.000000 0.911802 0.386357 0.139088
3260.00000000 -21950.00000000 670.00000000 243 152 58 0.000000 0.000000 0.000000 0.000000 -60.708740 0.000000 157.000000 0.983646 0.087675 0.157335
3260.00000000 -21990.00000000 700.00000000 243 152 58 0.000000 0.000000 0.000000 0.000000 -60.708740 0.000000 157.000000 0.989969 -0.056209 -0.129625
3260.00000000 -21990.00000000 700.00000000 243 152 58 0.000000 0.000000 0.000000 0.000000 -60.708740 0.000000 157.000000 0.989969 -0.056209 -0.129625
3250.00000000 -21990.00000000 730.00000000 243 152 58 0.000000 0.000000 0.000000 0.000000 -60.708740 0.000000 157.000000 0.886710 -0.064613 0.457790
3250.00000000 -21980.00000000 720.00000000 243 152 58 0.000000 0.000000 0.000000 0.000000 -60.708740 0.000000 157.000000 0.930596 0.098597 0.352519
3260.00000000 -22000.00000000 730.00000000 243 152 58 0.000000 0.000000 0.000000 0.000000 -60.708740 0.000000 157.000000 0.946800 -0.085120 0.310362
3260.00000000 -22000.00000000 720.00000000 243 152 58 0.000000 0.000000 0.000000 0.000000 -60.708740 0.000000 157.000000 0.975001 -0.100862 0.197989
3260.00000000 -22010.00000000 720.00000000 243 152 58 0.000000 0.000000 0.000000 0.000000 -60.708740 0.000000 157.000000 0.886805 -0.393640 0.242126
3250.00000000 -22010.00000000 730.00000000 243 152 58 0.000000 0.000000 0.000000 0.000000 -60.708740 0.000000 157.000000 0.898355 -0.161905 0.408343
3260.00000000 -21990.00000000 700.00000000 243 152 58 0.000000 0.000000 0.000000 0.000000 -60.708740 0.000000 157.000000 0.989969 -0.056209 -0.129625
3270.00000000 -22010.00000000 680.00000000 243 152 58 0.000000 0.000000 0.000000 0.000000 -60.708740 0.000000 157.000000 0.989441 -0.030601 0.141672
3260.00000000 -22010.00000000 670.00000000 243 152 58 0.000000 0.000000 0.000000 0.000000 -60.708740 0.000000 157.000000 0.984778 0.072463 0.157992
3270.00000000 -22000.00000000 680.00000000 243 152 58 0.000000 0.000000 0.000000 0.000000 -60.708740 0.000000 157.000000 0.972083 0.234394 -0.010708
3260.00000000 -21990.00000000 660.00000000 243 152 58 0.000000 0.000000 0.000000 0.000000 -60.708740 0.000000 157.000000 0.984850 0.072293 0.157623
3260.00000000 -21980.00000000 670.00000000 243 152 58 0.000000 0.000000 0.000000 0.000000 -60.708740 0.000000 157.000000 0.984394 -0.057767 0.166227
3260.00000000 -22010.00000000 690.00000000 243 152 58 0.000000 0.000000 0.000000 0.000000 -60.708740 0.000000 157.000000 0.986024 -0.166413 0.007924
3250.00000000 -21980.00000000 670.00000000 243 152 58 0.000000 0.000000 0.000000 0.000000 -60.708740 0.000000 157.000000 0.988727 -0.113768 0.097348
3250.00000000 -22000.00000000 690.00000000 243 152 58 0.000000 0.000000 0.000000 0.000000 -60.708740 0.000000 157.000000 0.943519 -0.329786 0.031833
3270.00000000 -22010.00000000 690.00000000 243 152 58 0.000000 0.000000 0.000000 0.000000 -60.708740 0.000000 157.000000 0.980086 -0.167630 0.106451
3270.00000000 -22010.00000000 670.00000000 243 152 58 0.000000 0.000000 0.000000 0.000000 -60.708740 0.000000 157.000000 0.988956 -0.044796 0.141279
3270.00000000 -21990.00000000 660.00000000 243 152 58 0.000000 0.000000 0.000000 0.000000 -60.708740 0.000000 157.000000 0.997016 -0.077018 -0.005275
3260.00000000 -22010.00000000 680.00000000 243 152 58 0.000000 0.000000 0.000000 0.000000 -60.708740 0.000000 157.000000 0.858906 0.004032 0.512118
3260.00000000 -22010.00000000 660.00000000 243 152 58 0.000000 0.000000 0.000000 0.000000 -60.708740 0.000000 157.000000 0.997273 -0.059169 -0.044108
3270.00000000 -21990.00000000 670.00000000 243 152 58 0.000000 0.000000 0.000000 0.000000 -60.708740 0.000000 157.000000 0.981099 -0.019832 0.192487
3260.00000000 -21990.00000000 690.00000000 243 152 58 0.000000 0.000000 0.000000 0.000000 -60.708740 0.000000 157.000000 0.980461 -0.143932 -0.134091
3270.00000000 -22010.00000000 670.00000000 243 152 58 0.000000 0.000000 0.000000 0.000000 -60.708740 0.000000 157.000000 0.988956 -0.044796 0.141279
3250.00000000 -22030.00000000 770.00000000 243 152 58 0.000000 0.000000 0.000000 0.000000 -60.708740 0.000000 157.000000 0.992858 -0.048350 0.109068
3270.00000000 -22040.00000000 770.00000000 243 152 58 0.000000 0.000000 0.000000 0.000000 -60.708740 0.000000 157.000000 0.728566 -0.654317 0.202637
3250.00000000 -22040.00000000 740.00000000 243 152 58 0.000000 0.000000 0.000000 0.000000 -60.708740 0.000000 157.000000 0.845719 -0.521888 0.111317
3240.00000000 -22050.00000000 780.00000000 243 152 58 0.000000 0.000000 0.000000 0.000000 -60.708740 0.000000 157.000000 -0.645226 0.763307 -0.032332
3260.00000000 -22030.00000000 740.00000000 243 152 58 0.000000 0.000000 0.000000 0.000000 -60.708740 0.000000 157.000000 0.777163 -0.550557 0.304801
3250.00000000 -22020.00000000 780.00000000 243 152 58 0.000000 0.000000 0.000000 0.000000 -60.708740 0.000000 157.000000 0.993709 -0.005430 0.111860
3240.00000000 -22050.00000000 750.00000000 243 152 58 0.000000 0.000000 0.000000 0.000000 -60.708740 0.000000 157.000000 -0.690734 0.721938 -0.041132
3260.00000000 -22020.00000000 710.00000000 243 152 58 0.000000 0.000000 0.000000 0.000000 -60.708740 0.000000 157.000000 0.887956 -0.132552 0.440415
3260.00000000 -22030.00000000 670.00000000 243 152 58 0.000000 0.000000 0.000000 0.000000 -60.708740 0.000000 157.000000 0.960092 -0.263479 0.093824
3250.00000000 -22020.00000000 710.00000000 243 152 58 0.000000 0.000000 0.000000 0.000000 -60.708740 0.000000 157.000000 0.957715 -0.154983 0.242409
3260.00000000 -22020.00000000 700.00000000 243 152 58 0.000000 0.000000 0.000000 0.000000 -60.708740 0.000000 157.000000 0.966682 -0.210373 0.145841
3240.00000000 -22040.00000000 720.00000000 243 152 58 0.000000 0.000000 0.000000 0.000000 -60.708740 0.000000 157.000000 0.874602 -0.429078 0.225752
3260.00000000 -22040.00000000 700.00000000 243 152 58 0.000000 0.000000 0.000000 0.000000 -60.708740 0.000000 157.000000 0.900111 -0.434765 0.027921
3250.00000000 -22030.00000000 660.00000000 243 152 58 0.000000 0.000000 0.000000 0.000000 -60.708740 0.000000 157.000000 0.907789 -0.419080 -0.017079
3250.00000000 -22040.00000000 730.00000000 243 152 58 0.000000 0.000000 0.000000 0.000000 -60.708740 0.000000 157.000000 0.774768 -0.627605 0.076467
3250.00000000 -22050.00000000 670.00000000 243 152 58 0.000000 0.000000 0.000000 0.000000 -60.708740 0.000000 157.000000 0.841323 -0.534871 0.078032
3250.00000000 -22040.00000000 700.00000000 243 152 58 0.000000 0.000000 0.000000 0.000000 -60.708740 0.000000 157.000000 0.888465 -0.414227 0.197599
3250.00000000 -22040.00000000 680.00000000 243 152 58 0.000000 0.000000 0.000000 0.000000 -60.708740 0.000000 157.000000 0.922257 -0.378327 0.079435
3260.00000000 -22030.00000000 680.00000000 243 152 58 0.000000 0.000000 0.000000 0.000000 -60.708740 0.000000 157.000000 0.945962 -0.226537 0.232028
3270.00000000 -22020.00000000 670.00000000 243 152 58 0.000000 0.000000 0.000000 0.000000 -60.708740 0.000000 157.000000 0.983345 -0.097731 0.153233
3240.00000000 -22040.00000000 710.00000000 243 152 58 0.000000 0.000000 0.000000 0.000000 -60.708740 0.000000 157.000000 0.795692 -0.298978 0.526770
3290.00000000 -21970.00000000 620.00000000 243 152 58 0.000000 0.000000 0.000000 0.000000 -60.708740 0.000000 157.000000 0.959702 0.110385 0.258431
3280.00000000 -21940.00000000 580.00000000 243 152 58 0.000000 0.000000 0.000000 0.000000 -60.708740 0.000000 157.000000 0.984844 0.113959 0.130753
3290.00000000 -21950.00000000 590.00000000 243 152 58 0.000000 0.000000 0.000000 0.000000 -60.708740 0.000000 157.000000 0.832316 0.485130 0.268139
3280.00000000 -21940.00000000 570.00000000 243 152 58 0.000000 0.000000 0.000000 0.000000 -60.708740 0.000000 157.000000 0.997995 0.032878 0.054089
3300.00000000 -21960.00000000 590.00000000 243 152 58 0.000000 0.000000 0.000000 0.000000 -60.708740 0.000000 157.000000 0.871738 0.280472 -0.401757
3280.00000000 -21940.00000000 580.00000000 243 152 58 0.000000 0.000000 0.000000 0.000000 -60.708740 0.000000 157.000000 0.984844 0.113959 0.130753
3280.00000000 -22000.00000000 640.00000000 243 152 58 0.000000 0.000000 0.000000 0.000000 -60.708740 0.000000 157.000000 0.979792 0.058908 0.191150
3280.00000000 -22010.00000000 620.00000000 243 152 58 0.000000 0.000000 0.000000 0.000000 -60.708740 0.000000 157.000000 0.957698 -0.113360 0.264507
3280.00000000 -22010.00000000 600.00000000 243 152 58 0.000000 0.000000 0.000000 0.000000 -60.708740 0.000000 157.000000 0.981436 -0.024507 -0.190219
3280.00000000 -22010.00000000 570.00000000 243 152 58 0.000000 0.000000 0.000000 0.000000 -60.708740 0.000000 157.000000 0.919499 -0.140925 0.366962
3280.00000000 -22000.00000000 600.00000000 243 152 58 0.000000 0.000000 0.000000 0.000000 -60.708740 0.000000 157.000000 0.994980 -0.016276 0.098739
3280.00000000 -21970.00000000 540.00000000 243 152 58 0.000000 0.000000 0.000000 0.000000 -60.708740 0.000000 157.000000 0.997534 -0.026615 -0.064941
3290.00000000 -21970.00000000 560.00000000 243 152 58 0.000000 0.000000 0.000000 0.000000 -60.708740 0.000000 157.000000 0.921765 0.259470 0.288141
3280.00000000 -21940.00000000 560.00000000 243 152 58 0.000000 0.000000 0.000000 0.000000 -60.708740 0.000000 157.000000 0.962720 0.025820 -0.269266
3280.00000000 -21970.00000000 530.00000000 243 152 58 0.000000 0.000000 0.000000 0.000000 -60.708740 0.000000 157.000000 0.965528 -0.003598 -0.260273
3280.00000000 -21940.00000000 500.00000000 243 152 58 0.000000 0.000000 0.000000 0.000000 -60.708740 0.000000 157.000000 0.913403 0.341985 -0.220775
3280.00000000 -21940.00000000 520.00000000 243 152 58 0.000000 0.000000 0.000000 0.000000 -60.708740 0.000000 157.000000 0.975463 0.154417 0.156928
3280.00000000 -21940.00000000 520.00000000 243 152 58 0.000000 0.000000 0.000000 0.000000 -60.708740 0.000000 157.000000 0.975463 0.154417 0.156928
3280.00000000 -21980.00000000 550.00000000 243 152 58 0.000000 0.000000 0.000000 0.000000 -60.708740 0.000000 157.000000 0.998556 0.049041 0.021912
3280.00000000 -22010.00000000 560.00000000 243 152 58 0.000000 0.000000 0.000000 0.000000 -60.708740 0.000000 157.000000 0.969254 -0.188716 0.157905
3280.00000000 -21980.00000000 530.00000000 243 152 58 0.000000 0.000000 0.000000 0.000000 -60.708740 0.000000 157.000000 0.982303 -0.070592 -0.173488
3280.00000000 -22010.00000000 490.00000000 243 152 58 0.000000 0.000000 0.000000 0.000000 -60.708740 0.000000 157.000000 0.892288 0.402921 0.203658
3270.00000000 -21940.00000000 640.00000000 243 152 58 0.000000 0.000000 0.000000 0.000000 -60.708740 0.000000 157.000000 0.920496 0.382526 0.079749
3250.00000000 -21940.00000000 620.00000000 243 152 58 0.000000 0.000000 0.000000 0.000000 -60.708740 0.000000 157.000000 0.970155 0.125879 0.207255
3270.00000000 -21970.00000000 620.00000000 243 152 58 0.000000 0.000000 0.000000 0.000000 -60.708740 0.000000 157.000000 0.999220 0.011250 -0.037842
3260.00000000 -21940.00000000 640.00000000 243 152 58 0.000000 0.000000 0.000000 0.000000 -60.708740 0.000000 157.000000 0.873068 0.438765 -0.212690
3260.00000000 -21940.00000000 640.00000000 243 152 58 0.000000 0.000000 0.000000 0.000000 -60.708740 0.000000 157.000000 0.873068 0.438765 -0.212690
3260.00000000 -21970.00000000 620.00000000 243 152 58 0.000000 0.000000 0.000000 0.000000 -60.708740 0.000000 157.000000 0.997945 0.056207 -0.030755
3270.00000000 -21950.00000000 640.00000000 243 152 58 0.000000 0.000000 0.000000 0.000000 -60.708740 0.000000 157.000000 0.895728 0.444585 -0.003934
3270.00000000 -21970.00000000 650.00000000 243 152 58 0.000000 0.000000 0.000000 0.000000 -60.708740 0.000000 157.000000 0.988922 0.026054 0.146129
3270.00000000 -21960.00000000 630.00000000 243 152 58 0.000000 0.000000 0.000000 0.000000 -60.708740 0.000000 157.000000 0.959709 0.145729 -0.240255
3260.00000000 -21960.00000000 630.00000000 243 152 58 0.000000 0.000000 0.000000 0.000000 -60.708740 0.000000 157.000000 0.972760 0.225797 0.052483
3260.00000000 -21950.00000000 650.00000000 243 152 58 0.000000 0.000000 0.000000 0.000000 -60.708740 0.000000 157.000000 0.957182 0.258662 0.129988
3270.00000000 -21970.00000000 650.00000000 243 152 58 0.000000 0.000000 0.000000 0.000000 -60.708740 0.000000 157.000000 0.988922 0.026054 0.146129
3270.00000000 -21960.00000000 620.00000000 243 152 58 0.000000 0.000000 0.000000 0.000000 -60.708740 0.000000 157.000000 0.977234 0.158504 0.141031
3270.00000000 -21950.00000000 640.00000000 243 152 58 0.000000 0.000000 0.000000 0.000000 -60.708740 0.000000 157.000000 0.895728 0.444585 -0.003934
3270.00000000 -21960.00000000 640.00000000 243 152 58 0.000000 0.000000 0.000000 0.000000 -60.708740 0.000000 157.000000 0.989986 0.100972 0.098650
3270.00000000 -21970.00000000 580.00000000 243 152 58 0.000000 0.000000 0.000000 0.000000 -60.708740 0.000000 157.000000 0.978521 0.162056 0.127418
3260.00000000 -21940.00000000 610.00000000 243 152 58 0.000000 0.000000 0.000000 0.000000 -60.708740 0.000000 157.000000 0.989458 0.077901 0.122084
3260.00000000 -21940.00000000 600.00000000 243 152 58 0.000000 0.000000 0.000000 0.000000 -60.708740 0.000000 157.000000 0.942648 0.233247 0.238767
3260.00000000 -21960.00000000 590.00000000 243 152 58 0.000000 0.000000 0.000000 0.000000 -60.708740 0.000000 157.000000 0.996194 0.040283 0.077300
3270.00000000 -21970.00000000 570.00000000 243 152 58 0.000000 0.000000 0.000000 0.000000 -60.708740 0.000000 157.000000 0.992389 0.036921 0.117476
3270.00000000 -21970.00000000 570.00000000 243 152 58 0.000000 0.000000 0.000000 0.000000 -60.708740 0.000000 157.000000 0.992389 0.036921 0.117476
3270.00000000 -21970.00000000 600.00000000 243 152 58 0.000000 0.000000 0.000000 0.000000 -60.708740 0.000000 157.000000 0.994633 -0.043149 0.094042
3270.00000000 -21950.00000000 600.00000000 243 152 58 0.000000 0.000000 0.000000 0.000000 -60.708740 0.000000 157.000000 0.975451 0.174502 0.134329
3270.00000000 -22000.00000000 640.00000000 243 152 58 0.000000 0.000000 0.000000 0.000000 -60.708740 0.000000 157.000000 0.997641 0.041702 0.054533
3270.00000000 -22000.00000000 620.00000000 243 152 58 0.000000 0.000000 0.000000 0.000000 -60.708740 0.000000 157.000000 0.984805 -0.159986 0.067550
3260.00000000 -22010.00000000 630.00000000 243 152 58 0.000000 0.000000 0.000000 0.000000 -60.708740 0.000000 157.000000 0.942677 -0.283213 -0.176495
3260.00000000 -21990.00000000 650.00000000 243 152 58 0.000000 0.000000 0.000000 0.000000 -60.708740 0.000000 157.000000 0.956697 0.049288 0.286883
3260.00000000 -22000.00000000 620.00000000 243 152 58 0.000000 0.000000 0.000000 0.000000 -60.708740 0.000000 157.000000 0.957854 -0.262658 0.116302
3260.00000000 -21990.00000000 650.00000000 243 152 58 0.000000 0.000000 0.000000 0.000000 -60.708740 0.000000 157.000000 0.956697 0.049288 0.286883
3270.00000000 -22000.00000000 650.00000000 243 152 58 0.000000 0.000000 0.000000 0.000000 -60.708740 0.000000 157.000000 0.966132 0.033062 0.255921
3270.00000000 -21980.00000000 620.00000000 243 152 58 0.000000 0.000000 0.000000 0.000000 -60.708740 0.000000 157.000000 0.999213 -0.001016 0.039643
3270.00000000 -21990.00000000 650.00000000 243 152 58 0.000000 0.000000 0.000000 0.000000 -60.708740 0.000000 157.000000 0.976937 0.054341 0.206497
3270.00000000 -21980.00000000 580.00000000 243 152 58 0.000000 0.000000 0.000000 0.000000 -60.708740 0.000000 157.000000 0.966141 -0.243745 -0.084616
3270.00000000 -22000.00000000 580.00000000 243 152 58 0.000000 0.000000 0.000000 0.000000 -60.708740 0.000000 157.000000 0.995026 0.001071 0.099610
3270.00000000 -21990.00000000 600.00000000 243 152 58 0.000000 0.000000 0.000000 0.000000 -60.708740 0.000000 157.000000 0.988731 0.143544 -0.042489
3270.00000000 -21980.00000000 580.00000000 243 152 58 0.000000 0.000000 0.000000 0.000000 -60.708740 0.000000 157.000000 0.966141 -0.243745 -0.084616
3270.00000000 -21980.00000000 570.00000000 243 152 58 0.000000 0.000000 0.000000 0.000000 -60.708740 0.000000 157.000000 0.977134 0.001162 0.212622
3270.00000000 -21990.00000000 600.00000000 243 152 58 0.000000 0.000000 0.000000 0.000000 -60.708740 0.000000 157.000000 0.988731 0.143544 -0.042489
3270.00000000 -21980.00000000 600.00000000 243 152 58 0.000000 0.000000 0.000000 0.000000 -60.708740 0.000000 157.000000 0.976197 0.049474 0.211167
3270.00000000 -21980.00000000 590.00000000 243 152 58 0.000000 0.000000 0.000000 0.000000 -60.708740 0.000000 157.000000 0.988681 -0.092433 0.118174
3270.00000000 -22010.00000000 580.00000000 243 152 58 0.000000 0.000000 0.000000 0.000000 -60.708740 0.000000 157.000000 0.995532 -0.038248 0.086330
3270.00000000 -22010.00000000 600.00000000 243 152 58 0.000000 0.000000 0.000000 0.000000 -60.708740 0.000000 157.000000 0.979557 -0.149466 -0.134643
3270.00000000 -22010.00000000 580.00000000 243 152 58 0.000000 0.000000 0.000000 0.000000 -60.708740 0.000000 157.000000 0.995532 -0.038248 0.086330
3270.00000000 -21990.00000000 580.00000000 243 152 58 0.000000 0.000000 0.000000 0.000000 -60.708740 0.000000 157.000000 0.963008 -0.269449 0.003625
3270.00000000 -21990.00000000 590.00000000 243 152 58 0.000000 0.000000 0.000000 0.000000 -60.708740 0.000000 157.000000 0.979865 -0.165559 -0.111599
3260.00000000 -21950.00000000 540.00000000 243 152 58 0.000000 0.000000 0.000000 0.000000 -60.708740 0.000000 157.000000 0.901582 0.366770 0.229414
3270.00000000 -21970.00000000 560.00000000 243 152 58 0.000000 0.000000 0.000000 0.000000 -60.708740 0.000000 157.000000 0.873393 0.287081 0.393407
3270.00000000 -21960.00000000 530.00000000 243 152 58 0.000000 0.000000 0.000000 0.000000 -60.708740 0.000000 157.000000 0.868993 0.474392 -0.140722
3270.00000000 -21960.00000000 530.00000000 243 152 58 0.000000 0.000000 0.000000 0.000000 -60.708740 0.000000 157.000000 0.868993 0.474392 -0.140722
3270.00000000 -21950.00000000 490.00000000 243 152 58 0.000000 0.000000 0.000000 0.000000 -60.708740 0.000000 157.000000 0.990672 0.113910 -0.074789
3260.00000000 -21960.00000000 490.00000000 243 152 58 0.000000 0.000000 0.000000 0.000000 -60.708740 0.000000 157.000000 0.927171 0.263482 0.266330
3260.00000000 -21970.00000000 510.00000000 243 152 58 0.000000 0.000000 0.000000 0.000000 -60.708740 0.000000 157.000000 0.998550 -0.049143 0.021958
3270.00000000 -22010.00000000 540.00000000 243 152 58 0.000000 0.000000 0.000000 0.000000 -60.708740 0.000000 157.000000 0.998806 -0.023905 -0.042613
3260.00000000 -22010.00000000 560.00000000 243 152 58 0.000000 0.000000 0.000000 0.000000 -60.708740 0.000000 157.000000 0.996580 -0.031244 0.076494
3270.00000000 -22000.00000000 500.00000000 243 152 58 0.000000 0.000000 0.000000 0.000000 -60.708740 0.000000 157.000000 0.990781 -0.037367 -0.130217
3270.00000000 -22000.00000000 520.00000000 243 152 58 0.000000 0.000000 0.000000 0.000000 -60.708740 0.000000 157.000000 0.995522 -0.084329 0.042712
3270.00000000 -21980.00000000 490.00000000 243 152 58 0.000000 0.000000 0.000000 0.000000 -60.708740 0.000000 157.000000 0.994566 -0.085758 0.059028
3270.00000000 -21980.00000000 490.00000000 243 152 58 0.000000 0.000000 0.000000 0.000000 -60.708740 0.000000 157.000000 0.994566 -0.085758 0.059028
3270.00000000 -22010.00000000 500.00000000 243 152 58 0.000000 0.000000 0.000000 0.000000 -60.708740 0.000000 157.000000 0.990023 0.005543 -0.140798
3270.00000000 -22010.00000000 510.00000000 243 152 58 0.000000 0.000000 0.000000 0.000000 -60.708740 0.000000 157.000000 0.995200 -0.078423 -0.058541
3270.00000000 -21990.00000000 520.00000000 243 152 58 0.000000 0.000000 0.000000 0.000000 -60.708740 0.000000 157.000000 0.994578 0.103037 0.014100
3270.00000000 -22000.00000000 490.00000000 243 152 58 0.000000 0.000000 0.000000 0.000000 -60.708740 0.000000 157.000000 0.981068 0.043893 0.188621
3270.00000000 -21980.00000000 500.00000000 243 152 58 0.000000 0.000000 0.000000 0.000000 -60.708740 0.000000 157.000000 0.998580 -0.007244 0.052775
3270.00000000 -22000.00000000 490.00000000 243 152 58 0.000000 0.000000 0.000000 0.000000 -60.708740 0.000000 157.000000 0.981068 0.043893 0.188621
3270.00000000 -22030.00000000 650.00000000 243 152 58 0.000000 0.000000 0.000000 0.000000 -60.708740 0.000000 157.000000 0.925698 -0.286695 -0.246758
3260.00000000 -22020.00000000 620.00000000 243 152 58 0.000000 0.000000 0.000000 0.000000 -60.708740 0.000000 157.000000 0.947744 0.079522 0.308962
3270.00000000 -22020.00000000 640.00000000 243 152 58 0.000000 0.000000 0.000000 0.000000 -60.708740 0.000000 157.000000 0.950550 -0.289528 -0.112374
3250.00000000 -22030.00000000 640.00000000 243 152 58 0.000000 0.000000 0.000000 0.000000 -60.708740 0.000000 157.000000 0.887197 -0.422405 -0.185624
3260.00000000 -22040.00000000 640.00000000 243 152 58 0.000000 0.000000 0.000000 0.000000 -60.708740 0.000000 157.000000 0.855632 -0.501177 0.129289
3250.00000000 -22050.00000000 640.00000000 243 152 58 0.000000 0.000000 0.000000 0.000000 -60.708740 0.000000 157.000000 0.867326 -0.456722 0.197863
3270.00000000 -22020.00000000 640.00000000 243 152 58 0.000000 0.000000 0.000000 0.000000 -60.708740 0.000000 157.000000 0.950550 -0.289528 -0.112374
3260.00000000 -22020.00000000 620.00000000 243 152 58 0.000000 0.000000 0.000000 0.000000 -60.708740 0.000000 157.000000 0.947744 0.079522 0.308962
3270.00000000 -22030.00000000 580.00000000 243 152 58 0.000000 0.000000 0.000000 0.000000 -60.708740 0.000000 157.000000 0.956722 -0.252744 0.144236
3270.00000000 -22030.00000000 570.00000000 243 152 58 0.000000 0.000000 0.000000 0.000000 -60.708740 0.000000 157.000000 0.889541 -0.411797 0.197839
3270.00000000 -22040.00000000 550.00000000 243 152 58 0.000000 0.000000 0.000000 0.000000 -60.708740 0.000000 157.000000 0.876671 -0.462088 0.133876
3270.00000000 -22020.00000000 550.00000000 243 152 58 0.000000 0.000000 0.000000 0.000000 -60.708740 0.000000 157.000000 0.998024 -0.057963 -0.024239
3270.00000000 -22020.00000000 560.00000000 243 152 58 0.000000 0.000000 0.000000 0.000000 -60.708740 0.000000 157.000000 0.941381 -0.311993 -0.128309
3270.00000000 -22040.00000000 490.00000000 243 152 58 0.000000 0.000000 0.000000 0.000000 -60.708740 0.000000 157.000000 0.960000 0.259704 -0.104657
3270.00000000 -22020.00000000 520.00000000 243 152 58 0.000000 0.000000 0.000000 0.000000 -60.708740 0.000000 157.000000 0.991668 -0.114992 -0.058066
3270.00000000 -22030.00000000 510.00000000 243 152 58 0.000000 0.000000 0.000000 0.000000 -60.708740 0.000000 157.000000 0.946372 -0.307538 0.098993
3270.00000000 -22040.00000000 510.00000000 243 152 58 0.000000 0.000000 0.000000 0.000000 -60.708740 0.000000 157.000000 0.992229 -0.094552 0.080882
3270.00000000 -22030.00000000 510.00000000 243 152 58 0.000000 0.000000 0.000000 0.000000 -60.708740 0.000000 157.000000 0.946372 -0.307538 0.098993
3290.00000000 -21950.00000000 460.00000000 243 152 58 0.000000 0.000000 0.000000 0.000000 -60.708740 0.000000 157.000000 0.829510 0.552531 -0.081381
3280.00000000 -21980.00000000 470.00000000 243 152 58 0.000000 0.000000 0.000000 0.000000 -60.708740 0.000000 157.000000 0.926036 0.065289 -0.371747
3290.00000000 -21960.00000000 430.00000000 243 152 58 0.000000 0.000000 0.000000 0.000000 -60.708740 0.000000 157.000000 0.907886 0.406123 0.103956
