//X Y Z R G B PointSourceId ScanDirectionFlag NumberOfReturns ReturnNumber GpsTime Intensity Classification Nx Ny Nz
50.00000000 -8700.00000000 -690.00000000 231 157 61 0.000000 0.000000 0.000000 0.000000 -60.708740 0.000000 56.000000 -0.438586 0.771194 -0.461412
50.00000000 -8670.00000000 -660.00000000 231 157 61 0.000000 0.000000 0.000000 0.000000 -60.708740 0.000000 56.000000 0.770457 -0.585296 0.252635
40.00000000 -8690.00000000 -670.00000000 231 157 61 0.000000 0.000000 0.000000 0.000000 -60.708740 0.000000 56.000000 -0.425588 0.707106 -0.564691
30.00000000 -8650.00000000 -620.00000000 231 157 61 0.000000 0.000000 0.000000 0.000000 -60.708740 0.000000 56.000000 -0.548171 0.554918 -0.625759
30.00000000 -8670.00000000 -640.00000000 231 157 61 0.000000 0.000000 0.000000 0.000000 -60.708740 0.000000 56.000000 0.800887 -0.561999 0.206730
30.00000000 -8670.00000000 -650.00000000 231 157 61 0.000000 0.000000 0.000000 0.000000 -60.708740 0.000000 56.000000 -0.612107 0.760873 -0.215400
20.00000000 -8700.00000000 -630.00000000 231 157 61 0.000000 0.000000 0.000000 0.000000 -60.708740 0.000000 56.000000 0.726468 -0.534508 0.431909
10.00000000 -8700.00000000 -650.00000000 231 157 61 0.000000 0.000000 0.000000 0.000000 -60.708740 0.000000 56.000000 -0.224658 0.944115 -0.241197
10.00000000 -8680.00000000 -610.00000000 231 157 61 0.000000 0.000000 0.000000 0.000000 -60.708740 0.000000 56.000000 -0.659573 0.744774 -0.101360
30.00000000 -8670.00000000 -630.00000000 231 157 61 0.000000 0.000000 0.000000 0.000000 -60.708740 0.000000 56.000000 0.736045 -0.360679 0.572842
10.00000000 -8690.00000000 -610.00000000 231 157 61 0.000000 0.000000 0.000000 0.000000 -60.708740 0.000000 56.000000 0.668265 -0.567774 0.480682
0.00000000 -8700.00000000 -610.00000000 231 157 61 0.000000 0.000000 0.000000 0.000000 -60.708740 0.000000 56.000000 -0.368702 0.812420 -0.451699
30.00000000 -8700.00000000 -680.00000000 231 157 61 0.000000 0.000000 0.000000 0.000000 -60.708740 0.000000 56.000000 0.427619 -0.620631 0.657236
0.00000000 -8720.00000000 -580.00000000 231 157 61 0.000000 0.000000 0.000000 0.000000 -60.708740 0.000000 56.000000 -0.246290 0.770245 -0.588272
50.00000000 -8720.00000000 -620.00000000 231 157 61 0.000000 0.000000 0.000000 0.000000 -60.708740 0.000000 56.000000 0.596657 -0.660167 0.456267
40.00000000 -8730.00000000 -630.00000000 231 157 61 0.000000 0.000000 0.000000 0.000000 -60.708740 0.000000 56.000000 -0.408619 0.886571 -0.216848
50.00000000 -8730.00000000 -660.00000000 231 157 61 0.000000 0.000000 0.000000 0.000000 -60.708740 0.000000 56.000000 -0.402039 0.673373 -0.620430
60.00000000 -8750.00000000 -670.00000000 231 157 61 0.000000 0.000000 0.000000 0.000000 -60.708740 0.000000 56.000000 -0.402281 0.637359 -0.657224
50.00000000 -8720.00000000 -660.00000000 231 157 61 0.000000 0.000000 0.000000 0.000000 -60.708740 0.000000 56.000000 0.574268 -0.765161 0.291111
0.00000000 -8730.00000000 -630.00000000 231 157 61 0.000000 0.000000 0.000000 0.000000 -60.708740 0.000000 56.000000 -0.003288 0.991741 -0.128214
10.00000000 -8730.00000000 -610.00000000 231 157 61 0.000000 0.000000 0.000000 0.000000 -60.708740 0.000000 56.000000 -0.114963 0.833847 -0.539891
30.00000000 -8730.00000000 -630.00000000 231 157 61 0.000000 0.000000 0.000000 0.000000 -60.708740 0.000000 56.000000 0.779741 -0.533170 0.328228
30.00000000 -8730.00000000 -670.00000000 231 157 61 0.000000 0.000000 0.000000 0.000000 -60.708740 0.000000 56.000000 0.706912 -0.625657 0.329892
0.00000000 -8730.00000000 -660.00000000 231 157 61 0.000000 0.000000 0.000000 0.000000 -60.708740 0.000000 56.000000 -0.345912 0.808191 -0.476626
20.00000000 -8730.00000000 -670.00000000 231 157 61 0.000000 0.000000 0.000000 0.000000 -60.708740 0.000000 56.000000 -0.290575 0.815181 -0.501046
0.00000000 -8710.00000000 -680.00000000 231 157 61 0.000000 0.000000 0.000000 0.000000 -60.708740 0.000000 56.000000 -0.208399 0.971267 0.114935
10.00000000 -8730.00000000 -670.00000000 231 157 61 0.000000 0.000000 0.000000 0.000000 -60.708740 0.000000 56.000000 -0.173650 0.807848 -0.563229
0.00000000 -8720.00000000 -660.00000000 231 157 61 0.000000 0.000000 0.000000 0.000000 -60.708740 0.000000 56.000000 -0.495172 0.733650 -0.465363
0.00000000 -8740.00000000 -680.00000000 231 157 61 0.000000 0.000000 0.000000 0.000000 -60.708740 0.000000 56.000000 -0.117869 0.962381 -0.244805
0.00000000 -8790.00000000 -650.00000000 231 157 61 0.000000 0.000000 0.000000 0.000000 -60.708740 0.000000 56.000000 -0.536889 0.841267 -0.063412
-60.00000000 -8500.00000000 -240.00000000 231 157 61 0.000000 0.000000 0.000000 0.000000 -60.708740 0.000000 56.000000 0.797589 0.576625 0.177074
-60.00000000 -8500.00000000 -240.00000000 231 157 61 0.000000 0.000000 0.000000 0.000000 -60.708740 0.000000 56.000000 0.797589 0.576625 0.177074
-60.00000000 -8510.00000000 -260.00000000 231 157 61 0.000000 0.000000 0.000000 0.000000 -60.708740 0.000000 56.000000 0.796473 0.234440 0.557376
-40.00000000 -8490.00000000 -320.00000000 231 157 61 0.000000 0.000000 0.000000 0.000000 -60.708740 0.000000 56.000000 0.913403 0.220775 0.341985
-20.00000000 -8490.00000000 -350.00000000 231 157 61 0.000000 0.000000 0.000000 0.000000 -60.708740 0.000000 56.000000 0.731335 0.377938 0.567725
-40.00000000 -8490.00000000 -320.00000000 231 157 61 0.000000 0.000000 0.000000 0.000000 -60.708740 0.000000 56.000000 0.913403 0.220775 0.341985
-30.00000000 -8520.00000000 -300.00000000 231 157 61 0.000000 0.000000 0.000000 0.000000 -60.708740 0.000000 56.000000 0.878190 0.368567 0.304864
-30.00000000 -8510.00000000 -340.00000000 231 157 61 0.000000 0.000000 0.000000 0.000000 -60.708740 0.000000 56.000000 0.900995 0.288496 0.324003
-20.00000000 -8500.00000000 -330.00000000 231 157 61 0.000000 0.000000 0.000000 0.000000 -60.708740 0.000000 56.000000 0.759571 0.609840 0.226156
-30.00000000 -8510.00000000 -340.00000000 231 157 61 0.000000 0.000000 0.000000 0.000000 -60.708740 0.000000 56.000000 0.900995 0.288496 0.324003
-30.00000000 -8520.00000000 -340.00000000 231 157 61 0.000000 0.000000 0.000000 0.000000 -60.708740 0.000000 56.000000 0.918738 0.099952 0.382009
-10.00000000 -8520.00000000 -330.00000000 231 157 61 0.000000 0.000000 0.000000 0.000000 -60.708740 0.000000 56.000000 0.780111 0.138720 0.610068
-30.00000000 -8520.00000000 -340.00000000 231 157 61 0.000000 0.000000 0.000000 0.000000 -60.708740 0.000000 56.000000 0.918738 0.099952 0.382009
-40.00000000 -8500.00000000 -330.00000000 231 157 61 0.000000 0.000000 0.000000 0.000000 -60.708740 0.000000 56.000000 0.535454 0.765165 0.357508
-50.00000000 -8480.00000000 -310.00000000 231 157 61 0.000000 0.000000 0.000000 0.000000 -60.708740 0.000000 56.000000 0.710772 0.696056 0.101539
-50.00000000 -8470.00000000 -290.00000000 231 157 61 0.000000 0.000000 0.000000 0.000000 -60.708740 0.000000 56.000000 0.824325 0.490855 0.282047
-50.00000000 -8470.00000000 -300.00000000 231 157 61 0.000000 0.000000 0.000000 0.000000 -60.708740 0.000000 56.000000 0.811623 0.569171 0.131575
-60.00000000 -8480.00000000 -300.00000000 231 157 61 0.000000 0.000000 0.000000 0.000000 -60.708740 0.000000 56.000000 0.767198 0.614064 0.185291
-60.00000000 -8490.00000000 -280.00000000 231 157 61 0.000000 0.000000 0.000000 0.000000 -60.708740 0.000000 56.000000 0.755417 0.593201 0.278312
-50.00000000 -8480.00000000 -290.00000000 231 157 61 0.000000 0.000000 0.000000 0.000000 -60.708740 0.000000 56.000000 0.840741 0.313523 0.441428
-70.00000000 -8460.00000000 -330.00000000 231 157 61 0.000000 0.000000 0.000000 0.000000 -60.708740 0.000000 56.000000 0.516550 0.843257 0.148637
-60.00000000 -8470.00000000 -330.00000000 231 157 61 0.000000 0.000000 0.000000 0.000000 -60.708740 0.000000 56.000000 0.692714 0.695800 0.189764
-60.00000000 -8470.00000000 -320.00000000 231 157 61 0.000000 0.000000 0.000000 0.000000 -60.708740 0.000000 56.000000 0.704790 0.707649 0.050036
-40.00000000 -8600.00000000 -240.00000000 231 157 61 0.000000 0.000000 0.000000 0.000000 -60.708740 0.000000 56.000000 0.854296 -0.160826 0.494282
-40.00000000 -8600.00000000 -240.00000000 231 157 61 0.000000 0.000000 0.000000 0.000000 -60.708740 0.000000 56.000000 0.854296 -0.160826 0.494282
-40.00000000 -8610.00000000 -270.00000000 231 157 61 0.000000 0.000000 0.000000 0.000000 -60.708740 0.000000 56.000000 0.791728 -0.313824 0.524101
-30.00000000 -8610.00000000 -300.00000000 231 157 61 0.000000 0.000000 0.000000 0.000000 -60.708740 0.000000 56.000000 0.796543 -0.224269 0.561447
-10.00000000 -8590.00000000 -300.00000000 231 157 61 0.000000 0.000000 0.000000 0.000000 -60.708740 0.000000 56.000000 0.787410 0.064308 0.613065
-20.00000000 -8610.00000000 -310.00000000 231 157 61 0.000000 0.000000 0.000000 0.000000 -60.708740 0.000000 56.000000 0.585548 0.309618 0.749180
-30.00000000 -8610.00000000 -280.00000000 231 157 61 0.000000 0.000000 0.000000 0.000000 -60.708740 0.000000 56.000000 0.774524 -0.305019 0.554144
-30.00000000 -8620.00000000 -300.00000000 231 157 61 0.000000 0.000000 0.000000 0.000000 -60.708740 0.000000 56.000000 0.901707 -0.317295 0.293682
-10.00000000 -8590.00000000 -290.00000000 231 157 61 0.000000 0.000000 0.000000 0.000000 -60.708740 0.000000 56.000000 0.743362 -0.001379 0.668888
-10.00000000 -8590.00000000 -290.00000000 231 157 61 0.000000 0.000000 0.000000 0.000000 -60.708740 0.000000 56.000000 0.743362 -0.001379 0.668888
-40.00000000 -8600.00000000 -320.00000000 231 157 61 0.000000 0.000000 0.000000 0.000000 -60.708740 0.000000 56.000000 0.949333 0.188780 0.251254
-20.00000000 -8590.00000000 -330.00000000 231 157 61 0.000000 0.000000 0.000000 0.000000 -60.708740 0.000000 56.000000 0.918326 -0.146764 0.367610
-60.00000000 -8610.00000000 -310.00000000 231 157 61 0.000000 0.000000 0.000000 0.000000 -60.708740 0.000000 56.000000 0.672719 -0.262408 0.691803
-40.00000000 -8650.00000000 -310.00000000 231 157 61 0.000000 0.000000 0.000000 0.000000 -60.708740 0.000000 56.000000 0.570864 -0.180193 0.801027
-40.00000000 -8650.00000000 -310.00000000 231 157 61 0.000000 0.000000 0.000000 0.000000 -60.708740 0.000000 56.000000 0.570864 -0.180193 0.801027
-60.00000000 -8630.00000000 -310.00000000 231 157 61 0.000000 0.000000 0.000000 0.000000 -60.708740 0.000000 56.000000 0.917162 0.216732 0.334427
-70.00000000 -8650.00000000 -340.00000000 231 157 61 0.000000 0.000000 0.000000 0.000000 -60.708740 0.000000 56.000000 0.656546 -0.439368 0.613110
-90.00000000 -8670.00000000 -350.00000000 231 157 61 0.000000 0.000000 0.000000 0.000000 -60.708740 0.000000 56.000000 0.829903 -0.492997 0.261180
-120.00000000 -8660.00000000 -290.00000000 231 157 61 0.000000 0.000000 0.000000 0.000000 -60.708740 0.000000 56.000000 -0.700459 0.384017 -0.601571
-110.00000000 -8640.00000000 -340.00000000 231 157 61 0.000000 0.000000 0.000000 0.000000 -60.708740 0.000000 56.000000 0.807248 -0.409241 0.425290
-130.00000000 -8660.00000000 -350.00000000 231 157 61 0.000000 0.000000 0.000000 0.000000 -60.708740 0.000000 56.000000 -0.669451 0.293788 -0.682294
-110.00000000 -8630.00000000 -330.00000000 231 157 61 0.000000 0.000000 0.000000 0.000000 -60.708740 0.000000 56.000000 0.946079 -0.214956 0.242339
-110.00000000 -8630.00000000 -330.00000000 231 157 61 0.000000 0.000000 0.000000 0.000000 -60.708740 0.000000 56.000000 0.946079 -0.214956 0.242339
-110.00000000 -8680.00000000 -310.00000000 231 157 61 0.000000 0.000000 0.000000 0.000000 -60.708740 0.000000 56.000000 -0.596336 0.569306 -0.565928
-120.00000000 -8680.00000000 -290.00000000 231 157 61 0.000000 0.000000 0.000000 0.000000 -60.708740 0.000000 56.000000 0.909843 -0.336278 0.243110
-170.00000000 -8660.00000000 -320.00000000 231 157 61 0.000000 0.000000 0.000000 0.000000 -60.708740 0.000000 56.000000 -0.497718 0.753969 -0.428728
-170.00000000 -8660.00000000 -330.00000000 231 157 61 0.000000 0.000000 0.000000 0.000000 -60.708740 0.000000 56.000000 -0.618309 0.611570 -0.493636
-230.00000000 -8540.00000000 -350.00000000 231 157 61 0.000000 0.000000 0.000000 0.000000 -60.708740 0.000000 56.000000 0.627288 0.777384 0.046728
-230.00000000 -8540.00000000 -350.00000000 231 157 61 0.000000 0.000000 0.000000 0.000000 -60.708740 0.000000 56.000000 0.627288 0.777384 0.046728
-210.00000000 -8600.00000000 -340.00000000 231 157 61 0.000000 0.000000 0.000000 0.000000 -60.708740 0.000000 56.000000 0.881027 -0.154795 0.447024
-20.00000000 -8490.00000000 -390.00000000 231 157 61 0.000000 0.000000 0.000000 0.000000 -60.708740 0.000000 56.000000 0.832862 0.363688 0.417218
-40.00000000 -8490.00000000 -390.00000000 231 157 61 0.000000 0.000000 0.000000 0.000000 -60.708740 0.000000 56.000000 0.680035 0.647419 0.344094
-30.00000000 -8470.00000000 -410.00000000 231 157 61 0.000000 0.000000 0.000000 0.000000 -60.708740 0.000000 56.000000 0.342759 0.901764 0.263321
-20.00000000 -8490.00000000 -410.00000000 231 157 61 0.000000 0.000000 0.000000 0.000000 -60.708740 0.000000 56.000000 0.872933 0.434228 0.222337
-30.00000000 -8470.00000000 -410.00000000 231 157 61 0.000000 0.000000 0.000000 0.000000 -60.708740 0.000000 56.000000 0.342759 0.901764 0.263321
-30.00000000 -8490.00000000 -420.00000000 231 157 61 0.000000 0.000000 0.000000 0.000000 -60.708740 0.000000 56.000000 0.499307 0.469448 0.728225
-20.00000000 -8500.00000000 -360.00000000 231 157 61 0.000000 0.000000 0.000000 0.000000 -60.708740 0.000000 56.000000 0.698890 0.548770 0.458699
-10.00000000 -8540.00000000 -360.00000000 231 157 61 0.000000 0.000000 0.000000 0.000000 -60.708740 0.000000 56.000000 0.795883 0.498027 0.344295
-20.00000000 -8520.00000000 -390.00000000 231 157 61 0.000000 0.000000 0.000000 0.000000 -60.708740 0.000000 56.000000 0.533074 0.746304 0.398575
-10.00000000 -8510.00000000 -360.00000000 231 157 61 0.000000 0.000000 0.000000 0.000000 -60.708740 0.000000 56.000000 0.659524 0.301543 0.688549
-10.00000000 -8510.00000000 -390.00000000 231 157 61 0.000000 0.000000 0.000000 0.000000 -60.708740 0.000000 56.000000 0.912839 0.238698 0.331284
-20.00000000 -8510.00000000 -430.00000000 231 157 61 0.000000 0.000000 0.000000 0.000000 -60.708740 0.000000 56.000000 0.561924 0.720120 0.407024
-40.00000000 -8530.00000000 -400.00000000 231 157 61 0.000000 0.000000 0.000000 0.000000 -60.708740 0.000000 56.000000 0.937099 0.169754 0.305006
-10.00000000 -8500.00000000 -440.00000000 231 157 61 0.000000 0.000000 0.000000 0.000000 -60.708740 0.000000 56.000000 0.627822 0.654467 0.421323
-50.00000000 -8460.00000000 -370.00000000 231 157 61 0.000000 0.000000 0.000000 0.000000 -60.708740 0.000000 56.000000 0.551570 0.678985 0.484510
-80.00000000 -8460.00000000 -370.00000000 231 157 61 0.000000 0.000000 0.000000 0.000000 -60.708740 0.000000 56.000000 0.655334 0.703169 0.275846
-70.00000000 -8470.00000000 -360.00000000 231 157 61 0.000000 0.000000 0.000000 0.000000 -60.708740 0.000000 56.000000 0.557819 0.487463 0.671728
-50.00000000 -8460.00000000 -370.00000000 231 157 61 0.000000 0.000000 0.000000 0.000000 -60.708740 0.000000 56.000000 0.551570 0.678985 0.484510
-60.00000000 -8460.00000000 -370.00000000 231 157 61 0.000000 0.000000 0.000000 0.000000 -60.708740 0.000000 56.000000 0.308905 0.874977 0.372816
-60.00000000 -8480.00000000 -420.00000000 231 157 61 0.000000 0.000000 0.000000 0.000000 -60.708740 0.000000 56.000000 0.607106 0.657280 0.446549
-60.00000000 -8480.00000000 -420.00000000 231 157 61 0.000000 0.000000 0.000000 0.000000 -60.708740 0.000000 56.000000 0.607106 0.657280 0.446549
-60.00000000 -8500.00000000 -410.00000000 231 157 61 0.000000 0.000000 0.000000 0.000000 -60.708740 0.000000 56.000000 0.825389 0.511834 0.238241
-40.00000000 -8480.00000000 -470.00000000 231 157 61 0.000000 0.000000 0.000000 0.000000 -60.708740 0.000000 56.000000 0.626454 0.656364 0.420406
-20.00000000 -8480.00000000 -470.00000000 231 157 61 0.000000 0.000000 0.000000 0.000000 -60.708740 0.000000 56.000000 0.752349 0.561431 0.344625
-30.00000000 -8460.00000000 -470.00000000 231 157 61 0.000000 0.000000 0.000000 0.000000 -60.708740 0.000000 56.000000 0.813162 0.487897 0.317370
-20.00000000 -8480.00000000 -480.00000000 231 157 61 0.000000 0.000000 0.000000 0.000000 -60.708740 0.000000 56.000000 0.795130 0.567510 0.213778
-20.00000000 -8470.00000000 -480.00000000 231 157 61 0.000000 0.000000 0.000000 0.000000 -60.708740 0.000000 56.000000 0.613553 0.759563 0.215909
-40.00000000 -8460.00000000 -470.00000000 231 157 61 0.000000 0.000000 0.000000 0.000000 -60.708740 0.000000 56.000000 0.740451 0.613061 0.275479
-40.00000000 -8490.00000000 -460.00000000 231 157 61 0.000000 0.000000 0.000000 0.000000 -60.708740 0.000000 56.000000 0.649216 0.588824 0.481460
-10.00000000 -8480.00000000 -480.00000000 231 157 61 0.000000 0.000000 0.000000 0.000000 -60.708740 0.000000 56.000000 0.622145 0.527727 0.578308
-30.00000000 -8470.00000000 -460.00000000 231 157 61 0.000000 0.000000 0.000000 0.000000 -60.708740 0.000000 56.000000 0.641815 0.500313 0.581171
-30.00000000 -8470.00000000 -470.00000000 231 157 61 0.000000 0.000000 0.000000 0.000000 -60.708740 0.000000 56.000000 0.572623 0.495377 0.653226
-20.00000000 -8480.00000000 -520.00000000 231 157 61 0.000000 0.000000 0.000000 0.000000 -60.708740 0.000000 56.000000 0.749810 0.610897 0.254146
-40.00000000 -8460.00000000 -500.00000000 231 157 61 0.000000 0.000000 0.000000 0.000000 -60.708740 0.000000 56.000000 0.314751 0.711821 0.627887
-20.00000000 -8480.00000000 -520.00000000 231 157 61 0.000000 0.000000 0.000000 0.000000 -60.708740 0.000000 56.000000 0.749810 0.610897 0.254146
-10.00000000 -8510.00000000 -480.00000000 231 157 61 0.000000 0.000000 0.000000 0.000000 -60.708740 0.000000 56.000000 0.523806 0.470594 0.710048
-30.00000000 -8510.00000000 -460.00000000 231 157 61 0.000000 0.000000 0.000000 0.000000 -60.708740 0.000000 56.000000 0.707203 0.701346 0.089315
-20.00000000 -8510.00000000 -470.00000000 231 157 61 0.000000 0.000000 0.000000 0.000000 -60.708740 0.000000 56.000000 0.759330 0.545617 0.354570
-10.00000000 -8520.00000000 -470.00000000 231 157 61 0.000000 0.000000 0.000000 0.000000 -60.708740 0.000000 56.000000 0.722065 0.676841 0.143207
-30.00000000 -8500.00000000 -470.00000000 231 157 61 0.000000 0.000000 0.000000 0.000000 -60.708740 0.000000 56.000000 0.836742 0.459663 0.297612
-40.00000000 -8500.00000000 -450.00000000 231 157 61 0.000000 0.000000 0.000000 0.000000 -60.708740 0.000000 56.000000 0.748815 0.624272 0.222621
-70.00000000 -8460.00000000 -480.00000000 231 157 61 0.000000 0.000000 0.000000 0.000000 -60.708740 0.000000 56.000000 0.668346 0.743692 0.015348
-50.00000000 -8480.00000000 -480.00000000 231 157 61 0.000000 0.000000 0.000000 0.000000 -60.708740 0.000000 56.000000 0.566921 0.823744 -0.006830
-70.00000000 -8470.00000000 -470.00000000 231 157 61 0.000000 0.000000 0.000000 0.000000 -60.708740 0.000000 56.000000 0.538548 0.835977 -0.105399
-60.00000000 -8470.00000000 -480.00000000 231 157 61 0.000000 0.000000 0.000000 0.000000 -60.708740 0.000000 56.000000 0.245265 0.949893 0.193773
-80.00000000 -8460.00000000 -450.00000000 231 157 61 0.000000 0.000000 0.000000 0.000000 -60.708740 0.000000 56.000000 0.147995 0.889409 0.432491
-70.00000000 -8460.00000000 -510.00000000 231 157 61 0.000000 0.000000 0.000000 0.000000 -60.708740 0.000000 56.000000 0.528427 0.720583 0.448915
-60.00000000 -8460.00000000 -510.00000000 231 157 61 0.000000 0.000000 0.000000 0.000000 -60.708740 0.000000 56.000000 0.610731 0.782268 0.122738
-70.00000000 -8470.00000000 -490.00000000 231 157 61 0.000000 0.000000 0.000000 0.000000 -60.708740 0.000000 56.000000 0.230159 0.967687 0.103000
-70.00000000 -8460.00000000 -510.00000000 231 157 61 0.000000 0.000000 0.000000 0.000000 -60.708740 0.000000 56.000000 0.528427 0.720583 0.448915
-30.00000000 -8550.00000000 -390.00000000 231 157 61 0.000000 0.000000 0.000000 0.000000 -60.708740 0.000000 56.000000 0.848031 -0.028863 0.529160
-30.00000000 -8600.00000000 -360.00000000 231 157 61 0.000000 0.000000 0.000000 0.000000 -60.708740 0.000000 56.000000 0.798351 0.420949 0.430626
-20.00000000 -8620.00000000 -380.00000000 231 157 61 0.000000 0.000000 0.000000 0.000000 -60.708740 0.000000 56.000000 0.882719 -0.230728 0.409355
-10.00000000 -8610.00000000 -470.00000000 231 157 61 0.000000 0.000000 0.000000 0.000000 -60.708740 0.000000 56.000000 0.815741 0.144129 0.560172
-160.00000000 -8480.00000000 -430.00000000 231 157 61 0.000000 0.000000 0.000000 0.000000 -60.708740 0.000000 56.000000 0.105696 0.993546 -0.041166
-160.00000000 -8460.00000000 -440.00000000 231 157 61 0.000000 0.000000 0.000000 0.000000 -60.708740 0.000000 56.000000 0.195838 0.976729 -0.087450
-150.00000000 -8480.00000000 -430.00000000 231 157 61 0.000000 0.000000 0.000000 0.000000 -60.708740 0.000000 56.000000 0.359813 0.737536 0.571468
-110.00000000 -8490.00000000 -520.00000000 231 157 61 0.000000 0.000000 0.000000 0.000000 -60.708740 0.000000 56.000000 -0.128761 0.976333 0.173765
-140.00000000 -8470.00000000 -520.00000000 231 157 61 0.000000 0.000000 0.000000 0.000000 -60.708740 0.000000 56.000000 0.246170 0.969220 -0.003568
-170.00000000 -8470.00000000 -520.00000000 231 157 61 0.000000 0.000000 0.000000 0.000000 -60.708740 0.000000 56.000000 -0.384159 0.905004 -0.182727
-10.00000000 -8480.00000000 -540.00000000 231 157 61 0.000000 0.000000 0.000000 0.000000 -60.708740 0.000000 56.000000 0.417394 0.900840 0.119456
-20.00000000 -8480.00000000 -530.00000000 231 157 61 0.000000 0.000000 0.000000 0.000000 -60.708740 0.000000 56.000000 0.198523 0.946065 0.256026
-10.00000000 -8470.00000000 -560.00000000 231 157 61 0.000000 0.000000 0.000000 0.000000 -60.708740 0.000000 56.000000 0.361442 0.898442 0.249321
-30.00000000 -8470.00000000 -560.00000000 231 157 61 0.000000 0.000000 0.000000 0.000000 -60.708740 0.000000 56.000000 0.373929 0.911362 -0.172036
-30.00000000 -8470.00000000 -540.00000000 231 157 61 0.000000 0.000000 0.000000 0.000000 -60.708740 0.000000 56.000000 0.489717 0.869838 0.059654
-40.00000000 -8470.00000000 -530.00000000 231 157 61 0.000000 0.000000 0.000000 0.000000 -60.708740 0.000000 56.000000 0.696391 0.657969 0.286561
-10.00000000 -8480.00000000 -530.00000000 231 157 61 0.000000 0.000000 0.000000 0.000000 -60.708740 0.000000 56.000000 0.507138 0.807313 0.301755
-20.00000000 -8470.00000000 -550.00000000 231 157 61 0.000000 0.000000 0.000000 0.000000 -60.708740 0.000000 56.000000 0.386608 0.904002 0.182525
-30.00000000 -8480.00000000 -530.00000000 231 157 61 0.000000 0.000000 0.000000 0.000000 -60.708740 0.000000 56.000000 0.332576 0.827501 0.452367
-40.00000000 -8460.00000000 -560.00000000 231 157 61 0.000000 0.000000 0.000000 0.000000 -60.708740 0.000000 56.000000 0.642304 0.703476 0.304249
-30.00000000 -8470.00000000 -540.00000000 231 157 61 0.000000 0.000000 0.000000 0.000000 -60.708740 0.000000 56.000000 0.489717 0.869838 0.059654
-30.00000000 -8480.00000000 -530.00000000 231 157 61 0.000000 0.000000 0.000000 0.000000 -60.708740 0.000000 56.000000 0.332576 0.827501 0.452367
-10.00000000 -8480.00000000 -540.00000000 231 157 61 0.000000 0.000000 0.000000 0.000000 -60.708740 0.000000 56.000000 0.417394 0.900840 0.119456
-20.00000000 -8470.00000000 -560.00000000 231 157 61 0.000000 0.000000 0.000000 0.000000 -60.708740 0.000000 56.000000 0.319201 0.947667 0.006210
-40.00000000 -8460.00000000 -560.00000000 231 157 61 0.000000 0.000000 0.000000 0.000000 -60.708740 0.000000 56.000000 0.642304 0.703476 0.304249
-40.00000000 -8470.00000000 -530.00000000 231 157 61 0.000000 0.000000 0.000000 0.000000 -60.708740 0.000000 56.000000 0.696391 0.657969 0.286561
-30.00000000 -8480.00000000 -600.00000000 231 157 61 0.000000 0.000000 0.000000 0.000000 -60.708740 0.000000 56.000000 0.517255 0.855822 0.004031
-30.00000000 -8480.00000000 -600.00000000 231 157 61 0.000000 0.000000 0.000000 0.000000 -60.708740 0.000000 56.000000 0.517255 0.855822 0.004031
-30.00000000 -8460.00000000 -580.00000000 231 157 61 0.000000 0.000000 0.000000 0.000000 -60.708740 0.000000 56.000000 0.335074 0.942001 -0.018966
-30.00000000 -8460.00000000 -580.00000000 231 157 61 0.000000 0.000000 0.000000 0.000000 -60.708740 0.000000 56.000000 0.335074 0.942001 -0.018966
-10.00000000 -8460.00000000 -590.00000000 231 157 61 0.000000 0.000000 0.000000 0.000000 -60.708740 0.000000 56.000000 0.379900 0.712107 0.590407
-20.00000000 -8510.00000000 -550.00000000 231 157 61 0.000000 0.000000 0.000000 0.000000 -60.708740 0.000000 56.000000 0.392416 0.897159 0.202772
-70.00000000 -8470.00000000 -540.00000000 231 157 61 0.000000 0.000000 0.000000 0.000000 -60.708740 0.000000 56.000000 0.314120 0.919412 -0.236666
-80.00000000 -8460.00000000 -540.00000000 231 157 61 0.000000 0.000000 0.000000 0.000000 -60.708740 0.000000 56.000000 -0.127517 0.988546 0.080722
-80.00000000 -8460.00000000 -590.00000000 231 157 61 0.000000 0.000000 0.000000 0.000000 -60.708740 0.000000 56.000000 0.393844 0.918970 0.019497
-80.00000000 -8460.00000000 -580.00000000 231 157 61 0.000000 0.000000 0.000000 0.000000 -60.708740 0.000000 56.000000 0.225150 0.968019 0.110667
-90.00000000 -8490.00000000 -590.00000000 231 157 61 0.000000 0.000000 0.000000 0.000000 -60.708740 0.000000 56.000000 0.248638 0.911673 0.327156
-90.00000000 -8460.00000000 -570.00000000 231 157 61 0.000000 0.000000 0.000000 0.000000 -60.708740 0.000000 56.000000 0.314104 0.934009 -0.170197
-70.00000000 -8460.00000000 -580.00000000 231 157 61 0.000000 0.000000 0.000000 0.000000 -60.708740 0.000000 56.000000 -0.221721 0.970813 -0.091444
-90.00000000 -8500.00000000 -550.00000000 231 157 61 0.000000 0.000000 0.000000 0.000000 -60.708740 0.000000 56.000000 0.040544 0.966913 -0.251864
-20.00000000 -8480.00000000 -620.00000000 231 157 61 0.000000 0.000000 0.000000 0.000000 -60.708740 0.000000 56.000000 0.376925 0.913373 0.153876
-30.00000000 -8480.00000000 -640.00000000 231 157 61 0.000000 0.000000 0.000000 0.000000 -60.708740 0.000000 56.000000 0.318711 0.899803 0.297958
-30.00000000 -8470.00000000 -620.00000000 231 157 61 0.000000 0.000000 0.000000 0.000000 -60.708740 0.000000 56.000000 0.301997 0.917551 0.258648
-30.00000000 -8480.00000000 -620.00000000 231 157 61 0.000000 0.000000 0.000000 0.000000 -60.708740 0.000000 56.000000 0.328043 0.942308 0.066654
-10.00000000 -8470.00000000 -660.00000000 231 157 61 0.000000 0.000000 0.000000 0.000000 -60.708740 0.000000 56.000000 0.082935 0.996298 -0.022619
-30.00000000 -8490.00000000 -680.00000000 231 157 61 0.000000 0.000000 0.000000 0.000000 -60.708740 0.000000 56.000000 0.308087 0.943095 -0.125118
-10.00000000 -8470.00000000 -660.00000000 231 157 61 0.000000 0.000000 0.000000 0.000000 -60.708740 0.000000 56.000000 0.082935 0.996298 -0.022619
-30.00000000 -8490.00000000 -670.00000000 231 157 61 0.000000 0.000000 0.000000 0.000000 -60.708740 0.000000 56.000000 0.304717 0.905318 -0.295884
-30.00000000 -8460.00000000 -670.00000000 231 157 61 0.000000 0.000000 0.000000 0.000000 -60.708740 0.000000 56.000000 0.055235 0.949270 0.309573
-10.00000000 -8480.00000000 -680.00000000 231 157 61 0.000000 0.000000 0.000000 0.000000 -60.708740 0.000000 56.000000 0.466285 0.881070 -0.079338
-10.00000000 -8500.00000000 -640.00000000 231 157 61 0.000000 0.000000 0.000000 0.000000 -60.708740 0.000000 56.000000 0.395189 0.915814 0.071485
-20.00000000 -8500.00000000 -630.00000000 231 157 61 0.000000 0.000000 0.000000 0.000000 -60.708740 0.000000 56.000000 0.429078 0.874602 -0.225752
-10.00000000 -8510.00000000 -640.00000000 231 157 61 0.000000 0.000000 0.000000 0.000000 -60.708740 0.000000 56.000000 0.176619 0.975787 0.129019
-30.00000000 -8500.00000000 -630.00000000 231 157 61 0.000000 0.000000 0.000000 0.000000 -60.708740 0.000000 56.000000 0.176425 0.959062 0.221526
-20.00000000 -8500.00000000 -650.00000000 231 157 61 0.000000 0.000000 0.000000 0.000000 -60.708740 0.000000 56.000000 0.482531 0.869694 0.103908
-90.00000000 -8480.00000000 -610.00000000 231 157 61 0.000000 0.000000 0.000000 0.000000 -60.708740 0.000000 56.000000 0.230903 0.969794 -0.078632
-80.00000000 -8490.00000000 -650.00000000 231 157 61 0.000000 0.000000 0.000000 0.000000 -60.708740 0.000000 56.000000 -0.032095 0.999094 -0.027954
-70.00000000 -8490.00000000 -650.00000000 231 157 61 0.000000 0.000000 0.000000 0.000000 -60.708740 0.000000 56.000000 -0.131628 0.937680 -0.321607
-80.00000000 -8470.00000000 -620.00000000 231 157 61 0.000000 0.000000 0.000000 0.000000 -60.708740 0.000000 56.000000 0.109009 0.994035 -0.003238
-50.00000000 -8460.00000000 -610.00000000 231 157 61 0.000000 0.000000 0.000000 0.000000 -60.708740 0.000000 56.000000 0.479869 0.875864 -0.050874
-90.00000000 -8480.00000000 -640.00000000 231 157 61 0.000000 0.000000 0.000000 0.000000 -60.708740 0.000000 56.000000 -0.480050 0.870357 -0.109685
-90.00000000 -8480.00000000 -690.00000000 231 157 61 0.000000 0.000000 0.000000 0.000000 -60.708740 0.000000 56.000000 0.075065 0.904878 -0.419001
-50.00000000 -8460.00000000 -680.00000000 231 157 61 0.000000 0.000000 0.000000 0.000000 -60.708740 0.000000 56.000000 -0.169370 0.956205 0.238718
-70.00000000 -8490.00000000 -670.00000000 231 157 61 0.000000 0.000000 0.000000 0.000000 -60.708740 0.000000 56.000000 -0.108039 0.986597 -0.122286
-80.00000000 -8490.00000000 -660.00000000 231 157 61 0.000000 0.000000 0.000000 0.000000 -60.708740 0.000000 56.000000 0.017773 0.998419 -0.053319
-70.00000000 -8470.00000000 -680.00000000 231 157 61 0.000000 0.000000 0.000000 0.000000 -60.708740 0.000000 56.000000 -0.075008 0.940891 -0.330299
-90.00000000 -8490.00000000 -670.00000000 231 157 61 0.000000 0.000000 0.000000 0.000000 -60.708740 0.000000 56.000000 -0.361406 0.929519 -0.073348
-90.00000000 -8480.00000000 -690.00000000 231 157 61 0.000000 0.000000 0.000000 0.000000 -60.708740 0.000000 56.000000 0.075065 0.904878 -0.419001
-90.00000000 -8490.00000000 -670.00000000 231 157 61 0.000000 0.000000 0.000000 0.000000 -60.708740 0.000000 56.000000 -0.361406 0.929519 -0.073348
-90.00000000 -8480.00000000 -690.00000000 231 157 61 0.000000 0.000000 0.000000 0.000000 -60.708740 0.000000 56.000000 0.075065 0.904878 -0.419001
-70.00000000 -8510.00000000 -610.00000000 231 157 61 0.000000 0.000000 0.000000 0.000000 -60.708740 0.000000 56.000000 0.277611 0.906277 0.318739
-120.00000000 -8500.00000000 -600.00000000 231 157 61 0.000000 0.000000 0.000000 0.000000 -60.708740 0.000000 56.000000 -0.475390 0.879403 -0.025588
-140.00000000 -8490.00000000 -560.00000000 231 157 61 0.000000 0.000000 0.000000 0.000000 -60.708740 0.000000 56.000000 -0.313571 0.945960 -0.082657
-160.00000000 -8470.00000000 -540.00000000 231 157 61 0.000000 0.000000 0.000000 0.000000 -60.708740 0.000000 56.000000 -0.218975 0.928171 0.300914
-140.00000000 -8490.00000000 -600.00000000 231 157 61 0.000000 0.000000 0.000000 0.000000 -60.708740 0.000000 56.000000 -0.330476 0.796654 -0.506091
-160.00000000 -8490.00000000 -570.00000000 231 157 61 0.000000 0.000000 0.000000 0.000000 -60.708740 0.000000 56.000000 -0.533141 0.845625 -0.026040
-160.00000000 -8510.00000000 -590.00000000 231 157 61 0.000000 0.000000 0.000000 0.000000 -60.708740 0.000000 56.000000 -0.511105 0.809906 -0.287792
-170.00000000 -8520.00000000 -600.00000000 231 157 61 0.000000 0.000000 0.000000 0.000000 -60.708740 0.000000 56.000000 0.525936 -0.660361 0.536018
-160.00000000 -8500.00000000 -600.00000000 231 157 61 0.000000 0.000000 0.000000 0.000000 -60.708740 0.000000 56.000000 -0.181896 0.952596 -0.243875
-170.00000000 -8520.00000000 -600.00000000 231 157 61 0.000000 0.000000 0.000000 0.000000 -60.708740 0.000000 56.000000 0.525936 -0.660361 0.536018
-150.00000000 -8520.00000000 -570.00000000 231 157 61 0.000000 0.000000 0.000000 0.000000 -60.708740 0.000000 56.000000 -0.262824 0.964502 0.025671
-130.00000000 -8480.00000000 -640.00000000 231 157 61 0.000000 0.000000 0.000000 0.000000 -60.708740 0.000000 56.000000 -0.227139 0.957704 0.176664
-100.00000000 -8490.00000000 -630.00000000 231 157 61 0.000000 0.000000 0.000000 0.000000 -60.708740 0.000000 56.000000 -0.491124 0.848579 -0.196750
-110.00000000 -8490.00000000 -640.00000000 231 157 61 0.000000 0.000000 0.000000 0.000000 -60.708740 0.000000 56.000000 -0.459329 0.829301 -0.318238
-120.00000000 -8490.00000000 -620.00000000 231 157 61 0.000000 0.000000 0.000000 0.000000 -60.708740 0.000000 56.000000 -0.032244 0.992897 -0.114522
-100.00000000 -8480.00000000 -640.00000000 231 157 61 0.000000 0.000000 0.000000 0.000000 -60.708740 0.000000 56.000000 -0.533063 0.844828 -0.045930
-130.00000000 -8480.00000000 -630.00000000 231 157 61 0.000000 0.000000 0.000000 0.000000 -60.708740 0.000000 56.000000 -0.129953 0.978982 -0.157182
-110.00000000 -8490.00000000 -640.00000000 231 157 61 0.000000 0.000000 0.000000 0.000000 -60.708740 0.000000 56.000000 -0.459329 0.829301 -0.318238
-130.00000000 -8480.00000000 -640.00000000 231 157 61 0.000000 0.000000 0.000000 0.000000 -60.708740 0.000000 56.000000 -0.227139 0.957704 0.176664
-130.00000000 -8480.00000000 -620.00000000 231 157 61 0.000000 0.000000 0.000000 0.000000 -60.708740 0.000000 56.000000 -0.287450 0.776591 -0.560606
-120.00000000 -8460.00000000 -610.00000000 231 157 61 0.000000 0.000000 0.000000 0.000000 -60.708740 0.000000 56.000000 -0.494811 0.851432 -0.173853
-100.00000000 -8470.00000000 -670.00000000 231 157 61 0.000000 0.000000 0.000000 0.000000 -60.708740 0.000000 56.000000 -0.174836 0.971167 -0.162074
-120.00000000 -8490.00000000 -690.00000000 231 157 61 0.000000 0.000000 0.000000 0.000000 -60.708740 0.000000 56.000000 -0.354347 0.847624 -0.394933
-100.00000000 -8490.00000000 -690.00000000 231 157 61 0.000000 0.000000 0.000000 0.000000 -60.708740 0.000000 56.000000 -0.308039 0.951334 0.008660
-120.00000000 -8500.00000000 -650.00000000 231 157 61 0.000000 0.000000 0.000000 0.000000 -60.708740 0.000000 56.000000 -0.577706 0.796051 -0.180438
-130.00000000 -8510.00000000 -650.00000000 231 157 61 0.000000 0.000000 0.000000 0.000000 -60.708740 0.000000 56.000000 -0.622520 0.697680 -0.354559
-120.00000000 -8540.00000000 -690.00000000 231 157 61 0.000000 0.000000 0.000000 0.000000 -60.708740 0.000000 56.000000 0.333629 -0.629826 0.701435
-160.00000000 -8490.00000000 -620.00000000 231 157 61 0.000000 0.000000 0.000000 0.000000 -60.708740 0.000000 56.000000 -0.620291 0.783452 -0.037977
-160.00000000 -8490.00000000 -620.00000000 231 157 61 0.000000 0.000000 0.000000 0.000000 -60.708740 0.000000 56.000000 -0.620291 0.783452 -0.037977
-160.00000000 -8490.00000000 -660.00000000 231 157 61 0.000000 0.000000 0.000000 0.000000 -60.708740 0.000000 56.000000 0.745803 -0.612794 0.261269
-140.00000000 -8510.00000000 -630.00000000 231 157 61 0.000000 0.000000 0.000000 0.000000 -60.708740 0.000000 56.000000 -0.607361 0.793374 -0.040867
-170.00000000 -8510.00000000 -640.00000000 231 157 61 0.000000 0.000000 0.000000 0.000000 -60.708740 0.000000 56.000000 -0.360365 0.802412 -0.475681
-140.00000000 -8520.00000000 -640.00000000 231 157 61 0.000000 0.000000 0.000000 0.000000 -60.708740 0.000000 56.000000 -0.271391 0.871786 -0.407844
-170.00000000 -8530.00000000 -620.00000000 231 157 61 0.000000 0.000000 0.000000 0.000000 -60.708740 0.000000 56.000000 -0.268336 0.951860 -0.148186
-170.00000000 -8530.00000000 -610.00000000 231 157 61 0.000000 0.000000 0.000000 0.000000 -60.708740 0.000000 56.000000 -0.500202 0.825411 -0.261716
-160.00000000 -8530.00000000 -650.00000000 231 157 61 0.000000 0.000000 0.000000 0.000000 -60.708740 0.000000 56.000000 0.621963 -0.457671 0.635374
-150.00000000 -8510.00000000 -630.00000000 231 157 61 0.000000 0.000000 0.000000 0.000000 -60.708740 0.000000 56.000000 -0.308664 0.950986 -0.018745
-160.00000000 -8540.00000000 -660.00000000 231 157 61 0.000000 0.000000 0.000000 0.000000 -60.708740 0.000000 56.000000 -0.524352 0.829594 -0.191910
-170.00000000 -8510.00000000 -670.00000000 231 157 61 0.000000 0.000000 0.000000 0.000000 -60.708740 0.000000 56.000000 -0.558502 0.747384 -0.359851
-140.00000000 -8540.00000000 -680.00000000 231 157 61 0.000000 0.000000 0.000000 0.000000 -60.708740 0.000000 56.000000 -0.486439 0.627826 -0.607628
-150.00000000 -8520.00000000 -680.00000000 231 157 61 0.000000 0.000000 0.000000 0.000000 -60.708740 0.000000 56.000000 -0.591731 0.790481 -0.158096
-170.00000000 -8570.00000000 -620.00000000 231 157 61 0.000000 0.000000 0.000000 0.000000 -60.708740 0.000000 56.000000 0.763044 -0.488544 0.423187
-170.00000000 -8580.00000000 -610.00000000 231 157 61 0.000000 0.000000 0.000000 0.000000 -60.708740 0.000000 56.000000 0.689722 -0.199942 0.695922
-170.00000000 -8570.00000000 -690.00000000 231 157 61 0.000000 0.000000 0.000000 0.000000 -60.708740 0.000000 56.000000 0.798352 -0.533809 0.278715
-40.00000000 -8650.00000000 -380.00000000 231 157 61 0.000000 0.000000 0.000000 0.000000 -60.708740 0.000000 56.000000 0.797075 -0.384850 0.465363
-40.00000000 -8640.00000000 -370.00000000 231 157 61 0.000000 0.000000 0.000000 0.000000 -60.708740 0.000000 56.000000 0.705666 -0.386553 0.593812
-40.00000000 -8660.00000000 -380.00000000 231 157 61 0.000000 0.000000 0.000000 0.000000 -60.708740 0.000000 56.000000 0.717088 -0.596212 0.360994
-10.00000000 -8660.00000000 -440.00000000 231 157 61 0.000000 0.000000 0.000000 0.000000 -60.708740 0.000000 56.000000 0.594430 -0.390249 0.703107
-10.00000000 -8630.00000000 -410.00000000 231 157 61 0.000000 0.000000 0.000000 0.000000 -60.708740 0.000000 56.000000 0.908148 -0.258844 0.329039
-30.00000000 -8660.00000000 -410.00000000 231 157 61 0.000000 0.000000 0.000000 0.000000 -60.708740 0.000000 56.000000 0.866157 -0.156288 0.474707
-20.00000000 -8630.00000000 -440.00000000 231 157 61 0.000000 0.000000 0.000000 0.000000 -60.708740 0.000000 56.000000 0.886973 -0.301661 0.349686
-50.00000000 -8640.00000000 -360.00000000 231 157 61 0.000000 0.000000 0.000000 0.000000 -60.708740 0.000000 56.000000 0.825017 -0.356293 0.438637
-50.00000000 -8650.00000000 -360.00000000 231 157 61 0.000000 0.000000 0.000000 0.000000 -60.708740 0.000000 56.000000 0.742771 -0.518787 0.423264
-50.00000000 -8640.00000000 -360.00000000 231 157 61 0.000000 0.000000 0.000000 0.000000 -60.708740 0.000000 56.000000 0.825017 -0.356293 0.438637
-80.00000000 -8700.00000000 -390.00000000 231 157 61 0.000000 0.000000 0.000000 0.000000 -60.708740 0.000000 56.000000 -0.439245 0.772353 -0.458840
-80.00000000 -8680.00000000 -360.00000000 231 157 61 0.000000 0.000000 0.000000 0.000000 -60.708740 0.000000 56.000000 0.923755 -0.292689 0.247001
-80.00000000 -8680.00000000 -370.00000000 231 157 61 0.000000 0.000000 0.000000 0.000000 -60.708740 0.000000 56.000000 0.727321 -0.275331 0.628647
-50.00000000 -8690.00000000 -430.00000000 231 157 61 0.000000 0.000000 0.000000 0.000000 -60.708740 0.000000 56.000000 0.752349 -0.561431 0.344625
-80.00000000 -8690.00000000 -430.00000000 231 157 61 0.000000 0.000000 0.000000 0.000000 -60.708740 0.000000 56.000000 0.689351 -0.683041 0.241352
-50.00000000 -8690.00000000 -420.00000000 231 157 61 0.000000 0.000000 0.000000 0.000000 -60.708740 0.000000 56.000000 0.712706 -0.560574 0.421671
-70.00000000 -8680.00000000 -440.00000000 231 157 61 0.000000 0.000000 0.000000 0.000000 -60.708740 0.000000 56.000000 0.746800 -0.607271 0.271131
-10.00000000 -8660.00000000 -500.00000000 231 157 61 0.000000 0.000000 0.000000 0.000000 -60.708740 0.000000 56.000000 0.648216 -0.399540 0.648216
-20.00000000 -8680.00000000 -480.00000000 231 157 61 0.000000 0.000000 0.000000 0.000000 -60.708740 0.000000 56.000000 -0.460496 0.668137 -0.584411
-30.00000000 -8680.00000000 -450.00000000 231 157 61 0.000000 0.000000 0.000000 0.000000 -60.708740 0.000000 56.000000 0.788364 -0.502562 0.354844
-20.00000000 -8680.00000000 -510.00000000 231 157 61 0.000000 0.000000 0.000000 0.000000 -60.708740 0.000000 56.000000 0.636413 -0.707304 0.307734
-40.00000000 -8700.00000000 -510.00000000 231 157 61 0.000000 0.000000 0.000000 0.000000 -60.708740 0.000000 56.000000 -0.424075 0.778284 -0.463071
-10.00000000 -8690.00000000 -520.00000000 231 157 61 0.000000 0.000000 0.000000 0.000000 -60.708740 0.000000 56.000000 -0.677788 0.427989 -0.597853
-90.00000000 -8690.00000000 -480.00000000 231 157 61 0.000000 0.000000 0.000000 0.000000 -60.708740 0.000000 56.000000 -0.762206 0.393344 -0.514122
-50.00000000 -8680.00000000 -470.00000000 231 157 61 0.000000 0.000000 0.000000 0.000000 -60.708740 0.000000 56.000000 -0.547401 0.707129 -0.447571
-60.00000000 -8690.00000000 -460.00000000 231 157 61 0.000000 0.000000 0.000000 0.000000 -60.708740 0.000000 56.000000 0.779004 -0.390312 0.490724
-50.00000000 -8690.00000000 -470.00000000 231 157 61 0.000000 0.000000 0.000000 0.000000 -60.708740 0.000000 56.000000 0.776890 -0.381147 0.501167
-50.00000000 -8700.00000000 -520.00000000 231 157 61 0.000000 0.000000 0.000000 0.000000 -60.708740 0.000000 56.000000 -0.531293 0.814650 -0.232537
-60.00000000 -8690.00000000 -490.00000000 231 157 61 0.000000 0.000000 0.000000 0.000000 -60.708740 0.000000 56.000000 -0.268157 0.801335 -0.534746
-60.00000000 -8710.00000000 -500.00000000 231 157 61 0.000000 0.000000 0.000000 0.000000 -60.708740 0.000000 56.000000 0.604262 -0.617727 0.503271
-90.00000000 -8710.00000000 -480.00000000 231 157 61 0.000000 0.000000 0.000000 0.000000 -60.708740 0.000000 56.000000 -0.256132 0.929716 -0.264622
-80.00000000 -8710.00000000 -490.00000000 231 157 61 0.000000 0.000000 0.000000 0.000000 -60.708740 0.000000 56.000000 -0.273897 0.812300 -0.514926
-40.00000000 -8720.00000000 -520.00000000 231 157 61 0.000000 0.000000 0.000000 0.000000 -60.708740 0.000000 56.000000 -0.243213 0.949754 -0.197016
-120.00000000 -8660.00000000 -360.00000000 231 157 61 0.000000 0.000000 0.000000 0.000000 -60.708740 0.000000 56.000000 0.424244 -0.489765 0.761674
-120.00000000 -8670.00000000 -370.00000000 231 157 61 0.000000 0.000000 0.000000 0.000000 -60.708740 0.000000 56.000000 0.773310 -0.085601 0.628223
-120.00000000 -8670.00000000 -370.00000000 231 157 61 0.000000 0.000000 0.000000 0.000000 -60.708740 0.000000 56.000000 0.773310 -0.085601 0.628223
-120.00000000 -8670.00000000 -370.00000000 231 157 61 0.000000 0.000000 0.000000 0.000000 -60.708740 0.000000 56.000000 0.773310 -0.085601 0.628223
-170.00000000 -8660.00000000 -400.00000000 231 157 61 0.000000 0.000000 0.000000 0.000000 -60.708740 0.000000 56.000000 -0.505487 0.768795 -0.391712
-170.00000000 -8680.00000000 -440.00000000 231 157 61 0.000000 0.000000 0.000000 0.000000 -60.708740 0.000000 56.000000 -0.355695 0.934497 -0.014024
-100.00000000 -8690.00000000 -460.00000000 231 157 61 0.000000 0.000000 0.000000 0.000000 -60.708740 0.000000 56.000000 -0.292696 0.824870 -0.483652
-130.00000000 -8680.00000000 -500.00000000 231 157 61 0.000000 0.000000 0.000000 0.000000 -60.708740 0.000000 56.000000 0.092914 0.974982 -0.201934
-170.00000000 -8650.00000000 -510.00000000 231 157 61 0.000000 0.000000 0.000000 0.000000 -60.708740 0.000000 56.000000 0.354506 0.833482 0.423831
-170.00000000 -8650.00000000 -520.00000000 231 157 61 0.000000 0.000000 0.000000 0.000000 -60.708740 0.000000 56.000000 0.546387 0.830450 -0.108698
-150.00000000 -8690.00000000 -480.00000000 231 157 61 0.000000 0.000000 0.000000 0.000000 -60.708740 0.000000 56.000000 -0.216003 0.919801 -0.327581
-170.00000000 -8670.00000000 -480.00000000 231 157 61 0.000000 0.000000 0.000000 0.000000 -60.708740 0.000000 56.000000 0.268465 0.927554 -0.259942
-160.00000000 -8700.00000000 -450.00000000 231 157 61 0.000000 0.000000 0.000000 0.000000 -60.708740 0.000000 56.000000 -0.163667 0.884958 -0.435961
-150.00000000 -8690.00000000 -500.00000000 231 157 61 0.000000 0.000000 0.000000 0.000000 -60.708740 0.000000 56.000000 0.079981 0.963581 0.255177
-140.00000000 -8690.00000000 -500.00000000 231 157 61 0.000000 0.000000 0.000000 0.000000 -60.708740 0.000000 56.000000 0.127550 0.955968 -0.264305
-160.00000000 -8670.00000000 -490.00000000 231 157 61 0.000000 0.000000 0.000000 0.000000 -60.708740 0.000000 56.000000 -0.123309 0.969948 -0.209753
-140.00000000 -8690.00000000 -500.00000000 231 157 61 0.000000 0.000000 0.000000 0.000000 -60.708740 0.000000 56.000000 0.127550 0.955968 -0.264305
-110.00000000 -8730.00000000 -490.00000000 231 157 61 0.000000 0.000000 0.000000 0.000000 -60.708740 0.000000 56.000000 -0.452509 0.886806 0.093864
-10.00000000 -8660.00000000 -590.00000000 231 157 61 0.000000 0.000000 0.000000 0.000000 -60.708740 0.000000 56.000000 0.848436 -0.473723 0.236100
-10.00000000 -8670.00000000 -560.00000000 231 157 61 0.000000 0.000000 0.000000 0.000000 -60.708740 0.000000 56.000000 0.783724 -0.468937 0.407277
-90.00000000 -8680.00000000 -550.00000000 231 157 61 0.000000 0.000000 0.000000 0.000000 -60.708740 0.000000 56.000000 -0.184102 0.980677 -0.066181
-80.00000000 -8680.00000000 -560.00000000 231 157 61 0.000000 0.000000 0.000000 0.000000 -60.708740 0.000000 56.000000 -0.359117 0.690358 -0.628045
-50.00000000 -8700.00000000 -570.00000000 231 157 61 0.000000 0.000000 0.000000 0.000000 -60.708740 0.000000 56.000000 -0.176933 0.932031 -0.316250
-60.00000000 -8690.00000000 -580.00000000 231 157 61 0.000000 0.000000 0.000000 0.000000 -60.708740 0.000000 56.000000 -0.138275 0.986833 -0.083910
-50.00000000 -8690.00000000 -610.00000000 231 157 61 0.000000 0.000000 0.000000 0.000000 -60.708740 0.000000 56.000000 -0.472860 0.864700 -0.169405
-10.00000000 -8710.00000000 -560.00000000 231 157 61 0.000000 0.000000 0.000000 0.000000 -60.708740 0.000000 56.000000 -0.510288 0.804138 -0.304909
-40.00000000 -8730.00000000 -550.00000000 231 157 61 0.000000 0.000000 0.000000 0.000000 -60.708740 0.000000 56.000000 -0.358750 0.751589 -0.553546
-20.00000000 -8720.00000000 -590.00000000 231 157 61 0.000000 0.000000 0.000000 0.000000 -60.708740 0.000000 56.000000 -0.621531 0.680882 -0.387427
-20.00000000 -8710.00000000 -590.00000000 231 157 61 0.000000 0.000000 0.000000 0.000000 -60.708740 0.000000 56.000000 0.546953 -0.530123 0.647929
-10.00000000 -8720.00000000 -570.00000000 231 157 61 0.000000 0.000000 0.000000 0.000000 -60.708740 0.000000 56.000000 -0.384536 0.777185 -0.498112
-20.00000000 -8730.00000000 -600.00000000 231 157 61 0.000000 0.000000 0.000000 0.000000 -60.708740 0.000000 56.000000 0.027780 0.906171 -0.421998
-20.00000000 -8720.00000000 -590.00000000 231 157 61 0.000000 0.000000 0.000000 0.000000 -60.708740 0.000000 56.000000 -0.621531 0.680882 -0.387427
-20.00000000 -8720.00000000 -570.00000000 231 157 61 0.000000 0.000000 0.000000 0.000000 -60.708740 0.000000 56.000000 -0.308295 0.847425 -0.432233
-20.00000000 -8710.00000000 -600.00000000 231 157 61 0.000000 0.000000 0.000000 0.000000 -60.708740 0.000000 56.000000 -0.581467 0.812938 -0.032071
-10.00000000 -8710.00000000 -600.00000000 231 157 61 0.000000 0.000000 0.000000 0.000000 -60.708740 0.000000 56.000000 0.784743 -0.561430 0.262630
-30.00000000 -8740.00000000 -570.00000000 231 157 61 0.000000 0.000000 0.000000 0.000000 -60.708740 0.000000 56.000000 -0.415362 0.909655 -0.001294
-10.00000000 -8710.00000000 -570.00000000 231 157 61 0.000000 0.000000 0.000000 0.000000 -60.708740 0.000000 56.000000 0.711699 -0.555756 0.429674
-30.00000000 -8730.00000000 -590.00000000 231 157 61 0.000000 0.000000 0.000000 0.000000 -60.708740 0.000000 56.000000 -0.669484 0.734511 -0.110842
-60.00000000 -8710.00000000 -550.00000000 231 157 61 0.000000 0.000000 0.000000 0.000000 -60.708740 0.000000 56.000000 -0.526321 0.845823 -0.087007
-60.00000000 -8730.00000000 -530.00000000 231 157 61 0.000000 0.000000 0.000000 0.000000 -60.708740 0.000000 56.000000 -0.546673 0.784357 -0.293143
-60.00000000 -8710.00000000 -540.00000000 231 157 61 0.000000 0.000000 0.000000 0.000000 -60.708740 0.000000 56.000000 -0.394405 0.917622 -0.049135
-60.00000000 -8710.00000000 -560.00000000 231 157 61 0.000000 0.000000 0.000000 0.000000 -60.708740 0.000000 56.000000 0.688868 -0.640012 0.340362
-70.00000000 -8720.00000000 -550.00000000 231 157 61 0.000000 0.000000 0.000000 0.000000 -60.708740 0.000000 56.000000 -0.472263 0.702554 -0.532339
-60.00000000 -8730.00000000 -590.00000000 231 157 61 0.000000 0.000000 0.000000 0.000000 -60.708740 0.000000 56.000000 -0.170308 0.959799 -0.223117
-80.00000000 -8730.00000000 -570.00000000 231 157 61 0.000000 0.000000 0.000000 0.000000 -60.708740 0.000000 56.000000 -0.410095 0.912042 0.001294
