//X Y Z R G B PointSourceId ScanDirectionFlag NumberOfReturns ReturnNumber GpsTime Intensity Classification Nx Ny Nz
-17110.00000000 -1120.00000000 -190.00000000 134 80 148 97.000000 1.000000 4.000000 1.000000 -60.708740 114.000000 189.000000 0.407432 0.714242 0.569085
-17180.00000000 -1110.00000000 -210.00000000 134 80 148 97.000000 1.000000 4.000000 1.000000 -60.708740 114.000000 189.000000 0.271994 0.720546 0.637834
-17110.00000000 -1070.00000000 -280.00000000 134 80 148 97.000000 1.000000 4.000000 1.000000 -60.708740 114.000000 189.000000 0.529577 0.730849 0.430591
-17110.00000000 -1070.00000000 -280.00000000 134 80 148 97.000000 1.000000 4.000000 1.000000 -60.708740 114.000000 189.000000 0.529577 0.730849 0.430591
-17060.00000000 -1250.00000000 -40.00000000 134 80 148 97.000000 1.000000 4.000000 1.000000 -60.708740 114.000000 189.000000 0.058848 0.744925 0.664548
-17040.00000000 -1250.00000000 -70.00000000 134 80 148 97.000000 1.000000 4.000000 1.000000 -60.708740 114.000000 189.000000 -0.133273 0.930160 0.342112
-17030.00000000 -1220.00000000 -90.00000000 134 80 148 97.000000 1.000000 4.000000 1.000000 -60.708740 114.000000 189.000000 -0.277315 0.943965 0.178957
-17020.00000000 -1280.00000000 -100.00000000 134 80 148 97.000000 1.000000 4.000000 1.000000 -60.708740 114.000000 189.000000 -0.286326 0.939205 0.189501
-17090.00000000 -1250.00000000 -40.00000000 134 80 148 97.000000 1.000000 4.000000 1.000000 -60.708740 114.000000 189.000000 0.104747 -0.739132 -0.665366
-17070.00000000 -1220.00000000 -70.00000000 134 80 148 97.000000 1.000000 4.000000 1.000000 -60.708740 114.000000 189.000000 0.245696 0.771516 0.586853
-17050.00000000 -1220.00000000 -140.00000000 134 80 148 97.000000 1.000000 4.000000 1.000000 -60.708740 114.000000 189.000000 0.052888 0.945534 0.321198
-17050.00000000 -1220.00000000 -140.00000000 134 80 148 97.000000 1.000000 4.000000 1.000000 -60.708740 114.000000 189.000000 0.052888 0.945534 0.321198
-17020.00000000 -1280.00000000 -110.00000000 134 80 148 97.000000 1.000000 4.000000 1.000000 -60.708740 114.000000 189.000000 -0.042259 0.974368 0.220953
-17060.00000000 -1280.00000000 -140.00000000 134 80 148 97.000000 1.000000 4.000000 1.000000 -60.708740 114.000000 189.000000 0.302039 0.804909 0.510777
-17050.00000000 -1280.00000000 -140.00000000 134 80 148 97.000000 1.000000 4.000000 1.000000 -60.708740 114.000000 189.000000 0.147409 0.988441 0.035424
-17020.00000000 -1280.00000000 -110.00000000 134 80 148 97.000000 1.000000 4.000000 1.000000 -60.708740 114.000000 189.000000 -0.042259 0.974368 0.220953
-17090.00000000 -1230.00000000 -170.00000000 134 80 148 97.000000 1.000000 4.000000 1.000000 -60.708740 114.000000 189.000000 0.312272 0.652050 0.690882
-17080.00000000 -1220.00000000 -150.00000000 134 80 148 97.000000 1.000000 4.000000 1.000000 -60.708740 114.000000 189.000000 0.447638 0.869994 0.206716
-17100.00000000 -1220.00000000 -180.00000000 134 80 148 97.000000 1.000000 4.000000 1.000000 -60.708740 114.000000 189.000000 0.422278 0.787928 0.448164
-17030.00000000 -1330.00000000 -150.00000000 134 80 148 97.000000 1.000000 4.000000 1.000000 -60.708740 114.000000 189.000000 0.065817 0.989566 0.128170
-17110.00000000 -1220.00000000 -60.00000000 134 80 148 97.000000 1.000000 4.000000 1.000000 -60.708740 114.000000 189.000000 -0.032030 0.939124 0.342082
-17120.00000000 -1320.00000000 -140.00000000 134 80 148 97.000000 1.000000 4.000000 1.000000 -60.708740 114.000000 189.000000 0.499636 0.835783 0.227663
-17120.00000000 -1320.00000000 -130.00000000 134 80 148 97.000000 1.000000 4.000000 1.000000 -60.708740 114.000000 189.000000 0.496581 0.843734 0.203764
-17070.00000000 -1230.00000000 -190.00000000 134 80 148 97.000000 1.000000 4.000000 1.000000 -60.708740 114.000000 189.000000 -0.068125 0.952468 0.296923
-16880.00000000 -1470.00000000 -40.00000000 134 80 148 97.000000 1.000000 4.000000 1.000000 -60.708740 114.000000 189.000000 -0.438054 0.671239 0.597952
-16870.00000000 -1470.00000000 -30.00000000 134 80 148 97.000000 1.000000 4.000000 1.000000 -60.708740 114.000000 189.000000 -0.469829 0.882749 0.003970
-16970.00000000 -1450.00000000 -100.00000000 134 80 148 97.000000 1.000000 4.000000 1.000000 -60.708740 114.000000 189.000000 0.044529 0.976033 0.213018
-16960.00000000 -1450.00000000 -80.00000000 134 80 148 97.000000 1.000000 4.000000 1.000000 -60.708740 114.000000 189.000000 0.053955 0.864670 0.499434
-16990.00000000 -1430.00000000 -120.00000000 134 80 148 97.000000 1.000000 4.000000 1.000000 -60.708740 114.000000 189.000000 0.147585 0.857745 0.492436
-16960.00000000 -1490.00000000 -30.00000000 134 80 148 97.000000 1.000000 4.000000 1.000000 -60.708740 114.000000 189.000000 -0.194500 0.921389 0.336470
-16970.00000000 -1500.00000000 -40.00000000 134 80 148 97.000000 1.000000 4.000000 1.000000 -60.708740 114.000000 189.000000 -0.062368 0.874539 0.480927
-16970.00000000 -1500.00000000 -50.00000000 134 80 148 97.000000 1.000000 4.000000 1.000000 -60.708740 114.000000 189.000000 -0.080603 0.852700 0.516145
-16990.00000000 -1500.00000000 -50.00000000 134 80 148 97.000000 1.000000 4.000000 1.000000 -60.708740 114.000000 189.000000 -0.345880 0.902233 0.257571
-16980.00000000 -1490.00000000 -70.00000000 134 80 148 97.000000 1.000000 4.000000 1.000000 -60.708740 114.000000 189.000000 -0.455418 0.799798 0.391048
-17220.00000000 -1050.00000000 -210.00000000 134 80 148 97.000000 1.000000 4.000000 1.000000 -60.708740 114.000000 189.000000 0.530485 0.412234 0.740708
-17210.00000000 -1080.00000000 -240.00000000 134 80 148 97.000000 1.000000 4.000000 1.000000 -60.708740 114.000000 189.000000 0.722951 0.664375 0.189601
-17210.00000000 -1120.00000000 -220.00000000 134 80 148 97.000000 1.000000 4.000000 1.000000 -60.708740 114.000000 189.000000 0.453985 0.533807 0.713406
-17220.00000000 -1090.00000000 -270.00000000 134 80 148 97.000000 1.000000 4.000000 1.000000 -60.708740 114.000000 189.000000 0.640445 0.392211 0.660304
-17220.00000000 -1090.00000000 -270.00000000 134 80 148 97.000000 1.000000 4.000000 1.000000 -60.708740 114.000000 189.000000 0.640445 0.392211 0.660304
-17250.00000000 -1110.00000000 -210.00000000 134 80 148 97.000000 1.000000 4.000000 1.000000 -60.708740 114.000000 189.000000 0.477899 0.474592 0.739172
-17240.00000000 -1100.00000000 -250.00000000 134 80 148 97.000000 1.000000 4.000000 1.000000 -60.708740 114.000000 189.000000 0.528724 0.442537 0.724302
-17240.00000000 -1100.00000000 -250.00000000 134 80 148 97.000000 1.000000 4.000000 1.000000 -60.708740 114.000000 189.000000 0.528724 0.442537 0.724302
-17290.00000000 -1140.00000000 -200.00000000 134 80 148 97.000000 1.000000 4.000000 1.000000 -60.708740 114.000000 189.000000 0.416074 0.852256 0.317083
-17280.00000000 -1160.00000000 -230.00000000 134 80 148 97.000000 1.000000 4.000000 1.000000 -60.708740 114.000000 189.000000 0.854352 0.367480 0.367480
-17350.00000000 -1240.00000000 -150.00000000 134 80 148 97.000000 1.000000 4.000000 1.000000 -60.708740 114.000000 189.000000 0.347800 0.658045 0.667842
-17360.00000000 -1150.00000000 -180.00000000 134 80 148 97.000000 1.000000 4.000000 1.000000 -60.708740 114.000000 189.000000 0.671562 0.483993 0.561030
-17420.00000000 -1170.00000000 -180.00000000 134 80 148 97.000000 1.000000 4.000000 1.000000 -60.708740 114.000000 189.000000 0.898979 0.430904 0.078471
-17440.00000000 -1210.00000000 -160.00000000 134 80 148 97.000000 1.000000 4.000000 1.000000 -60.708740 114.000000 189.000000 0.851432 0.173853 0.494811
-17470.00000000 -1210.00000000 -50.00000000 134 80 148 97.000000 1.000000 4.000000 1.000000 -60.708740 114.000000 189.000000 0.611502 0.681103 0.402696
-17480.00000000 -1200.00000000 -110.00000000 134 80 148 97.000000 1.000000 4.000000 1.000000 -60.708740 114.000000 189.000000 0.776657 0.168049 0.607094
-17390.00000000 -1130.00000000 -190.00000000 134 80 148 97.000000 1.000000 4.000000 1.000000 -60.708740 114.000000 189.000000 0.622814 0.755722 0.202453
-17370.00000000 -1190.00000000 -190.00000000 134 80 148 97.000000 1.000000 4.000000 1.000000 -60.708740 114.000000 189.000000 0.872139 0.274534 0.404976
-17410.00000000 -1210.00000000 -190.00000000 134 80 148 97.000000 1.000000 4.000000 1.000000 -60.708740 114.000000 189.000000 0.791509 0.600607 0.113073
-17410.00000000 -1330.00000000 -70.00000000 134 80 148 97.000000 1.000000 4.000000 1.000000 -60.708740 114.000000 189.000000 0.643406 0.761966 0.073739
-17420.00000000 -1320.00000000 -100.00000000 134 80 148 97.000000 1.000000 4.000000 1.000000 -60.708740 114.000000 189.000000 0.657607 0.743704 0.120240
-17430.00000000 -1310.00000000 -80.00000000 134 80 148 97.000000 1.000000 4.000000 1.000000 -60.708740 114.000000 189.000000 0.517732 0.507679 0.688634
-17420.00000000 -1330.00000000 -90.00000000 134 80 148 97.000000 1.000000 4.000000 1.000000 -60.708740 114.000000 189.000000 0.507737 0.625816 0.592079
-17400.00000000 -1350.00000000 -80.00000000 134 80 148 97.000000 1.000000 4.000000 1.000000 -60.708740 114.000000 189.000000 0.720583 0.528427 0.448915
-17400.00000000 -1340.00000000 -90.00000000 134 80 148 97.000000 1.000000 4.000000 1.000000 -60.708740 114.000000 189.000000 0.503288 0.563884 0.654779
-17450.00000000 -1270.00000000 -100.00000000 134 80 148 97.000000 1.000000 4.000000 1.000000 -60.708740 114.000000 189.000000 0.471497 0.757352 0.451783
-17490.00000000 -1230.00000000 -80.00000000 134 80 148 97.000000 1.000000 4.000000 1.000000 -60.708740 114.000000 189.000000 0.818228 0.249026 0.518159
-17490.00000000 -1240.00000000 -80.00000000 134 80 148 97.000000 1.000000 4.000000 1.000000 -60.708740 114.000000 189.000000 0.795587 0.106957 0.596324
-17490.00000000 -1220.00000000 -90.00000000 134 80 148 97.000000 1.000000 4.000000 1.000000 -60.708740 114.000000 189.000000 0.869933 0.216364 0.443174
-17460.00000000 -1230.00000000 -140.00000000 134 80 148 97.000000 1.000000 4.000000 1.000000 -60.708740 114.000000 189.000000 0.549731 0.570029 0.610625
-17470.00000000 -1250.00000000 -150.00000000 134 80 148 97.000000 1.000000 4.000000 1.000000 -60.708740 114.000000 189.000000 0.544997 0.538247 0.642860
-17530.00000000 -1220.00000000 -60.00000000 134 80 148 97.000000 1.000000 4.000000 1.000000 -60.708740 114.000000 189.000000 0.830273 0.556739 0.026248
-17010.00000000 -970.00000000 150.00000000 134 80 148 97.000000 1.000000 4.000000 1.000000 -60.708740 114.000000 189.000000 0.945539 -0.138536 0.294556
-17000.00000000 -1000.00000000 170.00000000 134 80 148 97.000000 1.000000 4.000000 1.000000 -60.708740 114.000000 189.000000 0.963156 -0.197873 -0.182148
-17250.00000000 -1040.00000000 30.00000000 134 80 148 97.000000 1.000000 4.000000 1.000000 -60.708740 114.000000 189.000000 0.598935 0.507830 0.619181
-17250.00000000 -1040.00000000 50.00000000 134 80 148 97.000000 1.000000 4.000000 1.000000 -60.708740 114.000000 189.000000 0.920929 0.328801 0.209237
-17270.00000000 -1010.00000000 40.00000000 134 80 148 97.000000 1.000000 4.000000 1.000000 -60.708740 114.000000 189.000000 0.750171 0.359626 0.554899
-17230.00000000 -1010.00000000 0.00000000 134 80 148 97.000000 1.000000 4.000000 1.000000 -60.708740 114.000000 189.000000 0.851103 0.467422 0.239040
-17230.00000000 -1040.00000000 0.00000000 134 80 148 97.000000 1.000000 4.000000 1.000000 -60.708740 114.000000 189.000000 0.689339 0.657051 0.305117
-17330.00000000 -950.00000000 -10.00000000 134 80 148 97.000000 1.000000 4.000000 1.000000 -60.708740 114.000000 189.000000 0.995708 0.033808 -0.086157
-17490.00000000 -950.00000000 180.00000000 134 80 148 97.000000 1.000000 4.000000 1.000000 -60.708740 114.000000 189.000000 0.804420 -0.390168 0.447970
-17520.00000000 -1010.00000000 210.00000000 134 80 148 97.000000 1.000000 4.000000 1.000000 -60.708740 114.000000 189.000000 0.812640 0.064043 0.579237
-17540.00000000 -860.00000000 220.00000000 134 80 148 97.000000 1.000000 4.000000 1.000000 -60.708740 114.000000 189.000000 0.933050 -0.342615 0.109691
-17550.00000000 -930.00000000 210.00000000 134 80 148 97.000000 1.000000 4.000000 1.000000 -60.708740 114.000000 189.000000 0.990110 0.121309 0.070475
-17550.00000000 -920.00000000 200.00000000 134 80 148 97.000000 1.000000 4.000000 1.000000 -60.708740 114.000000 189.000000 0.970487 0.144486 0.193075
-17570.00000000 -950.00000000 170.00000000 134 80 148 97.000000 1.000000 4.000000 1.000000 -60.708740 114.000000 189.000000 0.987455 -0.123874 -0.097920
-17640.00000000 -1040.00000000 170.00000000 134 80 148 97.000000 1.000000 4.000000 1.000000 -60.708740 114.000000 189.000000 0.959055 -0.001216 0.283219
-16840.00000000 -240.00000000 -210.00000000 134 80 148 97.000000 1.000000 4.000000 1.000000 -60.708740 114.000000 189.000000 0.180371 0.970932 0.157345
-16840.00000000 -280.00000000 -230.00000000 134 80 148 97.000000 1.000000 4.000000 1.000000 -60.708740 114.000000 189.000000 0.433868 0.818468 0.376654
-16850.00000000 -250.00000000 -240.00000000 134 80 148 97.000000 1.000000 4.000000 1.000000 -60.708740 114.000000 189.000000 -0.175270 0.971021 0.162477
-16780.00000000 -220.00000000 -310.00000000 134 80 148 0.000000 0.000000 0.000000 0.000000 -60.708740 0.000000 189.000000 0.488658 0.811267 0.321028
-16790.00000000 -260.00000000 -340.00000000 134 80 148 97.000000 1.000000 4.000000 1.000000 -60.708740 114.000000 189.000000 -0.291404 0.892143 0.345201
-16830.00000000 -210.00000000 -290.00000000 134 80 148 0.000000 0.000000 0.000000 0.000000 -60.708740 0.000000 189.000000 0.136743 0.990556 -0.010006
-16810.00000000 -250.00000000 -340.00000000 134 80 148 97.000000 1.000000 4.000000 1.000000 -60.708740 114.000000 189.000000 0.170257 0.803072 0.571040
-16850.00000000 -270.00000000 -320.00000000 134 80 148 97.000000 1.000000 4.000000 1.000000 -60.708740 114.000000 189.000000 -0.078313 0.935778 0.343782
-16680.00000000 -180.00000000 -620.00000000 134 80 148 0.000000 0.000000 0.000000 0.000000 -60.708740 0.000000 189.000000 0.029031 0.828066 0.559878
-16680.00000000 -200.00000000 -530.00000000 134 80 148 0.000000 0.000000 0.000000 0.000000 -60.708740 0.000000 189.000000 -0.043012 0.847759 0.528635
-16680.00000000 -170.00000000 -640.00000000 134 80 148 0.000000 0.000000 0.000000 0.000000 -60.708740 0.000000 189.000000 0.016494 0.992918 0.117655
-16670.00000000 -220.00000000 -390.00000000 134 80 148 97.000000 1.000000 4.000000 1.000000 -60.708740 114.000000 189.000000 0.014908 0.857876 0.513641
-16670.00000000 -210.00000000 -410.00000000 134 80 148 0.000000 0.000000 0.000000 0.000000 -60.708740 0.000000 189.000000 -0.073226 0.799744 0.595859
-16660.00000000 -260.00000000 -370.00000000 134 80 148 97.000000 1.000000 4.000000 1.000000 -60.708740 114.000000 189.000000 0.541853 0.669347 0.508301
-16650.00000000 -350.00000000 -510.00000000 134 80 148 97.000000 1.000000 4.000000 1.000000 -60.708740 114.000000 189.000000 -0.001349 0.842882 0.538096
-16670.00000000 -220.00000000 -690.00000000 134 80 148 0.000000 0.000000 0.000000 0.000000 -60.708740 0.000000 189.000000 0.378442 0.860377 0.341370
-16670.00000000 -280.00000000 -630.00000000 134 80 148 97.000000 1.000000 4.000000 1.000000 -60.708740 114.000000 189.000000 0.077552 0.910216 0.406808
-16630.00000000 -330.00000000 -630.00000000 134 80 148 97.000000 1.000000 4.000000 1.000000 -60.708740 114.000000 189.000000 0.544778 0.764629 0.344325
-16680.00000000 -310.00000000 -620.00000000 134 80 148 97.000000 1.000000 4.000000 1.000000 -60.708740 114.000000 189.000000 0.143280 0.698301 0.701318
-16700.00000000 -180.00000000 -440.00000000 134 80 148 0.000000 0.000000 0.000000 0.000000 -60.708740 0.000000 189.000000 0.359172 0.910191 0.206271
-16720.00000000 -190.00000000 -510.00000000 134 80 148 0.000000 0.000000 0.000000 0.000000 -60.708740 0.000000 189.000000 0.343018 0.841099 0.418200
-16720.00000000 -190.00000000 -500.00000000 134 80 148 0.000000 0.000000 0.000000 0.000000 -60.708740 0.000000 189.000000 0.407117 0.825323 0.391276
-16720.00000000 -200.00000000 -510.00000000 134 80 148 0.000000 0.000000 0.000000 0.000000 -60.708740 0.000000 189.000000 0.460395 0.776002 0.431112
-16710.00000000 -190.00000000 -520.00000000 134 80 148 0.000000 0.000000 0.000000 0.000000 -60.708740 0.000000 189.000000 0.375939 0.885180 0.274091
-16750.00000000 -140.00000000 -500.00000000 134 80 148 0.000000 0.000000 0.000000 0.000000 -60.708740 0.000000 189.000000 0.172753 0.886992 0.428253
-16730.00000000 -200.00000000 -480.00000000 134 80 148 0.000000 0.000000 0.000000 0.000000 -60.708740 0.000000 189.000000 0.340528 0.900703 0.269769
-16730.00000000 -200.00000000 -470.00000000 134 80 148 0.000000 0.000000 0.000000 0.000000 -60.708740 0.000000 189.000000 0.059910 0.974462 0.216411
-16730.00000000 -190.00000000 -500.00000000 134 80 148 0.000000 0.000000 0.000000 0.000000 -60.708740 0.000000 189.000000 0.163195 0.927560 0.336153
-16740.00000000 -200.00000000 -490.00000000 134 80 148 0.000000 0.000000 0.000000 0.000000 -60.708740 0.000000 189.000000 0.034435 0.847108 0.530304
-16750.00000000 -190.00000000 -500.00000000 134 80 148 0.000000 0.000000 0.000000 0.000000 -60.708740 0.000000 189.000000 0.200867 0.974392 0.101057
-16800.00000000 -150.00000000 -460.00000000 134 80 148 0.000000 0.000000 0.000000 0.000000 -60.708740 0.000000 189.000000 0.144988 0.962667 0.228584
-16770.00000000 -130.00000000 -500.00000000 134 80 148 0.000000 0.000000 0.000000 0.000000 -60.708740 0.000000 189.000000 -0.120100 0.754702 0.644981
-16770.00000000 -130.00000000 -500.00000000 134 80 148 0.000000 0.000000 0.000000 0.000000 -60.708740 0.000000 189.000000 -0.120100 0.754702 0.644981
-16700.00000000 -160.00000000 -580.00000000 134 80 148 0.000000 0.000000 0.000000 0.000000 -60.708740 0.000000 189.000000 -0.258304 0.854390 0.450885
-16700.00000000 -190.00000000 -530.00000000 134 80 148 0.000000 0.000000 0.000000 0.000000 -60.708740 0.000000 189.000000 0.404593 0.882342 0.240367
-16710.00000000 -190.00000000 -540.00000000 134 80 148 0.000000 0.000000 0.000000 0.000000 -60.708740 0.000000 189.000000 0.329663 0.906940 0.262265
-16710.00000000 -190.00000000 -680.00000000 134 80 148 0.000000 0.000000 0.000000 0.000000 -60.708740 0.000000 189.000000 0.170160 0.885703 0.431944
-16700.00000000 -190.00000000 -690.00000000 134 80 148 0.000000 0.000000 0.000000 0.000000 -60.708740 0.000000 189.000000 0.270436 0.952522 0.139881
-16730.00000000 -180.00000000 -640.00000000 134 80 148 0.000000 0.000000 0.000000 0.000000 -60.708740 0.000000 189.000000 0.223489 0.689222 0.689222
-16800.00000000 -180.00000000 -570.00000000 134 80 148 0.000000 0.000000 0.000000 0.000000 -60.708740 0.000000 189.000000 0.016118 0.996075 0.087036
-16750.00000000 -210.00000000 -380.00000000 134 80 148 0.000000 0.000000 0.000000 0.000000 -60.708740 0.000000 189.000000 0.083889 0.970362 0.226627
-16690.00000000 -210.00000000 -400.00000000 134 80 148 0.000000 0.000000 0.000000 0.000000 -60.708740 0.000000 189.000000 0.009722 0.720826 0.693048
-16710.00000000 -240.00000000 -450.00000000 134 80 148 97.000000 1.000000 4.000000 1.000000 -60.708740 114.000000 189.000000 0.240618 0.655801 0.715562
-16710.00000000 -240.00000000 -450.00000000 134 80 148 97.000000 1.000000 4.000000 1.000000 -60.708740 114.000000 189.000000 0.240618 0.655801 0.715562
-16740.00000000 -240.00000000 -450.00000000 134 80 148 97.000000 1.000000 4.000000 1.000000 -60.708740 114.000000 189.000000 0.500942 0.717295 0.484299
-16800.00000000 -230.00000000 -430.00000000 134 80 148 97.000000 1.000000 4.000000 1.000000 -60.708740 114.000000 189.000000 -0.121438 0.875783 0.467180
-16770.00000000 -210.00000000 -400.00000000 134 80 148 0.000000 0.000000 0.000000 0.000000 -60.708740 0.000000 189.000000 -0.194860 0.963839 0.181782
-16780.00000000 -210.00000000 -500.00000000 134 80 148 0.000000 0.000000 0.000000 0.000000 -60.708740 0.000000 189.000000 -0.049647 0.998230 0.032746
-16830.00000000 -230.00000000 -470.00000000 134 80 148 97.000000 1.000000 4.000000 1.000000 -60.708740 114.000000 189.000000 -0.006717 0.863808 0.503776
-16840.00000000 -250.00000000 -450.00000000 134 80 148 97.000000 1.000000 4.000000 1.000000 -60.708740 114.000000 189.000000 -0.253790 0.758216 0.600583
-16720.00000000 -230.00000000 -530.00000000 134 80 148 97.000000 1.000000 4.000000 1.000000 -60.708740 114.000000 189.000000 0.516803 0.832037 0.201568
-16730.00000000 -220.00000000 -530.00000000 134 80 148 0.000000 0.000000 0.000000 0.000000 -60.708740 0.000000 189.000000 0.204317 0.938192 0.279373
-16710.00000000 -220.00000000 -680.00000000 134 80 148 0.000000 0.000000 0.000000 0.000000 -60.708740 0.000000 189.000000 -0.106987 0.868736 0.483582
-16690.00000000 -280.00000000 -640.00000000 134 80 148 97.000000 1.000000 4.000000 1.000000 -60.708740 114.000000 189.000000 0.391026 0.773940 0.498112
-16720.00000000 -280.00000000 -640.00000000 134 80 148 97.000000 1.000000 4.000000 1.000000 -60.708740 114.000000 189.000000 -0.070452 0.929164 0.362892
-16710.00000000 -270.00000000 -660.00000000 134 80 148 97.000000 1.000000 4.000000 1.000000 -60.708740 114.000000 189.000000 0.032462 0.667598 0.743814
-16740.00000000 -210.00000000 -610.00000000 134 80 148 0.000000 0.000000 0.000000 0.000000 -60.708740 0.000000 189.000000 0.403882 0.855735 0.323415
-16750.00000000 -220.00000000 -660.00000000 134 80 148 0.000000 0.000000 0.000000 0.000000 -60.708740 0.000000 189.000000 -0.114459 0.917051 0.381990
-16730.00000000 -360.00000000 -600.00000000 134 80 148 97.000000 1.000000 4.000000 1.000000 -60.708740 114.000000 189.000000 0.319695 0.756665 0.570310
-16750.00000000 -310.00000000 -690.00000000 134 80 148 97.000000 1.000000 4.000000 1.000000 -60.708740 114.000000 189.000000 0.388711 0.807816 0.443099
-16810.00000000 -250.00000000 -570.00000000 134 80 148 97.000000 1.000000 4.000000 1.000000 -60.708740 114.000000 189.000000 0.207026 0.951235 0.228675
-16840.00000000 -270.00000000 -630.00000000 134 80 148 97.000000 1.000000 4.000000 1.000000 -60.708740 114.000000 189.000000 -0.380538 0.899586 0.214326
-16830.00000000 -250.00000000 -670.00000000 134 80 148 97.000000 1.000000 4.000000 1.000000 -60.708740 114.000000 189.000000 -0.053558 0.877526 0.476528
-16810.00000000 -260.00000000 -660.00000000 134 80 148 97.000000 1.000000 4.000000 1.000000 -60.708740 114.000000 189.000000 -0.381147 0.776890 0.501167
-16790.00000000 -330.00000000 -660.00000000 134 80 148 97.000000 1.000000 4.000000 1.000000 -60.708740 114.000000 189.000000 0.070178 0.994739 0.074633
-16870.00000000 -240.00000000 -220.00000000 134 80 148 97.000000 1.000000 4.000000 1.000000 -60.708740 114.000000 189.000000 0.097208 0.978231 0.183341
-16860.00000000 -270.00000000 -350.00000000 134 80 148 97.000000 1.000000 4.000000 1.000000 -60.708740 114.000000 189.000000 0.123619 0.842065 0.525018
-16890.00000000 -190.00000000 -430.00000000 134 80 148 0.000000 0.000000 0.000000 0.000000 -60.708740 0.000000 189.000000 -0.177730 0.782314 0.596989
-16880.00000000 -240.00000000 -420.00000000 134 80 148 97.000000 1.000000 4.000000 1.000000 -60.708740 114.000000 189.000000 0.045517 0.998196 0.039166
-16860.00000000 -220.00000000 -520.00000000 134 80 148 0.000000 0.000000 0.000000 0.000000 -60.708740 0.000000 189.000000 -0.153654 0.988094 0.007851
-16880.00000000 -270.00000000 -510.00000000 134 80 148 97.000000 1.000000 4.000000 1.000000 -60.708740 114.000000 189.000000 -0.234166 0.966093 0.108765
-16870.00000000 -260.00000000 -510.00000000 134 80 148 97.000000 1.000000 4.000000 1.000000 -60.708740 114.000000 189.000000 -0.379547 0.925064 -0.014153
-16890.00000000 -270.00000000 -510.00000000 134 80 148 97.000000 1.000000 4.000000 1.000000 -60.708740 114.000000 189.000000 -0.124331 0.967730 0.219181
-16880.00000000 -280.00000000 -490.00000000 134 80 148 97.000000 1.000000 4.000000 1.000000 -60.708740 114.000000 189.000000 -0.304450 0.904526 0.298567
-16890.00000000 -320.00000000 -440.00000000 134 80 148 97.000000 1.000000 4.000000 1.000000 -60.708740 114.000000 189.000000 -0.427986 0.872491 0.235768
-16880.00000000 -300.00000000 -400.00000000 134 80 148 97.000000 1.000000 4.000000 1.000000 -60.708740 114.000000 189.000000 -0.317109 0.835730 0.448326
-16680.00000000 -190.00000000 -850.00000000 134 80 148 0.000000 0.000000 0.000000 0.000000 -60.708740 0.000000 189.000000 0.354972 0.708308 0.610159
-16660.00000000 -200.00000000 -990.00000000 134 80 148 0.000000 0.000000 0.000000 0.000000 -60.708740 0.000000 189.000000 0.080345 0.911026 0.404446
-16610.00000000 -190.00000000 -940.00000000 134 80 148 0.000000 0.000000 0.000000 0.000000 -60.708740 0.000000 189.000000 0.458254 0.864265 0.207483
-16590.00000000 -250.00000000 -840.00000000 134 80 148 97.000000 1.000000 4.000000 1.000000 -60.708740 114.000000 189.000000 0.161767 0.953220 0.255351
-16630.00000000 -270.00000000 -820.00000000 134 80 148 97.000000 1.000000 4.000000 1.000000 -60.708740 114.000000 189.000000 0.113734 0.943327 0.311766
-16640.00000000 -260.00000000 -840.00000000 134 80 148 97.000000 1.000000 4.000000 1.000000 -60.708740 114.000000 189.000000 -0.154399 0.907977 0.389538
-16660.00000000 -330.00000000 -770.00000000 134 80 148 97.000000 1.000000 4.000000 1.000000 -60.708740 114.000000 189.000000 0.115647 0.875205 0.469726
-16670.00000000 -320.00000000 -770.00000000 134 80 148 97.000000 1.000000 4.000000 1.000000 -60.708740 114.000000 189.000000 0.273193 0.934461 0.228361
-16650.00000000 -330.00000000 -730.00000000 134 80 148 97.000000 1.000000 4.000000 1.000000 -60.708740 114.000000 189.000000 0.387110 0.920873 0.046242
-16650.00000000 -320.00000000 -720.00000000 134 80 148 97.000000 1.000000 4.000000 1.000000 -60.708740 114.000000 189.000000 0.330131 0.918936 0.215800
-16670.00000000 -320.00000000 -780.00000000 134 80 148 97.000000 1.000000 4.000000 1.000000 -60.708740 114.000000 189.000000 0.059331 0.878920 0.473265
-16670.00000000 -310.00000000 -850.00000000 134 80 148 97.000000 1.000000 4.000000 1.000000 -60.708740 114.000000 189.000000 -0.077488 0.860824 0.502969
-16590.00000000 -210.00000000 -910.00000000 134 80 148 0.000000 0.000000 0.000000 0.000000 -60.708740 0.000000 189.000000 0.245565 0.885524 0.394393
-16580.00000000 -250.00000000 -900.00000000 134 80 148 97.000000 1.000000 4.000000 1.000000 -60.708740 114.000000 189.000000 0.070779 0.729462 0.680350
-16630.00000000 -230.00000000 -880.00000000 134 80 148 97.000000 1.000000 4.000000 1.000000 -60.708740 114.000000 189.000000 0.504085 0.819334 0.273111
-16600.00000000 -230.00000000 -870.00000000 134 80 148 97.000000 1.000000 4.000000 1.000000 -60.708740 114.000000 189.000000 0.045301 0.868952 0.492818
-16680.00000000 -270.00000000 -920.00000000 134 80 148 97.000000 1.000000 4.000000 1.000000 -60.708740 114.000000 189.000000 0.006517 0.905831 0.423590
-16650.00000000 -290.00000000 -930.00000000 134 80 148 97.000000 1.000000 4.000000 1.000000 -60.708740 114.000000 189.000000 -0.055949 0.690042 0.721603
-16660.00000000 -320.00000000 -940.00000000 134 80 148 97.000000 1.000000 4.000000 1.000000 -60.708740 114.000000 189.000000 0.052515 0.986114 0.157545
-16620.00000000 -300.00000000 -990.00000000 134 80 148 97.000000 1.000000 4.000000 1.000000 -60.708740 114.000000 189.000000 -0.164885 0.898983 0.405761
-16740.00000000 -180.00000000 -780.00000000 134 80 148 0.000000 0.000000 0.000000 0.000000 -60.708740 0.000000 189.000000 0.019307 0.928037 0.371987
-16750.00000000 -170.00000000 -790.00000000 134 80 148 0.000000 0.000000 0.000000 0.000000 -60.708740 0.000000 189.000000 0.327479 0.892718 0.309535
-16770.00000000 -180.00000000 -750.00000000 134 80 148 0.000000 0.000000 0.000000 0.000000 -60.708740 0.000000 189.000000 0.044014 0.997285 0.059043
-16780.00000000 -170.00000000 -780.00000000 134 80 148 0.000000 0.000000 0.000000 0.000000 -60.708740 0.000000 189.000000 0.120785 0.836765 0.534074
-16700.00000000 -170.00000000 -870.00000000 134 80 148 0.000000 0.000000 0.000000 0.000000 -60.708740 0.000000 189.000000 0.073578 0.997038 0.022393
-16690.00000000 -170.00000000 -910.00000000 134 80 148 0.000000 0.000000 0.000000 0.000000 -60.708740 0.000000 189.000000 -0.040997 0.962797 0.267098
-16720.00000000 -230.00000000 -720.00000000 134 80 148 97.000000 1.000000 4.000000 1.000000 -60.708740 114.000000 189.000000 0.289605 0.721613 0.628811
-16760.00000000 -260.00000000 -770.00000000 134 80 148 97.000000 1.000000 4.000000 1.000000 -60.708740 114.000000 189.000000 0.027325 0.925139 0.378643
-16760.00000000 -260.00000000 -760.00000000 134 80 148 97.000000 1.000000 4.000000 1.000000 -60.708740 114.000000 189.000000 0.130760 0.824228 0.550954
-16760.00000000 -220.00000000 -780.00000000 134 80 148 97.000000 1.000000 4.000000 1.000000 -60.708740 114.000000 189.000000 -0.327439 0.875708 0.354852
-16760.00000000 -240.00000000 -790.00000000 134 80 148 97.000000 1.000000 4.000000 1.000000 -60.708740 114.000000 189.000000 0.200604 0.939378 0.278078
-16730.00000000 -270.00000000 -800.00000000 134 80 148 97.000000 1.000000 4.000000 1.000000 -60.708740 114.000000 189.000000 -0.070804 0.689258 0.721048
-16710.00000000 -310.00000000 -770.00000000 134 80 148 97.000000 1.000000 4.000000 1.000000 -60.708740 114.000000 189.000000 -0.202942 0.735860 0.646007
-16760.00000000 -290.00000000 -760.00000000 134 80 148 97.000000 1.000000 4.000000 1.000000 -60.708740 114.000000 189.000000 -0.375916 0.846980 0.375916
-16750.00000000 -300.00000000 -750.00000000 134 80 148 97.000000 1.000000 4.000000 1.000000 -60.708740 114.000000 189.000000 0.156153 0.954271 0.254917
-16700.00000000 -300.00000000 -840.00000000 134 80 148 97.000000 1.000000 4.000000 1.000000 -60.708740 114.000000 189.000000 -0.031912 0.979808 0.197380
-16700.00000000 -320.00000000 -820.00000000 134 80 148 97.000000 1.000000 4.000000 1.000000 -60.708740 114.000000 189.000000 0.133552 0.700772 0.700772
-16790.00000000 -240.00000000 -730.00000000 134 80 148 97.000000 1.000000 4.000000 1.000000 -60.708740 114.000000 189.000000 -0.438478 0.857094 0.270420
-16770.00000000 -230.00000000 -750.00000000 134 80 148 97.000000 1.000000 4.000000 1.000000 -60.708740 114.000000 189.000000 -0.070878 0.988806 0.131299
-16770.00000000 -260.00000000 -740.00000000 134 80 148 97.000000 1.000000 4.000000 1.000000 -60.708740 114.000000 189.000000 -0.079930 0.701932 0.707745
-16830.00000000 -280.00000000 -740.00000000 134 80 148 97.000000 1.000000 4.000000 1.000000 -60.708740 114.000000 189.000000 -0.452516 0.889993 -0.056052
-16840.00000000 -250.00000000 -750.00000000 134 80 148 97.000000 1.000000 4.000000 1.000000 -60.708740 114.000000 189.000000 -0.417120 0.797199 0.436446
-16820.00000000 -250.00000000 -820.00000000 134 80 148 97.000000 1.000000 4.000000 1.000000 -60.708740 114.000000 189.000000 -0.420053 0.695661 0.582761
-16810.00000000 -270.00000000 -860.00000000 134 80 148 97.000000 1.000000 4.000000 1.000000 -60.708740 114.000000 189.000000 -0.215249 0.775825 0.593096
-16800.00000000 -310.00000000 -730.00000000 134 80 148 97.000000 1.000000 4.000000 1.000000 -60.708740 114.000000 189.000000 -0.014103 0.994798 0.100890
-16850.00000000 -300.00000000 -780.00000000 134 80 148 97.000000 1.000000 4.000000 1.000000 -60.708740 114.000000 189.000000 -0.410229 0.884140 0.223627
-16810.00000000 -320.00000000 -800.00000000 134 80 148 97.000000 1.000000 4.000000 1.000000 -60.708740 114.000000 189.000000 -0.485314 0.873015 -0.048119
-16840.00000000 -290.00000000 -780.00000000 134 80 148 97.000000 1.000000 4.000000 1.000000 -60.708740 114.000000 189.000000 -0.446607 0.864644 0.230071
-16820.00000000 -290.00000000 -800.00000000 134 80 148 97.000000 1.000000 4.000000 1.000000 -60.708740 114.000000 189.000000 -0.617644 0.752118 0.229857
-16760.00000000 -220.00000000 -880.00000000 134 80 148 0.000000 0.000000 0.000000 0.000000 -60.708740 0.000000 189.000000 -0.075405 0.972852 0.218799
-16700.00000000 -220.00000000 -1000.00000000 134 80 148 0.000000 0.000000 0.000000 0.000000 -60.708740 0.000000 189.000000 -0.368685 0.921022 0.125657
-16700.00000000 -220.00000000 -1000.00000000 134 80 148 97.000000 1.000000 4.000000 1.000000 -60.708740 114.000000 189.000000 -0.368685 0.921022 0.125657
-16720.00000000 -300.00000000 -1000.00000000 134 80 148 97.000000 1.000000 4.000000 1.000000 -60.708740 114.000000 189.000000 0.075697 0.988716 0.129267
-16740.00000000 -310.00000000 -970.00000000 134 80 148 97.000000 1.000000 4.000000 1.000000 -60.708740 114.000000 189.000000 -0.398803 0.908152 0.127337
-16710.00000000 -300.00000000 -1020.00000000 134 80 148 97.000000 1.000000 4.000000 1.000000 -60.708740 114.000000 189.000000 0.044694 0.989006 0.140959
-16710.00000000 -290.00000000 -990.00000000 134 80 148 97.000000 1.000000 4.000000 1.000000 -60.708740 114.000000 189.000000 -0.170477 0.984064 -0.050555
-16810.00000000 -250.00000000 -910.00000000 134 80 148 97.000000 1.000000 4.000000 1.000000 -60.708740 114.000000 189.000000 -0.298117 0.809173 0.506325
-16830.00000000 -260.00000000 -980.00000000 134 80 148 97.000000 1.000000 4.000000 1.000000 -60.708740 114.000000 189.000000 -0.164574 0.986312 -0.010215
-16820.00000000 -250.00000000 -980.00000000 134 80 148 97.000000 1.000000 4.000000 1.000000 -60.708740 114.000000 189.000000 -0.420430 0.902890 -0.089600
-16830.00000000 -260.00000000 -980.00000000 134 80 148 97.000000 1.000000 4.000000 1.000000 -60.708740 114.000000 189.000000 -0.164574 0.986312 -0.010215
-16820.00000000 -250.00000000 -1000.00000000 134 80 148 97.000000 1.000000 4.000000 1.000000 -60.708740 114.000000 189.000000 -0.515585 0.855623 0.045615
-16790.00000000 -360.00000000 -880.00000000 134 80 148 97.000000 1.000000 4.000000 1.000000 -60.708740 114.000000 189.000000 -0.102554 0.968566 0.226632
-16790.00000000 -300.00000000 -910.00000000 134 80 148 97.000000 1.000000 4.000000 1.000000 -60.708740 114.000000 189.000000 -0.563273 0.822807 -0.075578
-16780.00000000 -330.00000000 -960.00000000 134 80 148 97.000000 1.000000 4.000000 1.000000 -60.708740 114.000000 189.000000 -0.265339 0.960090 0.088446
-16770.00000000 -330.00000000 -980.00000000 134 80 148 97.000000 1.000000 4.000000 1.000000 -60.708740 114.000000 189.000000 -0.064381 0.894481 0.442446
-16630.00000000 -270.00000000 -1130.00000000 134 80 148 97.000000 1.000000 4.000000 1.000000 -60.708740 114.000000 189.000000 0.288696 0.935820 0.202226
-16680.00000000 -230.00000000 -1190.00000000 134 80 148 97.000000 1.000000 4.000000 1.000000 -60.708740 114.000000 189.000000 -0.313504 0.920472 0.233339
-16670.00000000 -220.00000000 -1170.00000000 134 80 148 0.000000 0.000000 0.000000 0.000000 -60.708740 0.000000 189.000000 0.042960 0.998549 0.032482
-16650.00000000 -270.00000000 -1190.00000000 134 80 148 97.000000 1.000000 4.000000 1.000000 -60.708740 114.000000 189.000000 0.091169 0.980975 0.171397
-16640.00000000 -320.00000000 -1050.00000000 134 80 148 97.000000 1.000000 4.000000 1.000000 -60.708740 114.000000 189.000000 0.416074 0.852256 0.317083
-16670.00000000 -320.00000000 -1040.00000000 134 80 148 97.000000 1.000000 4.000000 1.000000 -60.708740 114.000000 189.000000 -0.055566 0.773650 0.631173
-16650.00000000 -310.00000000 -1050.00000000 134 80 148 97.000000 1.000000 4.000000 1.000000 -60.708740 114.000000 189.000000 0.319327 0.905004 0.281066
-16680.00000000 -290.00000000 -1110.00000000 134 80 148 97.000000 1.000000 4.000000 1.000000 -60.708740 114.000000 189.000000 -0.316754 0.930727 0.182796
-16680.00000000 -290.00000000 -1100.00000000 134 80 148 97.000000 1.000000 4.000000 1.000000 -60.708740 114.000000 189.000000 -0.206319 0.920608 0.331533
-16670.00000000 -290.00000000 -1100.00000000 134 80 148 97.000000 1.000000 4.000000 1.000000 -60.708740 114.000000 189.000000 -0.415161 0.841289 0.346229
-16670.00000000 -360.00000000 -1100.00000000 134 80 148 97.000000 1.000000 4.000000 1.000000 -60.708740 114.000000 189.000000 -0.246121 0.818855 0.518557
-16660.00000000 -290.00000000 -1130.00000000 134 80 148 97.000000 1.000000 4.000000 1.000000 -60.708740 114.000000 189.000000 -0.067118 0.995772 -0.062717
-16670.00000000 -330.00000000 -1140.00000000 134 80 148 97.000000 1.000000 4.000000 1.000000 -60.708740 114.000000 189.000000 0.121452 0.984840 0.123857
-16670.00000000 -240.00000000 -1240.00000000 134 80 148 97.000000 1.000000 4.000000 1.000000 -60.708740 114.000000 189.000000 -0.193045 0.975189 -0.108354
-16670.00000000 -240.00000000 -1240.00000000 134 80 148 97.000000 1.000000 4.000000 1.000000 -60.708740 114.000000 189.000000 -0.193045 0.975189 -0.108354
-16680.00000000 -240.00000000 -1250.00000000 134 80 148 97.000000 1.000000 4.000000 1.000000 -60.708740 114.000000 189.000000 -0.219537 0.849381 0.479953
-16680.00000000 -280.00000000 -1200.00000000 134 80 148 97.000000 1.000000 4.000000 1.000000 -60.708740 114.000000 189.000000 -0.023028 0.968370 0.248455
-16680.00000000 -280.00000000 -1250.00000000 134 80 148 97.000000 1.000000 4.000000 1.000000 -60.708740 114.000000 189.000000 0.701919 -0.710497 -0.050035
-16660.00000000 -280.00000000 -1290.00000000 134 80 148 97.000000 1.000000 4.000000 1.000000 -60.708740 114.000000 189.000000 0.591385 -0.759446 -0.271118
-16680.00000000 -250.00000000 -1340.00000000 134 80 148 97.000000 1.000000 4.000000 1.000000 -60.708740 114.000000 189.000000 0.708833 -0.579955 -0.401507
-16680.00000000 -310.00000000 -1220.00000000 134 80 148 97.000000 1.000000 4.000000 1.000000 -60.708740 114.000000 189.000000 -0.169235 0.967611 0.187321
-16660.00000000 -320.00000000 -1250.00000000 134 80 148 97.000000 1.000000 4.000000 1.000000 -60.708740 114.000000 189.000000 -0.216835 0.964721 0.149318
-16670.00000000 -300.00000000 -1310.00000000 134 80 148 97.000000 1.000000 4.000000 1.000000 -60.708740 114.000000 189.000000 -0.385389 0.826286 0.410764
-16670.00000000 -290.00000000 -1290.00000000 134 80 148 97.000000 1.000000 4.000000 1.000000 -60.708740 114.000000 189.000000 -0.149611 0.957245 0.247586
-16650.00000000 -330.00000000 -1360.00000000 134 80 148 97.000000 1.000000 4.000000 1.000000 -60.708740 114.000000 189.000000 0.707395 -0.701561 0.086054
-16670.00000000 -330.00000000 -1340.00000000 134 80 148 97.000000 1.000000 4.000000 1.000000 -60.708740 114.000000 189.000000 0.621807 -0.690715 0.369147
-16720.00000000 -170.00000000 -1040.00000000 134 80 148 0.000000 0.000000 0.000000 0.000000 -60.708740 0.000000 189.000000 -0.409578 0.912064 0.019628
-16720.00000000 -220.00000000 -1050.00000000 134 80 148 97.000000 1.000000 4.000000 1.000000 -60.708740 114.000000 189.000000 -0.416137 0.801746 0.428991
-16690.00000000 -230.00000000 -1080.00000000 134 80 148 97.000000 1.000000 4.000000 1.000000 -60.708740 114.000000 189.000000 -0.402165 0.912027 0.080433
-16760.00000000 -210.00000000 -1040.00000000 134 80 148 0.000000 0.000000 0.000000 0.000000 -60.708740 0.000000 189.000000 -0.157630 0.981218 0.111197
-16740.00000000 -230.00000000 -1060.00000000 134 80 148 97.000000 1.000000 4.000000 1.000000 -60.708740 114.000000 189.000000 -0.068047 0.997668 0.005234
-16720.00000000 -250.00000000 -1180.00000000 134 80 148 97.000000 1.000000 4.000000 1.000000 -60.708740 114.000000 189.000000 -0.166227 0.984394 0.057767
-16750.00000000 -230.00000000 -1180.00000000 134 80 148 97.000000 1.000000 4.000000 1.000000 -60.708740 114.000000 189.000000 -0.192908 0.980910 0.024552
-16740.00000000 -230.00000000 -1150.00000000 134 80 148 97.000000 1.000000 4.000000 1.000000 -60.708740 114.000000 189.000000 -0.447457 0.893569 -0.036280
-16690.00000000 -300.00000000 -1100.00000000 134 80 148 97.000000 1.000000 4.000000 1.000000 -60.708740 114.000000 189.000000 -0.261789 0.849666 0.457748
-16730.00000000 -300.00000000 -1040.00000000 134 80 148 97.000000 1.000000 4.000000 1.000000 -60.708740 114.000000 189.000000 -0.209365 0.970691 -0.118006
-16710.00000000 -290.00000000 -1130.00000000 134 80 148 97.000000 1.000000 4.000000 1.000000 -60.708740 114.000000 189.000000 -0.490176 0.694276 0.526981
-16740.00000000 -340.00000000 -1130.00000000 134 80 148 97.000000 1.000000 4.000000 1.000000 -60.708740 114.000000 189.000000 -0.298635 0.952299 0.062803
-16770.00000000 -260.00000000 -1060.00000000 134 80 148 97.000000 1.000000 4.000000 1.000000 -60.708740 114.000000 189.000000 0.402275 -0.809358 -0.427918
-16800.00000000 -270.00000000 -1040.00000000 134 80 148 97.000000 1.000000 4.000000 1.000000 -60.708740 114.000000 189.000000 -0.492925 0.867825 -0.062483
-16850.00000000 -280.00000000 -1060.00000000 134 80 148 97.000000 1.000000 4.000000 1.000000 -60.708740 114.000000 189.000000 0.743550 -0.661422 0.098260
-16830.00000000 -250.00000000 -1060.00000000 134 80 148 97.000000 1.000000 4.000000 1.000000 -60.708740 114.000000 189.000000 -0.501150 0.828054 0.251346
-16820.00000000 -280.00000000 -1100.00000000 134 80 148 97.000000 1.000000 4.000000 1.000000 -60.708740 114.000000 189.000000 -0.444805 0.860765 0.247451
-16780.00000000 -240.00000000 -1160.00000000 134 80 148 97.000000 1.000000 4.000000 1.000000 -60.708740 114.000000 189.000000 -0.237800 0.971313 -0.001183
-16780.00000000 -250.00000000 -1130.00000000 134 80 148 97.000000 1.000000 4.000000 1.000000 -60.708740 114.000000 189.000000 -0.578220 0.800496 -0.157696
-16780.00000000 -280.00000000 -1170.00000000 134 80 148 97.000000 1.000000 4.000000 1.000000 -60.708740 114.000000 189.000000 0.603693 -0.741406 -0.293039
-16840.00000000 -260.00000000 -1190.00000000 134 80 148 97.000000 1.000000 4.000000 1.000000 -60.708740 114.000000 189.000000 0.625657 -0.706912 -0.329892
-16830.00000000 -340.00000000 -1110.00000000 134 80 148 97.000000 1.000000 4.000000 1.000000 -60.708740 114.000000 189.000000 0.735731 -0.676192 -0.038275
-16790.00000000 -330.00000000 -1120.00000000 134 80 148 97.000000 1.000000 4.000000 1.000000 -60.708740 114.000000 189.000000 -0.424597 0.898239 -0.113506
-16760.00000000 -220.00000000 -1260.00000000 134 80 148 97.000000 1.000000 4.000000 1.000000 -60.708740 114.000000 189.000000 -0.397326 0.917604 0.011648
-16740.00000000 -250.00000000 -1210.00000000 134 80 148 97.000000 1.000000 4.000000 1.000000 -60.708740 114.000000 189.000000 -0.436385 0.769802 0.465804
-16690.00000000 -260.00000000 -1330.00000000 134 80 148 97.000000 1.000000 4.000000 1.000000 -60.708740 114.000000 189.000000 0.776196 -0.629157 -0.041001
-16690.00000000 -260.00000000 -1330.00000000 134 80 148 97.000000 1.000000 4.000000 1.000000 -60.708740 114.000000 189.000000 0.776196 -0.629157 -0.041001
-16690.00000000 -210.00000000 -1300.00000000 134 80 148 0.000000 0.000000 0.000000 0.000000 -60.708740 0.000000 189.000000 -0.461681 0.865466 -0.194470
-16700.00000000 -270.00000000 -1330.00000000 134 80 148 97.000000 1.000000 4.000000 1.000000 -60.708740 114.000000 189.000000 -0.615060 0.786306 -0.058509
-16720.00000000 -320.00000000 -1320.00000000 134 80 148 97.000000 1.000000 4.000000 1.000000 -60.708740 114.000000 189.000000 0.780158 -0.625507 -0.009666
-16700.00000000 -300.00000000 -1350.00000000 134 80 148 97.000000 1.000000 4.000000 1.000000 -60.708740 114.000000 189.000000 0.889588 -0.413388 0.194278
-16700.00000000 -360.00000000 -1290.00000000 134 80 148 97.000000 1.000000 4.000000 1.000000 -60.708740 114.000000 189.000000 0.887439 -0.447247 0.111459
-16690.00000000 -370.00000000 -1340.00000000 134 80 148 97.000000 1.000000 4.000000 1.000000 -60.708740 114.000000 189.000000 0.892705 -0.415245 -0.175069
-16730.00000000 -320.00000000 -1320.00000000 134 80 148 97.000000 1.000000 4.000000 1.000000 -60.708740 114.000000 189.000000 0.762304 -0.595698 0.253054
-16760.00000000 -300.00000000 -1300.00000000 134 80 148 97.000000 1.000000 4.000000 1.000000 -60.708740 114.000000 189.000000 0.844573 -0.527322 -0.092889
-16740.00000000 -340.00000000 -1310.00000000 134 80 148 97.000000 1.000000 4.000000 1.000000 -60.708740 114.000000 189.000000 0.772270 -0.630277 -0.079690
-16750.00000000 -340.00000000 -1290.00000000 134 80 148 97.000000 1.000000 4.000000 1.000000 -60.708740 114.000000 189.000000 0.735300 -0.620955 0.271569
-16740.00000000 -340.00000000 -1330.00000000 134 80 148 97.000000 1.000000 4.000000 1.000000 -60.708740 114.000000 189.000000 0.735908 -0.590344 0.331563
-16840.00000000 -240.00000000 -1240.00000000 134 80 148 97.000000 1.000000 4.000000 1.000000 -60.708740 114.000000 189.000000 0.826319 -0.454869 -0.332101
-16790.00000000 -310.00000000 -1200.00000000 134 80 148 97.000000 1.000000 4.000000 1.000000 -60.708740 114.000000 189.000000 -0.670256 0.742118 -0.004146
-16770.00000000 -310.00000000 -1340.00000000 134 80 148 97.000000 1.000000 4.000000 1.000000 -60.708740 114.000000 189.000000 0.971491 -0.218804 -0.091273
-16770.00000000 -310.00000000 -1340.00000000 134 80 148 97.000000 1.000000 4.000000 1.000000 -60.708740 114.000000 189.000000 0.971491 -0.218804 -0.091273
-16830.00000000 -330.00000000 -1350.00000000 134 80 148 97.000000 1.000000 4.000000 1.000000 -60.708740 114.000000 189.000000 0.892036 -0.451947 0.003953
-16860.00000000 -300.00000000 -1160.00000000 134 80 148 97.000000 1.000000 4.000000 1.000000 -60.708740 114.000000 189.000000 0.798013 -0.576932 -0.174140
-16930.00000000 -240.00000000 -1320.00000000 134 80 148 97.000000 1.000000 4.000000 1.000000 -60.708740 114.000000 189.000000 0.851401 -0.424928 -0.307493
-16930.00000000 -240.00000000 -1330.00000000 134 80 148 97.000000 1.000000 4.000000 1.000000 -60.708740 114.000000 189.000000 0.779485 -0.539397 0.318517
-16900.00000000 -250.00000000 -1320.00000000 134 80 148 97.000000 1.000000 4.000000 1.000000 -60.708740 114.000000 189.000000 0.944588 -0.259111 0.201530
-16910.00000000 -260.00000000 -1320.00000000 134 80 148 97.000000 1.000000 4.000000 1.000000 -60.708740 114.000000 189.000000 0.997192 -0.071457 -0.022397
-16910.00000000 -290.00000000 -1270.00000000 134 80 148 97.000000 1.000000 4.000000 1.000000 -60.708740 114.000000 189.000000 0.957560 -0.262578 0.118879
-16880.00000000 -300.00000000 -1340.00000000 134 80 148 97.000000 1.000000 4.000000 1.000000 -60.708740 114.000000 189.000000 -0.718675 0.692854 -0.058814
-16900.00000000 -320.00000000 -1360.00000000 134 80 148 97.000000 1.000000 4.000000 1.000000 -60.708740 114.000000 189.000000 0.914309 -0.262266 0.308634
-16950.00000000 -350.00000000 -1320.00000000 134 80 148 97.000000 1.000000 4.000000 1.000000 -60.708740 114.000000 189.000000 0.952623 -0.233103 -0.195375
-17120.00000000 -680.00000000 -640.00000000 134 80 148 97.000000 1.000000 4.000000 1.000000 -60.708740 114.000000 189.000000 0.980153 -0.174548 -0.093987
-17140.00000000 -780.00000000 -350.00000000 134 80 148 97.000000 1.000000 4.000000 1.000000 -60.708740 114.000000 189.000000 0.885513 -0.464597 0.003971
-17130.00000000 -860.00000000 -310.00000000 134 80 148 97.000000 1.000000 4.000000 1.000000 -60.708740 114.000000 189.000000 0.907456 0.401294 0.124443
-17160.00000000 -820.00000000 -280.00000000 134 80 148 97.000000 1.000000 4.000000 1.000000 -60.708740 114.000000 189.000000 0.983105 -0.177783 -0.043563
-17170.00000000 -830.00000000 -340.00000000 134 80 148 97.000000 1.000000 4.000000 1.000000 -60.708740 114.000000 189.000000 0.994937 0.074315 -0.067660
-17180.00000000 -870.00000000 -350.00000000 134 80 148 97.000000 1.000000 4.000000 1.000000 -60.708740 114.000000 189.000000 0.832253 0.477573 0.281566
-17070.00000000 -1040.00000000 -170.00000000 134 80 148 97.000000 1.000000 4.000000 1.000000 -60.708740 114.000000 189.000000 0.314951 0.918966 0.237292
-17150.00000000 -950.00000000 -160.00000000 134 80 148 97.000000 1.000000 4.000000 1.000000 -60.708740 114.000000 189.000000 0.570558 0.580716 0.580716
-17140.00000000 -1030.00000000 -90.00000000 134 80 148 97.000000 1.000000 4.000000 1.000000 -60.708740 114.000000 189.000000 0.543077 0.831360 0.117934
-17130.00000000 -1030.00000000 -80.00000000 134 80 148 97.000000 1.000000 4.000000 1.000000 -60.708740 114.000000 189.000000 0.549748 0.745504 0.376830
-17110.00000000 -1020.00000000 -110.00000000 134 80 148 97.000000 1.000000 4.000000 1.000000 -60.708740 114.000000 189.000000 0.404961 0.895559 0.184337
-17100.00000000 -950.00000000 -340.00000000 134 80 148 97.000000 1.000000 4.000000 1.000000 -60.708740 114.000000 189.000000 0.588591 0.743398 0.317678
-17100.00000000 -960.00000000 -320.00000000 134 80 148 97.000000 1.000000 4.000000 1.000000 -60.708740 114.000000 189.000000 0.580392 0.767003 0.273591
