//X Y Z R G B PointSourceId ScanDirectionFlag NumberOfReturns ReturnNumber GpsTime Intensity Classification Nx Ny Nz
4630.00000000 -20050.00000000 880.00000000 24 36 225 0.000000 0.000000 0.000000 0.000000 -60.708740 0.000000 155.000000 -0.348429 0.642876 -0.682135
4660.00000000 -20040.00000000 900.00000000 24 36 225 0.000000 0.000000 0.000000 0.000000 -60.708740 0.000000 155.000000 0.141450 -0.497263 0.855992
4650.00000000 -20060.00000000 830.00000000 24 36 225 0.000000 0.000000 0.000000 0.000000 -60.708740 0.000000 155.000000 -0.362913 0.681487 -0.635507
4620.00000000 -20040.00000000 910.00000000 24 36 225 0.000000 0.000000 0.000000 0.000000 -60.708740 0.000000 155.000000 0.213330 -0.652446 0.727189
4620.00000000 -20040.00000000 910.00000000 24 36 225 0.000000 0.000000 0.000000 0.000000 -60.708740 0.000000 155.000000 0.213330 -0.652446 0.727189
4620.00000000 -20040.00000000 910.00000000 24 36 225 0.000000 0.000000 0.000000 0.000000 -60.708740 0.000000 155.000000 0.213330 -0.652446 0.727189
4590.00000000 -20060.00000000 870.00000000 24 36 225 0.000000 0.000000 0.000000 0.000000 -60.708740 0.000000 155.000000 -0.230531 0.796802 -0.558535
4590.00000000 -20060.00000000 870.00000000 24 36 225 0.000000 0.000000 0.000000 0.000000 -60.708740 0.000000 155.000000 -0.230531 0.796802 -0.558535
4590.00000000 -20060.00000000 870.00000000 24 36 225 0.000000 0.000000 0.000000 0.000000 -60.708740 0.000000 155.000000 -0.230531 0.796802 -0.558535
4550.00000000 -20040.00000000 870.00000000 24 36 225 0.000000 0.000000 0.000000 0.000000 -60.708740 0.000000 155.000000 0.669129 0.474595 -0.571862
4580.00000000 -20070.00000000 830.00000000 24 36 225 0.000000 0.000000 0.000000 0.000000 -60.708740 0.000000 155.000000 0.528033 0.555026 -0.642750
4690.00000000 -20100.00000000 740.00000000 24 36 225 0.000000 0.000000 0.000000 0.000000 -60.708740 0.000000 155.000000 -0.449441 0.619862 -0.643253
4630.00000000 -20090.00000000 810.00000000 24 36 225 0.000000 0.000000 0.000000 0.000000 -60.708740 0.000000 155.000000 -0.234612 -0.560892 0.793950
4630.00000000 -20080.00000000 800.00000000 24 36 225 0.000000 0.000000 0.000000 0.000000 -60.708740 0.000000 155.000000 0.365917 -0.648148 0.667839
4690.00000000 -20080.00000000 720.00000000 24 36 225 0.000000 0.000000 0.000000 0.000000 -60.708740 0.000000 155.000000 0.117111 -0.662640 0.739725
4690.00000000 -20090.00000000 720.00000000 24 36 225 0.000000 0.000000 0.000000 0.000000 -60.708740 0.000000 155.000000 0.463758 -0.530246 0.709766
4690.00000000 -20080.00000000 710.00000000 24 36 225 0.000000 0.000000 0.000000 0.000000 -60.708740 0.000000 155.000000 0.221545 -0.577877 0.785478
4680.00000000 -20090.00000000 690.00000000 24 36 225 0.000000 0.000000 0.000000 0.000000 -60.708740 0.000000 155.000000 -0.507876 0.605739 -0.612488
4650.00000000 -20110.00000000 680.00000000 24 36 225 0.000000 0.000000 0.000000 0.000000 -60.708740 0.000000 155.000000 0.091254 -0.583735 0.806800
4650.00000000 -20140.00000000 680.00000000 24 36 225 0.000000 0.000000 0.000000 0.000000 -60.708740 0.000000 155.000000 0.522460 -0.740015 0.423572
4610.00000000 -20100.00000000 770.00000000 24 36 225 0.000000 0.000000 0.000000 0.000000 -60.708740 0.000000 155.000000 0.166308 -0.475377 0.863920
4550.00000000 -20090.00000000 820.00000000 24 36 225 0.000000 0.000000 0.000000 0.000000 -60.708740 0.000000 155.000000 0.378685 0.581962 -0.719665
4550.00000000 -20090.00000000 730.00000000 24 36 225 0.000000 0.000000 0.000000 0.000000 -60.708740 0.000000 155.000000 0.607906 0.380559 -0.696868
4550.00000000 -20110.00000000 690.00000000 24 36 225 0.000000 0.000000 0.000000 0.000000 -60.708740 0.000000 155.000000 -0.223221 -0.540349 0.811293
4550.00000000 -20120.00000000 660.00000000 24 36 225 0.000000 0.000000 0.000000 0.000000 -60.708740 0.000000 155.000000 -0.166453 -0.342697 0.924582
4570.00000000 -20100.00000000 680.00000000 24 36 225 0.000000 0.000000 0.000000 0.000000 -60.708740 0.000000 155.000000 -0.139099 -0.629685 0.764296
4460.00000000 -19970.00000000 870.00000000 24 36 225 0.000000 0.000000 0.000000 0.000000 -60.708740 0.000000 155.000000 0.679558 0.159628 -0.716044
4530.00000000 -20060.00000000 840.00000000 24 36 225 0.000000 0.000000 0.000000 0.000000 -60.708740 0.000000 155.000000 -0.081308 -0.540624 0.837326
4520.00000000 -20050.00000000 860.00000000 24 36 225 0.000000 0.000000 0.000000 0.000000 -60.708740 0.000000 155.000000 -0.009742 -0.719487 0.694437
4520.00000000 -20050.00000000 860.00000000 24 36 225 0.000000 0.000000 0.000000 0.000000 -60.708740 0.000000 155.000000 -0.009742 -0.719487 0.694437
4490.00000000 -20000.00000000 890.00000000 24 36 225 0.000000 0.000000 0.000000 0.000000 -60.708740 0.000000 155.000000 0.607332 0.482837 -0.630885
4490.00000000 -20020.00000000 840.00000000 24 36 225 0.000000 0.000000 0.000000 0.000000 -60.708740 0.000000 155.000000 0.275751 0.709301 -0.648732
4480.00000000 -20000.00000000 830.00000000 24 36 225 0.000000 0.000000 0.000000 0.000000 -60.708740 0.000000 155.000000 0.238499 0.777849 -0.581438
4440.00000000 -19950.00000000 870.00000000 24 36 225 0.000000 0.000000 0.000000 0.000000 -60.708740 0.000000 155.000000 -0.468285 -0.528278 0.708260
4450.00000000 -19940.00000000 870.00000000 24 36 225 0.000000 0.000000 0.000000 0.000000 -60.708740 0.000000 155.000000 -0.519069 -0.252562 0.816566
4450.00000000 -19930.00000000 900.00000000 24 36 225 0.000000 0.000000 0.000000 0.000000 -60.708740 0.000000 155.000000 0.741665 0.233632 -0.628768
4440.00000000 -19950.00000000 870.00000000 24 36 225 0.000000 0.000000 0.000000 0.000000 -60.708740 0.000000 155.000000 -0.468285 -0.528278 0.708260
4450.00000000 -19940.00000000 870.00000000 24 36 225 0.000000 0.000000 0.000000 0.000000 -60.708740 0.000000 155.000000 -0.519069 -0.252562 0.816566
4430.00000000 -19950.00000000 840.00000000 24 36 225 0.000000 0.000000 0.000000 0.000000 -60.708740 0.000000 155.000000 -0.611129 -0.325827 0.721359
4460.00000000 -19980.00000000 740.00000000 24 36 225 0.000000 0.000000 0.000000 0.000000 -60.708740 0.000000 155.000000 0.857399 0.185745 -0.479965
4460.00000000 -19990.00000000 710.00000000 24 36 225 0.000000 0.000000 0.000000 0.000000 -60.708740 0.000000 155.000000 -0.615208 -0.178609 0.767866
4470.00000000 -19970.00000000 680.00000000 24 36 225 0.000000 0.000000 0.000000 0.000000 -60.708740 0.000000 155.000000 0.701261 0.023891 -0.712504
4530.00000000 -20060.00000000 790.00000000 24 36 225 0.000000 0.000000 0.000000 0.000000 -60.708740 0.000000 155.000000 0.536479 0.533115 -0.654201
4530.00000000 -20060.00000000 790.00000000 24 36 225 0.000000 0.000000 0.000000 0.000000 -60.708740 0.000000 155.000000 0.536479 0.533115 -0.654201
4500.00000000 -20070.00000000 760.00000000 24 36 225 0.000000 0.000000 0.000000 0.000000 -60.708740 0.000000 155.000000 0.658880 0.304470 -0.687877
4510.00000000 -20060.00000000 760.00000000 24 36 225 0.000000 0.000000 0.000000 0.000000 -60.708740 0.000000 155.000000 0.625935 0.354642 -0.694575
4520.00000000 -20050.00000000 780.00000000 24 36 225 0.000000 0.000000 0.000000 0.000000 -60.708740 0.000000 155.000000 0.692227 0.401459 -0.599710
4510.00000000 -20060.00000000 760.00000000 24 36 225 0.000000 0.000000 0.000000 0.000000 -60.708740 0.000000 155.000000 0.625935 0.354642 -0.694575
4480.00000000 -20030.00000000 740.00000000 24 36 225 0.000000 0.000000 0.000000 0.000000 -60.708740 0.000000 155.000000 0.659396 0.355059 -0.662669
4470.00000000 -20010.00000000 780.00000000 24 36 225 0.000000 0.000000 0.000000 0.000000 -60.708740 0.000000 155.000000 -0.591294 -0.225033 0.774424
4480.00000000 -20010.00000000 760.00000000 24 36 225 0.000000 0.000000 0.000000 0.000000 -60.708740 0.000000 155.000000 0.344050 0.712559 -0.611464
4480.00000000 -20040.00000000 800.00000000 24 36 225 0.000000 0.000000 0.000000 0.000000 -60.708740 0.000000 155.000000 0.828093 0.339124 -0.446382
4490.00000000 -20040.00000000 800.00000000 24 36 225 0.000000 0.000000 0.000000 0.000000 -60.708740 0.000000 155.000000 0.755895 0.396723 -0.520801
4530.00000000 -20070.00000000 680.00000000 24 36 225 0.000000 0.000000 0.000000 0.000000 -60.708740 0.000000 155.000000 0.259891 0.590661 -0.763922
4510.00000000 -20070.00000000 690.00000000 24 36 225 0.000000 0.000000 0.000000 0.000000 -60.708740 0.000000 155.000000 0.433248 0.420363 -0.797240
4460.00000000 -20010.00000000 700.00000000 24 36 225 0.000000 0.000000 0.000000 0.000000 -60.708740 0.000000 155.000000 -0.570894 -0.316806 0.757439
4460.00000000 -20010.00000000 730.00000000 24 36 225 0.000000 0.000000 0.000000 0.000000 -60.708740 0.000000 155.000000 -0.642653 -0.064697 0.763421
4460.00000000 -20000.00000000 730.00000000 24 36 225 0.000000 0.000000 0.000000 0.000000 -60.708740 0.000000 155.000000 0.691581 0.279507 -0.666026
4430.00000000 -19920.00000000 820.00000000 24 36 225 0.000000 0.000000 0.000000 0.000000 -60.708740 0.000000 155.000000 0.615730 0.668839 -0.416572
4440.00000000 -19910.00000000 780.00000000 24 36 225 0.000000 0.000000 0.000000 0.000000 -60.708740 0.000000 155.000000 0.690358 0.503143 -0.519858
4430.00000000 -19970.00000000 810.00000000 24 36 225 0.000000 0.000000 0.000000 0.000000 -60.708740 0.000000 155.000000 0.822172 0.124571 -0.555442
4430.00000000 -19970.00000000 810.00000000 24 36 225 0.000000 0.000000 0.000000 0.000000 -60.708740 0.000000 155.000000 0.822172 0.124571 -0.555442
4420.00000000 -19930.00000000 710.00000000 24 36 225 0.000000 0.000000 0.000000 0.000000 -60.708740 0.000000 155.000000 0.950280 -0.151455 -0.272083
4520.00000000 -20110.00000000 750.00000000 24 36 225 0.000000 0.000000 0.000000 0.000000 -60.708740 0.000000 155.000000 0.107975 0.678909 -0.726240
4540.00000000 -20090.00000000 750.00000000 24 36 225 0.000000 0.000000 0.000000 0.000000 -60.708740 0.000000 155.000000 -0.287878 -0.432587 0.854397
4510.00000000 -20090.00000000 670.00000000 24 36 225 0.000000 0.000000 0.000000 0.000000 -60.708740 0.000000 155.000000 0.771194 0.438586 -0.461412
4510.00000000 -20090.00000000 670.00000000 24 36 225 0.000000 0.000000 0.000000 0.000000 -60.708740 0.000000 155.000000 0.771194 0.438586 -0.461412
4540.00000000 -20130.00000000 660.00000000 24 36 225 0.000000 0.000000 0.000000 0.000000 -60.708740 0.000000 155.000000 -0.184381 -0.370192 0.910473
4530.00000000 -20130.00000000 660.00000000 24 36 225 0.000000 0.000000 0.000000 0.000000 -60.708740 0.000000 155.000000 -0.332181 -0.448680 0.829664
4760.00000000 -19920.00000000 580.00000000 24 36 225 0.000000 0.000000 0.000000 0.000000 -60.708740 0.000000 155.000000 0.918737 0.343280 -0.195143
4760.00000000 -19920.00000000 580.00000000 24 36 225 0.000000 0.000000 0.000000 0.000000 -60.708740 0.000000 155.000000 0.918737 0.343280 -0.195143
4770.00000000 -19990.00000000 630.00000000 24 36 225 0.000000 0.000000 0.000000 0.000000 -60.708740 0.000000 155.000000 0.989017 -0.068408 0.131019
4780.00000000 -19970.00000000 590.00000000 24 36 225 0.000000 0.000000 0.000000 0.000000 -60.708740 0.000000 155.000000 0.992029 0.053165 -0.114247
4770.00000000 -19950.00000000 540.00000000 24 36 225 0.000000 0.000000 0.000000 0.000000 -60.708740 0.000000 155.000000 0.901448 0.284745 -0.326056
4770.00000000 -19950.00000000 550.00000000 24 36 225 0.000000 0.000000 0.000000 0.000000 -60.708740 0.000000 155.000000 0.932199 0.053755 -0.357933
4790.00000000 -19920.00000000 510.00000000 24 36 225 0.000000 0.000000 0.000000 0.000000 -60.708740 0.000000 155.000000 0.736693 0.155810 -0.658032
4780.00000000 -19930.00000000 520.00000000 24 36 225 0.000000 0.000000 0.000000 0.000000 -60.708740 0.000000 155.000000 0.868882 -0.249331 -0.427641
4760.00000000 -19950.00000000 500.00000000 24 36 225 0.000000 0.000000 0.000000 0.000000 -60.708740 0.000000 155.000000 0.813131 0.498574 -0.300402
4770.00000000 -19960.00000000 530.00000000 24 36 225 0.000000 0.000000 0.000000 0.000000 -60.708740 0.000000 155.000000 0.959558 0.233620 -0.157067
4780.00000000 -19960.00000000 560.00000000 24 36 225 0.000000 0.000000 0.000000 0.000000 -60.708740 0.000000 155.000000 0.932199 0.053755 -0.357933
4780.00000000 -19970.00000000 550.00000000 24 36 225 0.000000 0.000000 0.000000 0.000000 -60.708740 0.000000 155.000000 0.975797 0.118695 -0.183665
4770.00000000 -19980.00000000 540.00000000 24 36 225 0.000000 0.000000 0.000000 0.000000 -60.708740 0.000000 155.000000 0.912791 -0.150956 -0.379507
4770.00000000 -19960.00000000 540.00000000 24 36 225 0.000000 0.000000 0.000000 0.000000 -60.708740 0.000000 155.000000 0.916969 0.313358 -0.246932
4780.00000000 -19960.00000000 550.00000000 24 36 225 0.000000 0.000000 0.000000 0.000000 -60.708740 0.000000 155.000000 0.922337 0.230227 -0.310306
4760.00000000 -19970.00000000 490.00000000 24 36 225 0.000000 0.000000 0.000000 0.000000 -60.708740 0.000000 155.000000 0.921816 0.193992 -0.335592
4760.00000000 -20020.00000000 620.00000000 24 36 225 0.000000 0.000000 0.000000 0.000000 -60.708740 0.000000 155.000000 0.953023 -0.294524 -0.070737
4760.00000000 -20010.00000000 570.00000000 24 36 225 0.000000 0.000000 0.000000 0.000000 -60.708740 0.000000 155.000000 0.973595 0.042436 0.224303
4780.00000000 -20050.00000000 650.00000000 24 36 225 0.000000 0.000000 0.000000 0.000000 -60.708740 0.000000 155.000000 0.941333 -0.334438 0.045194
4760.00000000 -20070.00000000 640.00000000 24 36 225 0.000000 0.000000 0.000000 0.000000 -60.708740 0.000000 155.000000 0.522262 -0.430001 0.736439
4760.00000000 -20070.00000000 580.00000000 24 36 225 0.000000 0.000000 0.000000 0.000000 -60.708740 0.000000 155.000000 0.971959 -0.109676 0.208007
4760.00000000 -20060.00000000 570.00000000 24 36 225 0.000000 0.000000 0.000000 0.000000 -60.708740 0.000000 155.000000 0.785689 -0.279813 0.551722
4770.00000000 -20070.00000000 590.00000000 24 36 225 0.000000 0.000000 0.000000 0.000000 -60.708740 0.000000 155.000000 0.936557 -0.242189 0.253388
4750.00000000 -20040.00000000 600.00000000 24 36 225 0.000000 0.000000 0.000000 0.000000 -60.708740 0.000000 155.000000 0.958167 -0.283577 0.038726
4740.00000000 -20060.00000000 610.00000000 24 36 225 0.000000 0.000000 0.000000 0.000000 -60.708740 0.000000 155.000000 0.877490 -0.462364 0.127401
4780.00000000 -20020.00000000 550.00000000 24 36 225 0.000000 0.000000 0.000000 0.000000 -60.708740 0.000000 155.000000 0.995754 0.027147 -0.087956
4770.00000000 -20020.00000000 540.00000000 24 36 225 0.000000 0.000000 0.000000 0.000000 -60.708740 0.000000 155.000000 0.995603 0.069461 0.062845
4770.00000000 -20010.00000000 550.00000000 24 36 225 0.000000 0.000000 0.000000 0.000000 -60.708740 0.000000 155.000000 0.990416 -0.049121 -0.129085
4770.00000000 -20020.00000000 490.00000000 24 36 225 0.000000 0.000000 0.000000 0.000000 -60.708740 0.000000 155.000000 0.986455 0.007910 0.163844
4770.00000000 -20020.00000000 490.00000000 24 36 225 0.000000 0.000000 0.000000 0.000000 -60.708740 0.000000 155.000000 0.986455 0.007910 0.163844
4770.00000000 -20020.00000000 490.00000000 24 36 225 0.000000 0.000000 0.000000 0.000000 -60.708740 0.000000 155.000000 0.986455 0.007910 0.163844
4780.00000000 -20030.00000000 490.00000000 24 36 225 0.000000 0.000000 0.000000 0.000000 -60.708740 0.000000 155.000000 0.973365 0.224810 -0.044962
4770.00000000 -20020.00000000 500.00000000 24 36 225 0.000000 0.000000 0.000000 0.000000 -60.708740 0.000000 155.000000 0.998982 -0.042356 0.015496
4770.00000000 -20010.00000000 510.00000000 24 36 225 0.000000 0.000000 0.000000 0.000000 -60.708740 0.000000 155.000000 0.991472 0.037138 -0.124919
4760.00000000 -20060.00000000 530.00000000 24 36 225 0.000000 0.000000 0.000000 0.000000 -60.708740 0.000000 155.000000 0.886099 -0.424802 -0.185395
4760.00000000 -20060.00000000 550.00000000 24 36 225 0.000000 0.000000 0.000000 0.000000 -60.708740 0.000000 155.000000 0.924989 -0.379975 -0.003838
4770.00000000 -20050.00000000 500.00000000 24 36 225 0.000000 0.000000 0.000000 0.000000 -60.708740 0.000000 155.000000 0.890341 -0.309749 -0.333691
4770.00000000 -20070.00000000 500.00000000 24 36 225 0.000000 0.000000 0.000000 0.000000 -60.708740 0.000000 155.000000 0.987960 -0.042654 0.148713
4770.00000000 -20040.00000000 520.00000000 24 36 225 0.000000 0.000000 0.000000 0.000000 -60.708740 0.000000 155.000000 0.987103 -0.100725 0.124425
4770.00000000 -20070.00000000 490.00000000 24 36 225 0.000000 0.000000 0.000000 0.000000 -60.708740 0.000000 155.000000 0.987697 0.052228 0.147400
4770.00000000 -20050.00000000 500.00000000 24 36 225 0.000000 0.000000 0.000000 0.000000 -60.708740 0.000000 155.000000 0.890341 -0.309749 -0.333691
4770.00000000 -20040.00000000 520.00000000 24 36 225 0.000000 0.000000 0.000000 0.000000 -60.708740 0.000000 155.000000 0.987103 -0.100725 0.124425
4750.00000000 -20070.00000000 530.00000000 24 36 225 0.000000 0.000000 0.000000 0.000000 -60.708740 0.000000 155.000000 0.951034 -0.306908 0.036627
4750.00000000 -20060.00000000 550.00000000 24 36 225 0.000000 0.000000 0.000000 0.000000 -60.708740 0.000000 155.000000 0.968108 -0.171907 0.182247
4750.00000000 -20060.00000000 550.00000000 24 36 225 0.000000 0.000000 0.000000 0.000000 -60.708740 0.000000 155.000000 0.968108 -0.171907 0.182247
4750.00000000 -20070.00000000 540.00000000 24 36 225 0.000000 0.000000 0.000000 0.000000 -60.708740 0.000000 155.000000 0.973287 -0.183520 0.137956
4750.00000000 -20070.00000000 530.00000000 24 36 225 0.000000 0.000000 0.000000 0.000000 -60.708740 0.000000 155.000000 0.951034 -0.306908 0.036627
4750.00000000 -20050.00000000 520.00000000 24 36 225 0.000000 0.000000 0.000000 0.000000 -60.708740 0.000000 155.000000 0.836569 -0.501332 -0.220952
4750.00000000 -20070.00000000 490.00000000 24 36 225 0.000000 0.000000 0.000000 0.000000 -60.708740 0.000000 155.000000 0.982619 -0.055844 0.177038
4750.00000000 -20050.00000000 490.00000000 24 36 225 0.000000 0.000000 0.000000 0.000000 -60.708740 0.000000 155.000000 0.836099 -0.473117 -0.277666
4800.00000000 -20010.00000000 400.00000000 24 36 225 0.000000 0.000000 0.000000 0.000000 -60.708740 0.000000 155.000000 0.855724 0.113617 -0.504805
4770.00000000 -19940.00000000 460.00000000 24 36 225 0.000000 0.000000 0.000000 0.000000 -60.708740 0.000000 155.000000 0.666814 0.233777 -0.707607
4760.00000000 -19960.00000000 460.00000000 24 36 225 0.000000 0.000000 0.000000 0.000000 -60.708740 0.000000 155.000000 0.843061 0.490646 -0.220259
4760.00000000 -19960.00000000 460.00000000 24 36 225 0.000000 0.000000 0.000000 0.000000 -60.708740 0.000000 155.000000 0.843061 0.490646 -0.220259
4790.00000000 -19980.00000000 450.00000000 24 36 225 0.000000 0.000000 0.000000 0.000000 -60.708740 0.000000 155.000000 0.791719 0.106831 -0.601472
4770.00000000 -19970.00000000 480.00000000 24 36 225 0.000000 0.000000 0.000000 0.000000 -60.708740 0.000000 155.000000 0.827123 0.415934 -0.377978
4760.00000000 -19990.00000000 430.00000000 24 36 225 0.000000 0.000000 0.000000 0.000000 -60.708740 0.000000 155.000000 0.957913 0.260061 -0.121536
4760.00000000 -19970.00000000 420.00000000 24 36 225 0.000000 0.000000 0.000000 0.000000 -60.708740 0.000000 155.000000 0.874063 0.076918 -0.479686
4750.00000000 -19930.00000000 450.00000000 24 36 225 0.000000 0.000000 0.000000 0.000000 -60.708740 0.000000 155.000000 0.769071 0.502416 -0.395104
4750.00000000 -19920.00000000 460.00000000 24 36 225 0.000000 0.000000 0.000000 0.000000 -60.708740 0.000000 155.000000 -0.583600 -0.281464 0.761701
4750.00000000 -19940.00000000 420.00000000 24 36 225 0.000000 0.000000 0.000000 0.000000 -60.708740 0.000000 155.000000 0.702951 -0.001381 -0.711237
4750.00000000 -19950.00000000 410.00000000 24 36 225 0.000000 0.000000 0.000000 0.000000 -60.708740 0.000000 155.000000 0.727522 0.611377 -0.311334
4750.00000000 -19990.00000000 460.00000000 24 36 225 0.000000 0.000000 0.000000 0.000000 -60.708740 0.000000 155.000000 0.950702 0.254869 -0.176655
4750.00000000 -19980.00000000 440.00000000 24 36 225 0.000000 0.000000 0.000000 0.000000 -60.708740 0.000000 155.000000 0.830733 0.519019 -0.201252
4760.00000000 -19950.00000000 400.00000000 24 36 225 0.000000 0.000000 0.000000 0.000000 -60.708740 0.000000 155.000000 0.807378 0.163881 -0.566819
4770.00000000 -19990.00000000 380.00000000 24 36 225 0.000000 0.000000 0.000000 0.000000 -60.708740 0.000000 155.000000 0.902188 0.116095 -0.415426
4760.00000000 -19970.00000000 360.00000000 24 36 225 0.000000 0.000000 0.000000 0.000000 -60.708740 0.000000 155.000000 0.653184 0.649876 -0.388603
4720.00000000 -19910.00000000 390.00000000 24 36 225 0.000000 0.000000 0.000000 0.000000 -60.708740 0.000000 155.000000 0.570273 0.459898 -0.680649
4740.00000000 -19910.00000000 330.00000000 24 36 225 0.000000 0.000000 0.000000 0.000000 -60.708740 0.000000 155.000000 -0.514693 -0.514693 0.685698
4730.00000000 -19930.00000000 330.00000000 24 36 225 0.000000 0.000000 0.000000 0.000000 -60.708740 0.000000 155.000000 0.445611 0.768801 -0.458669
4720.00000000 -19940.00000000 320.00000000 24 36 225 0.000000 0.000000 0.000000 0.000000 -60.708740 0.000000 155.000000 0.516596 0.644483 -0.563712
4750.00000000 -19940.00000000 320.00000000 24 36 225 0.000000 0.000000 0.000000 0.000000 -60.708740 0.000000 155.000000 0.630137 0.552426 -0.545668
4750.00000000 -19960.00000000 360.00000000 24 36 225 0.000000 0.000000 0.000000 0.000000 -60.708740 0.000000 155.000000 0.691572 0.441606 -0.571588
4750.00000000 -19970.00000000 360.00000000 24 36 225 0.000000 0.000000 0.000000 0.000000 -60.708740 0.000000 155.000000 0.489833 0.594196 -0.637961
4750.00000000 -19970.00000000 380.00000000 24 36 225 0.000000 0.000000 0.000000 0.000000 -60.708740 0.000000 155.000000 0.726703 0.652010 -0.216299
4740.00000000 -19970.00000000 360.00000000 24 36 225 0.000000 0.000000 0.000000 0.000000 -60.708740 0.000000 155.000000 0.551857 0.729769 -0.403597
4740.00000000 -19970.00000000 370.00000000 24 36 225 0.000000 0.000000 0.000000 0.000000 -60.708740 0.000000 155.000000 0.793022 0.504650 -0.341240
4750.00000000 -19970.00000000 380.00000000 24 36 225 0.000000 0.000000 0.000000 0.000000 -60.708740 0.000000 155.000000 0.726703 0.652010 -0.216299
4750.00000000 -19980.00000000 330.00000000 24 36 225 0.000000 0.000000 0.000000 0.000000 -60.708740 0.000000 155.000000 0.642039 0.700260 -0.312125
4750.00000000 -19970.00000000 330.00000000 24 36 225 0.000000 0.000000 0.000000 0.000000 -60.708740 0.000000 155.000000 0.633451 0.663221 -0.398594
4740.00000000 -19980.00000000 350.00000000 24 36 225 0.000000 0.000000 0.000000 0.000000 -60.708740 0.000000 155.000000 0.721039 0.579787 -0.379408
4770.00000000 -20030.00000000 450.00000000 24 36 225 0.000000 0.000000 0.000000 0.000000 -60.708740 0.000000 155.000000 0.995918 0.013966 -0.089171
4770.00000000 -20020.00000000 460.00000000 24 36 225 0.000000 0.000000 0.000000 0.000000 -60.708740 0.000000 155.000000 0.975658 0.201052 -0.087575
4760.00000000 -20020.00000000 470.00000000 24 36 225 0.000000 0.000000 0.000000 0.000000 -60.708740 0.000000 155.000000 0.912925 -0.301396 -0.275188
4770.00000000 -20030.00000000 480.00000000 24 36 225 0.000000 0.000000 0.000000 0.000000 -60.708740 0.000000 155.000000 0.917300 -0.213226 -0.336296
4770.00000000 -20030.00000000 450.00000000 24 36 225 0.000000 0.000000 0.000000 0.000000 -60.708740 0.000000 155.000000 0.995918 0.013966 -0.089171
4760.00000000 -20000.00000000 470.00000000 24 36 225 0.000000 0.000000 0.000000 0.000000 -60.708740 0.000000 155.000000 0.867680 0.377984 -0.322893
4770.00000000 -20010.00000000 440.00000000 24 36 225 0.000000 0.000000 0.000000 0.000000 -60.708740 0.000000 155.000000 0.974910 0.179424 0.131745
4770.00000000 -20010.00000000 440.00000000 24 36 225 0.000000 0.000000 0.000000 0.000000 -60.708740 0.000000 155.000000 0.974910 0.179424 0.131745
4770.00000000 -20010.00000000 420.00000000 24 36 225 0.000000 0.000000 0.000000 0.000000 -60.708740 0.000000 155.000000 0.854193 0.467160 -0.228289
4770.00000000 -20040.00000000 450.00000000 24 36 225 0.000000 0.000000 0.000000 0.000000 -60.708740 0.000000 155.000000 0.998507 0.001030 0.054614
4760.00000000 -20040.00000000 470.00000000 24 36 225 0.000000 0.000000 0.000000 0.000000 -60.708740 0.000000 155.000000 0.967252 -0.035552 -0.251314
4770.00000000 -20060.00000000 450.00000000 24 36 225 0.000000 0.000000 0.000000 0.000000 -60.708740 0.000000 155.000000 0.973191 -0.216402 -0.077905
4780.00000000 -20060.00000000 430.00000000 24 36 225 0.000000 0.000000 0.000000 0.000000 -60.708740 0.000000 155.000000 0.972738 0.204589 0.109198
4760.00000000 -20070.00000000 420.00000000 24 36 225 0.000000 0.000000 0.000000 0.000000 -60.708740 0.000000 155.000000 0.996032 0.071067 -0.053574
4770.00000000 -20050.00000000 440.00000000 24 36 225 0.000000 0.000000 0.000000 0.000000 -60.708740 0.000000 155.000000 0.991741 -0.003288 -0.128214
4770.00000000 -20050.00000000 430.00000000 24 36 225 0.000000 0.000000 0.000000 0.000000 -60.708740 0.000000 155.000000 0.999568 0.003026 -0.029251
4780.00000000 -20070.00000000 420.00000000 24 36 225 0.000000 0.000000 0.000000 0.000000 -60.708740 0.000000 155.000000 0.899245 -0.119618 -0.420773
4740.00000000 -20040.00000000 470.00000000 24 36 225 0.000000 0.000000 0.000000 0.000000 -60.708740 0.000000 155.000000 0.994616 0.020744 0.101536
4780.00000000 -20010.00000000 360.00000000 24 36 225 0.000000 0.000000 0.000000 0.000000 -60.708740 0.000000 155.000000 0.747844 0.229505 -0.622943
4770.00000000 -20010.00000000 400.00000000 24 36 225 0.000000 0.000000 0.000000 0.000000 -60.708740 0.000000 155.000000 0.968313 0.248441 0.025450
4760.00000000 -20020.00000000 390.00000000 24 36 225 0.000000 0.000000 0.000000 0.000000 -60.708740 0.000000 155.000000 0.942514 0.029334 -0.332877
4770.00000000 -20030.00000000 330.00000000 24 36 225 0.000000 0.000000 0.000000 0.000000 -60.708740 0.000000 155.000000 0.791706 0.513409 -0.331077
4770.00000000 -20020.00000000 340.00000000 24 36 225 0.000000 0.000000 0.000000 0.000000 -60.708740 0.000000 155.000000 0.806474 0.565286 -0.173354
4760.00000000 -20010.00000000 350.00000000 24 36 225 0.000000 0.000000 0.000000 0.000000 -60.708740 0.000000 155.000000 0.933229 0.351786 -0.073012
4770.00000000 -20020.00000000 330.00000000 24 36 225 0.000000 0.000000 0.000000 0.000000 -60.708740 0.000000 155.000000 0.905536 0.364831 -0.216573
4770.00000000 -20060.00000000 380.00000000 24 36 225 0.000000 0.000000 0.000000 0.000000 -60.708740 0.000000 155.000000 0.995430 0.051696 -0.080294
4770.00000000 -20060.00000000 370.00000000 24 36 225 0.000000 0.000000 0.000000 0.000000 -60.708740 0.000000 155.000000 0.999545 -0.007075 -0.029309
4770.00000000 -20060.00000000 380.00000000 24 36 225 0.000000 0.000000 0.000000 0.000000 -60.708740 0.000000 155.000000 0.995430 0.051696 -0.080294
4770.00000000 -20070.00000000 380.00000000 24 36 225 0.000000 0.000000 0.000000 0.000000 -60.708740 0.000000 155.000000 0.993624 0.099698 -0.052650
4760.00000000 -20060.00000000 330.00000000 24 36 225 0.000000 0.000000 0.000000 0.000000 -60.708740 0.000000 155.000000 0.870936 0.344395 -0.350517
4730.00000000 -20090.00000000 640.00000000 24 36 225 0.000000 0.000000 0.000000 0.000000 -60.708740 0.000000 155.000000 -0.709585 0.440375 -0.550053
4710.00000000 -20090.00000000 620.00000000 24 36 225 0.000000 0.000000 0.000000 0.000000 -60.708740 0.000000 155.000000 0.730063 -0.420239 0.538895
4710.00000000 -20100.00000000 650.00000000 24 36 225 0.000000 0.000000 0.000000 0.000000 -60.708740 0.000000 155.000000 0.629694 -0.410381 0.659600
4740.00000000 -20110.00000000 590.00000000 24 36 225 0.000000 0.000000 0.000000 0.000000 -60.708740 0.000000 155.000000 0.683435 -0.434006 0.586989
4730.00000000 -20090.00000000 590.00000000 24 36 225 0.000000 0.000000 0.000000 0.000000 -60.708740 0.000000 155.000000 0.799185 -0.445421 0.403613
4740.00000000 -20080.00000000 590.00000000 24 36 225 0.000000 0.000000 0.000000 0.000000 -60.708740 0.000000 155.000000 0.877141 -0.383276 0.289350
4730.00000000 -20120.00000000 580.00000000 24 36 225 0.000000 0.000000 0.000000 0.000000 -60.708740 0.000000 155.000000 0.468827 -0.535563 0.702406
4710.00000000 -20100.00000000 600.00000000 24 36 225 0.000000 0.000000 0.000000 0.000000 -60.708740 0.000000 155.000000 0.749529 -0.575445 0.327214
4710.00000000 -20110.00000000 600.00000000 24 36 225 0.000000 0.000000 0.000000 0.000000 -60.708740 0.000000 155.000000 0.850732 -0.471618 0.232018
4740.00000000 -20100.00000000 580.00000000 24 36 225 0.000000 0.000000 0.000000 0.000000 -60.708740 0.000000 155.000000 0.926293 -0.339501 0.163463
4740.00000000 -20090.00000000 580.00000000 24 36 225 0.000000 0.000000 0.000000 0.000000 -60.708740 0.000000 155.000000 0.866493 -0.485522 0.116010
4720.00000000 -20130.00000000 600.00000000 24 36 225 0.000000 0.000000 0.000000 0.000000 -60.708740 0.000000 155.000000 0.759955 -0.625935 0.175140
4760.00000000 -20080.00000000 550.00000000 24 36 225 0.000000 0.000000 0.000000 0.000000 -60.708740 0.000000 155.000000 0.984498 -0.174946 -0.012578
4770.00000000 -20090.00000000 490.00000000 24 36 225 0.000000 0.000000 0.000000 0.000000 -60.708740 0.000000 155.000000 0.923335 -0.293463 -0.247654
4750.00000000 -20100.00000000 550.00000000 24 36 225 0.000000 0.000000 0.000000 0.000000 -60.708740 0.000000 155.000000 0.873075 -0.306262 0.379399
4720.00000000 -20120.00000000 550.00000000 24 36 225 0.000000 0.000000 0.000000 0.000000 -60.708740 0.000000 155.000000 0.798153 -0.487849 0.353491
4720.00000000 -20100.00000000 560.00000000 24 36 225 0.000000 0.000000 0.000000 0.000000 -60.708740 0.000000 155.000000 0.727510 -0.686096 0.001380
4750.00000000 -20090.00000000 540.00000000 24 36 225 0.000000 0.000000 0.000000 0.000000 -60.708740 0.000000 155.000000 0.849797 -0.521756 -0.074941
4750.00000000 -20090.00000000 540.00000000 24 36 225 0.000000 0.000000 0.000000 0.000000 -60.708740 0.000000 155.000000 0.849797 -0.521756 -0.074941
4730.00000000 -20100.00000000 530.00000000 24 36 225 0.000000 0.000000 0.000000 0.000000 -60.708740 0.000000 155.000000 0.865864 -0.497353 0.054030
4740.00000000 -20100.00000000 560.00000000 24 36 225 0.000000 0.000000 0.000000 0.000000 -60.708740 0.000000 155.000000 0.752759 -0.380462 0.537218
4750.00000000 -20110.00000000 550.00000000 24 36 225 0.000000 0.000000 0.000000 0.000000 -60.708740 0.000000 155.000000 0.865227 -0.402752 0.298618
4750.00000000 -20090.00000000 500.00000000 24 36 225 0.000000 0.000000 0.000000 0.000000 -60.708740 0.000000 155.000000 0.952768 -0.139527 0.269752
4750.00000000 -20100.00000000 500.00000000 24 36 225 0.000000 0.000000 0.000000 0.000000 -60.708740 0.000000 155.000000 0.844848 -0.360739 0.395095
4750.00000000 -20110.00000000 510.00000000 24 36 225 0.000000 0.000000 0.000000 0.000000 -60.708740 0.000000 155.000000 0.904646 -0.262450 0.335760
4750.00000000 -20090.00000000 520.00000000 24 36 225 0.000000 0.000000 0.000000 0.000000 -60.708740 0.000000 155.000000 0.982547 -0.186011 0.001141
4750.00000000 -20080.00000000 510.00000000 24 36 225 0.000000 0.000000 0.000000 0.000000 -60.708740 0.000000 155.000000 0.947253 -0.319933 0.018820
4750.00000000 -20090.00000000 520.00000000 24 36 225 0.000000 0.000000 0.000000 0.000000 -60.708740 0.000000 155.000000 0.982547 -0.186011 0.001141
4750.00000000 -20100.00000000 490.00000000 24 36 225 0.000000 0.000000 0.000000 0.000000 -60.708740 0.000000 155.000000 0.982757 -0.174686 -0.060605
4750.00000000 -20080.00000000 520.00000000 24 36 225 0.000000 0.000000 0.000000 0.000000 -60.708740 0.000000 155.000000 0.931582 -0.347484 -0.106814
4710.00000000 -20130.00000000 550.00000000 24 36 225 0.000000 0.000000 0.000000 0.000000 -60.708740 0.000000 155.000000 0.764412 -0.565697 0.309291
4710.00000000 -20130.00000000 510.00000000 24 36 225 0.000000 0.000000 0.000000 0.000000 -60.708740 0.000000 155.000000 0.898882 -0.378553 0.220701
4720.00000000 -20130.00000000 500.00000000 24 36 225 0.000000 0.000000 0.000000 0.000000 -60.708740 0.000000 155.000000 0.845217 -0.496921 0.196667
4720.00000000 -20150.00000000 490.00000000 24 36 225 0.000000 0.000000 0.000000 0.000000 -60.708740 0.000000 155.000000 0.939542 -0.327436 0.100236
4720.00000000 -20130.00000000 490.00000000 24 36 225 0.000000 0.000000 0.000000 0.000000 -60.708740 0.000000 155.000000 0.863474 -0.479382 0.156862
4760.00000000 -20110.00000000 450.00000000 24 36 225 0.000000 0.000000 0.000000 0.000000 -60.708740 0.000000 155.000000 0.977083 -0.197378 0.079687
4760.00000000 -20100.00000000 460.00000000 24 36 225 0.000000 0.000000 0.000000 0.000000 -60.708740 0.000000 155.000000 0.999257 -0.021611 -0.031902
4760.00000000 -20090.00000000 450.00000000 24 36 225 0.000000 0.000000 0.000000 0.000000 -60.708740 0.000000 155.000000 0.956001 -0.289200 -0.049252
4770.00000000 -20100.00000000 470.00000000 24 36 225 0.000000 0.000000 0.000000 0.000000 -60.708740 0.000000 155.000000 0.968408 -0.249019 0.013233
4760.00000000 -20110.00000000 440.00000000 24 36 225 0.000000 0.000000 0.000000 0.000000 -60.708740 0.000000 155.000000 0.947118 -0.104647 0.303343
4780.00000000 -20090.00000000 410.00000000 24 36 225 0.000000 0.000000 0.000000 0.000000 -60.708740 0.000000 155.000000 0.994526 0.056671 0.087785
4750.00000000 -20110.00000000 460.00000000 24 36 225 0.000000 0.000000 0.000000 0.000000 -60.708740 0.000000 155.000000 0.958043 -0.275742 0.078234
4740.00000000 -20090.00000000 470.00000000 24 36 225 0.000000 0.000000 0.000000 0.000000 -60.708740 0.000000 155.000000 0.916420 -0.394289 -0.068631
4750.00000000 -20110.00000000 470.00000000 24 36 225 0.000000 0.000000 0.000000 0.000000 -60.708740 0.000000 155.000000 0.946566 -0.138293 0.291354
4750.00000000 -20110.00000000 450.00000000 24 36 225 0.000000 0.000000 0.000000 0.000000 -60.708740 0.000000 155.000000 0.965353 -0.252322 0.066533
4730.00000000 -20100.00000000 440.00000000 24 36 225 0.000000 0.000000 0.000000 0.000000 -60.708740 0.000000 155.000000 0.905034 -0.188489 0.381294
4750.00000000 -20110.00000000 440.00000000 24 36 225 0.000000 0.000000 0.000000 0.000000 -60.708740 0.000000 155.000000 0.924142 -0.220712 0.311845
4720.00000000 -20150.00000000 460.00000000 24 36 225 0.000000 0.000000 0.000000 0.000000 -60.708740 0.000000 155.000000 0.843170 -0.487671 0.226365
4720.00000000 -20160.00000000 480.00000000 24 36 225 0.000000 0.000000 0.000000 0.000000 -60.708740 0.000000 155.000000 0.875225 -0.474961 -0.091610
4720.00000000 -20130.00000000 450.00000000 24 36 225 0.000000 0.000000 0.000000 0.000000 -60.708740 0.000000 155.000000 0.838283 -0.540416 0.072339
4720.00000000 -20140.00000000 480.00000000 24 36 225 0.000000 0.000000 0.000000 0.000000 -60.708740 0.000000 155.000000 0.875079 -0.461405 0.146088
4740.00000000 -20150.00000000 450.00000000 24 36 225 0.000000 0.000000 0.000000 0.000000 -60.708740 0.000000 155.000000 0.865260 -0.188487 0.464539
4720.00000000 -20150.00000000 480.00000000 24 36 225 0.000000 0.000000 0.000000 0.000000 -60.708740 0.000000 155.000000 0.914313 -0.403876 -0.030258
4720.00000000 -20140.00000000 450.00000000 24 36 225 0.000000 0.000000 0.000000 0.000000 -60.708740 0.000000 155.000000 0.935687 -0.293358 0.196036
4720.00000000 -20140.00000000 480.00000000 24 36 225 0.000000 0.000000 0.000000 0.000000 -60.708740 0.000000 155.000000 0.875079 -0.461405 0.146088
4720.00000000 -20150.00000000 450.00000000 24 36 225 0.000000 0.000000 0.000000 0.000000 -60.708740 0.000000 155.000000 0.861513 -0.410025 0.299457
4720.00000000 -20140.00000000 480.00000000 24 36 225 0.000000 0.000000 0.000000 0.000000 -60.708740 0.000000 155.000000 0.875079 -0.461405 0.146088
4720.00000000 -20140.00000000 470.00000000 24 36 225 0.000000 0.000000 0.000000 0.000000 -60.708740 0.000000 155.000000 0.845969 -0.530996 0.048779
4720.00000000 -20140.00000000 480.00000000 24 36 225 0.000000 0.000000 0.000000 0.000000 -60.708740 0.000000 155.000000 0.875079 -0.461405 0.146088
4720.00000000 -20150.00000000 440.00000000 24 36 225 0.000000 0.000000 0.000000 0.000000 -60.708740 0.000000 155.000000 0.863193 -0.484727 0.141197
4740.00000000 -20140.00000000 440.00000000 24 36 225 0.000000 0.000000 0.000000 0.000000 -60.708740 0.000000 155.000000 0.851699 -0.454137 0.261473
4750.00000000 -20150.00000000 420.00000000 24 36 225 0.000000 0.000000 0.000000 0.000000 -60.708740 0.000000 155.000000 0.965418 -0.211794 -0.152024
4740.00000000 -20140.00000000 410.00000000 24 36 225 0.000000 0.000000 0.000000 0.000000 -60.708740 0.000000 155.000000 0.876561 -0.335736 -0.344851
4750.00000000 -20150.00000000 410.00000000 24 36 225 0.000000 0.000000 0.000000 0.000000 -60.708740 0.000000 155.000000 0.865944 -0.496215 0.062548
4720.00000000 -20150.00000000 430.00000000 24 36 225 0.000000 0.000000 0.000000 0.000000 -60.708740 0.000000 155.000000 0.905821 -0.423416 0.014420
4710.00000000 -20160.00000000 440.00000000 24 36 225 0.000000 0.000000 0.000000 0.000000 -60.708740 0.000000 155.000000 -0.702929 0.711248 -0.004159
4720.00000000 -20150.00000000 430.00000000 24 36 225 0.000000 0.000000 0.000000 0.000000 -60.708740 0.000000 155.000000 0.905821 -0.423416 0.014420
4770.00000000 -20080.00000000 360.00000000 24 36 225 0.000000 0.000000 0.000000 0.000000 -60.708740 0.000000 155.000000 0.972708 0.188470 -0.135344
4760.00000000 -20100.00000000 380.00000000 24 36 225 0.000000 0.000000 0.000000 0.000000 -60.708740 0.000000 155.000000 0.949333 -0.188780 0.251254
4760.00000000 -20100.00000000 380.00000000 24 36 225 0.000000 0.000000 0.000000 0.000000 -60.708740 0.000000 155.000000 0.949333 -0.188780 0.251254
4770.00000000 -20090.00000000 360.00000000 24 36 225 0.000000 0.000000 0.000000 0.000000 -60.708740 0.000000 155.000000 0.962175 0.085385 -0.258704
4770.00000000 -20080.00000000 380.00000000 24 36 225 0.000000 0.000000 0.000000 0.000000 -60.708740 0.000000 155.000000 0.926786 0.027220 -0.374603
4760.00000000 -20120.00000000 350.00000000 24 36 225 0.000000 0.000000 0.000000 0.000000 -60.708740 0.000000 155.000000 0.960841 -0.256654 0.104467
4770.00000000 -20120.00000000 330.00000000 24 36 225 0.000000 0.000000 0.000000 0.000000 -60.708740 0.000000 155.000000 0.970683 -0.228029 -0.076010
4770.00000000 -20100.00000000 350.00000000 24 36 225 0.000000 0.000000 0.000000 0.000000 -60.708740 0.000000 155.000000 0.977674 -0.132924 -0.162739
4760.00000000 -20130.00000000 370.00000000 24 36 225 0.000000 0.000000 0.000000 0.000000 -60.708740 0.000000 155.000000 0.937968 -0.325252 -0.120114
4760.00000000 -20130.00000000 370.00000000 24 36 225 0.000000 0.000000 0.000000 0.000000 -60.708740 0.000000 155.000000 0.937968 -0.325252 -0.120114
4760.00000000 -20140.00000000 320.00000000 24 36 225 0.000000 0.000000 0.000000 0.000000 -60.708740 0.000000 155.000000 0.955796 -0.108524 -0.273271
4760.00000000 -20140.00000000 320.00000000 24 36 225 0.000000 0.000000 0.000000 0.000000 -60.708740 0.000000 155.000000 0.955796 -0.108524 -0.273271
4750.00000000 -20080.00000000 380.00000000 24 36 225 0.000000 0.000000 0.000000 0.000000 -60.708740 0.000000 155.000000 0.946566 -0.138293 -0.291354
4750.00000000 -20120.00000000 390.00000000 24 36 225 0.000000 0.000000 0.000000 0.000000 -60.708740 0.000000 155.000000 0.907768 -0.419470 -0.001299
4750.00000000 -20100.00000000 360.00000000 24 36 225 0.000000 0.000000 0.000000 0.000000 -60.708740 0.000000 155.000000 0.992007 -0.108198 -0.064919
4750.00000000 -20110.00000000 400.00000000 24 36 225 0.000000 0.000000 0.000000 0.000000 -60.708740 0.000000 155.000000 0.978136 0.206482 0.024778
4710.00000000 -20200.00000000 420.00000000 24 36 225 0.000000 0.000000 0.000000 0.000000 -60.708740 0.000000 155.000000 0.837828 -0.488605 0.243537
4710.00000000 -20190.00000000 430.00000000 24 36 225 0.000000 0.000000 0.000000 0.000000 -60.708740 0.000000 155.000000 0.767286 -0.637726 0.067659
4710.00000000 -20170.00000000 410.00000000 24 36 225 0.000000 0.000000 0.000000 0.000000 -60.708740 0.000000 155.000000 0.835365 -0.350822 0.423189
4710.00000000 -20180.00000000 420.00000000 24 36 225 0.000000 0.000000 0.000000 0.000000 -60.708740 0.000000 155.000000 0.972759 -0.173752 0.153460
4710.00000000 -20180.00000000 410.00000000 24 36 225 0.000000 0.000000 0.000000 0.000000 -60.708740 0.000000 155.000000 0.848667 -0.232283 0.475193
4710.00000000 -20170.00000000 420.00000000 24 36 225 0.000000 0.000000 0.000000 0.000000 -60.708740 0.000000 155.000000 0.931007 -0.343146 0.124408
4710.00000000 -20180.00000000 440.00000000 24 36 225 0.000000 0.000000 0.000000 0.000000 -60.708740 0.000000 155.000000 0.768575 -0.571260 0.288017
4710.00000000 -20170.00000000 470.00000000 24 36 225 0.000000 0.000000 0.000000 0.000000 -60.708740 0.000000 155.000000 0.958981 -0.192327 0.208244
4710.00000000 -20170.00000000 390.00000000 24 36 225 0.000000 0.000000 0.000000 0.000000 -60.708740 0.000000 155.000000 0.764284 -0.583894 0.273750
4750.00000000 -20170.00000000 370.00000000 24 36 225 0.000000 0.000000 0.000000 0.000000 -60.708740 0.000000 155.000000 0.923095 -0.122437 0.364561
4740.00000000 -20170.00000000 390.00000000 24 36 225 0.000000 0.000000 0.000000 0.000000 -60.708740 0.000000 155.000000 0.889493 -0.242049 0.387575
4710.00000000 -20190.00000000 400.00000000 24 36 225 0.000000 0.000000 0.000000 0.000000 -60.708740 0.000000 155.000000 0.801968 -0.583384 0.128492
4720.00000000 -20180.00000000 390.00000000 24 36 225 0.000000 0.000000 0.000000 0.000000 -60.708740 0.000000 155.000000 0.760344 -0.634370 -0.139471
4730.00000000 -20180.00000000 350.00000000 24 36 225 0.000000 0.000000 0.000000 0.000000 -60.708740 0.000000 155.000000 0.914105 -0.401347 -0.057719
4730.00000000 -20190.00000000 350.00000000 24 36 225 0.000000 0.000000 0.000000 0.000000 -60.708740 0.000000 155.000000 0.852345 -0.506761 0.129231
4760.00000000 -19970.00000000 250.00000000 24 36 225 0.000000 0.000000 0.000000 0.000000 -60.708740 0.000000 155.000000 -0.423247 -0.372521 0.825887
4710.00000000 -19950.00000000 310.00000000 24 36 225 0.000000 0.000000 0.000000 0.000000 -60.708740 0.000000 155.000000 0.536709 0.519885 -0.664577
4730.00000000 -19940.00000000 240.00000000 24 36 225 0.000000 0.000000 0.000000 0.000000 -60.708740 0.000000 155.000000 -0.484720 -0.314200 0.816287
4730.00000000 -19940.00000000 240.00000000 24 36 225 0.000000 0.000000 0.000000 0.000000 -60.708740 0.000000 155.000000 -0.484720 -0.314200 0.816287
4720.00000000 -19930.00000000 250.00000000 24 36 225 0.000000 0.000000 0.000000 0.000000 -60.708740 0.000000 155.000000 0.132311 0.780487 -0.611010
4730.00000000 -19960.00000000 240.00000000 24 36 225 0.000000 0.000000 0.000000 0.000000 -60.708740 0.000000 155.000000 -0.532307 -0.219366 0.817636
4720.00000000 -19960.00000000 240.00000000 24 36 225 0.000000 0.000000 0.000000 0.000000 -60.708740 0.000000 155.000000 0.488258 0.575507 -0.656045
4730.00000000 -19980.00000000 220.00000000 24 36 225 0.000000 0.000000 0.000000 0.000000 -60.708740 0.000000 155.000000 0.446382 0.828093 -0.339124
4730.00000000 -19990.00000000 210.00000000 24 36 225 0.000000 0.000000 0.000000 0.000000 -60.708740 0.000000 155.000000 0.451445 0.822106 -0.346900
4730.00000000 -19980.00000000 210.00000000 24 36 225 0.000000 0.000000 0.000000 0.000000 -60.708740 0.000000 155.000000 0.492047 0.811641 -0.314847
4730.00000000 -19970.00000000 220.00000000 24 36 225 0.000000 0.000000 0.000000 0.000000 -60.708740 0.000000 155.000000 0.400339 0.799069 -0.448572
4720.00000000 -19970.00000000 230.00000000 24 36 225 0.000000 0.000000 0.000000 0.000000 -60.708740 0.000000 155.000000 0.402864 0.674756 -0.618388
4730.00000000 -19970.00000000 180.00000000 24 36 225 0.000000 0.000000 0.000000 0.000000 -60.708740 0.000000 155.000000 -0.595612 -0.317982 0.737654
4730.00000000 -19970.00000000 180.00000000 24 36 225 0.000000 0.000000 0.000000 0.000000 -60.708740 0.000000 155.000000 -0.595612 -0.317982 0.737654
4750.00000000 -19990.00000000 180.00000000 24 36 225 0.000000 0.000000 0.000000 0.000000 -60.708740 0.000000 155.000000 0.437408 0.805921 -0.398955
4720.00000000 -19970.00000000 170.00000000 24 36 225 0.000000 0.000000 0.000000 0.000000 -60.708740 0.000000 155.000000 0.589774 0.478877 -0.650264
4770.00000000 -20030.00000000 280.00000000 24 36 225 0.000000 0.000000 0.000000 0.000000 -60.708740 0.000000 155.000000 0.776929 0.094747 -0.622418
4770.00000000 -20030.00000000 280.00000000 24 36 225 0.000000 0.000000 0.000000 0.000000 -60.708740 0.000000 155.000000 0.776929 0.094747 -0.622418
4770.00000000 -20060.00000000 280.00000000 24 36 225 0.000000 0.000000 0.000000 0.000000 -60.708740 0.000000 155.000000 0.967088 0.253603 -0.020628
4770.00000000 -20040.00000000 280.00000000 24 36 225 0.000000 0.000000 0.000000 0.000000 -60.708740 0.000000 155.000000 0.830599 0.112007 -0.545490
4770.00000000 -20040.00000000 280.00000000 24 36 225 0.000000 0.000000 0.000000 0.000000 -60.708740 0.000000 155.000000 0.830599 0.112007 -0.545490
4760.00000000 -20020.00000000 210.00000000 24 36 225 0.000000 0.000000 0.000000 0.000000 -60.708740 0.000000 155.000000 0.801705 0.412902 -0.432182
4770.00000000 -20050.00000000 220.00000000 24 36 225 0.000000 0.000000 0.000000 0.000000 -60.708740 0.000000 155.000000 0.905311 -0.017081 -0.424406
4770.00000000 -20050.00000000 220.00000000 24 36 225 0.000000 0.000000 0.000000 0.000000 -60.708740 0.000000 155.000000 0.905311 -0.017081 -0.424406
4760.00000000 -20050.00000000 180.00000000 24 36 225 0.000000 0.000000 0.000000 0.000000 -60.708740 0.000000 155.000000 0.884237 0.067594 -0.462121
4720.00000000 -20010.00000000 210.00000000 24 36 225 0.000000 0.000000 0.000000 0.000000 -60.708740 0.000000 155.000000 0.684422 0.503695 -0.527122
4730.00000000 -20020.00000000 150.00000000 24 36 225 0.000000 0.000000 0.000000 0.000000 -60.708740 0.000000 155.000000 0.628032 0.510171 -0.587623
4720.00000000 -20010.00000000 180.00000000 24 36 225 0.000000 0.000000 0.000000 0.000000 -60.708740 0.000000 155.000000 0.565387 0.448641 -0.692141
4770.00000000 -20050.00000000 130.00000000 24 36 225 0.000000 0.000000 0.000000 0.000000 -60.708740 0.000000 155.000000 -0.637257 -0.129839 0.759635
4770.00000000 -20050.00000000 130.00000000 24 36 225 0.000000 0.000000 0.000000 0.000000 -60.708740 0.000000 155.000000 -0.637257 -0.129839 0.759635
4730.00000000 -20030.00000000 140.00000000 24 36 225 0.000000 0.000000 0.000000 0.000000 -60.708740 0.000000 155.000000 0.760294 0.308919 -0.571421
4710.00000000 -20010.00000000 130.00000000 24 36 225 0.000000 0.000000 0.000000 0.000000 -60.708740 0.000000 155.000000 0.558114 0.541252 -0.628932
4740.00000000 -20010.00000000 120.00000000 24 36 225 0.000000 0.000000 0.000000 0.000000 -60.708740 0.000000 155.000000 0.709248 0.251159 -0.658700
4740.00000000 -20060.00000000 130.00000000 24 36 225 0.000000 0.000000 0.000000 0.000000 -60.708740 0.000000 155.000000 0.801090 0.538745 -0.260784
4730.00000000 -20040.00000000 140.00000000 24 36 225 0.000000 0.000000 0.000000 0.000000 -60.708740 0.000000 155.000000 0.469297 0.745935 -0.472590
4750.00000000 -20070.00000000 80.00000000 24 36 225 0.000000 0.000000 0.000000 0.000000 -60.708740 0.000000 155.000000 0.793139 0.231267 -0.563424
4760.00000000 -20080.00000000 290.00000000 24 36 225 0.000000 0.000000 0.000000 0.000000 -60.708740 0.000000 155.000000 0.988364 -0.021511 -0.150576
4770.00000000 -20090.00000000 300.00000000 24 36 225 0.000000 0.000000 0.000000 0.000000 -60.708740 0.000000 155.000000 0.991483 0.086166 -0.097655
4770.00000000 -20090.00000000 290.00000000 24 36 225 0.000000 0.000000 0.000000 0.000000 -60.708740 0.000000 155.000000 0.959600 0.080499 -0.269608
4760.00000000 -20100.00000000 280.00000000 24 36 225 0.000000 0.000000 0.000000 0.000000 -60.708740 0.000000 155.000000 0.927986 -0.222433 -0.298939
4770.00000000 -20120.00000000 290.00000000 24 36 225 0.000000 0.000000 0.000000 0.000000 -60.708740 0.000000 155.000000 0.894045 -0.246786 -0.373873
4770.00000000 -20120.00000000 300.00000000 24 36 225 0.000000 0.000000 0.000000 0.000000 -60.708740 0.000000 155.000000 0.978706 0.039339 -0.201463
4760.00000000 -20100.00000000 280.00000000 24 36 225 0.000000 0.000000 0.000000 0.000000 -60.708740 0.000000 155.000000 0.927986 -0.222433 -0.298939
4770.00000000 -20090.00000000 310.00000000 24 36 225 0.000000 0.000000 0.000000 0.000000 -60.708740 0.000000 155.000000 0.999343 -0.031774 0.017424
4770.00000000 -20080.00000000 270.00000000 24 36 225 0.000000 0.000000 0.000000 0.000000 -60.708740 0.000000 155.000000 0.993684 0.103486 -0.043397
