//X Y Z R G B PointSourceId ScanDirectionFlag NumberOfReturns ReturnNumber GpsTime Intensity Classification Nx Ny Nz
-6510.00000000 6280.00000000 -600.00000000 114 229 84 97.000000 1.000000 4.000000 1.000000 -60.708740 114.000000 146.000000 0.804960 -0.432204 -0.406497
-6510.00000000 6270.00000000 -580.00000000 114 229 84 97.000000 1.000000 4.000000 1.000000 -60.708740 114.000000 146.000000 0.993923 -0.068353 0.086282
-6500.00000000 6280.00000000 -680.00000000 114 229 84 97.000000 1.000000 4.000000 1.000000 -60.708740 114.000000 146.000000 0.905340 -0.336017 0.259717
-6520.00000000 6260.00000000 -620.00000000 114 229 84 97.000000 1.000000 4.000000 1.000000 -60.708740 114.000000 146.000000 0.998116 -0.061279 -0.003116
-6520.00000000 6270.00000000 -610.00000000 114 229 84 97.000000 1.000000 4.000000 1.000000 -60.708740 114.000000 146.000000 0.948730 -0.289556 -0.126764
-6510.00000000 6270.00000000 -610.00000000 114 229 84 97.000000 1.000000 4.000000 1.000000 -60.708740 114.000000 146.000000 0.789638 -0.605730 -0.097793
-6530.00000000 6260.00000000 -610.00000000 114 229 84 97.000000 1.000000 4.000000 1.000000 -60.708740 114.000000 146.000000 0.833415 -0.498821 0.237899
-6560.00000000 6250.00000000 -660.00000000 114 229 84 97.000000 1.000000 4.000000 1.000000 -60.708740 114.000000 146.000000 0.817867 -0.575128 0.017930
-6740.00000000 6290.00000000 -420.00000000 114 229 84 97.000000 1.000000 4.000000 1.000000 -60.708740 114.000000 146.000000 0.952227 0.016182 -0.304962
-6700.00000000 6240.00000000 -440.00000000 114 229 84 97.000000 1.000000 4.000000 1.000000 -60.708740 114.000000 146.000000 0.416220 0.846469 0.332040
-6740.00000000 6250.00000000 -360.00000000 114 229 84 97.000000 1.000000 4.000000 1.000000 -60.708740 114.000000 146.000000 0.965662 0.116700 -0.232118
-6740.00000000 6270.00000000 -420.00000000 114 229 84 97.000000 1.000000 4.000000 1.000000 -60.708740 114.000000 146.000000 0.957940 0.286521 0.015986
-6740.00000000 6250.00000000 -430.00000000 114 229 84 97.000000 1.000000 4.000000 1.000000 -60.708740 114.000000 146.000000 0.848845 0.372246 0.375361
-6740.00000000 6250.00000000 -430.00000000 114 229 84 97.000000 1.000000 4.000000 1.000000 -60.708740 114.000000 146.000000 0.848845 0.372246 0.375361
-6740.00000000 6270.00000000 -440.00000000 114 229 84 97.000000 1.000000 4.000000 1.000000 -60.708740 114.000000 146.000000 0.997988 0.013642 -0.061915
-6720.00000000 6220.00000000 -440.00000000 114 229 84 97.000000 1.000000 4.000000 1.000000 -60.708740 114.000000 146.000000 0.434282 0.829084 0.352163
-6730.00000000 6200.00000000 -440.00000000 114 229 84 97.000000 1.000000 4.000000 1.000000 -60.708740 114.000000 146.000000 0.331232 0.941737 0.058453
-6740.00000000 6200.00000000 -400.00000000 114 229 84 97.000000 1.000000 4.000000 1.000000 -60.708740 114.000000 146.000000 0.857683 0.509557 0.068783
-6700.00000000 6200.00000000 -510.00000000 114 229 84 97.000000 1.000000 4.000000 1.000000 -60.708740 114.000000 146.000000 0.648501 0.756342 0.085981
-6720.00000000 6240.00000000 -510.00000000 114 229 84 97.000000 1.000000 4.000000 1.000000 -60.708740 114.000000 146.000000 0.776171 0.625851 -0.076605
-6730.00000000 6210.00000000 -470.00000000 114 229 84 97.000000 1.000000 4.000000 1.000000 -60.708740 114.000000 146.000000 0.766899 0.636425 -0.082634
-6710.00000000 6200.00000000 -520.00000000 114 229 84 97.000000 1.000000 4.000000 1.000000 -60.708740 114.000000 146.000000 0.180582 0.914287 0.362587
-6720.00000000 6210.00000000 -520.00000000 114 229 84 97.000000 1.000000 4.000000 1.000000 -60.708740 114.000000 146.000000 0.597997 0.788879 -0.141670
-6710.00000000 6210.00000000 -500.00000000 114 229 84 97.000000 1.000000 4.000000 1.000000 -60.708740 114.000000 146.000000 0.593369 0.802121 -0.067201
-6740.00000000 6360.00000000 -570.00000000 114 229 84 97.000000 1.000000 4.000000 1.000000 -60.708740 114.000000 146.000000 0.987793 -0.128331 0.088301
-6730.00000000 6310.00000000 -570.00000000 114 229 84 97.000000 1.000000 4.000000 1.000000 -60.708740 114.000000 146.000000 0.942591 0.133500 0.306106
-6700.00000000 6210.00000000 -570.00000000 114 229 84 97.000000 1.000000 4.000000 1.000000 -60.708740 114.000000 146.000000 0.398803 0.908152 -0.127337
-6730.00000000 6240.00000000 -550.00000000 114 229 84 97.000000 1.000000 4.000000 1.000000 -60.708740 114.000000 146.000000 0.770834 0.474234 0.425344
-6740.00000000 6240.00000000 -590.00000000 114 229 84 97.000000 1.000000 4.000000 1.000000 -60.708740 114.000000 146.000000 0.936107 0.342930 0.078119
-6730.00000000 6260.00000000 -600.00000000 114 229 84 97.000000 1.000000 4.000000 1.000000 -60.708740 114.000000 146.000000 0.917310 0.364951 0.159226
-6710.00000000 6230.00000000 -540.00000000 114 229 84 97.000000 1.000000 4.000000 1.000000 -60.708740 114.000000 146.000000 0.804727 0.556412 0.206930
-6720.00000000 6230.00000000 -590.00000000 114 229 84 97.000000 1.000000 4.000000 1.000000 -60.708740 114.000000 146.000000 0.366336 0.915133 -0.168316
-6710.00000000 6220.00000000 -570.00000000 114 229 84 97.000000 1.000000 4.000000 1.000000 -60.708740 114.000000 146.000000 0.567774 0.668265 0.480682
-6690.00000000 6240.00000000 -680.00000000 114 229 84 97.000000 1.000000 4.000000 1.000000 -60.708740 114.000000 146.000000 0.505833 0.832867 -0.224645
-6670.00000000 6210.00000000 -620.00000000 114 229 84 97.000000 1.000000 4.000000 1.000000 -60.708740 114.000000 146.000000 -0.005491 0.991695 -0.128492
-6700.00000000 6230.00000000 -610.00000000 114 229 84 97.000000 1.000000 4.000000 1.000000 -60.708740 114.000000 146.000000 0.712579 0.701424 0.015339
-6680.00000000 6210.00000000 -630.00000000 114 229 84 97.000000 1.000000 4.000000 1.000000 -60.708740 114.000000 146.000000 0.208393 0.976916 -0.046979
-6740.00000000 6260.00000000 -640.00000000 114 229 84 97.000000 1.000000 4.000000 1.000000 -60.708740 114.000000 146.000000 0.825884 0.528869 -0.195484
-6730.00000000 6240.00000000 -690.00000000 114 229 84 97.000000 1.000000 4.000000 1.000000 -60.708740 114.000000 146.000000 0.748323 0.645523 -0.152688
-6660.00000000 6140.00000000 -510.00000000 114 229 84 97.000000 1.000000 4.000000 1.000000 -60.708740 114.000000 146.000000 -0.139719 0.987425 -0.073969
-6650.00000000 6100.00000000 -510.00000000 114 229 84 97.000000 1.000000 4.000000 1.000000 -60.708740 114.000000 146.000000 -0.036170 0.959134 0.280631
-6720.00000000 6190.00000000 -420.00000000 114 229 84 97.000000 1.000000 4.000000 1.000000 -60.708740 114.000000 146.000000 0.776738 0.621683 0.100932
-6690.00000000 6190.00000000 -480.00000000 114 229 84 97.000000 1.000000 4.000000 1.000000 -60.708740 114.000000 146.000000 0.034650 0.998560 0.040950
-6720.00000000 6080.00000000 -360.00000000 114 229 84 97.000000 1.000000 4.000000 1.000000 -60.708740 114.000000 146.000000 0.439907 0.872358 -0.213243
-6700.00000000 6140.00000000 -670.00000000 114 229 84 97.000000 1.000000 4.000000 1.000000 -60.708740 114.000000 146.000000 -0.016621 0.991709 -0.127426
-6570.00000000 5940.00000000 -50.00000000 114 229 84 97.000000 1.000000 4.000000 1.000000 -60.708740 114.000000 146.000000 -0.033384 0.986550 -0.160012
-6560.00000000 5940.00000000 -40.00000000 114 229 84 97.000000 1.000000 4.000000 1.000000 -60.708740 114.000000 146.000000 -0.301594 0.952734 -0.036595
-6510.00000000 5880.00000000 -170.00000000 114 229 84 97.000000 1.000000 4.000000 1.000000 -60.708740 114.000000 146.000000 -0.562403 0.826246 0.031939
-6580.00000000 6020.00000000 -80.00000000 114 229 84 97.000000 1.000000 4.000000 1.000000 -60.708740 114.000000 146.000000 -0.466589 0.856168 0.221970
-6610.00000000 5890.00000000 -110.00000000 114 229 84 97.000000 1.000000 4.000000 1.000000 -60.708740 114.000000 146.000000 -0.295688 0.895978 0.331348
-6600.00000000 5920.00000000 -340.00000000 114 229 84 97.000000 1.000000 4.000000 1.000000 -60.708740 114.000000 146.000000 -0.175270 0.971021 -0.162477
-6630.00000000 5920.00000000 -340.00000000 114 229 84 97.000000 1.000000 4.000000 1.000000 -60.708740 114.000000 146.000000 -0.290058 0.936789 0.195685
-6690.00000000 6020.00000000 -280.00000000 114 229 84 97.000000 1.000000 4.000000 1.000000 -60.708740 114.000000 146.000000 0.515875 0.829357 0.214568
-6690.00000000 6020.00000000 -280.00000000 114 229 84 97.000000 1.000000 4.000000 1.000000 -60.708740 114.000000 146.000000 0.515875 0.829357 0.214568
-6540.00000000 5950.00000000 -450.00000000 114 229 84 97.000000 1.000000 4.000000 1.000000 -60.708740 114.000000 146.000000 -0.502420 0.863833 -0.036963
-6560.00000000 5920.00000000 -470.00000000 114 229 84 97.000000 1.000000 4.000000 1.000000 -60.708740 114.000000 146.000000 -0.335380 0.906550 0.256295
-6440.00000000 5960.00000000 -650.00000000 114 229 84 97.000000 1.000000 4.000000 1.000000 -60.708740 114.000000 146.000000 -0.206037 0.977172 0.051811
-6660.00000000 5930.00000000 -640.00000000 114 229 84 97.000000 1.000000 4.000000 1.000000 -60.708740 114.000000 146.000000 -0.168243 0.985089 0.035969
-6740.00000000 6020.00000000 -640.00000000 114 229 84 97.000000 1.000000 4.000000 1.000000 -60.708740 114.000000 146.000000 0.239859 0.941413 -0.237086
-6750.00000000 6310.00000000 -20.00000000 114 229 84 97.000000 1.000000 4.000000 1.000000 -60.708740 114.000000 146.000000 0.987273 -0.135323 -0.083548
-6750.00000000 6290.00000000 -70.00000000 114 229 84 97.000000 1.000000 4.000000 1.000000 -60.708740 114.000000 146.000000 0.942476 -0.205606 -0.263562
-6780.00000000 6300.00000000 -80.00000000 114 229 84 97.000000 1.000000 4.000000 1.000000 -60.708740 114.000000 146.000000 0.975808 0.090284 -0.199119
-6750.00000000 6330.00000000 -120.00000000 114 229 84 97.000000 1.000000 4.000000 1.000000 -60.708740 114.000000 146.000000 0.991134 -0.132077 0.014429
-6750.00000000 6340.00000000 -160.00000000 114 229 84 97.000000 1.000000 4.000000 1.000000 -60.708740 114.000000 146.000000 0.887573 -0.388034 0.248282
-6750.00000000 6330.00000000 -170.00000000 114 229 84 97.000000 1.000000 4.000000 1.000000 -60.708740 114.000000 146.000000 0.983828 -0.158991 -0.082484
-6770.00000000 6320.00000000 -130.00000000 114 229 84 97.000000 1.000000 4.000000 1.000000 -60.708740 114.000000 146.000000 0.972965 -0.202126 0.111734
-6760.00000000 6270.00000000 -70.00000000 114 229 84 97.000000 1.000000 4.000000 1.000000 -60.708740 114.000000 146.000000 0.927177 -0.334231 0.169213
-6750.00000000 6240.00000000 -100.00000000 114 229 84 97.000000 1.000000 4.000000 1.000000 -60.708740 114.000000 146.000000 0.958710 0.165295 -0.231413
-6760.00000000 6280.00000000 -140.00000000 114 229 84 97.000000 1.000000 4.000000 1.000000 -60.708740 114.000000 146.000000 0.960433 0.167318 0.222652
-6750.00000000 6260.00000000 -170.00000000 114 229 84 97.000000 1.000000 4.000000 1.000000 -60.708740 114.000000 146.000000 0.986881 0.119946 0.108070
-6750.00000000 6270.00000000 -160.00000000 114 229 84 97.000000 1.000000 4.000000 1.000000 -60.708740 114.000000 146.000000 0.998944 0.028066 0.036382
-6750.00000000 6280.00000000 -160.00000000 114 229 84 97.000000 1.000000 4.000000 1.000000 -60.708740 114.000000 146.000000 0.999816 -0.002990 -0.018940
-6750.00000000 6230.00000000 -110.00000000 114 229 84 97.000000 1.000000 4.000000 1.000000 -60.708740 114.000000 146.000000 0.908327 0.365353 -0.203615
-6760.00000000 6300.00000000 -230.00000000 114 229 84 97.000000 1.000000 4.000000 1.000000 -60.708740 114.000000 146.000000 0.993456 0.025360 0.111364
-6750.00000000 6320.00000000 -260.00000000 114 229 84 97.000000 1.000000 4.000000 1.000000 -60.708740 114.000000 146.000000 0.978035 -0.041796 -0.204205
-6760.00000000 6290.00000000 -240.00000000 114 229 84 97.000000 1.000000 4.000000 1.000000 -60.708740 114.000000 146.000000 0.989658 -0.137800 0.039860
-6760.00000000 6330.00000000 -280.00000000 114 229 84 97.000000 1.000000 4.000000 1.000000 -60.708740 114.000000 146.000000 0.926638 -0.157459 0.341393
-6780.00000000 6340.00000000 -350.00000000 114 229 84 97.000000 1.000000 4.000000 1.000000 -60.708740 114.000000 146.000000 0.969274 -0.212705 -0.123547
-6770.00000000 6340.00000000 -280.00000000 114 229 84 97.000000 1.000000 4.000000 1.000000 -60.708740 114.000000 146.000000 0.987890 -0.132422 -0.080859
-6750.00000000 6340.00000000 -290.00000000 114 229 84 97.000000 1.000000 4.000000 1.000000 -60.708740 114.000000 146.000000 0.931609 -0.354199 0.081533
-6760.00000000 6290.00000000 -330.00000000 114 229 84 97.000000 1.000000 4.000000 1.000000 -60.708740 114.000000 146.000000 0.958723 0.248558 0.138088
-6750.00000000 6270.00000000 -200.00000000 114 229 84 97.000000 1.000000 4.000000 1.000000 -60.708740 114.000000 146.000000 0.986987 0.057098 -0.150320
-6750.00000000 6260.00000000 -260.00000000 114 229 84 97.000000 1.000000 4.000000 1.000000 -60.708740 114.000000 146.000000 0.983925 -0.014925 -0.177956
-6750.00000000 6220.00000000 -240.00000000 114 229 84 97.000000 1.000000 4.000000 1.000000 -60.708740 114.000000 146.000000 0.982148 0.122921 -0.142393
-6770.00000000 6210.00000000 -300.00000000 114 229 84 97.000000 1.000000 4.000000 1.000000 -60.708740 114.000000 146.000000 0.941600 0.180072 0.284542
-6770.00000000 6230.00000000 -300.00000000 114 229 84 97.000000 1.000000 4.000000 1.000000 -60.708740 114.000000 146.000000 0.933647 0.357919 0.014011
-6750.00000000 6200.00000000 -300.00000000 114 229 84 97.000000 1.000000 4.000000 1.000000 -60.708740 114.000000 146.000000 0.948015 0.274532 0.160933
-6760.00000000 6200.00000000 -330.00000000 114 229 84 97.000000 1.000000 4.000000 1.000000 -60.708740 114.000000 146.000000 0.659758 0.732895 0.166082
-6770.00000000 6200.00000000 -280.00000000 114 229 84 97.000000 1.000000 4.000000 1.000000 -60.708740 114.000000 146.000000 0.834389 0.488912 0.254481
-6750.00000000 6220.00000000 -320.00000000 114 229 84 97.000000 1.000000 4.000000 1.000000 -60.708740 114.000000 146.000000 0.831357 0.520541 -0.194637
-6750.00000000 6270.00000000 -300.00000000 114 229 84 97.000000 1.000000 4.000000 1.000000 -60.708740 114.000000 146.000000 0.972353 0.186357 -0.140719
-6800.00000000 6250.00000000 -290.00000000 114 229 84 97.000000 1.000000 4.000000 1.000000 -60.708740 114.000000 146.000000 0.864636 0.490199 0.110045
-6760.00000000 6270.00000000 -320.00000000 114 229 84 97.000000 1.000000 4.000000 1.000000 -60.708740 114.000000 146.000000 0.996965 0.075705 -0.018127
-6760.00000000 6240.00000000 -320.00000000 114 229 84 97.000000 1.000000 4.000000 1.000000 -60.708740 114.000000 146.000000 0.966112 0.245622 0.079355
-6750.00000000 6200.00000000 -280.00000000 114 229 84 97.000000 1.000000 4.000000 1.000000 -60.708740 114.000000 146.000000 0.921980 0.377727 0.085293
-6750.00000000 6190.00000000 -270.00000000 114 229 84 97.000000 1.000000 4.000000 1.000000 -60.708740 114.000000 146.000000 0.461681 0.865466 0.194470
-6750.00000000 6190.00000000 -210.00000000 114 229 84 97.000000 1.000000 4.000000 1.000000 -60.708740 114.000000 146.000000 0.854009 0.435468 0.284670
-6750.00000000 6190.00000000 -270.00000000 114 229 84 97.000000 1.000000 4.000000 1.000000 -60.708740 114.000000 146.000000 0.461681 0.865466 0.194470
-6750.00000000 6190.00000000 -210.00000000 114 229 84 97.000000 1.000000 4.000000 1.000000 -60.708740 114.000000 146.000000 0.854009 0.435468 0.284670
-6760.00000000 6310.00000000 -400.00000000 114 229 84 97.000000 1.000000 4.000000 1.000000 -60.708740 114.000000 146.000000 0.946675 0.031683 0.320628
-6780.00000000 6300.00000000 -360.00000000 114 229 84 97.000000 1.000000 4.000000 1.000000 -60.708740 114.000000 146.000000 0.979769 0.101524 -0.172469
-6760.00000000 6310.00000000 -410.00000000 114 229 84 97.000000 1.000000 4.000000 1.000000 -60.708740 114.000000 146.000000 0.992890 0.048242 0.108825
-6760.00000000 6300.00000000 -410.00000000 114 229 84 97.000000 1.000000 4.000000 1.000000 -60.708740 114.000000 146.000000 0.974029 -0.226050 0.013019
-6760.00000000 6310.00000000 -440.00000000 114 229 84 97.000000 1.000000 4.000000 1.000000 -60.708740 114.000000 146.000000 0.982757 0.174686 -0.060605
-6750.00000000 6290.00000000 -440.00000000 114 229 84 97.000000 1.000000 4.000000 1.000000 -60.708740 114.000000 146.000000 0.963775 0.264638 -0.033234
-6750.00000000 6300.00000000 -460.00000000 114 229 84 97.000000 1.000000 4.000000 1.000000 -60.708740 114.000000 146.000000 0.934374 0.309607 0.176323
-6750.00000000 6300.00000000 -470.00000000 114 229 84 97.000000 1.000000 4.000000 1.000000 -60.708740 114.000000 146.000000 0.902494 0.101513 -0.418568
-6760.00000000 6340.00000000 -480.00000000 114 229 84 97.000000 1.000000 4.000000 1.000000 -60.708740 114.000000 146.000000 0.978307 -0.044305 -0.202367
-6760.00000000 6330.00000000 -470.00000000 114 229 84 97.000000 1.000000 4.000000 1.000000 -60.708740 114.000000 146.000000 0.930865 -0.130239 -0.341363
-6750.00000000 6360.00000000 -480.00000000 114 229 84 97.000000 1.000000 4.000000 1.000000 -60.708740 114.000000 146.000000 0.805789 -0.459764 -0.373258
-6750.00000000 6210.00000000 -360.00000000 114 229 84 97.000000 1.000000 4.000000 1.000000 -60.708740 114.000000 146.000000 0.610361 0.769452 0.188156
-6760.00000000 6210.00000000 -410.00000000 114 229 84 97.000000 1.000000 4.000000 1.000000 -60.708740 114.000000 146.000000 0.852635 0.509272 0.116859
-6750.00000000 6280.00000000 -410.00000000 114 229 84 97.000000 1.000000 4.000000 1.000000 -60.708740 114.000000 146.000000 0.981308 0.053656 -0.184815
-6750.00000000 6210.00000000 -410.00000000 114 229 84 97.000000 1.000000 4.000000 1.000000 -60.708740 114.000000 146.000000 0.789375 0.613337 0.026545
-6750.00000000 6280.00000000 -400.00000000 114 229 84 97.000000 1.000000 4.000000 1.000000 -60.708740 114.000000 146.000000 0.953153 0.280030 -0.114378
-6750.00000000 6250.00000000 -380.00000000 114 229 84 97.000000 1.000000 4.000000 1.000000 -60.708740 114.000000 146.000000 0.999892 -0.012960 -0.006978
-6750.00000000 6280.00000000 -420.00000000 114 229 84 97.000000 1.000000 4.000000 1.000000 -60.708740 114.000000 146.000000 0.989020 -0.147062 -0.014594
-6750.00000000 6280.00000000 -510.00000000 114 229 84 97.000000 1.000000 4.000000 1.000000 -60.708740 114.000000 146.000000 0.943952 0.312876 -0.105179
-6750.00000000 6240.00000000 -460.00000000 114 229 84 97.000000 1.000000 4.000000 1.000000 -60.708740 114.000000 146.000000 0.952748 0.251289 -0.170661
-6750.00000000 6280.00000000 -470.00000000 114 229 84 97.000000 1.000000 4.000000 1.000000 -60.708740 114.000000 146.000000 0.974846 0.057201 0.215415
-6760.00000000 6240.00000000 -510.00000000 114 229 84 97.000000 1.000000 4.000000 1.000000 -60.708740 114.000000 146.000000 0.962891 0.208299 0.171617
-6760.00000000 6330.00000000 -560.00000000 114 229 84 97.000000 1.000000 4.000000 1.000000 -60.708740 114.000000 146.000000 0.959672 0.280670 0.015933
-6770.00000000 6320.00000000 -590.00000000 114 229 84 97.000000 1.000000 4.000000 1.000000 -60.708740 114.000000 146.000000 0.956431 0.290546 0.028680
-6760.00000000 6330.00000000 -560.00000000 114 229 84 97.000000 1.000000 4.000000 1.000000 -60.708740 114.000000 146.000000 0.959672 0.280670 0.015933
-6760.00000000 6290.00000000 -570.00000000 114 229 84 97.000000 1.000000 4.000000 1.000000 -60.708740 114.000000 146.000000 0.912037 0.339665 -0.229816
-6770.00000000 6330.00000000 -620.00000000 114 229 84 97.000000 1.000000 4.000000 1.000000 -60.708740 114.000000 146.000000 0.927993 0.035141 0.370937
-6760.00000000 6360.00000000 -630.00000000 114 229 84 97.000000 1.000000 4.000000 1.000000 -60.708740 114.000000 146.000000 0.828498 -0.543012 0.136857
-6770.00000000 6310.00000000 -650.00000000 114 229 84 97.000000 1.000000 4.000000 1.000000 -60.708740 114.000000 146.000000 0.915242 0.337648 0.219831
-6750.00000000 6290.00000000 -670.00000000 114 229 84 97.000000 1.000000 4.000000 1.000000 -60.708740 114.000000 146.000000 0.864943 0.405681 -0.295459
-6790.00000000 6350.00000000 -650.00000000 114 229 84 97.000000 1.000000 4.000000 1.000000 -60.708740 114.000000 146.000000 0.966735 -0.015729 -0.255296
-6790.00000000 6350.00000000 -670.00000000 114 229 84 97.000000 1.000000 4.000000 1.000000 -60.708740 114.000000 146.000000 0.993517 0.041257 -0.105931
-6750.00000000 6280.00000000 -530.00000000 114 229 84 97.000000 1.000000 4.000000 1.000000 -60.708740 114.000000 146.000000 0.870092 0.388570 -0.303237
-6760.00000000 6260.00000000 -580.00000000 114 229 84 97.000000 1.000000 4.000000 1.000000 -60.708740 114.000000 146.000000 0.824281 0.362304 0.435081
-6750.00000000 6270.00000000 -690.00000000 114 229 84 97.000000 1.000000 4.000000 1.000000 -60.708740 114.000000 146.000000 0.614447 0.786321 -0.064453
-6750.00000000 6240.00000000 -670.00000000 114 229 84 97.000000 1.000000 4.000000 1.000000 -60.708740 114.000000 146.000000 0.949263 0.268710 0.163387
-6750.00000000 6260.00000000 -630.00000000 114 229 84 97.000000 1.000000 4.000000 1.000000 -60.708740 114.000000 146.000000 0.868407 0.430428 0.246174
-6760.00000000 5980.00000000 -680.00000000 114 229 84 97.000000 1.000000 4.000000 1.000000 -60.708740 114.000000 146.000000 0.371929 0.916489 -0.147368
-6490.00000000 6320.00000000 -730.00000000 114 229 84 97.000000 1.000000 4.000000 1.000000 -60.708740 114.000000 146.000000 0.973011 0.122415 -0.195612
-6490.00000000 6340.00000000 -830.00000000 114 229 84 97.000000 1.000000 4.000000 1.000000 -60.708740 114.000000 146.000000 0.925966 -0.377341 -0.014166
-6510.00000000 6340.00000000 -750.00000000 114 229 84 97.000000 1.000000 4.000000 1.000000 -60.708740 114.000000 146.000000 0.929256 -0.270974 -0.251112
-6510.00000000 6330.00000000 -740.00000000 114 229 84 97.000000 1.000000 4.000000 1.000000 -60.708740 114.000000 146.000000 0.989662 0.101414 -0.101414
-6520.00000000 6350.00000000 -700.00000000 114 229 84 97.000000 1.000000 4.000000 1.000000 -60.708740 114.000000 146.000000 0.920073 0.143805 -0.364399
-6510.00000000 6330.00000000 -710.00000000 114 229 84 97.000000 1.000000 4.000000 1.000000 -60.708740 114.000000 146.000000 0.972931 0.017907 0.230400
-6510.00000000 6330.00000000 -730.00000000 114 229 84 97.000000 1.000000 4.000000 1.000000 -60.708740 114.000000 146.000000 0.989685 -0.139440 -0.032876
-6500.00000000 6350.00000000 -710.00000000 114 229 84 97.000000 1.000000 4.000000 1.000000 -60.708740 114.000000 146.000000 0.960538 -0.046336 0.274261
-6510.00000000 6350.00000000 -820.00000000 114 229 84 97.000000 1.000000 4.000000 1.000000 -60.708740 114.000000 146.000000 0.919328 0.322697 0.225171
-6520.00000000 6330.00000000 -820.00000000 114 229 84 97.000000 1.000000 4.000000 1.000000 -60.708740 114.000000 146.000000 0.969707 0.190867 -0.152437
-6510.00000000 6330.00000000 -810.00000000 114 229 84 97.000000 1.000000 4.000000 1.000000 -60.708740 114.000000 146.000000 0.903172 -0.047110 -0.426685
-6520.00000000 6330.00000000 -850.00000000 114 229 84 97.000000 1.000000 4.000000 1.000000 -60.708740 114.000000 146.000000 0.987240 -0.047564 0.151972
-6510.00000000 6330.00000000 -830.00000000 114 229 84 97.000000 1.000000 4.000000 1.000000 -60.708740 114.000000 146.000000 0.997865 0.020021 0.062169
-6520.00000000 6310.00000000 -810.00000000 114 229 84 97.000000 1.000000 4.000000 1.000000 -60.708740 114.000000 146.000000 0.862259 -0.481635 -0.156641
-6510.00000000 6320.00000000 -820.00000000 114 229 84 97.000000 1.000000 4.000000 1.000000 -60.708740 114.000000 146.000000 0.998267 0.053648 -0.024194
-6520.00000000 6320.00000000 -810.00000000 114 229 84 97.000000 1.000000 4.000000 1.000000 -60.708740 114.000000 146.000000 0.972263 -0.017938 -0.233200
-6530.00000000 6310.00000000 -840.00000000 114 229 84 97.000000 1.000000 4.000000 1.000000 -60.708740 114.000000 146.000000 0.862907 -0.423054 0.276436
-6520.00000000 6320.00000000 -850.00000000 114 229 84 97.000000 1.000000 4.000000 1.000000 -60.708740 114.000000 146.000000 0.939829 -0.341642 -0.001251
-6510.00000000 6320.00000000 -850.00000000 114 229 84 97.000000 1.000000 4.000000 1.000000 -60.708740 114.000000 146.000000 0.996387 0.055536 0.064248
-6540.00000000 6300.00000000 -820.00000000 114 229 84 97.000000 1.000000 4.000000 1.000000 -60.708740 114.000000 146.000000 0.838389 -0.535357 -0.102454
-6540.00000000 6310.00000000 -850.00000000 114 229 84 97.000000 1.000000 4.000000 1.000000 -60.708740 114.000000 146.000000 0.834474 -0.435309 0.337875
-6530.00000000 6280.00000000 -700.00000000 114 229 84 97.000000 1.000000 4.000000 1.000000 -60.708740 114.000000 146.000000 0.796839 -0.574394 -0.187402
-6500.00000000 6280.00000000 -740.00000000 114 229 84 97.000000 1.000000 4.000000 1.000000 -60.708740 114.000000 146.000000 0.897290 -0.441440 -0.001310
-6560.00000000 6270.00000000 -760.00000000 114 229 84 97.000000 1.000000 4.000000 1.000000 -60.708740 114.000000 146.000000 -0.588930 0.782678 0.201436
-6540.00000000 6230.00000000 -710.00000000 114 229 84 97.000000 1.000000 4.000000 1.000000 -60.708740 114.000000 146.000000 -0.644492 0.689947 -0.329551
-6530.00000000 6280.00000000 -820.00000000 114 229 84 97.000000 1.000000 4.000000 1.000000 -60.708740 114.000000 146.000000 0.783057 -0.419900 -0.458810
-6540.00000000 6270.00000000 -810.00000000 114 229 84 97.000000 1.000000 4.000000 1.000000 -60.708740 114.000000 146.000000 0.735570 -0.660049 -0.152551
-6550.00000000 6270.00000000 -860.00000000 114 229 84 97.000000 1.000000 4.000000 1.000000 -60.708740 114.000000 146.000000 -0.610361 0.769452 -0.188156
-6570.00000000 6220.00000000 -840.00000000 114 229 84 97.000000 1.000000 4.000000 1.000000 -60.708740 114.000000 146.000000 -0.567213 0.775770 -0.276496
-6520.00000000 6350.00000000 -900.00000000 114 229 84 97.000000 1.000000 4.000000 1.000000 -60.708740 114.000000 146.000000 0.983272 0.120029 0.137003
-6520.00000000 6350.00000000 -870.00000000 114 229 84 97.000000 1.000000 4.000000 1.000000 -60.708740 114.000000 146.000000 0.927584 0.228002 -0.295977
-6520.00000000 6330.00000000 -910.00000000 114 229 84 97.000000 1.000000 4.000000 1.000000 -60.708740 114.000000 146.000000 0.875140 -0.369842 0.312006
-6540.00000000 6360.00000000 -930.00000000 114 229 84 97.000000 1.000000 4.000000 1.000000 -60.708740 114.000000 146.000000 0.910458 0.282052 0.302512
-6540.00000000 6340.00000000 -940.00000000 114 229 84 97.000000 1.000000 4.000000 1.000000 -60.708740 114.000000 146.000000 0.975203 0.201980 -0.090457
-6540.00000000 6300.00000000 -920.00000000 114 229 84 97.000000 1.000000 4.000000 1.000000 -60.708740 114.000000 146.000000 0.975576 -0.188138 0.113381
-6540.00000000 6300.00000000 -910.00000000 114 229 84 97.000000 1.000000 4.000000 1.000000 -60.708740 114.000000 146.000000 0.957148 -0.278793 0.078371
-6540.00000000 6290.00000000 -930.00000000 114 229 84 97.000000 1.000000 4.000000 1.000000 -60.708740 114.000000 146.000000 0.927607 -0.352134 0.124686
-6530.00000000 6360.00000000 -950.00000000 114 229 84 97.000000 1.000000 4.000000 1.000000 -60.708740 114.000000 146.000000 0.923249 -0.369573 0.105008
-6520.00000000 6300.00000000 -950.00000000 114 229 84 97.000000 1.000000 4.000000 1.000000 -60.708740 114.000000 146.000000 0.683585 -0.719328 -0.123611
-6570.00000000 6340.00000000 -990.00000000 114 229 84 97.000000 1.000000 4.000000 1.000000 -60.708740 114.000000 146.000000 0.960476 -0.041110 -0.275311
-6560.00000000 6330.00000000 -1020.00000000 114 229 84 97.000000 1.000000 4.000000 1.000000 -60.708740 114.000000 146.000000 0.951241 -0.286296 -0.114782
-6540.00000000 6350.00000000 -990.00000000 114 229 84 97.000000 1.000000 4.000000 1.000000 -60.708740 114.000000 146.000000 0.961730 0.273205 0.020827
-6550.00000000 6320.00000000 -960.00000000 114 229 84 97.000000 1.000000 4.000000 1.000000 -60.708740 114.000000 146.000000 0.990563 -0.060834 0.122816
-6560.00000000 6300.00000000 -970.00000000 114 229 84 97.000000 1.000000 4.000000 1.000000 -60.708740 114.000000 146.000000 -0.559873 0.820075 0.118407
-6530.00000000 6260.00000000 -870.00000000 114 229 84 97.000000 1.000000 4.000000 1.000000 -60.708740 114.000000 146.000000 0.933340 -0.298053 -0.200101
-6530.00000000 6280.00000000 -880.00000000 114 229 84 97.000000 1.000000 4.000000 1.000000 -60.708740 114.000000 146.000000 0.918787 -0.345078 -0.191710
-6560.00000000 6270.00000000 -870.00000000 114 229 84 97.000000 1.000000 4.000000 1.000000 -60.708740 114.000000 146.000000 0.741341 -0.665605 0.085931
-6550.00000000 6250.00000000 -880.00000000 114 229 84 97.000000 1.000000 4.000000 1.000000 -60.708740 114.000000 146.000000 -0.708687 0.590298 0.386407
-6560.00000000 6260.00000000 -920.00000000 114 229 84 97.000000 1.000000 4.000000 1.000000 -60.708740 114.000000 146.000000 0.916927 -0.394881 -0.057559
-6570.00000000 6240.00000000 -940.00000000 114 229 84 97.000000 1.000000 4.000000 1.000000 -60.708740 114.000000 146.000000 0.752766 -0.589747 -0.292476
-6560.00000000 6270.00000000 -980.00000000 114 229 84 97.000000 1.000000 4.000000 1.000000 -60.708740 114.000000 146.000000 0.764307 -0.639106 0.085894
-6570.00000000 6250.00000000 -950.00000000 114 229 84 97.000000 1.000000 4.000000 1.000000 -60.708740 114.000000 146.000000 0.693833 -0.674867 -0.251297
-6560.00000000 6270.00000000 -970.00000000 114 229 84 97.000000 1.000000 4.000000 1.000000 -60.708740 114.000000 146.000000 0.900001 -0.418310 -0.122535
-6570.00000000 6250.00000000 -1010.00000000 114 229 84 97.000000 1.000000 4.000000 1.000000 -60.708740 114.000000 146.000000 -0.407215 0.838014 0.363192
-6550.00000000 6220.00000000 -960.00000000 114 229 84 97.000000 1.000000 4.000000 1.000000 -60.708740 114.000000 146.000000 -0.414562 0.891672 -0.181825
-6510.00000000 6180.00000000 -810.00000000 114 229 84 97.000000 1.000000 4.000000 1.000000 -60.708740 114.000000 146.000000 -0.371498 0.882872 0.287272
-6720.00000000 6220.00000000 -710.00000000 114 229 84 97.000000 1.000000 4.000000 1.000000 -60.708740 114.000000 146.000000 0.704094 0.704094 -0.092220
-6690.00000000 6200.00000000 -770.00000000 114 229 84 97.000000 1.000000 4.000000 1.000000 -60.708740 114.000000 146.000000 0.373356 0.927616 0.011547
-6710.00000000 6200.00000000 -730.00000000 114 229 84 97.000000 1.000000 4.000000 1.000000 -60.708740 114.000000 146.000000 0.132728 0.990357 -0.039705
-6700.00000000 6230.00000000 -740.00000000 114 229 84 97.000000 1.000000 4.000000 1.000000 -60.708740 114.000000 146.000000 0.503441 0.848911 -0.160924
-6690.00000000 6220.00000000 -810.00000000 114 229 84 97.000000 1.000000 4.000000 1.000000 -60.708740 114.000000 146.000000 0.284540 0.958645 -0.006106
-6690.00000000 6220.00000000 -790.00000000 114 229 84 97.000000 1.000000 4.000000 1.000000 -60.708740 114.000000 146.000000 0.202425 0.933947 0.294563
-6740.00000000 6270.00000000 -790.00000000 114 229 84 97.000000 1.000000 4.000000 1.000000 -60.708740 114.000000 146.000000 0.857869 0.372516 0.353967
-6740.00000000 6250.00000000 -840.00000000 114 229 84 97.000000 1.000000 4.000000 1.000000 -60.708740 114.000000 146.000000 0.759014 0.624078 -0.185537
-6720.00000000 6220.00000000 -790.00000000 114 229 84 97.000000 1.000000 4.000000 1.000000 -60.708740 114.000000 146.000000 0.767346 0.638260 -0.061675
-6710.00000000 6220.00000000 -800.00000000 114 229 84 97.000000 1.000000 4.000000 1.000000 -60.708740 114.000000 146.000000 0.480392 0.813336 0.328188
-6730.00000000 6220.00000000 -850.00000000 114 229 84 97.000000 1.000000 4.000000 1.000000 -60.708740 114.000000 146.000000 0.624846 0.759287 -0.181801
-6720.00000000 6200.00000000 -840.00000000 114 229 84 97.000000 1.000000 4.000000 1.000000 -60.708740 114.000000 146.000000 0.594704 0.783306 0.180997
-6630.00000000 6200.00000000 -890.00000000 114 229 84 97.000000 1.000000 4.000000 1.000000 -60.708740 114.000000 146.000000 -0.384344 0.917775 0.099847
-6620.00000000 6200.00000000 -910.00000000 114 229 84 97.000000 1.000000 4.000000 1.000000 -60.708740 114.000000 146.000000 -0.023790 0.988978 -0.146138
-6600.00000000 6240.00000000 -910.00000000 114 229 84 97.000000 1.000000 4.000000 1.000000 -60.708740 114.000000 146.000000 0.689048 -0.679544 -0.251859
-6600.00000000 6220.00000000 -900.00000000 114 229 84 97.000000 1.000000 4.000000 1.000000 -60.708740 114.000000 146.000000 -0.334572 0.928748 -0.159650
-6580.00000000 6260.00000000 -930.00000000 114 229 84 97.000000 1.000000 4.000000 1.000000 -60.708740 114.000000 146.000000 0.762220 -0.645394 -0.049865
-6590.00000000 6250.00000000 -920.00000000 114 229 84 97.000000 1.000000 4.000000 1.000000 -60.708740 114.000000 146.000000 -0.623563 0.740382 -0.251004
-6580.00000000 6270.00000000 -940.00000000 114 229 84 97.000000 1.000000 4.000000 1.000000 -60.708740 114.000000 146.000000 0.748688 -0.662886 -0.006919
-6600.00000000 6220.00000000 -880.00000000 114 229 84 97.000000 1.000000 4.000000 1.000000 -60.708740 114.000000 146.000000 -0.331455 0.916883 0.222405
-6590.00000000 6260.00000000 -970.00000000 114 229 84 97.000000 1.000000 4.000000 1.000000 -60.708740 114.000000 146.000000 -0.583807 0.811835 0.009616
-6580.00000000 6270.00000000 -970.00000000 114 229 84 97.000000 1.000000 4.000000 1.000000 -60.708740 114.000000 146.000000 -0.707015 0.701160 0.092219
-6710.00000000 6220.00000000 -910.00000000 114 229 84 97.000000 1.000000 4.000000 1.000000 -60.708740 114.000000 146.000000 0.458147 0.887744 -0.044863
-6580.00000000 6190.00000000 -720.00000000 114 229 84 97.000000 1.000000 4.000000 1.000000 -60.708740 114.000000 146.000000 -0.551901 0.808741 0.203332
-6600.00000000 6180.00000000 -830.00000000 114 229 84 97.000000 1.000000 4.000000 1.000000 -60.708740 114.000000 146.000000 -0.015997 0.958613 0.284261
-6710.00000000 6150.00000000 -810.00000000 114 229 84 97.000000 1.000000 4.000000 1.000000 -60.708740 114.000000 146.000000 0.590325 0.791606 0.157720
-6590.00000000 6190.00000000 -890.00000000 114 229 84 97.000000 1.000000 4.000000 1.000000 -60.708740 114.000000 146.000000 -0.188621 0.981068 -0.043893
-6600.00000000 6190.00000000 -920.00000000 114 229 84 97.000000 1.000000 4.000000 1.000000 -60.708740 114.000000 146.000000 -0.158272 0.987206 0.019357
-6730.00000000 6160.00000000 -880.00000000 114 229 84 97.000000 1.000000 4.000000 1.000000 -60.708740 114.000000 146.000000 0.688668 0.712674 0.133533
-6570.00000000 6360.00000000 -1080.00000000 114 229 84 97.000000 1.000000 4.000000 1.000000 -60.708740 114.000000 146.000000 0.938288 -0.227253 -0.260713
-6550.00000000 6330.00000000 -1070.00000000 114 229 84 97.000000 1.000000 4.000000 1.000000 -60.708740 114.000000 146.000000 0.865162 -0.310846 -0.393534
-6570.00000000 6340.00000000 -1160.00000000 114 229 84 97.000000 1.000000 4.000000 1.000000 -60.708740 114.000000 146.000000 0.976822 -0.148837 0.153840
-6570.00000000 6200.00000000 -1130.00000000 114 229 84 97.000000 1.000000 4.000000 1.000000 -60.708740 114.000000 146.000000 -0.191883 0.974463 -0.116635
-6500.00000000 6140.00000000 -1070.00000000 114 229 84 97.000000 1.000000 4.000000 1.000000 -60.708740 114.000000 146.000000 -0.439361 0.896405 -0.058491
-6490.00000000 6130.00000000 -1270.00000000 114 229 84 97.000000 1.000000 4.000000 1.000000 -60.708740 114.000000 146.000000 -0.380834 0.853379 0.355963
-6450.00000000 6150.00000000 -1290.00000000 114 229 84 97.000000 1.000000 4.000000 1.000000 -60.708740 114.000000 146.000000 -0.428511 0.882055 -0.195849
-6520.00000000 6150.00000000 -1330.00000000 114 229 84 97.000000 1.000000 4.000000 1.000000 -60.708740 114.000000 146.000000 0.540859 -0.750013 -0.380726
-6550.00000000 6180.00000000 -1350.00000000 114 229 84 97.000000 1.000000 4.000000 1.000000 -60.708740 114.000000 146.000000 -0.106419 0.994321 -0.001075
-6580.00000000 6360.00000000 -1150.00000000 114 229 84 97.000000 1.000000 4.000000 1.000000 -60.708740 114.000000 146.000000 0.970326 -0.025376 0.240467
-6580.00000000 6350.00000000 -1180.00000000 114 229 84 97.000000 1.000000 4.000000 1.000000 -60.708740 114.000000 146.000000 0.968933 -0.089459 -0.230578
-6580.00000000 6350.00000000 -1180.00000000 114 229 84 97.000000 1.000000 4.000000 1.000000 -60.708740 114.000000 146.000000 0.968933 -0.089459 -0.230578
-6590.00000000 6290.00000000 -1180.00000000 114 229 84 97.000000 1.000000 4.000000 1.000000 -60.708740 114.000000 146.000000 0.674913 -0.703100 -0.223927
-6590.00000000 6320.00000000 -1190.00000000 114 229 84 97.000000 1.000000 4.000000 1.000000 -60.708740 114.000000 146.000000 0.828093 -0.478766 -0.291626
-6590.00000000 6270.00000000 -1100.00000000 114 229 84 97.000000 1.000000 4.000000 1.000000 -60.708740 114.000000 146.000000 0.725710 -0.685473 -0.058919
-6600.00000000 6250.00000000 -1050.00000000 114 229 84 97.000000 1.000000 4.000000 1.000000 -60.708740 114.000000 146.000000 -0.616242 0.763771 -0.192095
-6610.00000000 6230.00000000 -1180.00000000 114 229 84 97.000000 1.000000 4.000000 1.000000 -60.708740 114.000000 146.000000 -0.438113 0.889069 -0.132718
-6600.00000000 6360.00000000 -1220.00000000 114 229 84 97.000000 1.000000 4.000000 1.000000 -60.708740 114.000000 146.000000 0.975581 -0.203503 -0.082635
-6580.00000000 6360.00000000 -1250.00000000 114 229 84 97.000000 1.000000 4.000000 1.000000 -60.708740 114.000000 146.000000 0.963514 -0.257022 -0.074701
-6610.00000000 6360.00000000 -1270.00000000 114 229 84 97.000000 1.000000 4.000000 1.000000 -60.708740 114.000000 146.000000 0.907943 -0.417307 -0.038664
-6600.00000000 6360.00000000 -1270.00000000 114 229 84 97.000000 1.000000 4.000000 1.000000 -60.708740 114.000000 146.000000 0.791274 -0.485078 -0.372269
-6600.00000000 6330.00000000 -1260.00000000 114 229 84 97.000000 1.000000 4.000000 1.000000 -60.708740 114.000000 146.000000 0.855122 -0.517465 -0.031569
-6610.00000000 6320.00000000 -1260.00000000 114 229 84 97.000000 1.000000 4.000000 1.000000 -60.708740 114.000000 146.000000 -0.555357 0.738837 0.381705
-6630.00000000 6230.00000000 -1260.00000000 114 229 84 97.000000 1.000000 4.000000 1.000000 -60.708740 114.000000 146.000000 -0.327494 0.944548 0.024025
-6530.00000000 5970.00000000 -770.00000000 114 229 84 97.000000 1.000000 4.000000 1.000000 -60.708740 114.000000 146.000000 -0.173784 0.984778 0.003408
-6750.00000000 6290.00000000 -740.00000000 114 229 84 97.000000 1.000000 4.000000 1.000000 -60.708740 114.000000 146.000000 0.829607 0.439203 0.344751
-6750.00000000 6360.00000000 -730.00000000 114 229 84 97.000000 1.000000 4.000000 1.000000 -60.708740 114.000000 146.000000 0.814990 -0.579396 0.009588
-6760.00000000 6300.00000000 -720.00000000 114 229 84 97.000000 1.000000 4.000000 1.000000 -60.708740 114.000000 146.000000 0.836052 0.518980 -0.177979
-6760.00000000 6300.00000000 -730.00000000 114 229 84 97.000000 1.000000 4.000000 1.000000 -60.708740 114.000000 146.000000 0.764418 0.598716 0.239174
-6750.00000000 6290.00000000 -710.00000000 114 229 84 97.000000 1.000000 4.000000 1.000000 -60.708740 114.000000 146.000000 0.849033 0.508833 0.142239
-6760.00000000 6300.00000000 -700.00000000 114 229 84 97.000000 1.000000 4.000000 1.000000 -60.708740 114.000000 146.000000 0.981158 -0.061098 0.183293
-6770.00000000 6320.00000000 -770.00000000 114 229 84 97.000000 1.000000 4.000000 1.000000 -60.708740 114.000000 146.000000 0.955063 0.205520 -0.213579
-6790.00000000 6340.00000000 -720.00000000 114 229 84 97.000000 1.000000 4.000000 1.000000 -60.708740 114.000000 146.000000 0.955525 0.231197 0.183087
-6770.00000000 6360.00000000 -780.00000000 114 229 84 97.000000 1.000000 4.000000 1.000000 -60.708740 114.000000 146.000000 0.850989 -0.499974 -0.160759
-6810.00000000 6360.00000000 -850.00000000 114 229 84 97.000000 1.000000 4.000000 1.000000 -60.708740 114.000000 146.000000 0.928812 -0.332813 0.162925
-6790.00000000 6310.00000000 -780.00000000 114 229 84 97.000000 1.000000 4.000000 1.000000 -60.708740 114.000000 146.000000 0.926009 0.351911 -0.136624
-6800.00000000 6320.00000000 -810.00000000 114 229 84 97.000000 1.000000 4.000000 1.000000 -60.708740 114.000000 146.000000 0.988677 0.059112 -0.137928
-6790.00000000 6290.00000000 -840.00000000 114 229 84 97.000000 1.000000 4.000000 1.000000 -60.708740 114.000000 146.000000 0.867987 0.454093 -0.200992
-6750.00000000 6270.00000000 -700.00000000 114 229 84 97.000000 1.000000 4.000000 1.000000 -60.708740 114.000000 146.000000 0.836146 0.543708 -0.072400
-6750.00000000 6280.00000000 -740.00000000 114 229 84 97.000000 1.000000 4.000000 1.000000 -60.708740 114.000000 146.000000 0.953616 0.224618 -0.200407
-6760.00000000 6260.00000000 -780.00000000 114 229 84 97.000000 1.000000 4.000000 1.000000 -60.708740 114.000000 146.000000 0.919737 0.384912 0.076982
-6760.00000000 6250.00000000 -780.00000000 114 229 84 97.000000 1.000000 4.000000 1.000000 -60.708740 114.000000 146.000000 0.619884 0.778152 -0.101116
-6770.00000000 6280.00000000 -810.00000000 114 229 84 97.000000 1.000000 4.000000 1.000000 -60.708740 114.000000 146.000000 0.826735 0.465921 -0.315320
-6760.00000000 6260.00000000 -800.00000000 114 229 84 97.000000 1.000000 4.000000 1.000000 -60.708740 114.000000 146.000000 0.843795 0.519146 -0.136002
-6780.00000000 6260.00000000 -850.00000000 114 229 84 97.000000 1.000000 4.000000 1.000000 -60.708740 114.000000 146.000000 0.894384 0.410228 -0.178297
-6780.00000000 6260.00000000 -860.00000000 114 229 84 97.000000 1.000000 4.000000 1.000000 -60.708740 114.000000 146.000000 0.931261 0.361794 0.043102
-6770.00000000 6250.00000000 -840.00000000 114 229 84 97.000000 1.000000 4.000000 1.000000 -60.708740 114.000000 146.000000 0.644357 0.749990 -0.149394
-6750.00000000 6240.00000000 -840.00000000 114 229 84 97.000000 1.000000 4.000000 1.000000 -60.708740 114.000000 146.000000 0.850614 0.497305 -0.170717
-6790.00000000 6270.00000000 -840.00000000 114 229 84 97.000000 1.000000 4.000000 1.000000 -60.708740 114.000000 146.000000 0.912027 0.402165 0.080433
-6790.00000000 6320.00000000 -870.00000000 114 229 84 97.000000 1.000000 4.000000 1.000000 -60.708740 114.000000 146.000000 0.965294 -0.159800 -0.206570
-6810.00000000 6320.00000000 -880.00000000 114 229 84 97.000000 1.000000 4.000000 1.000000 -60.708740 114.000000 146.000000 0.951769 0.236255 0.195754
-6810.00000000 6290.00000000 -930.00000000 114 229 84 97.000000 1.000000 4.000000 1.000000 -60.708740 114.000000 146.000000 0.850665 0.459695 -0.255047
-6800.00000000 6320.00000000 -940.00000000 114 229 84 97.000000 1.000000 4.000000 1.000000 -60.708740 114.000000 146.000000 0.912716 0.166077 -0.373319
-6810.00000000 6310.00000000 -920.00000000 114 229 84 97.000000 1.000000 4.000000 1.000000 -60.708740 114.000000 146.000000 0.980424 -0.068738 -0.184508
-6810.00000000 6290.00000000 -950.00000000 114 229 84 97.000000 1.000000 4.000000 1.000000 -60.708740 114.000000 146.000000 0.942541 0.247020 -0.224940
-6780.00000000 6260.00000000 -890.00000000 114 229 84 97.000000 1.000000 4.000000 1.000000 -60.708740 114.000000 146.000000 0.814696 0.539564 -0.212463
-6780.00000000 6270.00000000 -870.00000000 114 229 84 97.000000 1.000000 4.000000 1.000000 -60.708740 114.000000 146.000000 0.621919 0.779912 -0.070379
-6770.00000000 6260.00000000 -870.00000000 114 229 84 97.000000 1.000000 4.000000 1.000000 -60.708740 114.000000 146.000000 0.935477 0.337848 0.103643
-6760.00000000 6240.00000000 -870.00000000 114 229 84 97.000000 1.000000 4.000000 1.000000 -60.708740 114.000000 146.000000 0.935917 0.348522 -0.050908
-6780.00000000 6260.00000000 -880.00000000 114 229 84 97.000000 1.000000 4.000000 1.000000 -60.708740 114.000000 146.000000 0.854061 0.499545 -0.145029
-6770.00000000 6250.00000000 -880.00000000 114 229 84 97.000000 1.000000 4.000000 1.000000 -60.708740 114.000000 146.000000 0.860155 0.459453 0.221441
-6750.00000000 6250.00000000 -880.00000000 114 229 84 97.000000 1.000000 4.000000 1.000000 -60.708740 114.000000 146.000000 0.489717 0.869838 0.059654
-6780.00000000 6280.00000000 -940.00000000 114 229 84 97.000000 1.000000 4.000000 1.000000 -60.708740 114.000000 146.000000 0.877695 0.473034 -0.076746
-6780.00000000 6250.00000000 -920.00000000 114 229 84 97.000000 1.000000 4.000000 1.000000 -60.708740 114.000000 146.000000 0.477411 0.878597 0.012036
-6750.00000000 6250.00000000 -910.00000000 114 229 84 97.000000 1.000000 4.000000 1.000000 -60.708740 114.000000 146.000000 0.800965 0.580215 -0.147664
-6770.00000000 6220.00000000 -910.00000000 114 229 84 97.000000 1.000000 4.000000 1.000000 -60.708740 114.000000 146.000000 0.637471 0.726052 -0.257836
-6750.00000000 6230.00000000 -920.00000000 114 229 84 97.000000 1.000000 4.000000 1.000000 -60.708740 114.000000 146.000000 0.890796 0.444701 0.093401
-6780.00000000 6220.00000000 -940.00000000 114 229 84 97.000000 1.000000 4.000000 1.000000 -60.708740 114.000000 146.000000 0.513737 0.856228 0.054297
-6790.00000000 6260.00000000 -890.00000000 114 229 84 97.000000 1.000000 4.000000 1.000000 -60.708740 114.000000 146.000000 0.766233 0.557406 -0.319665
-6800.00000000 6260.00000000 -940.00000000 114 229 84 97.000000 1.000000 4.000000 1.000000 -60.708740 114.000000 146.000000 0.748282 0.619647 -0.236878
-6770.00000000 6250.00000000 -950.00000000 114 229 84 97.000000 1.000000 4.000000 1.000000 -60.708740 114.000000 146.000000 0.823745 0.501073 0.265274
-6780.00000000 6230.00000000 -960.00000000 114 229 84 97.000000 1.000000 4.000000 1.000000 -60.708740 114.000000 146.000000 0.693895 0.687658 -0.213626
-6800.00000000 6260.00000000 -960.00000000 114 229 84 97.000000 1.000000 4.000000 1.000000 -60.708740 114.000000 146.000000 0.712893 0.615458 -0.336148
-6800.00000000 6250.00000000 -1020.00000000 114 229 84 97.000000 1.000000 4.000000 1.000000 -60.708740 114.000000 146.000000 0.736032 0.664369 -0.129888
-6810.00000000 6210.00000000 -990.00000000 114 229 84 97.000000 1.000000 4.000000 1.000000 -60.708740 114.000000 146.000000 0.775797 0.552776 -0.304265
-6800.00000000 6210.00000000 -1030.00000000 114 229 84 97.000000 1.000000 4.000000 1.000000 -60.708740 114.000000 146.000000 0.378138 0.908959 0.175513
-6830.00000000 6340.00000000 -890.00000000 114 229 84 97.000000 1.000000 4.000000 1.000000 -60.708740 114.000000 146.000000 0.890697 0.281979 -0.356577
-6850.00000000 6350.00000000 -1010.00000000 114 229 84 97.000000 1.000000 4.000000 1.000000 -60.708740 114.000000 146.000000 0.971080 0.228853 -0.068037
-6850.00000000 6350.00000000 -1000.00000000 114 229 84 97.000000 1.000000 4.000000 1.000000 -60.708740 114.000000 146.000000 0.942969 0.268436 -0.196853
-6850.00000000 6340.00000000 -1000.00000000 114 229 84 97.000000 1.000000 4.000000 1.000000 -60.708740 114.000000 146.000000 0.998197 0.030568 0.051649
-6840.00000000 6300.00000000 -1030.00000000 114 229 84 97.000000 1.000000 4.000000 1.000000 -60.708740 114.000000 146.000000 0.986855 0.133550 -0.091003
-6770.00000000 6070.00000000 -960.00000000 114 229 84 97.000000 1.000000 4.000000 1.000000 -60.708740 114.000000 146.000000 0.688080 0.675367 0.265379
-6800.00000000 6090.00000000 -1020.00000000 114 229 84 97.000000 1.000000 4.000000 1.000000 -60.708740 114.000000 146.000000 0.134485 0.988173 -0.073674
-6820.00000000 6240.00000000 -1070.00000000 114 229 84 97.000000 1.000000 4.000000 1.000000 -60.708740 114.000000 146.000000 0.892870 0.444371 -0.072915
-6810.00000000 6230.00000000 -1060.00000000 114 229 84 97.000000 1.000000 4.000000 1.000000 -60.708740 114.000000 146.000000 0.845279 0.533932 -0.020483
-6820.00000000 6250.00000000 -1050.00000000 114 229 84 97.000000 1.000000 4.000000 1.000000 -60.708740 114.000000 146.000000 0.893665 0.341651 -0.290926
-6820.00000000 6230.00000000 -1100.00000000 114 229 84 97.000000 1.000000 4.000000 1.000000 -60.708740 114.000000 146.000000 0.832696 0.548984 -0.072347
-6780.00000000 6210.00000000 -1090.00000000 114 229 84 97.000000 1.000000 4.000000 1.000000 -60.708740 114.000000 146.000000 0.551837 0.797443 -0.244052
-6790.00000000 6200.00000000 -1170.00000000 114 229 84 97.000000 1.000000 4.000000 1.000000 -60.708740 114.000000 146.000000 0.830325 0.545310 -0.114879
-6820.00000000 6230.00000000 -1150.00000000 114 229 84 97.000000 1.000000 4.000000 1.000000 -60.708740 114.000000 146.000000 0.847749 0.525067 0.075010
-6820.00000000 6230.00000000 -1160.00000000 114 229 84 97.000000 1.000000 4.000000 1.000000 -60.708740 114.000000 146.000000 0.545600 0.726917 0.417029
-6800.00000000 6210.00000000 -1170.00000000 114 229 84 97.000000 1.000000 4.000000 1.000000 -60.708740 114.000000 146.000000 0.832811 0.542127 -0.111914
