//X Y Z R G B PointSourceId ScanDirectionFlag NumberOfReturns ReturnNumber GpsTime Intensity Classification Nx Ny Nz
-870.00000000 -21490.00000000 -180.00000000 102 33 188 0.000000 0.000000 0.000000 0.000000 -60.708740 0.000000 139.000000 0.448079 0.848425 0.281782
-870.00000000 -21500.00000000 -170.00000000 102 33 188 0.000000 0.000000 0.000000 0.000000 -60.708740 0.000000 139.000000 0.783306 0.594704 0.180997
-870.00000000 -21500.00000000 -160.00000000 102 33 188 0.000000 0.000000 0.000000 0.000000 -60.708740 0.000000 139.000000 0.450827 0.857634 0.247424
-870.00000000 -21500.00000000 -170.00000000 102 33 188 0.000000 0.000000 0.000000 0.000000 -60.708740 0.000000 139.000000 0.783306 0.594704 0.180997
-850.00000000 -21510.00000000 -150.00000000 102 33 188 0.000000 0.000000 0.000000 0.000000 -60.708740 0.000000 139.000000 0.382109 0.917337 0.111736
-860.00000000 -21500.00000000 -160.00000000 102 33 188 0.000000 0.000000 0.000000 0.000000 -60.708740 0.000000 139.000000 0.539551 0.840695 -0.046008
-930.00000000 -21460.00000000 -120.00000000 102 33 188 0.000000 0.000000 0.000000 0.000000 -60.708740 0.000000 139.000000 0.699872 0.529497 -0.479387
-920.00000000 -21450.00000000 -110.00000000 102 33 188 0.000000 0.000000 0.000000 0.000000 -60.708740 0.000000 139.000000 0.822907 0.423345 -0.378949
-930.00000000 -21450.00000000 -130.00000000 102 33 188 0.000000 0.000000 0.000000 0.000000 -60.708740 0.000000 139.000000 0.811502 0.584336 0.004105
-930.00000000 -21450.00000000 -120.00000000 102 33 188 0.000000 0.000000 0.000000 0.000000 -60.708740 0.000000 139.000000 0.823185 0.567572 -0.015117
-920.00000000 -21430.00000000 -130.00000000 102 33 188 0.000000 0.000000 0.000000 0.000000 -60.708740 0.000000 139.000000 0.841684 -0.158278 -0.516252
-920.00000000 -21450.00000000 -160.00000000 102 33 188 0.000000 0.000000 0.000000 0.000000 -60.708740 0.000000 139.000000 0.840822 0.432111 -0.326033
-920.00000000 -21450.00000000 -160.00000000 102 33 188 0.000000 0.000000 0.000000 0.000000 -60.708740 0.000000 139.000000 0.840822 0.432111 -0.326033
-920.00000000 -21460.00000000 -160.00000000 102 33 188 0.000000 0.000000 0.000000 0.000000 -60.708740 0.000000 139.000000 0.847954 0.379471 -0.370102
-900.00000000 -21440.00000000 -180.00000000 102 33 188 0.000000 0.000000 0.000000 0.000000 -60.708740 0.000000 139.000000 0.629426 0.582177 -0.514678
-910.00000000 -21490.00000000 -140.00000000 102 33 188 0.000000 0.000000 0.000000 0.000000 -60.708740 0.000000 139.000000 0.948213 0.248957 -0.197261
-920.00000000 -21480.00000000 -170.00000000 102 33 188 0.000000 0.000000 0.000000 0.000000 -60.708740 0.000000 139.000000 0.931623 0.272017 -0.241010
-910.00000000 -21490.00000000 -160.00000000 102 33 188 0.000000 0.000000 0.000000 0.000000 -60.708740 0.000000 139.000000 0.946235 0.312794 -0.082452
-910.00000000 -21510.00000000 -150.00000000 102 33 188 0.000000 0.000000 0.000000 0.000000 -60.708740 0.000000 139.000000 0.464244 0.776998 -0.425150
-910.00000000 -21500.00000000 -150.00000000 102 33 188 0.000000 0.000000 0.000000 0.000000 -60.708740 0.000000 139.000000 0.749132 0.599623 -0.281521
-870.00000000 -21520.00000000 -20.00000000 102 33 188 0.000000 0.000000 0.000000 0.000000 -60.708740 0.000000 139.000000 0.728797 0.551122 -0.406349
-850.00000000 -21540.00000000 -40.00000000 102 33 188 0.000000 0.000000 0.000000 0.000000 -60.708740 0.000000 139.000000 0.424212 0.853051 -0.303890
-890.00000000 -21530.00000000 -50.00000000 102 33 188 0.000000 0.000000 0.000000 0.000000 -60.708740 0.000000 139.000000 0.674351 0.717166 -0.175851
-880.00000000 -21520.00000000 -30.00000000 102 33 188 0.000000 0.000000 0.000000 0.000000 -60.708740 0.000000 139.000000 0.643833 0.765155 -0.004136
-880.00000000 -21520.00000000 -30.00000000 102 33 188 0.000000 0.000000 0.000000 0.000000 -60.708740 0.000000 139.000000 0.643833 0.765155 -0.004136
-880.00000000 -21550.00000000 -30.00000000 102 33 188 0.000000 0.000000 0.000000 0.000000 -60.708740 0.000000 139.000000 0.851792 0.398744 -0.339786
-850.00000000 -21550.00000000 -80.00000000 102 33 188 0.000000 0.000000 0.000000 0.000000 -60.708740 0.000000 139.000000 0.194303 0.980825 -0.015125
-850.00000000 -21540.00000000 -80.00000000 102 33 188 0.000000 0.000000 0.000000 0.000000 -60.708740 0.000000 139.000000 0.451504 0.887631 0.090860
-850.00000000 -21540.00000000 -80.00000000 102 33 188 0.000000 0.000000 0.000000 0.000000 -60.708740 0.000000 139.000000 0.451504 0.887631 0.090860
-850.00000000 -21520.00000000 -130.00000000 102 33 188 0.000000 0.000000 0.000000 0.000000 -60.708740 0.000000 139.000000 0.700693 0.659194 0.272935
-860.00000000 -21530.00000000 -130.00000000 102 33 188 0.000000 0.000000 0.000000 0.000000 -60.708740 0.000000 139.000000 0.582603 0.752729 -0.306549
-850.00000000 -21530.00000000 -110.00000000 102 33 188 0.000000 0.000000 0.000000 0.000000 -60.708740 0.000000 139.000000 0.655403 0.749242 -0.095305
-850.00000000 -21530.00000000 -150.00000000 102 33 188 0.000000 0.000000 0.000000 0.000000 -60.708740 0.000000 139.000000 0.492948 0.841803 0.219931
-870.00000000 -21520.00000000 -170.00000000 102 33 188 0.000000 0.000000 0.000000 0.000000 -60.708740 0.000000 139.000000 0.711939 0.651686 0.261626
-870.00000000 -21520.00000000 -160.00000000 102 33 188 0.000000 0.000000 0.000000 0.000000 -60.708740 0.000000 139.000000 0.675460 0.655928 0.336916
-860.00000000 -21520.00000000 -160.00000000 102 33 188 0.000000 0.000000 0.000000 0.000000 -60.708740 0.000000 139.000000 0.312368 0.947474 0.068695
-850.00000000 -21520.00000000 -150.00000000 102 33 188 0.000000 0.000000 0.000000 0.000000 -60.708740 0.000000 139.000000 0.423598 0.866934 0.262661
-940.00000000 -21500.00000000 -60.00000000 102 33 188 0.000000 0.000000 0.000000 0.000000 -60.708740 0.000000 139.000000 0.722221 0.660095 -0.206571
-940.00000000 -21460.00000000 -140.00000000 102 33 188 0.000000 0.000000 0.000000 0.000000 -60.708740 0.000000 139.000000 0.722736 0.503423 -0.473517
-940.00000000 -21460.00000000 -140.00000000 102 33 188 0.000000 0.000000 0.000000 0.000000 -60.708740 0.000000 139.000000 0.722736 0.503423 -0.473517
-870.00000000 -21500.00000000 -210.00000000 102 33 188 0.000000 0.000000 0.000000 0.000000 -60.708740 0.000000 139.000000 0.579974 0.769612 0.267073
-890.00000000 -21480.00000000 -210.00000000 102 33 188 0.000000 0.000000 0.000000 0.000000 -60.708740 0.000000 139.000000 0.748367 0.602189 -0.278056
-860.00000000 -21500.00000000 -200.00000000 102 33 188 0.000000 0.000000 0.000000 0.000000 -60.708740 0.000000 139.000000 0.544627 0.836039 -0.066487
-870.00000000 -21490.00000000 -230.00000000 102 33 188 0.000000 0.000000 0.000000 0.000000 -60.708740 0.000000 139.000000 0.307982 0.942774 -0.127765
-870.00000000 -21490.00000000 -190.00000000 102 33 188 0.000000 0.000000 0.000000 0.000000 -60.708740 0.000000 139.000000 0.595769 0.777425 0.201669
-870.00000000 -21480.00000000 -200.00000000 102 33 188 0.000000 0.000000 0.000000 0.000000 -60.708740 0.000000 139.000000 0.521688 0.806815 0.277294
-860.00000000 -21510.00000000 -190.00000000 102 33 188 0.000000 0.000000 0.000000 0.000000 -60.708740 0.000000 139.000000 0.773365 0.633516 -0.023774
-880.00000000 -21490.00000000 -230.00000000 102 33 188 0.000000 0.000000 0.000000 0.000000 -60.708740 0.000000 139.000000 0.628315 0.661471 -0.409482
-860.00000000 -21500.00000000 -190.00000000 102 33 188 0.000000 0.000000 0.000000 0.000000 -60.708740 0.000000 139.000000 0.580759 0.813063 -0.040583
-850.00000000 -21510.00000000 -200.00000000 102 33 188 0.000000 0.000000 0.000000 0.000000 -60.708740 0.000000 139.000000 0.220136 0.974194 0.049865
-860.00000000 -21500.00000000 -190.00000000 102 33 188 0.000000 0.000000 0.000000 0.000000 -60.708740 0.000000 139.000000 0.580759 0.813063 -0.040583
-890.00000000 -21480.00000000 -210.00000000 102 33 188 0.000000 0.000000 0.000000 0.000000 -60.708740 0.000000 139.000000 0.748367 0.602189 -0.278056
-870.00000000 -21510.00000000 -240.00000000 102 33 188 0.000000 0.000000 0.000000 0.000000 -60.708740 0.000000 139.000000 0.327416 0.915900 -0.232220
-880.00000000 -21470.00000000 -270.00000000 102 33 188 0.000000 0.000000 0.000000 0.000000 -60.708740 0.000000 139.000000 0.560448 0.827460 0.034767
-900.00000000 -21460.00000000 -220.00000000 102 33 188 0.000000 0.000000 0.000000 0.000000 -60.708740 0.000000 139.000000 0.936279 0.331008 -0.117541
-910.00000000 -21450.00000000 -230.00000000 102 33 188 0.000000 0.000000 0.000000 0.000000 -60.708740 0.000000 139.000000 0.557877 0.729026 -0.396603
-920.00000000 -21450.00000000 -190.00000000 102 33 188 0.000000 0.000000 0.000000 0.000000 -60.708740 0.000000 139.000000 0.752542 0.530534 -0.390146
-920.00000000 -21450.00000000 -190.00000000 102 33 188 0.000000 0.000000 0.000000 0.000000 -60.708740 0.000000 139.000000 0.752542 0.530534 -0.390146
-930.00000000 -21460.00000000 -200.00000000 102 33 188 0.000000 0.000000 0.000000 0.000000 -60.708740 0.000000 139.000000 0.698013 0.464786 -0.544750
-920.00000000 -21450.00000000 -190.00000000 102 33 188 0.000000 0.000000 0.000000 0.000000 -60.708740 0.000000 139.000000 0.752542 0.530534 -0.390146
-930.00000000 -21450.00000000 -260.00000000 102 33 188 0.000000 0.000000 0.000000 0.000000 -60.708740 0.000000 139.000000 0.942569 0.273827 -0.191266
-930.00000000 -21430.00000000 -270.00000000 102 33 188 0.000000 0.000000 0.000000 0.000000 -60.708740 0.000000 139.000000 0.662362 0.732085 -0.159149
-930.00000000 -21430.00000000 -260.00000000 102 33 188 0.000000 0.000000 0.000000 0.000000 -60.708740 0.000000 139.000000 0.613188 0.734865 -0.289783
-900.00000000 -21490.00000000 -230.00000000 102 33 188 0.000000 0.000000 0.000000 0.000000 -60.708740 0.000000 139.000000 0.425518 0.876417 -0.225450
-930.00000000 -21470.00000000 -200.00000000 102 33 188 0.000000 0.000000 0.000000 0.000000 -60.708740 0.000000 139.000000 0.813427 0.351795 -0.463224
-900.00000000 -21470.00000000 -230.00000000 102 33 188 0.000000 0.000000 0.000000 0.000000 -60.708740 0.000000 139.000000 0.897441 0.438599 0.047234
-880.00000000 -21500.00000000 -300.00000000 102 33 188 0.000000 0.000000 0.000000 0.000000 -60.708740 0.000000 139.000000 0.513823 0.836281 -0.191365
-880.00000000 -21470.00000000 -290.00000000 102 33 188 0.000000 0.000000 0.000000 0.000000 -60.708740 0.000000 139.000000 0.333079 0.919184 -0.210140
-860.00000000 -21500.00000000 -310.00000000 102 33 188 0.000000 0.000000 0.000000 0.000000 -60.708740 0.000000 139.000000 0.529364 0.845571 0.069170
-880.00000000 -21500.00000000 -300.00000000 102 33 188 0.000000 0.000000 0.000000 0.000000 -60.708740 0.000000 139.000000 0.513823 0.836281 -0.191365
-860.00000000 -21500.00000000 -290.00000000 102 33 188 0.000000 0.000000 0.000000 0.000000 -60.708740 0.000000 139.000000 0.593426 0.803860 0.040684
-850.00000000 -21500.00000000 -310.00000000 102 33 188 0.000000 0.000000 0.000000 0.000000 -60.708740 0.000000 139.000000 0.179546 0.983449 -0.024326
-890.00000000 -21490.00000000 -280.00000000 102 33 188 0.000000 0.000000 0.000000 0.000000 -60.708740 0.000000 139.000000 0.776106 0.629618 -0.035214
-880.00000000 -21480.00000000 -290.00000000 102 33 188 0.000000 0.000000 0.000000 0.000000 -60.708740 0.000000 139.000000 0.472411 0.809620 0.348343
-880.00000000 -21480.00000000 -320.00000000 102 33 188 0.000000 0.000000 0.000000 0.000000 -60.708740 0.000000 139.000000 0.435876 0.897713 -0.064220
-890.00000000 -21500.00000000 -320.00000000 102 33 188 0.000000 0.000000 0.000000 0.000000 -60.708740 0.000000 139.000000 0.362678 0.921286 -0.140347
-880.00000000 -21510.00000000 -320.00000000 102 33 188 0.000000 0.000000 0.000000 0.000000 -60.708740 0.000000 139.000000 0.268904 0.957402 -0.105223
-860.00000000 -21480.00000000 -350.00000000 102 33 188 0.000000 0.000000 0.000000 0.000000 -60.708740 0.000000 139.000000 0.281186 0.950168 0.134596
-930.00000000 -21460.00000000 -280.00000000 102 33 188 0.000000 0.000000 0.000000 0.000000 -60.708740 0.000000 139.000000 0.736332 0.611747 -0.289102
-930.00000000 -21460.00000000 -290.00000000 102 33 188 0.000000 0.000000 0.000000 0.000000 -60.708740 0.000000 139.000000 0.594358 0.654631 -0.467115
-930.00000000 -21430.00000000 -310.00000000 102 33 188 0.000000 0.000000 0.000000 0.000000 -60.708740 0.000000 139.000000 0.482082 0.814007 -0.324022
-930.00000000 -21460.00000000 -280.00000000 102 33 188 0.000000 0.000000 0.000000 0.000000 -60.708740 0.000000 139.000000 0.736332 0.611747 -0.289102
-910.00000000 -21430.00000000 -310.00000000 102 33 188 0.000000 0.000000 0.000000 0.000000 -60.708740 0.000000 139.000000 0.451077 0.880536 -0.145555
-920.00000000 -21430.00000000 -330.00000000 102 33 188 0.000000 0.000000 0.000000 0.000000 -60.708740 0.000000 139.000000 0.439233 0.864881 -0.243012
-930.00000000 -21430.00000000 -340.00000000 102 33 188 0.000000 0.000000 0.000000 0.000000 -60.708740 0.000000 139.000000 0.411042 0.857493 -0.309436
-910.00000000 -21430.00000000 -320.00000000 102 33 188 0.000000 0.000000 0.000000 0.000000 -60.708740 0.000000 139.000000 0.407863 0.879968 -0.243523
-900.00000000 -21450.00000000 -350.00000000 102 33 188 0.000000 0.000000 0.000000 0.000000 -60.708740 0.000000 139.000000 0.704680 0.679900 0.202886
-920.00000000 -21440.00000000 -350.00000000 102 33 188 0.000000 0.000000 0.000000 0.000000 -60.708740 0.000000 139.000000 0.684528 0.638784 -0.351250
-920.00000000 -21440.00000000 -350.00000000 102 33 188 0.000000 0.000000 0.000000 0.000000 -60.708740 0.000000 139.000000 0.684528 0.638784 -0.351250
-900.00000000 -21490.00000000 -300.00000000 102 33 188 0.000000 0.000000 0.000000 0.000000 -60.708740 0.000000 139.000000 0.223117 0.959799 -0.170308
-900.00000000 -21490.00000000 -300.00000000 102 33 188 0.000000 0.000000 0.000000 0.000000 -60.708740 0.000000 139.000000 0.223117 0.959799 -0.170308
-920.00000000 -21470.00000000 -290.00000000 102 33 188 0.000000 0.000000 0.000000 0.000000 -60.708740 0.000000 139.000000 0.690358 0.628045 -0.359117
-920.00000000 -21470.00000000 -350.00000000 102 33 188 0.000000 0.000000 0.000000 0.000000 -60.708740 0.000000 139.000000 0.432202 0.853637 -0.290698
-910.00000000 -21500.00000000 -330.00000000 102 33 188 0.000000 0.000000 0.000000 0.000000 -60.708740 0.000000 139.000000 0.711484 0.690514 -0.130314
-850.00000000 -21520.00000000 -200.00000000 102 33 188 0.000000 0.000000 0.000000 0.000000 -60.708740 0.000000 139.000000 0.118238 0.990673 0.067729
-850.00000000 -21520.00000000 -190.00000000 102 33 188 0.000000 0.000000 0.000000 0.000000 -60.708740 0.000000 139.000000 0.245079 0.963636 0.106500
-870.00000000 -21520.00000000 -270.00000000 102 33 188 0.000000 0.000000 0.000000 0.000000 -60.708740 0.000000 139.000000 0.330552 0.943158 0.034459
-850.00000000 -21520.00000000 -290.00000000 102 33 188 0.000000 0.000000 0.000000 0.000000 -60.708740 0.000000 139.000000 0.121779 0.820171 0.559007
-940.00000000 -21450.00000000 -190.00000000 102 33 188 0.000000 0.000000 0.000000 0.000000 -60.708740 0.000000 139.000000 0.644658 0.557132 -0.523469
-940.00000000 -21460.00000000 -200.00000000 102 33 188 0.000000 0.000000 0.000000 0.000000 -60.708740 0.000000 139.000000 0.864642 0.336335 -0.373194
-940.00000000 -21460.00000000 -350.00000000 102 33 188 0.000000 0.000000 0.000000 0.000000 -60.708740 0.000000 139.000000 0.536397 0.817585 -0.209363
-940.00000000 -21450.00000000 -320.00000000 102 33 188 0.000000 0.000000 0.000000 0.000000 -60.708740 0.000000 139.000000 0.893789 0.384315 -0.231178
-960.00000000 -21450.00000000 -350.00000000 102 33 188 0.000000 0.000000 0.000000 0.000000 -60.708740 0.000000 139.000000 0.755243 0.596911 -0.270748
-940.00000000 -21450.00000000 -320.00000000 102 33 188 0.000000 0.000000 0.000000 0.000000 -60.708740 0.000000 139.000000 0.893789 0.384315 -0.231178
-940.00000000 -21450.00000000 -340.00000000 102 33 188 0.000000 0.000000 0.000000 0.000000 -60.708740 0.000000 139.000000 0.908875 0.408652 -0.083370
-960.00000000 -21460.00000000 -350.00000000 102 33 188 0.000000 0.000000 0.000000 0.000000 -60.708740 0.000000 139.000000 0.517519 0.744242 -0.422230
-940.00000000 -21450.00000000 -320.00000000 102 33 188 0.000000 0.000000 0.000000 0.000000 -60.708740 0.000000 139.000000 0.893789 0.384315 -0.231178
-760.00000000 -21290.00000000 -410.00000000 102 33 188 0.000000 0.000000 0.000000 0.000000 -60.708740 0.000000 139.000000 0.639575 0.707238 -0.301261
-760.00000000 -21290.00000000 -410.00000000 102 33 188 0.000000 0.000000 0.000000 0.000000 -60.708740 0.000000 139.000000 0.639575 0.707238 -0.301261
-740.00000000 -21320.00000000 -360.00000000 102 33 188 0.000000 0.000000 0.000000 0.000000 -60.708740 0.000000 139.000000 0.701960 0.511881 -0.495207
-730.00000000 -21330.00000000 -360.00000000 102 33 188 0.000000 0.000000 0.000000 0.000000 -60.708740 0.000000 139.000000 0.791421 0.441836 -0.422415
-760.00000000 -21330.00000000 -380.00000000 102 33 188 0.000000 0.000000 0.000000 0.000000 -60.708740 0.000000 139.000000 0.834079 0.411521 -0.367373
-750.00000000 -21310.00000000 -420.00000000 102 33 188 0.000000 0.000000 0.000000 0.000000 -60.708740 0.000000 139.000000 0.892454 0.132374 -0.431281
-750.00000000 -21300.00000000 -420.00000000 102 33 188 0.000000 0.000000 0.000000 0.000000 -60.708740 0.000000 139.000000 0.819935 0.195511 -0.538035
-740.00000000 -21300.00000000 -410.00000000 102 33 188 0.000000 0.000000 0.000000 0.000000 -60.708740 0.000000 139.000000 0.639226 0.694528 -0.330185
-750.00000000 -21300.00000000 -420.00000000 102 33 188 0.000000 0.000000 0.000000 0.000000 -60.708740 0.000000 139.000000 0.819935 0.195511 -0.538035
-760.00000000 -21340.00000000 -460.00000000 102 33 188 0.000000 0.000000 0.000000 0.000000 -60.708740 0.000000 139.000000 0.799967 -0.261437 -0.540095
-750.00000000 -21300.00000000 -460.00000000 102 33 188 0.000000 0.000000 0.000000 0.000000 -60.708740 0.000000 139.000000 0.741798 0.480765 -0.467548
-760.00000000 -21340.00000000 -460.00000000 102 33 188 0.000000 0.000000 0.000000 0.000000 -60.708740 0.000000 139.000000 0.799967 -0.261437 -0.540095
-730.00000000 -21330.00000000 -510.00000000 102 33 188 0.000000 0.000000 0.000000 0.000000 -60.708740 0.000000 139.000000 0.773901 0.301582 -0.556889
-740.00000000 -21300.00000000 -490.00000000 102 33 188 0.000000 0.000000 0.000000 0.000000 -60.708740 0.000000 139.000000 0.777566 0.592063 -0.211782
-750.00000000 -21360.00000000 -440.00000000 102 33 188 0.000000 0.000000 0.000000 0.000000 -60.708740 0.000000 139.000000 0.702977 -0.169263 -0.690778
-740.00000000 -21400.00000000 -380.00000000 102 33 188 0.000000 0.000000 0.000000 0.000000 -60.708740 0.000000 139.000000 0.775575 -0.473149 -0.417867
-750.00000000 -21410.00000000 -440.00000000 102 33 188 0.000000 0.000000 0.000000 0.000000 -60.708740 0.000000 139.000000 -0.603619 0.735610 0.307443
-750.00000000 -21400.00000000 -440.00000000 102 33 188 0.000000 0.000000 0.000000 0.000000 -60.708740 0.000000 139.000000 0.590048 -0.637117 -0.495909
-790.00000000 -21290.00000000 -360.00000000 102 33 188 0.000000 0.000000 0.000000 0.000000 -60.708740 0.000000 139.000000 0.486374 0.786923 -0.379727
-800.00000000 -21260.00000000 -410.00000000 102 33 188 0.000000 0.000000 0.000000 0.000000 -60.708740 0.000000 139.000000 0.360456 0.925124 -0.119238
-770.00000000 -21280.00000000 -420.00000000 102 33 188 0.000000 0.000000 0.000000 0.000000 -60.708740 0.000000 139.000000 0.600886 0.753089 -0.267941
-770.00000000 -21270.00000000 -440.00000000 102 33 188 0.000000 0.000000 0.000000 0.000000 -60.708740 0.000000 139.000000 0.947818 0.238659 -0.211384
-780.00000000 -21300.00000000 -410.00000000 102 33 188 0.000000 0.000000 0.000000 0.000000 -60.708740 0.000000 139.000000 0.852509 0.413103 -0.320271
-770.00000000 -21310.00000000 -440.00000000 102 33 188 0.000000 0.000000 0.000000 0.000000 -60.708740 0.000000 139.000000 0.738813 0.576436 -0.349109
-770.00000000 -21310.00000000 -440.00000000 102 33 188 0.000000 0.000000 0.000000 0.000000 -60.708740 0.000000 139.000000 0.738813 0.576436 -0.349109
-770.00000000 -21310.00000000 -400.00000000 102 33 188 0.000000 0.000000 0.000000 0.000000 -60.708740 0.000000 139.000000 0.639537 0.675706 -0.366624
-810.00000000 -21260.00000000 -370.00000000 102 33 188 0.000000 0.000000 0.000000 0.000000 -60.708740 0.000000 139.000000 0.180563 0.973526 -0.140157
-830.00000000 -21260.00000000 -370.00000000 102 33 188 0.000000 0.000000 0.000000 0.000000 -60.708740 0.000000 139.000000 0.178445 0.978374 -0.104606
-800.00000000 -21260.00000000 -470.00000000 102 33 188 0.000000 0.000000 0.000000 0.000000 -60.708740 0.000000 139.000000 0.947077 0.319907 0.026554
-780.00000000 -21290.00000000 -470.00000000 102 33 188 0.000000 0.000000 0.000000 0.000000 -60.708740 0.000000 139.000000 0.691702 0.656231 -0.301511
-800.00000000 -21260.00000000 -470.00000000 102 33 188 0.000000 0.000000 0.000000 0.000000 -60.708740 0.000000 139.000000 0.947077 0.319907 0.026554
-780.00000000 -21290.00000000 -510.00000000 102 33 188 0.000000 0.000000 0.000000 0.000000 -60.708740 0.000000 139.000000 0.693267 0.661245 -0.286593
-770.00000000 -21290.00000000 -500.00000000 102 33 188 0.000000 0.000000 0.000000 0.000000 -60.708740 0.000000 139.000000 0.776109 0.405138 -0.483237
-770.00000000 -21270.00000000 -500.00000000 102 33 188 0.000000 0.000000 0.000000 0.000000 -60.708740 0.000000 139.000000 0.752129 0.509612 -0.417849
-780.00000000 -21260.00000000 -490.00000000 102 33 188 0.000000 0.000000 0.000000 0.000000 -60.708740 0.000000 139.000000 0.510641 0.809170 -0.290673
-810.00000000 -21290.00000000 -490.00000000 102 33 188 0.000000 0.000000 0.000000 0.000000 -60.708740 0.000000 139.000000 0.769645 0.555233 -0.315219
-770.00000000 -21420.00000000 -390.00000000 102 33 188 0.000000 0.000000 0.000000 0.000000 -60.708740 0.000000 139.000000 0.649143 -0.541234 -0.534489
-770.00000000 -21420.00000000 -430.00000000 102 33 188 0.000000 0.000000 0.000000 0.000000 -60.708740 0.000000 139.000000 -0.475656 0.633647 0.610117
-800.00000000 -21420.00000000 -410.00000000 102 33 188 0.000000 0.000000 0.000000 0.000000 -60.708740 0.000000 139.000000 -0.524105 0.652182 0.547698
-790.00000000 -21410.00000000 -520.00000000 102 33 188 0.000000 0.000000 0.000000 0.000000 -60.708740 0.000000 139.000000 0.951142 -0.159642 -0.264281
-760.00000000 -21320.00000000 -540.00000000 102 33 188 0.000000 0.000000 0.000000 0.000000 -60.708740 0.000000 139.000000 0.870049 0.460787 -0.175187
-760.00000000 -21290.00000000 -690.00000000 102 33 188 0.000000 0.000000 0.000000 0.000000 -60.708740 0.000000 139.000000 0.880690 0.306655 -0.361037
-760.00000000 -21300.00000000 -610.00000000 102 33 188 0.000000 0.000000 0.000000 0.000000 -60.708740 0.000000 139.000000 0.815954 0.492088 -0.303428
-760.00000000 -21340.00000000 -630.00000000 102 33 188 0.000000 0.000000 0.000000 0.000000 -60.708740 0.000000 139.000000 0.845160 0.126556 -0.519315
-750.00000000 -21320.00000000 -690.00000000 102 33 188 0.000000 0.000000 0.000000 0.000000 -60.708740 0.000000 139.000000 0.700268 -0.104672 -0.706165
-750.00000000 -21350.00000000 -660.00000000 102 33 188 0.000000 0.000000 0.000000 0.000000 -60.708740 0.000000 139.000000 0.889117 -0.079063 -0.450800
-780.00000000 -21270.00000000 -550.00000000 102 33 188 0.000000 0.000000 0.000000 0.000000 -60.708740 0.000000 139.000000 0.892103 0.244108 -0.380216
-780.00000000 -21270.00000000 -570.00000000 102 33 188 0.000000 0.000000 0.000000 0.000000 -60.708740 0.000000 139.000000 0.702440 0.664384 -0.255288
-770.00000000 -21310.00000000 -550.00000000 102 33 188 0.000000 0.000000 0.000000 0.000000 -60.708740 0.000000 139.000000 0.822783 0.426452 -0.375722
-770.00000000 -21310.00000000 -550.00000000 102 33 188 0.000000 0.000000 0.000000 0.000000 -60.708740 0.000000 139.000000 0.822783 0.426452 -0.375722
-770.00000000 -21300.00000000 -540.00000000 102 33 188 0.000000 0.000000 0.000000 0.000000 -60.708740 0.000000 139.000000 0.829527 0.491514 -0.265139
-780.00000000 -21310.00000000 -550.00000000 102 33 188 0.000000 0.000000 0.000000 0.000000 -60.708740 0.000000 139.000000 0.853354 0.251884 -0.456445
-770.00000000 -21310.00000000 -550.00000000 102 33 188 0.000000 0.000000 0.000000 0.000000 -60.708740 0.000000 139.000000 0.822783 0.426452 -0.375722
-770.00000000 -21280.00000000 -610.00000000 102 33 188 0.000000 0.000000 0.000000 0.000000 -60.708740 0.000000 139.000000 0.917054 -0.097036 -0.386776
-780.00000000 -21280.00000000 -690.00000000 102 33 188 0.000000 0.000000 0.000000 0.000000 -60.708740 0.000000 139.000000 0.915197 0.396090 -0.074351
-770.00000000 -21290.00000000 -660.00000000 102 33 188 0.000000 0.000000 0.000000 0.000000 -60.708740 0.000000 139.000000 0.799309 0.264351 -0.539651
-770.00000000 -21330.00000000 -630.00000000 102 33 188 0.000000 0.000000 0.000000 0.000000 -60.708740 0.000000 139.000000 0.956670 0.163658 -0.240831
-770.00000000 -21330.00000000 -630.00000000 102 33 188 0.000000 0.000000 0.000000 0.000000 -60.708740 0.000000 139.000000 0.956670 0.163658 -0.240831
-780.00000000 -21300.00000000 -670.00000000 102 33 188 0.000000 0.000000 0.000000 0.000000 -60.708740 0.000000 139.000000 0.800710 0.220619 -0.556948
-770.00000000 -21300.00000000 -660.00000000 102 33 188 0.000000 0.000000 0.000000 0.000000 -60.708740 0.000000 139.000000 0.826370 0.001357 -0.563126
-770.00000000 -21300.00000000 -660.00000000 102 33 188 0.000000 0.000000 0.000000 0.000000 -60.708740 0.000000 139.000000 0.826370 0.001357 -0.563126
-770.00000000 -21320.00000000 -670.00000000 102 33 188 0.000000 0.000000 0.000000 0.000000 -60.708740 0.000000 139.000000 0.862456 0.289528 -0.415143
-770.00000000 -21310.00000000 -660.00000000 102 33 188 0.000000 0.000000 0.000000 0.000000 -60.708740 0.000000 139.000000 0.809017 0.087968 -0.581165
-770.00000000 -21320.00000000 -670.00000000 102 33 188 0.000000 0.000000 0.000000 0.000000 -60.708740 0.000000 139.000000 0.862456 0.289528 -0.415143
-810.00000000 -21340.00000000 -690.00000000 102 33 188 0.000000 0.000000 0.000000 0.000000 -60.708740 0.000000 139.000000 0.997285 -0.037573 -0.063337
-770.00000000 -21380.00000000 -550.00000000 102 33 188 0.000000 0.000000 0.000000 0.000000 -60.708740 0.000000 139.000000 0.779775 0.032315 -0.625225
-780.00000000 -21360.00000000 -550.00000000 102 33 188 0.000000 0.000000 0.000000 0.000000 -60.708740 0.000000 139.000000 0.726812 -0.307807 -0.614003
-800.00000000 -21360.00000000 -590.00000000 102 33 188 0.000000 0.000000 0.000000 0.000000 -60.708740 0.000000 139.000000 0.920114 -0.111404 -0.375472
-780.00000000 -21390.00000000 -560.00000000 102 33 188 0.000000 0.000000 0.000000 0.000000 -60.708740 0.000000 139.000000 0.960549 0.003643 -0.278086
-780.00000000 -21390.00000000 -560.00000000 102 33 188 0.000000 0.000000 0.000000 0.000000 -60.708740 0.000000 139.000000 0.960549 0.003643 -0.278086
-800.00000000 -21410.00000000 -600.00000000 102 33 188 0.000000 0.000000 0.000000 0.000000 -60.708740 0.000000 139.000000 0.845095 -0.376466 -0.379590
-780.00000000 -21360.00000000 -630.00000000 102 33 188 0.000000 0.000000 0.000000 0.000000 -60.708740 0.000000 139.000000 0.994163 -0.072853 -0.079578
-780.00000000 -21360.00000000 -630.00000000 102 33 188 0.000000 0.000000 0.000000 0.000000 -60.708740 0.000000 139.000000 0.994163 -0.072853 -0.079578
-790.00000000 -21370.00000000 -660.00000000 102 33 188 0.000000 0.000000 0.000000 0.000000 -60.708740 0.000000 139.000000 0.714274 -0.092401 -0.693740
-770.00000000 -21370.00000000 -690.00000000 102 33 188 0.000000 0.000000 0.000000 0.000000 -60.708740 0.000000 139.000000 0.990186 -0.114653 -0.079910
-770.00000000 -21360.00000000 -680.00000000 102 33 188 0.000000 0.000000 0.000000 0.000000 -60.708740 0.000000 139.000000 0.983029 -0.127273 -0.132121
-780.00000000 -21390.00000000 -620.00000000 102 33 188 0.000000 0.000000 0.000000 0.000000 -60.708740 0.000000 139.000000 0.967662 -0.246562 -0.053277
-790.00000000 -21390.00000000 -650.00000000 102 33 188 0.000000 0.000000 0.000000 0.000000 -60.708740 0.000000 139.000000 0.964400 -0.069155 -0.255245
-800.00000000 -21390.00000000 -660.00000000 102 33 188 0.000000 0.000000 0.000000 0.000000 -60.708740 0.000000 139.000000 0.941929 -0.325394 -0.082995
-830.00000000 -21420.00000000 -690.00000000 102 33 188 0.000000 0.000000 0.000000 0.000000 -60.708740 0.000000 139.000000 0.912647 -0.374963 -0.162720
-820.00000000 -21420.00000000 -680.00000000 102 33 188 0.000000 0.000000 0.000000 0.000000 -60.708740 0.000000 139.000000 -0.572829 0.582967 0.576208
-820.00000000 -21420.00000000 -680.00000000 102 33 188 0.000000 0.000000 0.000000 0.000000 -60.708740 0.000000 139.000000 -0.572829 0.582967 0.576208
-740.00000000 -21430.00000000 -390.00000000 102 33 188 0.000000 0.000000 0.000000 0.000000 -60.708740 0.000000 139.000000 0.592984 -0.562575 -0.576090
-760.00000000 -21470.00000000 -360.00000000 102 33 188 0.000000 0.000000 0.000000 0.000000 -60.708740 0.000000 139.000000 -0.399167 0.878168 0.263601
-750.00000000 -21460.00000000 -460.00000000 102 33 188 0.000000 0.000000 0.000000 0.000000 -60.708740 0.000000 139.000000 -0.467548 0.480765 0.741798
-780.00000000 -21430.00000000 -380.00000000 102 33 188 0.000000 0.000000 0.000000 0.000000 -60.708740 0.000000 139.000000 0.685381 -0.301568 -0.662804
-780.00000000 -21460.00000000 -410.00000000 102 33 188 0.000000 0.000000 0.000000 0.000000 -60.708740 0.000000 139.000000 -0.234167 0.909034 0.344706
-780.00000000 -21450.00000000 -440.00000000 102 33 188 0.000000 0.000000 0.000000 0.000000 -60.708740 0.000000 139.000000 0.410053 -0.736119 -0.538503
-780.00000000 -21460.00000000 -410.00000000 102 33 188 0.000000 0.000000 0.000000 0.000000 -60.708740 0.000000 139.000000 -0.234167 0.909034 0.344706
-780.00000000 -21450.00000000 -440.00000000 102 33 188 0.000000 0.000000 0.000000 0.000000 -60.708740 0.000000 139.000000 0.410053 -0.736119 -0.538503
-790.00000000 -21470.00000000 -380.00000000 102 33 188 0.000000 0.000000 0.000000 0.000000 -60.708740 0.000000 139.000000 -0.314667 0.949016 -0.018805
-820.00000000 -21460.00000000 -370.00000000 102 33 188 0.000000 0.000000 0.000000 0.000000 -60.708740 0.000000 139.000000 -0.026638 0.944997 0.325992
-840.00000000 -21490.00000000 -380.00000000 102 33 188 0.000000 0.000000 0.000000 0.000000 -60.708740 0.000000 139.000000 0.091493 0.990213 -0.105391
-830.00000000 -21490.00000000 -360.00000000 102 33 188 0.000000 0.000000 0.000000 0.000000 -60.708740 0.000000 139.000000 0.031266 0.999507 -0.003026
-820.00000000 -21490.00000000 -420.00000000 102 33 188 0.000000 0.000000 0.000000 0.000000 -60.708740 0.000000 139.000000 0.068468 0.949512 0.306169
-770.00000000 -21440.00000000 -500.00000000 102 33 188 0.000000 0.000000 0.000000 0.000000 -60.708740 0.000000 139.000000 -0.773050 0.270330 0.573859
-820.00000000 -21460.00000000 -450.00000000 102 33 188 0.000000 0.000000 0.000000 0.000000 -60.708740 0.000000 139.000000 -0.052015 0.822393 0.566537
-820.00000000 -21460.00000000 -450.00000000 102 33 188 0.000000 0.000000 0.000000 0.000000 -60.708740 0.000000 139.000000 -0.052015 0.822393 0.566537
-810.00000000 -21480.00000000 -470.00000000 102 33 188 0.000000 0.000000 0.000000 0.000000 -60.708740 0.000000 139.000000 -0.347600 0.638083 0.687041
-840.00000000 -21480.00000000 -470.00000000 102 33 188 0.000000 0.000000 0.000000 0.000000 -60.708740 0.000000 139.000000 -0.524749 0.639485 0.561870
-800.00000000 -21440.00000000 -600.00000000 102 33 188 0.000000 0.000000 0.000000 0.000000 -60.708740 0.000000 139.000000 0.890578 -0.379127 -0.251265
-800.00000000 -21440.00000000 -610.00000000 102 33 188 0.000000 0.000000 0.000000 0.000000 -60.708740 0.000000 139.000000 0.829029 -0.473062 -0.298201
-800.00000000 -21440.00000000 -660.00000000 102 33 188 0.000000 0.000000 0.000000 0.000000 -60.708740 0.000000 139.000000 0.824078 -0.557592 -0.099932
-830.00000000 -21450.00000000 -630.00000000 102 33 188 0.000000 0.000000 0.000000 0.000000 -60.708740 0.000000 139.000000 0.705512 -0.667801 -0.237266
-810.00000000 -21440.00000000 -620.00000000 102 33 188 0.000000 0.000000 0.000000 0.000000 -60.708740 0.000000 139.000000 0.831478 -0.341079 -0.438530
-810.00000000 -21450.00000000 -620.00000000 102 33 188 0.000000 0.000000 0.000000 0.000000 -60.708740 0.000000 139.000000 -0.614131 0.482892 0.624226
-810.00000000 -21460.00000000 -660.00000000 102 33 188 0.000000 0.000000 0.000000 0.000000 -60.708740 0.000000 139.000000 0.750069 -0.503875 -0.428376
-850.00000000 -21260.00000000 -430.00000000 102 33 188 0.000000 0.000000 0.000000 0.000000 -60.708740 0.000000 139.000000 0.376553 0.910832 -0.169094
-850.00000000 -21260.00000000 -430.00000000 102 33 188 0.000000 0.000000 0.000000 0.000000 -60.708740 0.000000 139.000000 0.376553 0.910832 -0.169094
-900.00000000 -21290.00000000 -370.00000000 102 33 188 0.000000 0.000000 0.000000 0.000000 -60.708740 0.000000 139.000000 -0.420406 0.656364 0.626454
-930.00000000 -21260.00000000 -400.00000000 102 33 188 0.000000 0.000000 0.000000 0.000000 -60.708740 0.000000 139.000000 -0.188495 0.758579 0.623721
-900.00000000 -21400.00000000 -520.00000000 102 33 188 0.000000 0.000000 0.000000 0.000000 -60.708740 0.000000 139.000000 -0.245670 0.966302 -0.076851
-990.00000000 -21330.00000000 -390.00000000 102 33 188 0.000000 0.000000 0.000000 0.000000 -60.708740 0.000000 139.000000 0.879424 0.050762 -0.473325
-1000.00000000 -21320.00000000 -390.00000000 102 33 188 0.000000 0.000000 0.000000 0.000000 -60.708740 0.000000 139.000000 0.918734 0.111570 -0.378788
-980.00000000 -21330.00000000 -390.00000000 102 33 188 0.000000 0.000000 0.000000 0.000000 -60.708740 0.000000 139.000000 0.871734 -0.006675 -0.489933
-1010.00000000 -21340.00000000 -470.00000000 102 33 188 0.000000 0.000000 0.000000 0.000000 -60.708740 0.000000 139.000000 0.884364 0.428295 -0.185643
-960.00000000 -21380.00000000 -390.00000000 102 33 188 0.000000 0.000000 0.000000 0.000000 -60.708740 0.000000 139.000000 0.861237 0.009435 -0.508116
-960.00000000 -21410.00000000 -360.00000000 102 33 188 0.000000 0.000000 0.000000 0.000000 -60.708740 0.000000 139.000000 0.669500 0.633132 -0.388475
-1000.00000000 -21390.00000000 -380.00000000 102 33 188 0.000000 0.000000 0.000000 0.000000 -60.708740 0.000000 139.000000 0.828209 0.413313 -0.378474
-990.00000000 -21420.00000000 -410.00000000 102 33 188 0.000000 0.000000 0.000000 0.000000 -60.708740 0.000000 139.000000 0.774406 0.471165 -0.422255
-990.00000000 -21390.00000000 -430.00000000 102 33 188 0.000000 0.000000 0.000000 0.000000 -60.708740 0.000000 139.000000 0.753796 0.403878 -0.518337
-970.00000000 -21410.00000000 -490.00000000 102 33 188 0.000000 0.000000 0.000000 0.000000 -60.708740 0.000000 139.000000 0.698051 0.666250 -0.262366
-1000.00000000 -21350.00000000 -470.00000000 102 33 188 0.000000 0.000000 0.000000 0.000000 -60.708740 0.000000 139.000000 0.878740 0.317196 -0.356656
-990.00000000 -21400.00000000 -480.00000000 102 33 188 0.000000 0.000000 0.000000 0.000000 -60.708740 0.000000 139.000000 0.559526 0.683123 -0.469334
-990.00000000 -21400.00000000 -480.00000000 102 33 188 0.000000 0.000000 0.000000 0.000000 -60.708740 0.000000 139.000000 0.559526 0.683123 -0.469334
-990.00000000 -21400.00000000 -480.00000000 102 33 188 0.000000 0.000000 0.000000 0.000000 -60.708740 0.000000 139.000000 0.559526 0.683123 -0.469334
-980.00000000 -21420.00000000 -510.00000000 102 33 188 0.000000 0.000000 0.000000 0.000000 -60.708740 0.000000 139.000000 0.305695 0.919957 -0.245417
-930.00000000 -21370.00000000 -570.00000000 102 33 188 0.000000 0.000000 0.000000 0.000000 -60.708740 0.000000 139.000000 0.302981 0.840578 0.449033
-1010.00000000 -21340.00000000 -560.00000000 102 33 188 0.000000 0.000000 0.000000 0.000000 -60.708740 0.000000 139.000000 0.777079 0.224903 -0.587850
-990.00000000 -21380.00000000 -590.00000000 102 33 188 0.000000 0.000000 0.000000 0.000000 -60.708740 0.000000 139.000000 0.614847 0.760427 -0.209079
-990.00000000 -21420.00000000 -570.00000000 102 33 188 0.000000 0.000000 0.000000 0.000000 -60.708740 0.000000 139.000000 0.400093 0.911551 -0.094867
-1000.00000000 -21420.00000000 -570.00000000 102 33 188 0.000000 0.000000 0.000000 0.000000 -60.708740 0.000000 139.000000 0.510989 0.759136 -0.403240
-970.00000000 -21410.00000000 -640.00000000 102 33 188 0.000000 0.000000 0.000000 0.000000 -60.708740 0.000000 139.000000 -0.297813 0.946857 0.121529
-1010.00000000 -21360.00000000 -640.00000000 102 33 188 0.000000 0.000000 0.000000 0.000000 -60.708740 0.000000 139.000000 0.596449 0.802216 -0.026416
-1000.00000000 -21360.00000000 -630.00000000 102 33 188 0.000000 0.000000 0.000000 0.000000 -60.708740 0.000000 139.000000 0.419080 0.907789 -0.017079
-1010.00000000 -21360.00000000 -690.00000000 102 33 188 0.000000 0.000000 0.000000 0.000000 -60.708740 0.000000 139.000000 0.261791 0.962429 0.072087
-1010.00000000 -21420.00000000 -640.00000000 102 33 188 0.000000 0.000000 0.000000 0.000000 -60.708740 0.000000 139.000000 0.153711 0.960364 0.232537
-890.00000000 -21470.00000000 -360.00000000 102 33 188 0.000000 0.000000 0.000000 0.000000 -60.708740 0.000000 139.000000 0.307909 0.920864 -0.239167
-870.00000000 -21500.00000000 -380.00000000 102 33 188 0.000000 0.000000 0.000000 0.000000 -60.708740 0.000000 139.000000 0.366000 0.822312 0.435714
-880.00000000 -21480.00000000 -400.00000000 102 33 188 0.000000 0.000000 0.000000 0.000000 -60.708740 0.000000 139.000000 -0.066099 0.989171 -0.131039
-890.00000000 -21480.00000000 -400.00000000 102 33 188 0.000000 0.000000 0.000000 0.000000 -60.708740 0.000000 139.000000 -0.061448 0.979553 -0.191573
-880.00000000 -21510.00000000 -410.00000000 102 33 188 0.000000 0.000000 0.000000 0.000000 -60.708740 0.000000 139.000000 0.453182 0.878855 0.149130
-850.00000000 -21480.00000000 -420.00000000 102 33 188 0.000000 0.000000 0.000000 0.000000 -60.708740 0.000000 139.000000 0.081982 0.995813 -0.040445
-870.00000000 -21490.00000000 -420.00000000 102 33 188 0.000000 0.000000 0.000000 0.000000 -60.708740 0.000000 139.000000 0.255125 0.963382 -0.082503
-880.00000000 -21480.00000000 -410.00000000 102 33 188 0.000000 0.000000 0.000000 0.000000 -60.708740 0.000000 139.000000 -0.165882 0.973768 -0.155752
-930.00000000 -21460.00000000 -390.00000000 102 33 188 0.000000 0.000000 0.000000 0.000000 -60.708740 0.000000 139.000000 0.330675 0.873164 -0.358104
-930.00000000 -21470.00000000 -390.00000000 102 33 188 0.000000 0.000000 0.000000 0.000000 -60.708740 0.000000 139.000000 0.633174 0.731071 -0.254217
-910.00000000 -21480.00000000 -440.00000000 102 33 188 0.000000 0.000000 0.000000 0.000000 -60.708740 0.000000 139.000000 -0.140051 0.985147 -0.099353
-890.00000000 -21470.00000000 -450.00000000 102 33 188 0.000000 0.000000 0.000000 0.000000 -60.708740 0.000000 139.000000 0.170938 0.964299 -0.202255
-890.00000000 -21480.00000000 -450.00000000 102 33 188 0.000000 0.000000 0.000000 0.000000 -60.708740 0.000000 139.000000 0.012396 0.988283 -0.152130
-920.00000000 -21460.00000000 -500.00000000 102 33 188 0.000000 0.000000 0.000000 0.000000 -60.708740 0.000000 139.000000 0.037342 0.997578 -0.058681
-920.00000000 -21460.00000000 -510.00000000 102 33 188 0.000000 0.000000 0.000000 0.000000 -60.708740 0.000000 139.000000 0.237687 0.959940 -0.148390
-950.00000000 -21440.00000000 -360.00000000 102 33 188 0.000000 0.000000 0.000000 0.000000 -60.708740 0.000000 139.000000 0.875317 0.377737 -0.301886
-940.00000000 -21460.00000000 -360.00000000 102 33 188 0.000000 0.000000 0.000000 0.000000 -60.708740 0.000000 139.000000 0.814845 0.523053 -0.249886
-940.00000000 -21460.00000000 -360.00000000 102 33 188 0.000000 0.000000 0.000000 0.000000 -60.708740 0.000000 139.000000 0.814845 0.523053 -0.249886
-950.00000000 -21430.00000000 -400.00000000 102 33 188 0.000000 0.000000 0.000000 0.000000 -60.708740 0.000000 139.000000 0.518730 0.782111 -0.345285
-970.00000000 -21430.00000000 -440.00000000 102 33 188 0.000000 0.000000 0.000000 0.000000 -60.708740 0.000000 139.000000 0.442069 0.893777 0.075744
-940.00000000 -21450.00000000 -410.00000000 102 33 188 0.000000 0.000000 0.000000 0.000000 -60.708740 0.000000 139.000000 0.659545 0.718795 -0.219848
-950.00000000 -21460.00000000 -410.00000000 102 33 188 0.000000 0.000000 0.000000 0.000000 -60.708740 0.000000 139.000000 0.477950 0.768309 -0.425751
-950.00000000 -21470.00000000 -360.00000000 102 33 188 0.000000 0.000000 0.000000 0.000000 -60.708740 0.000000 139.000000 0.374085 0.855274 -0.358563
-940.00000000 -21470.00000000 -420.00000000 102 33 188 0.000000 0.000000 0.000000 0.000000 -60.708740 0.000000 139.000000 0.687287 0.711455 -0.146520
-970.00000000 -21430.00000000 -460.00000000 102 33 188 0.000000 0.000000 0.000000 0.000000 -60.708740 0.000000 139.000000 0.436669 0.886308 -0.154203
-970.00000000 -21430.00000000 -460.00000000 102 33 188 0.000000 0.000000 0.000000 0.000000 -60.708740 0.000000 139.000000 0.436669 0.886308 -0.154203
-970.00000000 -21440.00000000 -470.00000000 102 33 188 0.000000 0.000000 0.000000 0.000000 -60.708740 0.000000 139.000000 0.510876 0.813964 -0.276529
-960.00000000 -21440.00000000 -460.00000000 102 33 188 0.000000 0.000000 0.000000 0.000000 -60.708740 0.000000 139.000000 0.742667 0.619677 -0.253863
-950.00000000 -21440.00000000 -500.00000000 102 33 188 0.000000 0.000000 0.000000 0.000000 -60.708740 0.000000 139.000000 0.387370 0.878743 -0.278846
-940.00000000 -21460.00000000 -520.00000000 102 33 188 0.000000 0.000000 0.000000 0.000000 -60.708740 0.000000 139.000000 0.384159 0.905004 -0.182727
-940.00000000 -21470.00000000 -520.00000000 102 33 188 0.000000 0.000000 0.000000 0.000000 -60.708740 0.000000 139.000000 -0.058922 0.997388 -0.041781
-990.00000000 -21430.00000000 -520.00000000 102 33 188 0.000000 0.000000 0.000000 0.000000 -60.708740 0.000000 139.000000 0.508319 0.790540 -0.341552
-850.00000000 -21460.00000000 -540.00000000 102 33 188 0.000000 0.000000 0.000000 0.000000 -60.708740 0.000000 139.000000 0.626945 -0.737490 -0.251094
-850.00000000 -21460.00000000 -540.00000000 102 33 188 0.000000 0.000000 0.000000 0.000000 -60.708740 0.000000 139.000000 0.626945 -0.737490 -0.251094
-890.00000000 -21460.00000000 -580.00000000 102 33 188 0.000000 0.000000 0.000000 0.000000 -60.708740 0.000000 139.000000 -0.395265 0.873822 0.283197
-900.00000000 -21460.00000000 -590.00000000 102 33 188 0.000000 0.000000 0.000000 0.000000 -60.708740 0.000000 139.000000 -0.192297 0.739959 0.644580
-910.00000000 -21440.00000000 -570.00000000 102 33 188 0.000000 0.000000 0.000000 0.000000 -60.708740 0.000000 139.000000 -0.343369 0.852983 0.393087
-930.00000000 -21450.00000000 -590.00000000 102 33 188 0.000000 0.000000 0.000000 0.000000 -60.708740 0.000000 139.000000 -0.131886 0.983703 -0.122207
-910.00000000 -21440.00000000 -570.00000000 102 33 188 0.000000 0.000000 0.000000 0.000000 -60.708740 0.000000 139.000000 -0.343369 0.852983 0.393087
-870.00000000 -21430.00000000 -650.00000000 102 33 188 0.000000 0.000000 0.000000 0.000000 -60.708740 0.000000 139.000000 -0.526882 0.755252 0.389860
-860.00000000 -21460.00000000 -660.00000000 102 33 188 0.000000 0.000000 0.000000 0.000000 -60.708740 0.000000 139.000000 0.789163 -0.556964 -0.258870
-930.00000000 -21430.00000000 -610.00000000 102 33 188 0.000000 0.000000 0.000000 0.000000 -60.708740 0.000000 139.000000 -0.284566 0.892434 0.350120
-910.00000000 -21470.00000000 -670.00000000 102 33 188 0.000000 0.000000 0.000000 0.000000 -60.708740 0.000000 139.000000 -0.428986 0.850229 0.305091
-950.00000000 -21440.00000000 -530.00000000 102 33 188 0.000000 0.000000 0.000000 0.000000 -60.708740 0.000000 139.000000 0.252744 0.956722 -0.144236
-950.00000000 -21440.00000000 -560.00000000 102 33 188 0.000000 0.000000 0.000000 0.000000 -60.708740 0.000000 139.000000 -0.032315 0.992866 0.114776
-950.00000000 -21450.00000000 -550.00000000 102 33 188 0.000000 0.000000 0.000000 0.000000 -60.708740 0.000000 139.000000 -0.084756 0.993346 0.077976
-940.00000000 -21470.00000000 -570.00000000 102 33 188 0.000000 0.000000 0.000000 0.000000 -60.708740 0.000000 139.000000 -0.234657 0.950837 0.202104
-980.00000000 -21450.00000000 -530.00000000 102 33 188 0.000000 0.000000 0.000000 0.000000 -60.708740 0.000000 139.000000 0.184652 0.945144 -0.269455
-960.00000000 -21430.00000000 -650.00000000 102 33 188 0.000000 0.000000 0.000000 0.000000 -60.708740 0.000000 139.000000 0.182110 0.978996 -0.091666
-940.00000000 -21440.00000000 -630.00000000 102 33 188 0.000000 0.000000 0.000000 0.000000 -60.708740 0.000000 139.000000 -0.138997 0.989060 -0.049396
-960.00000000 -21440.00000000 -610.00000000 102 33 188 0.000000 0.000000 0.000000 0.000000 -60.708740 0.000000 139.000000 0.112357 0.987561 0.109992
-960.00000000 -21440.00000000 -650.00000000 102 33 188 0.000000 0.000000 0.000000 0.000000 -60.708740 0.000000 139.000000 0.163868 0.979514 -0.117049
-950.00000000 -21430.00000000 -610.00000000 102 33 188 0.000000 0.000000 0.000000 0.000000 -60.708740 0.000000 139.000000 -0.264338 0.964411 -0.006035
-960.00000000 -21440.00000000 -610.00000000 102 33 188 0.000000 0.000000 0.000000 0.000000 -60.708740 0.000000 139.000000 0.112357 0.987561 0.109992
-940.00000000 -21430.00000000 -630.00000000 102 33 188 0.000000 0.000000 0.000000 0.000000 -60.708740 0.000000 139.000000 0.076911 0.985648 -0.150273
-760.00000000 -21290.00000000 -750.00000000 102 33 188 0.000000 0.000000 0.000000 0.000000 -60.708740 0.000000 139.000000 0.901631 0.047171 -0.429926
-760.00000000 -21290.00000000 -750.00000000 102 33 188 0.000000 0.000000 0.000000 0.000000 -60.708740 0.000000 139.000000 0.901631 0.047171 -0.429926
-730.00000000 -21320.00000000 -720.00000000 102 33 188 0.000000 0.000000 0.000000 0.000000 -60.708740 0.000000 139.000000 0.816375 0.153723 -0.556687
-760.00000000 -21330.00000000 -740.00000000 102 33 188 0.000000 0.000000 0.000000 0.000000 -60.708740 0.000000 139.000000 0.984777 0.057789 -0.163933
-760.00000000 -21300.00000000 -760.00000000 102 33 188 0.000000 0.000000 0.000000 0.000000 -60.708740 0.000000 139.000000 0.873310 0.349019 -0.339875
-740.00000000 -21310.00000000 -750.00000000 102 33 188 0.000000 0.000000 0.000000 0.000000 -60.708740 0.000000 139.000000 0.979090 0.134919 -0.152248
-750.00000000 -21370.00000000 -740.00000000 102 33 188 0.000000 0.000000 0.000000 0.000000 -60.708740 0.000000 139.000000 0.910107 -0.027739 -0.413445
-780.00000000 -21290.00000000 -700.00000000 102 33 188 0.000000 0.000000 0.000000 0.000000 -60.708740 0.000000 139.000000 0.892791 0.275737 -0.356222
-770.00000000 -21330.00000000 -710.00000000 102 33 188 0.000000 0.000000 0.000000 0.000000 -60.708740 0.000000 139.000000 0.949071 0.171943 -0.264007
-770.00000000 -21340.00000000 -720.00000000 102 33 188 0.000000 0.000000 0.000000 0.000000 -60.708740 0.000000 139.000000 0.991058 0.003307 -0.133390
-780.00000000 -21320.00000000 -750.00000000 102 33 188 0.000000 0.000000 0.000000 0.000000 -60.708740 0.000000 139.000000 0.998497 -0.054726 -0.003098
-800.00000000 -21370.00000000 -730.00000000 102 33 188 0.000000 0.000000 0.000000 0.000000 -60.708740 0.000000 139.000000 0.922783 -0.373734 -0.093773
-770.00000000 -21350.00000000 -700.00000000 102 33 188 0.000000 0.000000 0.000000 0.000000 -60.708740 0.000000 139.000000 0.996504 0.003170 -0.083482
-800.00000000 -21380.00000000 -760.00000000 102 33 188 0.000000 0.000000 0.000000 0.000000 -60.708740 0.000000 139.000000 0.922487 -0.385767 -0.014192
-770.00000000 -21360.00000000 -760.00000000 102 33 188 0.000000 0.000000 0.000000 0.000000 -60.708740 0.000000 139.000000 0.878847 -0.176939 -0.443080
-800.00000000 -21380.00000000 -760.00000000 102 33 188 0.000000 0.000000 0.000000 0.000000 -60.708740 0.000000 139.000000 0.922487 -0.385767 -0.014192
-770.00000000 -21360.00000000 -760.00000000 102 33 188 0.000000 0.000000 0.000000 0.000000 -60.708740 0.000000 139.000000 0.878847 -0.176939 -0.443080
-770.00000000 -21410.00000000 -710.00000000 102 33 188 0.000000 0.000000 0.000000 0.000000 -60.708740 0.000000 139.000000 0.852941 -0.202367 -0.481185
-770.00000000 -21390.00000000 -700.00000000 102 33 188 0.000000 0.000000 0.000000 0.000000 -60.708740 0.000000 139.000000 0.960841 -0.256654 -0.104467
-770.00000000 -21390.00000000 -700.00000000 102 33 188 0.000000 0.000000 0.000000 0.000000 -60.708740 0.000000 139.000000 0.960841 -0.256654 -0.104467
