//X Y Z R G B PointSourceId ScanDirectionFlag NumberOfReturns ReturnNumber GpsTime Intensity Classification Nx Ny Nz
-9890.00000000 15380.00000000 -80.00000000 117 119 137 0.000000 0.000000 0.000000 0.000000 -60.708740 0.000000 55.000000 0.790677 0.597829 -0.132027
-9890.00000000 15410.00000000 -90.00000000 117 119 137 0.000000 0.000000 0.000000 0.000000 -60.708740 0.000000 55.000000 0.931450 -0.360265 0.051092
-9880.00000000 15380.00000000 -90.00000000 117 119 137 0.000000 0.000000 0.000000 0.000000 -60.708740 0.000000 55.000000 0.690759 0.717158 -0.092395
-9890.00000000 15380.00000000 -100.00000000 117 119 137 0.000000 0.000000 0.000000 0.000000 -60.708740 0.000000 55.000000 0.838010 0.541244 -0.069245
-9890.00000000 15400.00000000 -70.00000000 117 119 137 0.000000 0.000000 0.000000 0.000000 -60.708740 0.000000 55.000000 0.983522 0.001137 -0.180786
-9880.00000000 15390.00000000 -80.00000000 117 119 137 0.000000 0.000000 0.000000 0.000000 -60.708740 0.000000 55.000000 0.875205 0.482918 0.028407
-9890.00000000 15400.00000000 -100.00000000 117 119 137 0.000000 0.000000 0.000000 0.000000 -60.708740 0.000000 55.000000 0.992232 -0.007692 -0.124166
-9890.00000000 15390.00000000 -70.00000000 117 119 137 0.000000 0.000000 0.000000 0.000000 -60.708740 0.000000 55.000000 0.933672 0.106744 -0.341851
-9890.00000000 15380.00000000 -70.00000000 117 119 137 0.000000 0.000000 0.000000 0.000000 -60.708740 0.000000 55.000000 0.867785 0.390274 -0.307628
-9900.00000000 15410.00000000 -90.00000000 117 119 137 0.000000 0.000000 0.000000 0.000000 -60.708740 0.000000 55.000000 0.971662 -0.196873 0.130825
-9900.00000000 15390.00000000 -90.00000000 117 119 137 0.000000 0.000000 0.000000 0.000000 -60.708740 0.000000 55.000000 0.977523 0.208364 -0.032148
-9890.00000000 15390.00000000 -80.00000000 117 119 137 0.000000 0.000000 0.000000 0.000000 -60.708740 0.000000 55.000000 0.982901 0.122711 -0.137290
-9910.00000000 15420.00000000 -70.00000000 117 119 137 0.000000 0.000000 0.000000 0.000000 -60.708740 0.000000 55.000000 0.967017 -0.187707 0.172173
-9870.00000000 15460.00000000 -110.00000000 117 119 137 0.000000 0.000000 0.000000 0.000000 -60.708740 0.000000 55.000000 -0.568884 0.787087 -0.238464
-9870.00000000 15460.00000000 -130.00000000 117 119 137 0.000000 0.000000 0.000000 0.000000 -60.708740 0.000000 55.000000 0.688576 -0.688576 0.227434
-9890.00000000 15450.00000000 -130.00000000 117 119 137 0.000000 0.000000 0.000000 0.000000 -60.708740 0.000000 55.000000 -0.419077 0.864061 -0.278877
-9890.00000000 15450.00000000 -120.00000000 117 119 137 0.000000 0.000000 0.000000 0.000000 -60.708740 0.000000 55.000000 -0.524724 0.838080 -0.149288
-9890.00000000 15430.00000000 -150.00000000 117 119 137 0.000000 0.000000 0.000000 0.000000 -60.708740 0.000000 55.000000 0.751476 -0.628030 -0.202142
-9880.00000000 15430.00000000 -180.00000000 117 119 137 0.000000 0.000000 0.000000 0.000000 -60.708740 0.000000 55.000000 0.748456 -0.658350 0.079932
-9890.00000000 15440.00000000 -150.00000000 117 119 137 0.000000 0.000000 0.000000 0.000000 -60.708740 0.000000 55.000000 -0.432146 0.713620 -0.551358
-9900.00000000 15450.00000000 -170.00000000 117 119 137 0.000000 0.000000 0.000000 0.000000 -60.708740 0.000000 55.000000 -0.362715 0.859712 -0.359628
-9880.00000000 15430.00000000 -180.00000000 117 119 137 0.000000 0.000000 0.000000 0.000000 -60.708740 0.000000 55.000000 0.748456 -0.658350 0.079932
-9880.00000000 15430.00000000 -150.00000000 117 119 137 0.000000 0.000000 0.000000 0.000000 -60.708740 0.000000 55.000000 0.740466 -0.663917 -0.104519
-9900.00000000 15380.00000000 -110.00000000 117 119 137 0.000000 0.000000 0.000000 0.000000 -60.708740 0.000000 55.000000 0.997524 0.070130 -0.005234
-9890.00000000 15390.00000000 -110.00000000 117 119 137 0.000000 0.000000 0.000000 0.000000 -60.708740 0.000000 55.000000 0.921961 0.184957 0.340264
-9890.00000000 15390.00000000 -140.00000000 117 119 137 0.000000 0.000000 0.000000 0.000000 -60.708740 0.000000 55.000000 0.879231 -0.450479 -0.154988
-9890.00000000 15410.00000000 -110.00000000 117 119 137 0.000000 0.000000 0.000000 0.000000 -60.708740 0.000000 55.000000 0.806190 -0.524415 0.273948
-9900.00000000 15380.00000000 -120.00000000 117 119 137 0.000000 0.000000 0.000000 0.000000 -60.708740 0.000000 55.000000 0.969960 -0.110309 0.216815
-9890.00000000 15380.00000000 -140.00000000 117 119 137 0.000000 0.000000 0.000000 0.000000 -60.708740 0.000000 55.000000 0.971999 -0.233038 0.030186
-9880.00000000 15390.00000000 -140.00000000 117 119 137 0.000000 0.000000 0.000000 0.000000 -60.708740 0.000000 55.000000 0.908830 -0.364396 -0.203083
-9900.00000000 15390.00000000 -110.00000000 117 119 137 0.000000 0.000000 0.000000 0.000000 -60.708740 0.000000 55.000000 0.992445 -0.021069 -0.120868
-9900.00000000 15400.00000000 -110.00000000 117 119 137 0.000000 0.000000 0.000000 0.000000 -60.708740 0.000000 55.000000 0.979580 -0.027112 -0.199217
-9890.00000000 15400.00000000 -160.00000000 117 119 137 0.000000 0.000000 0.000000 0.000000 -60.708740 0.000000 55.000000 0.980004 -0.161080 -0.116814
-9890.00000000 15380.00000000 -170.00000000 117 119 137 0.000000 0.000000 0.000000 0.000000 -60.708740 0.000000 55.000000 0.993394 0.106156 0.043580
-9890.00000000 15390.00000000 -150.00000000 117 119 137 0.000000 0.000000 0.000000 0.000000 -60.708740 0.000000 55.000000 0.908597 -0.352136 -0.224613
-9880.00000000 15400.00000000 -160.00000000 117 119 137 0.000000 0.000000 0.000000 0.000000 -60.708740 0.000000 55.000000 0.983306 -0.139090 -0.117319
-9880.00000000 15400.00000000 -170.00000000 117 119 137 0.000000 0.000000 0.000000 0.000000 -60.708740 0.000000 55.000000 0.926147 -0.325632 -0.190304
-9890.00000000 15390.00000000 -180.00000000 117 119 137 0.000000 0.000000 0.000000 0.000000 -60.708740 0.000000 55.000000 0.991276 0.051097 -0.121497
-9910.00000000 15440.00000000 -140.00000000 117 119 137 0.000000 0.000000 0.000000 0.000000 -60.708740 0.000000 55.000000 0.624964 -0.635017 0.454062
-9910.00000000 15420.00000000 -130.00000000 117 119 137 0.000000 0.000000 0.000000 0.000000 -60.708740 0.000000 55.000000 0.884251 -0.455523 0.102951
-9910.00000000 15400.00000000 -170.00000000 117 119 137 0.000000 0.000000 0.000000 0.000000 -60.708740 0.000000 55.000000 0.965657 -0.050955 0.254774
-9880.00000000 15350.00000000 -50.00000000 117 119 137 0.000000 0.000000 0.000000 0.000000 -60.708740 0.000000 55.000000 0.484846 0.859166 -0.163580
-9870.00000000 15360.00000000 -20.00000000 117 119 137 0.000000 0.000000 0.000000 0.000000 -60.708740 0.000000 55.000000 0.717947 0.691840 -0.076871
-9880.00000000 15360.00000000 -40.00000000 117 119 137 0.000000 0.000000 0.000000 0.000000 -60.708740 0.000000 55.000000 0.575408 0.786340 -0.224890
-9900.00000000 15370.00000000 -40.00000000 117 119 137 0.000000 0.000000 0.000000 0.000000 -60.708740 0.000000 55.000000 0.770367 0.603634 -0.205328
-9900.00000000 15370.00000000 -40.00000000 117 119 137 0.000000 0.000000 0.000000 0.000000 -60.708740 0.000000 55.000000 0.770367 0.603634 -0.205328
-9890.00000000 15370.00000000 -30.00000000 117 119 137 0.000000 0.000000 0.000000 0.000000 -60.708740 0.000000 55.000000 0.615861 0.681905 -0.394614
-9870.00000000 15340.00000000 -50.00000000 117 119 137 0.000000 0.000000 0.000000 0.000000 -60.708740 0.000000 55.000000 0.457631 0.866070 -0.201238
-9870.00000000 15360.00000000 -40.00000000 117 119 137 0.000000 0.000000 0.000000 0.000000 -60.708740 0.000000 55.000000 0.171152 0.840875 -0.513455
-9890.00000000 15370.00000000 -90.00000000 117 119 137 0.000000 0.000000 0.000000 0.000000 -60.708740 0.000000 55.000000 0.812109 0.583230 0.017924
-9870.00000000 15370.00000000 -90.00000000 117 119 137 0.000000 0.000000 0.000000 0.000000 -60.708740 0.000000 55.000000 0.748699 0.662897 0.004152
-9870.00000000 15350.00000000 -70.00000000 117 119 137 0.000000 0.000000 0.000000 0.000000 -60.708740 0.000000 55.000000 0.749132 0.631743 -0.199254
-9880.00000000 15370.00000000 -70.00000000 117 119 137 0.000000 0.000000 0.000000 0.000000 -60.708740 0.000000 55.000000 0.617727 0.604262 -0.503271
-9880.00000000 15370.00000000 -90.00000000 117 119 137 0.000000 0.000000 0.000000 0.000000 -60.708740 0.000000 55.000000 0.698909 0.676921 -0.230876
-9890.00000000 15370.00000000 -90.00000000 117 119 137 0.000000 0.000000 0.000000 0.000000 -60.708740 0.000000 55.000000 0.812109 0.583230 0.017924
-9870.00000000 15370.00000000 -100.00000000 117 119 137 0.000000 0.000000 0.000000 0.000000 -60.708740 0.000000 55.000000 0.790828 0.563989 -0.237714
-9880.00000000 15350.00000000 -120.00000000 117 119 137 0.000000 0.000000 0.000000 0.000000 -60.708740 0.000000 55.000000 0.882937 0.385255 -0.268329
-9900.00000000 15370.00000000 -130.00000000 117 119 137 0.000000 0.000000 0.000000 0.000000 -60.708740 0.000000 55.000000 0.905228 0.163939 0.392028
-9870.00000000 15340.00000000 -120.00000000 117 119 137 0.000000 0.000000 0.000000 0.000000 -60.708740 0.000000 55.000000 0.395231 0.808064 -0.436835
-9870.00000000 15350.00000000 -140.00000000 117 119 137 0.000000 0.000000 0.000000 0.000000 -60.708740 0.000000 55.000000 0.556968 0.795890 -0.237371
-9870.00000000 15370.00000000 -130.00000000 117 119 137 0.000000 0.000000 0.000000 0.000000 -60.708740 0.000000 55.000000 0.923789 0.276421 -0.264963
-9890.00000000 15360.00000000 -140.00000000 117 119 137 0.000000 0.000000 0.000000 0.000000 -60.708740 0.000000 55.000000 0.971749 0.189269 0.140999
-9870.00000000 15340.00000000 -120.00000000 117 119 137 0.000000 0.000000 0.000000 0.000000 -60.708740 0.000000 55.000000 0.395231 0.808064 -0.436835
-9890.00000000 15370.00000000 -140.00000000 117 119 137 0.000000 0.000000 0.000000 0.000000 -60.708740 0.000000 55.000000 0.939797 0.248484 0.234602
-9880.00000000 15350.00000000 -120.00000000 117 119 137 0.000000 0.000000 0.000000 0.000000 -60.708740 0.000000 55.000000 0.882937 0.385255 -0.268329
-9900.00000000 15360.00000000 -110.00000000 117 119 137 0.000000 0.000000 0.000000 0.000000 -60.708740 0.000000 55.000000 0.658880 0.687877 -0.304470
-9890.00000000 15370.00000000 -140.00000000 117 119 137 0.000000 0.000000 0.000000 0.000000 -60.708740 0.000000 55.000000 0.939797 0.248484 0.234602
-9890.00000000 15360.00000000 -130.00000000 117 119 137 0.000000 0.000000 0.000000 0.000000 -60.708740 0.000000 55.000000 0.932374 0.350143 -0.089884
-9890.00000000 15370.00000000 -140.00000000 117 119 137 0.000000 0.000000 0.000000 0.000000 -60.708740 0.000000 55.000000 0.939797 0.248484 0.234602
-9870.00000000 15340.00000000 -130.00000000 117 119 137 0.000000 0.000000 0.000000 0.000000 -60.708740 0.000000 55.000000 0.363770 0.922564 -0.128633
-9890.00000000 15350.00000000 -150.00000000 117 119 137 0.000000 0.000000 0.000000 0.000000 -60.708740 0.000000 55.000000 0.916513 0.339927 0.210841
-9870.00000000 15350.00000000 -160.00000000 117 119 137 0.000000 0.000000 0.000000 0.000000 -60.708740 0.000000 55.000000 0.794737 0.606764 -0.015204
-9890.00000000 15370.00000000 -180.00000000 117 119 137 0.000000 0.000000 0.000000 0.000000 -60.708740 0.000000 55.000000 0.969534 0.113091 -0.217287
-9880.00000000 15360.00000000 -170.00000000 117 119 137 0.000000 0.000000 0.000000 0.000000 -60.708740 0.000000 55.000000 0.828927 0.462256 0.314961
-9890.00000000 15370.00000000 -160.00000000 117 119 137 0.000000 0.000000 0.000000 0.000000 -60.708740 0.000000 55.000000 0.986681 0.129420 0.098549
-9890.00000000 15370.00000000 -160.00000000 117 119 137 0.000000 0.000000 0.000000 0.000000 -60.708740 0.000000 55.000000 0.986681 0.129420 0.098549
-9890.00000000 15360.00000000 -170.00000000 117 119 137 0.000000 0.000000 0.000000 0.000000 -60.708740 0.000000 55.000000 0.956627 0.190792 -0.220144
-9880.00000000 15330.00000000 -150.00000000 117 119 137 0.000000 0.000000 0.000000 0.000000 -60.708740 0.000000 55.000000 0.788784 0.610625 0.070402
-9870.00000000 15320.00000000 -180.00000000 117 119 137 0.000000 0.000000 0.000000 0.000000 -60.708740 0.000000 55.000000 0.634711 0.690187 -0.347541
-9870.00000000 15320.00000000 -180.00000000 117 119 137 0.000000 0.000000 0.000000 0.000000 -60.708740 0.000000 55.000000 0.634711 0.690187 -0.347541
-9870.00000000 15310.00000000 -180.00000000 117 119 137 0.000000 0.000000 0.000000 0.000000 -60.708740 0.000000 55.000000 0.684356 0.651845 -0.326735
-9870.00000000 15330.00000000 -150.00000000 117 119 137 0.000000 0.000000 0.000000 0.000000 -60.708740 0.000000 55.000000 0.376069 0.921844 -0.093678
-9790.00000000 15440.00000000 -210.00000000 117 119 137 0.000000 0.000000 0.000000 0.000000 -60.708740 0.000000 55.000000 0.565449 0.774523 -0.283517
-9800.00000000 15460.00000000 -220.00000000 117 119 137 0.000000 0.000000 0.000000 0.000000 -60.708740 0.000000 55.000000 0.273835 0.961494 -0.023331
-9810.00000000 15450.00000000 -210.00000000 117 119 137 0.000000 0.000000 0.000000 0.000000 -60.708740 0.000000 55.000000 0.304927 0.865747 -0.396865
-9800.00000000 15450.00000000 -210.00000000 117 119 137 0.000000 0.000000 0.000000 0.000000 -60.708740 0.000000 55.000000 0.441694 0.804686 -0.396721
-9800.00000000 15450.00000000 -200.00000000 117 119 137 0.000000 0.000000 0.000000 0.000000 -60.708740 0.000000 55.000000 0.315996 0.768336 -0.556602
-9810.00000000 15450.00000000 -200.00000000 117 119 137 0.000000 0.000000 0.000000 0.000000 -60.708740 0.000000 55.000000 0.523641 0.840466 -0.139344
-9780.00000000 15450.00000000 -250.00000000 117 119 137 0.000000 0.000000 0.000000 0.000000 -60.708740 0.000000 55.000000 0.454988 0.688315 -0.564985
-9780.00000000 15440.00000000 -250.00000000 117 119 137 0.000000 0.000000 0.000000 0.000000 -60.708740 0.000000 55.000000 0.651685 0.594725 -0.470754
-9780.00000000 15420.00000000 -260.00000000 117 119 137 0.000000 0.000000 0.000000 0.000000 -60.708740 0.000000 55.000000 0.874240 0.470745 0.118759
-9800.00000000 15460.00000000 -240.00000000 117 119 137 0.000000 0.000000 0.000000 0.000000 -60.708740 0.000000 55.000000 0.093253 0.995061 -0.034010
-9800.00000000 15460.00000000 -240.00000000 117 119 137 0.000000 0.000000 0.000000 0.000000 -60.708740 0.000000 55.000000 0.093253 0.995061 -0.034010
-9790.00000000 15460.00000000 -240.00000000 117 119 137 0.000000 0.000000 0.000000 0.000000 -60.708740 0.000000 55.000000 0.412022 0.911128 -0.009098
-9820.00000000 15450.00000000 -210.00000000 117 119 137 0.000000 0.000000 0.000000 0.000000 -60.708740 0.000000 55.000000 0.069427 0.941846 -0.328795
-9830.00000000 15450.00000000 -220.00000000 117 119 137 0.000000 0.000000 0.000000 0.000000 -60.708740 0.000000 55.000000 -0.104467 0.960841 -0.256654
-9860.00000000 15450.00000000 -200.00000000 117 119 137 0.000000 0.000000 0.000000 0.000000 -60.708740 0.000000 55.000000 -0.607685 0.765404 -0.211839
-9850.00000000 15450.00000000 -210.00000000 117 119 137 0.000000 0.000000 0.000000 0.000000 -60.708740 0.000000 55.000000 -0.501413 0.841712 -0.200264
-9830.00000000 15460.00000000 -190.00000000 117 119 137 0.000000 0.000000 0.000000 0.000000 -60.708740 0.000000 55.000000 0.068078 0.982952 -0.170792
-9830.00000000 15450.00000000 -260.00000000 117 119 137 0.000000 0.000000 0.000000 0.000000 -60.708740 0.000000 55.000000 -0.229139 0.945370 -0.231883
-9840.00000000 15450.00000000 -240.00000000 117 119 137 0.000000 0.000000 0.000000 0.000000 -60.708740 0.000000 55.000000 -0.218926 0.965088 -0.143792
-9840.00000000 15460.00000000 -250.00000000 117 119 137 0.000000 0.000000 0.000000 0.000000 -60.708740 0.000000 55.000000 0.110664 0.858004 -0.501580
-9860.00000000 15440.00000000 -240.00000000 117 119 137 0.000000 0.000000 0.000000 0.000000 -60.708740 0.000000 55.000000 -0.124283 0.881411 -0.455705
-9820.00000000 15440.00000000 -240.00000000 117 119 137 0.000000 0.000000 0.000000 0.000000 -60.708740 0.000000 55.000000 -0.051336 0.998439 0.022001
-9820.00000000 15460.00000000 -240.00000000 117 119 137 0.000000 0.000000 0.000000 0.000000 -60.708740 0.000000 55.000000 -0.135634 0.988852 -0.061441
-9810.00000000 15420.00000000 -310.00000000 117 119 137 0.000000 0.000000 0.000000 0.000000 -60.708740 0.000000 55.000000 0.528414 0.819424 -0.222087
-9780.00000000 15420.00000000 -310.00000000 117 119 137 0.000000 0.000000 0.000000 0.000000 -60.708740 0.000000 55.000000 0.216857 0.925539 -0.310403
-9800.00000000 15430.00000000 -310.00000000 117 119 137 0.000000 0.000000 0.000000 0.000000 -60.708740 0.000000 55.000000 0.563341 0.814701 -0.137509
-9780.00000000 15420.00000000 -290.00000000 117 119 137 0.000000 0.000000 0.000000 0.000000 -60.708740 0.000000 55.000000 0.563484 0.767807 -0.304888
-9790.00000000 15460.00000000 -290.00000000 117 119 137 0.000000 0.000000 0.000000 0.000000 -60.708740 0.000000 55.000000 0.043967 0.912653 -0.406364
-9800.00000000 15420.00000000 -310.00000000 117 119 137 0.000000 0.000000 0.000000 0.000000 -60.708740 0.000000 55.000000 0.474196 0.868635 -0.143564
-9790.00000000 15420.00000000 -330.00000000 117 119 137 0.000000 0.000000 0.000000 0.000000 -60.708740 0.000000 55.000000 0.648732 0.709301 -0.275751
-9790.00000000 15420.00000000 -330.00000000 117 119 137 0.000000 0.000000 0.000000 0.000000 -60.708740 0.000000 55.000000 0.648732 0.709301 -0.275751
-9800.00000000 15420.00000000 -330.00000000 117 119 137 0.000000 0.000000 0.000000 0.000000 -60.708740 0.000000 55.000000 0.325928 0.907628 -0.264542
-9800.00000000 15420.00000000 -350.00000000 117 119 137 0.000000 0.000000 0.000000 0.000000 -60.708740 0.000000 55.000000 0.335524 0.932619 -0.132840
-9810.00000000 15420.00000000 -350.00000000 117 119 137 0.000000 0.000000 0.000000 0.000000 -60.708740 0.000000 55.000000 0.254671 0.964739 0.066490
-9780.00000000 15390.00000000 -290.00000000 117 119 137 0.000000 0.000000 0.000000 0.000000 -60.708740 0.000000 55.000000 0.952948 0.248653 -0.173385
-9790.00000000 15410.00000000 -310.00000000 117 119 137 0.000000 0.000000 0.000000 0.000000 -60.708740 0.000000 55.000000 0.358738 0.925021 -0.125077
-9790.00000000 15410.00000000 -340.00000000 117 119 137 0.000000 0.000000 0.000000 0.000000 -60.708740 0.000000 55.000000 0.381990 0.866765 -0.320626
-9790.00000000 15410.00000000 -350.00000000 117 119 137 0.000000 0.000000 0.000000 0.000000 -60.708740 0.000000 55.000000 0.320763 0.922372 -0.215268
-9790.00000000 15410.00000000 -350.00000000 117 119 137 0.000000 0.000000 0.000000 0.000000 -60.708740 0.000000 55.000000 0.320763 0.922372 -0.215268
-9840.00000000 15440.00000000 -280.00000000 117 119 137 0.000000 0.000000 0.000000 0.000000 -60.708740 0.000000 55.000000 -0.209798 0.937837 -0.276488
-9860.00000000 15420.00000000 -310.00000000 117 119 137 0.000000 0.000000 0.000000 0.000000 -60.708740 0.000000 55.000000 -0.273897 0.812300 -0.514926
-9840.00000000 15430.00000000 -290.00000000 117 119 137 0.000000 0.000000 0.000000 0.000000 -60.708740 0.000000 55.000000 -0.187238 0.924927 -0.330834
-9830.00000000 15450.00000000 -280.00000000 117 119 137 0.000000 0.000000 0.000000 0.000000 -60.708740 0.000000 55.000000 -0.327581 0.919801 -0.216003
-9840.00000000 15440.00000000 -280.00000000 117 119 137 0.000000 0.000000 0.000000 0.000000 -60.708740 0.000000 55.000000 -0.209798 0.937837 -0.276488
-9850.00000000 15430.00000000 -300.00000000 117 119 137 0.000000 0.000000 0.000000 0.000000 -60.708740 0.000000 55.000000 -0.319552 0.896232 -0.307662
-9850.00000000 15440.00000000 -300.00000000 117 119 137 0.000000 0.000000 0.000000 0.000000 -60.708740 0.000000 55.000000 -0.308724 0.920427 -0.239799
-9820.00000000 15440.00000000 -310.00000000 117 119 137 0.000000 0.000000 0.000000 0.000000 -60.708740 0.000000 55.000000 0.069292 0.841401 -0.535951
-9840.00000000 15440.00000000 -310.00000000 117 119 137 0.000000 0.000000 0.000000 0.000000 -60.708740 0.000000 55.000000 -0.280472 0.871738 -0.401757
-9850.00000000 15430.00000000 -290.00000000 117 119 137 0.000000 0.000000 0.000000 0.000000 -60.708740 0.000000 55.000000 -0.149651 0.918887 -0.365037
-9840.00000000 15440.00000000 -290.00000000 117 119 137 0.000000 0.000000 0.000000 0.000000 -60.708740 0.000000 55.000000 -0.212342 0.946633 -0.242481
-9860.00000000 15440.00000000 -280.00000000 117 119 137 0.000000 0.000000 0.000000 0.000000 -60.708740 0.000000 55.000000 -0.373929 0.911362 -0.172036
-9850.00000000 15420.00000000 -340.00000000 117 119 137 0.000000 0.000000 0.000000 0.000000 -60.708740 0.000000 55.000000 -0.328862 0.887476 -0.322855
-9820.00000000 15430.00000000 -330.00000000 117 119 137 0.000000 0.000000 0.000000 0.000000 -60.708740 0.000000 55.000000 -0.092544 0.932146 -0.350058
-9860.00000000 15440.00000000 -330.00000000 117 119 137 0.000000 0.000000 0.000000 0.000000 -60.708740 0.000000 55.000000 -0.162965 0.940814 -0.297171
-9820.00000000 15430.00000000 -330.00000000 117 119 137 0.000000 0.000000 0.000000 0.000000 -60.708740 0.000000 55.000000 -0.092544 0.932146 -0.350058
-9840.00000000 15430.00000000 -320.00000000 117 119 137 0.000000 0.000000 0.000000 0.000000 -60.708740 0.000000 55.000000 -0.350354 0.834251 -0.425767
-9840.00000000 15420.00000000 -350.00000000 117 119 137 0.000000 0.000000 0.000000 0.000000 -60.708740 0.000000 55.000000 -0.248116 0.956638 0.152584
-9860.00000000 15410.00000000 -340.00000000 117 119 137 0.000000 0.000000 0.000000 0.000000 -60.708740 0.000000 55.000000 -0.573002 0.797947 -0.186948
-9800.00000000 15310.00000000 -200.00000000 117 119 137 0.000000 0.000000 0.000000 0.000000 -60.708740 0.000000 55.000000 -0.417886 0.906987 -0.052404
-9800.00000000 15310.00000000 -220.00000000 117 119 137 0.000000 0.000000 0.000000 0.000000 -60.708740 0.000000 55.000000 -0.588363 0.793010 0.158000
-9780.00000000 15310.00000000 -200.00000000 117 119 137 0.000000 0.000000 0.000000 0.000000 -60.708740 0.000000 55.000000 0.565826 -0.798904 0.203943
-9790.00000000 15310.00000000 -270.00000000 117 119 137 0.000000 0.000000 0.000000 0.000000 -60.708740 0.000000 55.000000 -0.423445 0.860648 -0.282806
-9860.00000000 15300.00000000 -220.00000000 117 119 137 0.000000 0.000000 0.000000 0.000000 -60.708740 0.000000 55.000000 0.614145 0.788411 -0.035134
-9840.00000000 15310.00000000 -190.00000000 117 119 137 0.000000 0.000000 0.000000 0.000000 -60.708740 0.000000 55.000000 0.344493 0.916265 -0.204409
-9790.00000000 15300.00000000 -310.00000000 117 119 137 0.000000 0.000000 0.000000 0.000000 -60.708740 0.000000 55.000000 -0.479869 0.875864 0.050874
-9900.00000000 15420.00000000 -220.00000000 117 119 137 0.000000 0.000000 0.000000 0.000000 -60.708740 0.000000 55.000000 -0.657276 0.745897 -0.107823
-9870.00000000 15440.00000000 -240.00000000 117 119 137 0.000000 0.000000 0.000000 0.000000 -60.708740 0.000000 55.000000 -0.483614 0.677729 -0.553897
-9880.00000000 15420.00000000 -250.00000000 117 119 137 0.000000 0.000000 0.000000 0.000000 -60.708740 0.000000 55.000000 0.786264 -0.615646 0.052607
-9890.00000000 15380.00000000 -200.00000000 117 119 137 0.000000 0.000000 0.000000 0.000000 -60.708740 0.000000 55.000000 0.998814 0.036453 0.032287
-9890.00000000 15390.00000000 -220.00000000 117 119 137 0.000000 0.000000 0.000000 0.000000 -60.708740 0.000000 55.000000 0.976906 -0.005836 0.213589
-9890.00000000 15380.00000000 -200.00000000 117 119 137 0.000000 0.000000 0.000000 0.000000 -60.708740 0.000000 55.000000 0.998814 0.036453 0.032287
-9890.00000000 15400.00000000 -190.00000000 117 119 137 0.000000 0.000000 0.000000 0.000000 -60.708740 0.000000 55.000000 0.955260 -0.261007 -0.139116
-9900.00000000 15380.00000000 -250.00000000 117 119 137 0.000000 0.000000 0.000000 0.000000 -60.708740 0.000000 55.000000 0.976675 -0.163821 0.138810
-9880.00000000 15390.00000000 -250.00000000 117 119 137 0.000000 0.000000 0.000000 0.000000 -60.708740 0.000000 55.000000 0.828262 -0.493861 0.264734
-9900.00000000 15380.00000000 -270.00000000 117 119 137 0.000000 0.000000 0.000000 0.000000 -60.708740 0.000000 55.000000 0.951611 -0.198986 -0.234180
-9900.00000000 15380.00000000 -250.00000000 117 119 137 0.000000 0.000000 0.000000 0.000000 -60.708740 0.000000 55.000000 0.976675 -0.163821 0.138810
-9900.00000000 15390.00000000 -250.00000000 117 119 137 0.000000 0.000000 0.000000 0.000000 -60.708740 0.000000 55.000000 0.916707 -0.291087 0.273709
-9900.00000000 15400.00000000 -270.00000000 117 119 137 0.000000 0.000000 0.000000 0.000000 -60.708740 0.000000 55.000000 0.945619 -0.322863 -0.039560
-9890.00000000 15390.00000000 -250.00000000 117 119 137 0.000000 0.000000 0.000000 0.000000 -60.708740 0.000000 55.000000 0.872397 -0.444373 0.203609
-9900.00000000 15380.00000000 -240.00000000 117 119 137 0.000000 0.000000 0.000000 0.000000 -60.708740 0.000000 55.000000 0.995293 -0.080461 -0.054008
-9870.00000000 15420.00000000 -300.00000000 117 119 137 0.000000 0.000000 0.000000 0.000000 -60.708740 0.000000 55.000000 -0.599624 0.760153 -0.250237
-9870.00000000 15430.00000000 -300.00000000 117 119 137 0.000000 0.000000 0.000000 0.000000 -60.708740 0.000000 55.000000 -0.389840 0.892953 -0.225077
-9880.00000000 15400.00000000 -280.00000000 117 119 137 0.000000 0.000000 0.000000 0.000000 -60.708740 0.000000 55.000000 0.528725 -0.748072 0.401045
-9890.00000000 15400.00000000 -280.00000000 117 119 137 0.000000 0.000000 0.000000 0.000000 -60.708740 0.000000 55.000000 0.865818 -0.473197 0.162616
-9890.00000000 15390.00000000 -290.00000000 117 119 137 0.000000 0.000000 0.000000 0.000000 -60.708740 0.000000 55.000000 0.801358 -0.377393 0.464113
-9900.00000000 15380.00000000 -290.00000000 117 119 137 0.000000 0.000000 0.000000 0.000000 -60.708740 0.000000 55.000000 0.951060 -0.297938 0.081965
-9870.00000000 15380.00000000 -310.00000000 117 119 137 0.000000 0.000000 0.000000 0.000000 -60.708740 0.000000 55.000000 0.841216 -0.526307 -0.123923
-9870.00000000 15390.00000000 -300.00000000 117 119 137 0.000000 0.000000 0.000000 0.000000 -60.708740 0.000000 55.000000 0.853702 -0.508190 0.113731
-9900.00000000 15400.00000000 -310.00000000 117 119 137 0.000000 0.000000 0.000000 0.000000 -60.708740 0.000000 55.000000 0.833059 -0.334165 0.440847
-9870.00000000 15410.00000000 -340.00000000 117 119 137 0.000000 0.000000 0.000000 0.000000 -60.708740 0.000000 55.000000 -0.580485 0.799480 -0.154496
-9880.00000000 15380.00000000 -340.00000000 117 119 137 0.000000 0.000000 0.000000 0.000000 -60.708740 0.000000 55.000000 0.875895 -0.447484 0.180461
-9880.00000000 15380.00000000 -320.00000000 117 119 137 0.000000 0.000000 0.000000 0.000000 -60.708740 0.000000 55.000000 0.863111 -0.346167 0.367707
-9940.00000000 15380.00000000 -340.00000000 117 119 137 0.000000 0.000000 0.000000 0.000000 -60.708740 0.000000 55.000000 0.985409 -0.169741 -0.012531
-9900.00000000 15360.00000000 -220.00000000 117 119 137 0.000000 0.000000 0.000000 0.000000 -60.708740 0.000000 55.000000 0.960846 0.131676 -0.243797
-9900.00000000 15360.00000000 -210.00000000 117 119 137 0.000000 0.000000 0.000000 0.000000 -60.708740 0.000000 55.000000 0.875542 0.482826 -0.017484
-9890.00000000 15350.00000000 -210.00000000 117 119 137 0.000000 0.000000 0.000000 0.000000 -60.708740 0.000000 55.000000 0.852461 0.519315 -0.060190
-9890.00000000 15350.00000000 -190.00000000 117 119 137 0.000000 0.000000 0.000000 0.000000 -60.708740 0.000000 55.000000 0.804341 0.492161 -0.332886
-9890.00000000 15370.00000000 -220.00000000 117 119 137 0.000000 0.000000 0.000000 0.000000 -60.708740 0.000000 55.000000 0.933289 -0.086787 -0.348481
-9880.00000000 15350.00000000 -220.00000000 117 119 137 0.000000 0.000000 0.000000 0.000000 -60.708740 0.000000 55.000000 0.992443 -0.094356 -0.078441
-9880.00000000 15350.00000000 -210.00000000 117 119 137 0.000000 0.000000 0.000000 0.000000 -60.708740 0.000000 55.000000 0.912785 0.387200 -0.129998
-9900.00000000 15360.00000000 -220.00000000 117 119 137 0.000000 0.000000 0.000000 0.000000 -60.708740 0.000000 55.000000 0.960846 0.131676 -0.243797
-9900.00000000 15360.00000000 -250.00000000 117 119 137 0.000000 0.000000 0.000000 0.000000 -60.708740 0.000000 55.000000 0.985808 0.093943 0.139131
-9900.00000000 15340.00000000 -240.00000000 117 119 137 0.000000 0.000000 0.000000 0.000000 -60.708740 0.000000 55.000000 0.916023 0.282187 -0.285082
-9890.00000000 15350.00000000 -250.00000000 117 119 137 0.000000 0.000000 0.000000 0.000000 -60.708740 0.000000 55.000000 0.980948 -0.157587 -0.113609
-9890.00000000 15360.00000000 -270.00000000 117 119 137 0.000000 0.000000 0.000000 0.000000 -60.708740 0.000000 55.000000 0.979473 0.019941 -0.200587
-9890.00000000 15350.00000000 -260.00000000 117 119 137 0.000000 0.000000 0.000000 0.000000 -60.708740 0.000000 55.000000 0.986110 -0.040557 -0.161068
-9870.00000000 15310.00000000 -190.00000000 117 119 137 0.000000 0.000000 0.000000 0.000000 -60.708740 0.000000 55.000000 0.727663 0.685763 0.015363
-9870.00000000 15300.00000000 -210.00000000 117 119 137 0.000000 0.000000 0.000000 0.000000 -60.708740 0.000000 55.000000 0.735716 0.631739 -0.244188
-9870.00000000 15320.00000000 -230.00000000 117 119 137 0.000000 0.000000 0.000000 0.000000 -60.708740 0.000000 55.000000 0.444805 0.860765 -0.247451
-9870.00000000 15310.00000000 -220.00000000 117 119 137 0.000000 0.000000 0.000000 0.000000 -60.708740 0.000000 55.000000 0.775338 0.577179 -0.256349
-9870.00000000 15320.00000000 -200.00000000 117 119 137 0.000000 0.000000 0.000000 0.000000 -60.708740 0.000000 55.000000 0.767961 0.623687 -0.145777
-9880.00000000 15310.00000000 -230.00000000 117 119 137 0.000000 0.000000 0.000000 0.000000 -60.708740 0.000000 55.000000 0.683284 0.596834 -0.420610
-9870.00000000 15320.00000000 -200.00000000 117 119 137 0.000000 0.000000 0.000000 0.000000 -60.708740 0.000000 55.000000 0.767961 0.623687 -0.145777
-9900.00000000 15330.00000000 -270.00000000 117 119 137 0.000000 0.000000 0.000000 0.000000 -60.708740 0.000000 55.000000 0.997142 -0.071453 -0.024529
-9880.00000000 15300.00000000 -250.00000000 117 119 137 0.000000 0.000000 0.000000 0.000000 -60.708740 0.000000 55.000000 0.750479 0.580135 -0.316583
-9880.00000000 15310.00000000 -250.00000000 117 119 137 0.000000 0.000000 0.000000 0.000000 -60.708740 0.000000 55.000000 0.699564 0.713696 0.035331
-9890.00000000 15320.00000000 -240.00000000 117 119 137 0.000000 0.000000 0.000000 0.000000 -60.708740 0.000000 55.000000 0.815462 0.494934 -0.300103
-9890.00000000 15310.00000000 -260.00000000 117 119 137 0.000000 0.000000 0.000000 0.000000 -60.708740 0.000000 55.000000 0.805344 0.584781 0.097222
-9900.00000000 15310.00000000 -270.00000000 117 119 137 0.000000 0.000000 0.000000 0.000000 -60.708740 0.000000 55.000000 0.795618 0.604782 -0.035080
-9880.00000000 15330.00000000 -270.00000000 117 119 137 0.000000 0.000000 0.000000 0.000000 -60.708740 0.000000 55.000000 0.796465 0.603974 0.029292
-9880.00000000 15310.00000000 -240.00000000 117 119 137 0.000000 0.000000 0.000000 0.000000 -60.708740 0.000000 55.000000 0.436861 0.886698 -0.151388
-9910.00000000 15340.00000000 -240.00000000 117 119 137 0.000000 0.000000 0.000000 0.000000 -60.708740 0.000000 55.000000 0.918784 0.219304 -0.328240
-9910.00000000 15320.00000000 -260.00000000 117 119 137 0.000000 0.000000 0.000000 0.000000 -60.708740 0.000000 55.000000 0.955846 0.287137 0.062532
-9900.00000000 15370.00000000 -280.00000000 117 119 137 0.000000 0.000000 0.000000 0.000000 -60.708740 0.000000 55.000000 0.994753 -0.102164 0.005377
-9900.00000000 15370.00000000 -300.00000000 117 119 137 0.000000 0.000000 0.000000 0.000000 -60.708740 0.000000 55.000000 0.998575 0.038769 -0.036674
-9900.00000000 15360.00000000 -300.00000000 117 119 137 0.000000 0.000000 0.000000 0.000000 -60.708740 0.000000 55.000000 0.996039 0.007473 -0.088608
-9880.00000000 15370.00000000 -300.00000000 117 119 137 0.000000 0.000000 0.000000 0.000000 -60.708740 0.000000 55.000000 0.809963 -0.570084 -0.137709
-9890.00000000 15360.00000000 -290.00000000 117 119 137 0.000000 0.000000 0.000000 0.000000 -60.708740 0.000000 55.000000 0.898379 -0.298470 0.322228
-9890.00000000 15340.00000000 -300.00000000 117 119 137 0.000000 0.000000 0.000000 0.000000 -60.708740 0.000000 55.000000 0.960458 0.259130 -0.101847
-9900.00000000 15340.00000000 -300.00000000 117 119 137 0.000000 0.000000 0.000000 0.000000 -60.708740 0.000000 55.000000 0.986025 0.139162 -0.091585
-9890.00000000 15350.00000000 -310.00000000 117 119 137 0.000000 0.000000 0.000000 0.000000 -60.708740 0.000000 55.000000 0.996937 0.011654 -0.077339
-9900.00000000 15340.00000000 -300.00000000 117 119 137 0.000000 0.000000 0.000000 0.000000 -60.708740 0.000000 55.000000 0.986025 0.139162 -0.091585
-9900.00000000 15340.00000000 -340.00000000 117 119 137 0.000000 0.000000 0.000000 0.000000 -60.708740 0.000000 55.000000 0.984006 -0.038520 0.173923
-9900.00000000 15340.00000000 -330.00000000 117 119 137 0.000000 0.000000 0.000000 0.000000 -60.708740 0.000000 55.000000 0.990905 -0.131596 -0.028119
-9900.00000000 15340.00000000 -340.00000000 117 119 137 0.000000 0.000000 0.000000 0.000000 -60.708740 0.000000 55.000000 0.984006 -0.038520 0.173923
-9880.00000000 15350.00000000 -350.00000000 117 119 137 0.000000 0.000000 0.000000 0.000000 -60.708740 0.000000 55.000000 0.890875 -0.222351 0.396108
-9880.00000000 15370.00000000 -350.00000000 117 119 137 0.000000 0.000000 0.000000 0.000000 -60.708740 0.000000 55.000000 0.876347 -0.480840 0.028444
-9890.00000000 15370.00000000 -340.00000000 117 119 137 0.000000 0.000000 0.000000 0.000000 -60.708740 0.000000 55.000000 0.677477 -0.664542 0.315293
-9880.00000000 15370.00000000 -350.00000000 117 119 137 0.000000 0.000000 0.000000 0.000000 -60.708740 0.000000 55.000000 0.876347 -0.480840 0.028444
-9900.00000000 15340.00000000 -320.00000000 117 119 137 0.000000 0.000000 0.000000 0.000000 -60.708740 0.000000 55.000000 0.992988 -0.106833 -0.050605
-9890.00000000 15370.00000000 -320.00000000 117 119 137 0.000000 0.000000 0.000000 0.000000 -60.708740 0.000000 55.000000 0.879694 -0.413710 0.234485
-9880.00000000 15370.00000000 -330.00000000 117 119 137 0.000000 0.000000 0.000000 0.000000 -60.708740 0.000000 55.000000 0.716290 -0.622509 0.315297
-9900.00000000 15320.00000000 -280.00000000 117 119 137 0.000000 0.000000 0.000000 0.000000 -60.708740 0.000000 55.000000 0.817117 0.573540 0.058062
-9890.00000000 15330.00000000 -310.00000000 117 119 137 0.000000 0.000000 0.000000 0.000000 -60.708740 0.000000 55.000000 0.942864 0.255388 -0.213974
-9890.00000000 15310.00000000 -310.00000000 117 119 137 0.000000 0.000000 0.000000 0.000000 -60.708740 0.000000 55.000000 0.959618 0.278277 -0.041180
-9890.00000000 15310.00000000 -300.00000000 117 119 137 0.000000 0.000000 0.000000 0.000000 -60.708740 0.000000 55.000000 0.955675 0.278793 -0.094660
-9890.00000000 15310.00000000 -310.00000000 117 119 137 0.000000 0.000000 0.000000 0.000000 -60.708740 0.000000 55.000000 0.959618 0.278277 -0.041180
-9890.00000000 15320.00000000 -320.00000000 117 119 137 0.000000 0.000000 0.000000 0.000000 -60.708740 0.000000 55.000000 0.928199 0.254437 -0.271495
-9890.00000000 15310.00000000 -330.00000000 117 119 137 0.000000 0.000000 0.000000 0.000000 -60.708740 0.000000 55.000000 0.953868 0.161877 -0.252849
-9890.00000000 15320.00000000 -340.00000000 117 119 137 0.000000 0.000000 0.000000 0.000000 -60.708740 0.000000 55.000000 0.984912 0.121165 -0.123564
-9890.00000000 15330.00000000 -340.00000000 117 119 137 0.000000 0.000000 0.000000 0.000000 -60.708740 0.000000 55.000000 0.966898 0.084462 0.240779
-9900.00000000 15320.00000000 -320.00000000 117 119 137 0.000000 0.000000 0.000000 0.000000 -60.708740 0.000000 55.000000 0.826077 0.509183 -0.241516
-9920.00000000 15320.00000000 -350.00000000 117 119 137 0.000000 0.000000 0.000000 0.000000 -60.708740 0.000000 55.000000 0.945368 -0.006244 0.325946
-9910.00000000 15310.00000000 -350.00000000 117 119 137 0.000000 0.000000 0.000000 0.000000 -60.708740 0.000000 55.000000 0.992576 -0.032379 0.117233
-9830.00000000 15280.00000000 -60.00000000 117 119 137 0.000000 0.000000 0.000000 0.000000 -60.708740 0.000000 55.000000 0.014364 0.910183 -0.413957
-9790.00000000 15270.00000000 -170.00000000 117 119 137 0.000000 0.000000 0.000000 0.000000 -60.708740 0.000000 55.000000 -0.419711 0.899781 -0.119316
-9810.00000000 15280.00000000 -160.00000000 117 119 137 0.000000 0.000000 0.000000 0.000000 -60.708740 0.000000 55.000000 -0.218275 0.970252 0.104722
-9830.00000000 15290.00000000 -110.00000000 117 119 137 0.000000 0.000000 0.000000 0.000000 -60.708740 0.000000 55.000000 -0.070621 0.982708 0.171166
-9850.00000000 15290.00000000 -180.00000000 117 119 137 0.000000 0.000000 0.000000 0.000000 -60.708740 0.000000 55.000000 0.504629 0.854543 -0.122904
-9830.00000000 15260.00000000 -150.00000000 117 119 137 0.000000 0.000000 0.000000 0.000000 -60.708740 0.000000 55.000000 0.046190 0.824426 -0.564081
-9790.00000000 15270.00000000 -200.00000000 117 119 137 0.000000 0.000000 0.000000 0.000000 -60.708740 0.000000 55.000000 -0.575962 0.805157 -0.141386
-9790.00000000 15270.00000000 -210.00000000 117 119 137 0.000000 0.000000 0.000000 0.000000 -60.708740 0.000000 55.000000 -0.574743 0.801020 -0.167445
-9800.00000000 15290.00000000 -210.00000000 117 119 137 0.000000 0.000000 0.000000 0.000000 -60.708740 0.000000 55.000000 -0.369191 0.927610 0.056900
-9810.00000000 15290.00000000 -210.00000000 117 119 137 0.000000 0.000000 0.000000 0.000000 -60.708740 0.000000 55.000000 -0.266998 0.890490 -0.368427
-9780.00000000 15290.00000000 -200.00000000 117 119 137 0.000000 0.000000 0.000000 0.000000 -60.708740 0.000000 55.000000 -0.571954 0.819661 0.032007
-9810.00000000 15280.00000000 -190.00000000 117 119 137 0.000000 0.000000 0.000000 0.000000 -60.708740 0.000000 55.000000 -0.341172 0.939808 -0.019024
-9780.00000000 15280.00000000 -220.00000000 117 119 137 0.000000 0.000000 0.000000 0.000000 -60.708740 0.000000 55.000000 -0.477446 0.813721 -0.331516
-9790.00000000 15270.00000000 -220.00000000 117 119 137 0.000000 0.000000 0.000000 0.000000 -60.708740 0.000000 55.000000 -0.496702 0.858729 0.125986
-9780.00000000 15290.00000000 -200.00000000 117 119 137 0.000000 0.000000 0.000000 0.000000 -60.708740 0.000000 55.000000 -0.571954 0.819661 0.032007
-9800.00000000 15270.00000000 -270.00000000 117 119 137 0.000000 0.000000 0.000000 0.000000 -60.708740 0.000000 55.000000 -0.304103 0.948854 -0.084836
-9790.00000000 15270.00000000 -270.00000000 117 119 137 0.000000 0.000000 0.000000 0.000000 -60.708740 0.000000 55.000000 -0.601122 0.797233 -0.055423
-9810.00000000 15280.00000000 -240.00000000 117 119 137 0.000000 0.000000 0.000000 0.000000 -60.708740 0.000000 55.000000 -0.312789 0.880947 -0.355099
-9820.00000000 15280.00000000 -220.00000000 117 119 137 0.000000 0.000000 0.000000 0.000000 -60.708740 0.000000 55.000000 -0.090294 0.895990 -0.434798
-9850.00000000 15280.00000000 -230.00000000 117 119 137 0.000000 0.000000 0.000000 0.000000 -60.708740 0.000000 55.000000 0.425878 0.888094 -0.172967
-9840.00000000 15270.00000000 -220.00000000 117 119 137 0.000000 0.000000 0.000000 0.000000 -60.708740 0.000000 55.000000 0.277258 0.834871 -0.475520
-9830.00000000 15280.00000000 -220.00000000 117 119 137 0.000000 0.000000 0.000000 0.000000 -60.708740 0.000000 55.000000 0.054349 0.854252 -0.517011
-9850.00000000 15290.00000000 -200.00000000 117 119 137 0.000000 0.000000 0.000000 0.000000 -60.708740 0.000000 55.000000 0.413413 0.910037 -0.030379
-9830.00000000 15280.00000000 -230.00000000 117 119 137 0.000000 0.000000 0.000000 0.000000 -60.708740 0.000000 55.000000 0.176123 0.984217 -0.017267
-9830.00000000 15280.00000000 -220.00000000 117 119 137 0.000000 0.000000 0.000000 0.000000 -60.708740 0.000000 55.000000 0.054349 0.854252 -0.517011
-9830.00000000 15270.00000000 -250.00000000 117 119 137 0.000000 0.000000 0.000000 0.000000 -60.708740 0.000000 55.000000 -0.145744 0.881679 -0.448776
-9840.00000000 15270.00000000 -240.00000000 117 119 137 0.000000 0.000000 0.000000 0.000000 -60.708740 0.000000 55.000000 0.269314 0.912755 -0.307163
-9840.00000000 15280.00000000 -250.00000000 117 119 137 0.000000 0.000000 0.000000 0.000000 -60.708740 0.000000 55.000000 0.114169 0.965948 -0.232187
-9820.00000000 15270.00000000 -240.00000000 117 119 137 0.000000 0.000000 0.000000 0.000000 -60.708740 0.000000 55.000000 -0.254609 0.967037 0.003586
-9820.00000000 15270.00000000 -240.00000000 117 119 137 0.000000 0.000000 0.000000 0.000000 -60.708740 0.000000 55.000000 -0.254609 0.967037 0.003586
-9860.00000000 15270.00000000 -270.00000000 117 119 137 0.000000 0.000000 0.000000 0.000000 -60.708740 0.000000 55.000000 0.579146 0.741372 -0.339052
-9830.00000000 15250.00000000 -270.00000000 117 119 137 0.000000 0.000000 0.000000 0.000000 -60.708740 0.000000 55.000000 0.215636 0.921095 -0.324168
-9790.00000000 15290.00000000 -300.00000000 117 119 137 0.000000 0.000000 0.000000 0.000000 -60.708740 0.000000 55.000000 -0.588908 0.805649 0.064167
-9790.00000000 15280.00000000 -300.00000000 117 119 137 0.000000 0.000000 0.000000 0.000000 -60.708740 0.000000 55.000000 0.803256 -0.589055 0.088286
-9810.00000000 15280.00000000 -310.00000000 117 119 137 0.000000 0.000000 0.000000 0.000000 -60.708740 0.000000 55.000000 -0.317071 0.940420 0.122781
-9780.00000000 15280.00000000 -280.00000000 117 119 137 0.000000 0.000000 0.000000 0.000000 -60.708740 0.000000 55.000000 0.834974 -0.541799 0.096288
-9810.00000000 15270.00000000 -290.00000000 117 119 137 0.000000 0.000000 0.000000 0.000000 -60.708740 0.000000 55.000000 -0.219148 0.974663 0.044798
-9780.00000000 15280.00000000 -280.00000000 117 119 137 0.000000 0.000000 0.000000 0.000000 -60.708740 0.000000 55.000000 0.834974 -0.541799 0.096288
-9800.00000000 15270.00000000 -300.00000000 117 119 137 0.000000 0.000000 0.000000 0.000000 -60.708740 0.000000 55.000000 -0.402458 0.840934 -0.361743
-9810.00000000 15270.00000000 -290.00000000 117 119 137 0.000000 0.000000 0.000000 0.000000 -60.708740 0.000000 55.000000 -0.219148 0.974663 0.044798
-9790.00000000 15280.00000000 -300.00000000 117 119 137 0.000000 0.000000 0.000000 0.000000 -60.708740 0.000000 55.000000 0.803256 -0.589055 0.088286
-9790.00000000 15260.00000000 -330.00000000 117 119 137 0.000000 0.000000 0.000000 0.000000 -60.708740 0.000000 55.000000 -0.373511 0.799923 -0.469694
-9790.00000000 15240.00000000 -300.00000000 117 119 137 0.000000 0.000000 0.000000 0.000000 -60.708740 0.000000 55.000000 -0.209100 0.972879 -0.098916
-9800.00000000 15230.00000000 -310.00000000 117 119 137 0.000000 0.000000 0.000000 0.000000 -60.708740 0.000000 55.000000 -0.193773 0.949893 -0.245265
-9810.00000000 15250.00000000 -310.00000000 117 119 137 0.000000 0.000000 0.000000 0.000000 -60.708740 0.000000 55.000000 0.109559 0.908368 -0.403565
-9810.00000000 15240.00000000 -310.00000000 117 119 137 0.000000 0.000000 0.000000 0.000000 -60.708740 0.000000 55.000000 -0.008985 0.925489 -0.378668
-9790.00000000 15220.00000000 -350.00000000 117 119 137 0.000000 0.000000 0.000000 0.000000 -60.708740 0.000000 55.000000 -0.231477 0.781430 -0.579470
-9800.00000000 15250.00000000 -340.00000000 117 119 137 0.000000 0.000000 0.000000 0.000000 -60.708740 0.000000 55.000000 -0.163879 0.907747 -0.386185
-9800.00000000 15240.00000000 -320.00000000 117 119 137 0.000000 0.000000 0.000000 0.000000 -60.708740 0.000000 55.000000 -0.081021 0.987523 -0.135036
-9810.00000000 15240.00000000 -350.00000000 117 119 137 0.000000 0.000000 0.000000 0.000000 -60.708740 0.000000 55.000000 -0.505545 0.819760 -0.269105
-9800.00000000 15210.00000000 -350.00000000 117 119 137 0.000000 0.000000 0.000000 0.000000 -60.708740 0.000000 55.000000 -0.317963 0.864797 -0.388621
-9780.00000000 15250.00000000 -340.00000000 117 119 137 0.000000 0.000000 0.000000 0.000000 -60.708740 0.000000 55.000000 -0.205106 0.926515 -0.315439
-9800.00000000 15240.00000000 -320.00000000 117 119 137 0.000000 0.000000 0.000000 0.000000 -60.708740 0.000000 55.000000 -0.081021 0.987523 -0.135036
-9800.00000000 15240.00000000 -320.00000000 117 119 137 0.000000 0.000000 0.000000 0.000000 -60.708740 0.000000 55.000000 -0.081021 0.987523 -0.135036
-9780.00000000 15250.00000000 -320.00000000 117 119 137 0.000000 0.000000 0.000000 0.000000 -60.708740 0.000000 55.000000 -0.389362 0.845962 -0.364342
-9800.00000000 15250.00000000 -340.00000000 117 119 137 0.000000 0.000000 0.000000 0.000000 -60.708740 0.000000 55.000000 -0.163879 0.907747 -0.386185
-9780.00000000 15250.00000000 -320.00000000 117 119 137 0.000000 0.000000 0.000000 0.000000 -60.708740 0.000000 55.000000 -0.389362 0.845962 -0.364342
-9780.00000000 15220.00000000 -350.00000000 117 119 137 0.000000 0.000000 0.000000 0.000000 -60.708740 0.000000 55.000000 -0.561320 0.802979 -0.200362
-9780.00000000 15250.00000000 -350.00000000 117 119 137 0.000000 0.000000 0.000000 0.000000 -60.708740 0.000000 55.000000 -0.496573 0.799945 -0.336903
-9780.00000000 15250.00000000 -340.00000000 117 119 137 0.000000 0.000000 0.000000 0.000000 -60.708740 0.000000 55.000000 -0.205106 0.926515 -0.315439
-9810.00000000 15240.00000000 -350.00000000 117 119 137 0.000000 0.000000 0.000000 0.000000 -60.708740 0.000000 55.000000 -0.505545 0.819760 -0.269105
-9830.00000000 15270.00000000 -300.00000000 117 119 137 0.000000 0.000000 0.000000 0.000000 -60.708740 0.000000 55.000000 0.001270 0.928213 -0.372047
-9860.00000000 15260.00000000 -300.00000000 117 119 137 0.000000 0.000000 0.000000 0.000000 -60.708740 0.000000 55.000000 0.330858 0.921575 -0.203059
-9850.00000000 15270.00000000 -300.00000000 117 119 137 0.000000 0.000000 0.000000 0.000000 -60.708740 0.000000 55.000000 0.299884 0.930625 -0.209778
-9860.00000000 15270.00000000 -290.00000000 117 119 137 0.000000 0.000000 0.000000 0.000000 -60.708740 0.000000 55.000000 0.633468 0.744983 -0.209091
-9850.00000000 15270.00000000 -300.00000000 117 119 137 0.000000 0.000000 0.000000 0.000000 -60.708740 0.000000 55.000000 0.299884 0.930625 -0.209778
-9860.00000000 15270.00000000 -310.00000000 117 119 137 0.000000 0.000000 0.000000 0.000000 -60.708740 0.000000 55.000000 0.269523 0.937046 -0.222042
-9850.00000000 15260.00000000 -280.00000000 117 119 137 0.000000 0.000000 0.000000 0.000000 -60.708740 0.000000 55.000000 0.525326 0.849670 -0.045741
-9860.00000000 15270.00000000 -310.00000000 117 119 137 0.000000 0.000000 0.000000 0.000000 -60.708740 0.000000 55.000000 0.269523 0.937046 -0.222042
-9850.00000000 15260.00000000 -280.00000000 117 119 137 0.000000 0.000000 0.000000 0.000000 -60.708740 0.000000 55.000000 0.525326 0.849670 -0.045741
-9860.00000000 15270.00000000 -290.00000000 117 119 137 0.000000 0.000000 0.000000 0.000000 -60.708740 0.000000 55.000000 0.633468 0.744983 -0.209091
-9850.00000000 15260.00000000 -280.00000000 117 119 137 0.000000 0.000000 0.000000 0.000000 -60.708740 0.000000 55.000000 0.525326 0.849670 -0.045741
-9840.00000000 15260.00000000 -330.00000000 117 119 137 0.000000 0.000000 0.000000 0.000000 -60.708740 0.000000 55.000000 0.011318 0.999046 -0.042184
-9840.00000000 15260.00000000 -320.00000000 117 119 137 0.000000 0.000000 0.000000 0.000000 -60.708740 0.000000 55.000000 -0.057833 0.996248 0.064380
-9860.00000000 15260.00000000 -330.00000000 117 119 137 0.000000 0.000000 0.000000 0.000000 -60.708740 0.000000 55.000000 0.068342 0.981970 -0.176251
-9860.00000000 15280.00000000 -340.00000000 117 119 137 0.000000 0.000000 0.000000 0.000000 -60.708740 0.000000 55.000000 0.757585 0.647074 -0.085792
-9850.00000000 15260.00000000 -340.00000000 117 119 137 0.000000 0.000000 0.000000 0.000000 -60.708740 0.000000 55.000000 0.129925 0.990823 0.037283
-9840.00000000 15260.00000000 -340.00000000 117 119 137 0.000000 0.000000 0.000000 0.000000 -60.708740 0.000000 55.000000 0.143213 0.921848 -0.360119
-9850.00000000 15260.00000000 -320.00000000 117 119 137 0.000000 0.000000 0.000000 0.000000 -60.708740 0.000000 55.000000 0.188677 0.887804 -0.419769
-9850.00000000 15260.00000000 -320.00000000 117 119 137 0.000000 0.000000 0.000000 0.000000 -60.708740 0.000000 55.000000 0.188677 0.887804 -0.419769
-9850.00000000 15260.00000000 -340.00000000 117 119 137 0.000000 0.000000 0.000000 0.000000 -60.708740 0.000000 55.000000 0.129925 0.990823 0.037283
-9840.00000000 15230.00000000 -350.00000000 117 119 137 0.000000 0.000000 0.000000 0.000000 -60.708740 0.000000 55.000000 0.453819 0.867464 -0.203847
