//X Y Z R G B PointSourceId ScanDirectionFlag NumberOfReturns ReturnNumber GpsTime Intensity Classification Nx Ny Nz
4620.00000000 -11260.00000000 -510.00000000 99 5 203 0.000000 0.000000 0.000000 0.000000 -60.708740 0.000000 74.000000 0.965282 0.100736 0.241002
4620.00000000 -11260.00000000 -520.00000000 99 5 203 0.000000 0.000000 0.000000 0.000000 -60.708740 0.000000 74.000000 0.892272 -0.081619 -0.444061
4620.00000000 -11310.00000000 -480.00000000 99 5 203 0.000000 0.000000 0.000000 0.000000 -60.708740 0.000000 74.000000 0.713265 0.625926 -0.315389
4610.00000000 -11280.00000000 -470.00000000 99 5 203 0.000000 0.000000 0.000000 0.000000 -60.708740 0.000000 74.000000 0.837349 0.516790 0.178255
4610.00000000 -11310.00000000 -460.00000000 99 5 203 0.000000 0.000000 0.000000 0.000000 -60.708740 0.000000 74.000000 0.956129 0.278170 -0.091861
4620.00000000 -11280.00000000 -460.00000000 99 5 203 0.000000 0.000000 0.000000 0.000000 -60.708740 0.000000 74.000000 0.655707 0.740120 -0.149230
4620.00000000 -11290.00000000 -470.00000000 99 5 203 0.000000 0.000000 0.000000 0.000000 -60.708740 0.000000 74.000000 0.936958 0.345332 -0.053429
4620.00000000 -11300.00000000 -460.00000000 99 5 203 0.000000 0.000000 0.000000 0.000000 -60.708740 0.000000 74.000000 0.924708 0.355232 -0.136840
4620.00000000 -11290.00000000 -470.00000000 99 5 203 0.000000 0.000000 0.000000 0.000000 -60.708740 0.000000 74.000000 0.936958 0.345332 -0.053429
4620.00000000 -11290.00000000 -490.00000000 99 5 203 0.000000 0.000000 0.000000 0.000000 -60.708740 0.000000 74.000000 0.727145 0.475377 -0.495254
4620.00000000 -11290.00000000 -490.00000000 99 5 203 0.000000 0.000000 0.000000 0.000000 -60.708740 0.000000 74.000000 0.727145 0.475377 -0.495254
4610.00000000 -11280.00000000 -500.00000000 99 5 203 0.000000 0.000000 0.000000 0.000000 -60.708740 0.000000 74.000000 0.986317 -0.042984 -0.159158
4600.00000000 -11290.00000000 -510.00000000 99 5 203 0.000000 0.000000 0.000000 0.000000 -60.708740 0.000000 74.000000 0.845279 0.533932 -0.020483
4610.00000000 -11290.00000000 -500.00000000 99 5 203 0.000000 0.000000 0.000000 0.000000 -60.708740 0.000000 74.000000 0.877621 0.421675 -0.227973
4620.00000000 -11290.00000000 -520.00000000 99 5 203 0.000000 0.000000 0.000000 0.000000 -60.708740 0.000000 74.000000 0.786715 0.607982 0.106946
4700.00000000 -11160.00000000 -560.00000000 99 5 203 0.000000 0.000000 0.000000 0.000000 -60.708740 0.000000 74.000000 -0.082317 0.995488 0.047195
4670.00000000 -11170.00000000 -540.00000000 99 5 203 0.000000 0.000000 0.000000 0.000000 -60.708740 0.000000 74.000000 -0.353577 0.834441 -0.422720
4700.00000000 -11160.00000000 -560.00000000 99 5 203 0.000000 0.000000 0.000000 0.000000 -60.708740 0.000000 74.000000 -0.082317 0.995488 0.047195
4690.00000000 -11170.00000000 -540.00000000 99 5 203 0.000000 0.000000 0.000000 0.000000 -60.708740 0.000000 74.000000 -0.463734 0.870416 -0.165306
4670.00000000 -11170.00000000 -540.00000000 99 5 203 0.000000 0.000000 0.000000 0.000000 -60.708740 0.000000 74.000000 -0.353577 0.834441 -0.422720
4670.00000000 -11180.00000000 -560.00000000 99 5 203 0.000000 0.000000 0.000000 0.000000 -60.708740 0.000000 74.000000 -0.407933 0.906363 -0.109989
4700.00000000 -11160.00000000 -550.00000000 99 5 203 0.000000 0.000000 0.000000 0.000000 -60.708740 0.000000 74.000000 -0.300984 0.943442 -0.139019
4700.00000000 -11180.00000000 -600.00000000 99 5 203 0.000000 0.000000 0.000000 0.000000 -60.708740 0.000000 74.000000 0.107976 0.922576 -0.370397
4690.00000000 -11180.00000000 -600.00000000 99 5 203 0.000000 0.000000 0.000000 0.000000 -60.708740 0.000000 74.000000 -0.258961 0.895265 -0.362545
4680.00000000 -11180.00000000 -600.00000000 99 5 203 0.000000 0.000000 0.000000 0.000000 -60.708740 0.000000 74.000000 -0.416891 0.908743 -0.019727
4670.00000000 -11180.00000000 -580.00000000 99 5 203 0.000000 0.000000 0.000000 0.000000 -60.708740 0.000000 74.000000 -0.406306 0.882563 -0.236640
4680.00000000 -11160.00000000 -570.00000000 99 5 203 0.000000 0.000000 0.000000 0.000000 -60.708740 0.000000 74.000000 -0.432795 0.857944 -0.276805
4650.00000000 -11180.00000000 -550.00000000 99 5 203 0.000000 0.000000 0.000000 0.000000 -60.708740 0.000000 74.000000 -0.284670 0.854009 -0.435468
4650.00000000 -11190.00000000 -570.00000000 99 5 203 0.000000 0.000000 0.000000 0.000000 -60.708740 0.000000 74.000000 -0.457097 0.888422 0.042047
4660.00000000 -11190.00000000 -590.00000000 99 5 203 0.000000 0.000000 0.000000 0.000000 -60.708740 0.000000 74.000000 -0.559310 0.793005 -0.241485
4660.00000000 -11180.00000000 -580.00000000 99 5 203 0.000000 0.000000 0.000000 0.000000 -60.708740 0.000000 74.000000 -0.486966 0.866829 -0.107104
4640.00000000 -11160.00000000 -600.00000000 99 5 203 0.000000 0.000000 0.000000 0.000000 -60.708740 0.000000 74.000000 -0.488617 0.870651 -0.056751
4640.00000000 -11190.00000000 -580.00000000 99 5 203 0.000000 0.000000 0.000000 0.000000 -60.708740 0.000000 74.000000 -0.243778 0.968988 -0.040426
4660.00000000 -11180.00000000 -570.00000000 99 5 203 0.000000 0.000000 0.000000 0.000000 -60.708740 0.000000 74.000000 -0.581430 0.803350 -0.128714
4650.00000000 -11190.00000000 -580.00000000 99 5 203 0.000000 0.000000 0.000000 0.000000 -60.708740 0.000000 74.000000 -0.292534 0.942911 -0.159193
4630.00000000 -11220.00000000 -550.00000000 99 5 203 0.000000 0.000000 0.000000 0.000000 -60.708740 0.000000 74.000000 0.920700 -0.265725 0.285834
4630.00000000 -11210.00000000 -540.00000000 99 5 203 0.000000 0.000000 0.000000 0.000000 -60.708740 0.000000 74.000000 0.753426 -0.590954 0.288309
4630.00000000 -11210.00000000 -560.00000000 99 5 203 0.000000 0.000000 0.000000 0.000000 -60.708740 0.000000 74.000000 -0.614253 0.788962 -0.015252
4630.00000000 -11210.00000000 -560.00000000 99 5 203 0.000000 0.000000 0.000000 0.000000 -60.708740 0.000000 74.000000 -0.614253 0.788962 -0.015252
4630.00000000 -11230.00000000 -530.00000000 99 5 203 0.000000 0.000000 0.000000 0.000000 -60.708740 0.000000 74.000000 0.938671 -0.048037 -0.341453
4640.00000000 -11200.00000000 -570.00000000 99 5 203 0.000000 0.000000 0.000000 0.000000 -60.708740 0.000000 74.000000 0.709210 -0.668505 -0.223879
4650.00000000 -11200.00000000 -600.00000000 99 5 203 0.000000 0.000000 0.000000 0.000000 -60.708740 0.000000 74.000000 -0.490752 0.867605 -0.080151
4640.00000000 -11210.00000000 -600.00000000 99 5 203 0.000000 0.000000 0.000000 0.000000 -60.708740 0.000000 74.000000 -0.686992 0.724282 -0.058803
4630.00000000 -11210.00000000 -570.00000000 99 5 203 0.000000 0.000000 0.000000 0.000000 -60.708740 0.000000 74.000000 -0.549137 0.835405 0.023397
4630.00000000 -11220.00000000 -590.00000000 99 5 203 0.000000 0.000000 0.000000 0.000000 -60.708740 0.000000 74.000000 0.777424 -0.540190 -0.322190
4660.00000000 -11200.00000000 -600.00000000 99 5 203 0.000000 0.000000 0.000000 0.000000 -60.708740 0.000000 74.000000 -0.455792 0.888315 -0.056119
4630.00000000 -11210.00000000 -570.00000000 99 5 203 0.000000 0.000000 0.000000 0.000000 -60.708740 0.000000 74.000000 -0.549137 0.835405 0.023397
4680.00000000 -11170.00000000 -620.00000000 99 5 203 0.000000 0.000000 0.000000 0.000000 -60.708740 0.000000 74.000000 -0.211424 0.958720 -0.190148
4700.00000000 -11180.00000000 -640.00000000 99 5 203 0.000000 0.000000 0.000000 0.000000 -60.708740 0.000000 74.000000 0.233138 0.922541 -0.307514
4680.00000000 -11180.00000000 -620.00000000 99 5 203 0.000000 0.000000 0.000000 0.000000 -60.708740 0.000000 74.000000 -0.148484 0.980485 -0.128850
4670.00000000 -11180.00000000 -680.00000000 99 5 203 0.000000 0.000000 0.000000 0.000000 -60.708740 0.000000 74.000000 -0.381680 0.828292 -0.410187
4700.00000000 -11170.00000000 -670.00000000 99 5 203 0.000000 0.000000 0.000000 0.000000 -60.708740 0.000000 74.000000 -0.073226 0.954509 -0.289051
4690.00000000 -11180.00000000 -670.00000000 99 5 203 0.000000 0.000000 0.000000 0.000000 -60.708740 0.000000 74.000000 -0.150978 0.942590 -0.297875
4670.00000000 -11200.00000000 -620.00000000 99 5 203 0.000000 0.000000 0.000000 0.000000 -60.708740 0.000000 74.000000 -0.012926 0.976518 -0.215046
4670.00000000 -11200.00000000 -640.00000000 99 5 203 0.000000 0.000000 0.000000 0.000000 -60.708740 0.000000 74.000000 -0.069226 0.986761 -0.146665
4670.00000000 -11200.00000000 -650.00000000 99 5 203 0.000000 0.000000 0.000000 0.000000 -60.708740 0.000000 74.000000 -0.120215 0.992055 0.037076
4670.00000000 -11200.00000000 -660.00000000 99 5 203 0.000000 0.000000 0.000000 0.000000 -60.708740 0.000000 74.000000 0.033541 0.996481 0.076819
4630.00000000 -11190.00000000 -610.00000000 99 5 203 0.000000 0.000000 0.000000 0.000000 -60.708740 0.000000 74.000000 -0.298516 0.941893 -0.154029
4640.00000000 -11190.00000000 -620.00000000 99 5 203 0.000000 0.000000 0.000000 0.000000 -60.708740 0.000000 74.000000 0.737918 -0.585469 0.335712
4650.00000000 -11190.00000000 -650.00000000 99 5 203 0.000000 0.000000 0.000000 0.000000 -60.708740 0.000000 74.000000 -0.175608 0.974054 0.142760
4650.00000000 -11170.00000000 -690.00000000 99 5 203 0.000000 0.000000 0.000000 0.000000 -60.708740 0.000000 74.000000 -0.397674 0.912311 -0.097698
4640.00000000 -11160.00000000 -660.00000000 99 5 203 0.000000 0.000000 0.000000 0.000000 -60.708740 0.000000 74.000000 -0.554758 0.828572 -0.075584
4640.00000000 -11190.00000000 -680.00000000 99 5 203 0.000000 0.000000 0.000000 0.000000 -60.708740 0.000000 74.000000 -0.341250 0.935426 -0.092338
4650.00000000 -11200.00000000 -650.00000000 99 5 203 0.000000 0.000000 0.000000 0.000000 -60.708740 0.000000 74.000000 -0.168562 0.984263 0.053044
4640.00000000 -11210.00000000 -610.00000000 99 5 203 0.000000 0.000000 0.000000 0.000000 -60.708740 0.000000 74.000000 -0.523472 0.850119 -0.057233
4640.00000000 -11210.00000000 -620.00000000 99 5 203 0.000000 0.000000 0.000000 0.000000 -60.708740 0.000000 74.000000 0.814215 -0.546361 0.196325
4640.00000000 -11210.00000000 -620.00000000 99 5 203 0.000000 0.000000 0.000000 0.000000 -60.708740 0.000000 74.000000 0.814215 -0.546361 0.196325
4630.00000000 -11200.00000000 -650.00000000 99 5 203 0.000000 0.000000 0.000000 0.000000 -60.708740 0.000000 74.000000 -0.706807 0.700929 -0.095514
4630.00000000 -11200.00000000 -650.00000000 99 5 203 0.000000 0.000000 0.000000 0.000000 -60.708740 0.000000 74.000000 -0.706807 0.700929 -0.095514
4640.00000000 -11200.00000000 -660.00000000 99 5 203 0.000000 0.000000 0.000000 0.000000 -60.708740 0.000000 74.000000 -0.306278 0.907111 -0.288693
4640.00000000 -11200.00000000 -670.00000000 99 5 203 0.000000 0.000000 0.000000 0.000000 -60.708740 0.000000 74.000000 -0.697293 0.700318 -0.152769
4630.00000000 -11210.00000000 -680.00000000 99 5 203 0.000000 0.000000 0.000000 0.000000 -60.708740 0.000000 74.000000 0.653183 -0.727655 0.209453
4640.00000000 -11210.00000000 -670.00000000 99 5 203 0.000000 0.000000 0.000000 0.000000 -60.708740 0.000000 74.000000 -0.614302 0.735567 -0.285611
4630.00000000 -11210.00000000 -670.00000000 99 5 203 0.000000 0.000000 0.000000 0.000000 -60.708740 0.000000 74.000000 0.759974 -0.610777 0.222242
4640.00000000 -11200.00000000 -670.00000000 99 5 203 0.000000 0.000000 0.000000 0.000000 -60.708740 0.000000 74.000000 -0.697293 0.700318 -0.152769
4660.00000000 -11210.00000000 -680.00000000 99 5 203 0.000000 0.000000 0.000000 0.000000 -60.708740 0.000000 74.000000 0.175091 0.938873 -0.296414
4630.00000000 -11240.00000000 -540.00000000 99 5 203 0.000000 0.000000 0.000000 0.000000 -60.708740 0.000000 74.000000 0.990684 0.016753 0.135144
4630.00000000 -11310.00000000 -550.00000000 99 5 203 0.000000 0.000000 0.000000 0.000000 -60.708740 0.000000 74.000000 0.583391 0.781465 -0.221286
4640.00000000 -11310.00000000 -560.00000000 99 5 203 0.000000 0.000000 0.000000 0.000000 -60.708740 0.000000 74.000000 0.720277 0.681343 -0.130279
4630.00000000 -11310.00000000 -530.00000000 99 5 203 0.000000 0.000000 0.000000 0.000000 -60.708740 0.000000 74.000000 0.953979 0.293236 -0.062745
4650.00000000 -11310.00000000 -540.00000000 99 5 203 0.000000 0.000000 0.000000 0.000000 -60.708740 0.000000 74.000000 0.739873 0.594800 -0.314325
4630.00000000 -11300.00000000 -540.00000000 99 5 203 0.000000 0.000000 0.000000 0.000000 -60.708740 0.000000 74.000000 0.840693 0.540740 0.028895
4650.00000000 -11310.00000000 -530.00000000 99 5 203 0.000000 0.000000 0.000000 0.000000 -60.708740 0.000000 74.000000 0.813155 0.553669 -0.179528
4650.00000000 -11260.00000000 -610.00000000 99 5 203 0.000000 0.000000 0.000000 0.000000 -60.708740 0.000000 74.000000 0.880656 -0.331951 0.338014
4620.00000000 -11220.00000000 -540.00000000 99 5 203 0.000000 0.000000 0.000000 0.000000 -60.708740 0.000000 74.000000 0.852941 -0.481185 0.202367
4600.00000000 -11200.00000000 -550.00000000 99 5 203 0.000000 0.000000 0.000000 0.000000 -60.708740 0.000000 74.000000 0.980336 -0.126693 0.151294
4610.00000000 -11230.00000000 -570.00000000 99 5 203 0.000000 0.000000 0.000000 0.000000 -60.708740 0.000000 74.000000 0.858681 -0.488788 0.154122
4620.00000000 -11220.00000000 -590.00000000 99 5 203 0.000000 0.000000 0.000000 0.000000 -60.708740 0.000000 74.000000 0.906640 -0.356544 -0.225568
4590.00000000 -11210.00000000 -580.00000000 99 5 203 0.000000 0.000000 0.000000 0.000000 -60.708740 0.000000 74.000000 -0.651543 0.749497 -0.117248
4620.00000000 -11200.00000000 -590.00000000 99 5 203 0.000000 0.000000 0.000000 0.000000 -60.708740 0.000000 74.000000 0.826575 -0.487228 -0.281751
4620.00000000 -11170.00000000 -620.00000000 99 5 203 0.000000 0.000000 0.000000 0.000000 -60.708740 0.000000 74.000000 -0.503727 0.856766 0.110504
4610.00000000 -11180.00000000 -630.00000000 99 5 203 0.000000 0.000000 0.000000 0.000000 -60.708740 0.000000 74.000000 0.770592 -0.563186 0.298345
4620.00000000 -11210.00000000 -640.00000000 99 5 203 0.000000 0.000000 0.000000 0.000000 -60.708740 0.000000 74.000000 -0.468970 0.882845 0.025531
4610.00000000 -11230.00000000 -640.00000000 99 5 203 0.000000 0.000000 0.000000 0.000000 -60.708740 0.000000 74.000000 0.918276 -0.375344 -0.126038
4610.00000000 -11230.00000000 -640.00000000 99 5 203 0.000000 0.000000 0.000000 0.000000 -60.708740 0.000000 74.000000 0.918276 -0.375344 -0.126038
4620.00000000 -11210.00000000 -640.00000000 99 5 203 0.000000 0.000000 0.000000 0.000000 -60.708740 0.000000 74.000000 -0.468970 0.882845 0.025531
4610.00000000 -11230.00000000 -620.00000000 99 5 203 0.000000 0.000000 0.000000 0.000000 -60.708740 0.000000 74.000000 0.939107 -0.262950 -0.221212
4610.00000000 -11210.00000000 -620.00000000 99 5 203 0.000000 0.000000 0.000000 0.000000 -60.708740 0.000000 74.000000 -0.556422 0.825238 0.096832
4600.00000000 -11230.00000000 -690.00000000 99 5 203 0.000000 0.000000 0.000000 0.000000 -60.708740 0.000000 74.000000 0.916566 -0.352087 -0.189585
4620.00000000 -11220.00000000 -680.00000000 99 5 203 0.000000 0.000000 0.000000 0.000000 -60.708740 0.000000 74.000000 -0.461507 0.886686 0.028256
4620.00000000 -11230.00000000 -680.00000000 99 5 203 0.000000 0.000000 0.000000 0.000000 -60.708740 0.000000 74.000000 0.819163 -0.563084 0.109125
4620.00000000 -11230.00000000 -660.00000000 99 5 203 0.000000 0.000000 0.000000 0.000000 -60.708740 0.000000 74.000000 0.812640 -0.579237 -0.064043
4580.00000000 -11230.00000000 -690.00000000 99 5 203 0.000000 0.000000 0.000000 0.000000 -60.708740 0.000000 74.000000 0.838839 -0.474261 -0.267255
4560.00000000 -11220.00000000 -670.00000000 99 5 203 0.000000 0.000000 0.000000 0.000000 -60.708740 0.000000 74.000000 0.738925 -0.625487 0.250510
4610.00000000 -11270.00000000 -550.00000000 99 5 203 0.000000 0.000000 0.000000 0.000000 -60.708740 0.000000 74.000000 0.973061 0.025196 -0.229167
4610.00000000 -11260.00000000 -530.00000000 99 5 203 0.000000 0.000000 0.000000 0.000000 -60.708740 0.000000 74.000000 0.947610 0.107352 -0.300850
4610.00000000 -11270.00000000 -530.00000000 99 5 203 0.000000 0.000000 0.000000 0.000000 -60.708740 0.000000 74.000000 0.956466 -0.160963 -0.243440
4600.00000000 -11270.00000000 -560.00000000 99 5 203 0.000000 0.000000 0.000000 0.000000 -60.708740 0.000000 74.000000 0.850119 0.057233 -0.523472
4610.00000000 -11260.00000000 -560.00000000 99 5 203 0.000000 0.000000 0.000000 0.000000 -60.708740 0.000000 74.000000 0.927022 -0.121869 -0.354651
4610.00000000 -11270.00000000 -560.00000000 99 5 203 0.000000 0.000000 0.000000 0.000000 -60.708740 0.000000 74.000000 0.945907 -0.003729 -0.324417
4610.00000000 -11260.00000000 -550.00000000 99 5 203 0.000000 0.000000 0.000000 0.000000 -60.708740 0.000000 74.000000 0.905177 0.287007 -0.313500
4610.00000000 -11270.00000000 -600.00000000 99 5 203 0.000000 0.000000 0.000000 0.000000 -60.708740 0.000000 74.000000 0.851548 0.129552 -0.508018
4610.00000000 -11250.00000000 -570.00000000 99 5 203 0.000000 0.000000 0.000000 0.000000 -60.708740 0.000000 74.000000 0.996565 0.080282 0.020338
4590.00000000 -11250.00000000 -580.00000000 99 5 203 0.000000 0.000000 0.000000 0.000000 -60.708740 0.000000 74.000000 0.896312 -0.385810 -0.218577
4610.00000000 -11280.00000000 -540.00000000 99 5 203 0.000000 0.000000 0.000000 0.000000 -60.708740 0.000000 74.000000 0.893482 0.431873 0.123190
4620.00000000 -11290.00000000 -540.00000000 99 5 203 0.000000 0.000000 0.000000 0.000000 -60.708740 0.000000 74.000000 0.827658 0.238009 -0.508265
4590.00000000 -11280.00000000 -540.00000000 99 5 203 0.000000 0.000000 0.000000 0.000000 -60.708740 0.000000 74.000000 0.870517 0.428493 -0.242061
4610.00000000 -11280.00000000 -550.00000000 99 5 203 0.000000 0.000000 0.000000 0.000000 -60.708740 0.000000 74.000000 0.918784 0.219304 -0.328240
4620.00000000 -11290.00000000 -530.00000000 99 5 203 0.000000 0.000000 0.000000 0.000000 -60.708740 0.000000 74.000000 0.845457 0.532735 0.037361
4610.00000000 -11280.00000000 -560.00000000 99 5 203 0.000000 0.000000 0.000000 0.000000 -60.708740 0.000000 74.000000 0.947648 0.101770 -0.302666
4600.00000000 -11290.00000000 -560.00000000 99 5 203 0.000000 0.000000 0.000000 0.000000 -60.708740 0.000000 74.000000 0.964364 -0.147062 -0.219943
4610.00000000 -11290.00000000 -550.00000000 99 5 203 0.000000 0.000000 0.000000 0.000000 -60.708740 0.000000 74.000000 0.893198 -0.030800 -0.448608
4600.00000000 -11300.00000000 -590.00000000 99 5 203 0.000000 0.000000 0.000000 0.000000 -60.708740 0.000000 74.000000 0.954334 0.298307 -0.016091
4620.00000000 -11300.00000000 -600.00000000 99 5 203 0.000000 0.000000 0.000000 0.000000 -60.708740 0.000000 74.000000 0.827096 0.484420 -0.285044
4580.00000000 -11310.00000000 -600.00000000 99 5 203 0.000000 0.000000 0.000000 0.000000 -60.708740 0.000000 74.000000 0.861101 0.137950 -0.489361
4580.00000000 -11290.00000000 -600.00000000 99 5 203 0.000000 0.000000 0.000000 0.000000 -60.708740 0.000000 74.000000 0.866127 0.068342 -0.495129
4600.00000000 -11250.00000000 -650.00000000 99 5 203 0.000000 0.000000 0.000000 0.000000 -60.708740 0.000000 74.000000 0.890013 -0.444306 0.102316
4590.00000000 -11250.00000000 -630.00000000 99 5 203 0.000000 0.000000 0.000000 0.000000 -60.708740 0.000000 74.000000 0.899068 -0.152942 -0.410227
4590.00000000 -11270.00000000 -620.00000000 99 5 203 0.000000 0.000000 0.000000 0.000000 -60.708740 0.000000 74.000000 0.925287 -0.313152 -0.213964
4600.00000000 -11240.00000000 -620.00000000 99 5 203 0.000000 0.000000 0.000000 0.000000 -60.708740 0.000000 74.000000 0.870092 -0.388570 0.303237
4610.00000000 -11260.00000000 -620.00000000 99 5 203 0.000000 0.000000 0.000000 0.000000 -60.708740 0.000000 74.000000 0.996095 -0.003189 -0.088235
4590.00000000 -11260.00000000 -650.00000000 99 5 203 0.000000 0.000000 0.000000 0.000000 -60.708740 0.000000 74.000000 0.982175 -0.187684 -0.010363
4610.00000000 -11270.00000000 -610.00000000 99 5 203 0.000000 0.000000 0.000000 0.000000 -60.708740 0.000000 74.000000 0.988091 -0.146427 -0.047272
4590.00000000 -11260.00000000 -640.00000000 99 5 203 0.000000 0.000000 0.000000 0.000000 -60.708740 0.000000 74.000000 0.931961 -0.081330 -0.353319
4610.00000000 -11240.00000000 -630.00000000 99 5 203 0.000000 0.000000 0.000000 0.000000 -60.708740 0.000000 74.000000 0.985178 -0.125997 0.116397
4600.00000000 -11250.00000000 -680.00000000 99 5 203 0.000000 0.000000 0.000000 0.000000 -60.708740 0.000000 74.000000 0.754036 -0.577183 -0.313512
4590.00000000 -11260.00000000 -680.00000000 99 5 203 0.000000 0.000000 0.000000 0.000000 -60.708740 0.000000 74.000000 0.763717 -0.620425 -0.178353
4590.00000000 -11260.00000000 -680.00000000 99 5 203 0.000000 0.000000 0.000000 0.000000 -60.708740 0.000000 74.000000 0.763717 -0.620425 -0.178353
4610.00000000 -11250.00000000 -660.00000000 99 5 203 0.000000 0.000000 0.000000 0.000000 -60.708740 0.000000 74.000000 0.985788 -0.167527 -0.012536
4600.00000000 -11280.00000000 -620.00000000 99 5 203 0.000000 0.000000 0.000000 0.000000 -60.708740 0.000000 74.000000 0.969610 -0.035281 -0.242098
4590.00000000 -11300.00000000 -620.00000000 99 5 203 0.000000 0.000000 0.000000 0.000000 -60.708740 0.000000 74.000000 0.875225 0.474961 -0.091610
4610.00000000 -11300.00000000 -610.00000000 99 5 203 0.000000 0.000000 0.000000 0.000000 -60.708740 0.000000 74.000000 0.743311 0.473016 -0.473016
4600.00000000 -11300.00000000 -630.00000000 99 5 203 0.000000 0.000000 0.000000 0.000000 -60.708740 0.000000 74.000000 0.908841 -0.139497 -0.393127
4600.00000000 -11310.00000000 -630.00000000 99 5 203 0.000000 0.000000 0.000000 0.000000 -60.708740 0.000000 74.000000 0.880700 0.109201 -0.460914
4590.00000000 -11280.00000000 -650.00000000 99 5 203 0.000000 0.000000 0.000000 0.000000 -60.708740 0.000000 74.000000 0.846575 -0.080829 -0.526096
4590.00000000 -11290.00000000 -620.00000000 99 5 203 0.000000 0.000000 0.000000 0.000000 -60.708740 0.000000 74.000000 0.977770 0.201839 -0.056805
4600.00000000 -11280.00000000 -630.00000000 99 5 203 0.000000 0.000000 0.000000 0.000000 -60.708740 0.000000 74.000000 0.905867 0.259028 -0.335127
4590.00000000 -11310.00000000 -640.00000000 99 5 203 0.000000 0.000000 0.000000 0.000000 -60.708740 0.000000 74.000000 0.913577 0.126924 -0.386352
4590.00000000 -11310.00000000 -630.00000000 99 5 203 0.000000 0.000000 0.000000 0.000000 -60.708740 0.000000 74.000000 0.833205 0.280838 -0.476339
4600.00000000 -11280.00000000 -610.00000000 99 5 203 0.000000 0.000000 0.000000 0.000000 -60.708740 0.000000 74.000000 0.982953 -0.130007 0.130007
4590.00000000 -11300.00000000 -650.00000000 99 5 203 0.000000 0.000000 0.000000 0.000000 -60.708740 0.000000 74.000000 0.949529 0.162969 -0.268023
4590.00000000 -11310.00000000 -680.00000000 99 5 203 0.000000 0.000000 0.000000 0.000000 -60.708740 0.000000 74.000000 0.823619 0.486045 -0.292252
4610.00000000 -11280.00000000 -680.00000000 99 5 203 0.000000 0.000000 0.000000 0.000000 -60.708740 0.000000 74.000000 0.835081 -0.548847 -0.037516
4610.00000000 -11280.00000000 -680.00000000 99 5 203 0.000000 0.000000 0.000000 0.000000 -60.708740 0.000000 74.000000 0.835081 -0.548847 -0.037516
4590.00000000 -11310.00000000 -670.00000000 99 5 203 0.000000 0.000000 0.000000 0.000000 -60.708740 0.000000 74.000000 0.984167 0.121666 -0.128893
4580.00000000 -11270.00000000 -640.00000000 99 5 203 0.000000 0.000000 0.000000 0.000000 -60.708740 0.000000 74.000000 0.979890 0.068870 0.187279
4580.00000000 -11270.00000000 -650.00000000 99 5 203 0.000000 0.000000 0.000000 0.000000 -60.708740 0.000000 74.000000 0.983451 -0.176998 -0.038682
4580.00000000 -11270.00000000 -690.00000000 99 5 203 0.000000 0.000000 0.000000 0.000000 -60.708740 0.000000 74.000000 0.999885 -0.002979 -0.014894
4580.00000000 -11270.00000000 -680.00000000 99 5 203 0.000000 0.000000 0.000000 0.000000 -60.708740 0.000000 74.000000 0.937385 -0.221462 -0.268819
4580.00000000 -11270.00000000 -660.00000000 99 5 203 0.000000 0.000000 0.000000 0.000000 -60.708740 0.000000 74.000000 0.844175 -0.439966 -0.306266
4580.00000000 -11290.00000000 -650.00000000 99 5 203 0.000000 0.000000 0.000000 0.000000 -60.708740 0.000000 74.000000 0.965647 -0.183747 -0.183747
4580.00000000 -11280.00000000 -670.00000000 99 5 203 0.000000 0.000000 0.000000 0.000000 -60.708740 0.000000 74.000000 0.940079 0.053310 -0.336764
4580.00000000 -11280.00000000 -680.00000000 99 5 203 0.000000 0.000000 0.000000 0.000000 -60.708740 0.000000 74.000000 0.979475 -0.056485 -0.193491
4680.00000000 -11320.00000000 -370.00000000 99 5 203 0.000000 0.000000 0.000000 0.000000 -60.708740 0.000000 74.000000 0.290217 0.885688 -0.362395
4690.00000000 -11360.00000000 -360.00000000 99 5 203 0.000000 0.000000 0.000000 0.000000 -60.708740 0.000000 74.000000 0.028173 0.990567 0.134104
4690.00000000 -11340.00000000 -390.00000000 99 5 203 0.000000 0.000000 0.000000 0.000000 -60.708740 0.000000 74.000000 0.252654 0.942965 -0.216758
4700.00000000 -11320.00000000 -370.00000000 99 5 203 0.000000 0.000000 0.000000 0.000000 -60.708740 0.000000 74.000000 -0.103578 0.974629 -0.198420
4680.00000000 -11330.00000000 -400.00000000 99 5 203 0.000000 0.000000 0.000000 0.000000 -60.708740 0.000000 74.000000 0.642776 0.741427 -0.192679
4680.00000000 -11330.00000000 -440.00000000 99 5 203 0.000000 0.000000 0.000000 0.000000 -60.708740 0.000000 74.000000 0.484077 0.871896 0.073937
4700.00000000 -11340.00000000 -410.00000000 99 5 203 0.000000 0.000000 0.000000 0.000000 -60.708740 0.000000 74.000000 -0.093834 0.990473 -0.100785
4680.00000000 -11330.00000000 -430.00000000 99 5 203 0.000000 0.000000 0.000000 0.000000 -60.708740 0.000000 74.000000 0.128846 0.987031 0.095748
4700.00000000 -11340.00000000 -410.00000000 99 5 203 0.000000 0.000000 0.000000 0.000000 -60.708740 0.000000 74.000000 -0.093834 0.990473 -0.100785
4690.00000000 -11320.00000000 -400.00000000 99 5 203 0.000000 0.000000 0.000000 0.000000 -60.708740 0.000000 74.000000 0.166057 0.940073 -0.297804
4680.00000000 -11320.00000000 -400.00000000 99 5 203 0.000000 0.000000 0.000000 0.000000 -60.708740 0.000000 74.000000 0.444721 0.824554 -0.349763
4680.00000000 -11330.00000000 -420.00000000 99 5 203 0.000000 0.000000 0.000000 0.000000 -60.708740 0.000000 74.000000 -0.000993 0.999857 0.016879
4670.00000000 -11320.00000000 -400.00000000 99 5 203 0.000000 0.000000 0.000000 0.000000 -60.708740 0.000000 74.000000 0.431551 0.773535 -0.464121
4660.00000000 -11340.00000000 -390.00000000 99 5 203 0.000000 0.000000 0.000000 0.000000 -60.708740 0.000000 74.000000 0.563205 0.730688 -0.385869
4660.00000000 -11330.00000000 -370.00000000 99 5 203 0.000000 0.000000 0.000000 0.000000 -60.708740 0.000000 74.000000 0.556653 0.650830 -0.516292
4650.00000000 -11330.00000000 -390.00000000 99 5 203 0.000000 0.000000 0.000000 0.000000 -60.708740 0.000000 74.000000 0.693991 0.714446 -0.089123
4650.00000000 -11330.00000000 -410.00000000 99 5 203 0.000000 0.000000 0.000000 0.000000 -60.708740 0.000000 74.000000 0.172360 0.971597 -0.162146
4640.00000000 -11330.00000000 -420.00000000 99 5 203 0.000000 0.000000 0.000000 0.000000 -60.708740 0.000000 74.000000 0.514095 0.853028 -0.089717
4670.00000000 -11330.00000000 -450.00000000 99 5 203 0.000000 0.000000 0.000000 0.000000 -60.708740 0.000000 74.000000 0.419886 0.678789 -0.602446
4670.00000000 -11330.00000000 -480.00000000 99 5 203 0.000000 0.000000 0.000000 0.000000 -60.708740 0.000000 74.000000 0.462562 0.886466 -0.014663
4680.00000000 -11340.00000000 -460.00000000 99 5 203 0.000000 0.000000 0.000000 0.000000 -60.708740 0.000000 74.000000 0.601534 0.756259 -0.257349
4690.00000000 -11350.00000000 -460.00000000 99 5 203 0.000000 0.000000 0.000000 0.000000 -60.708740 0.000000 74.000000 -0.084044 0.993958 0.070597
4700.00000000 -11350.00000000 -450.00000000 99 5 203 0.000000 0.000000 0.000000 0.000000 -60.708740 0.000000 74.000000 -0.240111 0.964296 -0.111709
4670.00000000 -11350.00000000 -520.00000000 99 5 203 0.000000 0.000000 0.000000 0.000000 -60.708740 0.000000 74.000000 0.025963 0.989974 -0.138845
4700.00000000 -11330.00000000 -490.00000000 99 5 203 0.000000 0.000000 0.000000 0.000000 -60.708740 0.000000 74.000000 -0.033203 0.997168 -0.067478
4700.00000000 -11320.00000000 -490.00000000 99 5 203 0.000000 0.000000 0.000000 0.000000 -60.708740 0.000000 74.000000 -0.196238 0.978780 0.058992
4680.00000000 -11330.00000000 -490.00000000 99 5 203 0.000000 0.000000 0.000000 0.000000 -60.708740 0.000000 74.000000 0.436228 0.852418 -0.288250
4660.00000000 -11330.00000000 -450.00000000 99 5 203 0.000000 0.000000 0.000000 0.000000 -60.708740 0.000000 74.000000 0.325880 0.870545 -0.368719
4650.00000000 -11340.00000000 -470.00000000 99 5 203 0.000000 0.000000 0.000000 0.000000 -60.708740 0.000000 74.000000 0.560557 0.737059 -0.377518
4660.00000000 -11330.00000000 -510.00000000 99 5 203 0.000000 0.000000 0.000000 0.000000 -60.708740 0.000000 74.000000 -0.361713 -0.698875 0.617039
4620.00000000 -11340.00000000 -510.00000000 99 5 203 0.000000 0.000000 0.000000 0.000000 -60.708740 0.000000 74.000000 0.875898 0.381023 -0.296014
4700.00000000 -11330.00000000 -530.00000000 99 5 203 0.000000 0.000000 0.000000 0.000000 -60.708740 0.000000 74.000000 0.105921 0.993423 -0.043483
4680.00000000 -11350.00000000 -560.00000000 99 5 203 0.000000 0.000000 0.000000 0.000000 -60.708740 0.000000 74.000000 0.044327 0.953654 -0.297621
4670.00000000 -11320.00000000 -530.00000000 99 5 203 0.000000 0.000000 0.000000 0.000000 -60.708740 0.000000 74.000000 0.364951 0.917310 -0.159226
4670.00000000 -11330.00000000 -560.00000000 99 5 203 0.000000 0.000000 0.000000 0.000000 -60.708740 0.000000 74.000000 0.044265 0.902743 -0.427897
4680.00000000 -11360.00000000 -540.00000000 99 5 203 0.000000 0.000000 0.000000 0.000000 -60.708740 0.000000 74.000000 0.342251 0.937585 0.061631
4700.00000000 -11340.00000000 -530.00000000 99 5 203 0.000000 0.000000 0.000000 0.000000 -60.708740 0.000000 74.000000 -0.135529 0.932276 -0.335400
4670.00000000 -11350.00000000 -530.00000000 99 5 203 0.000000 0.000000 0.000000 0.000000 -60.708740 0.000000 74.000000 0.277879 0.896049 -0.346235
4700.00000000 -11340.00000000 -530.00000000 99 5 203 0.000000 0.000000 0.000000 0.000000 -60.708740 0.000000 74.000000 -0.135529 0.932276 -0.335400
4690.00000000 -11360.00000000 -560.00000000 99 5 203 0.000000 0.000000 0.000000 0.000000 -60.708740 0.000000 74.000000 -0.078869 0.892470 -0.444159
4680.00000000 -11360.00000000 -540.00000000 99 5 203 0.000000 0.000000 0.000000 0.000000 -60.708740 0.000000 74.000000 0.342251 0.937585 0.061631
4690.00000000 -11340.00000000 -550.00000000 99 5 203 0.000000 0.000000 0.000000 0.000000 -60.708740 0.000000 74.000000 -0.119142 0.798693 -0.589826
4680.00000000 -11330.00000000 -540.00000000 99 5 203 0.000000 0.000000 0.000000 0.000000 -60.708740 0.000000 74.000000 0.451164 0.858275 -0.244570
4700.00000000 -11330.00000000 -540.00000000 99 5 203 0.000000 0.000000 0.000000 0.000000 -60.708740 0.000000 74.000000 0.138275 0.986833 0.083910
4700.00000000 -11360.00000000 -580.00000000 99 5 203 0.000000 0.000000 0.000000 0.000000 -60.708740 0.000000 74.000000 -0.106960 0.984271 -0.140610
4680.00000000 -11330.00000000 -570.00000000 99 5 203 0.000000 0.000000 0.000000 0.000000 -60.708740 0.000000 74.000000 -0.136107 0.984064 -0.114426
4670.00000000 -11340.00000000 -570.00000000 99 5 203 0.000000 0.000000 0.000000 0.000000 -60.708740 0.000000 74.000000 0.155720 0.760458 -0.630440
4680.00000000 -11350.00000000 -590.00000000 99 5 203 0.000000 0.000000 0.000000 0.000000 -60.708740 0.000000 74.000000 0.295500 0.951588 -0.084615
4670.00000000 -11370.00000000 -570.00000000 99 5 203 0.000000 0.000000 0.000000 0.000000 -60.708740 0.000000 74.000000 -0.163243 0.956894 -0.240219
4640.00000000 -11340.00000000 -540.00000000 99 5 203 0.000000 0.000000 0.000000 0.000000 -60.708740 0.000000 74.000000 0.284882 0.957556 0.043925
4650.00000000 -11340.00000000 -530.00000000 99 5 203 0.000000 0.000000 0.000000 0.000000 -60.708740 0.000000 74.000000 0.062495 0.974192 -0.216896
4630.00000000 -11330.00000000 -560.00000000 99 5 203 0.000000 0.000000 0.000000 0.000000 -60.708740 0.000000 74.000000 0.645961 0.763155 0.018137
4640.00000000 -11340.00000000 -550.00000000 99 5 203 0.000000 0.000000 0.000000 0.000000 -60.708740 0.000000 74.000000 0.634772 0.771099 0.049703
4640.00000000 -11330.00000000 -560.00000000 99 5 203 0.000000 0.000000 0.000000 0.000000 -60.708740 0.000000 74.000000 0.526202 0.842214 -0.117417
4650.00000000 -11350.00000000 -540.00000000 99 5 203 0.000000 0.000000 0.000000 0.000000 -60.708740 0.000000 74.000000 0.245755 0.933868 -0.259798
4660.00000000 -11320.00000000 -540.00000000 99 5 203 0.000000 0.000000 0.000000 0.000000 -60.708740 0.000000 74.000000 0.700581 0.685116 -0.199503
4650.00000000 -11320.00000000 -550.00000000 99 5 203 0.000000 0.000000 0.000000 0.000000 -60.708740 0.000000 74.000000 0.713922 0.620028 -0.325393
4640.00000000 -11340.00000000 -530.00000000 99 5 203 0.000000 0.000000 0.000000 0.000000 -60.708740 0.000000 74.000000 0.200809 0.918596 -0.340379
4640.00000000 -11340.00000000 -540.00000000 99 5 203 0.000000 0.000000 0.000000 0.000000 -60.708740 0.000000 74.000000 0.284882 0.957556 0.043925
4650.00000000 -11350.00000000 -550.00000000 99 5 203 0.000000 0.000000 0.000000 0.000000 -60.708740 0.000000 74.000000 0.601684 0.776218 -0.188313
4660.00000000 -11350.00000000 -530.00000000 99 5 203 0.000000 0.000000 0.000000 0.000000 -60.708740 0.000000 74.000000 0.667534 0.743743 -0.035282
4630.00000000 -11330.00000000 -570.00000000 99 5 203 0.000000 0.000000 0.000000 0.000000 -60.708740 0.000000 74.000000 0.767314 0.640135 -0.038154
4650.00000000 -11350.00000000 -600.00000000 99 5 203 0.000000 0.000000 0.000000 0.000000 -60.708740 0.000000 74.000000 0.402092 0.895635 -0.190159
4660.00000000 -11350.00000000 -590.00000000 99 5 203 0.000000 0.000000 0.000000 0.000000 -60.708740 0.000000 74.000000 -0.054390 0.921985 -0.383387
4630.00000000 -11340.00000000 -570.00000000 99 5 203 0.000000 0.000000 0.000000 0.000000 -60.708740 0.000000 74.000000 0.825728 0.562168 0.046263
4650.00000000 -11340.00000000 -570.00000000 99 5 203 0.000000 0.000000 0.000000 0.000000 -60.708740 0.000000 74.000000 0.494917 0.785097 -0.372397
4640.00000000 -11330.00000000 -570.00000000 99 5 203 0.000000 0.000000 0.000000 0.000000 -60.708740 0.000000 74.000000 0.452772 0.881108 -0.136550
4640.00000000 -11340.00000000 -590.00000000 99 5 203 0.000000 0.000000 0.000000 0.000000 -60.708740 0.000000 74.000000 0.746627 0.610301 -0.264728
4640.00000000 -11360.00000000 -600.00000000 99 5 203 0.000000 0.000000 0.000000 0.000000 -60.708740 0.000000 74.000000 0.699723 0.713802 -0.029566
4640.00000000 -11360.00000000 -600.00000000 99 5 203 0.000000 0.000000 0.000000 0.000000 -60.708740 0.000000 74.000000 0.699723 0.713802 -0.029566
4650.00000000 -11370.00000000 -590.00000000 99 5 203 0.000000 0.000000 0.000000 0.000000 -60.708740 0.000000 74.000000 0.591395 0.803324 -0.070166
4670.00000000 -11360.00000000 -610.00000000 99 5 203 0.000000 0.000000 0.000000 0.000000 -60.708740 0.000000 74.000000 0.097436 0.874096 -0.475881
4670.00000000 -11370.00000000 -630.00000000 99 5 203 0.000000 0.000000 0.000000 0.000000 -60.708740 0.000000 74.000000 0.328171 0.938971 -0.103139
4700.00000000 -11390.00000000 -650.00000000 99 5 203 0.000000 0.000000 0.000000 0.000000 -60.708740 0.000000 74.000000 -0.190908 0.980627 0.043873
4700.00000000 -11380.00000000 -640.00000000 99 5 203 0.000000 0.000000 0.000000 0.000000 -60.708740 0.000000 74.000000 -0.454553 0.845931 -0.278895
4700.00000000 -11380.00000000 -620.00000000 99 5 203 0.000000 0.000000 0.000000 0.000000 -60.708740 0.000000 74.000000 -0.411475 0.910071 -0.049591
4670.00000000 -11370.00000000 -640.00000000 99 5 203 0.000000 0.000000 0.000000 0.000000 -60.708740 0.000000 74.000000 -0.127657 0.965807 -0.225656
4670.00000000 -11370.00000000 -630.00000000 99 5 203 0.000000 0.000000 0.000000 0.000000 -60.708740 0.000000 74.000000 0.328171 0.938971 -0.103139
4690.00000000 -11390.00000000 -650.00000000 99 5 203 0.000000 0.000000 0.000000 0.000000 -60.708740 0.000000 74.000000 -0.165244 0.985683 0.033511
4680.00000000 -11390.00000000 -640.00000000 99 5 203 0.000000 0.000000 0.000000 0.000000 -60.708740 0.000000 74.000000 -0.081811 0.995916 0.038179
4670.00000000 -11380.00000000 -650.00000000 99 5 203 0.000000 0.000000 0.000000 0.000000 -60.708740 0.000000 74.000000 -0.112135 0.878628 -0.464154
4690.00000000 -11380.00000000 -620.00000000 99 5 203 0.000000 0.000000 0.000000 0.000000 -60.708740 0.000000 74.000000 -0.284458 0.949528 -0.132213
4670.00000000 -11380.00000000 -650.00000000 99 5 203 0.000000 0.000000 0.000000 0.000000 -60.708740 0.000000 74.000000 -0.112135 0.878628 -0.464154
4700.00000000 -11380.00000000 -650.00000000 99 5 203 0.000000 0.000000 0.000000 0.000000 -60.708740 0.000000 74.000000 0.059387 0.993893 -0.093002
4690.00000000 -11400.00000000 -630.00000000 99 5 203 0.000000 0.000000 0.000000 0.000000 -60.708740 0.000000 74.000000 -0.331187 0.941200 -0.066761
4690.00000000 -11380.00000000 -660.00000000 99 5 203 0.000000 0.000000 0.000000 0.000000 -60.708740 0.000000 74.000000 0.003791 0.933859 -0.357621
4670.00000000 -11390.00000000 -660.00000000 99 5 203 0.000000 0.000000 0.000000 0.000000 -60.708740 0.000000 74.000000 -0.312794 0.946235 -0.082452
4690.00000000 -11400.00000000 -680.00000000 99 5 203 0.000000 0.000000 0.000000 0.000000 -60.708740 0.000000 74.000000 0.092564 0.902151 -0.421372
4690.00000000 -11400.00000000 -690.00000000 99 5 203 0.000000 0.000000 0.000000 0.000000 -60.708740 0.000000 74.000000 -0.017527 0.999038 -0.040209
4640.00000000 -11340.00000000 -620.00000000 99 5 203 0.000000 0.000000 0.000000 0.000000 -60.708740 0.000000 74.000000 0.507291 0.857732 0.083371
4630.00000000 -11330.00000000 -610.00000000 99 5 203 0.000000 0.000000 0.000000 0.000000 -60.708740 0.000000 74.000000 0.662814 0.675778 -0.322494
4650.00000000 -11350.00000000 -610.00000000 99 5 203 0.000000 0.000000 0.000000 0.000000 -60.708740 0.000000 74.000000 0.580095 0.810406 0.082048
4640.00000000 -11340.00000000 -610.00000000 99 5 203 0.000000 0.000000 0.000000 0.000000 -60.708740 0.000000 74.000000 0.767362 0.639705 0.043971
4630.00000000 -11340.00000000 -620.00000000 99 5 203 0.000000 0.000000 0.000000 0.000000 -60.708740 0.000000 74.000000 0.438113 0.889069 -0.132718
4660.00000000 -11360.00000000 -660.00000000 99 5 203 0.000000 0.000000 0.000000 0.000000 -60.708740 0.000000 74.000000 0.140426 0.826299 -0.545446
4660.00000000 -11370.00000000 -630.00000000 99 5 203 0.000000 0.000000 0.000000 0.000000 -60.708740 0.000000 74.000000 0.144749 0.912061 -0.383656
4630.00000000 -11380.00000000 -620.00000000 99 5 203 0.000000 0.000000 0.000000 0.000000 -60.708740 0.000000 74.000000 0.425116 0.836115 -0.346682
4660.00000000 -11370.00000000 -630.00000000 99 5 203 0.000000 0.000000 0.000000 0.000000 -60.708740 0.000000 74.000000 0.144749 0.912061 -0.383656
4650.00000000 -11380.00000000 -650.00000000 99 5 203 0.000000 0.000000 0.000000 0.000000 -60.708740 0.000000 74.000000 0.215370 0.945157 -0.245549
4660.00000000 -11370.00000000 -640.00000000 99 5 203 0.000000 0.000000 0.000000 0.000000 -60.708740 0.000000 74.000000 0.071861 0.944651 -0.320110
4630.00000000 -11390.00000000 -680.00000000 99 5 203 0.000000 0.000000 0.000000 0.000000 -60.708740 0.000000 74.000000 0.348261 0.691617 -0.632756
4650.00000000 -11380.00000000 -660.00000000 99 5 203 0.000000 0.000000 0.000000 0.000000 -60.708740 0.000000 74.000000 0.272486 0.947601 -0.166745
4630.00000000 -11390.00000000 -680.00000000 99 5 203 0.000000 0.000000 0.000000 0.000000 -60.708740 0.000000 74.000000 0.348261 0.691617 -0.632756
4650.00000000 -11380.00000000 -690.00000000 99 5 203 0.000000 0.000000 0.000000 0.000000 -60.708740 0.000000 74.000000 0.144676 0.794971 -0.589144
4640.00000000 -11370.00000000 -690.00000000 99 5 203 0.000000 0.000000 0.000000 0.000000 -60.708740 0.000000 74.000000 0.524549 0.781208 -0.338470
4630.00000000 -11370.00000000 -660.00000000 99 5 203 0.000000 0.000000 0.000000 0.000000 -60.708740 0.000000 74.000000 0.532900 0.734181 -0.420710
4640.00000000 -11380.00000000 -660.00000000 99 5 203 0.000000 0.000000 0.000000 0.000000 -60.708740 0.000000 74.000000 0.094530 0.876166 -0.472650
4640.00000000 -11380.00000000 -660.00000000 99 5 203 0.000000 0.000000 0.000000 0.000000 -60.708740 0.000000 74.000000 0.094530 0.876166 -0.472650
4650.00000000 -11380.00000000 -660.00000000 99 5 203 0.000000 0.000000 0.000000 0.000000 -60.708740 0.000000 74.000000 0.272486 0.947601 -0.166745
4630.00000000 -11390.00000000 -680.00000000 99 5 203 0.000000 0.000000 0.000000 0.000000 -60.708740 0.000000 74.000000 0.348261 0.691617 -0.632756
4640.00000000 -11380.00000000 -660.00000000 99 5 203 0.000000 0.000000 0.000000 0.000000 -60.708740 0.000000 74.000000 0.094530 0.876166 -0.472650
4650.00000000 -11410.00000000 -670.00000000 99 5 203 0.000000 0.000000 0.000000 0.000000 -60.708740 0.000000 74.000000 0.109244 0.994010 0.003245
4660.00000000 -11430.00000000 -690.00000000 99 5 203 0.000000 0.000000 0.000000 0.000000 -60.708740 0.000000 74.000000 0.283127 0.948677 -0.140893
4650.00000000 -11410.00000000 -670.00000000 99 5 203 0.000000 0.000000 0.000000 0.000000 -60.708740 0.000000 74.000000 0.109244 0.994010 0.003245
4640.00000000 -11410.00000000 -690.00000000 99 5 203 0.000000 0.000000 0.000000 0.000000 -60.708740 0.000000 74.000000 0.408522 0.896438 -0.171781
4610.00000000 -11320.00000000 -540.00000000 99 5 203 0.000000 0.000000 0.000000 0.000000 -60.708740 0.000000 74.000000 0.916234 0.397611 0.049203
4610.00000000 -11350.00000000 -600.00000000 99 5 203 0.000000 0.000000 0.000000 0.000000 -60.708740 0.000000 74.000000 0.656152 0.685314 -0.315925
4600.00000000 -11330.00000000 -590.00000000 99 5 203 0.000000 0.000000 0.000000 0.000000 -60.708740 0.000000 74.000000 0.606882 0.689563 -0.395217
4600.00000000 -11320.00000000 -580.00000000 99 5 203 0.000000 0.000000 0.000000 0.000000 -60.708740 0.000000 74.000000 0.921095 0.215636 -0.324168
4610.00000000 -11350.00000000 -590.00000000 99 5 203 0.000000 0.000000 0.000000 0.000000 -60.708740 0.000000 74.000000 0.904079 0.354913 -0.238069
4610.00000000 -11330.00000000 -630.00000000 99 5 203 0.000000 0.000000 0.000000 0.000000 -60.708740 0.000000 74.000000 0.577642 0.772813 -0.262851
4610.00000000 -11360.00000000 -640.00000000 99 5 203 0.000000 0.000000 0.000000 0.000000 -60.708740 0.000000 74.000000 0.741106 0.671059 0.021014
4610.00000000 -11330.00000000 -620.00000000 99 5 203 0.000000 0.000000 0.000000 0.000000 -60.708740 0.000000 74.000000 0.638526 0.547549 -0.540810
4610.00000000 -11330.00000000 -620.00000000 99 5 203 0.000000 0.000000 0.000000 0.000000 -60.708740 0.000000 74.000000 0.638526 0.547549 -0.540810
4600.00000000 -11320.00000000 -640.00000000 99 5 203 0.000000 0.000000 0.000000 0.000000 -60.708740 0.000000 74.000000 0.734042 0.676807 -0.055804
4620.00000000 -11330.00000000 -630.00000000 99 5 203 0.000000 0.000000 0.000000 0.000000 -60.708740 0.000000 74.000000 0.606177 0.792473 -0.067353
4610.00000000 -11360.00000000 -620.00000000 99 5 203 0.000000 0.000000 0.000000 0.000000 -60.708740 0.000000 74.000000 0.747110 0.636199 -0.192554
4620.00000000 -11360.00000000 -630.00000000 99 5 203 0.000000 0.000000 0.000000 0.000000 -60.708740 0.000000 74.000000 0.446472 0.891562 -0.076025
4610.00000000 -11360.00000000 -620.00000000 99 5 203 0.000000 0.000000 0.000000 0.000000 -60.708740 0.000000 74.000000 0.747110 0.636199 -0.192554
4590.00000000 -11360.00000000 -650.00000000 99 5 203 0.000000 0.000000 0.000000 0.000000 -60.708740 0.000000 74.000000 0.687163 0.427605 -0.587333
4600.00000000 -11320.00000000 -640.00000000 99 5 203 0.000000 0.000000 0.000000 0.000000 -60.708740 0.000000 74.000000 0.734042 0.676807 -0.055804
4620.00000000 -11360.00000000 -690.00000000 99 5 203 0.000000 0.000000 0.000000 0.000000 -60.708740 0.000000 74.000000 0.495890 0.841648 -0.213824
4610.00000000 -11340.00000000 -670.00000000 99 5 203 0.000000 0.000000 0.000000 0.000000 -60.708740 0.000000 74.000000 0.542798 0.573235 -0.613818
4610.00000000 -11320.00000000 -690.00000000 99 5 203 0.000000 0.000000 0.000000 0.000000 -60.708740 0.000000 74.000000 0.945500 -0.016323 -0.325212
4610.00000000 -11340.00000000 -660.00000000 99 5 203 0.000000 0.000000 0.000000 0.000000 -60.708740 0.000000 74.000000 0.698426 0.669919 -0.251813
4600.00000000 -11320.00000000 -670.00000000 99 5 203 0.000000 0.000000 0.000000 0.000000 -60.708740 0.000000 74.000000 0.844099 0.389946 -0.368021
4620.00000000 -11380.00000000 -640.00000000 99 5 203 0.000000 0.000000 0.000000 0.000000 -60.708740 0.000000 74.000000 0.200757 0.940098 -0.275522
4590.00000000 -11380.00000000 -650.00000000 99 5 203 0.000000 0.000000 0.000000 0.000000 -60.708740 0.000000 74.000000 0.801482 0.441698 -0.403150
4620.00000000 -11380.00000000 -620.00000000 99 5 203 0.000000 0.000000 0.000000 0.000000 -60.708740 0.000000 74.000000 0.397032 0.779478 -0.484541
4610.00000000 -11370.00000000 -620.00000000 99 5 203 0.000000 0.000000 0.000000 0.000000 -60.708740 0.000000 74.000000 0.796835 0.562563 -0.220401
4620.00000000 -11370.00000000 -660.00000000 99 5 203 0.000000 0.000000 0.000000 0.000000 -60.708740 0.000000 74.000000 0.336820 0.714318 -0.613435
4600.00000000 -11390.00000000 -690.00000000 99 5 203 0.000000 0.000000 0.000000 0.000000 -60.708740 0.000000 74.000000 0.390822 0.899327 -0.196137
4620.00000000 -11370.00000000 -670.00000000 99 5 203 0.000000 0.000000 0.000000 0.000000 -60.708740 0.000000 74.000000 0.224975 0.957144 -0.182377
4590.00000000 -11390.00000000 -690.00000000 99 5 203 0.000000 0.000000 0.000000 0.000000 -60.708740 0.000000 74.000000 0.665979 0.688446 -0.287254
4600.00000000 -11390.00000000 -690.00000000 99 5 203 0.000000 0.000000 0.000000 0.000000 -60.708740 0.000000 74.000000 0.390822 0.899327 -0.196137
4610.00000000 -11390.00000000 -680.00000000 99 5 203 0.000000 0.000000 0.000000 0.000000 -60.708740 0.000000 74.000000 0.420468 0.810559 -0.407678
4590.00000000 -11380.00000000 -680.00000000 99 5 203 0.000000 0.000000 0.000000 0.000000 -60.708740 0.000000 74.000000 0.768801 0.458669 -0.445611
4600.00000000 -11380.00000000 -680.00000000 99 5 203 0.000000 0.000000 0.000000 0.000000 -60.708740 0.000000 74.000000 0.660470 0.459821 -0.593587
4580.00000000 -11330.00000000 -640.00000000 99 5 203 0.000000 0.000000 0.000000 0.000000 -60.708740 0.000000 74.000000 0.841029 0.130177 -0.525095
4580.00000000 -11340.00000000 -670.00000000 99 5 203 0.000000 0.000000 0.000000 0.000000 -60.708740 0.000000 74.000000 0.770896 0.578566 -0.266424
4580.00000000 -11360.00000000 -680.00000000 99 5 203 0.000000 0.000000 0.000000 0.000000 -60.708740 0.000000 74.000000 0.847307 0.531087 -0.004054
4580.00000000 -11340.00000000 -670.00000000 99 5 203 0.000000 0.000000 0.000000 0.000000 -60.708740 0.000000 74.000000 0.770896 0.578566 -0.266424
4580.00000000 -11330.00000000 -680.00000000 99 5 203 0.000000 0.000000 0.000000 0.000000 -60.708740 0.000000 74.000000 0.909078 0.408744 -0.080655
4570.00000000 -11330.00000000 -690.00000000 99 5 203 0.000000 0.000000 0.000000 0.000000 -60.708740 0.000000 74.000000 0.985398 0.079448 -0.150596
4580.00000000 -11340.00000000 -680.00000000 99 5 203 0.000000 0.000000 0.000000 0.000000 -60.708740 0.000000 74.000000 0.610227 0.767011 -0.198285
4580.00000000 -11360.00000000 -670.00000000 99 5 203 0.000000 0.000000 0.000000 0.000000 -60.708740 0.000000 74.000000 0.943252 0.238920 -0.230634
4580.00000000 -11360.00000000 -680.00000000 99 5 203 0.000000 0.000000 0.000000 0.000000 -60.708740 0.000000 74.000000 0.847307 0.531087 -0.004054
4570.00000000 -11330.00000000 -690.00000000 99 5 203 0.000000 0.000000 0.000000 0.000000 -60.708740 0.000000 74.000000 0.985398 0.079448 -0.150596
4570.00000000 -11370.00000000 -690.00000000 99 5 203 0.000000 0.000000 0.000000 0.000000 -60.708740 0.000000 74.000000 0.535563 0.702406 -0.468827
4540.00000000 -11270.00000000 -660.00000000 99 5 203 0.000000 0.000000 0.000000 0.000000 -60.708740 0.000000 74.000000 0.899956 -0.433112 -0.049923
4780.00000000 -11170.00000000 -720.00000000 99 5 203 0.000000 0.000000 0.000000 0.000000 -60.708740 0.000000 74.000000 0.717161 0.687465 0.114330
4760.00000000 -11200.00000000 -710.00000000 99 5 203 0.000000 0.000000 0.000000 0.000000 -60.708740 0.000000 74.000000 0.844699 0.416885 -0.335694
