//X Y Z R G B PointSourceId ScanDirectionFlag NumberOfReturns ReturnNumber GpsTime Intensity Classification Nx Ny Nz
-6760.00000000 6330.00000000 320.00000000 207 24 140 97.000000 1.000000 4.000000 1.000000 -60.708740 114.000000 146.000000 0.921400 0.286051 -0.263052
-6780.00000000 6350.00000000 350.00000000 207 24 140 97.000000 1.000000 4.000000 1.000000 -60.708740 114.000000 146.000000 0.998853 -0.042615 -0.021827
-6780.00000000 6350.00000000 350.00000000 207 24 140 97.000000 1.000000 4.000000 1.000000 -60.708740 114.000000 146.000000 0.998853 -0.042615 -0.021827
-6780.00000000 6330.00000000 340.00000000 207 24 140 97.000000 1.000000 4.000000 1.000000 -60.708740 114.000000 146.000000 0.990769 0.135556 -0.001102
-6780.00000000 6330.00000000 340.00000000 207 24 140 97.000000 1.000000 4.000000 1.000000 -60.708740 114.000000 146.000000 0.990769 0.135556 -0.001102
-6760.00000000 6340.00000000 320.00000000 207 24 140 97.000000 1.000000 4.000000 1.000000 -60.708740 114.000000 146.000000 0.995622 0.051592 -0.077937
-6750.00000000 6330.00000000 320.00000000 207 24 140 97.000000 1.000000 4.000000 1.000000 -60.708740 114.000000 146.000000 0.960364 0.232537 -0.153711
-6770.00000000 6340.00000000 340.00000000 207 24 140 97.000000 1.000000 4.000000 1.000000 -60.708740 114.000000 146.000000 0.827807 0.512598 0.227991
-6780.00000000 6340.00000000 350.00000000 207 24 140 97.000000 1.000000 4.000000 1.000000 -60.708740 114.000000 146.000000 0.990130 0.058513 0.127352
-6770.00000000 6350.00000000 340.00000000 207 24 140 97.000000 1.000000 4.000000 1.000000 -60.708740 114.000000 146.000000 0.997923 0.034996 -0.054085
-6760.00000000 6360.00000000 320.00000000 207 24 140 97.000000 1.000000 4.000000 1.000000 -60.708740 114.000000 146.000000 0.917964 0.137903 0.371922
-6750.00000000 6350.00000000 330.00000000 207 24 140 97.000000 1.000000 4.000000 1.000000 -60.708740 114.000000 146.000000 0.987754 0.052109 -0.147063
-6770.00000000 6320.00000000 390.00000000 207 24 140 97.000000 1.000000 4.000000 1.000000 -60.708740 114.000000 146.000000 0.984498 0.131026 -0.116601
-6780.00000000 6320.00000000 370.00000000 207 24 140 97.000000 1.000000 4.000000 1.000000 -60.708740 114.000000 146.000000 0.973185 0.153527 -0.171291
-6770.00000000 6310.00000000 370.00000000 207 24 140 97.000000 1.000000 4.000000 1.000000 -60.708740 114.000000 146.000000 0.910683 0.412755 0.017034
-6760.00000000 6310.00000000 350.00000000 207 24 140 97.000000 1.000000 4.000000 1.000000 -60.708740 114.000000 146.000000 0.941763 0.261370 0.211585
-6750.00000000 6300.00000000 340.00000000 207 24 140 97.000000 1.000000 4.000000 1.000000 -60.708740 114.000000 146.000000 0.779700 0.609094 -0.145165
-6760.00000000 6300.00000000 350.00000000 207 24 140 97.000000 1.000000 4.000000 1.000000 -60.708740 114.000000 146.000000 0.914756 0.397072 -0.074536
-6760.00000000 6290.00000000 330.00000000 207 24 140 97.000000 1.000000 4.000000 1.000000 -60.708740 114.000000 146.000000 0.864793 0.419432 0.276063
-6760.00000000 6320.00000000 350.00000000 207 24 140 97.000000 1.000000 4.000000 1.000000 -60.708740 114.000000 146.000000 0.954372 0.111584 0.276991
-6760.00000000 6300.00000000 320.00000000 207 24 140 97.000000 1.000000 4.000000 1.000000 -60.708740 114.000000 146.000000 0.835847 0.503944 -0.217716
-6780.00000000 6320.00000000 340.00000000 207 24 140 97.000000 1.000000 4.000000 1.000000 -60.708740 114.000000 146.000000 0.896895 0.431012 -0.099035
-6760.00000000 6310.00000000 340.00000000 207 24 140 97.000000 1.000000 4.000000 1.000000 -60.708740 114.000000 146.000000 0.965769 0.230190 -0.119596
-6770.00000000 6320.00000000 350.00000000 207 24 140 97.000000 1.000000 4.000000 1.000000 -60.708740 114.000000 146.000000 0.758429 0.561978 0.330102
-6800.00000000 6360.00000000 380.00000000 207 24 140 97.000000 1.000000 4.000000 1.000000 -60.708740 114.000000 146.000000 0.956066 0.062380 0.286438
-6790.00000000 6330.00000000 360.00000000 207 24 140 97.000000 1.000000 4.000000 1.000000 -60.708740 114.000000 146.000000 0.945807 0.052759 -0.320416
-6790.00000000 6340.00000000 390.00000000 207 24 140 97.000000 1.000000 4.000000 1.000000 -60.708740 114.000000 146.000000 0.902381 0.430890 0.006548
-6800.00000000 6340.00000000 350.00000000 207 24 140 97.000000 1.000000 4.000000 1.000000 -60.708740 114.000000 146.000000 0.895679 0.444542 0.011872
-6790.00000000 6310.00000000 400.00000000 207 24 140 97.000000 1.000000 4.000000 1.000000 -60.708740 114.000000 146.000000 0.838683 0.515768 -0.174913
-6800.00000000 6310.00000000 360.00000000 207 24 140 97.000000 1.000000 4.000000 1.000000 -60.708740 114.000000 146.000000 0.970129 0.075966 -0.230390
-6790.00000000 6320.00000000 350.00000000 207 24 140 97.000000 1.000000 4.000000 1.000000 -60.708740 114.000000 146.000000 0.968503 0.003574 0.248976
-6750.00000000 6270.00000000 460.00000000 207 24 140 97.000000 1.000000 4.000000 1.000000 -60.708740 114.000000 146.000000 0.730964 0.664375 -0.155878
-6780.00000000 6280.00000000 480.00000000 207 24 140 97.000000 1.000000 4.000000 1.000000 -60.708740 114.000000 146.000000 0.812563 0.497004 0.304514
-6760.00000000 6280.00000000 440.00000000 207 24 140 97.000000 1.000000 4.000000 1.000000 -60.708740 114.000000 146.000000 0.501868 0.813373 0.294199
-6770.00000000 6270.00000000 410.00000000 207 24 140 97.000000 1.000000 4.000000 1.000000 -60.708740 114.000000 146.000000 0.509184 0.769470 -0.385548
-6760.00000000 6280.00000000 440.00000000 207 24 140 97.000000 1.000000 4.000000 1.000000 -60.708740 114.000000 146.000000 0.501868 0.813373 0.294199
-6780.00000000 6270.00000000 410.00000000 207 24 140 97.000000 1.000000 4.000000 1.000000 -60.708740 114.000000 146.000000 0.706752 0.662481 -0.248233
-6770.00000000 6280.00000000 430.00000000 207 24 140 97.000000 1.000000 4.000000 1.000000 -60.708740 114.000000 146.000000 0.591008 0.806665 0.001365
-6760.00000000 6270.00000000 410.00000000 207 24 140 97.000000 1.000000 4.000000 1.000000 -60.708740 114.000000 146.000000 0.336930 0.908690 -0.246498
-6770.00000000 6280.00000000 440.00000000 207 24 140 97.000000 1.000000 4.000000 1.000000 -60.708740 114.000000 146.000000 0.516030 0.854457 0.060134
-6760.00000000 6280.00000000 360.00000000 207 24 140 97.000000 1.000000 4.000000 1.000000 -60.708740 114.000000 146.000000 0.864284 0.476897 0.159944
-6770.00000000 6280.00000000 370.00000000 207 24 140 97.000000 1.000000 4.000000 1.000000 -60.708740 114.000000 146.000000 0.502288 0.844144 0.187421
-6780.00000000 6280.00000000 390.00000000 207 24 140 97.000000 1.000000 4.000000 1.000000 -60.708740 114.000000 146.000000 0.717818 0.691610 0.080081
-6760.00000000 6280.00000000 360.00000000 207 24 140 97.000000 1.000000 4.000000 1.000000 -60.708740 114.000000 146.000000 0.864284 0.476897 0.159944
-6780.00000000 6280.00000000 350.00000000 207 24 140 97.000000 1.000000 4.000000 1.000000 -60.708740 114.000000 146.000000 0.670742 0.686750 0.280143
-6750.00000000 6260.00000000 330.00000000 207 24 140 97.000000 1.000000 4.000000 1.000000 -60.708740 114.000000 146.000000 0.434005 0.869512 0.235774
-6780.00000000 6280.00000000 320.00000000 207 24 140 97.000000 1.000000 4.000000 1.000000 -60.708740 114.000000 146.000000 0.874888 0.351477 0.333218
-6750.00000000 6280.00000000 350.00000000 207 24 140 97.000000 1.000000 4.000000 1.000000 -60.708740 114.000000 146.000000 0.860908 0.507785 -0.031480
-6750.00000000 6270.00000000 350.00000000 207 24 140 97.000000 1.000000 4.000000 1.000000 -60.708740 114.000000 146.000000 0.478935 0.780907 -0.401006
-6760.00000000 6340.00000000 310.00000000 207 24 140 97.000000 1.000000 4.000000 1.000000 -60.708740 114.000000 146.000000 0.976889 -0.191426 -0.095095
-6760.00000000 6350.00000000 300.00000000 207 24 140 97.000000 1.000000 4.000000 1.000000 -60.708740 114.000000 146.000000 0.983168 -0.141838 0.115168
-6780.00000000 6350.00000000 280.00000000 207 24 140 97.000000 1.000000 4.000000 1.000000 -60.708740 114.000000 146.000000 0.940921 -0.042477 0.335951
-6780.00000000 6340.00000000 300.00000000 207 24 140 97.000000 1.000000 4.000000 1.000000 -60.708740 114.000000 146.000000 0.990210 0.100994 -0.096351
-6760.00000000 6350.00000000 300.00000000 207 24 140 97.000000 1.000000 4.000000 1.000000 -60.708740 114.000000 146.000000 0.983168 -0.141838 0.115168
-6760.00000000 6340.00000000 290.00000000 207 24 140 97.000000 1.000000 4.000000 1.000000 -60.708740 114.000000 146.000000 0.972232 -0.057623 0.226813
-6770.00000000 6330.00000000 310.00000000 207 24 140 97.000000 1.000000 4.000000 1.000000 -60.708740 114.000000 146.000000 0.990610 -0.132157 -0.035016
-6780.00000000 6350.00000000 280.00000000 207 24 140 97.000000 1.000000 4.000000 1.000000 -60.708740 114.000000 146.000000 0.940921 -0.042477 0.335951
-6770.00000000 6330.00000000 310.00000000 207 24 140 97.000000 1.000000 4.000000 1.000000 -60.708740 114.000000 146.000000 0.990610 -0.132157 -0.035016
-6780.00000000 6350.00000000 300.00000000 207 24 140 97.000000 1.000000 4.000000 1.000000 -60.708740 114.000000 146.000000 0.932160 0.353394 0.078680
-6750.00000000 6360.00000000 280.00000000 207 24 140 97.000000 1.000000 4.000000 1.000000 -60.708740 114.000000 146.000000 0.833408 -0.398586 0.382832
-6760.00000000 6340.00000000 240.00000000 207 24 140 97.000000 1.000000 4.000000 1.000000 -60.708740 114.000000 146.000000 0.992576 -0.117233 0.032379
-6760.00000000 6340.00000000 240.00000000 207 24 140 97.000000 1.000000 4.000000 1.000000 -60.708740 114.000000 146.000000 0.992576 -0.117233 0.032379
-6750.00000000 6330.00000000 250.00000000 207 24 140 97.000000 1.000000 4.000000 1.000000 -60.708740 114.000000 146.000000 0.922009 0.387064 -0.009001
-6760.00000000 6330.00000000 250.00000000 207 24 140 97.000000 1.000000 4.000000 1.000000 -60.708740 114.000000 146.000000 0.913554 0.217239 0.343841
-6760.00000000 6320.00000000 290.00000000 207 24 140 97.000000 1.000000 4.000000 1.000000 -60.708740 114.000000 146.000000 0.946704 0.239759 0.215098
-6770.00000000 6320.00000000 290.00000000 207 24 140 97.000000 1.000000 4.000000 1.000000 -60.708740 114.000000 146.000000 0.925004 0.305493 -0.225923
-6760.00000000 6300.00000000 280.00000000 207 24 140 97.000000 1.000000 4.000000 1.000000 -60.708740 114.000000 146.000000 0.883087 0.432025 -0.183061
-6760.00000000 6300.00000000 310.00000000 207 24 140 97.000000 1.000000 4.000000 1.000000 -60.708740 114.000000 146.000000 0.978808 0.198163 0.051643
-6760.00000000 6300.00000000 310.00000000 207 24 140 97.000000 1.000000 4.000000 1.000000 -60.708740 114.000000 146.000000 0.978808 0.198163 0.051643
-6770.00000000 6320.00000000 290.00000000 207 24 140 97.000000 1.000000 4.000000 1.000000 -60.708740 114.000000 146.000000 0.925004 0.305493 -0.225923
-6770.00000000 6300.00000000 310.00000000 207 24 140 97.000000 1.000000 4.000000 1.000000 -60.708740 114.000000 146.000000 0.723615 0.685911 -0.076857
-6780.00000000 6320.00000000 240.00000000 207 24 140 97.000000 1.000000 4.000000 1.000000 -60.708740 114.000000 146.000000 0.853842 0.268263 0.446082
-6760.00000000 6300.00000000 270.00000000 207 24 140 97.000000 1.000000 4.000000 1.000000 -60.708740 114.000000 146.000000 0.937463 0.308827 -0.160590
-6770.00000000 6320.00000000 250.00000000 207 24 140 97.000000 1.000000 4.000000 1.000000 -60.708740 114.000000 146.000000 0.970270 0.236741 0.050292
-6780.00000000 6320.00000000 270.00000000 207 24 140 97.000000 1.000000 4.000000 1.000000 -60.708740 114.000000 146.000000 0.947077 0.319907 0.026554
-6750.00000000 6290.00000000 240.00000000 207 24 140 97.000000 1.000000 4.000000 1.000000 -60.708740 114.000000 146.000000 0.853175 0.521609 -0.004043
-6760.00000000 6300.00000000 240.00000000 207 24 140 97.000000 1.000000 4.000000 1.000000 -60.708740 114.000000 146.000000 0.873148 0.484163 0.056555
-6770.00000000 6310.00000000 240.00000000 207 24 140 97.000000 1.000000 4.000000 1.000000 -60.708740 114.000000 146.000000 0.836939 0.409833 0.362726
-6760.00000000 6300.00000000 240.00000000 207 24 140 97.000000 1.000000 4.000000 1.000000 -60.708740 114.000000 146.000000 0.873148 0.484163 0.056555
-6790.00000000 6350.00000000 280.00000000 207 24 140 97.000000 1.000000 4.000000 1.000000 -60.708740 114.000000 146.000000 0.906652 -0.295360 0.301238
-6790.00000000 6350.00000000 310.00000000 207 24 140 97.000000 1.000000 4.000000 1.000000 -60.708740 114.000000 146.000000 0.928996 -0.090076 0.358961
-6790.00000000 6360.00000000 290.00000000 207 24 140 97.000000 1.000000 4.000000 1.000000 -60.708740 114.000000 146.000000 0.987491 -0.088274 -0.130645
-6790.00000000 6360.00000000 260.00000000 207 24 140 97.000000 1.000000 4.000000 1.000000 -60.708740 114.000000 146.000000 0.965722 0.257116 -0.035676
-6750.00000000 6360.00000000 220.00000000 207 24 140 97.000000 1.000000 4.000000 1.000000 -60.708740 114.000000 146.000000 0.992997 -0.029956 0.114278
-6750.00000000 6360.00000000 230.00000000 207 24 140 97.000000 1.000000 4.000000 1.000000 -60.708740 114.000000 146.000000 0.868407 -0.430428 0.246174
-6750.00000000 6350.00000000 200.00000000 207 24 140 97.000000 1.000000 4.000000 1.000000 -60.708740 114.000000 146.000000 0.893323 -0.308711 0.326607
-6770.00000000 6350.00000000 200.00000000 207 24 140 97.000000 1.000000 4.000000 1.000000 -60.708740 114.000000 146.000000 0.999371 0.001013 -0.035439
-6760.00000000 6350.00000000 230.00000000 207 24 140 97.000000 1.000000 4.000000 1.000000 -60.708740 114.000000 146.000000 0.931994 -0.223510 0.285362
-6750.00000000 6360.00000000 230.00000000 207 24 140 97.000000 1.000000 4.000000 1.000000 -60.708740 114.000000 146.000000 0.868407 -0.430428 0.246174
-6760.00000000 6330.00000000 220.00000000 207 24 140 97.000000 1.000000 4.000000 1.000000 -60.708740 114.000000 146.000000 0.992678 -0.116982 0.030081
-6780.00000000 6350.00000000 210.00000000 207 24 140 97.000000 1.000000 4.000000 1.000000 -60.708740 114.000000 146.000000 0.986110 0.040557 0.161068
-6770.00000000 6350.00000000 170.00000000 207 24 140 97.000000 1.000000 4.000000 1.000000 -60.708740 114.000000 146.000000 0.995266 -0.071960 0.065318
-6770.00000000 6350.00000000 180.00000000 207 24 140 97.000000 1.000000 4.000000 1.000000 -60.708740 114.000000 146.000000 0.987550 -0.107625 0.114721
-6770.00000000 6330.00000000 160.00000000 207 24 140 97.000000 1.000000 4.000000 1.000000 -60.708740 114.000000 146.000000 0.957867 -0.023544 -0.286245
-6770.00000000 6330.00000000 160.00000000 207 24 140 97.000000 1.000000 4.000000 1.000000 -60.708740 114.000000 146.000000 0.957867 -0.023544 -0.286245
-6770.00000000 6340.00000000 150.00000000 207 24 140 97.000000 1.000000 4.000000 1.000000 -60.708740 114.000000 146.000000 0.982418 -0.078161 -0.169548
-6750.00000000 6330.00000000 170.00000000 207 24 140 97.000000 1.000000 4.000000 1.000000 -60.708740 114.000000 146.000000 0.984141 -0.043298 0.172020
-6760.00000000 6340.00000000 160.00000000 207 24 140 97.000000 1.000000 4.000000 1.000000 -60.708740 114.000000 146.000000 0.968970 -0.226135 0.099803
-6780.00000000 6310.00000000 200.00000000 207 24 140 97.000000 1.000000 4.000000 1.000000 -60.708740 114.000000 146.000000 0.967134 0.111150 -0.228688
-6760.00000000 6290.00000000 220.00000000 207 24 140 97.000000 1.000000 4.000000 1.000000 -60.708740 114.000000 146.000000 0.741481 0.657596 -0.133317
-6770.00000000 6300.00000000 210.00000000 207 24 140 97.000000 1.000000 4.000000 1.000000 -60.708740 114.000000 146.000000 0.970981 0.219821 -0.094209
-6750.00000000 6290.00000000 230.00000000 207 24 140 97.000000 1.000000 4.000000 1.000000 -60.708740 114.000000 146.000000 0.874806 0.468186 0.124563
-6770.00000000 6300.00000000 230.00000000 207 24 140 97.000000 1.000000 4.000000 1.000000 -60.708740 114.000000 146.000000 0.889646 0.337555 -0.307550
-6760.00000000 6290.00000000 230.00000000 207 24 140 97.000000 1.000000 4.000000 1.000000 -60.708740 114.000000 146.000000 0.678190 0.671747 -0.298017
-6770.00000000 6290.00000000 230.00000000 207 24 140 97.000000 1.000000 4.000000 1.000000 -60.708740 114.000000 146.000000 0.913696 0.250506 -0.320011
-6760.00000000 6320.00000000 220.00000000 207 24 140 97.000000 1.000000 4.000000 1.000000 -60.708740 114.000000 146.000000 0.944617 0.302331 -0.127651
-6750.00000000 6320.00000000 220.00000000 207 24 140 97.000000 1.000000 4.000000 1.000000 -60.708740 114.000000 146.000000 0.879852 0.400205 -0.256311
-6750.00000000 6290.00000000 200.00000000 207 24 140 97.000000 1.000000 4.000000 1.000000 -60.708740 114.000000 146.000000 0.744029 0.662171 0.089167
-6760.00000000 6320.00000000 160.00000000 207 24 140 97.000000 1.000000 4.000000 1.000000 -60.708740 114.000000 146.000000 0.900250 0.434922 0.019829
-6760.00000000 6310.00000000 160.00000000 207 24 140 97.000000 1.000000 4.000000 1.000000 -60.708740 114.000000 146.000000 0.986788 0.160852 -0.019394
-6760.00000000 6320.00000000 150.00000000 207 24 140 97.000000 1.000000 4.000000 1.000000 -60.708740 114.000000 146.000000 0.862545 0.282426 0.419823
-6760.00000000 6320.00000000 150.00000000 207 24 140 97.000000 1.000000 4.000000 1.000000 -60.708740 114.000000 146.000000 0.862545 0.282426 0.419823
-6780.00000000 6320.00000000 160.00000000 207 24 140 97.000000 1.000000 4.000000 1.000000 -60.708740 114.000000 146.000000 0.973700 0.175544 -0.145234
-6750.00000000 6260.00000000 310.00000000 207 24 140 97.000000 1.000000 4.000000 1.000000 -60.708740 114.000000 146.000000 0.695289 0.602804 -0.391410
-6780.00000000 6280.00000000 310.00000000 207 24 140 97.000000 1.000000 4.000000 1.000000 -60.708740 114.000000 146.000000 0.873225 0.464851 0.146261
-6750.00000000 6260.00000000 310.00000000 207 24 140 97.000000 1.000000 4.000000 1.000000 -60.708740 114.000000 146.000000 0.695289 0.602804 -0.391410
-6750.00000000 6270.00000000 260.00000000 207 24 140 97.000000 1.000000 4.000000 1.000000 -60.708740 114.000000 146.000000 0.636853 0.761551 0.120245
-6750.00000000 6270.00000000 250.00000000 207 24 140 97.000000 1.000000 4.000000 1.000000 -60.708740 114.000000 146.000000 0.746336 0.620637 0.240399
-6750.00000000 6260.00000000 200.00000000 207 24 140 97.000000 1.000000 4.000000 1.000000 -60.708740 114.000000 146.000000 0.613570 0.679723 -0.401880
-6760.00000000 6270.00000000 230.00000000 207 24 140 97.000000 1.000000 4.000000 1.000000 -60.708740 114.000000 146.000000 0.681189 0.714566 0.159298
-6750.00000000 6260.00000000 210.00000000 207 24 140 97.000000 1.000000 4.000000 1.000000 -60.708740 114.000000 146.000000 0.825125 0.416522 -0.381680
-6750.00000000 6260.00000000 200.00000000 207 24 140 97.000000 1.000000 4.000000 1.000000 -60.708740 114.000000 146.000000 0.613570 0.679723 -0.401880
-6770.00000000 6280.00000000 210.00000000 207 24 140 97.000000 1.000000 4.000000 1.000000 -60.708740 114.000000 146.000000 0.767460 0.506752 -0.392692
-6750.00000000 6280.00000000 160.00000000 207 24 140 97.000000 1.000000 4.000000 1.000000 -60.708740 114.000000 146.000000 0.837337 0.537567 -0.099443
-6760.00000000 6260.00000000 190.00000000 207 24 140 97.000000 1.000000 4.000000 1.000000 -60.708740 114.000000 146.000000 0.707106 0.685725 -0.172577
-6760.00000000 6280.00000000 150.00000000 207 24 140 97.000000 1.000000 4.000000 1.000000 -60.708740 114.000000 146.000000 0.655321 0.752830 0.061660
-6770.00000000 6360.00000000 120.00000000 207 24 140 97.000000 1.000000 4.000000 1.000000 -60.708740 114.000000 146.000000 0.847987 -0.285752 0.446390
-6760.00000000 6350.00000000 110.00000000 207 24 140 97.000000 1.000000 4.000000 1.000000 -60.708740 114.000000 146.000000 0.869253 -0.344942 0.354140
-6750.00000000 6330.00000000 130.00000000 207 24 140 97.000000 1.000000 4.000000 1.000000 -60.708740 114.000000 146.000000 0.984876 -0.062513 0.161590
-6770.00000000 6360.00000000 120.00000000 207 24 140 97.000000 1.000000 4.000000 1.000000 -60.708740 114.000000 146.000000 0.847987 -0.285752 0.446390
-6760.00000000 6350.00000000 120.00000000 207 24 140 97.000000 1.000000 4.000000 1.000000 -60.708740 114.000000 146.000000 0.999081 -0.034165 -0.025883
-6770.00000000 6330.00000000 80.00000000 207 24 140 97.000000 1.000000 4.000000 1.000000 -60.708740 114.000000 146.000000 0.978585 -0.017579 0.205093
-6770.00000000 6340.00000000 70.00000000 207 24 140 97.000000 1.000000 4.000000 1.000000 -60.708740 114.000000 146.000000 0.980579 0.164855 0.106240
-6760.00000000 6340.00000000 100.00000000 207 24 140 97.000000 1.000000 4.000000 1.000000 -60.708740 114.000000 146.000000 0.919824 -0.051765 0.388901
-6760.00000000 6320.00000000 140.00000000 207 24 140 97.000000 1.000000 4.000000 1.000000 -60.708740 114.000000 146.000000 0.991259 0.046448 0.123483
-6760.00000000 6320.00000000 70.00000000 207 24 140 97.000000 1.000000 4.000000 1.000000 -60.708740 114.000000 146.000000 0.980378 0.114112 0.160738
-6750.00000000 6360.00000000 60.00000000 207 24 140 97.000000 1.000000 4.000000 1.000000 -60.708740 114.000000 146.000000 0.923832 -0.051544 0.379313
-6750.00000000 6360.00000000 40.00000000 207 24 140 97.000000 1.000000 4.000000 1.000000 -60.708740 114.000000 146.000000 0.974786 -0.179864 0.132068
-6760.00000000 6330.00000000 30.00000000 207 24 140 97.000000 1.000000 4.000000 1.000000 -60.708740 114.000000 146.000000 0.954596 -0.147372 -0.258896
-6750.00000000 6350.00000000 50.00000000 207 24 140 97.000000 1.000000 4.000000 1.000000 -60.708740 114.000000 146.000000 0.936812 -0.184041 0.297510
-6750.00000000 6350.00000000 30.00000000 207 24 140 97.000000 1.000000 4.000000 1.000000 -60.708740 114.000000 146.000000 0.973519 -0.214001 -0.080405
-6750.00000000 6350.00000000 30.00000000 207 24 140 97.000000 1.000000 4.000000 1.000000 -60.708740 114.000000 146.000000 0.973519 -0.214001 -0.080405
-6750.00000000 6350.00000000 30.00000000 207 24 140 97.000000 1.000000 4.000000 1.000000 -60.708740 114.000000 146.000000 0.973519 -0.214001 -0.080405
-6760.00000000 6330.00000000 50.00000000 207 24 140 97.000000 1.000000 4.000000 1.000000 -60.708740 114.000000 146.000000 0.919688 0.057397 0.388431
-6760.00000000 6360.00000000 0.00000000 207 24 140 97.000000 1.000000 4.000000 1.000000 -60.708740 114.000000 146.000000 0.948626 -0.263883 -0.174569
-6780.00000000 6330.00000000 -10.00000000 207 24 140 97.000000 1.000000 4.000000 1.000000 -60.708740 114.000000 146.000000 0.970337 0.017991 -0.241085
-6750.00000000 6340.00000000 -10.00000000 207 24 140 97.000000 1.000000 4.000000 1.000000 -60.708740 114.000000 146.000000 0.997743 -0.062558 -0.024387
-6750.00000000 6360.00000000 10.00000000 207 24 140 97.000000 1.000000 4.000000 1.000000 -60.708740 114.000000 146.000000 0.950508 -0.223729 -0.215593
-6750.00000000 6320.00000000 40.00000000 207 24 140 97.000000 1.000000 4.000000 1.000000 -60.708740 114.000000 146.000000 0.991551 0.129333 -0.009949
-6750.00000000 6320.00000000 30.00000000 207 24 140 97.000000 1.000000 4.000000 1.000000 -60.708740 114.000000 146.000000 0.944407 -0.085616 -0.317437
-6770.00000000 6310.00000000 60.00000000 207 24 140 97.000000 1.000000 4.000000 1.000000 -60.708740 114.000000 146.000000 0.950104 0.011178 -0.311733
-6750.00000000 6320.00000000 30.00000000 207 24 140 97.000000 1.000000 4.000000 1.000000 -60.708740 114.000000 146.000000 0.944407 -0.085616 -0.317437
-6750.00000000 6290.00000000 20.00000000 207 24 140 97.000000 1.000000 4.000000 1.000000 -60.708740 114.000000 146.000000 0.911590 0.395439 -0.112388
-6760.00000000 6310.00000000 20.00000000 207 24 140 97.000000 1.000000 4.000000 1.000000 -60.708740 114.000000 146.000000 0.934824 0.293961 -0.199225
-6750.00000000 6300.00000000 20.00000000 207 24 140 97.000000 1.000000 4.000000 1.000000 -60.708740 114.000000 146.000000 0.927993 0.370937 -0.035141
-6750.00000000 6290.00000000 0.00000000 207 24 140 97.000000 1.000000 4.000000 1.000000 -60.708740 114.000000 146.000000 0.831626 0.530031 0.165728
-6760.00000000 6310.00000000 20.00000000 207 24 140 97.000000 1.000000 4.000000 1.000000 -60.708740 114.000000 146.000000 0.934824 0.293961 -0.199225
-6750.00000000 6280.00000000 140.00000000 207 24 140 97.000000 1.000000 4.000000 1.000000 -60.708740 114.000000 146.000000 0.782218 0.561875 0.269133
-6750.00000000 6270.00000000 120.00000000 207 24 140 97.000000 1.000000 4.000000 1.000000 -60.708740 114.000000 146.000000 0.784429 0.477127 -0.396258
-6390.00000000 6210.00000000 -350.00000000 207 24 140 97.000000 1.000000 4.000000 1.000000 -60.708740 114.000000 146.000000 0.975569 0.105635 -0.192628
-6380.00000000 6220.00000000 -410.00000000 207 24 140 97.000000 1.000000 4.000000 1.000000 -60.708740 114.000000 146.000000 0.975787 0.129019 -0.176619
-6390.00000000 6190.00000000 -470.00000000 207 24 140 97.000000 1.000000 4.000000 1.000000 -60.708740 114.000000 146.000000 0.996817 0.053034 0.059528
-6370.00000000 6150.00000000 -480.00000000 207 24 140 97.000000 1.000000 4.000000 1.000000 -60.708740 114.000000 146.000000 0.809058 -0.582808 0.075894
-6370.00000000 6130.00000000 -530.00000000 207 24 140 97.000000 1.000000 4.000000 1.000000 -60.708740 114.000000 146.000000 0.979045 -0.186543 -0.081689
-6390.00000000 6110.00000000 -680.00000000 207 24 140 97.000000 1.000000 4.000000 1.000000 -60.708740 114.000000 146.000000 0.976049 -0.217291 -0.010571
-6390.00000000 6110.00000000 -750.00000000 207 24 140 97.000000 1.000000 4.000000 1.000000 -60.708740 114.000000 146.000000 0.994984 -0.089251 -0.045176
-6400.00000000 6040.00000000 -770.00000000 207 24 140 97.000000 1.000000 4.000000 1.000000 -60.708740 114.000000 146.000000 0.694645 -0.678893 -0.237849
-6400.00000000 6030.00000000 -750.00000000 207 24 140 97.000000 1.000000 4.000000 1.000000 -60.708740 114.000000 146.000000 -0.528103 0.846372 -0.069005
-6400.00000000 6030.00000000 -760.00000000 207 24 140 97.000000 1.000000 4.000000 1.000000 -60.708740 114.000000 146.000000 -0.558138 0.829738 -0.004074
-6400.00000000 6030.00000000 -770.00000000 207 24 140 97.000000 1.000000 4.000000 1.000000 -60.708740 114.000000 146.000000 -0.522996 0.844616 0.114451
-6400.00000000 6030.00000000 -760.00000000 207 24 140 97.000000 1.000000 4.000000 1.000000 -60.708740 114.000000 146.000000 -0.558138 0.829738 -0.004074
-6380.00000000 6100.00000000 -850.00000000 207 24 140 97.000000 1.000000 4.000000 1.000000 -60.708740 114.000000 146.000000 0.996194 0.040283 0.077300
-6380.00000000 6110.00000000 -850.00000000 207 24 140 97.000000 1.000000 4.000000 1.000000 -60.708740 114.000000 146.000000 0.904312 -0.019802 0.426413
-6380.00000000 6070.00000000 -790.00000000 207 24 140 97.000000 1.000000 4.000000 1.000000 -60.708740 114.000000 146.000000 0.796108 -0.601726 -0.064318
-6380.00000000 6070.00000000 -790.00000000 207 24 140 97.000000 1.000000 4.000000 1.000000 -60.708740 114.000000 146.000000 0.796108 -0.601726 -0.064318
-6370.00000000 6040.00000000 -790.00000000 207 24 140 97.000000 1.000000 4.000000 1.000000 -60.708740 114.000000 146.000000 0.937514 -0.324263 0.126178
-6380.00000000 6030.00000000 -820.00000000 207 24 140 97.000000 1.000000 4.000000 1.000000 -60.708740 114.000000 146.000000 0.935843 -0.352362 0.006315
-6330.00000000 6080.00000000 -880.00000000 207 24 140 97.000000 1.000000 4.000000 1.000000 -60.708740 114.000000 146.000000 0.941765 -0.322777 -0.094309
-6370.00000000 6090.00000000 -870.00000000 207 24 140 97.000000 1.000000 4.000000 1.000000 -60.708740 114.000000 146.000000 0.708511 -0.521798 0.475119
-6370.00000000 6030.00000000 -890.00000000 207 24 140 97.000000 1.000000 4.000000 1.000000 -60.708740 114.000000 146.000000 -0.656889 0.727987 0.196294
-6370.00000000 6030.00000000 -890.00000000 207 24 140 97.000000 1.000000 4.000000 1.000000 -60.708740 114.000000 146.000000 -0.656889 0.727987 0.196294
-6380.00000000 6060.00000000 -930.00000000 207 24 140 97.000000 1.000000 4.000000 1.000000 -60.708740 114.000000 146.000000 0.880129 -0.456522 0.130231
-6370.00000000 6040.00000000 -940.00000000 207 24 140 97.000000 1.000000 4.000000 1.000000 -60.708740 114.000000 146.000000 0.737810 -0.460512 0.493524
-6380.00000000 6060.00000000 -930.00000000 207 24 140 97.000000 1.000000 4.000000 1.000000 -60.708740 114.000000 146.000000 0.880129 -0.456522 0.130231
-6370.00000000 6070.00000000 -930.00000000 207 24 140 97.000000 1.000000 4.000000 1.000000 -60.708740 114.000000 146.000000 0.973991 -0.194297 -0.116578
-6370.00000000 6070.00000000 -930.00000000 207 24 140 97.000000 1.000000 4.000000 1.000000 -60.708740 114.000000 146.000000 0.973991 -0.194297 -0.116578
-6380.00000000 6060.00000000 -940.00000000 207 24 140 97.000000 1.000000 4.000000 1.000000 -60.708740 114.000000 146.000000 0.891672 -0.414562 -0.181825
-6370.00000000 6070.00000000 -930.00000000 207 24 140 97.000000 1.000000 4.000000 1.000000 -60.708740 114.000000 146.000000 0.973991 -0.194297 -0.116578
-6360.00000000 6060.00000000 -950.00000000 207 24 140 97.000000 1.000000 4.000000 1.000000 -60.708740 114.000000 146.000000 0.884909 -0.465672 -0.009287
-6360.00000000 6030.00000000 -1030.00000000 207 24 140 97.000000 1.000000 4.000000 1.000000 -60.708740 114.000000 146.000000 0.956665 -0.254671 -0.141191
-6360.00000000 6070.00000000 -1020.00000000 207 24 140 97.000000 1.000000 4.000000 1.000000 -60.708740 114.000000 146.000000 0.985266 -0.123308 -0.118519
-6380.00000000 6070.00000000 -990.00000000 207 24 140 97.000000 1.000000 4.000000 1.000000 -60.708740 114.000000 146.000000 0.966972 -0.169576 -0.190288
-6390.00000000 6120.00000000 -1060.00000000 207 24 140 97.000000 1.000000 4.000000 1.000000 -60.708740 114.000000 146.000000 0.975005 -0.218141 -0.042182
-6380.00000000 6030.00000000 -1040.00000000 207 24 140 97.000000 1.000000 4.000000 1.000000 -60.708740 114.000000 146.000000 0.778659 -0.625480 0.049641
-6370.00000000 6040.00000000 -1040.00000000 207 24 140 97.000000 1.000000 4.000000 1.000000 -60.708740 114.000000 146.000000 0.959282 -0.256416 -0.118446
-6390.00000000 6050.00000000 -1070.00000000 207 24 140 97.000000 1.000000 4.000000 1.000000 -60.708740 114.000000 146.000000 0.862941 -0.483305 -0.147474
-6380.00000000 6030.00000000 -1110.00000000 207 24 140 97.000000 1.000000 4.000000 1.000000 -60.708740 114.000000 146.000000 0.699450 -0.539194 0.469083
-6380.00000000 6030.00000000 -1100.00000000 207 24 140 97.000000 1.000000 4.000000 1.000000 -60.708740 114.000000 146.000000 0.907977 -0.389538 0.154399
-6360.00000000 6030.00000000 -1120.00000000 207 24 140 97.000000 1.000000 4.000000 1.000000 -60.708740 114.000000 146.000000 0.888886 -0.334269 0.313283
-6400.00000000 6100.00000000 -1130.00000000 207 24 140 97.000000 1.000000 4.000000 1.000000 -60.708740 114.000000 146.000000 0.897817 -0.367088 0.243251
-6390.00000000 6110.00000000 -1130.00000000 207 24 140 97.000000 1.000000 4.000000 1.000000 -60.708740 114.000000 146.000000 0.965279 -0.250444 0.074252
-6400.00000000 6100.00000000 -1130.00000000 207 24 140 97.000000 1.000000 4.000000 1.000000 -60.708740 114.000000 146.000000 0.897817 -0.367088 0.243251
-6370.00000000 6060.00000000 -1120.00000000 207 24 140 97.000000 1.000000 4.000000 1.000000 -60.708740 114.000000 146.000000 0.959356 -0.025995 0.280998
-6380.00000000 6040.00000000 -1150.00000000 207 24 140 97.000000 1.000000 4.000000 1.000000 -60.708740 114.000000 146.000000 0.937960 -0.268984 0.218811
-6380.00000000 6030.00000000 -1150.00000000 207 24 140 97.000000 1.000000 4.000000 1.000000 -60.708740 114.000000 146.000000 0.956564 -0.199340 0.212718
-6370.00000000 6040.00000000 -1140.00000000 207 24 140 97.000000 1.000000 4.000000 1.000000 -60.708740 114.000000 146.000000 0.865796 -0.492925 -0.086156
-6380.00000000 6070.00000000 -1120.00000000 207 24 140 97.000000 1.000000 4.000000 1.000000 -60.708740 114.000000 146.000000 0.865174 -0.421183 -0.272173
-6370.00000000 6060.00000000 -1160.00000000 207 24 140 97.000000 1.000000 4.000000 1.000000 -60.708740 114.000000 146.000000 0.983368 -0.164094 -0.077855
-6380.00000000 6040.00000000 -1160.00000000 207 24 140 97.000000 1.000000 4.000000 1.000000 -60.708740 114.000000 146.000000 0.984263 -0.053044 0.168562
-6380.00000000 6030.00000000 -1170.00000000 207 24 140 97.000000 1.000000 4.000000 1.000000 -60.708740 114.000000 146.000000 0.951829 -0.281974 -0.120468
-6380.00000000 6120.00000000 -1250.00000000 207 24 140 97.000000 1.000000 4.000000 1.000000 -60.708740 114.000000 146.000000 0.913478 0.398881 -0.080321
-6400.00000000 6120.00000000 -1300.00000000 207 24 140 97.000000 1.000000 4.000000 1.000000 -60.708740 114.000000 146.000000 0.963695 0.256396 -0.074519
-6360.00000000 6050.00000000 -1240.00000000 207 24 140 97.000000 1.000000 4.000000 1.000000 -60.708740 114.000000 146.000000 0.800580 -0.305964 0.515225
-6360.00000000 6060.00000000 -1240.00000000 207 24 140 97.000000 1.000000 4.000000 1.000000 -60.708740 114.000000 146.000000 0.909772 -0.091938 0.404800
-6330.00000000 6030.00000000 -1270.00000000 207 24 140 97.000000 1.000000 4.000000 1.000000 -60.708740 114.000000 146.000000 0.835548 -0.526855 0.155830
-6380.00000000 6080.00000000 -1210.00000000 207 24 140 97.000000 1.000000 4.000000 1.000000 -60.708740 114.000000 146.000000 0.961369 0.006062 0.275196
-6370.00000000 6080.00000000 -1260.00000000 207 24 140 97.000000 1.000000 4.000000 1.000000 -60.708740 114.000000 146.000000 0.945674 0.178764 0.271557
-6370.00000000 6060.00000000 -1220.00000000 207 24 140 97.000000 1.000000 4.000000 1.000000 -60.708740 114.000000 146.000000 0.993520 0.061744 0.095423
-6390.00000000 6040.00000000 -1230.00000000 207 24 140 97.000000 1.000000 4.000000 1.000000 -60.708740 114.000000 146.000000 0.954189 -0.222061 0.200528
-6390.00000000 6050.00000000 -1200.00000000 207 24 140 97.000000 1.000000 4.000000 1.000000 -60.708740 114.000000 146.000000 0.934424 -0.318836 0.158728
-6380.00000000 6030.00000000 -1240.00000000 207 24 140 97.000000 1.000000 4.000000 1.000000 -60.708740 114.000000 146.000000 0.911011 -0.326918 -0.251363
-6380.00000000 6070.00000000 -1280.00000000 207 24 140 97.000000 1.000000 4.000000 1.000000 -60.708740 114.000000 146.000000 0.971208 -0.015530 -0.237725
-6380.00000000 6030.00000000 -1270.00000000 207 24 140 97.000000 1.000000 4.000000 1.000000 -60.708740 114.000000 146.000000 0.817561 -0.562165 -0.124762
-6390.00000000 6070.00000000 -1250.00000000 207 24 140 97.000000 1.000000 4.000000 1.000000 -60.708740 114.000000 146.000000 0.989171 0.010059 0.146420
-6370.00000000 6040.00000000 -1260.00000000 207 24 140 97.000000 1.000000 4.000000 1.000000 -60.708740 114.000000 146.000000 0.849100 -0.452956 -0.271773
-6380.00000000 6040.00000000 -1270.00000000 207 24 140 97.000000 1.000000 4.000000 1.000000 -60.708740 114.000000 146.000000 0.826712 -0.526365 0.198714
-6380.00000000 6030.00000000 -1250.00000000 207 24 140 97.000000 1.000000 4.000000 1.000000 -60.708740 114.000000 146.000000 0.854019 -0.517966 0.048603
-6370.00000000 6040.00000000 -1280.00000000 207 24 140 97.000000 1.000000 4.000000 1.000000 -60.708740 114.000000 146.000000 0.755593 -0.411396 0.509738
-6360.00000000 6100.00000000 -1320.00000000 207 24 140 97.000000 1.000000 4.000000 1.000000 -60.708740 114.000000 146.000000 0.966149 0.170344 -0.193750
-6400.00000000 6110.00000000 -1300.00000000 207 24 140 97.000000 1.000000 4.000000 1.000000 -60.708740 114.000000 146.000000 0.970851 0.238813 -0.020401
-6400.00000000 6090.00000000 -1320.00000000 207 24 140 97.000000 1.000000 4.000000 1.000000 -60.708740 114.000000 146.000000 0.942627 0.241522 0.230481
-6400.00000000 6110.00000000 -1310.00000000 207 24 140 97.000000 1.000000 4.000000 1.000000 -60.708740 114.000000 146.000000 0.965287 0.259932 -0.025627
-6390.00000000 6090.00000000 -1310.00000000 207 24 140 97.000000 1.000000 4.000000 1.000000 -60.708740 114.000000 146.000000 0.994915 -0.100246 -0.009701
-6390.00000000 6090.00000000 -1300.00000000 207 24 140 97.000000 1.000000 4.000000 1.000000 -60.708740 114.000000 146.000000 0.943391 0.124801 0.307307
-6400.00000000 6110.00000000 -1350.00000000 207 24 140 97.000000 1.000000 4.000000 1.000000 -60.708740 114.000000 146.000000 0.895058 0.403140 0.190655
-6370.00000000 6060.00000000 -1320.00000000 207 24 140 97.000000 1.000000 4.000000 1.000000 -60.708740 114.000000 146.000000 0.933270 -0.141155 0.330276
-6370.00000000 6070.00000000 -1320.00000000 207 24 140 97.000000 1.000000 4.000000 1.000000 -60.708740 114.000000 146.000000 0.985089 0.035969 -0.168243
-6370.00000000 6070.00000000 -1310.00000000 207 24 140 97.000000 1.000000 4.000000 1.000000 -60.708740 114.000000 146.000000 0.927432 -0.340661 -0.154340
-6370.00000000 6070.00000000 -1310.00000000 207 24 140 97.000000 1.000000 4.000000 1.000000 -60.708740 114.000000 146.000000 0.927432 -0.340661 -0.154340
-6370.00000000 6030.00000000 -1310.00000000 207 24 140 97.000000 1.000000 4.000000 1.000000 -60.708740 114.000000 146.000000 0.963591 -0.217753 0.155165
-6370.00000000 6050.00000000 -1360.00000000 207 24 140 97.000000 1.000000 4.000000 1.000000 -60.708740 114.000000 146.000000 0.965575 -0.092868 0.242984
-6370.00000000 6030.00000000 -1360.00000000 207 24 140 97.000000 1.000000 4.000000 1.000000 -60.708740 114.000000 146.000000 0.972235 -0.233859 -0.008310
-6370.00000000 6070.00000000 -1340.00000000 207 24 140 97.000000 1.000000 4.000000 1.000000 -60.708740 114.000000 146.000000 0.959486 0.008534 0.281628
-6370.00000000 6030.00000000 -1360.00000000 207 24 140 97.000000 1.000000 4.000000 1.000000 -60.708740 114.000000 146.000000 0.972235 -0.233859 -0.008310
-6370.00000000 6070.00000000 -1360.00000000 207 24 140 97.000000 1.000000 4.000000 1.000000 -60.708740 114.000000 146.000000 0.919374 0.009026 0.393281
-6380.00000000 6010.00000000 -790.00000000 207 24 140 97.000000 1.000000 4.000000 1.000000 -60.708740 114.000000 146.000000 0.778674 -0.578934 -0.241873
-6390.00000000 6010.00000000 -810.00000000 207 24 140 97.000000 1.000000 4.000000 1.000000 -60.708740 114.000000 146.000000 0.791332 -0.580920 -0.190591
-6380.00000000 6010.00000000 -840.00000000 207 24 140 97.000000 1.000000 4.000000 1.000000 -60.708740 114.000000 146.000000 0.871981 -0.489226 0.017520
-6380.00000000 6010.00000000 -830.00000000 207 24 140 97.000000 1.000000 4.000000 1.000000 -60.708740 114.000000 146.000000 0.832487 -0.471483 0.290981
-6390.00000000 6000.00000000 -840.00000000 207 24 140 97.000000 1.000000 4.000000 1.000000 -60.708740 114.000000 146.000000 0.768127 -0.634540 0.085670
-6390.00000000 6020.00000000 -860.00000000 207 24 140 97.000000 1.000000 4.000000 1.000000 -60.708740 114.000000 146.000000 0.754305 -0.655240 0.041041
-6360.00000000 6010.00000000 -910.00000000 207 24 140 97.000000 1.000000 4.000000 1.000000 -60.708740 114.000000 146.000000 0.912818 -0.341766 0.223518
-6380.00000000 6000.00000000 -900.00000000 207 24 140 97.000000 1.000000 4.000000 1.000000 -60.708740 114.000000 146.000000 0.814701 -0.563341 -0.137509
-6390.00000000 6010.00000000 -890.00000000 207 24 140 97.000000 1.000000 4.000000 1.000000 -60.708740 114.000000 146.000000 0.868993 -0.474392 -0.140722
-6390.00000000 6020.00000000 -900.00000000 207 24 140 97.000000 1.000000 4.000000 1.000000 -60.708740 114.000000 146.000000 0.942200 -0.297751 0.153634
-6400.00000000 6010.00000000 -880.00000000 207 24 140 97.000000 1.000000 4.000000 1.000000 -60.708740 114.000000 146.000000 -0.725650 0.486534 -0.486534
-6380.00000000 6020.00000000 -870.00000000 207 24 140 97.000000 1.000000 4.000000 1.000000 -60.708740 114.000000 146.000000 0.884423 -0.466669 -0.003966
-6390.00000000 6010.00000000 -870.00000000 207 24 140 97.000000 1.000000 4.000000 1.000000 -60.708740 114.000000 146.000000 -0.569295 0.796399 -0.204087
-6370.00000000 6020.00000000 -870.00000000 207 24 140 97.000000 1.000000 4.000000 1.000000 -60.708740 114.000000 146.000000 0.618217 -0.757664 0.209171
-6390.00000000 6010.00000000 -940.00000000 207 24 140 97.000000 1.000000 4.000000 1.000000 -60.708740 114.000000 146.000000 0.796822 -0.595795 0.100513
-6370.00000000 6000.00000000 -930.00000000 207 24 140 97.000000 1.000000 4.000000 1.000000 -60.708740 114.000000 146.000000 0.723455 -0.689609 -0.032436
-6400.00000000 5960.00000000 -930.00000000 207 24 140 97.000000 1.000000 4.000000 1.000000 -60.708740 114.000000 146.000000 -0.618029 0.715356 -0.326047
-6390.00000000 5970.00000000 -920.00000000 207 24 140 97.000000 1.000000 4.000000 1.000000 -60.708740 114.000000 146.000000 -0.515204 0.827079 -0.224733
-6400.00000000 5970.00000000 -920.00000000 207 24 140 97.000000 1.000000 4.000000 1.000000 -60.708740 114.000000 146.000000 0.654112 -0.546495 0.522954
-6400.00000000 5980.00000000 -920.00000000 207 24 140 97.000000 1.000000 4.000000 1.000000 -60.708740 114.000000 146.000000 0.790084 -0.536751 0.296084
-6360.00000000 5990.00000000 -960.00000000 207 24 140 97.000000 1.000000 4.000000 1.000000 -60.708740 114.000000 146.000000 -0.622559 0.757831 -0.195222
-6370.00000000 5990.00000000 -950.00000000 207 24 140 97.000000 1.000000 4.000000 1.000000 -60.708740 114.000000 146.000000 0.859102 -0.424191 0.286367
-6380.00000000 5990.00000000 -960.00000000 207 24 140 97.000000 1.000000 4.000000 1.000000 -60.708740 114.000000 146.000000 0.867230 -0.496922 -0.031313
-6390.00000000 6010.00000000 -960.00000000 207 24 140 97.000000 1.000000 4.000000 1.000000 -60.708740 114.000000 146.000000 -0.599077 0.797332 -0.073268
-6370.00000000 6010.00000000 -1010.00000000 207 24 140 97.000000 1.000000 4.000000 1.000000 -60.708740 114.000000 146.000000 0.941733 -0.333665 -0.042513
-6370.00000000 6000.00000000 -1020.00000000 207 24 140 97.000000 1.000000 4.000000 1.000000 -60.708740 114.000000 146.000000 0.860283 -0.485100 -0.156815
-6370.00000000 6010.00000000 -1010.00000000 207 24 140 97.000000 1.000000 4.000000 1.000000 -60.708740 114.000000 146.000000 0.941733 -0.333665 -0.042513
-6380.00000000 6010.00000000 -990.00000000 207 24 140 97.000000 1.000000 4.000000 1.000000 -60.708740 114.000000 146.000000 0.863996 -0.285960 0.414412
-6400.00000000 5950.00000000 -970.00000000 207 24 140 97.000000 1.000000 4.000000 1.000000 -60.708740 114.000000 146.000000 -0.520283 0.852260 -0.054400
-6380.00000000 5970.00000000 -970.00000000 207 24 140 97.000000 1.000000 4.000000 1.000000 -60.708740 114.000000 146.000000 0.771255 -0.582761 0.256038
-6390.00000000 5980.00000000 -960.00000000 207 24 140 97.000000 1.000000 4.000000 1.000000 -60.708740 114.000000 146.000000 -0.600616 0.799441 -0.012427
-6380.00000000 5970.00000000 -980.00000000 207 24 140 97.000000 1.000000 4.000000 1.000000 -60.708740 114.000000 146.000000 0.871981 -0.489226 -0.017520
-6390.00000000 5960.00000000 -970.00000000 207 24 140 97.000000 1.000000 4.000000 1.000000 -60.708740 114.000000 146.000000 0.818076 -0.565243 0.106074
-6390.00000000 5970.00000000 -960.00000000 207 24 140 97.000000 1.000000 4.000000 1.000000 -60.708740 114.000000 146.000000 0.644570 -0.661055 0.384104
-6390.00000000 5980.00000000 -950.00000000 207 24 140 97.000000 1.000000 4.000000 1.000000 -60.708740 114.000000 146.000000 -0.692573 0.713247 -0.107799
-6380.00000000 5980.00000000 -960.00000000 207 24 140 97.000000 1.000000 4.000000 1.000000 -60.708740 114.000000 146.000000 0.731575 -0.665205 0.149332
-6390.00000000 5970.00000000 -970.00000000 207 24 140 97.000000 1.000000 4.000000 1.000000 -60.708740 114.000000 146.000000 -0.374145 0.894693 -0.244007
-6400.00000000 5970.00000000 -980.00000000 207 24 140 97.000000 1.000000 4.000000 1.000000 -60.708740 114.000000 146.000000 -0.523472 0.850119 0.057233
-6390.00000000 5960.00000000 -1010.00000000 207 24 140 97.000000 1.000000 4.000000 1.000000 -60.708740 114.000000 146.000000 -0.302931 0.938949 -0.163117
-6390.00000000 5960.00000000 -1000.00000000 207 24 140 97.000000 1.000000 4.000000 1.000000 -60.708740 114.000000 146.000000 -0.526201 0.820750 -0.222446
-6380.00000000 5970.00000000 -990.00000000 207 24 140 97.000000 1.000000 4.000000 1.000000 -60.708740 114.000000 146.000000 0.905777 -0.421447 -0.044152
-6390.00000000 5960.00000000 -1010.00000000 207 24 140 97.000000 1.000000 4.000000 1.000000 -60.708740 114.000000 146.000000 -0.302931 0.938949 -0.163117
-6400.00000000 5970.00000000 -990.00000000 207 24 140 97.000000 1.000000 4.000000 1.000000 -60.708740 114.000000 146.000000 -0.337498 0.896525 -0.286947
-6400.00000000 5950.00000000 -990.00000000 207 24 140 97.000000 1.000000 4.000000 1.000000 -60.708740 114.000000 146.000000 -0.517177 0.853552 0.063070
-6390.00000000 5950.00000000 -1020.00000000 207 24 140 97.000000 1.000000 4.000000 1.000000 -60.708740 114.000000 146.000000 0.645327 -0.709380 0.283432
-6390.00000000 5960.00000000 -1010.00000000 207 24 140 97.000000 1.000000 4.000000 1.000000 -60.708740 114.000000 146.000000 -0.302931 0.938949 -0.163117
-6390.00000000 5960.00000000 -990.00000000 207 24 140 97.000000 1.000000 4.000000 1.000000 -60.708740 114.000000 146.000000 0.822480 -0.568780 0.004092
-6400.00000000 5950.00000000 -1000.00000000 207 24 140 97.000000 1.000000 4.000000 1.000000 -60.708740 114.000000 146.000000 -0.619218 0.779487 -0.094704
-6400.00000000 5940.00000000 -1010.00000000 207 24 140 97.000000 1.000000 4.000000 1.000000 -60.708740 114.000000 146.000000 0.708891 -0.617632 0.340594
-6400.00000000 5940.00000000 -1030.00000000 207 24 140 97.000000 1.000000 4.000000 1.000000 -60.708740 114.000000 146.000000 0.851992 -0.516316 0.086764
-6380.00000000 5990.00000000 -1050.00000000 207 24 140 97.000000 1.000000 4.000000 1.000000 -60.708740 114.000000 146.000000 0.848754 -0.507487 -0.148569
-6390.00000000 5990.00000000 -1060.00000000 207 24 140 97.000000 1.000000 4.000000 1.000000 -60.708740 114.000000 146.000000 0.766646 -0.587185 0.259747
-6380.00000000 6000.00000000 -1060.00000000 207 24 140 97.000000 1.000000 4.000000 1.000000 -60.708740 114.000000 146.000000 0.890239 -0.451292 0.061727
-6380.00000000 6020.00000000 -1050.00000000 207 24 140 97.000000 1.000000 4.000000 1.000000 -60.708740 114.000000 146.000000 0.955956 -0.283579 0.075707
-6380.00000000 6020.00000000 -1110.00000000 207 24 140 97.000000 1.000000 4.000000 1.000000 -60.708740 114.000000 146.000000 0.628076 -0.624726 0.463938
-6400.00000000 5950.00000000 -1040.00000000 207 24 140 97.000000 1.000000 4.000000 1.000000 -60.708740 114.000000 146.000000 -0.404593 0.882342 -0.240367
-6400.00000000 5950.00000000 -1070.00000000 207 24 140 97.000000 1.000000 4.000000 1.000000 -60.708740 114.000000 146.000000 -0.445098 0.838658 -0.313911
-6400.00000000 5960.00000000 -1060.00000000 207 24 140 97.000000 1.000000 4.000000 1.000000 -60.708740 114.000000 146.000000 0.650926 -0.670601 0.355796
-6400.00000000 5950.00000000 -1060.00000000 207 24 140 97.000000 1.000000 4.000000 1.000000 -60.708740 114.000000 146.000000 -0.655947 0.712849 0.248154
-6390.00000000 5980.00000000 -1080.00000000 207 24 140 97.000000 1.000000 4.000000 1.000000 -60.708740 114.000000 146.000000 0.848675 -0.508619 -0.145110
-6390.00000000 5960.00000000 -1090.00000000 207 24 140 97.000000 1.000000 4.000000 1.000000 -60.708740 114.000000 146.000000 0.814241 -0.566876 -0.125155
-6360.00000000 5990.00000000 -1130.00000000 207 24 140 97.000000 1.000000 4.000000 1.000000 -60.708740 114.000000 146.000000 0.842288 -0.488923 0.226946
-6360.00000000 6000.00000000 -1190.00000000 207 24 140 97.000000 1.000000 4.000000 1.000000 -60.708740 114.000000 146.000000 -0.667587 0.738014 -0.098304
-6400.00000000 6000.00000000 -1140.00000000 207 24 140 97.000000 1.000000 4.000000 1.000000 -60.708740 114.000000 146.000000 -0.615627 0.659005 -0.432107
-6390.00000000 6000.00000000 -1140.00000000 207 24 140 97.000000 1.000000 4.000000 1.000000 -60.708740 114.000000 146.000000 0.786295 -0.545818 0.289521
-6370.00000000 6020.00000000 -1120.00000000 207 24 140 97.000000 1.000000 4.000000 1.000000 -60.708740 114.000000 146.000000 0.776150 -0.450720 0.440957
-6380.00000000 6010.00000000 -1140.00000000 207 24 140 97.000000 1.000000 4.000000 1.000000 -60.708740 114.000000 146.000000 0.862069 -0.506381 0.020364
-6390.00000000 6000.00000000 -1140.00000000 207 24 140 97.000000 1.000000 4.000000 1.000000 -60.708740 114.000000 146.000000 0.786295 -0.545818 0.289521
-6380.00000000 6020.00000000 -1120.00000000 207 24 140 97.000000 1.000000 4.000000 1.000000 -60.708740 114.000000 146.000000 0.864150 -0.352746 0.358907
-6370.00000000 6020.00000000 -1140.00000000 207 24 140 97.000000 1.000000 4.000000 1.000000 -60.708740 114.000000 146.000000 -0.621695 0.773039 0.126120
