//X Y Z R G B PointSourceId ScanDirectionFlag NumberOfReturns ReturnNumber GpsTime Intensity Classification Nx Ny Nz
15260.00000000 15350.00000000 -1110.00000000 90 211 105 97.000000 1.000000 4.000000 1.000000 -60.708740 114.000000 224.000000 0.860135 -0.188665 -0.473891
15190.00000000 15300.00000000 -1180.00000000 90 211 105 97.000000 1.000000 4.000000 1.000000 -60.708740 114.000000 224.000000 -0.557240 0.093593 0.825060
15250.00000000 15290.00000000 -1100.00000000 90 211 105 97.000000 1.000000 4.000000 1.000000 -60.708740 114.000000 224.000000 0.382696 -0.529261 -0.757250
15240.00000000 15290.00000000 -1100.00000000 90 211 105 97.000000 1.000000 4.000000 1.000000 -60.708740 114.000000 224.000000 -0.273137 0.461401 0.844101
15220.00000000 15280.00000000 -1150.00000000 90 211 105 97.000000 1.000000 4.000000 1.000000 -60.708740 114.000000 224.000000 0.586575 -0.610241 -0.532481
15230.00000000 15290.00000000 -1150.00000000 90 211 105 97.000000 1.000000 4.000000 1.000000 -60.708740 114.000000 224.000000 0.788213 -0.285905 -0.544957
15210.00000000 15230.00000000 -1160.00000000 90 211 105 97.000000 1.000000 4.000000 1.000000 -60.708740 114.000000 224.000000 0.696713 -0.269438 -0.664827
15200.00000000 15190.00000000 -1060.00000000 90 211 105 97.000000 1.000000 4.000000 1.000000 -60.708740 114.000000 224.000000 -0.090920 0.575823 0.812503
15200.00000000 15180.00000000 -1060.00000000 90 211 105 97.000000 1.000000 4.000000 1.000000 -60.708740 114.000000 224.000000 -0.169487 0.667261 0.725284
15220.00000000 15140.00000000 -1050.00000000 90 211 105 97.000000 1.000000 4.000000 1.000000 -60.708740 114.000000 224.000000 -0.182921 0.671736 0.717851
14860.00000000 15970.00000000 -330.00000000 90 211 105 97.000000 1.000000 4.000000 1.000000 -60.708740 114.000000 226.000000 -0.460620 0.587918 0.664967
14890.00000000 15940.00000000 -350.00000000 90 211 105 97.000000 1.000000 4.000000 1.000000 -60.708740 114.000000 226.000000 -0.321408 0.930832 0.173922
14840.00000000 15930.00000000 -300.00000000 90 211 105 97.000000 1.000000 4.000000 1.000000 -60.708740 114.000000 226.000000 -0.497040 0.631830 0.594763
15080.00000000 15910.00000000 -430.00000000 90 211 105 97.000000 1.000000 4.000000 1.000000 -60.708740 114.000000 226.000000 -0.259130 0.960458 0.101847
15100.00000000 15920.00000000 -390.00000000 90 211 105 97.000000 1.000000 4.000000 1.000000 -60.708740 114.000000 226.000000 0.017269 0.891352 0.452982
15090.00000000 15920.00000000 -470.00000000 90 211 105 97.000000 1.000000 4.000000 1.000000 -60.708740 114.000000 226.000000 0.095748 0.987031 0.128846
15090.00000000 15810.00000000 -510.00000000 90 211 105 97.000000 1.000000 4.000000 1.000000 -60.708740 114.000000 226.000000 0.312530 0.917427 0.246279
15050.00000000 15930.00000000 -410.00000000 90 211 105 97.000000 1.000000 4.000000 1.000000 -60.708740 114.000000 226.000000 -0.083351 0.992219 0.092485
15000.00000000 15940.00000000 -490.00000000 90 211 105 97.000000 1.000000 4.000000 1.000000 -60.708740 114.000000 226.000000 -0.385042 0.897455 0.215214
15010.00000000 15820.00000000 -470.00000000 90 211 105 97.000000 1.000000 4.000000 1.000000 -60.708740 114.000000 226.000000 0.239606 0.954408 0.178031
15080.00000000 15850.00000000 -550.00000000 90 211 105 97.000000 1.000000 4.000000 1.000000 -60.708740 114.000000 226.000000 0.524101 0.791728 0.313824
15080.00000000 15860.00000000 -590.00000000 90 211 105 97.000000 1.000000 4.000000 1.000000 -60.708740 114.000000 226.000000 0.592312 0.746410 0.303379
15100.00000000 15820.00000000 -540.00000000 90 211 105 97.000000 1.000000 4.000000 1.000000 -60.708740 114.000000 226.000000 0.168260 0.841300 0.513714
15100.00000000 15820.00000000 -540.00000000 90 211 105 97.000000 1.000000 4.000000 1.000000 -60.708740 114.000000 226.000000 0.168260 0.841300 0.513714
15090.00000000 15800.00000000 -560.00000000 90 211 105 97.000000 1.000000 4.000000 1.000000 -60.708740 114.000000 226.000000 0.523690 0.778284 0.346441
15070.00000000 15810.00000000 -600.00000000 90 211 105 97.000000 1.000000 4.000000 1.000000 -60.708740 114.000000 226.000000 0.584538 0.811167 0.017965
15120.00000000 15830.00000000 -670.00000000 90 211 105 97.000000 1.000000 4.000000 1.000000 -60.708740 114.000000 226.000000 0.513455 0.796412 0.319519
15100.00000000 15800.00000000 -640.00000000 90 211 105 97.000000 1.000000 4.000000 1.000000 -60.708740 114.000000 226.000000 0.424697 0.900579 -0.092686
15090.00000000 15810.00000000 -620.00000000 90 211 105 97.000000 1.000000 4.000000 1.000000 -60.708740 114.000000 226.000000 0.489899 0.791869 0.364613
15040.00000000 15890.00000000 -590.00000000 90 211 105 97.000000 1.000000 4.000000 1.000000 -60.708740 114.000000 226.000000 0.021774 0.933717 0.357349
15010.00000000 15900.00000000 -620.00000000 90 211 105 97.000000 1.000000 4.000000 1.000000 -60.708740 114.000000 226.000000 -0.223898 0.885212 0.407761
15010.00000000 15900.00000000 -620.00000000 90 211 105 97.000000 1.000000 4.000000 1.000000 -60.708740 114.000000 226.000000 -0.223898 0.885212 0.407761
15030.00000000 15870.00000000 -560.00000000 90 211 105 97.000000 1.000000 4.000000 1.000000 -60.708740 114.000000 226.000000 -0.057715 0.996402 0.062071
15010.00000000 15820.00000000 -530.00000000 90 211 105 97.000000 1.000000 4.000000 1.000000 -60.708740 114.000000 226.000000 0.112894 0.904547 0.411158
15010.00000000 15820.00000000 -530.00000000 90 211 105 97.000000 1.000000 4.000000 1.000000 -60.708740 114.000000 226.000000 0.112894 0.904547 0.411158
15050.00000000 15800.00000000 -650.00000000 90 211 105 97.000000 1.000000 4.000000 1.000000 -60.708740 114.000000 226.000000 0.597689 0.736236 0.317371
15050.00000000 15800.00000000 -620.00000000 90 211 105 97.000000 1.000000 4.000000 1.000000 -60.708740 114.000000 226.000000 0.200952 0.971900 -0.122593
15060.00000000 15840.00000000 -690.00000000 90 211 105 97.000000 1.000000 4.000000 1.000000 -60.708740 114.000000 226.000000 0.109253 0.973235 -0.202182
15010.00000000 15840.00000000 -610.00000000 90 211 105 97.000000 1.000000 4.000000 1.000000 -60.708740 114.000000 226.000000 -0.083847 0.845571 0.527238
15010.00000000 15800.00000000 -620.00000000 90 211 105 97.000000 1.000000 4.000000 1.000000 -60.708740 114.000000 226.000000 0.126610 0.968120 0.216133
14900.00000000 16020.00000000 -510.00000000 90 211 105 97.000000 1.000000 4.000000 1.000000 -60.708740 114.000000 226.000000 0.240148 0.804108 0.543819
14820.00000000 16050.00000000 -510.00000000 90 211 105 97.000000 1.000000 4.000000 1.000000 -60.708740 114.000000 226.000000 0.192085 0.827328 0.527856
14840.00000000 16050.00000000 -490.00000000 90 211 105 97.000000 1.000000 4.000000 1.000000 -60.708740 114.000000 226.000000 0.226399 0.901212 0.369541
14860.00000000 16060.00000000 -620.00000000 90 211 105 97.000000 1.000000 4.000000 1.000000 -60.708740 114.000000 226.000000 0.238601 0.871870 0.427682
14840.00000000 16040.00000000 -560.00000000 90 211 105 97.000000 1.000000 4.000000 1.000000 -60.708740 114.000000 226.000000 0.125110 0.903886 0.409068
14820.00000000 16050.00000000 -600.00000000 90 211 105 97.000000 1.000000 4.000000 1.000000 -60.708740 114.000000 226.000000 0.021109 0.992142 0.123323
14820.00000000 16050.00000000 -600.00000000 90 211 105 97.000000 1.000000 4.000000 1.000000 -60.708740 114.000000 226.000000 0.021109 0.992142 0.123323
14820.00000000 16050.00000000 -600.00000000 90 211 105 97.000000 1.000000 4.000000 1.000000 -60.708740 114.000000 226.000000 0.021109 0.992142 0.123323
14870.00000000 16050.00000000 -620.00000000 90 211 105 97.000000 1.000000 4.000000 1.000000 -60.708740 114.000000 226.000000 0.280721 0.854436 0.437189
14870.00000000 16040.00000000 -610.00000000 90 211 105 97.000000 1.000000 4.000000 1.000000 -60.708740 114.000000 226.000000 -0.023361 0.834141 0.551056
14870.00000000 16050.00000000 -620.00000000 90 211 105 97.000000 1.000000 4.000000 1.000000 -60.708740 114.000000 226.000000 0.280721 0.854436 0.437189
14860.00000000 16040.00000000 -610.00000000 90 211 105 97.000000 1.000000 4.000000 1.000000 -60.708740 114.000000 226.000000 0.091100 0.805436 0.585640
14850.00000000 16050.00000000 -620.00000000 90 211 105 97.000000 1.000000 4.000000 1.000000 -60.708740 114.000000 226.000000 -0.046549 0.916351 0.397662
14830.00000000 16050.00000000 -610.00000000 90 211 105 97.000000 1.000000 4.000000 1.000000 -60.708740 114.000000 226.000000 0.204484 0.968405 0.142753
14830.00000000 16050.00000000 -610.00000000 90 211 105 97.000000 1.000000 4.000000 1.000000 -60.708740 114.000000 226.000000 0.204484 0.968405 0.142753
14820.00000000 16000.00000000 -670.00000000 90 211 105 97.000000 1.000000 4.000000 1.000000 -60.708740 114.000000 226.000000 0.267643 0.946938 0.177975
14920.00000000 15950.00000000 -390.00000000 90 211 105 97.000000 1.000000 4.000000 1.000000 -60.708740 114.000000 226.000000 0.237774 0.829908 0.504694
14920.00000000 15930.00000000 -430.00000000 90 211 105 97.000000 1.000000 4.000000 1.000000 -60.708740 114.000000 226.000000 -0.091320 0.795787 0.598652
14910.00000000 15960.00000000 -470.00000000 90 211 105 97.000000 1.000000 4.000000 1.000000 -60.708740 114.000000 226.000000 -0.326485 0.801082 0.501672
14930.00000000 15950.00000000 -460.00000000 90 211 105 97.000000 1.000000 4.000000 1.000000 -60.708740 114.000000 226.000000 -0.159265 0.932048 0.325455
14950.00000000 15850.00000000 -500.00000000 90 211 105 97.000000 1.000000 4.000000 1.000000 -60.708740 114.000000 226.000000 0.235002 0.949515 0.207834
14910.00000000 15860.00000000 -510.00000000 90 211 105 97.000000 1.000000 4.000000 1.000000 -60.708740 114.000000 226.000000 -0.213144 0.701663 0.679882
14910.00000000 15810.00000000 -480.00000000 90 211 105 97.000000 1.000000 4.000000 1.000000 -60.708740 114.000000 226.000000 0.029097 0.827194 0.561162
14880.00000000 15930.00000000 -380.00000000 90 211 105 97.000000 1.000000 4.000000 1.000000 -60.708740 114.000000 226.000000 -0.332206 0.923110 0.193669
14840.00000000 15940.00000000 -410.00000000 90 211 105 97.000000 1.000000 4.000000 1.000000 -60.708740 114.000000 226.000000 -0.491753 0.572313 0.656230
14820.00000000 15890.00000000 -390.00000000 90 211 105 97.000000 1.000000 4.000000 1.000000 -60.708740 114.000000 226.000000 -0.631386 0.489955 0.601079
14870.00000000 15900.00000000 -470.00000000 90 211 105 97.000000 1.000000 4.000000 1.000000 -60.708740 114.000000 226.000000 0.546018 -0.696298 -0.465868
14890.00000000 15900.00000000 -460.00000000 90 211 105 97.000000 1.000000 4.000000 1.000000 -60.708740 114.000000 226.000000 -0.133257 0.690241 0.711203
14880.00000000 15870.00000000 -420.00000000 90 211 105 97.000000 1.000000 4.000000 1.000000 -60.708740 114.000000 226.000000 -0.115273 0.950007 0.290170
14880.00000000 15870.00000000 -430.00000000 90 211 105 97.000000 1.000000 4.000000 1.000000 -60.708740 114.000000 226.000000 0.060940 0.820562 0.568299
14950.00000000 15890.00000000 -560.00000000 90 211 105 97.000000 1.000000 4.000000 1.000000 -60.708740 114.000000 226.000000 0.006041 0.962997 0.269446
14940.00000000 15890.00000000 -550.00000000 90 211 105 97.000000 1.000000 4.000000 1.000000 -60.708740 114.000000 226.000000 -0.388550 0.895865 0.215535
14960.00000000 15910.00000000 -690.00000000 90 211 105 97.000000 1.000000 4.000000 1.000000 -60.708740 114.000000 226.000000 -0.160926 0.907165 0.388785
14950.00000000 15920.00000000 -690.00000000 90 211 105 97.000000 1.000000 4.000000 1.000000 -60.708740 114.000000 226.000000 0.074968 0.961873 0.263022
14920.00000000 15850.00000000 -600.00000000 90 211 105 97.000000 1.000000 4.000000 1.000000 -60.708740 114.000000 226.000000 -0.420949 0.798351 0.430626
14940.00000000 15830.00000000 -570.00000000 90 211 105 97.000000 1.000000 4.000000 1.000000 -60.708740 114.000000 226.000000 0.024744 0.920739 0.389393
14960.00000000 15880.00000000 -640.00000000 90 211 105 97.000000 1.000000 4.000000 1.000000 -60.708740 114.000000 226.000000 -0.009359 0.875754 0.482667
14960.00000000 15850.00000000 -660.00000000 90 211 105 97.000000 1.000000 4.000000 1.000000 -60.708740 114.000000 226.000000 0.268184 0.731555 0.626821
14970.00000000 15850.00000000 -680.00000000 90 211 105 97.000000 1.000000 4.000000 1.000000 -60.708740 114.000000 226.000000 0.108262 0.981660 -0.156920
14960.00000000 15810.00000000 -650.00000000 90 211 105 97.000000 1.000000 4.000000 1.000000 -60.708740 114.000000 226.000000 0.396721 0.804686 0.441694
14930.00000000 15800.00000000 -620.00000000 90 211 105 97.000000 1.000000 4.000000 1.000000 -60.708740 114.000000 226.000000 0.220738 0.972972 0.067824
14820.00000000 15950.00000000 -550.00000000 90 211 105 97.000000 1.000000 4.000000 1.000000 -60.708740 114.000000 226.000000 0.500133 -0.716138 -0.486841
14820.00000000 15930.00000000 -590.00000000 90 211 105 97.000000 1.000000 4.000000 1.000000 -60.708740 114.000000 226.000000 -0.131759 0.806839 0.575891
14820.00000000 15930.00000000 -600.00000000 90 211 105 97.000000 1.000000 4.000000 1.000000 -60.708740 114.000000 226.000000 -0.106270 0.989133 0.101599
14830.00000000 15930.00000000 -580.00000000 90 211 105 97.000000 1.000000 4.000000 1.000000 -60.708740 114.000000 226.000000 0.204364 0.791335 0.576215
14840.00000000 15920.00000000 -560.00000000 90 211 105 97.000000 1.000000 4.000000 1.000000 -60.708740 114.000000 226.000000 -0.395710 0.851939 0.342948
14850.00000000 15920.00000000 -560.00000000 90 211 105 97.000000 1.000000 4.000000 1.000000 -60.708740 114.000000 226.000000 -0.310312 0.904464 0.292664
14830.00000000 15920.00000000 -570.00000000 90 211 105 97.000000 1.000000 4.000000 1.000000 -60.708740 114.000000 226.000000 -0.166570 0.972717 0.161484
14820.00000000 15910.00000000 -580.00000000 90 211 105 97.000000 1.000000 4.000000 1.000000 -60.708740 114.000000 226.000000 0.052888 0.945534 0.321198
14850.00000000 15910.00000000 -640.00000000 90 211 105 97.000000 1.000000 4.000000 1.000000 -60.708740 114.000000 226.000000 -0.141264 0.894675 0.423793
14850.00000000 15910.00000000 -640.00000000 90 211 105 97.000000 1.000000 4.000000 1.000000 -60.708740 114.000000 226.000000 -0.141264 0.894675 0.423793
14820.00000000 15920.00000000 -630.00000000 90 211 105 97.000000 1.000000 4.000000 1.000000 -60.708740 114.000000 226.000000 0.269769 0.900703 0.340528
14820.00000000 15910.00000000 -670.00000000 90 211 105 97.000000 1.000000 4.000000 1.000000 -60.708740 114.000000 226.000000 -0.049241 0.998443 0.026192
14830.00000000 15920.00000000 -680.00000000 90 211 105 97.000000 1.000000 4.000000 1.000000 -60.708740 114.000000 226.000000 0.003085 0.998619 0.052451
14790.00000000 15900.00000000 -290.00000000 90 211 105 97.000000 1.000000 4.000000 1.000000 -60.708740 114.000000 226.000000 -0.017768 0.843303 0.537144
14800.00000000 15890.00000000 -280.00000000 90 211 105 97.000000 1.000000 4.000000 1.000000 -60.708740 114.000000 226.000000 -0.107809 0.698541 0.707402
14810.00000000 15920.00000000 -330.00000000 90 211 105 97.000000 1.000000 4.000000 1.000000 -60.708740 114.000000 226.000000 -0.141597 0.500699 0.853962
14790.00000000 15970.00000000 -370.00000000 90 211 105 97.000000 1.000000 4.000000 1.000000 -60.708740 114.000000 226.000000 -0.051247 0.862895 0.502778
14770.00000000 16010.00000000 -440.00000000 90 211 105 97.000000 1.000000 4.000000 1.000000 -60.708740 114.000000 226.000000 -0.384032 0.898023 0.214649
14770.00000000 16010.00000000 -440.00000000 90 211 105 97.000000 1.000000 4.000000 1.000000 -60.708740 114.000000 226.000000 -0.384032 0.898023 0.214649
14800.00000000 16030.00000000 -490.00000000 90 211 105 97.000000 1.000000 4.000000 1.000000 -60.708740 114.000000 226.000000 -0.449634 0.845188 0.288940
14810.00000000 16040.00000000 -490.00000000 90 211 105 97.000000 1.000000 4.000000 1.000000 -60.708740 114.000000 226.000000 -0.439792 0.705327 0.555964
14790.00000000 16060.00000000 -600.00000000 90 211 105 97.000000 1.000000 4.000000 1.000000 -60.708740 114.000000 226.000000 -0.153711 0.960364 0.232537
14780.00000000 16060.00000000 -580.00000000 90 211 105 97.000000 1.000000 4.000000 1.000000 -60.708740 114.000000 226.000000 -0.517063 0.789202 0.331369
14790.00000000 16010.00000000 -560.00000000 90 211 105 97.000000 1.000000 4.000000 1.000000 -60.708740 114.000000 226.000000 -0.385504 0.888595 0.248568
14810.00000000 16050.00000000 -590.00000000 90 211 105 97.000000 1.000000 4.000000 1.000000 -60.708740 114.000000 226.000000 -0.080066 0.723507 0.685658
14810.00000000 16050.00000000 -590.00000000 90 211 105 97.000000 1.000000 4.000000 1.000000 -60.708740 114.000000 226.000000 -0.080066 0.723507 0.685658
14800.00000000 16050.00000000 -590.00000000 90 211 105 97.000000 1.000000 4.000000 1.000000 -60.708740 114.000000 226.000000 -0.001356 0.828486 0.560008
14800.00000000 16050.00000000 -590.00000000 90 211 105 97.000000 1.000000 4.000000 1.000000 -60.708740 114.000000 226.000000 -0.001356 0.828486 0.560008
14790.00000000 16050.00000000 -600.00000000 90 211 105 97.000000 1.000000 4.000000 1.000000 -60.708740 114.000000 226.000000 0.114869 0.951957 0.283871
14760.00000000 16010.00000000 -570.00000000 90 211 105 97.000000 1.000000 4.000000 1.000000 -60.708740 114.000000 226.000000 0.541481 -0.682299 -0.491188
14790.00000000 16010.00000000 -690.00000000 90 211 105 97.000000 1.000000 4.000000 1.000000 -60.708740 114.000000 226.000000 -0.238316 0.905014 0.352356
14810.00000000 15970.00000000 -640.00000000 90 211 105 97.000000 1.000000 4.000000 1.000000 -60.708740 114.000000 226.000000 -0.199272 0.944135 0.262489
14790.00000000 15980.00000000 -620.00000000 90 211 105 97.000000 1.000000 4.000000 1.000000 -60.708740 114.000000 226.000000 0.051144 0.866681 0.496234
14810.00000000 15910.00000000 -400.00000000 90 211 105 97.000000 1.000000 4.000000 1.000000 -60.708740 114.000000 226.000000 0.070765 0.881099 0.467607
14810.00000000 15910.00000000 -440.00000000 90 211 105 97.000000 1.000000 4.000000 1.000000 -60.708740 114.000000 226.000000 -0.144988 0.962667 0.228584
14810.00000000 15900.00000000 -500.00000000 90 211 105 97.000000 1.000000 4.000000 1.000000 -60.708740 114.000000 226.000000 0.041904 0.951100 0.306028
14800.00000000 15900.00000000 -490.00000000 90 211 105 97.000000 1.000000 4.000000 1.000000 -60.708740 114.000000 226.000000 -0.124498 0.966463 0.224610
14790.00000000 15920.00000000 -520.00000000 90 211 105 97.000000 1.000000 4.000000 1.000000 -60.708740 114.000000 226.000000 0.062664 0.923961 0.377318
14810.00000000 15930.00000000 -590.00000000 90 211 105 97.000000 1.000000 4.000000 1.000000 -60.708740 114.000000 226.000000 -0.437821 0.677541 0.590975
14810.00000000 15910.00000000 -580.00000000 90 211 105 97.000000 1.000000 4.000000 1.000000 -60.708740 114.000000 226.000000 0.224406 0.896158 0.382810
14750.00000000 15910.00000000 -590.00000000 90 211 105 97.000000 1.000000 4.000000 1.000000 -60.708740 114.000000 226.000000 0.054321 0.851022 0.522313
14800.00000000 15930.00000000 -620.00000000 90 211 105 97.000000 1.000000 4.000000 1.000000 -60.708740 114.000000 226.000000 -0.391875 0.886561 0.245853
14790.00000000 15950.00000000 -620.00000000 90 211 105 97.000000 1.000000 4.000000 1.000000 -60.708740 114.000000 226.000000 0.095354 0.661610 0.743761
14790.00000000 15950.00000000 -620.00000000 90 211 105 97.000000 1.000000 4.000000 1.000000 -60.708740 114.000000 226.000000 0.095354 0.661610 0.743761
14790.00000000 15930.00000000 -630.00000000 90 211 105 97.000000 1.000000 4.000000 1.000000 -60.708740 114.000000 226.000000 0.195979 0.944262 0.264503
14790.00000000 15930.00000000 -630.00000000 90 211 105 97.000000 1.000000 4.000000 1.000000 -60.708740 114.000000 226.000000 0.195979 0.944262 0.264503
14790.00000000 15950.00000000 -620.00000000 90 211 105 97.000000 1.000000 4.000000 1.000000 -60.708740 114.000000 226.000000 0.095354 0.661610 0.743761
14790.00000000 15930.00000000 -640.00000000 90 211 105 97.000000 1.000000 4.000000 1.000000 -60.708740 114.000000 226.000000 -0.038901 0.981954 0.185074
14790.00000000 15930.00000000 -620.00000000 90 211 105 97.000000 1.000000 4.000000 1.000000 -60.708740 114.000000 226.000000 -0.409647 0.860718 0.302249
14790.00000000 15920.00000000 -620.00000000 90 211 105 97.000000 1.000000 4.000000 1.000000 -60.708740 114.000000 226.000000 0.061351 0.895722 0.440362
15140.00000000 15840.00000000 -710.00000000 90 211 105 97.000000 1.000000 4.000000 1.000000 -60.708740 114.000000 226.000000 0.803331 0.590642 -0.076166
15140.00000000 15840.00000000 -720.00000000 90 211 105 97.000000 1.000000 4.000000 1.000000 -60.708740 114.000000 226.000000 0.565064 0.777160 -0.276992
15070.00000000 15870.00000000 -710.00000000 90 211 105 97.000000 1.000000 4.000000 1.000000 -60.708740 114.000000 226.000000 0.576891 0.815507 -0.046320
15140.00000000 15860.00000000 -790.00000000 90 211 105 97.000000 1.000000 4.000000 1.000000 -60.708740 114.000000 226.000000 0.440829 0.896488 -0.044487
15150.00000000 15810.00000000 -790.00000000 90 211 105 97.000000 1.000000 4.000000 1.000000 -60.708740 114.000000 226.000000 0.518447 0.855100 0.004040
15030.00000000 15900.00000000 -720.00000000 90 211 105 97.000000 1.000000 4.000000 1.000000 -60.708740 114.000000 226.000000 0.215512 0.931068 0.294392
15010.00000000 15800.00000000 -700.00000000 90 211 105 97.000000 1.000000 4.000000 1.000000 -60.708740 114.000000 226.000000 0.172716 0.971046 -0.165040
15010.00000000 15800.00000000 -730.00000000 90 211 105 97.000000 1.000000 4.000000 1.000000 -60.708740 114.000000 226.000000 0.197247 0.959758 -0.199894
15020.00000000 15820.00000000 -740.00000000 90 211 105 97.000000 1.000000 4.000000 1.000000 -60.708740 114.000000 226.000000 0.368341 0.829954 0.418929
15020.00000000 15830.00000000 -750.00000000 90 211 105 97.000000 1.000000 4.000000 1.000000 -60.708740 114.000000 226.000000 0.003631 0.962200 0.272321
15060.00000000 15860.00000000 -850.00000000 90 211 105 97.000000 1.000000 4.000000 1.000000 -60.708740 114.000000 226.000000 0.567818 0.783683 0.251842
15030.00000000 15810.00000000 -850.00000000 90 211 105 97.000000 1.000000 4.000000 1.000000 -60.708740 114.000000 226.000000 0.335987 0.941021 0.039906
15000.00000000 15820.00000000 -820.00000000 90 211 105 97.000000 1.000000 4.000000 1.000000 -60.708740 114.000000 226.000000 0.107086 0.978545 -0.176015
14990.00000000 15840.00000000 -840.00000000 90 211 105 97.000000 1.000000 4.000000 1.000000 -60.708740 114.000000 226.000000 0.326063 0.921235 0.212155
14990.00000000 15810.00000000 -850.00000000 90 211 105 97.000000 1.000000 4.000000 1.000000 -60.708740 114.000000 226.000000 0.786073 0.618120 0.004130
15070.00000000 15800.00000000 -970.00000000 90 211 105 97.000000 1.000000 4.000000 1.000000 -60.708740 114.000000 226.000000 0.447069 0.744015 -0.496560
15040.00000000 15900.00000000 -870.00000000 90 211 105 97.000000 1.000000 4.000000 1.000000 -60.708740 114.000000 226.000000 0.362941 0.916532 0.168054
14990.00000000 15820.00000000 -910.00000000 90 211 105 97.000000 1.000000 4.000000 1.000000 -60.708740 114.000000 226.000000 0.493826 0.805047 -0.328688
15000.00000000 15800.00000000 -920.00000000 90 211 105 97.000000 1.000000 4.000000 1.000000 -60.708740 114.000000 226.000000 0.693136 0.720806 0.001384
14990.00000000 15820.00000000 -970.00000000 90 211 105 97.000000 1.000000 4.000000 1.000000 -60.708740 114.000000 226.000000 0.503407 0.697411 -0.510097
14990.00000000 15820.00000000 -950.00000000 90 211 105 97.000000 1.000000 4.000000 1.000000 -60.708740 114.000000 226.000000 0.667848 0.735965 0.111061
14920.00000000 16010.00000000 -860.00000000 90 211 105 97.000000 1.000000 4.000000 1.000000 -60.708740 114.000000 226.000000 0.493067 0.740425 0.456788
14920.00000000 16010.00000000 -860.00000000 90 211 105 97.000000 1.000000 4.000000 1.000000 -60.708740 114.000000 226.000000 0.493067 0.740425 0.456788
14850.00000000 16060.00000000 -820.00000000 90 211 105 97.000000 1.000000 4.000000 1.000000 -60.708740 114.000000 226.000000 0.338236 0.940679 -0.026804
14870.00000000 16040.00000000 -700.00000000 90 211 105 97.000000 1.000000 4.000000 1.000000 -60.708740 114.000000 226.000000 0.165611 0.828057 0.535626
14860.00000000 16040.00000000 -720.00000000 90 211 105 97.000000 1.000000 4.000000 1.000000 -60.708740 114.000000 226.000000 0.434016 0.758300 0.486426
14890.00000000 16040.00000000 -760.00000000 90 211 105 97.000000 1.000000 4.000000 1.000000 -60.708740 114.000000 226.000000 -0.069245 0.838010 0.541244
14850.00000000 16010.00000000 -700.00000000 90 211 105 97.000000 1.000000 4.000000 1.000000 -60.708740 114.000000 226.000000 0.095514 0.706807 0.700929
14830.00000000 16030.00000000 -740.00000000 90 211 105 97.000000 1.000000 4.000000 1.000000 -60.708740 114.000000 226.000000 -0.349019 0.873310 0.339875
14820.00000000 16000.00000000 -700.00000000 90 211 105 97.000000 1.000000 4.000000 1.000000 -60.708740 114.000000 226.000000 -0.020999 0.706951 0.706951
14860.00000000 16030.00000000 -790.00000000 90 211 105 97.000000 1.000000 4.000000 1.000000 -60.708740 114.000000 226.000000 0.346937 0.935279 -0.069915
14870.00000000 16050.00000000 -840.00000000 90 211 105 97.000000 1.000000 4.000000 1.000000 -60.708740 114.000000 226.000000 0.497412 0.865246 0.062699
14840.00000000 16030.00000000 -810.00000000 90 211 105 97.000000 1.000000 4.000000 1.000000 -60.708740 114.000000 226.000000 0.067680 0.885363 0.459947
14830.00000000 16040.00000000 -810.00000000 90 211 105 97.000000 1.000000 4.000000 1.000000 -60.708740 114.000000 226.000000 0.127507 0.973346 0.190629
14850.00000000 16050.00000000 -820.00000000 90 211 105 97.000000 1.000000 4.000000 1.000000 -60.708740 114.000000 226.000000 0.194221 0.968533 -0.155634
14850.00000000 16050.00000000 -800.00000000 90 211 105 97.000000 1.000000 4.000000 1.000000 -60.708740 114.000000 226.000000 0.140743 0.977728 0.155689
14850.00000000 16040.00000000 -790.00000000 90 211 105 97.000000 1.000000 4.000000 1.000000 -60.708740 114.000000 226.000000 0.195044 0.902980 0.382864
14850.00000000 16050.00000000 -840.00000000 90 211 105 97.000000 1.000000 4.000000 1.000000 -60.708740 114.000000 226.000000 0.035924 0.962522 0.268813
14820.00000000 16050.00000000 -860.00000000 90 211 105 97.000000 1.000000 4.000000 1.000000 -60.708740 114.000000 226.000000 -0.075686 0.971513 0.224577
14820.00000000 16050.00000000 -860.00000000 90 211 105 97.000000 1.000000 4.000000 1.000000 -60.708740 114.000000 226.000000 -0.075686 0.971513 0.224577
14910.00000000 16070.00000000 -1010.00000000 90 211 105 97.000000 1.000000 4.000000 1.000000 -60.708740 114.000000 226.000000 0.612514 0.761378 -0.212441
14900.00000000 16050.00000000 -900.00000000 90 211 105 97.000000 1.000000 4.000000 1.000000 -60.708740 114.000000 226.000000 0.537654 0.766925 0.350363
14900.00000000 16010.00000000 -930.00000000 90 211 105 97.000000 1.000000 4.000000 1.000000 -60.708740 114.000000 226.000000 0.588628 0.780203 0.211659
14900.00000000 16010.00000000 -970.00000000 90 211 105 97.000000 1.000000 4.000000 1.000000 -60.708740 114.000000 226.000000 0.464464 0.823440 -0.325912
14870.00000000 16100.00000000 -1030.00000000 90 211 105 97.000000 1.000000 4.000000 1.000000 -60.708740 114.000000 226.000000 0.445735 0.884304 -0.139023
14890.00000000 16100.00000000 -1030.00000000 90 211 105 97.000000 1.000000 4.000000 1.000000 -60.708740 114.000000 226.000000 0.687171 0.699525 0.196114
14890.00000000 16020.00000000 -900.00000000 90 211 105 97.000000 1.000000 4.000000 1.000000 -60.708740 114.000000 226.000000 0.517259 0.855828 0.001344
14870.00000000 16020.00000000 -890.00000000 90 211 105 97.000000 1.000000 4.000000 1.000000 -60.708740 114.000000 226.000000 0.162264 0.872715 0.460478
14860.00000000 16030.00000000 -910.00000000 90 211 105 97.000000 1.000000 4.000000 1.000000 -60.708740 114.000000 226.000000 0.189350 0.938459 0.288863
14820.00000000 16050.00000000 -880.00000000 90 211 105 97.000000 1.000000 4.000000 1.000000 -60.708740 114.000000 226.000000 -0.029546 0.999476 0.013245
14820.00000000 16050.00000000 -870.00000000 90 211 105 97.000000 1.000000 4.000000 1.000000 -60.708740 114.000000 226.000000 -0.088980 0.995936 0.013937
14850.00000000 16030.00000000 -900.00000000 90 211 105 97.000000 1.000000 4.000000 1.000000 -60.708740 114.000000 226.000000 0.330026 0.905004 0.268421
14820.00000000 16050.00000000 -890.00000000 90 211 105 97.000000 1.000000 4.000000 1.000000 -60.708740 114.000000 226.000000 -0.050355 0.997461 0.050355
14820.00000000 16050.00000000 -870.00000000 90 211 105 97.000000 1.000000 4.000000 1.000000 -60.708740 114.000000 226.000000 -0.088980 0.995936 0.013937
14880.00000000 16030.00000000 -950.00000000 90 211 105 97.000000 1.000000 4.000000 1.000000 -60.708740 114.000000 226.000000 0.471607 0.877048 -0.091506
14890.00000000 16020.00000000 -960.00000000 90 211 105 97.000000 1.000000 4.000000 1.000000 -60.708740 114.000000 226.000000 0.697122 0.703145 -0.140027
14880.00000000 16030.00000000 -970.00000000 90 211 105 97.000000 1.000000 4.000000 1.000000 -60.708740 114.000000 226.000000 0.342397 0.867509 0.360822
14890.00000000 16030.00000000 -980.00000000 90 211 105 97.000000 1.000000 4.000000 1.000000 -60.708740 114.000000 226.000000 0.588055 0.802949 0.097283
14890.00000000 16030.00000000 -950.00000000 90 211 105 97.000000 1.000000 4.000000 1.000000 -60.708740 114.000000 226.000000 0.703657 0.709343 0.041224
14860.00000000 16020.00000000 -970.00000000 90 211 105 97.000000 1.000000 4.000000 1.000000 -60.708740 114.000000 226.000000 0.096915 0.984707 -0.144775
14860.00000000 16020.00000000 -970.00000000 90 211 105 97.000000 1.000000 4.000000 1.000000 -60.708740 114.000000 226.000000 0.096915 0.984707 -0.144775
14890.00000000 16020.00000000 -1030.00000000 90 211 105 97.000000 1.000000 4.000000 1.000000 -60.708740 114.000000 226.000000 0.415870 0.860896 -0.293104
14890.00000000 16020.00000000 -1010.00000000 90 211 105 97.000000 1.000000 4.000000 1.000000 -60.708740 114.000000 226.000000 0.461072 0.798442 0.387172
14860.00000000 16050.00000000 -1030.00000000 90 211 105 97.000000 1.000000 4.000000 1.000000 -60.708740 114.000000 226.000000 0.602301 0.788763 0.122828
14880.00000000 16020.00000000 -990.00000000 90 211 105 97.000000 1.000000 4.000000 1.000000 -60.708740 114.000000 226.000000 0.552451 0.770229 -0.318660
14840.00000000 16040.00000000 -970.00000000 90 211 105 97.000000 1.000000 4.000000 1.000000 -60.708740 114.000000 226.000000 -0.022353 0.997353 0.069187
14850.00000000 16040.00000000 -970.00000000 90 211 105 97.000000 1.000000 4.000000 1.000000 -60.708740 114.000000 226.000000 0.210108 0.973457 0.090757
14840.00000000 16040.00000000 -960.00000000 90 211 105 97.000000 1.000000 4.000000 1.000000 -60.708740 114.000000 226.000000 0.003189 0.996095 -0.088235
14850.00000000 16030.00000000 -950.00000000 90 211 105 97.000000 1.000000 4.000000 1.000000 -60.708740 114.000000 226.000000 0.574202 0.727977 0.374622
14820.00000000 16020.00000000 -990.00000000 90 211 105 97.000000 1.000000 4.000000 1.000000 -60.708740 114.000000 226.000000 0.001244 0.944109 0.329630
14830.00000000 16040.00000000 -1030.00000000 90 211 105 97.000000 1.000000 4.000000 1.000000 -60.708740 114.000000 226.000000 0.198943 0.957329 -0.209624
14830.00000000 16050.00000000 -1000.00000000 90 211 105 97.000000 1.000000 4.000000 1.000000 -60.708740 114.000000 226.000000 -0.013696 0.997701 -0.066373
14980.00000000 15870.00000000 -770.00000000 90 211 105 97.000000 1.000000 4.000000 1.000000 -60.708740 114.000000 226.000000 0.523571 0.851981 0.001346
14930.00000000 15870.00000000 -710.00000000 90 211 105 97.000000 1.000000 4.000000 1.000000 -60.708740 114.000000 226.000000 -0.076441 0.979176 0.188070
14860.00000000 15910.00000000 -720.00000000 90 211 105 97.000000 1.000000 4.000000 1.000000 -60.708740 114.000000 226.000000 0.060542 0.913517 0.402270
14850.00000000 15910.00000000 -770.00000000 90 211 105 97.000000 1.000000 4.000000 1.000000 -60.708740 114.000000 226.000000 -0.222036 0.929158 0.295577
14890.00000000 15930.00000000 -790.00000000 90 211 105 97.000000 1.000000 4.000000 1.000000 -60.708740 114.000000 226.000000 0.442193 0.754523 0.484933
14860.00000000 15900.00000000 -810.00000000 90 211 105 97.000000 1.000000 4.000000 1.000000 -60.708740 114.000000 226.000000 -0.174245 0.949567 0.260692
14860.00000000 15900.00000000 -810.00000000 90 211 105 97.000000 1.000000 4.000000 1.000000 -60.708740 114.000000 226.000000 -0.174245 0.949567 0.260692
14840.00000000 15910.00000000 -830.00000000 90 211 105 97.000000 1.000000 4.000000 1.000000 -60.708740 114.000000 226.000000 0.192666 0.938380 0.286920
14870.00000000 15800.00000000 -730.00000000 90 211 105 97.000000 1.000000 4.000000 1.000000 -60.708740 114.000000 226.000000 -0.082966 0.720498 0.688476
14920.00000000 15930.00000000 -1000.00000000 90 211 105 97.000000 1.000000 4.000000 1.000000 -60.708740 114.000000 226.000000 0.485350 0.844418 -0.226700
14930.00000000 15930.00000000 -1000.00000000 90 211 105 97.000000 1.000000 4.000000 1.000000 -60.708740 114.000000 226.000000 0.672501 0.709775 -0.209671
14930.00000000 15910.00000000 -960.00000000 90 211 105 97.000000 1.000000 4.000000 1.000000 -60.708740 114.000000 226.000000 0.434482 0.897746 0.072642
14970.00000000 15850.00000000 -880.00000000 90 211 105 97.000000 1.000000 4.000000 1.000000 -60.708740 114.000000 226.000000 0.538290 0.839391 -0.075275
14970.00000000 15820.00000000 -890.00000000 90 211 105 97.000000 1.000000 4.000000 1.000000 -60.708740 114.000000 226.000000 0.383402 0.882577 0.272140
14970.00000000 15830.00000000 -900.00000000 90 211 105 97.000000 1.000000 4.000000 1.000000 -60.708740 114.000000 226.000000 0.723542 0.690212 -0.009721
14970.00000000 15830.00000000 -940.00000000 90 211 105 97.000000 1.000000 4.000000 1.000000 -60.708740 114.000000 226.000000 0.702274 0.708066 -0.073847
14960.00000000 15840.00000000 -930.00000000 90 211 105 97.000000 1.000000 4.000000 1.000000 -60.708740 114.000000 226.000000 0.533569 0.845162 0.031711
14970.00000000 15830.00000000 -910.00000000 90 211 105 97.000000 1.000000 4.000000 1.000000 -60.708740 114.000000 226.000000 0.845323 0.533960 -0.017753
14980.00000000 15810.00000000 -920.00000000 90 211 105 97.000000 1.000000 4.000000 1.000000 -60.708740 114.000000 226.000000 0.504937 0.863105 0.009425
14910.00000000 15870.00000000 -890.00000000 90 211 105 97.000000 1.000000 4.000000 1.000000 -60.708740 114.000000 226.000000 0.455125 0.890347 -0.011942
14920.00000000 15860.00000000 -890.00000000 90 211 105 97.000000 1.000000 4.000000 1.000000 -60.708740 114.000000 226.000000 0.450286 0.869363 0.203594
14910.00000000 15860.00000000 -930.00000000 90 211 105 97.000000 1.000000 4.000000 1.000000 -60.708740 114.000000 226.000000 0.483324 0.783986 -0.389569
14930.00000000 15840.00000000 -880.00000000 90 211 105 97.000000 1.000000 4.000000 1.000000 -60.708740 114.000000 226.000000 0.560046 0.785947 -0.261982
14980.00000000 15850.00000000 -980.00000000 90 211 105 97.000000 1.000000 4.000000 1.000000 -60.708740 114.000000 226.000000 0.749700 0.466297 -0.469592
14950.00000000 15850.00000000 -970.00000000 90 211 105 97.000000 1.000000 4.000000 1.000000 -60.708740 114.000000 226.000000 0.304747 0.933723 -0.187858
14970.00000000 15830.00000000 -950.00000000 90 211 105 97.000000 1.000000 4.000000 1.000000 -60.708740 114.000000 226.000000 0.281761 0.947743 -0.149644
14960.00000000 15840.00000000 -980.00000000 90 211 105 97.000000 1.000000 4.000000 1.000000 -60.708740 114.000000 226.000000 0.813636 0.573736 0.093937
14960.00000000 15840.00000000 -1030.00000000 90 211 105 97.000000 1.000000 4.000000 1.000000 -60.708740 114.000000 226.000000 0.629314 0.770140 -0.104152
14910.00000000 15870.00000000 -1010.00000000 90 211 105 97.000000 1.000000 4.000000 1.000000 -60.708740 114.000000 226.000000 0.518439 0.828590 -0.211328
14880.00000000 15910.00000000 -890.00000000 90 211 105 97.000000 1.000000 4.000000 1.000000 -60.708740 114.000000 226.000000 0.386478 0.834477 0.392788
14830.00000000 15920.00000000 -870.00000000 90 211 105 97.000000 1.000000 4.000000 1.000000 -60.708740 114.000000 226.000000 0.157715 0.925354 0.344740
14840.00000000 15910.00000000 -900.00000000 90 211 105 97.000000 1.000000 4.000000 1.000000 -60.708740 114.000000 226.000000 -0.014103 0.994798 0.100890
14830.00000000 15890.00000000 -940.00000000 90 211 105 97.000000 1.000000 4.000000 1.000000 -60.708740 114.000000 226.000000 0.340572 0.919118 -0.198073
14860.00000000 15890.00000000 -1020.00000000 90 211 105 97.000000 1.000000 4.000000 1.000000 -60.708740 114.000000 226.000000 0.348982 0.840374 -0.414709
14840.00000000 15890.00000000 -950.00000000 90 211 105 97.000000 1.000000 4.000000 1.000000 -60.708740 114.000000 226.000000 0.283159 0.952204 -0.114581
14850.00000000 15890.00000000 -960.00000000 90 211 105 97.000000 1.000000 4.000000 1.000000 -60.708740 114.000000 226.000000 0.062198 0.996258 -0.060016
14830.00000000 15890.00000000 -1010.00000000 90 211 105 97.000000 1.000000 4.000000 1.000000 -60.708740 114.000000 226.000000 0.338506 0.934602 0.109239
14830.00000000 15910.00000000 -1010.00000000 90 211 105 97.000000 1.000000 4.000000 1.000000 -60.708740 114.000000 226.000000 0.648929 0.703407 -0.290015
14840.00000000 15900.00000000 -1000.00000000 90 211 105 97.000000 1.000000 4.000000 1.000000 -60.708740 114.000000 226.000000 0.366365 0.926052 -0.090577
14830.00000000 15900.00000000 -990.00000000 90 211 105 97.000000 1.000000 4.000000 1.000000 -60.708740 114.000000 226.000000 0.239081 0.902055 0.359355
14820.00000000 15910.00000000 -1030.00000000 90 211 105 97.000000 1.000000 4.000000 1.000000 -60.708740 114.000000 226.000000 0.528771 0.819979 0.219172
14820.00000000 15880.00000000 -1010.00000000 90 211 105 97.000000 1.000000 4.000000 1.000000 -60.708740 114.000000 226.000000 0.291114 0.867246 0.403902
15030.00000000 15890.00000000 -1100.00000000 90 211 105 97.000000 1.000000 4.000000 1.000000 -60.708740 114.000000 226.000000 0.577112 0.556803 -0.597421
15000.00000000 15830.00000000 -1070.00000000 90 211 105 97.000000 1.000000 4.000000 1.000000 -60.708740 114.000000 226.000000 0.624103 0.711640 -0.322589
14990.00000000 15830.00000000 -1130.00000000 90 211 105 97.000000 1.000000 4.000000 1.000000 -60.708740 114.000000 226.000000 0.769855 0.301248 -0.562648
15010.00000000 15820.00000000 -1190.00000000 90 211 105 97.000000 1.000000 4.000000 1.000000 -60.708740 114.000000 226.000000 0.692967 0.583289 -0.423757
14990.00000000 15800.00000000 -1190.00000000 90 211 105 97.000000 1.000000 4.000000 1.000000 -60.708740 114.000000 226.000000 0.467257 0.674926 -0.571092
15060.00000000 15800.00000000 -1210.00000000 90 211 105 97.000000 1.000000 4.000000 1.000000 -60.708740 114.000000 226.000000 0.544248 0.451044 -0.707356
14990.00000000 15800.00000000 -1200.00000000 90 211 105 97.000000 1.000000 4.000000 1.000000 -60.708740 114.000000 226.000000 0.855694 0.388389 -0.341968
14990.00000000 15810.00000000 -1220.00000000 90 211 105 97.000000 1.000000 4.000000 1.000000 -60.708740 114.000000 226.000000 0.634138 0.427752 -0.644125
14960.00000000 16090.00000000 -1140.00000000 90 211 105 97.000000 1.000000 4.000000 1.000000 -60.708740 114.000000 226.000000 0.588185 0.697537 -0.409244
14910.00000000 16100.00000000 -1180.00000000 90 211 105 97.000000 1.000000 4.000000 1.000000 -60.708740 114.000000 226.000000 0.436218 0.823263 -0.363251
14920.00000000 16010.00000000 -1090.00000000 90 211 105 97.000000 1.000000 4.000000 1.000000 -60.708740 114.000000 226.000000 0.804653 0.581056 0.122095
14910.00000000 16000.00000000 -1040.00000000 90 211 105 97.000000 1.000000 4.000000 1.000000 -60.708740 114.000000 226.000000 0.744062 0.650488 0.152435
14920.00000000 16010.00000000 -1100.00000000 90 211 105 97.000000 1.000000 4.000000 1.000000 -60.708740 114.000000 226.000000 0.827046 0.550880 -0.111920
14910.00000000 16010.00000000 -1040.00000000 90 211 105 97.000000 1.000000 4.000000 1.000000 -60.708740 114.000000 226.000000 0.746444 0.664912 0.026709
14930.00000000 16000.00000000 -1100.00000000 90 211 105 97.000000 1.000000 4.000000 1.000000 -60.708740 114.000000 226.000000 0.705680 0.708464 -0.009743
14910.00000000 16040.00000000 -1160.00000000 90 211 105 97.000000 1.000000 4.000000 1.000000 -60.708740 114.000000 226.000000 0.341781 0.928481 0.145291
14820.00000000 16070.00000000 -1070.00000000 90 211 105 97.000000 1.000000 4.000000 1.000000 -60.708740 114.000000 226.000000 0.154988 0.978283 -0.137629
14890.00000000 16100.00000000 -1190.00000000 90 211 105 97.000000 1.000000 4.000000 1.000000 -60.708740 114.000000 226.000000 0.634479 0.769719 0.070498
14860.00000000 16060.00000000 -1140.00000000 90 211 105 97.000000 1.000000 4.000000 1.000000 -60.708740 114.000000 226.000000 0.591441 0.674742 -0.441498
14880.00000000 16060.00000000 -1160.00000000 90 211 105 97.000000 1.000000 4.000000 1.000000 -60.708740 114.000000 226.000000 0.608483 0.638655 -0.471029
14870.00000000 16060.00000000 -1170.00000000 90 211 105 97.000000 1.000000 4.000000 1.000000 -60.708740 114.000000 226.000000 0.239904 0.970466 -0.025317
14890.00000000 16040.00000000 -1090.00000000 90 211 105 97.000000 1.000000 4.000000 1.000000 -60.708740 114.000000 226.000000 0.563399 0.809792 0.163761
14870.00000000 16050.00000000 -1080.00000000 90 211 105 97.000000 1.000000 4.000000 1.000000 -60.708740 114.000000 226.000000 0.125996 0.990939 -0.046539
14830.00000000 16040.00000000 -1060.00000000 90 211 105 97.000000 1.000000 4.000000 1.000000 -60.708740 114.000000 226.000000 0.114733 0.991706 0.057935
14840.00000000 16050.00000000 -1080.00000000 90 211 105 97.000000 1.000000 4.000000 1.000000 -60.708740 114.000000 226.000000 0.132068 0.974786 0.179864
14820.00000000 16050.00000000 -1120.00000000 90 211 105 97.000000 1.000000 4.000000 1.000000 -60.708740 114.000000 226.000000 0.191843 0.976543 0.097778
14940.00000000 15930.00000000 -1080.00000000 90 211 105 97.000000 1.000000 4.000000 1.000000 -60.708740 114.000000 226.000000 0.492758 0.721717 -0.486122
14930.00000000 15940.00000000 -1070.00000000 90 211 105 97.000000 1.000000 4.000000 1.000000 -60.708740 114.000000 226.000000 0.357574 0.844749 -0.398172
14940.00000000 15940.00000000 -1060.00000000 90 211 105 97.000000 1.000000 4.000000 1.000000 -60.708740 114.000000 226.000000 0.450565 0.866701 -0.214056
14950.00000000 15860.00000000 -1060.00000000 90 211 105 97.000000 1.000000 4.000000 1.000000 -60.708740 114.000000 226.000000 0.805349 0.562683 -0.186550
14920.00000000 15860.00000000 -1110.00000000 90 211 105 97.000000 1.000000 4.000000 1.000000 -60.708740 114.000000 226.000000 0.892331 0.361997 -0.269636
14940.00000000 15840.00000000 -1050.00000000 90 211 105 97.000000 1.000000 4.000000 1.000000 -60.708740 114.000000 226.000000 0.553023 0.724708 -0.411053
14820.00000000 15930.00000000 -1040.00000000 90 211 105 97.000000 1.000000 4.000000 1.000000 -60.708740 114.000000 226.000000 0.744936 0.647837 -0.159304
14820.00000000 15930.00000000 -1040.00000000 90 211 105 97.000000 1.000000 4.000000 1.000000 -60.708740 114.000000 226.000000 0.744936 0.647837 -0.159304
14820.00000000 15930.00000000 -1110.00000000 90 211 105 97.000000 1.000000 4.000000 1.000000 -60.708740 114.000000 226.000000 0.556065 0.826195 0.090522
14820.00000000 15910.00000000 -1060.00000000 90 211 105 97.000000 1.000000 4.000000 1.000000 -60.708740 114.000000 226.000000 0.466754 0.884306 0.011968
14830.00000000 15920.00000000 -1040.00000000 90 211 105 97.000000 1.000000 4.000000 1.000000 -60.708740 114.000000 226.000000 0.694030 0.671795 -0.258871
14830.00000000 15910.00000000 -1060.00000000 90 211 105 97.000000 1.000000 4.000000 1.000000 -60.708740 114.000000 226.000000 0.508322 0.859272 -0.057099
14820.00000000 15920.00000000 -1060.00000000 90 211 105 97.000000 1.000000 4.000000 1.000000 -60.708740 114.000000 226.000000 0.559893 0.742716 0.367277
14840.00000000 15930.00000000 -1120.00000000 90 211 105 97.000000 1.000000 4.000000 1.000000 -60.708740 114.000000 226.000000 0.433758 0.900677 0.025203
14850.00000000 15910.00000000 -1190.00000000 90 211 105 97.000000 1.000000 4.000000 1.000000 -60.708740 114.000000 226.000000 0.424414 0.677398 -0.600837
14840.00000000 15910.00000000 -1190.00000000 90 211 105 97.000000 1.000000 4.000000 1.000000 -60.708740 114.000000 226.000000 0.582983 0.766252 -0.270163
14820.00000000 15920.00000000 -1160.00000000 90 211 105 97.000000 1.000000 4.000000 1.000000 -60.708740 114.000000 226.000000 0.820039 0.476914 -0.316368
14890.00000000 15870.00000000 -1070.00000000 90 211 105 97.000000 1.000000 4.000000 1.000000 -60.708740 114.000000 226.000000 0.345023 0.809293 -0.475400
14890.00000000 15860.00000000 -1080.00000000 90 211 105 97.000000 1.000000 4.000000 1.000000 -60.708740 114.000000 226.000000 0.763904 0.637809 0.098237
14850.00000000 15880.00000000 -1040.00000000 90 211 105 97.000000 1.000000 4.000000 1.000000 -60.708740 114.000000 226.000000 0.497977 0.736211 -0.458271
14980.00000000 15810.00000000 -1220.00000000 90 211 105 97.000000 1.000000 4.000000 1.000000 -60.708740 114.000000 226.000000 0.929624 0.177537 -0.322922
14810.00000000 16030.00000000 -720.00000000 90 211 105 97.000000 1.000000 4.000000 1.000000 -60.708740 114.000000 226.000000 -0.315675 0.824523 0.469586
14800.00000000 16030.00000000 -770.00000000 90 211 105 97.000000 1.000000 4.000000 1.000000 -60.708740 114.000000 226.000000 -0.001079 0.993804 0.111142
14800.00000000 16000.00000000 -730.00000000 90 211 105 97.000000 1.000000 4.000000 1.000000 -60.708740 114.000000 226.000000 0.280783 0.772550 0.569498
14770.00000000 16010.00000000 -750.00000000 90 211 105 97.000000 1.000000 4.000000 1.000000 -60.708740 114.000000 226.000000 0.067593 0.990981 0.115710
14790.00000000 16040.00000000 -800.00000000 90 211 105 97.000000 1.000000 4.000000 1.000000 -60.708740 114.000000 226.000000 -0.215445 0.974979 0.054774
14800.00000000 16050.00000000 -860.00000000 90 211 105 97.000000 1.000000 4.000000 1.000000 -60.708740 114.000000 226.000000 0.077378 0.859603 0.505070
14780.00000000 16010.00000000 -860.00000000 90 211 105 97.000000 1.000000 4.000000 1.000000 -60.708740 114.000000 226.000000 0.421806 0.896159 0.137761
14800.00000000 16030.00000000 -840.00000000 90 211 105 97.000000 1.000000 4.000000 1.000000 -60.708740 114.000000 226.000000 -0.075740 0.896491 0.436540
14810.00000000 15990.00000000 -790.00000000 90 211 105 97.000000 1.000000 4.000000 1.000000 -60.708740 114.000000 226.000000 -0.093026 0.982214 0.163098
14810.00000000 15990.00000000 -800.00000000 90 211 105 97.000000 1.000000 4.000000 1.000000 -60.708740 114.000000 226.000000 -0.161447 0.901529 0.401473
14810.00000000 16050.00000000 -890.00000000 90 211 105 97.000000 1.000000 4.000000 1.000000 -60.708740 114.000000 226.000000 -0.064513 0.992588 0.102994
14800.00000000 15970.00000000 -900.00000000 90 211 105 97.000000 1.000000 4.000000 1.000000 -60.708740 114.000000 226.000000 0.117524 0.840078 0.529583
14770.00000000 16000.00000000 -940.00000000 90 211 105 97.000000 1.000000 4.000000 1.000000 -60.708740 114.000000 226.000000 -0.112467 0.983179 0.143909
14810.00000000 16010.00000000 -950.00000000 90 211 105 97.000000 1.000000 4.000000 1.000000 -60.708740 114.000000 226.000000 0.352453 0.881890 0.313124
14800.00000000 16030.00000000 -1030.00000000 90 211 105 97.000000 1.000000 4.000000 1.000000 -60.708740 114.000000 226.000000 0.099741 0.991678 0.081398
14810.00000000 15910.00000000 -770.00000000 90 211 105 97.000000 1.000000 4.000000 1.000000 -60.708740 114.000000 226.000000 0.324235 0.865140 0.382628
14810.00000000 15930.00000000 -850.00000000 90 211 105 97.000000 1.000000 4.000000 1.000000 -60.708740 114.000000 226.000000 0.388771 0.886278 0.251733
14810.00000000 15940.00000000 -900.00000000 90 211 105 97.000000 1.000000 4.000000 1.000000 -60.708740 114.000000 226.000000 0.340167 0.929605 0.141851
14810.00000000 15960.00000000 -870.00000000 90 211 105 97.000000 1.000000 4.000000 1.000000 -60.708740 114.000000 226.000000 0.235698 0.944172 0.230185
14810.00000000 15930.00000000 -920.00000000 90 211 105 97.000000 1.000000 4.000000 1.000000 -60.708740 114.000000 226.000000 0.568946 0.818308 0.081687
14810.00000000 15930.00000000 -920.00000000 90 211 105 97.000000 1.000000 4.000000 1.000000 -60.708740 114.000000 226.000000 0.568946 0.818308 0.081687
