//X Y Z R G B PointSourceId ScanDirectionFlag NumberOfReturns ReturnNumber GpsTime Intensity Classification Nx Ny Nz
8550.00000000 -10370.00000000 590.00000000 214 124 86 0.000000 0.000000 0.000000 0.000000 -60.708740 0.000000 125.000000 0.894564 0.224743 0.386323
8580.00000000 -10380.00000000 530.00000000 214 124 86 0.000000 0.000000 0.000000 0.000000 -60.708740 0.000000 125.000000 0.001367 0.600218 0.799835
8560.00000000 -10360.00000000 540.00000000 214 124 86 0.000000 0.000000 0.000000 0.000000 -60.708740 0.000000 125.000000 0.863635 0.491255 0.113146
8580.00000000 -10420.00000000 590.00000000 214 124 86 0.000000 0.000000 0.000000 0.000000 -60.708740 0.000000 125.000000 0.314832 0.884242 0.344960
8570.00000000 -10430.00000000 610.00000000 214 124 86 0.000000 0.000000 0.000000 0.000000 -60.708740 0.000000 125.000000 0.116070 0.904787 0.409741
8550.00000000 -10410.00000000 530.00000000 214 124 86 0.000000 0.000000 0.000000 0.000000 -60.708740 0.000000 125.000000 0.710472 0.578598 0.400568
8460.00000000 -10390.00000000 600.00000000 214 124 86 0.000000 0.000000 0.000000 0.000000 -60.708740 0.000000 125.000000 0.887170 -0.129587 0.442873
8460.00000000 -10360.00000000 580.00000000 214 124 86 0.000000 0.000000 0.000000 0.000000 -60.708740 0.000000 125.000000 0.905141 0.136971 0.402442
8430.00000000 -10370.00000000 630.00000000 214 124 86 0.000000 0.000000 0.000000 0.000000 -60.708740 0.000000 125.000000 0.954924 0.172287 0.241736
8430.00000000 -10390.00000000 640.00000000 214 124 86 0.000000 0.000000 0.000000 0.000000 -60.708740 0.000000 125.000000 0.967155 -0.071317 0.243978
8430.00000000 -10380.00000000 640.00000000 214 124 86 0.000000 0.000000 0.000000 0.000000 -60.708740 0.000000 125.000000 0.979090 0.134919 0.152248
8490.00000000 -10320.00000000 500.00000000 214 124 86 0.000000 0.000000 0.000000 0.000000 -60.708740 0.000000 125.000000 0.784446 0.380092 0.490076
8480.00000000 -10430.00000000 650.00000000 214 124 86 0.000000 0.000000 0.000000 0.000000 -60.708740 0.000000 125.000000 0.912015 0.399092 0.094630
8470.00000000 -10400.00000000 640.00000000 214 124 86 0.000000 0.000000 0.000000 0.000000 -60.708740 0.000000 125.000000 0.905999 0.418466 0.063650
8560.00000000 -10310.00000000 450.00000000 214 124 86 0.000000 0.000000 0.000000 0.000000 -60.708740 0.000000 125.000000 0.361743 0.840934 0.402458
8530.00000000 -10340.00000000 480.00000000 214 124 86 0.000000 0.000000 0.000000 0.000000 -60.708740 0.000000 125.000000 0.637460 0.265476 0.723303
8540.00000000 -10150.00000000 250.00000000 214 124 86 0.000000 0.000000 0.000000 0.000000 -60.708740 0.000000 125.000000 0.943169 0.213418 0.254725
8470.00000000 -10160.00000000 310.00000000 214 124 86 0.000000 0.000000 0.000000 0.000000 -60.708740 0.000000 125.000000 0.901198 -0.152335 0.405753
8440.00000000 -10160.00000000 310.00000000 214 124 86 0.000000 0.000000 0.000000 0.000000 -60.708740 0.000000 125.000000 0.994344 -0.092419 0.052334
8440.00000000 -10170.00000000 300.00000000 214 124 86 0.000000 0.000000 0.000000 0.000000 -60.708740 0.000000 125.000000 0.948488 -0.214263 -0.233369
8570.00000000 -10480.00000000 610.00000000 214 124 86 0.000000 0.000000 0.000000 0.000000 -60.708740 0.000000 125.000000 0.377748 0.551087 0.744049
8570.00000000 -10490.00000000 620.00000000 214 124 86 0.000000 0.000000 0.000000 0.000000 -60.708740 0.000000 125.000000 0.465908 0.819682 0.333243
8520.00000000 -10490.00000000 620.00000000 214 124 86 0.000000 0.000000 0.000000 0.000000 -60.708740 0.000000 125.000000 0.721653 0.499351 0.479443
8530.00000000 -10510.00000000 610.00000000 214 124 86 0.000000 0.000000 0.000000 0.000000 -60.708740 0.000000 125.000000 0.443184 0.640526 0.627147
8510.00000000 -10480.00000000 630.00000000 214 124 86 0.000000 0.000000 0.000000 0.000000 -60.708740 0.000000 125.000000 0.756096 0.372357 0.538210
8570.00000000 -10480.00000000 610.00000000 214 124 86 0.000000 0.000000 0.000000 0.000000 -60.708740 0.000000 125.000000 0.377748 0.551087 0.744049
8400.00000000 -10330.00000000 670.00000000 214 124 86 0.000000 0.000000 0.000000 0.000000 -60.708740 0.000000 125.000000 0.909766 -0.296441 -0.290600
8410.00000000 -10370.00000000 680.00000000 214 124 86 0.000000 0.000000 0.000000 0.000000 -60.708740 0.000000 125.000000 0.967352 -0.148525 -0.205353
8380.00000000 -10360.00000000 670.00000000 214 124 86 0.000000 0.000000 0.000000 0.000000 -60.708740 0.000000 125.000000 0.902407 -0.288002 0.320495
8370.00000000 -10390.00000000 660.00000000 214 124 86 0.000000 0.000000 0.000000 0.000000 -60.708740 0.000000 125.000000 0.930643 -0.001266 0.365926
8410.00000000 -10280.00000000 500.00000000 214 124 86 0.000000 0.000000 0.000000 0.000000 -60.708740 0.000000 125.000000 0.926351 0.307838 0.217047
8410.00000000 -10290.00000000 500.00000000 214 124 86 0.000000 0.000000 0.000000 0.000000 -60.708740 0.000000 125.000000 0.937046 -0.222042 0.269523
8400.00000000 -10200.00000000 460.00000000 214 124 86 0.000000 0.000000 0.000000 0.000000 -60.708740 0.000000 125.000000 0.844720 -0.509208 -0.164787
8390.00000000 -10250.00000000 440.00000000 214 124 86 0.000000 0.000000 0.000000 0.000000 -60.708740 0.000000 125.000000 0.967559 -0.166642 -0.189895
8410.00000000 -10260.00000000 470.00000000 214 124 86 0.000000 0.000000 0.000000 0.000000 -60.708740 0.000000 125.000000 0.952369 0.295919 -0.073657
8400.00000000 -10230.00000000 380.00000000 214 124 86 0.000000 0.000000 0.000000 0.000000 -60.708740 0.000000 125.000000 0.883676 0.446867 0.139377
8380.00000000 -10340.00000000 650.00000000 214 124 86 0.000000 0.000000 0.000000 0.000000 -60.708740 0.000000 125.000000 0.860874 -0.214843 -0.461236
8390.00000000 -10320.00000000 610.00000000 214 124 86 0.000000 0.000000 0.000000 0.000000 -60.708740 0.000000 125.000000 0.992931 -0.102562 0.059734
8390.00000000 -10460.00000000 630.00000000 214 124 86 0.000000 0.000000 0.000000 0.000000 -60.708740 0.000000 125.000000 0.971708 0.159192 0.174474
8370.00000000 -10410.00000000 650.00000000 214 124 86 0.000000 0.000000 0.000000 0.000000 -60.708740 0.000000 125.000000 0.964317 -0.254034 -0.074567
8370.00000000 -10410.00000000 650.00000000 214 124 86 0.000000 0.000000 0.000000 0.000000 -60.708740 0.000000 125.000000 0.964317 -0.254034 -0.074567
8410.00000000 -10170.00000000 280.00000000 214 124 86 0.000000 0.000000 0.000000 0.000000 -60.708740 0.000000 125.000000 0.927213 -0.145527 0.345106
8390.00000000 -10480.00000000 650.00000000 214 124 86 0.000000 0.000000 0.000000 0.000000 -60.708740 0.000000 125.000000 0.961682 0.043656 0.270668
8790.00000000 -9260.00000000 -690.00000000 214 124 86 0.000000 0.000000 0.000000 0.000000 -60.708740 0.000000 125.000000 0.422623 0.748223 0.511423
8800.00000000 -9450.00000000 -480.00000000 214 124 86 0.000000 0.000000 0.000000 0.000000 -60.708740 0.000000 125.000000 0.570499 0.590814 0.570499
8870.00000000 -9360.00000000 -600.00000000 214 124 86 0.000000 0.000000 0.000000 0.000000 -60.708740 0.000000 125.000000 0.731256 0.356670 0.581422
8880.00000000 -9330.00000000 -670.00000000 214 124 86 0.000000 0.000000 0.000000 0.000000 -60.708740 0.000000 125.000000 0.800710 0.220619 0.556948
8880.00000000 -9370.00000000 -630.00000000 214 124 86 0.000000 0.000000 0.000000 0.000000 -60.708740 0.000000 125.000000 0.612193 0.725263 0.314981
8860.00000000 -9450.00000000 -640.00000000 214 124 86 0.000000 0.000000 0.000000 0.000000 -60.708740 0.000000 125.000000 0.990101 -0.116959 0.077587
8830.00000000 -9350.00000000 -560.00000000 214 124 86 0.000000 0.000000 0.000000 0.000000 -60.708740 0.000000 125.000000 0.636258 0.394975 0.662699
8770.00000000 -9360.00000000 -560.00000000 214 124 86 0.000000 0.000000 0.000000 0.000000 -60.708740 0.000000 125.000000 0.518534 0.809916 0.274150
8810.00000000 -9340.00000000 -650.00000000 214 124 86 0.000000 0.000000 0.000000 0.000000 -60.708740 0.000000 125.000000 0.497474 0.380802 0.779429
8810.00000000 -9300.00000000 -650.00000000 214 124 86 0.000000 0.000000 0.000000 0.000000 -60.708740 0.000000 125.000000 0.504025 0.845989 0.173956
8790.00000000 -9310.00000000 -610.00000000 214 124 86 0.000000 0.000000 0.000000 0.000000 -60.708740 0.000000 125.000000 0.406306 0.504211 0.762028
8840.00000000 -9610.00000000 -250.00000000 214 124 86 0.000000 0.000000 0.000000 0.000000 -60.708740 0.000000 125.000000 0.660985 0.631166 0.405868
8870.00000000 -9580.00000000 -340.00000000 214 124 86 0.000000 0.000000 0.000000 0.000000 -60.708740 0.000000 125.000000 0.946528 0.085332 0.311133
8800.00000000 -9520.00000000 -330.00000000 214 124 86 0.000000 0.000000 0.000000 0.000000 -60.708740 0.000000 125.000000 0.220153 0.729158 0.647967
8800.00000000 -9620.00000000 -270.00000000 214 124 86 0.000000 0.000000 0.000000 0.000000 -60.708740 0.000000 125.000000 0.857418 0.338333 0.387769
8780.00000000 -9630.00000000 -230.00000000 214 124 86 0.000000 0.000000 0.000000 0.000000 -60.708740 0.000000 125.000000 0.488561 0.669883 0.559075
8770.00000000 -9620.00000000 -220.00000000 214 124 86 0.000000 0.000000 0.000000 0.000000 -60.708740 0.000000 125.000000 0.682610 0.721277 0.117486
8800.00000000 -9630.00000000 -260.00000000 214 124 86 0.000000 0.000000 0.000000 0.000000 -60.708740 0.000000 125.000000 0.713502 0.699261 0.044149
8790.00000000 -9580.00000000 -300.00000000 214 124 86 0.000000 0.000000 0.000000 0.000000 -60.708740 0.000000 125.000000 0.662823 0.578922 0.474884
8800.00000000 -9690.00000000 -140.00000000 214 124 86 0.000000 0.000000 0.000000 0.000000 -60.708740 0.000000 125.000000 0.557267 0.440823 0.703654
8780.00000000 -9660.00000000 -150.00000000 214 124 86 0.000000 0.000000 0.000000 0.000000 -60.708740 0.000000 125.000000 0.485539 0.807109 0.335897
8790.00000000 -9690.00000000 -130.00000000 214 124 86 0.000000 0.000000 0.000000 0.000000 -60.708740 0.000000 125.000000 0.489083 0.426925 0.760614
8790.00000000 -9750.00000000 -60.00000000 214 124 86 0.000000 0.000000 0.000000 0.000000 -60.708740 0.000000 125.000000 0.680242 0.708007 0.189727
8760.00000000 -9720.00000000 -60.00000000 214 124 86 0.000000 0.000000 0.000000 0.000000 -60.708740 0.000000 125.000000 0.349273 0.523104 0.777413
8770.00000000 -9720.00000000 -90.00000000 214 124 86 0.000000 0.000000 0.000000 0.000000 -60.708740 0.000000 125.000000 0.405467 0.680192 0.610684
8790.00000000 -9770.00000000 -20.00000000 214 124 86 0.000000 0.000000 0.000000 0.000000 -60.708740 0.000000 125.000000 0.768819 0.515255 0.378721
8790.00000000 -9770.00000000 -20.00000000 214 124 86 0.000000 0.000000 0.000000 0.000000 -60.708740 0.000000 125.000000 0.768819 0.515255 0.378721
8760.00000000 -9770.00000000 -80.00000000 214 124 86 0.000000 0.000000 0.000000 0.000000 -60.708740 0.000000 125.000000 0.590570 0.590570 0.549958
8880.00000000 -9650.00000000 -290.00000000 214 124 86 0.000000 0.000000 0.000000 0.000000 -60.708740 0.000000 125.000000 0.797126 0.531944 0.285703
8780.00000000 -9670.00000000 -270.00000000 214 124 86 0.000000 0.000000 0.000000 0.000000 -60.708740 0.000000 125.000000 0.721506 0.576876 0.382940
8780.00000000 -9680.00000000 -230.00000000 214 124 86 0.000000 0.000000 0.000000 0.000000 -60.708740 0.000000 125.000000 0.674233 0.604313 0.424517
8790.00000000 -9680.00000000 -200.00000000 214 124 86 0.000000 0.000000 0.000000 0.000000 -60.708740 0.000000 125.000000 0.544352 0.635358 0.547723
8770.00000000 -9640.00000000 -330.00000000 214 124 86 0.000000 0.000000 0.000000 0.000000 -60.708740 0.000000 125.000000 0.735986 0.504440 0.451515
8770.00000000 -9770.00000000 -290.00000000 214 124 86 0.000000 0.000000 0.000000 0.000000 -60.708740 0.000000 125.000000 0.957502 -0.237715 -0.163346
8760.00000000 -9800.00000000 -320.00000000 214 124 86 0.000000 0.000000 0.000000 0.000000 -60.708740 0.000000 125.000000 0.802453 -0.533405 -0.267484
8770.00000000 -9800.00000000 -280.00000000 214 124 86 0.000000 0.000000 0.000000 0.000000 -60.708740 0.000000 125.000000 0.947030 -0.277741 0.161225
8870.00000000 -9500.00000000 -430.00000000 214 124 86 0.000000 0.000000 0.000000 0.000000 -60.708740 0.000000 125.000000 0.940406 0.248645 0.231976
8850.00000000 -9530.00000000 -390.00000000 214 124 86 0.000000 0.000000 0.000000 0.000000 -60.708740 0.000000 125.000000 0.706463 0.694464 0.136493
8850.00000000 -9530.00000000 -400.00000000 214 124 86 0.000000 0.000000 0.000000 0.000000 -60.708740 0.000000 125.000000 0.935939 0.346205 0.064502
8860.00000000 -9470.00000000 -460.00000000 214 124 86 0.000000 0.000000 0.000000 0.000000 -60.708740 0.000000 125.000000 0.812326 0.574005 0.103176
8850.00000000 -9590.00000000 -360.00000000 214 124 86 0.000000 0.000000 0.000000 0.000000 -60.708740 0.000000 125.000000 0.850172 0.396332 0.346596
8860.00000000 -9600.00000000 -470.00000000 214 124 86 0.000000 0.000000 0.000000 0.000000 -60.708740 0.000000 125.000000 0.997549 0.068614 -0.013723
8820.00000000 -9580.00000000 -380.00000000 214 124 86 0.000000 0.000000 0.000000 0.000000 -60.708740 0.000000 125.000000 0.906787 -0.017060 0.421243
8790.00000000 -9560.00000000 -480.00000000 214 124 86 0.000000 0.000000 0.000000 0.000000 -60.708740 0.000000 125.000000 0.818632 0.275996 0.503654
8780.00000000 -9560.00000000 -510.00000000 214 124 86 0.000000 0.000000 0.000000 0.000000 -60.708740 0.000000 125.000000 0.911590 0.395439 0.112388
8820.00000000 -9590.00000000 -510.00000000 214 124 86 0.000000 0.000000 0.000000 0.000000 -60.708740 0.000000 125.000000 0.983372 0.179956 -0.024381
8780.00000000 -9570.00000000 -520.00000000 214 124 86 0.000000 0.000000 0.000000 0.000000 -60.708740 0.000000 125.000000 0.972812 0.212997 -0.090929
8840.00000000 -9610.00000000 -580.00000000 214 124 86 0.000000 0.000000 0.000000 0.000000 -60.708740 0.000000 125.000000 0.934104 -0.273910 0.228961
8870.00000000 -9610.00000000 -590.00000000 214 124 86 0.000000 0.000000 0.000000 0.000000 -60.708740 0.000000 125.000000 0.984330 0.024290 0.174658
8890.00000000 -9610.00000000 -690.00000000 214 124 86 0.000000 0.000000 0.000000 0.000000 -60.708740 0.000000 125.000000 0.954319 -0.181200 -0.237573
8780.00000000 -9480.00000000 -640.00000000 214 124 86 0.000000 0.000000 0.000000 0.000000 -60.708740 0.000000 125.000000 0.969488 -0.210204 0.126123
8790.00000000 -9500.00000000 -670.00000000 214 124 86 0.000000 0.000000 0.000000 0.000000 -60.708740 0.000000 125.000000 0.965343 -0.242926 -0.095390
8820.00000000 -9510.00000000 -630.00000000 214 124 86 0.000000 0.000000 0.000000 0.000000 -60.708740 0.000000 125.000000 0.966874 0.048158 -0.250671
8780.00000000 -9470.00000000 -690.00000000 214 124 86 0.000000 0.000000 0.000000 0.000000 -60.708740 0.000000 125.000000 0.925227 0.363823 -0.107648
8820.00000000 -9570.00000000 -540.00000000 214 124 86 0.000000 0.000000 0.000000 0.000000 -60.708740 0.000000 125.000000 0.961973 -0.172392 -0.211871
8800.00000000 -9590.00000000 -570.00000000 214 124 86 0.000000 0.000000 0.000000 0.000000 -60.708740 0.000000 125.000000 0.926443 -0.148620 -0.345854
8790.00000000 -9590.00000000 -530.00000000 214 124 86 0.000000 0.000000 0.000000 0.000000 -60.708740 0.000000 125.000000 0.991784 0.074355 0.104097
8810.00000000 -9570.00000000 -610.00000000 214 124 86 0.000000 0.000000 0.000000 0.000000 -60.708740 0.000000 125.000000 0.870951 -0.258115 -0.418117
8810.00000000 -9590.00000000 -620.00000000 214 124 86 0.000000 0.000000 0.000000 0.000000 -60.708740 0.000000 125.000000 0.815118 -0.578246 -0.034834
8830.00000000 -9590.00000000 -680.00000000 214 124 86 0.000000 0.000000 0.000000 0.000000 -60.708740 0.000000 125.000000 -0.656645 0.672939 0.340543
8810.00000000 -9630.00000000 -650.00000000 214 124 86 0.000000 0.000000 0.000000 0.000000 -60.708740 0.000000 125.000000 0.862055 -0.249981 -0.440875
8820.00000000 -9620.00000000 -650.00000000 214 124 86 0.000000 0.000000 0.000000 0.000000 -60.708740 0.000000 125.000000 -0.755593 0.509738 0.411396
8810.00000000 -9620.00000000 -660.00000000 214 124 86 0.000000 0.000000 0.000000 0.000000 -60.708740 0.000000 125.000000 0.874386 -0.248320 -0.416876
8820.00000000 -9700.00000000 -480.00000000 214 124 86 0.000000 0.000000 0.000000 0.000000 -60.708740 0.000000 125.000000 0.926946 -0.062327 -0.369983
8800.00000000 -9710.00000000 -520.00000000 214 124 86 0.000000 0.000000 0.000000 0.000000 -60.708740 0.000000 125.000000 0.762485 -0.460770 -0.454211
8820.00000000 -9730.00000000 -390.00000000 214 124 86 0.000000 0.000000 0.000000 0.000000 -60.708740 0.000000 125.000000 0.966536 -0.127413 -0.222651
8820.00000000 -9760.00000000 -410.00000000 214 124 86 0.000000 0.000000 0.000000 0.000000 -60.708740 0.000000 125.000000 0.949016 -0.314667 0.018805
8810.00000000 -9770.00000000 -430.00000000 214 124 86 0.000000 0.000000 0.000000 0.000000 -60.708740 0.000000 125.000000 -0.704844 0.704844 -0.079931
8790.00000000 -9750.00000000 -400.00000000 214 124 86 0.000000 0.000000 0.000000 0.000000 -60.708740 0.000000 125.000000 0.896132 -0.403911 0.183859
8790.00000000 -9720.00000000 -420.00000000 214 124 86 0.000000 0.000000 0.000000 0.000000 -60.708740 0.000000 125.000000 0.749750 -0.365930 -0.551335
8780.00000000 -9780.00000000 -380.00000000 214 124 86 0.000000 0.000000 0.000000 0.000000 -60.708740 0.000000 125.000000 0.762897 -0.640367 -0.088980
8770.00000000 -9780.00000000 -410.00000000 214 124 86 0.000000 0.000000 0.000000 0.000000 -60.708740 0.000000 125.000000 -0.444917 0.854669 0.267562
8770.00000000 -9740.00000000 -470.00000000 214 124 86 0.000000 0.000000 0.000000 0.000000 -60.708740 0.000000 125.000000 0.424048 -0.590341 -0.686791
8840.00000000 -9670.00000000 -530.00000000 214 124 86 0.000000 0.000000 0.000000 0.000000 -60.708740 0.000000 125.000000 0.762198 -0.644937 0.055771
8860.00000000 -9680.00000000 -530.00000000 214 124 86 0.000000 0.000000 0.000000 0.000000 -60.708740 0.000000 125.000000 0.942627 -0.241522 -0.230481
8840.00000000 -9650.00000000 -650.00000000 214 124 86 0.000000 0.000000 0.000000 0.000000 -60.708740 0.000000 125.000000 -0.604336 0.790733 0.097567
8780.00000000 -9640.00000000 -590.00000000 214 124 86 0.000000 0.000000 0.000000 0.000000 -60.708740 0.000000 125.000000 0.825267 -0.559237 -0.078665
8760.00000000 -9670.00000000 -600.00000000 214 124 86 0.000000 0.000000 0.000000 0.000000 -60.708740 0.000000 125.000000 -0.443995 0.886561 0.129915
8800.00000000 -9670.00000000 -630.00000000 214 124 86 0.000000 0.000000 0.000000 0.000000 -60.708740 0.000000 125.000000 -0.516328 0.851012 0.095828
8790.00000000 -9680.00000000 -630.00000000 214 124 86 0.000000 0.000000 0.000000 0.000000 -60.708740 0.000000 125.000000 -0.567435 0.803488 0.180066
8810.00000000 -9720.00000000 -580.00000000 214 124 86 0.000000 0.000000 0.000000 0.000000 -60.708740 0.000000 125.000000 -0.340266 0.800345 0.493626
8690.00000000 -9290.00000000 -680.00000000 214 124 86 0.000000 0.000000 0.000000 0.000000 -60.708740 0.000000 125.000000 0.040075 0.852630 0.520975
8630.00000000 -9320.00000000 -690.00000000 214 124 86 0.000000 0.000000 0.000000 0.000000 -60.708740 0.000000 125.000000 -0.358874 0.783729 0.506930
8750.00000000 -9760.00000000 -40.00000000 214 124 86 0.000000 0.000000 0.000000 0.000000 -60.708740 0.000000 125.000000 0.875347 0.405281 0.263659
8740.00000000 -9750.00000000 -50.00000000 214 124 86 0.000000 0.000000 0.000000 0.000000 -60.708740 0.000000 125.000000 0.702605 0.641228 0.308500
8720.00000000 -9800.00000000 -20.00000000 214 124 86 0.000000 0.000000 0.000000 0.000000 -60.708740 0.000000 125.000000 0.382560 0.727357 0.569736
8720.00000000 -9770.00000000 -60.00000000 214 124 86 0.000000 0.000000 0.000000 0.000000 -60.708740 0.000000 125.000000 0.609151 0.691691 0.387941
8680.00000000 -9790.00000000 -150.00000000 214 124 86 0.000000 0.000000 0.000000 0.000000 -60.708740 0.000000 125.000000 0.671185 0.567411 0.477027
8590.00000000 -9800.00000000 -30.00000000 214 124 86 0.000000 0.000000 0.000000 0.000000 -60.708740 0.000000 125.000000 0.767868 -0.570734 -0.290931
8610.00000000 -9800.00000000 -20.00000000 214 124 86 0.000000 0.000000 0.000000 0.000000 -60.708740 0.000000 125.000000 -0.396735 0.842083 0.365373
8660.00000000 -9730.00000000 -140.00000000 214 124 86 0.000000 0.000000 0.000000 0.000000 -60.708740 0.000000 125.000000 0.008540 0.960142 0.279381
8660.00000000 -9760.00000000 -180.00000000 214 124 86 0.000000 0.000000 0.000000 0.000000 -60.708740 0.000000 125.000000 0.127696 0.972260 0.195969
8630.00000000 -9760.00000000 -150.00000000 214 124 86 0.000000 0.000000 0.000000 0.000000 -60.708740 0.000000 125.000000 -0.155467 0.962851 0.220789
8670.00000000 -9710.00000000 -280.00000000 214 124 86 0.000000 0.000000 0.000000 0.000000 -60.708740 0.000000 125.000000 -0.016661 0.931755 0.362705
8750.00000000 -9670.00000000 -340.00000000 214 124 86 0.000000 0.000000 0.000000 0.000000 -60.708740 0.000000 125.000000 0.964077 0.244540 0.103706
8730.00000000 -9700.00000000 -350.00000000 214 124 86 0.000000 0.000000 0.000000 0.000000 -60.708740 0.000000 125.000000 0.973619 0.142696 -0.178055
8670.00000000 -9750.00000000 -190.00000000 214 124 86 0.000000 0.000000 0.000000 0.000000 -60.708740 0.000000 125.000000 0.266978 0.813424 0.516782
8680.00000000 -9730.00000000 -260.00000000 214 124 86 0.000000 0.000000 0.000000 0.000000 -60.708740 0.000000 125.000000 0.534534 0.761995 0.365563
8710.00000000 -9730.00000000 -320.00000000 214 124 86 0.000000 0.000000 0.000000 0.000000 -60.708740 0.000000 125.000000 0.954625 0.036474 -0.295569
8650.00000000 -9750.00000000 -190.00000000 214 124 86 0.000000 0.000000 0.000000 0.000000 -60.708740 0.000000 125.000000 -0.351975 0.757475 0.549859
8640.00000000 -9750.00000000 -250.00000000 214 124 86 0.000000 0.000000 0.000000 0.000000 -60.708740 0.000000 125.000000 0.842457 -0.529585 -0.099028
8640.00000000 -9750.00000000 -260.00000000 214 124 86 0.000000 0.000000 0.000000 0.000000 -60.708740 0.000000 125.000000 0.857232 -0.141655 -0.495063
8660.00000000 -9720.00000000 -240.00000000 214 124 86 0.000000 0.000000 0.000000 0.000000 -60.708740 0.000000 125.000000 -0.187892 0.892851 0.409284
8620.00000000 -9760.00000000 -300.00000000 214 124 86 0.000000 0.000000 0.000000 0.000000 -60.708740 0.000000 125.000000 0.885041 0.198143 0.421238
8570.00000000 -9780.00000000 -60.00000000 214 124 86 0.000000 0.000000 0.000000 0.000000 -60.708740 0.000000 125.000000 -0.502923 0.824794 0.258425
8730.00000000 -9610.00000000 -480.00000000 214 124 86 0.000000 0.000000 0.000000 0.000000 -60.708740 0.000000 125.000000 0.999577 -0.017287 -0.023388
8740.00000000 -9630.00000000 -510.00000000 214 124 86 0.000000 0.000000 0.000000 0.000000 -60.708740 0.000000 125.000000 0.834698 -0.520000 0.181326
8710.00000000 -9610.00000000 -470.00000000 214 124 86 0.000000 0.000000 0.000000 0.000000 -60.708740 0.000000 125.000000 0.922711 0.383037 0.043437
8720.00000000 -9590.00000000 -580.00000000 214 124 86 0.000000 0.000000 0.000000 0.000000 -60.708740 0.000000 125.000000 0.348922 -0.741661 -0.572881
8730.00000000 -9620.00000000 -550.00000000 214 124 86 0.000000 0.000000 0.000000 0.000000 -60.708740 0.000000 125.000000 -0.629146 0.384753 0.675382
8700.00000000 -9620.00000000 -570.00000000 214 124 86 0.000000 0.000000 0.000000 0.000000 -60.708740 0.000000 125.000000 -0.332387 0.923612 0.190946
8750.00000000 -9630.00000000 -630.00000000 214 124 86 0.000000 0.000000 0.000000 0.000000 -60.708740 0.000000 125.000000 -0.438787 0.812156 0.384537
8700.00000000 -9590.00000000 -630.00000000 214 124 86 0.000000 0.000000 0.000000 0.000000 -60.708740 0.000000 125.000000 -0.177305 0.792567 0.583439
8720.00000000 -9600.00000000 -650.00000000 214 124 86 0.000000 0.000000 0.000000 0.000000 -60.708740 0.000000 125.000000 -0.272298 0.625807 0.730904
8750.00000000 -9680.00000000 -370.00000000 214 124 86 0.000000 0.000000 0.000000 0.000000 -60.708740 0.000000 125.000000 0.976914 -0.184487 0.107721
8710.00000000 -9680.00000000 -380.00000000 214 124 86 0.000000 0.000000 0.000000 0.000000 -60.708740 0.000000 125.000000 0.999999 0.000979 -0.000979
8720.00000000 -9690.00000000 -420.00000000 214 124 86 0.000000 0.000000 0.000000 0.000000 -60.708740 0.000000 125.000000 0.956893 -0.290376 0.006126
8670.00000000 -9650.00000000 -420.00000000 214 124 86 0.000000 0.000000 0.000000 0.000000 -60.708740 0.000000 125.000000 0.626373 -0.468520 -0.623014
8700.00000000 -9710.00000000 -420.00000000 214 124 86 0.000000 0.000000 0.000000 0.000000 -60.708740 0.000000 125.000000 0.349630 -0.587052 -0.730157
8740.00000000 -9650.00000000 -450.00000000 214 124 86 0.000000 0.000000 0.000000 0.000000 -60.708740 0.000000 125.000000 0.989730 -0.075243 0.121546
8730.00000000 -9710.00000000 -450.00000000 214 124 86 0.000000 0.000000 0.000000 0.000000 -60.708740 0.000000 125.000000 -0.612805 0.756260 0.229217
8720.00000000 -9700.00000000 -480.00000000 214 124 86 0.000000 0.000000 0.000000 0.000000 -60.708740 0.000000 125.000000 0.592984 -0.576090 -0.562575
8720.00000000 -9720.00000000 -440.00000000 214 124 86 0.000000 0.000000 0.000000 0.000000 -60.708740 0.000000 125.000000 -0.312708 0.801613 0.509540
8750.00000000 -9790.00000000 -380.00000000 214 124 86 0.000000 0.000000 0.000000 0.000000 -60.708740 0.000000 125.000000 -0.436656 0.712264 0.549556
8680.00000000 -9730.00000000 -400.00000000 214 124 86 0.000000 0.000000 0.000000 0.000000 -60.708740 0.000000 125.000000 0.058822 0.710173 0.701565
8660.00000000 -9720.00000000 -360.00000000 214 124 86 0.000000 0.000000 0.000000 0.000000 -60.708740 0.000000 125.000000 0.533000 0.712327 0.456620
8660.00000000 -9720.00000000 -360.00000000 214 124 86 0.000000 0.000000 0.000000 0.000000 -60.708740 0.000000 125.000000 0.533000 0.712327 0.456620
8730.00000000 -9650.00000000 -550.00000000 214 124 86 0.000000 0.000000 0.000000 0.000000 -60.708740 0.000000 125.000000 -0.635161 0.768270 0.079576
8840.00000000 -9280.00000000 -820.00000000 214 124 86 0.000000 0.000000 0.000000 0.000000 -60.708740 0.000000 125.000000 0.582816 0.646641 0.492119
8810.00000000 -9260.00000000 -740.00000000 214 124 86 0.000000 0.000000 0.000000 0.000000 -60.708740 0.000000 125.000000 0.776109 0.405138 0.483237
8770.00000000 -9230.00000000 -760.00000000 214 124 86 0.000000 0.000000 0.000000 0.000000 -60.708740 0.000000 125.000000 0.480021 0.740651 0.470124
8780.00000000 -9280.00000000 -720.00000000 214 124 86 0.000000 0.000000 0.000000 0.000000 -60.708740 0.000000 125.000000 0.127096 0.689308 0.713232
8790.00000000 -9290.00000000 -720.00000000 214 124 86 0.000000 0.000000 0.000000 0.000000 -60.708740 0.000000 125.000000 0.377011 0.843190 0.383268
8770.00000000 -9280.00000000 -720.00000000 214 124 86 0.000000 0.000000 0.000000 0.000000 -60.708740 0.000000 125.000000 0.111149 0.844442 0.523987
8790.00000000 -9290.00000000 -720.00000000 214 124 86 0.000000 0.000000 0.000000 0.000000 -60.708740 0.000000 125.000000 0.377011 0.843190 0.383268
8830.00000000 -9240.00000000 -830.00000000 214 124 86 0.000000 0.000000 0.000000 0.000000 -60.708740 0.000000 125.000000 0.601472 0.791719 0.106831
8760.00000000 -9250.00000000 -810.00000000 214 124 86 0.000000 0.000000 0.000000 0.000000 -60.708740 0.000000 125.000000 0.465656 0.685966 0.559121
8770.00000000 -9230.00000000 -780.00000000 214 124 86 0.000000 0.000000 0.000000 0.000000 -60.708740 0.000000 125.000000 0.512279 0.840854 0.174742
8890.00000000 -9350.00000000 -770.00000000 214 124 86 0.000000 0.000000 0.000000 0.000000 -60.708740 0.000000 125.000000 0.998053 -0.061660 0.009406
8870.00000000 -9320.00000000 -740.00000000 214 124 86 0.000000 0.000000 0.000000 0.000000 -60.708740 0.000000 125.000000 0.962379 0.271688 0.003623
8860.00000000 -9350.00000000 -700.00000000 214 124 86 0.000000 0.000000 0.000000 0.000000 -60.708740 0.000000 125.000000 0.948846 0.221896 0.224619
8920.00000000 -9450.00000000 -720.00000000 214 124 86 0.000000 0.000000 0.000000 0.000000 -60.708740 0.000000 125.000000 0.982539 -0.171137 -0.073002
8910.00000000 -9460.00000000 -710.00000000 214 124 86 0.000000 0.000000 0.000000 0.000000 -60.708740 0.000000 125.000000 0.912378 -0.350249 -0.211879
8840.00000000 -9410.00000000 -790.00000000 214 124 86 0.000000 0.000000 0.000000 0.000000 -60.708740 0.000000 125.000000 0.947295 0.063325 0.314042
8820.00000000 -9380.00000000 -760.00000000 214 124 86 0.000000 0.000000 0.000000 0.000000 -60.708740 0.000000 125.000000 0.997440 0.070569 0.011586
8800.00000000 -9350.00000000 -830.00000000 214 124 86 0.000000 0.000000 0.000000 0.000000 -60.708740 0.000000 125.000000 0.834264 0.201374 0.513277
8890.00000000 -9490.00000000 -790.00000000 214 124 86 0.000000 0.000000 0.000000 0.000000 -60.708740 0.000000 125.000000 0.995541 -0.080303 -0.049502
8760.00000000 -9530.00000000 -750.00000000 214 124 86 0.000000 0.000000 0.000000 0.000000 -60.708740 0.000000 125.000000 0.738314 -0.551689 -0.387983
8760.00000000 -9500.00000000 -720.00000000 214 124 86 0.000000 0.000000 0.000000 0.000000 -60.708740 0.000000 125.000000 0.768130 -0.553246 -0.322326
8760.00000000 -9520.00000000 -760.00000000 214 124 86 0.000000 0.000000 0.000000 0.000000 -60.708740 0.000000 125.000000 0.601707 -0.608449 -0.517434
8800.00000000 -9470.00000000 -830.00000000 214 124 86 0.000000 0.000000 0.000000 0.000000 -60.708740 0.000000 125.000000 0.811518 -0.580470 -0.067032
8820.00000000 -9520.00000000 -830.00000000 214 124 86 0.000000 0.000000 0.000000 0.000000 -60.708740 0.000000 125.000000 -0.559921 0.828130 0.026268
8830.00000000 -9570.00000000 -770.00000000 214 124 86 0.000000 0.000000 0.000000 0.000000 -60.708740 0.000000 125.000000 0.903494 -0.325730 -0.278565
8790.00000000 -9600.00000000 -750.00000000 214 124 86 0.000000 0.000000 0.000000 0.000000 -60.708740 0.000000 125.000000 -0.435849 0.495058 0.751634
8830.00000000 -9590.00000000 -840.00000000 214 124 86 0.000000 0.000000 0.000000 0.000000 -60.708740 0.000000 125.000000 -0.628460 0.577914 0.520628
8800.00000000 -9630.00000000 -790.00000000 214 124 86 0.000000 0.000000 0.000000 0.000000 -60.708740 0.000000 125.000000 -0.270748 0.755243 0.596911
8800.00000000 -9600.00000000 -780.00000000 214 124 86 0.000000 0.000000 0.000000 0.000000 -60.708740 0.000000 125.000000 -0.368958 0.868046 0.332215
8820.00000000 -9610.00000000 -790.00000000 214 124 86 0.000000 0.000000 0.000000 0.000000 -60.708740 0.000000 125.000000 0.782269 -0.576982 -0.234836
8760.00000000 -9600.00000000 -810.00000000 214 124 86 0.000000 0.000000 0.000000 0.000000 -60.708740 0.000000 125.000000 -0.560782 0.788844 0.251493
8760.00000000 -9610.00000000 -780.00000000 214 124 86 0.000000 0.000000 0.000000 0.000000 -60.708740 0.000000 125.000000 -0.040275 0.934120 0.354680
8770.00000000 -9600.00000000 -810.00000000 214 124 86 0.000000 0.000000 0.000000 0.000000 -60.708740 0.000000 125.000000 -0.081609 0.968004 0.237293
8790.00000000 -9600.00000000 -860.00000000 214 124 86 0.000000 0.000000 0.000000 0.000000 -60.708740 0.000000 125.000000 -0.261999 0.895532 0.359693
8810.00000000 -9520.00000000 -900.00000000 214 124 86 0.000000 0.000000 0.000000 0.000000 -60.708740 0.000000 125.000000 -0.444978 0.870610 0.209839
8780.00000000 -9520.00000000 -940.00000000 214 124 86 0.000000 0.000000 0.000000 0.000000 -60.708740 0.000000 125.000000 -0.018519 0.956808 0.290129
8730.00000000 -9280.00000000 -740.00000000 214 124 86 0.000000 0.000000 0.000000 0.000000 -60.708740 0.000000 125.000000 -0.009716 0.678767 0.734290
8750.00000000 -9290.00000000 -770.00000000 214 124 86 0.000000 0.000000 0.000000 0.000000 -60.708740 0.000000 125.000000 0.334382 0.924136 0.184827
8750.00000000 -9300.00000000 -750.00000000 214 124 86 0.000000 0.000000 0.000000 0.000000 -60.708740 0.000000 125.000000 0.556483 0.664081 0.499322
8650.00000000 -9360.00000000 -710.00000000 214 124 86 0.000000 0.000000 0.000000 0.000000 -60.708740 0.000000 125.000000 -0.300420 0.734181 0.608872
8740.00000000 -9550.00000000 -810.00000000 214 124 86 0.000000 0.000000 0.000000 0.000000 -60.708740 0.000000 125.000000 -0.289936 0.857536 0.424933
8740.00000000 -9600.00000000 -720.00000000 214 124 86 0.000000 0.000000 0.000000 0.000000 -60.708740 0.000000 125.000000 -0.161406 0.842569 0.513834
8760.00000000 -9820.00000000 -30.00000000 214 124 86 0.000000 0.000000 0.000000 0.000000 -60.708740 0.000000 125.000000 0.919766 0.381764 0.091026
8760.00000000 -9810.00000000 -40.00000000 214 124 86 0.000000 0.000000 0.000000 0.000000 -60.708740 0.000000 125.000000 0.941790 0.171359 0.289254
8780.00000000 -9810.00000000 -20.00000000 214 124 86 0.000000 0.000000 0.000000 0.000000 -60.708740 0.000000 125.000000 0.819617 0.479814 0.313059
8750.00000000 -9820.00000000 -20.00000000 214 124 86 0.000000 0.000000 0.000000 0.000000 -60.708740 0.000000 125.000000 0.702497 0.603786 0.376749
8670.00000000 -9870.00000000 -100.00000000 214 124 86 0.000000 0.000000 0.000000 0.000000 -60.708740 0.000000 125.000000 0.883302 0.467948 0.028320
8670.00000000 -9880.00000000 -60.00000000 214 124 86 0.000000 0.000000 0.000000 0.000000 -60.708740 0.000000 125.000000 0.914150 0.394902 0.091552
8670.00000000 -9810.00000000 -170.00000000 214 124 86 0.000000 0.000000 0.000000 0.000000 -60.708740 0.000000 125.000000 0.207086 0.802265 0.559898
8680.00000000 -9810.00000000 -180.00000000 214 124 86 0.000000 0.000000 0.000000 0.000000 -60.708740 0.000000 125.000000 0.954752 -0.094826 0.281879
8700.00000000 -9880.00000000 -140.00000000 214 124 86 0.000000 0.000000 0.000000 0.000000 -60.708740 0.000000 125.000000 0.835081 -0.502270 -0.224419
8680.00000000 -9920.00000000 -40.00000000 214 124 86 0.000000 0.000000 0.000000 0.000000 -60.708740 0.000000 125.000000 0.959556 0.245468 0.137830
8680.00000000 -9900.00000000 -70.00000000 214 124 86 0.000000 0.000000 0.000000 0.000000 -60.708740 0.000000 125.000000 0.939287 -0.134184 0.315807
8680.00000000 -9930.00000000 -130.00000000 214 124 86 0.000000 0.000000 0.000000 0.000000 -60.708740 0.000000 125.000000 -0.454028 0.793337 0.405555
8670.00000000 -9910.00000000 -180.00000000 214 124 86 0.000000 0.000000 0.000000 0.000000 -60.708740 0.000000 125.000000 -0.557354 0.655017 0.510206
8700.00000000 -9920.00000000 -170.00000000 214 124 86 0.000000 0.000000 0.000000 0.000000 -60.708740 0.000000 125.000000 -0.257571 0.902233 0.345880
8690.00000000 -9940.00000000 -110.00000000 214 124 86 0.000000 0.000000 0.000000 0.000000 -60.708740 0.000000 125.000000 0.305637 -0.766492 -0.564868
8640.00000000 -9880.00000000 -70.00000000 214 124 86 0.000000 0.000000 0.000000 0.000000 -60.708740 0.000000 125.000000 0.824446 -0.455574 -0.335769
8610.00000000 -9850.00000000 -60.00000000 214 124 86 0.000000 0.000000 0.000000 0.000000 -60.708740 0.000000 125.000000 0.597197 -0.499627 -0.627478
8660.00000000 -9870.00000000 -180.00000000 214 124 86 0.000000 0.000000 0.000000 0.000000 -60.708740 0.000000 125.000000 0.254287 0.797182 0.547575
8640.00000000 -9850.00000000 -150.00000000 214 124 86 0.000000 0.000000 0.000000 0.000000 -60.708740 0.000000 125.000000 0.950089 0.303770 0.071095
8610.00000000 -9870.00000000 -150.00000000 214 124 86 0.000000 0.000000 0.000000 0.000000 -60.708740 0.000000 125.000000 0.741180 0.660972 0.117341
8650.00000000 -9920.00000000 -30.00000000 214 124 86 0.000000 0.000000 0.000000 0.000000 -60.708740 0.000000 125.000000 0.659675 0.293724 0.691776
8660.00000000 -9930.00000000 -90.00000000 214 124 86 0.000000 0.000000 0.000000 0.000000 -60.708740 0.000000 125.000000 0.470311 -0.580775 -0.664461
8630.00000000 -9970.00000000 -50.00000000 214 124 86 0.000000 0.000000 0.000000 0.000000 -60.708740 0.000000 125.000000 0.047746 0.885355 0.462458
8660.00000000 -9970.00000000 -70.00000000 214 124 86 0.000000 0.000000 0.000000 0.000000 -60.708740 0.000000 125.000000 -0.251475 0.831565 0.495237
8660.00000000 -9960.00000000 -80.00000000 214 124 86 0.000000 0.000000 0.000000 0.000000 -60.708740 0.000000 125.000000 -0.077039 0.710796 0.699167
8590.00000000 -9890.00000000 -20.00000000 214 124 86 0.000000 0.000000 0.000000 0.000000 -60.708740 0.000000 125.000000 0.989458 -0.122084 -0.077901
8590.00000000 -9890.00000000 -70.00000000 214 124 86 0.000000 0.000000 0.000000 0.000000 -60.708740 0.000000 125.000000 0.903367 -0.173780 -0.392082
8610.00000000 -9960.00000000 -40.00000000 214 124 86 0.000000 0.000000 0.000000 0.000000 -60.708740 0.000000 125.000000 0.371553 0.814866 0.444907
8640.00000000 -9930.00000000 -150.00000000 214 124 86 0.000000 0.000000 0.000000 0.000000 -60.708740 0.000000 125.000000 0.487748 0.544736 0.682177
8710.00000000 -9870.00000000 -210.00000000 214 124 86 0.000000 0.000000 0.000000 0.000000 -60.708740 0.000000 125.000000 -0.552085 0.568969 0.609489
8750.00000000 -9850.00000000 -230.00000000 214 124 86 0.000000 0.000000 0.000000 0.000000 -60.708740 0.000000 125.000000 0.803122 -0.343283 -0.486983
8730.00000000 -9860.00000000 -240.00000000 214 124 86 0.000000 0.000000 0.000000 0.000000 -60.708740 0.000000 125.000000 -0.416975 0.736711 0.532343
8710.00000000 -9850.00000000 -250.00000000 214 124 86 0.000000 0.000000 0.000000 0.000000 -60.708740 0.000000 125.000000 0.800739 -0.527009 -0.284742
8740.00000000 -9850.00000000 -240.00000000 214 124 86 0.000000 0.000000 0.000000 0.000000 -60.708740 0.000000 125.000000 0.554603 -0.632146 -0.541117
8700.00000000 -9870.00000000 -190.00000000 214 124 86 0.000000 0.000000 0.000000 0.000000 -60.708740 0.000000 125.000000 0.895390 -0.332233 -0.296477
8750.00000000 -9830.00000000 -300.00000000 214 124 86 0.000000 0.000000 0.000000 0.000000 -60.708740 0.000000 125.000000 0.946821 -0.316468 -0.058127
8740.00000000 -9830.00000000 -330.00000000 214 124 86 0.000000 0.000000 0.000000 0.000000 -60.708740 0.000000 125.000000 0.377408 -0.680652 -0.627914
8670.00000000 -9820.00000000 -290.00000000 214 124 86 0.000000 0.000000 0.000000 0.000000 -60.708740 0.000000 125.000000 0.165672 0.655089 0.737165
8670.00000000 -9920.00000000 -200.00000000 214 124 86 0.000000 0.000000 0.000000 0.000000 -60.708740 0.000000 125.000000 0.196105 0.702580 0.684050
8700.00000000 -9920.00000000 -200.00000000 214 124 86 0.000000 0.000000 0.000000 0.000000 -60.708740 0.000000 125.000000 -0.066333 0.908361 0.412892
8660.00000000 -9860.00000000 -190.00000000 214 124 86 0.000000 0.000000 0.000000 0.000000 -60.708740 0.000000 125.000000 0.249553 0.846644 0.470018
8610.00000000 -9810.00000000 -210.00000000 214 124 86 0.000000 0.000000 0.000000 0.000000 -60.708740 0.000000 125.000000 0.959707 0.013482 -0.280680
8600.00000000 -9990.00000000 -20.00000000 214 124 86 0.000000 0.000000 0.000000 0.000000 -60.708740 0.000000 125.000000 0.740852 0.509852 0.437251
8600.00000000 -9990.00000000 -20.00000000 214 124 86 0.000000 0.000000 0.000000 0.000000 -60.708740 0.000000 125.000000 0.740852 0.509852 0.437251
8620.00000000 -9980.00000000 -50.00000000 214 124 86 0.000000 0.000000 0.000000 0.000000 -60.708740 0.000000 125.000000 0.279310 0.500886 0.819206
8780.00000000 -9770.00000000 0.00000000 214 124 86 0.000000 0.000000 0.000000 0.000000 -60.708740 0.000000 125.000000 0.407507 0.871065 0.274196
8770.00000000 -9800.00000000 70.00000000 214 124 86 0.000000 0.000000 0.000000 0.000000 -60.708740 0.000000 125.000000 0.805060 0.412975 0.425830
8590.00000000 -10450.00000000 680.00000000 214 124 86 0.000000 0.000000 0.000000 0.000000 -60.708740 0.000000 125.000000 0.055574 0.898665 0.435100
8440.00000000 -10400.00000000 710.00000000 214 124 86 0.000000 0.000000 0.000000 0.000000 -60.708740 0.000000 125.000000 0.984805 0.062659 0.161967
8770.00000000 -9890.00000000 80.00000000 214 124 86 0.000000 0.000000 0.000000 0.000000 -60.708740 0.000000 125.000000 0.772040 0.259443 0.580209
8760.00000000 -9900.00000000 90.00000000 214 124 86 0.000000 0.000000 0.000000 0.000000 -60.708740 0.000000 125.000000 0.561409 0.645705 0.517576
8760.00000000 -9840.00000000 110.00000000 214 124 86 0.000000 0.000000 0.000000 0.000000 -60.708740 0.000000 125.000000 0.716572 0.368944 0.591950
8630.00000000 -10090.00000000 320.00000000 214 124 86 0.000000 0.000000 0.000000 0.000000 -60.708740 0.000000 125.000000 0.223641 0.945328 0.237361
8600.00000000 -10030.00000000 320.00000000 214 124 86 0.000000 0.000000 0.000000 0.000000 -60.708740 0.000000 125.000000 0.073809 0.652703 0.754010
8530.00000000 -10050.00000000 360.00000000 214 124 86 0.000000 0.000000 0.000000 0.000000 -60.708740 0.000000 125.000000 0.254287 -0.797182 -0.547575
8510.00000000 -10060.00000000 360.00000000 214 124 86 0.000000 0.000000 0.000000 0.000000 -60.708740 0.000000 125.000000 0.841281 -0.380691 -0.383824
8560.00000000 -10140.00000000 340.00000000 214 124 86 0.000000 0.000000 0.000000 0.000000 -60.708740 0.000000 125.000000 0.803048 -0.595721 0.015204
8730.00000000 -9960.00000000 170.00000000 214 124 86 0.000000 0.000000 0.000000 0.000000 -60.708740 0.000000 125.000000 0.720120 0.407024 0.561924
8730.00000000 -9950.00000000 170.00000000 214 124 86 0.000000 0.000000 0.000000 0.000000 -60.708740 0.000000 125.000000 0.875359 0.270620 0.400639
8680.00000000 -9960.00000000 160.00000000 214 124 86 0.000000 0.000000 0.000000 0.000000 -60.708740 0.000000 125.000000 0.687346 0.500040 0.526798
8730.00000000 -9950.00000000 170.00000000 214 124 86 0.000000 0.000000 0.000000 0.000000 -60.708740 0.000000 125.000000 0.875359 0.270620 0.400639
8710.00000000 -9850.00000000 80.00000000 214 124 86 0.000000 0.000000 0.000000 0.000000 -60.708740 0.000000 125.000000 0.389615 0.852186 0.349256
8680.00000000 -9930.00000000 100.00000000 214 124 86 0.000000 0.000000 0.000000 0.000000 -60.708740 0.000000 125.000000 0.526161 0.459768 0.715380
8720.00000000 -9890.00000000 120.00000000 214 124 86 0.000000 0.000000 0.000000 0.000000 -60.708740 0.000000 125.000000 0.583297 0.702270 0.408143
8720.00000000 -9920.00000000 100.00000000 214 124 86 0.000000 0.000000 0.000000 0.000000 -60.708740 0.000000 125.000000 0.392817 0.822212 0.411901
8640.00000000 -9880.00000000 70.00000000 214 124 86 0.000000 0.000000 0.000000 0.000000 -60.708740 0.000000 125.000000 0.264178 0.832700 0.486643
8620.00000000 -9970.00000000 70.00000000 214 124 86 0.000000 0.000000 0.000000 0.000000 -60.708740 0.000000 125.000000 -0.568429 0.763777 0.305831
8610.00000000 -9970.00000000 40.00000000 214 124 86 0.000000 0.000000 0.000000 0.000000 -60.708740 0.000000 125.000000 0.962700 0.074834 -0.260018
8630.00000000 -9940.00000000 30.00000000 214 124 86 0.000000 0.000000 0.000000 0.000000 -60.708740 0.000000 125.000000 -0.147394 0.814389 0.561289
8720.00000000 -10040.00000000 270.00000000 214 124 86 0.000000 0.000000 0.000000 0.000000 -60.708740 0.000000 125.000000 0.717283 0.661025 0.220342
8720.00000000 -10010.00000000 220.00000000 214 124 86 0.000000 0.000000 0.000000 0.000000 -60.708740 0.000000 125.000000 0.556046 0.775916 0.297939
8690.00000000 -9980.00000000 210.00000000 214 124 86 0.000000 0.000000 0.000000 0.000000 -60.708740 0.000000 125.000000 0.721581 0.618267 0.311555
8720.00000000 -10080.00000000 270.00000000 214 124 86 0.000000 0.000000 0.000000 0.000000 -60.708740 0.000000 125.000000 0.984252 0.048098 0.170103
8710.00000000 -10130.00000000 300.00000000 214 124 86 0.000000 0.000000 0.000000 0.000000 -60.708740 0.000000 125.000000 0.977618 -0.046782 0.205120
8710.00000000 -10120.00000000 260.00000000 214 124 86 0.000000 0.000000 0.000000 0.000000 -60.708740 0.000000 125.000000 0.967817 -0.158934 0.195114
8720.00000000 -10100.00000000 270.00000000 214 124 86 0.000000 0.000000 0.000000 0.000000 -60.708740 0.000000 125.000000 0.989567 -0.134471 -0.051720
8740.00000000 -10070.00000000 220.00000000 214 124 86 0.000000 0.000000 0.000000 0.000000 -60.708740 0.000000 125.000000 0.905192 0.343651 0.250061
8630.00000000 -10000.00000000 290.00000000 214 124 86 0.000000 0.000000 0.000000 0.000000 -60.708740 0.000000 125.000000 -0.222989 0.847964 0.480867
8610.00000000 -10080.00000000 260.00000000 214 124 86 0.000000 0.000000 0.000000 0.000000 -60.708740 0.000000 125.000000 0.423598 -0.696030 -0.579748
8660.00000000 -10060.00000000 260.00000000 214 124 86 0.000000 0.000000 0.000000 0.000000 -60.708740 0.000000 125.000000 0.643202 0.488699 0.589462
8610.00000000 -9980.00000000 50.00000000 214 124 86 0.000000 0.000000 0.000000 0.000000 -60.708740 0.000000 125.000000 0.962266 -0.182975 0.201405
8580.00000000 -9970.00000000 170.00000000 214 124 86 0.000000 0.000000 0.000000 0.000000 -60.708740 0.000000 125.000000 -0.589627 0.806340 0.046438
8540.00000000 -9970.00000000 150.00000000 214 124 86 0.000000 0.000000 0.000000 0.000000 -60.708740 0.000000 125.000000 0.837551 -0.464616 -0.287471
8570.00000000 -9880.00000000 -10.00000000 214 124 86 0.000000 0.000000 0.000000 0.000000 -60.708740 0.000000 125.000000 0.737617 -0.453791 -0.499995
8580.00000000 -9880.00000000 10.00000000 214 124 86 0.000000 0.000000 0.000000 0.000000 -60.708740 0.000000 125.000000 0.832292 -0.227544 -0.505484
8540.00000000 -9970.00000000 100.00000000 214 124 86 0.000000 0.000000 0.000000 0.000000 -60.708740 0.000000 125.000000 0.887284 -0.310775 -0.340801
8550.00000000 -9960.00000000 70.00000000 214 124 86 0.000000 0.000000 0.000000 0.000000 -60.708740 0.000000 125.000000 0.933730 0.029622 -0.356749
8530.00000000 -9940.00000000 130.00000000 214 124 86 0.000000 0.000000 0.000000 0.000000 -60.708740 0.000000 125.000000 0.871853 -0.302790 -0.384954
8570.00000000 -9950.00000000 -10.00000000 214 124 86 0.000000 0.000000 0.000000 0.000000 -60.708740 0.000000 125.000000 0.974541 -0.022664 0.223059
8580.00000000 -9930.00000000 10.00000000 214 124 86 0.000000 0.000000 0.000000 0.000000 -60.708740 0.000000 125.000000 0.966810 -0.205787 0.151428
8570.00000000 -10030.00000000 300.00000000 214 124 86 0.000000 0.000000 0.000000 0.000000 -60.708740 0.000000 125.000000 -0.515556 0.777374 0.360404
8520.00000000 -10030.00000000 180.00000000 214 124 86 0.000000 0.000000 0.000000 0.000000 -60.708740 0.000000 125.000000 0.778857 -0.598297 -0.188211
8520.00000000 -10020.00000000 180.00000000 214 124 86 0.000000 0.000000 0.000000 0.000000 -60.708740 0.000000 125.000000 0.857361 -0.510500 0.065736
8500.00000000 -10030.00000000 150.00000000 214 124 86 0.000000 0.000000 0.000000 0.000000 -60.708740 0.000000 125.000000 0.891809 -0.263523 -0.367741
8560.00000000 -10070.00000000 280.00000000 214 124 86 0.000000 0.000000 0.000000 0.000000 -60.708740 0.000000 125.000000 0.698679 -0.653707 -0.290715
8500.00000000 -10080.00000000 200.00000000 214 124 86 0.000000 0.000000 0.000000 0.000000 -60.708740 0.000000 125.000000 0.899227 -0.386216 0.205496
8460.00000000 -10100.00000000 260.00000000 214 124 86 0.000000 0.000000 0.000000 0.000000 -60.708740 0.000000 125.000000 0.975574 -0.210705 -0.062115
8490.00000000 -10100.00000000 260.00000000 214 124 86 0.000000 0.000000 0.000000 0.000000 -60.708740 0.000000 125.000000 0.895525 -0.443049 -0.041746
8460.00000000 -10120.00000000 280.00000000 214 124 86 0.000000 0.000000 0.000000 0.000000 -60.708740 0.000000 125.000000 0.915032 -0.232000 0.329988
8460.00000000 -10100.00000000 210.00000000 214 124 86 0.000000 0.000000 0.000000 0.000000 -60.708740 0.000000 125.000000 0.941626 0.208789 0.264098
8500.00000000 -10010.00000000 140.00000000 214 124 86 0.000000 0.000000 0.000000 0.000000 -60.708740 0.000000 125.000000 0.966493 -0.035614 0.254211
8580.00000000 -10030.00000000 80.00000000 214 124 86 0.000000 0.000000 0.000000 0.000000 -60.708740 0.000000 125.000000 0.914246 -0.103110 0.391820
8560.00000000 -10010.00000000 10.00000000 214 124 86 0.000000 0.000000 0.000000 0.000000 -60.708740 0.000000 125.000000 0.693810 0.476472 0.540002
8580.00000000 -10030.00000000 10.00000000 214 124 86 0.000000 0.000000 0.000000 0.000000 -60.708740 0.000000 125.000000 0.629050 0.461304 0.625695
8480.00000000 -10070.00000000 140.00000000 214 124 86 0.000000 0.000000 0.000000 0.000000 -60.708740 0.000000 125.000000 0.899016 0.131667 0.417653
8670.00000000 -10240.00000000 440.00000000 214 124 86 0.000000 0.000000 0.000000 0.000000 -60.708740 0.000000 125.000000 0.953794 -0.125326 -0.273078
8680.00000000 -10270.00000000 430.00000000 214 124 86 0.000000 0.000000 0.000000 0.000000 -60.708740 0.000000 125.000000 0.996821 0.074197 0.029034
8670.00000000 -10240.00000000 480.00000000 214 124 86 0.000000 0.000000 0.000000 0.000000 -60.708740 0.000000 125.000000 0.954847 -0.036387 0.294861
8670.00000000 -10230.00000000 380.00000000 214 124 86 0.000000 0.000000 0.000000 0.000000 -60.708740 0.000000 125.000000 0.812326 -0.574005 -0.103176
