//X Y Z R G B PointSourceId ScanDirectionFlag NumberOfReturns ReturnNumber GpsTime Intensity Classification Nx Ny Nz
-8140.00000000 -19470.00000000 1100.00000000 139 178 97 0.000000 0.000000 0.000000 0.000000 -60.708740 0.000000 44.000000 0.897943 0.140882 -0.416953
-8120.00000000 -19450.00000000 1070.00000000 139 178 97 0.000000 0.000000 0.000000 0.000000 -60.708740 0.000000 44.000000 0.756831 0.624807 -0.191894
-8100.00000000 -19460.00000000 1060.00000000 139 178 97 0.000000 0.000000 0.000000 0.000000 -60.708740 0.000000 44.000000 0.687527 0.648518 -0.326697
-8120.00000000 -19480.00000000 1010.00000000 139 178 97 0.000000 0.000000 0.000000 0.000000 -60.708740 0.000000 44.000000 0.827409 0.248069 -0.503841
-8120.00000000 -19480.00000000 1010.00000000 139 178 97 0.000000 0.000000 0.000000 0.000000 -60.708740 0.000000 44.000000 0.827409 0.248069 -0.503841
-8120.00000000 -19460.00000000 1000.00000000 139 178 97 0.000000 0.000000 0.000000 0.000000 -60.708740 0.000000 44.000000 0.785883 -0.091517 -0.611565
-8130.00000000 -19510.00000000 1140.00000000 139 178 97 0.000000 0.000000 0.000000 0.000000 -60.708740 0.000000 44.000000 0.782314 0.177730 -0.596989
-8130.00000000 -19520.00000000 1140.00000000 139 178 97 0.000000 0.000000 0.000000 0.000000 -60.708740 0.000000 44.000000 0.864700 0.169405 -0.472860
-8120.00000000 -19520.00000000 1150.00000000 139 178 97 0.000000 0.000000 0.000000 0.000000 -60.708740 0.000000 44.000000 0.593215 0.492386 -0.636908
-8120.00000000 -19520.00000000 1090.00000000 139 178 97 0.000000 0.000000 0.000000 0.000000 -60.708740 0.000000 44.000000 0.669324 0.301599 -0.679001
-8130.00000000 -19530.00000000 1080.00000000 139 178 97 0.000000 0.000000 0.000000 0.000000 -60.708740 0.000000 44.000000 0.685766 0.159657 -0.710095
-8110.00000000 -19500.00000000 1100.00000000 139 178 97 0.000000 0.000000 0.000000 0.000000 -60.708740 0.000000 44.000000 0.766015 0.364384 -0.529571
-8160.00000000 -19520.00000000 1120.00000000 139 178 97 0.000000 0.000000 0.000000 0.000000 -60.708740 0.000000 44.000000 -0.391273 -0.136034 0.910165
-8140.00000000 -19530.00000000 1130.00000000 139 178 97 0.000000 0.000000 0.000000 0.000000 -60.708740 0.000000 44.000000 -0.470124 0.480021 0.740651
-8150.00000000 -19500.00000000 1150.00000000 139 178 97 0.000000 0.000000 0.000000 0.000000 -60.708740 0.000000 44.000000 0.539721 0.808808 -0.233518
-8140.00000000 -19520.00000000 1120.00000000 139 178 97 0.000000 0.000000 0.000000 0.000000 -60.708740 0.000000 44.000000 0.823290 -0.218424 -0.523912
-8140.00000000 -19520.00000000 1130.00000000 139 178 97 0.000000 0.000000 0.000000 0.000000 -60.708740 0.000000 44.000000 0.600362 -0.313862 -0.735565
-8140.00000000 -19530.00000000 1130.00000000 139 178 97 0.000000 0.000000 0.000000 0.000000 -60.708740 0.000000 44.000000 -0.470124 0.480021 0.740651
-8110.00000000 -19490.00000000 1060.00000000 139 178 97 0.000000 0.000000 0.000000 0.000000 -60.708740 0.000000 44.000000 -0.484455 -0.296317 0.823103
-8120.00000000 -19490.00000000 1040.00000000 139 178 97 0.000000 0.000000 0.000000 0.000000 -60.708740 0.000000 44.000000 -0.374466 -0.085167 0.923321
-8120.00000000 -19510.00000000 1030.00000000 139 178 97 0.000000 0.000000 0.000000 0.000000 -60.708740 0.000000 44.000000 0.853760 -0.123208 -0.505878
-8130.00000000 -19510.00000000 1030.00000000 139 178 97 0.000000 0.000000 0.000000 0.000000 -60.708740 0.000000 44.000000 -0.576832 -0.157318 0.801571
-8120.00000000 -19570.00000000 1040.00000000 139 178 97 0.000000 0.000000 0.000000 0.000000 -60.708740 0.000000 44.000000 -0.372063 0.135169 0.918313
-8150.00000000 -19550.00000000 1060.00000000 139 178 97 0.000000 0.000000 0.000000 0.000000 -60.708740 0.000000 44.000000 -0.385937 0.389087 0.836459
-8190.00000000 -19570.00000000 1090.00000000 139 178 97 0.000000 0.000000 0.000000 0.000000 -60.708740 0.000000 44.000000 0.197874 0.596691 0.777692
-8190.00000000 -19510.00000000 1030.00000000 139 178 97 0.000000 0.000000 0.000000 0.000000 -60.708740 0.000000 44.000000 -0.583995 0.560297 0.587381
-8200.00000000 -19540.00000000 1060.00000000 139 178 97 0.000000 0.000000 0.000000 0.000000 -60.708740 0.000000 44.000000 -0.216087 0.871800 0.439626
-8260.00000000 -19510.00000000 1030.00000000 139 178 97 0.000000 0.000000 0.000000 0.000000 -60.708740 0.000000 44.000000 -0.326428 0.760593 0.561198
-8290.00000000 -19320.00000000 1010.00000000 139 178 97 0.000000 0.000000 0.000000 0.000000 -60.708740 0.000000 44.000000 0.329819 0.938717 -0.100148
-8290.00000000 -19360.00000000 1060.00000000 139 178 97 0.000000 0.000000 0.000000 0.000000 -60.708740 0.000000 44.000000 -0.037138 0.991472 0.124919
-8270.00000000 -19370.00000000 1020.00000000 139 178 97 0.000000 0.000000 0.000000 0.000000 -60.708740 0.000000 44.000000 0.645476 0.598533 -0.474467
-8300.00000000 -19380.00000000 1000.00000000 139 178 97 0.000000 0.000000 0.000000 0.000000 -60.708740 0.000000 44.000000 -0.460571 -0.523754 0.716628
-8300.00000000 -19400.00000000 1030.00000000 139 178 97 0.000000 0.000000 0.000000 0.000000 -60.708740 0.000000 44.000000 0.268379 0.959230 -0.088604
-8330.00000000 -19390.00000000 1000.00000000 139 178 97 0.000000 0.000000 0.000000 0.000000 -60.708740 0.000000 44.000000 0.715702 0.371772 -0.591232
-8300.00000000 -19530.00000000 1020.00000000 139 178 97 0.000000 0.000000 0.000000 0.000000 -60.708740 0.000000 44.000000 -0.244850 0.687161 0.684002
-8290.00000000 -19520.00000000 1020.00000000 139 178 97 0.000000 0.000000 0.000000 0.000000 -60.708740 0.000000 44.000000 -0.296212 0.610036 0.734925
-8290.00000000 -19530.00000000 1020.00000000 139 178 97 0.000000 0.000000 0.000000 0.000000 -60.708740 0.000000 44.000000 0.094629 0.601260 0.793430
-8290.00000000 -19520.00000000 1000.00000000 139 178 97 0.000000 0.000000 0.000000 0.000000 -60.708740 0.000000 44.000000 -0.255649 0.846549 0.466903
-8170.00000000 -19400.00000000 910.00000000 139 178 97 0.000000 0.000000 0.000000 0.000000 -60.708740 0.000000 44.000000 -0.577795 -0.291285 0.762434
-8120.00000000 -19380.00000000 890.00000000 139 178 97 0.000000 0.000000 0.000000 0.000000 -60.708740 0.000000 44.000000 0.763904 -0.098237 -0.637809
-8120.00000000 -19380.00000000 890.00000000 139 178 97 0.000000 0.000000 0.000000 0.000000 -60.708740 0.000000 44.000000 0.763904 -0.098237 -0.637809
-8200.00000000 -19290.00000000 850.00000000 139 178 97 0.000000 0.000000 0.000000 0.000000 -60.708740 0.000000 44.000000 0.701430 0.451514 -0.551481
-8220.00000000 -19300.00000000 840.00000000 139 178 97 0.000000 0.000000 0.000000 0.000000 -60.708740 0.000000 44.000000 -0.419128 -0.296307 0.858215
-8260.00000000 -19330.00000000 980.00000000 139 178 97 0.000000 0.000000 0.000000 0.000000 -60.708740 0.000000 44.000000 0.795692 0.526770 -0.298978
-8260.00000000 -19340.00000000 970.00000000 139 178 97 0.000000 0.000000 0.000000 0.000000 -60.708740 0.000000 44.000000 0.631678 0.425008 -0.648345
-8250.00000000 -19360.00000000 910.00000000 139 178 97 0.000000 0.000000 0.000000 0.000000 -60.708740 0.000000 44.000000 0.520859 0.648966 -0.554571
-8210.00000000 -19350.00000000 860.00000000 139 178 97 0.000000 0.000000 0.000000 0.000000 -60.708740 0.000000 44.000000 0.710821 0.120705 -0.692939
-8200.00000000 -19380.00000000 840.00000000 139 178 97 0.000000 0.000000 0.000000 0.000000 -60.708740 0.000000 44.000000 0.776735 0.394043 -0.491338
-8250.00000000 -19360.00000000 870.00000000 139 178 97 0.000000 0.000000 0.000000 0.000000 -60.708740 0.000000 44.000000 -0.688930 -0.001381 0.724826
-8250.00000000 -19310.00000000 810.00000000 139 178 97 0.000000 0.000000 0.000000 0.000000 -60.708740 0.000000 44.000000 -0.577616 -0.331684 0.745885
-8240.00000000 -19290.00000000 790.00000000 139 178 97 0.000000 0.000000 0.000000 0.000000 -60.708740 0.000000 44.000000 -0.614329 -0.299947 0.729816
-8230.00000000 -19290.00000000 790.00000000 139 178 97 0.000000 0.000000 0.000000 0.000000 -60.708740 0.000000 44.000000 0.746921 0.215846 -0.628904
-8160.00000000 -19440.00000000 970.00000000 139 178 97 0.000000 0.000000 0.000000 0.000000 -60.708740 0.000000 44.000000 -0.330131 -0.215800 0.918936
-8170.00000000 -19420.00000000 910.00000000 139 178 97 0.000000 0.000000 0.000000 0.000000 -60.708740 0.000000 44.000000 -0.539569 -0.023340 0.841618
-8150.00000000 -19420.00000000 920.00000000 139 178 97 0.000000 0.000000 0.000000 0.000000 -60.708740 0.000000 44.000000 -0.566758 0.115695 0.815721
-8140.00000000 -19430.00000000 920.00000000 139 178 97 0.000000 0.000000 0.000000 0.000000 -60.708740 0.000000 44.000000 -0.530657 -0.092972 0.842472
-8140.00000000 -19450.00000000 990.00000000 139 178 97 0.000000 0.000000 0.000000 0.000000 -60.708740 0.000000 44.000000 0.743143 0.267785 -0.613212
-8140.00000000 -19450.00000000 910.00000000 139 178 97 0.000000 0.000000 0.000000 0.000000 -60.708740 0.000000 44.000000 -0.664624 0.126951 0.736314
-8140.00000000 -19450.00000000 910.00000000 139 178 97 0.000000 0.000000 0.000000 0.000000 -60.708740 0.000000 44.000000 -0.664624 0.126951 0.736314
-8100.00000000 -19460.00000000 870.00000000 139 178 97 0.000000 0.000000 0.000000 0.000000 -60.708740 0.000000 44.000000 -0.651543 -0.117248 0.749497
-8100.00000000 -19450.00000000 860.00000000 139 178 97 0.000000 0.000000 0.000000 0.000000 -60.708740 0.000000 44.000000 -0.699507 -0.070965 0.711093
-8120.00000000 -19460.00000000 850.00000000 139 178 97 0.000000 0.000000 0.000000 0.000000 -60.708740 0.000000 44.000000 -0.472522 -0.097325 0.875929
-8150.00000000 -19440.00000000 830.00000000 139 178 97 0.000000 0.000000 0.000000 0.000000 -60.708740 0.000000 44.000000 0.682319 0.308092 -0.662963
-8160.00000000 -19440.00000000 840.00000000 139 178 97 0.000000 0.000000 0.000000 0.000000 -60.708740 0.000000 44.000000 0.715557 0.258616 -0.648919
-8160.00000000 -19480.00000000 860.00000000 139 178 97 0.000000 0.000000 0.000000 0.000000 -60.708740 0.000000 44.000000 0.624851 -0.149061 -0.766383
-8130.00000000 -19520.00000000 960.00000000 139 178 97 0.000000 0.000000 0.000000 0.000000 -60.708740 0.000000 44.000000 -0.476420 0.232883 0.847815
-8110.00000000 -19510.00000000 960.00000000 139 178 97 0.000000 0.000000 0.000000 0.000000 -60.708740 0.000000 44.000000 0.805483 -0.134989 -0.577040
-8120.00000000 -19530.00000000 930.00000000 139 178 97 0.000000 0.000000 0.000000 0.000000 -60.708740 0.000000 44.000000 0.691433 -0.136487 -0.709431
-8120.00000000 -19530.00000000 930.00000000 139 178 97 0.000000 0.000000 0.000000 0.000000 -60.708740 0.000000 44.000000 0.691433 -0.136487 -0.709431
-8110.00000000 -19560.00000000 990.00000000 139 178 97 0.000000 0.000000 0.000000 0.000000 -60.708740 0.000000 44.000000 -0.075233 0.269055 0.960182
-8140.00000000 -19530.00000000 960.00000000 139 178 97 0.000000 0.000000 0.000000 0.000000 -60.708740 0.000000 44.000000 -0.396822 0.561479 0.726136
-8140.00000000 -19520.00000000 960.00000000 139 178 97 0.000000 0.000000 0.000000 0.000000 -60.708740 0.000000 44.000000 -0.582222 0.125288 0.803319
-8140.00000000 -19550.00000000 970.00000000 139 178 97 0.000000 0.000000 0.000000 0.000000 -60.708740 0.000000 44.000000 -0.415784 0.517676 0.747754
-8150.00000000 -19560.00000000 970.00000000 139 178 97 0.000000 0.000000 0.000000 0.000000 -60.708740 0.000000 44.000000 -0.467089 0.678032 0.567538
-8170.00000000 -19540.00000000 950.00000000 139 178 97 0.000000 0.000000 0.000000 0.000000 -60.708740 0.000000 44.000000 -0.623251 0.579337 0.525288
-8150.00000000 -19560.00000000 970.00000000 139 178 97 0.000000 0.000000 0.000000 0.000000 -60.708740 0.000000 44.000000 -0.467089 0.678032 0.567538
-8110.00000000 -19570.00000000 880.00000000 139 178 97 0.000000 0.000000 0.000000 0.000000 -60.708740 0.000000 44.000000 -0.412472 0.578123 0.704018
-8110.00000000 -19560.00000000 880.00000000 139 178 97 0.000000 0.000000 0.000000 0.000000 -60.708740 0.000000 44.000000 -0.358737 0.192946 0.913279
-8170.00000000 -19510.00000000 830.00000000 139 178 97 0.000000 0.000000 0.000000 0.000000 -60.708740 0.000000 44.000000 -0.562168 0.046263 0.825728
-8150.00000000 -19490.00000000 840.00000000 139 178 97 0.000000 0.000000 0.000000 0.000000 -60.708740 0.000000 44.000000 -0.662488 0.330430 0.672254
-8180.00000000 -19480.00000000 910.00000000 139 178 97 0.000000 0.000000 0.000000 0.000000 -60.708740 0.000000 44.000000 -0.576843 0.001364 0.816854
-8190.00000000 -19430.00000000 970.00000000 139 178 97 0.000000 0.000000 0.000000 0.000000 -60.708740 0.000000 44.000000 0.804739 0.004113 -0.593615
-8180.00000000 -19450.00000000 970.00000000 139 178 97 0.000000 0.000000 0.000000 0.000000 -60.708740 0.000000 44.000000 0.851664 -0.113843 -0.511575
-8180.00000000 -19470.00000000 900.00000000 139 178 97 0.000000 0.000000 0.000000 0.000000 -60.708740 0.000000 44.000000 -0.180949 0.063512 0.981440
-8220.00000000 -19410.00000000 890.00000000 139 178 97 0.000000 0.000000 0.000000 0.000000 -60.708740 0.000000 44.000000 -0.396694 -0.046436 0.916775
-8260.00000000 -19410.00000000 880.00000000 139 178 97 0.000000 0.000000 0.000000 0.000000 -60.708740 0.000000 44.000000 -0.488648 0.125405 0.863422
-8220.00000000 -19470.00000000 890.00000000 139 178 97 0.000000 0.000000 0.000000 0.000000 -60.708740 0.000000 44.000000 -0.439426 0.163878 0.883203
-8220.00000000 -19480.00000000 890.00000000 139 178 97 0.000000 0.000000 0.000000 0.000000 -60.708740 0.000000 44.000000 -0.314200 0.484720 0.816287
-8260.00000000 -19470.00000000 900.00000000 139 178 97 0.000000 0.000000 0.000000 0.000000 -60.708740 0.000000 44.000000 -0.481699 0.253931 0.838741
-8190.00000000 -19500.00000000 910.00000000 139 178 97 0.000000 0.000000 0.000000 0.000000 -60.708740 0.000000 44.000000 -0.336321 0.599529 0.726259
-8220.00000000 -19530.00000000 950.00000000 139 178 97 0.000000 0.000000 0.000000 0.000000 -60.708740 0.000000 44.000000 -0.087461 0.546272 0.833029
-8230.00000000 -19500.00000000 980.00000000 139 178 97 0.000000 0.000000 0.000000 0.000000 -60.708740 0.000000 44.000000 0.781723 -0.279525 -0.557471
-8260.00000000 -19500.00000000 910.00000000 139 178 97 0.000000 0.000000 0.000000 0.000000 -60.708740 0.000000 44.000000 -0.274052 0.590874 0.758791
-8260.00000000 -19520.00000000 920.00000000 139 178 97 0.000000 0.000000 0.000000 0.000000 -60.708740 0.000000 44.000000 -0.273391 0.779086 0.564166
-8250.00000000 -19550.00000000 960.00000000 139 178 97 0.000000 0.000000 0.000000 0.000000 -60.708740 0.000000 44.000000 -0.029097 0.827194 0.561162
-8250.00000000 -19570.00000000 930.00000000 139 178 97 0.000000 0.000000 0.000000 0.000000 -60.708740 0.000000 44.000000 -0.051899 0.556862 0.828982
-8210.00000000 -19500.00000000 900.00000000 139 178 97 0.000000 0.000000 0.000000 0.000000 -60.708740 0.000000 44.000000 -0.460291 0.044807 0.886637
-8210.00000000 -19500.00000000 900.00000000 139 178 97 0.000000 0.000000 0.000000 0.000000 -60.708740 0.000000 44.000000 -0.460291 0.044807 0.886637
-8190.00000000 -19530.00000000 900.00000000 139 178 97 0.000000 0.000000 0.000000 0.000000 -60.708740 0.000000 44.000000 -0.154596 0.583864 0.796996
-8200.00000000 -19520.00000000 850.00000000 139 178 97 0.000000 0.000000 0.000000 0.000000 -60.708740 0.000000 44.000000 -0.421606 0.001297 0.906778
-8250.00000000 -19500.00000000 880.00000000 139 178 97 0.000000 0.000000 0.000000 0.000000 -60.708740 0.000000 44.000000 -0.346770 0.587718 0.730984
-8290.00000000 -19330.00000000 920.00000000 139 178 97 0.000000 0.000000 0.000000 0.000000 -60.708740 0.000000 44.000000 0.490924 0.671878 -0.554593
-8310.00000000 -19380.00000000 980.00000000 139 178 97 0.000000 0.000000 0.000000 0.000000 -60.708740 0.000000 44.000000 0.898324 0.371974 -0.233770
-8270.00000000 -19330.00000000 840.00000000 139 178 97 0.000000 0.000000 0.000000 0.000000 -60.708740 0.000000 44.000000 0.900069 0.260740 -0.349127
-8300.00000000 -19410.00000000 880.00000000 139 178 97 0.000000 0.000000 0.000000 0.000000 -60.708740 0.000000 44.000000 0.824800 -0.224946 -0.518752
-8280.00000000 -19460.00000000 880.00000000 139 178 97 0.000000 0.000000 0.000000 0.000000 -60.708740 0.000000 44.000000 -0.225092 -0.032500 0.973795
-8270.00000000 -19450.00000000 890.00000000 139 178 97 0.000000 0.000000 0.000000 0.000000 -60.708740 0.000000 44.000000 -0.430553 0.061119 0.900494
-8280.00000000 -19530.00000000 960.00000000 139 178 97 0.000000 0.000000 0.000000 0.000000 -60.708740 0.000000 44.000000 -0.193144 0.356243 0.914214
-8300.00000000 -19490.00000000 920.00000000 139 178 97 0.000000 0.000000 0.000000 0.000000 -60.708740 0.000000 44.000000 -0.421709 0.258467 0.869113
-8270.00000000 -19550.00000000 930.00000000 139 178 97 0.000000 0.000000 0.000000 0.000000 -60.708740 0.000000 44.000000 0.095153 0.639724 0.762692
-8280.00000000 -19540.00000000 920.00000000 139 178 97 0.000000 0.000000 0.000000 0.000000 -60.708740 0.000000 44.000000 0.518489 -0.669506 -0.531913
-8270.00000000 -19550.00000000 930.00000000 139 178 97 0.000000 0.000000 0.000000 0.000000 -60.708740 0.000000 44.000000 0.095153 0.639724 0.762692
-8290.00000000 -19550.00000000 920.00000000 139 178 97 0.000000 0.000000 0.000000 0.000000 -60.708740 0.000000 44.000000 -0.430842 0.577229 0.693673
-8270.00000000 -19540.00000000 930.00000000 139 178 97 0.000000 0.000000 0.000000 0.000000 -60.708740 0.000000 44.000000 -0.041487 0.426912 0.903341
-8320.00000000 -19500.00000000 920.00000000 139 178 97 0.000000 0.000000 0.000000 0.000000 -60.708740 0.000000 44.000000 0.574964 -0.309103 -0.757543
-8330.00000000 -19530.00000000 920.00000000 139 178 97 0.000000 0.000000 0.000000 0.000000 -60.708740 0.000000 44.000000 -0.080680 0.519464 0.850675
-8320.00000000 -19550.00000000 910.00000000 139 178 97 0.000000 0.000000 0.000000 0.000000 -60.708740 0.000000 44.000000 -0.258932 0.820208 0.510111
-8290.00000000 -19550.00000000 900.00000000 139 178 97 0.000000 0.000000 0.000000 0.000000 -60.708740 0.000000 44.000000 0.199254 -0.749132 -0.631743
-8290.00000000 -19540.00000000 900.00000000 139 178 97 0.000000 0.000000 0.000000 0.000000 -60.708740 0.000000 44.000000 -0.133698 0.875503 0.464348
-8290.00000000 -19550.00000000 850.00000000 139 178 97 0.000000 0.000000 0.000000 0.000000 -60.708740 0.000000 44.000000 -0.405368 0.243819 0.881039
-8320.00000000 -19520.00000000 900.00000000 139 178 97 0.000000 0.000000 0.000000 0.000000 -60.708740 0.000000 44.000000 -0.131479 0.565804 0.813990
-8330.00000000 -19530.00000000 830.00000000 139 178 97 0.000000 0.000000 0.000000 0.000000 -60.708740 0.000000 44.000000 -0.196998 0.401291 0.894515
-8310.00000000 -19490.00000000 860.00000000 139 178 97 0.000000 0.000000 0.000000 0.000000 -60.708740 0.000000 44.000000 -0.178789 0.536366 0.824831
-8330.00000000 -19570.00000000 880.00000000 139 178 97 0.000000 0.000000 0.000000 0.000000 -60.708740 0.000000 44.000000 0.189213 0.746084 0.638402
-8310.00000000 -19540.00000000 840.00000000 139 178 97 0.000000 0.000000 0.000000 0.000000 -60.708740 0.000000 44.000000 -0.226348 0.436206 0.870914
-8310.00000000 -19540.00000000 840.00000000 139 178 97 0.000000 0.000000 0.000000 0.000000 -60.708740 0.000000 44.000000 -0.226348 0.436206 0.870914
-8350.00000000 -19510.00000000 950.00000000 139 178 97 0.000000 0.000000 0.000000 0.000000 -60.708740 0.000000 44.000000 0.015277 0.768018 0.640246
-8400.00000000 -19570.00000000 920.00000000 139 178 97 0.000000 0.000000 0.000000 0.000000 -60.708740 0.000000 44.000000 0.500256 0.829656 0.247819
-8400.00000000 -19560.00000000 920.00000000 139 178 97 0.000000 0.000000 0.000000 0.000000 -60.708740 0.000000 44.000000 0.191679 0.906514 0.376153
-8420.00000000 -19560.00000000 930.00000000 139 178 97 0.000000 0.000000 0.000000 0.000000 -60.708740 0.000000 44.000000 -0.122625 0.921754 0.367875
-8400.00000000 -19520.00000000 860.00000000 139 178 97 0.000000 0.000000 0.000000 0.000000 -60.708740 0.000000 44.000000 -0.353838 0.491531 0.795736
-8320.00000000 -19480.00000000 820.00000000 139 178 97 0.000000 0.000000 0.000000 0.000000 -60.708740 0.000000 44.000000 -0.511603 0.057155 0.857319
-8410.00000000 -19420.00000000 820.00000000 139 178 97 0.000000 0.000000 0.000000 0.000000 -60.708740 0.000000 44.000000 0.266737 -0.585559 -0.765488
-8390.00000000 -19410.00000000 800.00000000 139 178 97 0.000000 0.000000 0.000000 0.000000 -60.708740 0.000000 44.000000 0.743007 -0.079971 -0.664489
-8370.00000000 -19560.00000000 820.00000000 139 178 97 0.000000 0.000000 0.000000 0.000000 -60.708740 0.000000 44.000000 0.145430 0.607206 0.781122
-8370.00000000 -19560.00000000 820.00000000 139 178 97 0.000000 0.000000 0.000000 0.000000 -60.708740 0.000000 44.000000 0.145430 0.607206 0.781122
-8420.00000000 -19570.00000000 820.00000000 139 178 97 0.000000 0.000000 0.000000 0.000000 -60.708740 0.000000 44.000000 -0.092526 0.967089 0.237019
-8400.00000000 -19560.00000000 760.00000000 139 178 97 0.000000 0.000000 0.000000 0.000000 -60.708740 0.000000 44.000000 -0.261947 0.870634 0.416390
-8410.00000000 -19560.00000000 760.00000000 139 178 97 0.000000 0.000000 0.000000 0.000000 -60.708740 0.000000 44.000000 -0.225555 0.918025 0.326121
-8420.00000000 -19560.00000000 750.00000000 139 178 97 0.000000 0.000000 0.000000 0.000000 -60.708740 0.000000 44.000000 0.165689 0.755481 0.633874
-8160.00000000 -19580.00000000 1300.00000000 139 178 97 0.000000 0.000000 0.000000 0.000000 -60.708740 0.000000 44.000000 0.837227 0.320807 -0.442870
-8180.00000000 -19590.00000000 1320.00000000 139 178 97 0.000000 0.000000 0.000000 0.000000 -60.708740 0.000000 44.000000 0.730306 0.515023 -0.448782
-8210.00000000 -19590.00000000 1230.00000000 139 178 97 0.000000 0.000000 0.000000 0.000000 -60.708740 0.000000 44.000000 0.467115 0.594358 -0.654631
-8170.00000000 -19590.00000000 1120.00000000 139 178 97 0.000000 0.000000 0.000000 0.000000 -60.708740 0.000000 44.000000 0.275493 0.635387 0.721379
-8150.00000000 -19610.00000000 1120.00000000 139 178 97 0.000000 0.000000 0.000000 0.000000 -60.708740 0.000000 44.000000 -0.069233 0.977758 0.197981
-8150.00000000 -19580.00000000 1110.00000000 139 178 97 0.000000 0.000000 0.000000 0.000000 -60.708740 0.000000 44.000000 -0.117417 0.842214 0.526202
-8150.00000000 -19580.00000000 1110.00000000 139 178 97 0.000000 0.000000 0.000000 0.000000 -60.708740 0.000000 44.000000 -0.117417 0.842214 0.526202
-8140.00000000 -19650.00000000 1150.00000000 139 178 97 0.000000 0.000000 0.000000 0.000000 -60.708740 0.000000 44.000000 -0.158080 0.781369 0.603716
-8180.00000000 -19590.00000000 1120.00000000 139 178 97 0.000000 0.000000 0.000000 0.000000 -60.708740 0.000000 44.000000 0.386517 0.860808 0.331080
-8180.00000000 -19590.00000000 1110.00000000 139 178 97 0.000000 0.000000 0.000000 0.000000 -60.708740 0.000000 44.000000 0.387695 0.884664 0.258963
-8190.00000000 -19580.00000000 1110.00000000 139 178 97 0.000000 0.000000 0.000000 0.000000 -60.708740 0.000000 44.000000 0.374792 0.862175 0.340860
-8180.00000000 -19580.00000000 1100.00000000 139 178 97 0.000000 0.000000 0.000000 0.000000 -60.708740 0.000000 44.000000 0.150200 0.822382 0.548751
-8180.00000000 -19580.00000000 1120.00000000 139 178 97 0.000000 0.000000 0.000000 0.000000 -60.708740 0.000000 44.000000 0.256592 0.948983 0.183280
-8110.00000000 -19580.00000000 880.00000000 139 178 97 0.000000 0.000000 0.000000 0.000000 -60.708740 0.000000 44.000000 -0.418674 0.480579 0.770556
-8110.00000000 -19580.00000000 880.00000000 139 178 97 0.000000 0.000000 0.000000 0.000000 -60.708740 0.000000 44.000000 -0.418674 0.480579 0.770556
-8110.00000000 -19620.00000000 900.00000000 139 178 97 0.000000 0.000000 0.000000 0.000000 -60.708740 0.000000 44.000000 -0.525922 0.430300 0.733653
-8240.00000000 -19580.00000000 940.00000000 139 178 97 0.000000 0.000000 0.000000 0.000000 -60.708740 0.000000 44.000000 -0.166169 0.818867 0.549404
-8300.00000000 -19590.00000000 930.00000000 139 178 97 0.000000 0.000000 0.000000 0.000000 -60.708740 0.000000 44.000000 -0.136211 0.445911 0.884653
-8310.00000000 -19590.00000000 940.00000000 139 178 97 0.000000 0.000000 0.000000 0.000000 -60.708740 0.000000 44.000000 0.165178 0.762245 0.625859
-8330.00000000 -19610.00000000 920.00000000 139 178 97 0.000000 0.000000 0.000000 0.000000 -60.708740 0.000000 44.000000 0.102718 0.554101 0.826088
-8310.00000000 -19620.00000000 920.00000000 139 178 97 0.000000 0.000000 0.000000 0.000000 -60.708740 0.000000 44.000000 0.065699 -0.501826 -0.862470
-8390.00000000 -19610.00000000 910.00000000 139 178 97 0.000000 0.000000 0.000000 0.000000 -60.708740 0.000000 44.000000 0.057019 0.997301 0.046261
-8380.00000000 -19590.00000000 890.00000000 139 178 97 0.000000 0.000000 0.000000 0.000000 -60.708740 0.000000 44.000000 0.038110 0.774902 0.630931
-8410.00000000 -19580.00000000 880.00000000 139 178 97 0.000000 0.000000 0.000000 0.000000 -60.708740 0.000000 44.000000 0.145040 0.954069 0.262136
-8410.00000000 -19580.00000000 880.00000000 139 178 97 0.000000 0.000000 0.000000 0.000000 -60.708740 0.000000 44.000000 0.145040 0.954069 0.262136
-8400.00000000 -19580.00000000 890.00000000 139 178 97 0.000000 0.000000 0.000000 0.000000 -60.708740 0.000000 44.000000 -0.182612 0.856642 0.482511
-8390.00000000 -19590.00000000 840.00000000 139 178 97 0.000000 0.000000 0.000000 0.000000 -60.708740 0.000000 44.000000 -0.328788 0.781072 0.530872
-8390.00000000 -19600.00000000 850.00000000 139 178 97 0.000000 0.000000 0.000000 0.000000 -60.708740 0.000000 44.000000 -0.147205 0.896092 0.418748
-8360.00000000 -19580.00000000 820.00000000 139 178 97 0.000000 0.000000 0.000000 0.000000 -60.708740 0.000000 44.000000 0.014914 0.852818 0.521995
-8370.00000000 -19580.00000000 820.00000000 139 178 97 0.000000 0.000000 0.000000 0.000000 -60.708740 0.000000 44.000000 -0.237116 0.717629 0.654817
-8530.00000000 -19040.00000000 690.00000000 139 178 97 0.000000 0.000000 0.000000 0.000000 -60.708740 0.000000 44.000000 0.284989 0.910504 -0.299604
-8530.00000000 -19030.00000000 680.00000000 139 178 97 0.000000 0.000000 0.000000 0.000000 -60.708740 0.000000 44.000000 0.626930 0.552577 -0.549197
-8580.00000000 -19000.00000000 700.00000000 139 178 97 0.000000 0.000000 0.000000 0.000000 -60.708740 0.000000 44.000000 0.480927 0.874539 -0.062368
-8580.00000000 -19010.00000000 690.00000000 139 178 97 0.000000 0.000000 0.000000 0.000000 -60.708740 0.000000 44.000000 0.436358 0.898384 -0.049985
-8570.00000000 -19020.00000000 690.00000000 139 178 97 0.000000 0.000000 0.000000 0.000000 -60.708740 0.000000 44.000000 0.807458 0.541907 -0.233128
-8570.00000000 -19010.00000000 680.00000000 139 178 97 0.000000 0.000000 0.000000 0.000000 -60.708740 0.000000 44.000000 0.559975 0.812189 0.163639
-8560.00000000 -19030.00000000 670.00000000 139 178 97 0.000000 0.000000 0.000000 0.000000 -60.708740 0.000000 44.000000 0.564775 0.820576 0.087662
-8570.00000000 -19030.00000000 680.00000000 139 178 97 0.000000 0.000000 0.000000 0.000000 -60.708740 0.000000 44.000000 0.851405 0.509103 -0.126188
-8630.00000000 -18980.00000000 600.00000000 139 178 97 0.000000 0.000000 0.000000 0.000000 -60.708740 0.000000 44.000000 0.630314 0.650271 -0.424090
-8620.00000000 -19000.00000000 580.00000000 139 178 97 0.000000 0.000000 0.000000 0.000000 -60.708740 0.000000 44.000000 0.742016 0.662672 -0.101384
-8620.00000000 -19000.00000000 590.00000000 139 178 97 0.000000 0.000000 0.000000 0.000000 -60.708740 0.000000 44.000000 0.511181 0.629275 -0.585412
-8710.00000000 -19040.00000000 470.00000000 139 178 97 0.000000 0.000000 0.000000 0.000000 -60.708740 0.000000 44.000000 0.595026 0.500631 -0.628739
-8630.00000000 -19080.00000000 490.00000000 139 178 97 0.000000 0.000000 0.000000 0.000000 -60.708740 0.000000 44.000000 0.561808 0.695175 -0.448446
-9080.00000000 -19000.00000000 590.00000000 139 178 97 0.000000 0.000000 0.000000 0.000000 -60.708740 0.000000 44.000000 -0.264706 0.730717 0.629272
-9090.00000000 -19030.00000000 530.00000000 139 178 97 0.000000 0.000000 0.000000 0.000000 -60.708740 0.000000 44.000000 -0.322477 0.659538 0.678984
-9070.00000000 -19040.00000000 560.00000000 139 178 97 0.000000 0.000000 0.000000 0.000000 -60.708740 0.000000 44.000000 -0.372841 0.456050 0.808089
-9080.00000000 -19080.00000000 600.00000000 139 178 97 0.000000 0.000000 0.000000 0.000000 -60.708740 0.000000 44.000000 0.643630 -0.319383 -0.695510
-9090.00000000 -19140.00000000 560.00000000 139 178 97 0.000000 0.000000 0.000000 0.000000 -60.708740 0.000000 44.000000 0.663437 0.525710 -0.532429
-9100.00000000 -19110.00000000 530.00000000 139 178 97 0.000000 0.000000 0.000000 0.000000 -60.708740 0.000000 44.000000 0.890077 0.300682 -0.342568
-9080.00000000 -19130.00000000 560.00000000 139 178 97 0.000000 0.000000 0.000000 0.000000 -60.708740 0.000000 44.000000 -0.553816 -0.319448 0.768922
-8470.00000000 -19350.00000000 760.00000000 139 178 97 0.000000 0.000000 0.000000 0.000000 -60.708740 0.000000 44.000000 -0.604520 0.282322 0.744883
-8470.00000000 -19340.00000000 760.00000000 139 178 97 0.000000 0.000000 0.000000 0.000000 -60.708740 0.000000 44.000000 -0.613416 0.282012 0.737692
-8470.00000000 -19360.00000000 770.00000000 139 178 97 0.000000 0.000000 0.000000 0.000000 -60.708740 0.000000 44.000000 -0.555333 0.153349 0.817367
-8460.00000000 -19360.00000000 770.00000000 139 178 97 0.000000 0.000000 0.000000 0.000000 -60.708740 0.000000 44.000000 -0.477650 -0.202140 0.854979
-8470.00000000 -19350.00000000 770.00000000 139 178 97 0.000000 0.000000 0.000000 0.000000 -60.708740 0.000000 44.000000 -0.538598 0.314848 0.781526
-8430.00000000 -19370.00000000 800.00000000 139 178 97 0.000000 0.000000 0.000000 0.000000 -60.708740 0.000000 44.000000 -0.517423 0.557873 0.648885
-8440.00000000 -19380.00000000 800.00000000 139 178 97 0.000000 0.000000 0.000000 0.000000 -60.708740 0.000000 44.000000 -0.328962 0.132404 0.935015
-8440.00000000 -19380.00000000 770.00000000 139 178 97 0.000000 0.000000 0.000000 0.000000 -60.708740 0.000000 44.000000 -0.469520 0.085495 0.878773
-8460.00000000 -19390.00000000 770.00000000 139 178 97 0.000000 0.000000 0.000000 0.000000 -60.708740 0.000000 44.000000 -0.358655 0.540417 0.761128
-8440.00000000 -19380.00000000 760.00000000 139 178 97 0.000000 0.000000 0.000000 0.000000 -60.708740 0.000000 44.000000 -0.622347 0.474729 0.622347
-8460.00000000 -19390.00000000 760.00000000 139 178 97 0.000000 0.000000 0.000000 0.000000 -60.708740 0.000000 44.000000 0.556434 -0.417738 -0.718245
-8440.00000000 -19390.00000000 770.00000000 139 178 97 0.000000 0.000000 0.000000 0.000000 -60.708740 0.000000 44.000000 -0.380679 0.298780 0.875108
-8440.00000000 -19390.00000000 770.00000000 139 178 97 0.000000 0.000000 0.000000 0.000000 -60.708740 0.000000 44.000000 -0.380679 0.298780 0.875108
-8490.00000000 -19360.00000000 750.00000000 139 178 97 0.000000 0.000000 0.000000 0.000000 -60.708740 0.000000 44.000000 -0.286171 0.634692 0.717825
-8500.00000000 -19380.00000000 800.00000000 139 178 97 0.000000 0.000000 0.000000 0.000000 -60.708740 0.000000 44.000000 -0.523632 0.371243 0.766804
-8510.00000000 -19380.00000000 790.00000000 139 178 97 0.000000 0.000000 0.000000 0.000000 -60.708740 0.000000 44.000000 0.471424 -0.534725 -0.701305
-8490.00000000 -19400.00000000 740.00000000 139 178 97 0.000000 0.000000 0.000000 0.000000 -60.708740 0.000000 44.000000 0.475961 -0.699747 -0.532743
-8500.00000000 -19400.00000000 700.00000000 139 178 97 0.000000 0.000000 0.000000 0.000000 -60.708740 0.000000 44.000000 0.581111 -0.408930 -0.703624
-8510.00000000 -19410.00000000 900.00000000 139 178 97 0.000000 0.000000 0.000000 0.000000 -60.708740 0.000000 44.000000 -0.050605 0.992988 0.106833
-8540.00000000 -19440.00000000 830.00000000 139 178 97 0.000000 0.000000 0.000000 0.000000 -60.708740 0.000000 44.000000 0.168528 0.611864 0.772801
-8520.00000000 -19440.00000000 830.00000000 139 178 97 0.000000 0.000000 0.000000 0.000000 -60.708740 0.000000 44.000000 0.163829 0.575657 0.801111
-8550.00000000 -19440.00000000 840.00000000 139 178 97 0.000000 0.000000 0.000000 0.000000 -60.708740 0.000000 44.000000 0.406811 0.652558 0.639275
-8540.00000000 -19450.00000000 840.00000000 139 178 97 0.000000 0.000000 0.000000 0.000000 -60.708740 0.000000 44.000000 0.178105 0.771788 0.610428
-8550.00000000 -19450.00000000 850.00000000 139 178 97 0.000000 0.000000 0.000000 0.000000 -60.708740 0.000000 44.000000 -0.104953 0.990708 0.086500
-8540.00000000 -19480.00000000 830.00000000 139 178 97 0.000000 0.000000 0.000000 0.000000 -60.708740 0.000000 44.000000 -0.252487 0.822519 0.509621
-8530.00000000 -19450.00000000 840.00000000 139 178 97 0.000000 0.000000 0.000000 0.000000 -60.708740 0.000000 44.000000 0.060370 0.840965 0.537712
-8520.00000000 -19450.00000000 840.00000000 139 178 97 0.000000 0.000000 0.000000 0.000000 -60.708740 0.000000 44.000000 0.187695 0.836367 0.515034
-8520.00000000 -19500.00000000 840.00000000 139 178 97 0.000000 0.000000 0.000000 0.000000 -60.708740 0.000000 44.000000 0.090189 0.994304 0.056786
-8520.00000000 -19490.00000000 830.00000000 139 178 97 0.000000 0.000000 0.000000 0.000000 -60.708740 0.000000 44.000000 0.270039 0.901605 0.337917
-8430.00000000 -19440.00000000 790.00000000 139 178 97 0.000000 0.000000 0.000000 0.000000 -60.708740 0.000000 44.000000 0.608035 -0.350476 -0.712362
-8460.00000000 -19430.00000000 780.00000000 139 178 97 0.000000 0.000000 0.000000 0.000000 -60.708740 0.000000 44.000000 -0.478536 0.659876 0.579281
-8500.00000000 -19430.00000000 810.00000000 139 178 97 0.000000 0.000000 0.000000 0.000000 -60.708740 0.000000 44.000000 -0.404875 0.752379 0.519617
-8510.00000000 -19410.00000000 810.00000000 139 178 97 0.000000 0.000000 0.000000 0.000000 -60.708740 0.000000 44.000000 -0.104063 0.775341 0.622911
-8480.00000000 -19430.00000000 800.00000000 139 178 97 0.000000 0.000000 0.000000 0.000000 -60.708740 0.000000 44.000000 0.012355 -0.814042 -0.580674
-8500.00000000 -19430.00000000 790.00000000 139 178 97 0.000000 0.000000 0.000000 0.000000 -60.708740 0.000000 44.000000 -0.464636 0.788423 0.403116
-8510.00000000 -19430.00000000 810.00000000 139 178 97 0.000000 0.000000 0.000000 0.000000 -60.708740 0.000000 44.000000 0.216423 0.633699 0.742689
-8480.00000000 -19410.00000000 760.00000000 139 178 97 0.000000 0.000000 0.000000 0.000000 -60.708740 0.000000 44.000000 -0.512284 0.455916 0.727808
-8500.00000000 -19440.00000000 680.00000000 139 178 97 0.000000 0.000000 0.000000 0.000000 -60.708740 0.000000 44.000000 -0.448519 0.210104 0.868727
-8510.00000000 -19450.00000000 680.00000000 139 178 97 0.000000 0.000000 0.000000 0.000000 -60.708740 0.000000 44.000000 -0.395581 0.676957 0.620681
-8510.00000000 -19450.00000000 670.00000000 139 178 97 0.000000 0.000000 0.000000 0.000000 -60.708740 0.000000 44.000000 -0.173096 0.859562 0.480822
-8480.00000000 -19450.00000000 690.00000000 139 178 97 0.000000 0.000000 0.000000 0.000000 -60.708740 0.000000 44.000000 -0.029031 0.559878 0.828066
-8510.00000000 -19450.00000000 670.00000000 139 178 97 0.000000 0.000000 0.000000 0.000000 -60.708740 0.000000 44.000000 -0.173096 0.859562 0.480822
-8490.00000000 -19460.00000000 670.00000000 139 178 97 0.000000 0.000000 0.000000 0.000000 -60.708740 0.000000 44.000000 0.058580 0.638663 0.767253
-8510.00000000 -19530.00000000 740.00000000 139 178 97 0.000000 0.000000 0.000000 0.000000 -60.708740 0.000000 44.000000 0.149288 0.524724 0.838080
-8470.00000000 -19520.00000000 720.00000000 139 178 97 0.000000 0.000000 0.000000 0.000000 -60.708740 0.000000 44.000000 0.135257 0.789247 0.598995
-8490.00000000 -19530.00000000 730.00000000 139 178 97 0.000000 0.000000 0.000000 0.000000 -60.708740 0.000000 44.000000 -0.210567 0.935696 0.283080
-8500.00000000 -19530.00000000 730.00000000 139 178 97 0.000000 0.000000 0.000000 0.000000 -60.708740 0.000000 44.000000 -0.012385 0.805029 0.593107
-8510.00000000 -19530.00000000 730.00000000 139 178 97 0.000000 0.000000 0.000000 0.000000 -60.708740 0.000000 44.000000 -0.019805 0.901778 0.431745
-8540.00000000 -19440.00000000 790.00000000 139 178 97 0.000000 0.000000 0.000000 0.000000 -60.708740 0.000000 44.000000 -0.029076 0.557975 0.829348
-8550.00000000 -19480.00000000 820.00000000 139 178 97 0.000000 0.000000 0.000000 0.000000 -60.708740 0.000000 44.000000 0.399382 0.667846 0.628073
-8530.00000000 -19480.00000000 810.00000000 139 178 97 0.000000 0.000000 0.000000 0.000000 -60.708740 0.000000 44.000000 0.187800 0.839840 0.509313
-8570.00000000 -19410.00000000 800.00000000 139 178 97 0.000000 0.000000 0.000000 0.000000 -60.708740 0.000000 44.000000 -0.060709 0.825926 0.560500
-8590.00000000 -19430.00000000 800.00000000 139 178 97 0.000000 0.000000 0.000000 0.000000 -60.708740 0.000000 44.000000 -0.018163 0.711169 0.702786
-8540.00000000 -19410.00000000 700.00000000 139 178 97 0.000000 0.000000 0.000000 0.000000 -60.708740 0.000000 44.000000 -0.291463 0.433339 0.852799
-8540.00000000 -19480.00000000 710.00000000 139 178 97 0.000000 0.000000 0.000000 0.000000 -60.708740 0.000000 44.000000 -0.277892 0.437564 0.855169
-8520.00000000 -19460.00000000 680.00000000 139 178 97 0.000000 0.000000 0.000000 0.000000 -60.708740 0.000000 44.000000 0.526444 -0.434027 -0.731080
-8520.00000000 -19460.00000000 680.00000000 139 178 97 0.000000 0.000000 0.000000 0.000000 -60.708740 0.000000 44.000000 0.526444 -0.434027 -0.731080
-8520.00000000 -19460.00000000 680.00000000 139 178 97 0.000000 0.000000 0.000000 0.000000 -60.708740 0.000000 44.000000 0.526444 -0.434027 -0.731080
-8520.00000000 -19450.00000000 670.00000000 139 178 97 0.000000 0.000000 0.000000 0.000000 -60.708740 0.000000 44.000000 -0.133493 0.679464 0.721462
-8520.00000000 -19450.00000000 670.00000000 139 178 97 0.000000 0.000000 0.000000 0.000000 -60.708740 0.000000 44.000000 -0.133493 0.679464 0.721462
-8520.00000000 -19460.00000000 670.00000000 139 178 97 0.000000 0.000000 0.000000 0.000000 -60.708740 0.000000 44.000000 -0.363893 0.482519 0.796717
-8580.00000000 -19460.00000000 670.00000000 139 178 97 0.000000 0.000000 0.000000 0.000000 -60.708740 0.000000 44.000000 0.062352 0.871540 0.486344
-8580.00000000 -19530.00000000 740.00000000 139 178 97 0.000000 0.000000 0.000000 0.000000 -60.708740 0.000000 44.000000 0.294287 0.855127 0.426793
-8540.00000000 -19500.00000000 700.00000000 139 178 97 0.000000 0.000000 0.000000 0.000000 -60.708740 0.000000 44.000000 0.100009 0.560917 0.821809
-8550.00000000 -19500.00000000 710.00000000 139 178 97 0.000000 0.000000 0.000000 0.000000 -60.708740 0.000000 44.000000 -0.088135 0.801887 0.590940
-8550.00000000 -19520.00000000 720.00000000 139 178 97 0.000000 0.000000 0.000000 0.000000 -60.708740 0.000000 44.000000 0.037686 0.568080 0.822110
-8610.00000000 -19520.00000000 760.00000000 139 178 97 0.000000 0.000000 0.000000 0.000000 -60.708740 0.000000 44.000000 -0.078081 0.844691 0.529529
-8630.00000000 -19530.00000000 710.00000000 139 178 97 0.000000 0.000000 0.000000 0.000000 -60.708740 0.000000 44.000000 0.484042 0.741758 0.464218
-8610.00000000 -19490.00000000 710.00000000 139 178 97 0.000000 0.000000 0.000000 0.000000 -60.708740 0.000000 44.000000 -0.132992 0.957279 0.256767
-8610.00000000 -19490.00000000 710.00000000 139 178 97 0.000000 0.000000 0.000000 0.000000 -60.708740 0.000000 44.000000 -0.132992 0.957279 0.256767
-9920.00000000 -18530.00000000 50.00000000 139 178 97 0.000000 0.000000 0.000000 0.000000 -60.708740 0.000000 44.000000 0.595948 -0.514913 -0.616207
-9980.00000000 -18470.00000000 10.00000000 139 178 97 0.000000 0.000000 0.000000 0.000000 -60.708740 0.000000 44.000000 0.595514 -0.622506 -0.507789
-9980.00000000 -18490.00000000 10.00000000 139 178 97 0.000000 0.000000 0.000000 0.000000 -60.708740 0.000000 44.000000 -0.288195 0.765866 0.574798
-9960.00000000 -18510.00000000 -10.00000000 139 178 97 0.000000 0.000000 0.000000 0.000000 -60.708740 0.000000 44.000000 0.661307 -0.377654 -0.648113
-9960.00000000 -18520.00000000 0.00000000 139 178 97 0.000000 0.000000 0.000000 0.000000 -60.708740 0.000000 44.000000 -0.663563 0.392180 0.637086
-9960.00000000 -18520.00000000 0.00000000 139 178 97 0.000000 0.000000 0.000000 0.000000 -60.708740 0.000000 44.000000 -0.663563 0.392180 0.637086
-10010.00000000 -18500.00000000 0.00000000 139 178 97 0.000000 0.000000 0.000000 0.000000 -60.708740 0.000000 44.000000 -0.482597 0.644023 0.593578
-10010.00000000 -18480.00000000 0.00000000 139 178 97 0.000000 0.000000 0.000000 0.000000 -60.708740 0.000000 44.000000 -0.388577 0.643220 0.659755
-10000.00000000 -18490.00000000 10.00000000 139 178 97 0.000000 0.000000 0.000000 0.000000 -60.708740 0.000000 44.000000 -0.441761 0.723031 0.531105
-10060.00000000 -18530.00000000 -10.00000000 139 178 97 0.000000 0.000000 0.000000 0.000000 -60.708740 0.000000 44.000000 -0.511199 0.477896 0.714347
-9370.00000000 -18880.00000000 550.00000000 139 178 97 0.000000 0.000000 0.000000 0.000000 -60.708740 0.000000 44.000000 -0.521483 0.132927 0.842844
-9360.00000000 -18880.00000000 550.00000000 139 178 97 0.000000 0.000000 0.000000 0.000000 -60.708740 0.000000 44.000000 -0.490199 -0.110045 0.864636
-9390.00000000 -18890.00000000 520.00000000 139 178 97 0.000000 0.000000 0.000000 0.000000 -60.708740 0.000000 44.000000 -0.438562 0.105087 0.892536
-9400.00000000 -18820.00000000 530.00000000 139 178 97 0.000000 0.000000 0.000000 0.000000 -60.708740 0.000000 44.000000 -0.022467 0.424225 0.905278
-9430.00000000 -18860.00000000 520.00000000 139 178 97 0.000000 0.000000 0.000000 0.000000 -60.708740 0.000000 44.000000 -0.622848 -0.001375 0.782341
-9140.00000000 -19050.00000000 570.00000000 139 178 97 0.000000 0.000000 0.000000 0.000000 -60.708740 0.000000 44.000000 -0.582524 -0.088174 0.808017
-9140.00000000 -19060.00000000 570.00000000 139 178 97 0.000000 0.000000 0.000000 0.000000 -60.708740 0.000000 44.000000 -0.445142 -0.148381 0.883081
-9140.00000000 -19060.00000000 570.00000000 139 178 97 0.000000 0.000000 0.000000 0.000000 -60.708740 0.000000 44.000000 -0.445142 -0.148381 0.883081
-9110.00000000 -19060.00000000 590.00000000 139 178 97 0.000000 0.000000 0.000000 0.000000 -60.708740 0.000000 44.000000 -0.392552 0.300906 0.869114
-9170.00000000 -19020.00000000 600.00000000 139 178 97 0.000000 0.000000 0.000000 0.000000 -60.708740 0.000000 44.000000 -0.521730 0.426271 0.738980
-9170.00000000 -19010.00000000 580.00000000 139 178 97 0.000000 0.000000 0.000000 0.000000 -60.708740 0.000000 44.000000 -0.410095 0.001294 0.912042
-9170.00000000 -19000.00000000 580.00000000 139 178 97 0.000000 0.000000 0.000000 0.000000 -60.708740 0.000000 44.000000 -0.658615 -0.162753 0.734668
-9150.00000000 -19060.00000000 560.00000000 139 178 97 0.000000 0.000000 0.000000 0.000000 -60.708740 0.000000 44.000000 0.698823 -0.165951 -0.695778
-9180.00000000 -19030.00000000 510.00000000 139 178 97 0.000000 0.000000 0.000000 0.000000 -60.708740 0.000000 44.000000 -0.430646 0.141641 0.891337
-9240.00000000 -18930.00000000 550.00000000 139 178 97 0.000000 0.000000 0.000000 0.000000 -60.708740 0.000000 44.000000 -0.314210 0.088084 0.945258
-9210.00000000 -19030.00000000 590.00000000 139 178 97 0.000000 0.000000 0.000000 0.000000 -60.708740 0.000000 44.000000 0.712635 -0.095508 -0.695003
-9240.00000000 -19000.00000000 630.00000000 139 178 97 0.000000 0.000000 0.000000 0.000000 -60.708740 0.000000 44.000000 0.614416 -0.486483 -0.621150
-9250.00000000 -19030.00000000 650.00000000 139 178 97 0.000000 0.000000 0.000000 0.000000 -60.708740 0.000000 44.000000 0.666873 0.089014 -0.739835
-9190.00000000 -19020.00000000 510.00000000 139 178 97 0.000000 0.000000 0.000000 0.000000 -60.708740 0.000000 44.000000 -0.339041 -0.072557 0.937969
-9200.00000000 -19050.00000000 500.00000000 139 178 97 0.000000 0.000000 0.000000 0.000000 -60.708740 0.000000 44.000000 0.686172 0.469135 -0.555950
-9200.00000000 -19030.00000000 500.00000000 139 178 97 0.000000 0.000000 0.000000 0.000000 -60.708740 0.000000 44.000000 -0.518322 -0.066019 0.852633
-9200.00000000 -19030.00000000 510.00000000 139 178 97 0.000000 0.000000 0.000000 0.000000 -60.708740 0.000000 44.000000 -0.496268 -0.086246 0.863875
-9190.00000000 -19050.00000000 510.00000000 139 178 97 0.000000 0.000000 0.000000 0.000000 -60.708740 0.000000 44.000000 0.850481 0.241908 -0.467080
-9190.00000000 -19040.00000000 510.00000000 139 178 97 0.000000 0.000000 0.000000 0.000000 -60.708740 0.000000 44.000000 0.736432 -0.219528 -0.639902
-9190.00000000 -19050.00000000 500.00000000 139 178 97 0.000000 0.000000 0.000000 0.000000 -60.708740 0.000000 44.000000 0.748255 0.448953 -0.488421
-9200.00000000 -19040.00000000 510.00000000 139 178 97 0.000000 0.000000 0.000000 0.000000 -60.708740 0.000000 44.000000 -0.612635 -0.107248 0.783056
-9240.00000000 -19020.00000000 520.00000000 139 178 97 0.000000 0.000000 0.000000 0.000000 -60.708740 0.000000 44.000000 0.775054 -0.004130 -0.631882
-9240.00000000 -19020.00000000 520.00000000 139 178 97 0.000000 0.000000 0.000000 0.000000 -60.708740 0.000000 44.000000 0.775054 -0.004130 -0.631882
-9270.00000000 -19040.00000000 510.00000000 139 178 97 0.000000 0.000000 0.000000 0.000000 -60.708740 0.000000 44.000000 -0.643187 -0.254430 0.722202
-9250.00000000 -19040.00000000 500.00000000 139 178 97 0.000000 0.000000 0.000000 0.000000 -60.708740 0.000000 44.000000 -0.381084 -0.340970 0.859368
-9270.00000000 -19040.00000000 490.00000000 139 178 97 0.000000 0.000000 0.000000 0.000000 -60.708740 0.000000 44.000000 -0.439092 -0.531881 0.724087
-9240.00000000 -19030.00000000 520.00000000 139 178 97 0.000000 0.000000 0.000000 0.000000 -60.708740 0.000000 44.000000 -0.597212 -0.184815 0.780500
-9250.00000000 -19030.00000000 520.00000000 139 178 97 0.000000 0.000000 0.000000 0.000000 -60.708740 0.000000 44.000000 -0.307108 -0.110346 0.945256
-9260.00000000 -19040.00000000 510.00000000 139 178 97 0.000000 0.000000 0.000000 0.000000 -60.708740 0.000000 44.000000 -0.608087 -0.151646 0.779252
-9210.00000000 -19050.00000000 480.00000000 139 178 97 0.000000 0.000000 0.000000 0.000000 -60.708740 0.000000 44.000000 0.764409 0.427218 -0.482871
-9140.00000000 -19070.00000000 560.00000000 139 178 97 0.000000 0.000000 0.000000 0.000000 -60.708740 0.000000 44.000000 0.727808 0.455916 -0.512284
-9160.00000000 -19070.00000000 550.00000000 139 178 97 0.000000 0.000000 0.000000 0.000000 -60.708740 0.000000 44.000000 -0.323332 -0.350656 0.878918
-9150.00000000 -19070.00000000 560.00000000 139 178 97 0.000000 0.000000 0.000000 0.000000 -60.708740 0.000000 44.000000 -0.659178 -0.146316 0.737615
-9260.00000000 -19150.00000000 630.00000000 139 178 97 0.000000 0.000000 0.000000 0.000000 -60.708740 0.000000 44.000000 -0.693048 -0.009722 0.720826
-9270.00000000 -19070.00000000 500.00000000 139 178 97 0.000000 0.000000 0.000000 0.000000 -60.708740 0.000000 44.000000 -0.317833 -0.592106 0.740535
-9270.00000000 -19080.00000000 480.00000000 139 178 97 0.000000 0.000000 0.000000 0.000000 -60.708740 0.000000 44.000000 0.534271 0.741404 -0.406046
-9300.00000000 -18960.00000000 590.00000000 139 178 97 0.000000 0.000000 0.000000 0.000000 -60.708740 0.000000 44.000000 -0.310111 -0.151640 0.938529
-9330.00000000 -18940.00000000 570.00000000 139 178 97 0.000000 0.000000 0.000000 0.000000 -60.708740 0.000000 44.000000 -0.347731 0.378641 0.857738
-9310.00000000 -18940.00000000 590.00000000 139 178 97 0.000000 0.000000 0.000000 0.000000 -60.708740 0.000000 44.000000 -0.694202 -0.166303 0.700305
-9320.00000000 -18930.00000000 570.00000000 139 178 97 0.000000 0.000000 0.000000 0.000000 -60.708740 0.000000 44.000000 -0.555778 0.186269 0.810194
-9310.00000000 -18980.00000000 550.00000000 139 178 97 0.000000 0.000000 0.000000 0.000000 -60.708740 0.000000 44.000000 -0.511649 0.161652 0.843851
-9280.00000000 -18950.00000000 560.00000000 139 178 97 0.000000 0.000000 0.000000 0.000000 -60.708740 0.000000 44.000000 0.792441 -0.262055 -0.550786
-9350.00000000 -18900.00000000 550.00000000 139 178 97 0.000000 0.000000 0.000000 0.000000 -60.708740 0.000000 44.000000 -0.165502 0.052820 0.984794
-9330.00000000 -18930.00000000 560.00000000 139 178 97 0.000000 0.000000 0.000000 0.000000 -60.708740 0.000000 44.000000 -0.516518 0.392684 0.760926
-9330.00000000 -18930.00000000 560.00000000 139 178 97 0.000000 0.000000 0.000000 0.000000 -60.708740 0.000000 44.000000 -0.516518 0.392684 0.760926
