//X Y Z R G B PointSourceId ScanDirectionFlag NumberOfReturns ReturnNumber GpsTime Intensity Classification Nx Ny Nz
9490.00000000 -3430.00000000 -80.00000000 194 148 84 0.000000 0.000000 0.000000 0.000000 -60.708740 0.000000 43.000000 0.855274 0.374085 -0.358563
9490.00000000 -3420.00000000 -180.00000000 194 148 84 0.000000 0.000000 0.000000 0.000000 -60.708740 0.000000 43.000000 0.961370 0.243270 0.128790
9430.00000000 -3410.00000000 -130.00000000 194 148 84 0.000000 0.000000 0.000000 0.000000 -60.708740 0.000000 43.000000 0.949399 0.286284 0.129161
9440.00000000 -3430.00000000 -170.00000000 194 148 84 0.000000 0.000000 0.000000 0.000000 -60.708740 0.000000 43.000000 0.998713 0.030264 0.040700
9430.00000000 -3450.00000000 -130.00000000 194 148 84 0.000000 0.000000 0.000000 0.000000 -60.708740 0.000000 43.000000 0.848900 0.521853 -0.083895
9460.00000000 -3450.00000000 -170.00000000 194 148 84 0.000000 0.000000 0.000000 0.000000 -60.708740 0.000000 43.000000 0.806995 0.325017 -0.493075
9450.00000000 -3520.00000000 -50.00000000 194 148 84 0.000000 0.000000 0.000000 0.000000 -60.708740 0.000000 43.000000 0.906277 0.277611 -0.318739
9450.00000000 -3510.00000000 -70.00000000 194 148 84 0.000000 0.000000 0.000000 0.000000 -60.708740 0.000000 43.000000 0.850796 0.523246 -0.048577
9570.00000000 -3430.00000000 -270.00000000 194 148 84 0.000000 0.000000 0.000000 0.000000 -60.708740 0.000000 43.000000 0.803064 0.515917 -0.298191
9530.00000000 -3430.00000000 -260.00000000 194 148 84 0.000000 0.000000 0.000000 0.000000 -60.708740 0.000000 43.000000 0.795894 0.603636 0.046651
9540.00000000 -3460.00000000 -270.00000000 194 148 84 0.000000 0.000000 0.000000 0.000000 -60.708740 0.000000 43.000000 0.942816 0.321324 0.088596
9560.00000000 -3430.00000000 -280.00000000 194 148 84 0.000000 0.000000 0.000000 0.000000 -60.708740 0.000000 43.000000 0.703054 0.577331 -0.415215
9590.00000000 -3440.00000000 -340.00000000 194 148 84 0.000000 0.000000 0.000000 0.000000 -60.708740 0.000000 43.000000 0.838185 0.497435 0.223617
9590.00000000 -3440.00000000 -340.00000000 194 148 84 0.000000 0.000000 0.000000 0.000000 -60.708740 0.000000 43.000000 0.838185 0.497435 0.223617
9590.00000000 -3460.00000000 -280.00000000 194 148 84 0.000000 0.000000 0.000000 0.000000 -60.708740 0.000000 43.000000 0.926322 0.355433 0.124882
9570.00000000 -3450.00000000 -280.00000000 194 148 84 0.000000 0.000000 0.000000 0.000000 -60.708740 0.000000 43.000000 0.589819 0.689507 -0.420350
9500.00000000 -3420.00000000 -210.00000000 194 148 84 0.000000 0.000000 0.000000 0.000000 -60.708740 0.000000 43.000000 0.957803 -0.135327 -0.253575
9480.00000000 -3430.00000000 -240.00000000 194 148 84 0.000000 0.000000 0.000000 0.000000 -60.708740 0.000000 43.000000 0.961272 -0.048751 -0.271256
9490.00000000 -3430.00000000 -240.00000000 194 148 84 0.000000 0.000000 0.000000 0.000000 -60.708740 0.000000 43.000000 0.995212 0.016244 -0.096381
9480.00000000 -3420.00000000 -240.00000000 194 148 84 0.000000 0.000000 0.000000 0.000000 -60.708740 0.000000 43.000000 0.812590 0.552319 -0.186124
9480.00000000 -3460.00000000 -220.00000000 194 148 84 0.000000 0.000000 0.000000 0.000000 -60.708740 0.000000 43.000000 0.834707 0.536493 0.124256
9590.00000000 -3620.00000000 -40.00000000 194 148 84 0.000000 0.000000 0.000000 0.000000 -60.708740 0.000000 43.000000 0.601937 0.739981 -0.300166
9580.00000000 -3650.00000000 -70.00000000 194 148 84 0.000000 0.000000 0.000000 0.000000 -60.708740 0.000000 43.000000 0.446687 0.883319 0.142193
9590.00000000 -3630.00000000 -150.00000000 194 148 84 0.000000 0.000000 0.000000 0.000000 -60.708740 0.000000 43.000000 0.316786 0.936644 0.149479
9570.00000000 -3680.00000000 -80.00000000 194 148 84 0.000000 0.000000 0.000000 0.000000 -60.708740 0.000000 43.000000 0.375162 0.923785 -0.076646
9560.00000000 -3730.00000000 -20.00000000 194 148 84 0.000000 0.000000 0.000000 0.000000 -60.708740 0.000000 43.000000 0.635086 0.700056 -0.326476
9560.00000000 -3730.00000000 -20.00000000 194 148 84 0.000000 0.000000 0.000000 0.000000 -60.708740 0.000000 43.000000 0.635086 0.700056 -0.326476
9560.00000000 -3730.00000000 -30.00000000 194 148 84 0.000000 0.000000 0.000000 0.000000 -60.708740 0.000000 43.000000 0.468844 0.883232 -0.009297
9570.00000000 -3720.00000000 -100.00000000 194 148 84 0.000000 0.000000 0.000000 0.000000 -60.708740 0.000000 43.000000 0.416886 0.887895 0.194547
9570.00000000 -3720.00000000 -80.00000000 194 148 84 0.000000 0.000000 0.000000 0.000000 -60.708740 0.000000 43.000000 0.574822 0.790573 0.211128
9560.00000000 -3710.00000000 -90.00000000 194 148 84 0.000000 0.000000 0.000000 0.000000 -60.708740 0.000000 43.000000 0.467737 0.806167 0.362376
9590.00000000 -3710.00000000 -70.00000000 194 148 84 0.000000 0.000000 0.000000 0.000000 -60.708740 0.000000 43.000000 0.255199 0.966882 -0.003594
9540.00000000 -3670.00000000 -20.00000000 194 148 84 0.000000 0.000000 0.000000 0.000000 -60.708740 0.000000 43.000000 0.537252 0.790822 -0.293191
9540.00000000 -3690.00000000 -40.00000000 194 148 84 0.000000 0.000000 0.000000 0.000000 -60.708740 0.000000 43.000000 0.363475 0.930338 0.048551
9550.00000000 -3720.00000000 -20.00000000 194 148 84 0.000000 0.000000 0.000000 0.000000 -60.708740 0.000000 43.000000 0.634748 0.680673 -0.365759
9510.00000000 -3730.00000000 -30.00000000 194 148 84 0.000000 0.000000 0.000000 0.000000 -60.708740 0.000000 43.000000 0.336885 0.923262 0.184652
9590.00000000 -3660.00000000 -180.00000000 194 148 84 0.000000 0.000000 0.000000 0.000000 -60.708740 0.000000 43.000000 0.511395 0.823486 -0.245655
9560.00000000 -3710.00000000 -120.00000000 194 148 84 0.000000 0.000000 0.000000 0.000000 -60.708740 0.000000 43.000000 0.393496 0.918156 0.046372
9580.00000000 -3730.00000000 -110.00000000 194 148 84 0.000000 0.000000 0.000000 0.000000 -60.708740 0.000000 43.000000 0.323311 0.908490 0.264793
9570.00000000 -3720.00000000 -120.00000000 194 148 84 0.000000 0.000000 0.000000 0.000000 -60.708740 0.000000 43.000000 0.574394 0.796839 0.187402
9590.00000000 -3710.00000000 -170.00000000 194 148 84 0.000000 0.000000 0.000000 0.000000 -60.708740 0.000000 43.000000 0.693838 0.702947 0.156379
9590.00000000 -3670.00000000 -210.00000000 194 148 84 0.000000 0.000000 0.000000 0.000000 -60.708740 0.000000 43.000000 0.314651 0.948968 -0.021311
9690.00000000 -3410.00000000 -430.00000000 194 148 84 0.000000 0.000000 0.000000 0.000000 -60.708740 0.000000 43.000000 -0.297932 0.925156 -0.235209
9730.00000000 -3440.00000000 -460.00000000 194 148 84 0.000000 0.000000 0.000000 0.000000 -60.708740 0.000000 43.000000 -0.481948 0.748417 0.455630
9680.00000000 -3420.00000000 -450.00000000 194 148 84 0.000000 0.000000 0.000000 0.000000 -60.708740 0.000000 43.000000 -0.227081 0.973713 -0.017834
9710.00000000 -3410.00000000 -460.00000000 194 148 84 0.000000 0.000000 0.000000 0.000000 -60.708740 0.000000 43.000000 0.732846 -0.678772 0.046959
9630.00000000 -3410.00000000 -380.00000000 194 148 84 0.000000 0.000000 0.000000 0.000000 -60.708740 0.000000 43.000000 0.495835 0.801945 -0.333214
9660.00000000 -3440.00000000 -460.00000000 194 148 84 0.000000 0.000000 0.000000 0.000000 -60.708740 0.000000 43.000000 0.007677 0.992533 0.121736
9750.00000000 -3430.00000000 -540.00000000 194 148 84 0.000000 0.000000 0.000000 0.000000 -60.708740 0.000000 43.000000 0.824541 -0.551164 0.127870
9750.00000000 -3590.00000000 -360.00000000 194 148 84 0.000000 0.000000 0.000000 0.000000 -60.708740 0.000000 43.000000 -0.363654 0.929631 -0.059507
9760.00000000 -3590.00000000 -360.00000000 194 148 84 0.000000 0.000000 0.000000 0.000000 -60.708740 0.000000 43.000000 -0.363117 0.860664 0.356936
9690.00000000 -3620.00000000 -360.00000000 194 148 84 0.000000 0.000000 0.000000 0.000000 -60.708740 0.000000 43.000000 0.262695 -0.894943 -0.360649
9760.00000000 -3700.00000000 -360.00000000 194 148 84 0.000000 0.000000 0.000000 0.000000 -60.708740 0.000000 43.000000 -0.287818 0.928673 0.233940
9740.00000000 -3660.00000000 -490.00000000 194 148 84 0.000000 0.000000 0.000000 0.000000 -60.708740 0.000000 43.000000 -0.554341 0.829385 0.069470
9400.00000000 -3380.00000000 -20.00000000 194 148 84 0.000000 0.000000 0.000000 0.000000 -60.708740 0.000000 43.000000 0.977871 0.207427 0.027262
9400.00000000 -3390.00000000 -60.00000000 194 148 84 0.000000 0.000000 0.000000 0.000000 -60.708740 0.000000 43.000000 0.915232 0.265432 -0.303143
9390.00000000 -3460.00000000 -50.00000000 194 148 84 0.000000 0.000000 0.000000 0.000000 -60.708740 0.000000 43.000000 0.941381 -0.128309 -0.311993
9420.00000000 -3460.00000000 -70.00000000 194 148 84 0.000000 0.000000 0.000000 0.000000 -60.708740 0.000000 43.000000 0.919722 0.344364 -0.188479
9370.00000000 -3420.00000000 -40.00000000 194 148 84 0.000000 0.000000 0.000000 0.000000 -60.708740 0.000000 43.000000 0.980816 -0.190484 0.041410
9380.00000000 -3440.00000000 -60.00000000 194 148 84 0.000000 0.000000 0.000000 0.000000 -60.708740 0.000000 43.000000 0.941947 0.314876 -0.116571
9370.00000000 -3430.00000000 -80.00000000 194 148 84 0.000000 0.000000 0.000000 0.000000 -60.708740 0.000000 43.000000 0.984572 0.019576 -0.173883
9380.00000000 -3460.00000000 -60.00000000 194 148 84 0.000000 0.000000 0.000000 0.000000 -60.708740 0.000000 43.000000 0.904967 -0.133704 -0.403928
9380.00000000 -3460.00000000 -60.00000000 194 148 84 0.000000 0.000000 0.000000 0.000000 -60.708740 0.000000 43.000000 0.904967 -0.133704 -0.403928
9350.00000000 -3450.00000000 -50.00000000 194 148 84 0.000000 0.000000 0.000000 0.000000 -60.708740 0.000000 43.000000 0.932422 0.333695 0.138696
9400.00000000 -3450.00000000 -120.00000000 194 148 84 0.000000 0.000000 0.000000 0.000000 -60.708740 0.000000 43.000000 0.999730 0.013115 0.019167
9400.00000000 -3520.00000000 -30.00000000 194 148 84 0.000000 0.000000 0.000000 0.000000 -60.708740 0.000000 43.000000 0.705836 0.693797 -0.142973
9390.00000000 -3500.00000000 -20.00000000 194 148 84 0.000000 0.000000 0.000000 0.000000 -60.708740 0.000000 43.000000 0.830067 0.207896 -0.517464
9390.00000000 -3490.00000000 -50.00000000 194 148 84 0.000000 0.000000 0.000000 0.000000 -60.708740 0.000000 43.000000 0.796645 0.603434 -0.035002
9390.00000000 -3510.00000000 -40.00000000 194 148 84 0.000000 0.000000 0.000000 0.000000 -60.708740 0.000000 43.000000 0.797509 0.540551 -0.267925
9400.00000000 -3520.00000000 -30.00000000 194 148 84 0.000000 0.000000 0.000000 0.000000 -60.708740 0.000000 43.000000 0.705836 0.693797 -0.142973
9390.00000000 -3490.00000000 -50.00000000 194 148 84 0.000000 0.000000 0.000000 0.000000 -60.708740 0.000000 43.000000 0.796645 0.603434 -0.035002
9390.00000000 -3490.00000000 -50.00000000 194 148 84 0.000000 0.000000 0.000000 0.000000 -60.708740 0.000000 43.000000 0.796645 0.603434 -0.035002
9400.00000000 -3530.00000000 -40.00000000 194 148 84 0.000000 0.000000 0.000000 0.000000 -60.708740 0.000000 43.000000 0.903522 0.422373 0.072446
9600.00000000 -3220.00000000 -840.00000000 194 148 84 0.000000 0.000000 0.000000 0.000000 -60.708740 0.000000 43.000000 0.070865 0.981300 -0.178964
9640.00000000 -3210.00000000 -840.00000000 194 148 84 0.000000 0.000000 0.000000 0.000000 -60.708740 0.000000 43.000000 0.614783 0.776331 0.139111
9700.00000000 -3100.00000000 -930.00000000 194 148 84 0.000000 0.000000 0.000000 0.000000 -60.708740 0.000000 43.000000 0.628757 0.766157 -0.132920
9740.00000000 -3110.00000000 -970.00000000 194 148 84 0.000000 0.000000 0.000000 0.000000 -60.708740 0.000000 43.000000 0.805463 0.577865 -0.131534
9750.00000000 -3140.00000000 -960.00000000 194 148 84 0.000000 0.000000 0.000000 0.000000 -60.708740 0.000000 43.000000 0.574450 0.800612 0.170375
9720.00000000 -3080.00000000 -980.00000000 194 148 84 0.000000 0.000000 0.000000 0.000000 -60.708740 0.000000 43.000000 0.856998 0.515275 0.006727
9690.00000000 -3150.00000000 -950.00000000 194 148 84 0.000000 0.000000 0.000000 0.000000 -60.708740 0.000000 43.000000 0.678216 0.687746 0.258898
9690.00000000 -3150.00000000 -950.00000000 194 148 84 0.000000 0.000000 0.000000 0.000000 -60.708740 0.000000 43.000000 0.678216 0.687746 0.258898
9740.00000000 -3200.00000000 -920.00000000 194 148 84 0.000000 0.000000 0.000000 0.000000 -60.708740 0.000000 43.000000 0.575005 0.785788 -0.227832
9740.00000000 -3200.00000000 -920.00000000 194 148 84 0.000000 0.000000 0.000000 0.000000 -60.708740 0.000000 43.000000 0.575005 0.785788 -0.227832
9690.00000000 -3190.00000000 -920.00000000 194 148 84 0.000000 0.000000 0.000000 0.000000 -60.708740 0.000000 43.000000 0.911815 0.406893 -0.055058
9710.00000000 -3230.00000000 -910.00000000 194 148 84 0.000000 0.000000 0.000000 0.000000 -60.708740 0.000000 43.000000 0.850419 0.288618 -0.439872
9710.00000000 -3230.00000000 -910.00000000 194 148 84 0.000000 0.000000 0.000000 0.000000 -60.708740 0.000000 43.000000 0.850419 0.288618 -0.439872
9710.00000000 -3170.00000000 -970.00000000 194 148 84 0.000000 0.000000 0.000000 0.000000 -60.708740 0.000000 43.000000 0.458108 0.840124 -0.290394
9720.00000000 -3200.00000000 -960.00000000 194 148 84 0.000000 0.000000 0.000000 0.000000 -60.708740 0.000000 43.000000 0.966505 0.239410 -0.092470
9610.00000000 -3150.00000000 -940.00000000 194 148 84 0.000000 0.000000 0.000000 0.000000 -60.708740 0.000000 43.000000 0.085892 0.972197 0.217842
9660.00000000 -3130.00000000 -990.00000000 194 148 84 0.000000 0.000000 0.000000 0.000000 -60.708740 0.000000 43.000000 0.676105 0.718647 0.162569
9660.00000000 -3190.00000000 -870.00000000 194 148 84 0.000000 0.000000 0.000000 0.000000 -60.708740 0.000000 43.000000 0.568989 0.820305 0.057887
9640.00000000 -3160.00000000 -930.00000000 194 148 84 0.000000 0.000000 0.000000 0.000000 -60.708740 0.000000 43.000000 0.329840 0.900774 -0.282509
9670.00000000 -3230.00000000 -870.00000000 194 148 84 0.000000 0.000000 0.000000 0.000000 -60.708740 0.000000 43.000000 0.466810 0.884130 -0.020063
9670.00000000 -3200.00000000 -880.00000000 194 148 84 0.000000 0.000000 0.000000 0.000000 -60.708740 0.000000 43.000000 0.751005 0.638278 0.169090
9620.00000000 -3210.00000000 -890.00000000 194 148 84 0.000000 0.000000 0.000000 0.000000 -60.708740 0.000000 43.000000 0.608347 0.788383 -0.091470
9600.00000000 -3230.00000000 -890.00000000 194 148 84 0.000000 0.000000 0.000000 0.000000 -60.708740 0.000000 43.000000 0.724601 0.683779 0.086019
9760.00000000 -3290.00000000 -750.00000000 194 148 84 0.000000 0.000000 0.000000 0.000000 -60.708740 0.000000 43.000000 0.889315 0.392127 -0.235276
9760.00000000 -3300.00000000 -770.00000000 194 148 84 0.000000 0.000000 0.000000 0.000000 -60.708740 0.000000 43.000000 0.871833 0.448498 -0.196866
9730.00000000 -3350.00000000 -770.00000000 194 148 84 0.000000 0.000000 0.000000 0.000000 -60.708740 0.000000 43.000000 0.981810 -0.026851 -0.187957
9690.00000000 -3360.00000000 -830.00000000 194 148 84 0.000000 0.000000 0.000000 0.000000 -60.708740 0.000000 43.000000 0.963529 -0.136532 -0.230155
9720.00000000 -3330.00000000 -840.00000000 194 148 84 0.000000 0.000000 0.000000 0.000000 -60.708740 0.000000 43.000000 0.839915 0.316332 -0.440995
9700.00000000 -3380.00000000 -830.00000000 194 148 84 0.000000 0.000000 0.000000 0.000000 -60.708740 0.000000 43.000000 0.732446 -0.497666 -0.464599
9620.00000000 -3260.00000000 -850.00000000 194 148 84 0.000000 0.000000 0.000000 0.000000 -60.708740 0.000000 43.000000 0.657420 0.660699 -0.362319
9670.00000000 -3370.00000000 -760.00000000 194 148 84 0.000000 0.000000 0.000000 0.000000 -60.708740 0.000000 43.000000 0.932092 -0.016622 -0.361841
9740.00000000 -3260.00000000 -870.00000000 194 148 84 0.000000 0.000000 0.000000 0.000000 -60.708740 0.000000 43.000000 0.793903 0.465392 -0.391315
9760.00000000 -3390.00000000 -930.00000000 194 148 84 0.000000 0.000000 0.000000 0.000000 -60.708740 0.000000 43.000000 0.944777 -0.248915 -0.213159
9680.00000000 -3340.00000000 -870.00000000 194 148 84 0.000000 0.000000 0.000000 0.000000 -60.708740 0.000000 43.000000 0.907842 0.115746 -0.403021
9620.00000000 -3240.00000000 -890.00000000 194 148 84 0.000000 0.000000 0.000000 0.000000 -60.708740 0.000000 43.000000 0.581197 0.754116 -0.305809
9550.00000000 -3090.00000000 -830.00000000 194 148 84 0.000000 0.000000 0.000000 0.000000 -60.708740 0.000000 43.000000 -0.180194 0.917995 0.353293
9550.00000000 -3090.00000000 -850.00000000 194 148 84 0.000000 0.000000 0.000000 0.000000 -60.708740 0.000000 43.000000 -0.084153 0.995632 0.040437
9570.00000000 -3110.00000000 -920.00000000 194 148 84 0.000000 0.000000 0.000000 0.000000 -60.708740 0.000000 43.000000 -0.156604 0.975958 -0.151593
9520.00000000 -3110.00000000 -900.00000000 194 148 84 0.000000 0.000000 0.000000 0.000000 -60.708740 0.000000 43.000000 0.037689 0.999277 -0.005093
9520.00000000 -3140.00000000 -910.00000000 194 148 84 0.000000 0.000000 0.000000 0.000000 -60.708740 0.000000 43.000000 -0.206727 0.873014 0.441712
9510.00000000 -3140.00000000 -960.00000000 194 148 84 0.000000 0.000000 0.000000 0.000000 -60.708740 0.000000 43.000000 -0.213822 0.942196 -0.257966
9590.00000000 -3190.00000000 -910.00000000 194 148 84 0.000000 0.000000 0.000000 0.000000 -60.708740 0.000000 43.000000 0.340404 0.914925 0.216882
9590.00000000 -3220.00000000 -900.00000000 194 148 84 0.000000 0.000000 0.000000 0.000000 -60.708740 0.000000 43.000000 0.666766 0.745045 -0.018172
9530.00000000 -3160.00000000 -870.00000000 194 148 84 0.000000 0.000000 0.000000 0.000000 -60.708740 0.000000 43.000000 -0.254142 0.920366 0.297217
9520.00000000 -3170.00000000 -930.00000000 194 148 84 0.000000 0.000000 0.000000 0.000000 -60.708740 0.000000 43.000000 -0.062957 0.952059 0.299365
9530.00000000 -3230.00000000 -970.00000000 194 148 84 0.000000 0.000000 0.000000 0.000000 -60.708740 0.000000 43.000000 0.050350 0.888618 0.455876
9500.00000000 -3150.00000000 -930.00000000 194 148 84 0.000000 0.000000 0.000000 0.000000 -60.708740 0.000000 43.000000 0.052631 0.948644 0.311936
9550.00000000 -3270.00000000 -930.00000000 194 148 84 0.000000 0.000000 0.000000 0.000000 -60.708740 0.000000 43.000000 -0.263117 0.964763 0.001201
9520.00000000 -3240.00000000 -970.00000000 194 148 84 0.000000 0.000000 0.000000 0.000000 -60.708740 0.000000 43.000000 -0.116343 0.980956 0.155532
9700.00000000 -3430.00000000 -830.00000000 194 148 84 0.000000 0.000000 0.000000 0.000000 -60.708740 0.000000 43.000000 -0.637225 0.603598 0.479180
9720.00000000 -3430.00000000 -840.00000000 194 148 84 0.000000 0.000000 0.000000 0.000000 -60.708740 0.000000 43.000000 0.645867 -0.554804 -0.524450
9680.00000000 -3420.00000000 -890.00000000 194 148 84 0.000000 0.000000 0.000000 0.000000 -60.708740 0.000000 43.000000 -0.631806 0.751711 0.189081
10240.00000000 -3770.00000000 -40.00000000 194 148 84 0.000000 0.000000 0.000000 0.000000 -60.708740 0.000000 43.000000 -0.752905 0.431403 0.497016
10250.00000000 -3770.00000000 -20.00000000 194 148 84 0.000000 0.000000 0.000000 0.000000 -60.708740 0.000000 43.000000 0.930833 -0.309345 -0.194565
10240.00000000 -3760.00000000 -80.00000000 194 148 84 0.000000 0.000000 0.000000 0.000000 -60.708740 0.000000 43.000000 0.745071 -0.666198 0.032394
10250.00000000 -3740.00000000 -100.00000000 194 148 84 0.000000 0.000000 0.000000 0.000000 -60.708740 0.000000 43.000000 0.505464 -0.659958 -0.555843
10220.00000000 -3770.00000000 -90.00000000 194 148 84 0.000000 0.000000 0.000000 0.000000 -60.708740 0.000000 43.000000 0.835545 -0.547233 0.048985
10220.00000000 -3770.00000000 -80.00000000 194 148 84 0.000000 0.000000 0.000000 0.000000 -60.708740 0.000000 43.000000 0.801358 -0.464113 -0.377393
10190.00000000 -3740.00000000 -120.00000000 194 148 84 0.000000 0.000000 0.000000 0.000000 -60.708740 0.000000 43.000000 0.627822 -0.654467 -0.421323
10210.00000000 -3760.00000000 -130.00000000 194 148 84 0.000000 0.000000 0.000000 0.000000 -60.708740 0.000000 43.000000 -0.524965 0.672558 0.521610
10220.00000000 -3750.00000000 -130.00000000 194 148 84 0.000000 0.000000 0.000000 0.000000 -60.708740 0.000000 43.000000 0.822365 -0.549725 -0.146692
10190.00000000 -3740.00000000 -180.00000000 194 148 84 0.000000 0.000000 0.000000 0.000000 -60.708740 0.000000 43.000000 -0.587933 0.693926 0.415693
10220.00000000 -3740.00000000 -180.00000000 194 148 84 0.000000 0.000000 0.000000 0.000000 -60.708740 0.000000 43.000000 0.770140 -0.629314 -0.104152
10190.00000000 -3750.00000000 -240.00000000 194 148 84 0.000000 0.000000 0.000000 0.000000 -60.708740 0.000000 43.000000 -0.506922 0.823167 0.255786
10130.00000000 -3740.00000000 -270.00000000 194 148 84 0.000000 0.000000 0.000000 0.000000 -60.708740 0.000000 43.000000 0.836312 -0.349902 -0.422079
10180.00000000 -3740.00000000 -290.00000000 194 148 84 0.000000 0.000000 0.000000 0.000000 -60.708740 0.000000 43.000000 0.754142 -0.653205 0.067772
9550.00000000 -3930.00000000 -60.00000000 194 148 84 0.000000 0.000000 0.000000 0.000000 -60.708740 0.000000 43.000000 0.214541 0.946987 -0.239138
10120.00000000 -3630.00000000 660.00000000 194 148 84 0.000000 0.000000 0.000000 0.000000 -60.708740 0.000000 43.000000 -0.549994 0.827179 -0.115251
10120.00000000 -3630.00000000 650.00000000 194 148 84 0.000000 0.000000 0.000000 0.000000 -60.708740 0.000000 43.000000 -0.614446 0.759932 -0.212038
10120.00000000 -3600.00000000 510.00000000 194 148 84 0.000000 0.000000 0.000000 0.000000 -60.708740 0.000000 43.000000 -0.472795 0.792295 0.385659
10100.00000000 -3640.00000000 410.00000000 194 148 84 0.000000 0.000000 0.000000 0.000000 -60.708740 0.000000 43.000000 -0.594423 0.804057 -0.012413
10110.00000000 -3640.00000000 400.00000000 194 148 84 0.000000 0.000000 0.000000 0.000000 -60.708740 0.000000 43.000000 0.776291 -0.627059 -0.064571
10120.00000000 -3660.00000000 350.00000000 194 148 84 0.000000 0.000000 0.000000 0.000000 -60.708740 0.000000 43.000000 -0.644508 0.763494 0.041079
10100.00000000 -3620.00000000 200.00000000 194 148 84 0.000000 0.000000 0.000000 0.000000 -60.708740 0.000000 43.000000 0.816259 -0.577554 -0.012347
10100.00000000 -3620.00000000 190.00000000 194 148 84 0.000000 0.000000 0.000000 0.000000 -60.708740 0.000000 43.000000 0.871684 -0.489390 -0.025757
10100.00000000 -3590.00000000 220.00000000 194 148 84 0.000000 0.000000 0.000000 0.000000 -60.708740 0.000000 43.000000 0.743828 -0.649902 0.156037
10100.00000000 -3690.00000000 290.00000000 194 148 84 0.000000 0.000000 0.000000 0.000000 -60.708740 0.000000 43.000000 -0.719745 0.564925 0.403518
10120.00000000 -3660.00000000 220.00000000 194 148 84 0.000000 0.000000 0.000000 0.000000 -60.708740 0.000000 43.000000 0.861652 -0.500633 -0.083204
10090.00000000 -3630.00000000 630.00000000 194 148 84 0.000000 0.000000 0.000000 0.000000 -60.708740 0.000000 43.000000 -0.680625 0.614384 0.399101
10040.00000000 -3620.00000000 490.00000000 194 148 84 0.000000 0.000000 0.000000 0.000000 -60.708740 0.000000 43.000000 -0.357551 0.922398 -0.146081
10090.00000000 -3660.00000000 490.00000000 194 148 84 0.000000 0.000000 0.000000 0.000000 -60.708740 0.000000 43.000000 0.730471 -0.674394 -0.107726
9960.00000000 -3600.00000000 630.00000000 194 148 84 0.000000 0.000000 0.000000 0.000000 -60.708740 0.000000 43.000000 0.303376 0.952576 0.023721
9960.00000000 -3690.00000000 610.00000000 194 148 84 0.000000 0.000000 0.000000 0.000000 -60.708740 0.000000 43.000000 -0.066064 0.912758 0.403123
10090.00000000 -3650.00000000 400.00000000 194 148 84 0.000000 0.000000 0.000000 0.000000 -60.708740 0.000000 43.000000 -0.549733 0.828226 -0.108786
9930.00000000 -3600.00000000 650.00000000 194 148 84 0.000000 0.000000 0.000000 0.000000 -60.708740 0.000000 43.000000 0.110181 0.993810 -0.014182
9860.00000000 -3710.00000000 560.00000000 194 148 84 0.000000 0.000000 0.000000 0.000000 -60.708740 0.000000 43.000000 0.379343 0.912399 0.153712
9840.00000000 -3670.00000000 580.00000000 194 148 84 0.000000 0.000000 0.000000 0.000000 -60.708740 0.000000 43.000000 0.389905 0.866965 0.310395
9820.00000000 -3670.00000000 520.00000000 194 148 84 0.000000 0.000000 0.000000 0.000000 -60.708740 0.000000 43.000000 0.460115 0.885893 0.059060
9830.00000000 -3730.00000000 490.00000000 194 148 84 0.000000 0.000000 0.000000 0.000000 -60.708740 0.000000 43.000000 0.228931 0.905518 -0.357250
9800.00000000 -3720.00000000 490.00000000 194 148 84 0.000000 0.000000 0.000000 0.000000 -60.708740 0.000000 43.000000 0.439966 0.844175 -0.306266
9800.00000000 -3710.00000000 520.00000000 194 148 84 0.000000 0.000000 0.000000 0.000000 -60.708740 0.000000 43.000000 0.054561 0.987910 -0.145110
9770.00000000 -3710.00000000 500.00000000 194 148 84 0.000000 0.000000 0.000000 0.000000 -60.708740 0.000000 43.000000 0.353569 0.870912 -0.341324
9800.00000000 -3660.00000000 440.00000000 194 148 84 0.000000 0.000000 0.000000 0.000000 -60.708740 0.000000 43.000000 0.353846 0.916590 0.186160
10090.00000000 -3680.00000000 250.00000000 194 148 84 0.000000 0.000000 0.000000 0.000000 -60.708740 0.000000 43.000000 0.806184 -0.477325 -0.349612
9790.00000000 -3690.00000000 70.00000000 194 148 84 0.000000 0.000000 0.000000 0.000000 -60.708740 0.000000 43.000000 0.008913 0.930792 0.365441
9780.00000000 -3680.00000000 -10.00000000 194 148 84 0.000000 0.000000 0.000000 0.000000 -60.708740 0.000000 43.000000 0.197364 0.979731 0.034273
9780.00000000 -3730.00000000 20.00000000 194 148 84 0.000000 0.000000 0.000000 0.000000 -60.708740 0.000000 43.000000 0.216478 0.926752 0.307031
9730.00000000 -3710.00000000 420.00000000 194 148 84 0.000000 0.000000 0.000000 0.000000 -60.708740 0.000000 43.000000 0.562129 0.741358 -0.366606
9750.00000000 -3720.00000000 460.00000000 194 148 84 0.000000 0.000000 0.000000 0.000000 -60.708740 0.000000 43.000000 0.429143 0.902404 0.038770
9690.00000000 -3700.00000000 180.00000000 194 148 84 0.000000 0.000000 0.000000 0.000000 -60.708740 0.000000 43.000000 0.458108 0.840124 -0.290394
9640.00000000 -3720.00000000 280.00000000 194 148 84 0.000000 0.000000 0.000000 0.000000 -60.708740 0.000000 43.000000 0.518584 0.854220 -0.037140
9660.00000000 -3730.00000000 300.00000000 194 148 84 0.000000 0.000000 0.000000 0.000000 -60.708740 0.000000 43.000000 0.279674 0.960094 -0.001211
9640.00000000 -3720.00000000 290.00000000 194 148 84 0.000000 0.000000 0.000000 0.000000 -60.708740 0.000000 43.000000 0.634734 0.740783 -0.219895
9650.00000000 -3710.00000000 220.00000000 194 148 84 0.000000 0.000000 0.000000 0.000000 -60.708740 0.000000 43.000000 0.406974 0.913431 -0.003876
9720.00000000 -3590.00000000 60.00000000 194 148 84 0.000000 0.000000 0.000000 0.000000 -60.708740 0.000000 43.000000 0.588380 0.808153 0.026428
9730.00000000 -3720.00000000 140.00000000 194 148 84 0.000000 0.000000 0.000000 0.000000 -60.708740 0.000000 43.000000 0.207300 0.889480 0.407249
9750.00000000 -3710.00000000 20.00000000 194 148 84 0.000000 0.000000 0.000000 0.000000 -60.708740 0.000000 43.000000 0.039399 0.997747 0.054306
9710.00000000 -3730.00000000 20.00000000 194 148 84 0.000000 0.000000 0.000000 0.000000 -60.708740 0.000000 43.000000 0.412197 0.868505 0.275305
9610.00000000 -3720.00000000 50.00000000 194 148 84 0.000000 0.000000 0.000000 0.000000 -60.708740 0.000000 43.000000 0.100108 0.988121 0.116596
9450.00000000 -3690.00000000 180.00000000 194 148 84 0.000000 0.000000 0.000000 0.000000 -60.708740 0.000000 43.000000 0.793978 0.478319 -0.375247
9510.00000000 -3620.00000000 50.00000000 194 148 84 0.000000 0.000000 0.000000 0.000000 -60.708740 0.000000 43.000000 0.927615 0.372343 -0.029839
9520.00000000 -3730.00000000 90.00000000 194 148 84 0.000000 0.000000 0.000000 0.000000 -60.708740 0.000000 43.000000 0.408242 0.869601 -0.277726
9510.00000000 -3720.00000000 100.00000000 194 148 84 0.000000 0.000000 0.000000 0.000000 -60.708740 0.000000 43.000000 0.684432 0.628627 -0.369298
9470.00000000 -3720.00000000 130.00000000 194 148 84 0.000000 0.000000 0.000000 0.000000 -60.708740 0.000000 43.000000 0.457179 0.888735 -0.033715
9490.00000000 -3730.00000000 0.00000000 194 148 84 0.000000 0.000000 0.000000 0.000000 -60.708740 0.000000 43.000000 0.786775 0.616887 -0.020888
9260.00000000 -3550.00000000 250.00000000 194 148 84 0.000000 0.000000 0.000000 0.000000 -60.708740 0.000000 43.000000 0.967254 0.127169 -0.219655
9330.00000000 -3510.00000000 150.00000000 194 148 84 0.000000 0.000000 0.000000 0.000000 -60.708740 0.000000 43.000000 0.957484 0.227719 0.177114
9330.00000000 -3540.00000000 210.00000000 194 148 84 0.000000 0.000000 0.000000 0.000000 -60.708740 0.000000 43.000000 0.844828 0.533063 -0.045930
9260.00000000 -3520.00000000 200.00000000 194 148 84 0.000000 0.000000 0.000000 0.000000 -60.708740 0.000000 43.000000 0.900614 -0.131487 -0.414254
9270.00000000 -3520.00000000 160.00000000 194 148 84 0.000000 0.000000 0.000000 0.000000 -60.708740 0.000000 43.000000 0.980609 -0.098670 -0.169323
9260.00000000 -3560.00000000 170.00000000 194 148 84 0.000000 0.000000 0.000000 0.000000 -60.708740 0.000000 43.000000 0.999794 -0.019053 0.007020
9260.00000000 -3550.00000000 160.00000000 194 148 84 0.000000 0.000000 0.000000 0.000000 -60.708740 0.000000 43.000000 0.997199 0.048408 0.057014
9370.00000000 -3480.00000000 70.00000000 194 148 84 0.000000 0.000000 0.000000 0.000000 -60.708740 0.000000 43.000000 0.978226 0.195645 0.069266
9410.00000000 -3470.00000000 -10.00000000 194 148 84 0.000000 0.000000 0.000000 0.000000 -60.708740 0.000000 43.000000 0.815057 0.573558 -0.081937
9340.00000000 -3440.00000000 -10.00000000 194 148 84 0.000000 0.000000 0.000000 0.000000 -60.708740 0.000000 43.000000 0.869274 0.009376 -0.494241
9330.00000000 -3460.00000000 30.00000000 194 148 84 0.000000 0.000000 0.000000 0.000000 -60.708740 0.000000 43.000000 0.990684 -0.135144 0.016753
9340.00000000 -3470.00000000 10.00000000 194 148 84 0.000000 0.000000 0.000000 0.000000 -60.708740 0.000000 43.000000 0.920295 -0.082435 -0.382443
9330.00000000 -3480.00000000 -10.00000000 194 148 84 0.000000 0.000000 0.000000 0.000000 -60.708740 0.000000 43.000000 0.993528 -0.045821 -0.103935
9310.00000000 -3490.00000000 70.00000000 194 148 84 0.000000 0.000000 0.000000 0.000000 -60.708740 0.000000 43.000000 0.940844 0.332753 -0.063941
9270.00000000 -3490.00000000 110.00000000 194 148 84 0.000000 0.000000 0.000000 0.000000 -60.708740 0.000000 43.000000 0.956021 0.166670 -0.241339
9330.00000000 -3510.00000000 60.00000000 194 148 84 0.000000 0.000000 0.000000 0.000000 -60.708740 0.000000 43.000000 0.870117 0.397724 -0.291055
9280.00000000 -3510.00000000 60.00000000 194 148 84 0.000000 0.000000 0.000000 0.000000 -60.708740 0.000000 43.000000 0.972879 0.209100 -0.098916
9340.00000000 -3500.00000000 10.00000000 194 148 84 0.000000 0.000000 0.000000 0.000000 -60.708740 0.000000 43.000000 0.999558 0.029310 0.005053
9300.00000000 -3590.00000000 210.00000000 194 148 84 0.000000 0.000000 0.000000 0.000000 -60.708740 0.000000 43.000000 0.709771 0.669213 -0.219951
9340.00000000 -3700.00000000 170.00000000 194 148 84 0.000000 0.000000 0.000000 0.000000 -60.708740 0.000000 43.000000 0.634772 0.771099 0.049703
9320.00000000 -3730.00000000 180.00000000 194 148 84 0.000000 0.000000 0.000000 0.000000 -60.708740 0.000000 43.000000 0.602461 0.592335 -0.534958
9240.00000000 -3510.00000000 160.00000000 194 148 84 0.000000 0.000000 0.000000 0.000000 -60.708740 0.000000 43.000000 0.978319 -0.140114 -0.152514
9230.00000000 -3540.00000000 170.00000000 194 148 84 0.000000 0.000000 0.000000 0.000000 -60.708740 0.000000 43.000000 0.933766 0.357367 -0.019213
10340.00000000 -3880.00000000 720.00000000 194 148 84 0.000000 0.000000 0.000000 0.000000 -60.708740 0.000000 43.000000 -0.640711 0.764534 0.070550
10290.00000000 -3880.00000000 720.00000000 194 148 84 0.000000 0.000000 0.000000 0.000000 -60.708740 0.000000 43.000000 -0.276988 0.957218 -0.083740
10290.00000000 -3930.00000000 740.00000000 194 148 84 0.000000 0.000000 0.000000 0.000000 -60.708740 0.000000 43.000000 -0.658254 0.711924 0.244675
10310.00000000 -3930.00000000 780.00000000 194 148 84 0.000000 0.000000 0.000000 0.000000 -60.708740 0.000000 43.000000 -0.167376 0.978223 0.122743
10230.00000000 -3930.00000000 680.00000000 194 148 84 0.000000 0.000000 0.000000 0.000000 -60.708740 0.000000 43.000000 -0.414740 0.831058 0.370585
10110.00000000 -3930.00000000 700.00000000 194 148 84 0.000000 0.000000 0.000000 0.000000 -60.708740 0.000000 43.000000 -0.392433 0.805690 0.443690
10270.00000000 -3920.00000000 590.00000000 194 148 84 0.000000 0.000000 0.000000 0.000000 -60.708740 0.000000 43.000000 0.689114 -0.633461 -0.351923
10240.00000000 -3870.00000000 580.00000000 194 148 84 0.000000 0.000000 0.000000 0.000000 -60.708740 0.000000 43.000000 0.787648 -0.615999 0.012458
10230.00000000 -3870.00000000 610.00000000 194 148 84 0.000000 0.000000 0.000000 0.000000 -60.708740 0.000000 43.000000 -0.164544 0.981168 0.101164
10250.00000000 -3900.00000000 590.00000000 194 148 84 0.000000 0.000000 0.000000 0.000000 -60.708740 0.000000 43.000000 0.709431 -0.691433 -0.136487
10200.00000000 -3900.00000000 540.00000000 194 148 84 0.000000 0.000000 0.000000 0.000000 -60.708740 0.000000 43.000000 -0.225693 0.969598 0.094564
10140.00000000 -3850.00000000 590.00000000 194 148 84 0.000000 0.000000 0.000000 0.000000 -60.708740 0.000000 43.000000 -0.193536 0.972739 -0.127759
10100.00000000 -3860.00000000 580.00000000 194 148 84 0.000000 0.000000 0.000000 0.000000 -60.708740 0.000000 43.000000 -0.486764 0.873508 -0.006668
10130.00000000 -3890.00000000 620.00000000 194 148 84 0.000000 0.000000 0.000000 0.000000 -60.708740 0.000000 43.000000 -0.479416 0.749602 0.456351
10170.00000000 -3880.00000000 500.00000000 194 148 84 0.000000 0.000000 0.000000 0.000000 -60.708740 0.000000 43.000000 -0.287604 0.952114 -0.103748
10240.00000000 -3820.00000000 360.00000000 194 148 84 0.000000 0.000000 0.000000 0.000000 -60.708740 0.000000 43.000000 -0.442221 0.896467 0.028056
10190.00000000 -3870.00000000 470.00000000 194 148 84 0.000000 0.000000 0.000000 0.000000 -60.708740 0.000000 43.000000 -0.508116 0.861237 -0.009435
10230.00000000 -3860.00000000 370.00000000 194 148 84 0.000000 0.000000 0.000000 0.000000 -60.708740 0.000000 43.000000 -0.763312 0.557619 0.326215
10250.00000000 -3860.00000000 360.00000000 194 148 84 0.000000 0.000000 0.000000 0.000000 -60.708740 0.000000 43.000000 -0.387984 0.921622 -0.009023
10220.00000000 -3860.00000000 320.00000000 194 148 84 0.000000 0.000000 0.000000 0.000000 -60.708740 0.000000 43.000000 -0.639159 0.768396 -0.032309
10220.00000000 -3900.00000000 340.00000000 194 148 84 0.000000 0.000000 0.000000 0.000000 -60.708740 0.000000 43.000000 0.778659 -0.625480 -0.049641
10130.00000000 -3780.00000000 440.00000000 194 148 84 0.000000 0.000000 0.000000 0.000000 -60.708740 0.000000 43.000000 -0.500430 0.794612 0.343746
10120.00000000 -3770.00000000 410.00000000 194 148 84 0.000000 0.000000 0.000000 0.000000 -60.708740 0.000000 43.000000 -0.365881 0.840113 0.400427
10140.00000000 -3770.00000000 420.00000000 194 148 84 0.000000 0.000000 0.000000 0.000000 -60.708740 0.000000 43.000000 -0.466179 0.865761 0.182032
10130.00000000 -3770.00000000 400.00000000 194 148 84 0.000000 0.000000 0.000000 0.000000 -60.708740 0.000000 43.000000 -0.386421 0.754906 0.529902
10240.00000000 -3950.00000000 610.00000000 194 148 84 0.000000 0.000000 0.000000 0.000000 -60.708740 0.000000 43.000000 -0.329630 0.944109 -0.001244
10240.00000000 -3910.00000000 610.00000000 194 148 84 0.000000 0.000000 0.000000 0.000000 -60.708740 0.000000 43.000000 -0.126131 0.980885 0.148174
10220.00000000 -3930.00000000 610.00000000 194 148 84 0.000000 0.000000 0.000000 0.000000 -60.708740 0.000000 43.000000 -0.481916 0.708701 0.515267
10270.00000000 -3830.00000000 250.00000000 194 148 84 0.000000 0.000000 0.000000 0.000000 -60.708740 0.000000 43.000000 0.874326 -0.442341 -0.199719
10250.00000000 -3820.00000000 260.00000000 194 148 84 0.000000 0.000000 0.000000 0.000000 -60.708740 0.000000 43.000000 -0.619961 0.784355 0.020898
10260.00000000 -3810.00000000 190.00000000 194 148 84 0.000000 0.000000 0.000000 0.000000 -60.708740 0.000000 43.000000 -0.350896 0.876480 0.329629
10240.00000000 -3790.00000000 150.00000000 194 148 84 0.000000 0.000000 0.000000 0.000000 -60.708740 0.000000 43.000000 -0.500299 0.865851 0.001334
10250.00000000 -3850.00000000 300.00000000 194 148 84 0.000000 0.000000 0.000000 0.000000 -60.708740 0.000000 43.000000 0.669737 -0.663219 -0.334054
10240.00000000 -3860.00000000 290.00000000 194 148 84 0.000000 0.000000 0.000000 0.000000 -60.708740 0.000000 43.000000 -0.332981 0.884434 0.326954
10250.00000000 -3850.00000000 240.00000000 194 148 84 0.000000 0.000000 0.000000 0.000000 -60.708740 0.000000 43.000000 0.738740 -0.524851 -0.422842
10220.00000000 -3840.00000000 280.00000000 194 148 84 0.000000 0.000000 0.000000 0.000000 -60.708740 0.000000 43.000000 -0.655665 0.755050 0.001380
10220.00000000 -3830.00000000 220.00000000 194 148 84 0.000000 0.000000 0.000000 0.000000 -60.708740 0.000000 43.000000 -0.459456 0.877144 -0.139709
10210.00000000 -3830.00000000 220.00000000 194 148 84 0.000000 0.000000 0.000000 0.000000 -60.708740 0.000000 43.000000 -0.524770 0.851234 -0.004047
10210.00000000 -3860.00000000 150.00000000 194 148 84 0.000000 0.000000 0.000000 0.000000 -60.708740 0.000000 43.000000 -0.355919 0.934127 0.026983
10220.00000000 -3850.00000000 150.00000000 194 148 84 0.000000 0.000000 0.000000 0.000000 -60.708740 0.000000 43.000000 -0.665234 0.601878 0.441822
10240.00000000 -3820.00000000 140.00000000 194 148 84 0.000000 0.000000 0.000000 0.000000 -60.708740 0.000000 43.000000 0.812503 -0.429398 -0.394280
10240.00000000 -3820.00000000 140.00000000 194 148 84 0.000000 0.000000 0.000000 0.000000 -60.708740 0.000000 43.000000 0.812503 -0.429398 -0.394280
10230.00000000 -3790.00000000 90.00000000 194 148 84 0.000000 0.000000 0.000000 0.000000 -60.708740 0.000000 43.000000 -0.475325 0.879687 -0.014728
10240.00000000 -3790.00000000 90.00000000 194 148 84 0.000000 0.000000 0.000000 0.000000 -60.708740 0.000000 43.000000 -0.544370 0.838844 -0.001351
10220.00000000 -3760.00000000 40.00000000 194 148 84 0.000000 0.000000 0.000000 0.000000 -60.708740 0.000000 43.000000 -0.566534 0.702767 0.430300
10220.00000000 -3760.00000000 40.00000000 194 148 84 0.000000 0.000000 0.000000 0.000000 -60.708740 0.000000 43.000000 -0.566534 0.702767 0.430300
10210.00000000 -3860.00000000 140.00000000 194 148 84 0.000000 0.000000 0.000000 0.000000 -60.708740 0.000000 43.000000 -0.697710 0.714832 -0.047085
10080.00000000 -3860.00000000 620.00000000 194 148 84 0.000000 0.000000 0.000000 0.000000 -60.708740 0.000000 43.000000 -0.134058 0.975995 -0.171645
10050.00000000 -3840.00000000 470.00000000 194 148 84 0.000000 0.000000 0.000000 0.000000 -60.708740 0.000000 43.000000 -0.381084 0.859368 0.340970
10040.00000000 -3840.00000000 480.00000000 194 148 84 0.000000 0.000000 0.000000 0.000000 -60.708740 0.000000 43.000000 -0.341970 0.917165 0.204609
9790.00000000 -3820.00000000 330.00000000 194 148 84 0.000000 0.000000 0.000000 0.000000 -60.708740 0.000000 43.000000 0.123823 0.949312 0.288921
9770.00000000 -3790.00000000 180.00000000 194 148 84 0.000000 0.000000 0.000000 0.000000 -60.708740 0.000000 43.000000 -0.105377 0.968709 0.224720
9770.00000000 -3970.00000000 140.00000000 194 148 84 0.000000 0.000000 0.000000 0.000000 -60.708740 0.000000 43.000000 -0.235629 0.923951 0.301319
9790.00000000 -3980.00000000 130.00000000 194 148 84 0.000000 0.000000 0.000000 0.000000 -60.708740 0.000000 43.000000 -0.310909 0.932726 0.182641
9690.00000000 -3750.00000000 370.00000000 194 148 84 0.000000 0.000000 0.000000 0.000000 -60.708740 0.000000 43.000000 0.726958 0.672999 -0.136398
9730.00000000 -3810.00000000 340.00000000 194 148 84 0.000000 0.000000 0.000000 0.000000 -60.708740 0.000000 43.000000 0.166950 0.975341 -0.144355
9720.00000000 -3850.00000000 420.00000000 194 148 84 0.000000 0.000000 0.000000 0.000000 -60.708740 0.000000 43.000000 0.527922 0.849266 0.006751
9710.00000000 -3890.00000000 460.00000000 194 148 84 0.000000 0.000000 0.000000 0.000000 -60.708740 0.000000 43.000000 0.582066 0.768201 0.266583
9720.00000000 -3890.00000000 440.00000000 194 148 84 0.000000 0.000000 0.000000 0.000000 -60.708740 0.000000 43.000000 0.542295 0.808035 0.230205
9730.00000000 -3850.00000000 350.00000000 194 148 84 0.000000 0.000000 0.000000 0.000000 -60.708740 0.000000 43.000000 0.138753 0.976272 0.166254
9620.00000000 -3740.00000000 320.00000000 194 148 84 0.000000 0.000000 0.000000 0.000000 -60.708740 0.000000 43.000000 0.628278 0.730075 0.268808
9710.00000000 -3920.00000000 490.00000000 194 148 84 0.000000 0.000000 0.000000 0.000000 -60.708740 0.000000 43.000000 0.450192 0.890806 0.061576
9700.00000000 -3930.00000000 510.00000000 194 148 84 0.000000 0.000000 0.000000 0.000000 -60.708740 0.000000 43.000000 0.372676 0.887539 0.270901
9690.00000000 -3920.00000000 500.00000000 194 148 84 0.000000 0.000000 0.000000 0.000000 -60.708740 0.000000 43.000000 0.234590 0.925565 0.297148
9700.00000000 -3920.00000000 480.00000000 194 148 84 0.000000 0.000000 0.000000 0.000000 -60.708740 0.000000 43.000000 0.361103 0.922819 0.134203
9480.00000000 -3780.00000000 520.00000000 194 148 84 0.000000 0.000000 0.000000 0.000000 -60.708740 0.000000 43.000000 0.848724 0.520645 0.092718
9490.00000000 -3790.00000000 500.00000000 194 148 84 0.000000 0.000000 0.000000 0.000000 -60.708740 0.000000 43.000000 0.465385 0.856971 -0.221397
9560.00000000 -3800.00000000 430.00000000 194 148 84 0.000000 0.000000 0.000000 0.000000 -60.708740 0.000000 43.000000 0.552840 0.816525 0.166301
9560.00000000 -3750.00000000 400.00000000 194 148 84 0.000000 0.000000 0.000000 0.000000 -60.708740 0.000000 43.000000 0.569418 0.777627 0.266570
9740.00000000 -3790.00000000 240.00000000 194 148 84 0.000000 0.000000 0.000000 0.000000 -60.708740 0.000000 43.000000 0.371694 0.850698 0.371694
9690.00000000 -3800.00000000 270.00000000 194 148 84 0.000000 0.000000 0.000000 0.000000 -60.708740 0.000000 43.000000 0.717365 0.694456 0.055843
9720.00000000 -3820.00000000 290.00000000 194 148 84 0.000000 0.000000 0.000000 0.000000 -60.708740 0.000000 43.000000 0.185333 0.943138 -0.275940
9720.00000000 -3820.00000000 280.00000000 194 148 84 0.000000 0.000000 0.000000 0.000000 -60.708740 0.000000 43.000000 0.306810 0.931637 0.194733
9750.00000000 -3800.00000000 220.00000000 194 148 84 0.000000 0.000000 0.000000 0.000000 -60.708740 0.000000 43.000000 0.378419 0.886967 0.264744
9760.00000000 -3800.00000000 210.00000000 194 148 84 0.000000 0.000000 0.000000 0.000000 -60.708740 0.000000 43.000000 -0.064508 0.986381 0.151300
9760.00000000 -3800.00000000 210.00000000 194 148 84 0.000000 0.000000 0.000000 0.000000 -60.708740 0.000000 43.000000 -0.064508 0.986381 0.151300
9720.00000000 -3760.00000000 200.00000000 194 148 84 0.000000 0.000000 0.000000 0.000000 -60.708740 0.000000 43.000000 0.232790 0.972520 -0.003545
9710.00000000 -3830.00000000 310.00000000 194 148 84 0.000000 0.000000 0.000000 0.000000 -60.708740 0.000000 43.000000 0.330055 0.935835 0.123601
9640.00000000 -3740.00000000 230.00000000 194 148 84 0.000000 0.000000 0.000000 0.000000 -60.708740 0.000000 43.000000 0.441691 0.860615 -0.253479
9600.00000000 -3760.00000000 190.00000000 194 148 84 0.000000 0.000000 0.000000 0.000000 -60.708740 0.000000 43.000000 0.648734 0.724132 -0.234047
9760.00000000 -3750.00000000 0.00000000 194 148 84 0.000000 0.000000 0.000000 0.000000 -60.708740 0.000000 43.000000 -0.184948 0.907534 0.377064
9710.00000000 -3830.00000000 90.00000000 194 148 84 0.000000 0.000000 0.000000 0.000000 -60.708740 0.000000 43.000000 0.366378 0.899024 0.239838
9600.00000000 -3920.00000000 120.00000000 194 148 84 0.000000 0.000000 0.000000 0.000000 -60.708740 0.000000 43.000000 0.381697 0.840361 0.384838
9600.00000000 -3920.00000000 130.00000000 194 148 84 0.000000 0.000000 0.000000 0.000000 -60.708740 0.000000 43.000000 0.413375 0.908886 0.055206
9590.00000000 -3740.00000000 190.00000000 194 148 84 0.000000 0.000000 0.000000 0.000000 -60.708740 0.000000 43.000000 0.827112 0.532894 -0.178632
9540.00000000 -3740.00000000 150.00000000 194 148 84 0.000000 0.000000 0.000000 0.000000 -60.708740 0.000000 43.000000 0.563424 0.793139 -0.231267
9590.00000000 -3760.00000000 140.00000000 194 148 84 0.000000 0.000000 0.000000 0.000000 -60.708740 0.000000 43.000000 0.323209 0.838470 -0.438753
9590.00000000 -3760.00000000 140.00000000 194 148 84 0.000000 0.000000 0.000000 0.000000 -60.708740 0.000000 43.000000 0.323209 0.838470 -0.438753
9560.00000000 -3770.00000000 60.00000000 194 148 84 0.000000 0.000000 0.000000 0.000000 -60.708740 0.000000 43.000000 0.520612 0.850756 -0.071954
9580.00000000 -3860.00000000 120.00000000 194 148 84 0.000000 0.000000 0.000000 0.000000 -60.708740 0.000000 43.000000 0.082734 0.989318 0.120023
9470.00000000 -3760.00000000 80.00000000 194 148 84 0.000000 0.000000 0.000000 0.000000 -60.708740 0.000000 43.000000 0.407192 0.908984 -0.089116
9460.00000000 -3750.00000000 140.00000000 194 148 84 0.000000 0.000000 0.000000 0.000000 -60.708740 0.000000 43.000000 0.651506 0.757001 -0.049896
9360.00000000 -3740.00000000 330.00000000 194 148 84 0.000000 0.000000 0.000000 0.000000 -60.708740 0.000000 43.000000 0.913032 0.352272 -0.205612
9360.00000000 -3750.00000000 310.00000000 194 148 84 0.000000 0.000000 0.000000 0.000000 -60.708740 0.000000 43.000000 0.814650 0.531293 -0.232537
9360.00000000 -3760.00000000 240.00000000 194 148 84 0.000000 0.000000 0.000000 0.000000 -60.708740 0.000000 43.000000 0.608071 0.793678 -0.018007
9360.00000000 -3760.00000000 250.00000000 194 148 84 0.000000 0.000000 0.000000 0.000000 -60.708740 0.000000 43.000000 0.812735 0.416746 -0.407166
9380.00000000 -3770.00000000 160.00000000 194 148 84 0.000000 0.000000 0.000000 0.000000 -60.708740 0.000000 43.000000 0.439075 0.876671 -0.196623
9370.00000000 -3740.00000000 170.00000000 194 148 84 0.000000 0.000000 0.000000 0.000000 -60.708740 0.000000 43.000000 0.495237 0.831565 -0.251475
9380.00000000 -3770.00000000 150.00000000 194 148 84 0.000000 0.000000 0.000000 0.000000 -60.708740 0.000000 43.000000 0.440346 0.897781 -0.009201
10020.00000000 -2970.00000000 -410.00000000 194 148 84 0.000000 0.000000 0.000000 0.000000 -60.708740 0.000000 43.000000 0.605519 0.615639 -0.504318
10050.00000000 -2900.00000000 -430.00000000 194 148 84 0.000000 0.000000 0.000000 0.000000 -60.708740 0.000000 43.000000 0.804328 0.588498 -0.082016
10000.00000000 -2980.00000000 -380.00000000 194 148 84 0.000000 0.000000 0.000000 0.000000 -60.708740 0.000000 43.000000 0.832401 0.553553 -0.026228
9970.00000000 -3020.00000000 -420.00000000 194 148 84 0.000000 0.000000 0.000000 0.000000 -60.708740 0.000000 43.000000 0.810647 0.548065 0.206097
9770.00000000 -3060.00000000 -980.00000000 194 148 84 0.000000 0.000000 0.000000 0.000000 -60.708740 0.000000 43.000000 0.341370 0.860377 -0.378442
10210.00000000 -3690.00000000 -50.00000000 194 148 84 0.000000 0.000000 0.000000 0.000000 -60.708740 0.000000 43.000000 0.804280 -0.587687 -0.088081
10190.00000000 -3680.00000000 -60.00000000 194 148 84 0.000000 0.000000 0.000000 0.000000 -60.708740 0.000000 43.000000 -0.626750 0.745535 0.226630
10240.00000000 -3720.00000000 -150.00000000 194 148 84 0.000000 0.000000 0.000000 0.000000 -60.708740 0.000000 43.000000 0.915197 -0.396090 0.074351
10210.00000000 -3710.00000000 -140.00000000 194 148 84 0.000000 0.000000 0.000000 0.000000 -60.708740 0.000000 43.000000 -0.527267 0.796442 0.296093
10120.00000000 -3670.00000000 -160.00000000 194 148 84 0.000000 0.000000 0.000000 0.000000 -60.708740 0.000000 43.000000 0.863786 -0.497417 0.080319
10200.00000000 -3700.00000000 -210.00000000 194 148 84 0.000000 0.000000 0.000000 0.000000 -60.708740 0.000000 43.000000 -0.663062 0.713223 0.227291
10220.00000000 -3730.00000000 -200.00000000 194 148 84 0.000000 0.000000 0.000000 0.000000 -60.708740 0.000000 43.000000 0.498237 -0.704864 -0.504903
10210.00000000 -3730.00000000 -230.00000000 194 148 84 0.000000 0.000000 0.000000 0.000000 -60.708740 0.000000 43.000000 0.793969 -0.581434 -0.177618
10200.00000000 -3710.00000000 -270.00000000 194 148 84 0.000000 0.000000 0.000000 0.000000 -60.708740 0.000000 43.000000 0.886836 -0.329740 -0.323718
