//X Y Z R G B PointSourceId ScanDirectionFlag NumberOfReturns ReturnNumber GpsTime Intensity Classification Nx Ny Nz
1570.00000000 -7070.00000000 -260.00000000 68 209 117 0.000000 0.000000 0.000000 0.000000 -60.708740 0.000000 160.000000 0.992317 0.111763 0.053059
1550.00000000 -7040.00000000 -190.00000000 68 209 117 0.000000 0.000000 0.000000 0.000000 -60.708740 0.000000 160.000000 0.901326 0.089719 0.423747
1550.00000000 -7050.00000000 -270.00000000 68 209 117 0.000000 0.000000 0.000000 0.000000 -60.708740 0.000000 160.000000 0.965341 0.248591 0.079499
1520.00000000 -7030.00000000 -240.00000000 68 209 117 0.000000 0.000000 0.000000 0.000000 -60.708740 0.000000 160.000000 0.929890 0.356615 -0.090163
1510.00000000 -7090.00000000 -230.00000000 68 209 117 0.000000 0.000000 0.000000 0.000000 -60.708740 0.000000 160.000000 0.899400 0.435626 0.036190
1510.00000000 -7090.00000000 -230.00000000 68 209 117 0.000000 0.000000 0.000000 0.000000 -60.708740 0.000000 160.000000 0.899400 0.435626 0.036190
1510.00000000 -7090.00000000 -220.00000000 68 209 117 0.000000 0.000000 0.000000 0.000000 -60.708740 0.000000 160.000000 0.992933 0.036858 0.112808
1530.00000000 -7070.00000000 -220.00000000 68 209 117 0.000000 0.000000 0.000000 0.000000 -60.708740 0.000000 160.000000 0.999702 0.015132 -0.019167
1540.00000000 -7080.00000000 -270.00000000 68 209 117 0.000000 0.000000 0.000000 0.000000 -60.708740 0.000000 160.000000 0.990798 0.131881 0.030434
1510.00000000 -7090.00000000 -260.00000000 68 209 117 0.000000 0.000000 0.000000 0.000000 -60.708740 0.000000 160.000000 0.877500 -0.009349 0.479486
1510.00000000 -7090.00000000 -260.00000000 68 209 117 0.000000 0.000000 0.000000 0.000000 -60.708740 0.000000 160.000000 0.877500 -0.009349 0.479486
1510.00000000 -7050.00000000 -290.00000000 68 209 117 0.000000 0.000000 0.000000 0.000000 -60.708740 0.000000 160.000000 0.991178 0.125738 -0.041913
1510.00000000 -7050.00000000 -320.00000000 68 209 117 0.000000 0.000000 0.000000 0.000000 -60.708740 0.000000 160.000000 0.932005 -0.306011 0.194226
1510.00000000 -7040.00000000 -320.00000000 68 209 117 0.000000 0.000000 0.000000 0.000000 -60.708740 0.000000 160.000000 0.974588 -0.224003 0.001173
1510.00000000 -7090.00000000 -350.00000000 68 209 117 0.000000 0.000000 0.000000 0.000000 -60.708740 0.000000 160.000000 0.914455 -0.393476 -0.094599
1530.00000000 -7070.00000000 -340.00000000 68 209 117 0.000000 0.000000 0.000000 0.000000 -60.708740 0.000000 160.000000 0.889225 -0.373862 -0.263640
1470.00000000 -6930.00000000 -140.00000000 68 209 117 0.000000 0.000000 0.000000 0.000000 -60.708740 0.000000 160.000000 0.437456 0.731295 0.523297
1460.00000000 -6930.00000000 -130.00000000 68 209 117 0.000000 0.000000 0.000000 0.000000 -60.708740 0.000000 160.000000 0.387561 0.674522 0.628344
1430.00000000 -6940.00000000 -110.00000000 68 209 117 0.000000 0.000000 0.000000 0.000000 -60.708740 0.000000 160.000000 0.104277 0.961669 0.253613
1450.00000000 -6940.00000000 -110.00000000 68 209 117 0.000000 0.000000 0.000000 0.000000 -60.708740 0.000000 160.000000 0.586850 0.797819 0.138170
1450.00000000 -6940.00000000 -180.00000000 68 209 117 0.000000 0.000000 0.000000 0.000000 -60.708740 0.000000 160.000000 0.667308 0.502582 0.549647
1440.00000000 -6940.00000000 -160.00000000 68 209 117 0.000000 0.000000 0.000000 0.000000 -60.708740 0.000000 160.000000 0.270487 0.900144 0.341434
1410.00000000 -6930.00000000 -140.00000000 68 209 117 0.000000 0.000000 0.000000 0.000000 -60.708740 0.000000 160.000000 0.178385 0.911902 0.369613
1390.00000000 -6920.00000000 -160.00000000 68 209 117 0.000000 0.000000 0.000000 0.000000 -60.708740 0.000000 160.000000 0.494569 0.668926 0.554923
1410.00000000 -6930.00000000 -180.00000000 68 209 117 0.000000 0.000000 0.000000 0.000000 -60.708740 0.000000 160.000000 0.433933 0.857133 0.277533
1350.00000000 -6910.00000000 -130.00000000 68 209 117 0.000000 0.000000 0.000000 0.000000 -60.708740 0.000000 160.000000 0.104879 0.692791 0.713471
1380.00000000 -6940.00000000 -150.00000000 68 209 117 0.000000 0.000000 0.000000 0.000000 -60.708740 0.000000 160.000000 -0.158164 0.778767 0.607047
1360.00000000 -6930.00000000 -170.00000000 68 209 117 0.000000 0.000000 0.000000 0.000000 -60.708740 0.000000 160.000000 -0.170851 0.900198 0.400567
1380.00000000 -6900.00000000 -150.00000000 68 209 117 0.000000 0.000000 0.000000 0.000000 -60.708740 0.000000 160.000000 0.480619 0.810549 0.334688
1470.00000000 -6940.00000000 -230.00000000 68 209 117 0.000000 0.000000 0.000000 0.000000 -60.708740 0.000000 160.000000 0.661065 0.728552 0.179454
1480.00000000 -6940.00000000 -190.00000000 68 209 117 0.000000 0.000000 0.000000 0.000000 -60.708740 0.000000 160.000000 0.559183 0.589592 0.582834
1470.00000000 -6930.00000000 -210.00000000 68 209 117 0.000000 0.000000 0.000000 0.000000 -60.708740 0.000000 160.000000 0.277825 0.904034 0.324864
1470.00000000 -6940.00000000 -250.00000000 68 209 117 0.000000 0.000000 0.000000 0.000000 -60.708740 0.000000 160.000000 0.442235 0.585753 0.679206
1470.00000000 -6920.00000000 -250.00000000 68 209 117 0.000000 0.000000 0.000000 0.000000 -60.708740 0.000000 160.000000 0.467132 0.825738 0.316140
1480.00000000 -6930.00000000 -260.00000000 68 209 117 0.000000 0.000000 0.000000 0.000000 -60.708740 0.000000 160.000000 0.467940 0.588698 0.659141
1470.00000000 -6920.00000000 -260.00000000 68 209 117 0.000000 0.000000 0.000000 0.000000 -60.708740 0.000000 160.000000 0.355495 0.898325 0.258139
1450.00000000 -6930.00000000 -190.00000000 68 209 117 0.000000 0.000000 0.000000 0.000000 -60.708740 0.000000 160.000000 0.234378 0.690550 0.684258
1450.00000000 -6920.00000000 -220.00000000 68 209 117 0.000000 0.000000 0.000000 0.000000 -60.708740 0.000000 160.000000 0.312255 0.901248 0.300416
1430.00000000 -6930.00000000 -260.00000000 68 209 117 0.000000 0.000000 0.000000 0.000000 -60.708740 0.000000 160.000000 0.473841 0.738003 0.480445
1460.00000000 -6940.00000000 -260.00000000 68 209 117 0.000000 0.000000 0.000000 0.000000 -60.708740 0.000000 160.000000 0.227353 0.707148 0.669517
1430.00000000 -6930.00000000 -270.00000000 68 209 117 0.000000 0.000000 0.000000 0.000000 -60.708740 0.000000 160.000000 0.341879 0.781667 0.521646
1490.00000000 -6930.00000000 -280.00000000 68 209 117 0.000000 0.000000 0.000000 0.000000 -60.708740 0.000000 160.000000 0.782850 0.363178 0.505221
1470.00000000 -6900.00000000 -310.00000000 68 209 117 0.000000 0.000000 0.000000 0.000000 -60.708740 0.000000 160.000000 0.324199 0.891920 0.315235
1470.00000000 -6940.00000000 -340.00000000 68 209 117 0.000000 0.000000 0.000000 0.000000 -60.708740 0.000000 160.000000 0.862507 0.234131 0.448625
1470.00000000 -6920.00000000 -340.00000000 68 209 117 0.000000 0.000000 0.000000 0.000000 -60.708740 0.000000 160.000000 0.580131 0.542922 0.607193
1480.00000000 -6940.00000000 -350.00000000 68 209 117 0.000000 0.000000 0.000000 0.000000 -60.708740 0.000000 160.000000 0.844716 0.292938 0.447932
1480.00000000 -6940.00000000 -320.00000000 68 209 117 0.000000 0.000000 0.000000 0.000000 -60.708740 0.000000 160.000000 0.460339 0.810770 0.361581
1470.00000000 -6920.00000000 -340.00000000 68 209 117 0.000000 0.000000 0.000000 0.000000 -60.708740 0.000000 160.000000 0.580131 0.542922 0.607193
1470.00000000 -6920.00000000 -350.00000000 68 209 117 0.000000 0.000000 0.000000 0.000000 -60.708740 0.000000 160.000000 0.936775 0.279780 0.210183
1480.00000000 -6900.00000000 -330.00000000 68 209 117 0.000000 0.000000 0.000000 0.000000 -60.708740 0.000000 160.000000 0.367335 0.857115 0.361135
1450.00000000 -6920.00000000 -300.00000000 68 209 117 0.000000 0.000000 0.000000 0.000000 -60.708740 0.000000 160.000000 0.406437 0.869197 0.281614
1440.00000000 -6910.00000000 -310.00000000 68 209 117 0.000000 0.000000 0.000000 0.000000 -60.708740 0.000000 160.000000 0.421323 0.654467 0.627822
1450.00000000 -6910.00000000 -320.00000000 68 209 117 0.000000 0.000000 0.000000 0.000000 -60.708740 0.000000 160.000000 0.355585 0.686591 0.634154
1440.00000000 -6900.00000000 -350.00000000 68 209 117 0.000000 0.000000 0.000000 0.000000 -60.708740 0.000000 160.000000 0.662125 0.655553 0.363101
1450.00000000 -6930.00000000 -320.00000000 68 209 117 0.000000 0.000000 0.000000 0.000000 -60.708740 0.000000 160.000000 0.693792 0.693792 0.193149
1460.00000000 -6920.00000000 -340.00000000 68 209 117 0.000000 0.000000 0.000000 0.000000 -60.708740 0.000000 160.000000 0.350476 0.712362 0.608035
1460.00000000 -6920.00000000 -340.00000000 68 209 117 0.000000 0.000000 0.000000 0.000000 -60.708740 0.000000 160.000000 0.350476 0.712362 0.608035
1460.00000000 -6930.00000000 -340.00000000 68 209 117 0.000000 0.000000 0.000000 0.000000 -60.708740 0.000000 160.000000 0.470026 0.573733 0.670750
1390.00000000 -6940.00000000 -230.00000000 68 209 117 0.000000 0.000000 0.000000 0.000000 -60.708740 0.000000 160.000000 -0.079657 0.627116 0.774843
1390.00000000 -6920.00000000 -220.00000000 68 209 117 0.000000 0.000000 0.000000 0.000000 -60.708740 0.000000 160.000000 0.290850 0.910551 0.293773
1420.00000000 -6920.00000000 -190.00000000 68 209 117 0.000000 0.000000 0.000000 0.000000 -60.708740 0.000000 160.000000 0.099035 0.896895 0.431012
1390.00000000 -6940.00000000 -230.00000000 68 209 117 0.000000 0.000000 0.000000 0.000000 -60.708740 0.000000 160.000000 -0.079657 0.627116 0.774843
1410.00000000 -6910.00000000 -230.00000000 68 209 117 0.000000 0.000000 0.000000 0.000000 -60.708740 0.000000 160.000000 0.567133 0.587448 0.577291
1420.00000000 -6920.00000000 -200.00000000 68 209 117 0.000000 0.000000 0.000000 0.000000 -60.708740 0.000000 160.000000 0.594451 0.776646 0.208444
1400.00000000 -6920.00000000 -200.00000000 68 209 117 0.000000 0.000000 0.000000 0.000000 -60.708740 0.000000 160.000000 0.165502 0.868517 0.467212
1410.00000000 -6940.00000000 -260.00000000 68 209 117 0.000000 0.000000 0.000000 0.000000 -60.708740 0.000000 160.000000 0.146572 0.824655 0.546315
1400.00000000 -6940.00000000 -240.00000000 68 209 117 0.000000 0.000000 0.000000 0.000000 -60.708740 0.000000 160.000000 0.271964 0.893172 0.358161
1420.00000000 -6910.00000000 -240.00000000 68 209 117 0.000000 0.000000 0.000000 0.000000 -60.708740 0.000000 160.000000 0.546300 0.765465 0.340028
1410.00000000 -6940.00000000 -250.00000000 68 209 117 0.000000 0.000000 0.000000 0.000000 -60.708740 0.000000 160.000000 0.435290 0.880839 0.186134
1410.00000000 -6910.00000000 -240.00000000 68 209 117 0.000000 0.000000 0.000000 0.000000 -60.708740 0.000000 160.000000 0.102511 0.919863 0.378606
1400.00000000 -6930.00000000 -260.00000000 68 209 117 0.000000 0.000000 0.000000 0.000000 -60.708740 0.000000 160.000000 0.450018 0.767485 0.456564
1400.00000000 -6930.00000000 -260.00000000 68 209 117 0.000000 0.000000 0.000000 0.000000 -60.708740 0.000000 160.000000 0.450018 0.767485 0.456564
1350.00000000 -6890.00000000 -210.00000000 68 209 117 0.000000 0.000000 0.000000 0.000000 -60.708740 0.000000 160.000000 -0.358874 0.783729 0.506930
1380.00000000 -6920.00000000 -230.00000000 68 209 117 0.000000 0.000000 0.000000 0.000000 -60.708740 0.000000 160.000000 0.052589 0.947882 0.314251
1360.00000000 -6930.00000000 -230.00000000 68 209 117 0.000000 0.000000 0.000000 0.000000 -60.708740 0.000000 160.000000 0.258564 0.828333 0.497000
1360.00000000 -6930.00000000 -220.00000000 68 209 117 0.000000 0.000000 0.000000 0.000000 -60.708740 0.000000 160.000000 0.113520 0.626572 0.771052
1360.00000000 -6910.00000000 -250.00000000 68 209 117 0.000000 0.000000 0.000000 0.000000 -60.708740 0.000000 160.000000 -0.171480 0.836525 0.520405
1380.00000000 -6910.00000000 -250.00000000 68 209 117 0.000000 0.000000 0.000000 0.000000 -60.708740 0.000000 160.000000 0.447676 0.850738 0.275375
1360.00000000 -6900.00000000 -270.00000000 68 209 117 0.000000 0.000000 0.000000 0.000000 -60.708740 0.000000 160.000000 0.231428 0.918525 0.320550
1380.00000000 -6930.00000000 -240.00000000 68 209 117 0.000000 0.000000 0.000000 0.000000 -60.708740 0.000000 160.000000 0.238847 0.824406 0.513135
1380.00000000 -6910.00000000 -250.00000000 68 209 117 0.000000 0.000000 0.000000 0.000000 -60.708740 0.000000 160.000000 0.447676 0.850738 0.275375
1380.00000000 -6930.00000000 -260.00000000 68 209 117 0.000000 0.000000 0.000000 0.000000 -60.708740 0.000000 160.000000 0.015146 0.979836 0.199229
1360.00000000 -6900.00000000 -270.00000000 68 209 117 0.000000 0.000000 0.000000 0.000000 -60.708740 0.000000 160.000000 0.231428 0.918525 0.320550
1380.00000000 -6930.00000000 -260.00000000 68 209 117 0.000000 0.000000 0.000000 0.000000 -60.708740 0.000000 160.000000 0.015146 0.979836 0.199229
1400.00000000 -6880.00000000 -350.00000000 68 209 117 0.000000 0.000000 0.000000 0.000000 -60.708740 0.000000 160.000000 0.040001 0.856563 0.514490
1410.00000000 -6880.00000000 -350.00000000 68 209 117 0.000000 0.000000 0.000000 0.000000 -60.708740 0.000000 160.000000 0.128229 0.900423 0.415688
1410.00000000 -6920.00000000 -300.00000000 68 209 117 0.000000 0.000000 0.000000 0.000000 -60.708740 0.000000 160.000000 0.491184 0.862812 0.119555
1400.00000000 -6920.00000000 -300.00000000 68 209 117 0.000000 0.000000 0.000000 0.000000 -60.708740 0.000000 160.000000 0.368328 0.789733 0.490567
1410.00000000 -6920.00000000 -300.00000000 68 209 117 0.000000 0.000000 0.000000 0.000000 -60.708740 0.000000 160.000000 0.491184 0.862812 0.119555
1390.00000000 -6910.00000000 -300.00000000 68 209 117 0.000000 0.000000 0.000000 0.000000 -60.708740 0.000000 160.000000 0.075700 0.824129 0.561321
1420.00000000 -6910.00000000 -310.00000000 68 209 117 0.000000 0.000000 0.000000 0.000000 -60.708740 0.000000 160.000000 0.477639 0.866720 0.143727
1400.00000000 -6920.00000000 -280.00000000 68 209 117 0.000000 0.000000 0.000000 0.000000 -60.708740 0.000000 160.000000 0.360628 0.908086 0.212901
1400.00000000 -6920.00000000 -290.00000000 68 209 117 0.000000 0.000000 0.000000 0.000000 -60.708740 0.000000 160.000000 0.039196 0.887991 0.458187
1410.00000000 -6900.00000000 -320.00000000 68 209 117 0.000000 0.000000 0.000000 0.000000 -60.708740 0.000000 160.000000 0.603417 0.529046 0.596656
1390.00000000 -6910.00000000 -340.00000000 68 209 117 0.000000 0.000000 0.000000 0.000000 -60.708740 0.000000 160.000000 0.298145 0.559619 0.773263
1390.00000000 -6910.00000000 -340.00000000 68 209 117 0.000000 0.000000 0.000000 0.000000 -60.708740 0.000000 160.000000 0.298145 0.559619 0.773263
1360.00000000 -6870.00000000 -350.00000000 68 209 117 0.000000 0.000000 0.000000 0.000000 -60.708740 0.000000 160.000000 0.306713 0.749921 0.586127
1380.00000000 -6900.00000000 -300.00000000 68 209 117 0.000000 0.000000 0.000000 0.000000 -60.708740 0.000000 160.000000 0.261576 0.737168 0.623026
1350.00000000 -6940.00000000 -280.00000000 68 209 117 0.000000 0.000000 0.000000 0.000000 -60.708740 0.000000 160.000000 -0.139695 0.716501 0.683455
1350.00000000 -6920.00000000 -300.00000000 68 209 117 0.000000 0.000000 0.000000 0.000000 -60.708740 0.000000 160.000000 -0.198797 0.926309 0.320049
1380.00000000 -6920.00000000 -290.00000000 68 209 117 0.000000 0.000000 0.000000 0.000000 -60.708740 0.000000 160.000000 0.376488 0.623097 0.685571
1380.00000000 -6900.00000000 -350.00000000 68 209 117 0.000000 0.000000 0.000000 0.000000 -60.708740 0.000000 160.000000 0.485748 0.811690 0.324359
1360.00000000 -6920.00000000 -330.00000000 68 209 117 0.000000 0.000000 0.000000 0.000000 -60.708740 0.000000 160.000000 -0.153611 0.864609 0.478388
1360.00000000 -6930.00000000 -320.00000000 68 209 117 0.000000 0.000000 0.000000 0.000000 -60.708740 0.000000 160.000000 -0.189213 0.638402 0.746084
1370.00000000 -6900.00000000 -340.00000000 68 209 117 0.000000 0.000000 0.000000 0.000000 -60.708740 0.000000 160.000000 -0.208021 0.833601 0.511700
1370.00000000 -6900.00000000 -350.00000000 68 209 117 0.000000 0.000000 0.000000 0.000000 -60.708740 0.000000 160.000000 -0.191053 0.781025 0.594557
1470.00000000 -6970.00000000 -90.00000000 68 209 117 0.000000 0.000000 0.000000 0.000000 -60.708740 0.000000 160.000000 0.405447 0.806087 0.431088
1470.00000000 -6980.00000000 -90.00000000 68 209 117 0.000000 0.000000 0.000000 0.000000 -60.708740 0.000000 160.000000 0.334645 0.879767 0.337673
1470.00000000 -7020.00000000 -40.00000000 68 209 117 0.000000 0.000000 0.000000 0.000000 -60.708740 0.000000 160.000000 0.734494 0.640928 0.222999
1470.00000000 -6990.00000000 -70.00000000 68 209 117 0.000000 0.000000 0.000000 0.000000 -60.708740 0.000000 160.000000 0.260538 0.750034 0.607922
1430.00000000 -6970.00000000 -60.00000000 68 209 117 0.000000 0.000000 0.000000 0.000000 -60.708740 0.000000 160.000000 0.084850 0.812544 0.576691
1430.00000000 -6970.00000000 -40.00000000 68 209 117 0.000000 0.000000 0.000000 0.000000 -60.708740 0.000000 160.000000 0.323371 0.931252 0.167931
1460.00000000 -6970.00000000 -90.00000000 68 209 117 0.000000 0.000000 0.000000 0.000000 -60.708740 0.000000 160.000000 0.330028 0.928812 0.168495
1460.00000000 -6960.00000000 -100.00000000 68 209 117 0.000000 0.000000 0.000000 0.000000 -60.708740 0.000000 160.000000 0.459905 0.881603 0.106132
1440.00000000 -6950.00000000 -80.00000000 68 209 117 0.000000 0.000000 0.000000 0.000000 -60.708740 0.000000 160.000000 0.432538 0.785696 0.442258
1460.00000000 -6970.00000000 -80.00000000 68 209 117 0.000000 0.000000 0.000000 0.000000 -60.708740 0.000000 160.000000 0.531799 0.837766 0.123844
1470.00000000 -6950.00000000 -140.00000000 68 209 117 0.000000 0.000000 0.000000 0.000000 -60.708740 0.000000 160.000000 0.312686 0.929645 0.194903
1440.00000000 -6950.00000000 -130.00000000 68 209 117 0.000000 0.000000 0.000000 0.000000 -60.708740 0.000000 160.000000 0.486857 0.547087 0.680931
1440.00000000 -6960.00000000 -130.00000000 68 209 117 0.000000 0.000000 0.000000 0.000000 -60.708740 0.000000 160.000000 0.467398 0.517298 0.716898
1500.00000000 -7080.00000000 -50.00000000 68 209 117 0.000000 0.000000 0.000000 0.000000 -60.708740 0.000000 160.000000 0.893929 0.203365 0.399415
1480.00000000 -7030.00000000 -40.00000000 68 209 117 0.000000 0.000000 0.000000 0.000000 -60.708740 0.000000 160.000000 0.806941 0.536406 0.247213
1400.00000000 -6980.00000000 -20.00000000 68 209 117 0.000000 0.000000 0.000000 0.000000 -60.708740 0.000000 160.000000 -0.092170 0.727116 0.680299
1390.00000000 -6960.00000000 -70.00000000 68 209 117 0.000000 0.000000 0.000000 0.000000 -60.708740 0.000000 160.000000 0.157615 0.886406 0.435250
1420.00000000 -6960.00000000 -70.00000000 68 209 117 0.000000 0.000000 0.000000 0.000000 -60.708740 0.000000 160.000000 -0.107989 0.893364 0.436164
1410.00000000 -6950.00000000 -70.00000000 68 209 117 0.000000 0.000000 0.000000 0.000000 -60.708740 0.000000 160.000000 0.422289 0.750919 0.507733
1390.00000000 -7000.00000000 -20.00000000 68 209 117 0.000000 0.000000 0.000000 0.000000 -60.708740 0.000000 160.000000 0.060798 0.821485 0.566980
1390.00000000 -7000.00000000 -20.00000000 68 209 117 0.000000 0.000000 0.000000 0.000000 -60.708740 0.000000 160.000000 0.060798 0.821485 0.566980
1390.00000000 -7000.00000000 -20.00000000 68 209 117 0.000000 0.000000 0.000000 0.000000 -60.708740 0.000000 160.000000 0.060798 0.821485 0.566980
1390.00000000 -7000.00000000 -20.00000000 68 209 117 0.000000 0.000000 0.000000 0.000000 -60.708740 0.000000 160.000000 0.060798 0.821485 0.566980
1410.00000000 -7000.00000000 -40.00000000 68 209 117 0.000000 0.000000 0.000000 0.000000 -60.708740 0.000000 160.000000 0.214358 0.965262 0.149401
1400.00000000 -6990.00000000 -100.00000000 68 209 117 0.000000 0.000000 0.000000 0.000000 -60.708740 0.000000 160.000000 0.104789 0.733524 0.671536
1380.00000000 -6960.00000000 -30.00000000 68 209 117 0.000000 0.000000 0.000000 0.000000 -60.708740 0.000000 160.000000 0.403246 0.804885 0.435377
1380.00000000 -6960.00000000 -30.00000000 68 209 117 0.000000 0.000000 0.000000 0.000000 -60.708740 0.000000 160.000000 0.403246 0.804885 0.435377
1380.00000000 -7010.00000000 -40.00000000 68 209 117 0.000000 0.000000 0.000000 0.000000 -60.708740 0.000000 160.000000 0.386253 0.711691 0.586775
1360.00000000 -7010.00000000 -90.00000000 68 209 117 0.000000 0.000000 0.000000 0.000000 -60.708740 0.000000 160.000000 -0.341498 0.829352 0.442216
1370.00000000 -7010.00000000 -70.00000000 68 209 117 0.000000 0.000000 0.000000 0.000000 -60.708740 0.000000 160.000000 -0.258029 0.717100 0.647448
1400.00000000 -6970.00000000 -160.00000000 68 209 117 0.000000 0.000000 0.000000 0.000000 -60.708740 0.000000 160.000000 -0.039782 0.943211 0.329803
1400.00000000 -6950.00000000 -150.00000000 68 209 117 0.000000 0.000000 0.000000 0.000000 -60.708740 0.000000 160.000000 0.191069 0.834985 0.516036
1400.00000000 -6950.00000000 -150.00000000 68 209 117 0.000000 0.000000 0.000000 0.000000 -60.708740 0.000000 160.000000 0.191069 0.834985 0.516036
1370.00000000 -6980.00000000 -180.00000000 68 209 117 0.000000 0.000000 0.000000 0.000000 -60.708740 0.000000 160.000000 0.032297 0.636114 0.770919
1360.00000000 -7020.00000000 -110.00000000 68 209 117 0.000000 0.000000 0.000000 0.000000 -60.708740 0.000000 160.000000 0.324944 0.606238 0.725870
1350.00000000 -7000.00000000 -110.00000000 68 209 117 0.000000 0.000000 0.000000 0.000000 -60.708740 0.000000 160.000000 0.298912 0.762464 0.573846
1360.00000000 -7020.00000000 -170.00000000 68 209 117 0.000000 0.000000 0.000000 0.000000 -60.708740 0.000000 160.000000 0.062368 0.874539 0.480927
1370.00000000 -7060.00000000 -30.00000000 68 209 117 0.000000 0.000000 0.000000 0.000000 -60.708740 0.000000 160.000000 -0.153566 0.861432 0.484099
1360.00000000 -7060.00000000 -30.00000000 68 209 117 0.000000 0.000000 0.000000 0.000000 -60.708740 0.000000 160.000000 0.104611 -0.752902 -0.649765
1350.00000000 -7050.00000000 -40.00000000 68 209 117 0.000000 0.000000 0.000000 0.000000 -60.708740 0.000000 160.000000 -0.180926 0.875209 0.448637
1360.00000000 -7060.00000000 -30.00000000 68 209 117 0.000000 0.000000 0.000000 0.000000 -60.708740 0.000000 160.000000 0.104611 -0.752902 -0.649765
1360.00000000 -7060.00000000 -30.00000000 68 209 117 0.000000 0.000000 0.000000 0.000000 -60.708740 0.000000 160.000000 0.104611 -0.752902 -0.649765
1360.00000000 -7060.00000000 -30.00000000 68 209 117 0.000000 0.000000 0.000000 0.000000 -60.708740 0.000000 160.000000 0.104611 -0.752902 -0.649765
1350.00000000 -7050.00000000 -80.00000000 68 209 117 0.000000 0.000000 0.000000 0.000000 -60.708740 0.000000 160.000000 -0.215497 0.758116 0.615485
1360.00000000 -7090.00000000 -80.00000000 68 209 117 0.000000 0.000000 0.000000 0.000000 -60.708740 0.000000 160.000000 0.203270 0.712222 0.671878
1350.00000000 -7100.00000000 -180.00000000 68 209 117 0.000000 0.000000 0.000000 0.000000 -60.708740 0.000000 160.000000 -0.139925 0.726709 0.672544
1500.00000000 -6960.00000000 -190.00000000 68 209 117 0.000000 0.000000 0.000000 0.000000 -60.708740 0.000000 160.000000 0.450472 0.764983 0.460300
1480.00000000 -6960.00000000 -200.00000000 68 209 117 0.000000 0.000000 0.000000 0.000000 -60.708740 0.000000 160.000000 0.450303 0.881903 0.139551
1500.00000000 -6960.00000000 -270.00000000 68 209 117 0.000000 0.000000 0.000000 0.000000 -60.708740 0.000000 160.000000 0.923718 0.373533 0.084955
1500.00000000 -6980.00000000 -240.00000000 68 209 117 0.000000 0.000000 0.000000 0.000000 -60.708740 0.000000 160.000000 0.685442 0.423215 0.592501
1500.00000000 -6960.00000000 -270.00000000 68 209 117 0.000000 0.000000 0.000000 0.000000 -60.708740 0.000000 160.000000 0.923718 0.373533 0.084955
1480.00000000 -6950.00000000 -260.00000000 68 209 117 0.000000 0.000000 0.000000 0.000000 -60.708740 0.000000 160.000000 0.570454 0.567068 0.594152
1500.00000000 -6970.00000000 -270.00000000 68 209 117 0.000000 0.000000 0.000000 0.000000 -60.708740 0.000000 160.000000 0.797152 0.600359 -0.064171
1470.00000000 -6960.00000000 -250.00000000 68 209 117 0.000000 0.000000 0.000000 0.000000 -60.708740 0.000000 160.000000 0.474264 0.675366 0.564760
1500.00000000 -7000.00000000 -230.00000000 68 209 117 0.000000 0.000000 0.000000 0.000000 -60.708740 0.000000 160.000000 0.595287 0.655654 0.464491
1500.00000000 -7000.00000000 -230.00000000 68 209 117 0.000000 0.000000 0.000000 0.000000 -60.708740 0.000000 160.000000 0.595287 0.655654 0.464491
1460.00000000 -6970.00000000 -200.00000000 68 209 117 0.000000 0.000000 0.000000 0.000000 -60.708740 0.000000 160.000000 0.431157 0.881444 0.192770
1480.00000000 -6950.00000000 -290.00000000 68 209 117 0.000000 0.000000 0.000000 0.000000 -60.708740 0.000000 160.000000 0.517245 0.819871 0.245498
1500.00000000 -6970.00000000 -290.00000000 68 209 117 0.000000 0.000000 0.000000 0.000000 -60.708740 0.000000 160.000000 0.828847 0.527995 0.185024
1500.00000000 -6970.00000000 -330.00000000 68 209 117 0.000000 0.000000 0.000000 0.000000 -60.708740 0.000000 160.000000 0.938282 0.011396 0.345683
1500.00000000 -7010.00000000 -350.00000000 68 209 117 0.000000 0.000000 0.000000 0.000000 -60.708740 0.000000 160.000000 0.969254 0.157905 0.188716
1500.00000000 -6990.00000000 -350.00000000 68 209 117 0.000000 0.000000 0.000000 0.000000 -60.708740 0.000000 160.000000 0.994145 0.038790 0.100855
1500.00000000 -7070.00000000 -200.00000000 68 209 117 0.000000 0.000000 0.000000 0.000000 -60.708740 0.000000 160.000000 0.941712 0.029309 0.335142
1470.00000000 -7100.00000000 -340.00000000 68 209 117 0.000000 0.000000 0.000000 0.000000 -60.708740 0.000000 160.000000 0.913927 0.080121 -0.397891
1470.00000000 -7100.00000000 -330.00000000 68 209 117 0.000000 0.000000 0.000000 0.000000 -60.708740 0.000000 160.000000 0.888261 -0.405094 -0.216541
1470.00000000 -7100.00000000 -330.00000000 68 209 117 0.000000 0.000000 0.000000 0.000000 -60.708740 0.000000 160.000000 0.888261 -0.405094 -0.216541
1480.00000000 -7090.00000000 -340.00000000 68 209 117 0.000000 0.000000 0.000000 0.000000 -60.708740 0.000000 160.000000 0.856874 -0.494856 -0.144515
1450.00000000 -7090.00000000 -300.00000000 68 209 117 0.000000 0.000000 0.000000 0.000000 -60.708740 0.000000 160.000000 0.953754 -0.211198 -0.213888
1430.00000000 -7100.00000000 -350.00000000 68 209 117 0.000000 0.000000 0.000000 0.000000 -60.708740 0.000000 160.000000 0.741182 -0.657331 -0.136258
1350.00000000 -6960.00000000 -200.00000000 68 209 117 0.000000 0.000000 0.000000 0.000000 -60.708740 0.000000 160.000000 -0.189313 0.709541 0.678758
1370.00000000 -6960.00000000 -200.00000000 68 209 117 0.000000 0.000000 0.000000 0.000000 -60.708740 0.000000 160.000000 -0.020995 0.751630 0.659251
1350.00000000 -6960.00000000 -200.00000000 68 209 117 0.000000 0.000000 0.000000 0.000000 -60.708740 0.000000 160.000000 -0.189313 0.709541 0.678758
1350.00000000 -6960.00000000 -200.00000000 68 209 117 0.000000 0.000000 0.000000 0.000000 -60.708740 0.000000 160.000000 -0.189313 0.709541 0.678758
1360.00000000 -6950.00000000 -270.00000000 68 209 117 0.000000 0.000000 0.000000 0.000000 -60.708740 0.000000 160.000000 -0.281614 0.869197 0.406437
1350.00000000 -6970.00000000 -270.00000000 68 209 117 0.000000 0.000000 0.000000 0.000000 -60.708740 0.000000 160.000000 -0.034343 0.853084 0.520642
1420.00000000 -6960.00000000 -350.00000000 68 209 117 0.000000 0.000000 0.000000 0.000000 -60.708740 0.000000 160.000000 0.457965 0.880263 0.124121
1350.00000000 -7040.00000000 -250.00000000 68 209 117 0.000000 0.000000 0.000000 0.000000 -60.708740 0.000000 160.000000 0.056494 0.874962 0.480885
1360.00000000 -7050.00000000 -240.00000000 68 209 117 0.000000 0.000000 0.000000 0.000000 -60.708740 0.000000 160.000000 -0.029242 0.944658 0.326752
1360.00000000 -7100.00000000 -190.00000000 68 209 117 0.000000 0.000000 0.000000 0.000000 -60.708740 0.000000 160.000000 0.169004 0.735397 0.656224
1360.00000000 -7090.00000000 -190.00000000 68 209 117 0.000000 0.000000 0.000000 0.000000 -60.708740 0.000000 160.000000 0.215708 0.527795 0.821525
1510.00000000 -7020.00000000 -360.00000000 68 209 117 0.000000 0.000000 0.000000 0.000000 -60.708740 0.000000 160.000000 0.978231 0.079382 0.191738
1520.00000000 -6960.00000000 -410.00000000 68 209 117 0.000000 0.000000 0.000000 0.000000 -60.708740 0.000000 160.000000 0.992861 -0.091911 0.076025
1510.00000000 -6980.00000000 -370.00000000 68 209 117 0.000000 0.000000 0.000000 0.000000 -60.708740 0.000000 160.000000 0.783835 0.349265 0.513436
1510.00000000 -6980.00000000 -380.00000000 68 209 117 0.000000 0.000000 0.000000 0.000000 -60.708740 0.000000 160.000000 0.917775 0.384344 -0.099847
1510.00000000 -6990.00000000 -380.00000000 68 209 117 0.000000 0.000000 0.000000 0.000000 -60.708740 0.000000 160.000000 0.980569 0.176187 -0.086271
1510.00000000 -6950.00000000 -480.00000000 68 209 117 0.000000 0.000000 0.000000 0.000000 -60.708740 0.000000 160.000000 0.974208 -0.057306 0.218252
1520.00000000 -7070.00000000 -360.00000000 68 209 117 0.000000 0.000000 0.000000 0.000000 -60.708740 0.000000 160.000000 0.917166 -0.372729 -0.140995
1480.00000000 -6910.00000000 -390.00000000 68 209 117 0.000000 0.000000 0.000000 0.000000 -60.708740 0.000000 160.000000 0.862059 0.503909 0.054139
1480.00000000 -6910.00000000 -380.00000000 68 209 117 0.000000 0.000000 0.000000 0.000000 -60.708740 0.000000 160.000000 0.939180 0.293752 0.177906
1480.00000000 -6920.00000000 -360.00000000 68 209 117 0.000000 0.000000 0.000000 0.000000 -60.708740 0.000000 160.000000 0.723237 0.527947 0.445196
1480.00000000 -6910.00000000 -370.00000000 68 209 117 0.000000 0.000000 0.000000 0.000000 -60.708740 0.000000 160.000000 0.727163 0.332001 0.600841
1490.00000000 -6900.00000000 -400.00000000 68 209 117 0.000000 0.000000 0.000000 0.000000 -60.708740 0.000000 160.000000 0.526749 0.774820 0.349555
1430.00000000 -6860.00000000 -390.00000000 68 209 117 0.000000 0.000000 0.000000 0.000000 -60.708740 0.000000 160.000000 0.397468 0.855252 0.332512
1430.00000000 -6880.00000000 -430.00000000 68 209 117 0.000000 0.000000 0.000000 0.000000 -60.708740 0.000000 160.000000 0.367526 0.769053 0.522956
1430.00000000 -6880.00000000 -440.00000000 68 209 117 0.000000 0.000000 0.000000 0.000000 -60.708740 0.000000 160.000000 0.405024 0.824342 0.395494
1430.00000000 -6880.00000000 -430.00000000 68 209 117 0.000000 0.000000 0.000000 0.000000 -60.708740 0.000000 160.000000 0.367526 0.769053 0.522956
1430.00000000 -6900.00000000 -390.00000000 68 209 117 0.000000 0.000000 0.000000 0.000000 -60.708740 0.000000 160.000000 0.453740 0.880112 0.139723
1440.00000000 -6900.00000000 -360.00000000 68 209 117 0.000000 0.000000 0.000000 0.000000 -60.708740 0.000000 160.000000 0.815496 0.432484 0.384608
1440.00000000 -6910.00000000 -370.00000000 68 209 117 0.000000 0.000000 0.000000 0.000000 -60.708740 0.000000 160.000000 0.564617 0.810234 0.157254
1450.00000000 -6940.00000000 -430.00000000 68 209 117 0.000000 0.000000 0.000000 0.000000 -60.708740 0.000000 160.000000 0.925895 0.332985 0.178435
1460.00000000 -6930.00000000 -440.00000000 68 209 117 0.000000 0.000000 0.000000 0.000000 -60.708740 0.000000 160.000000 0.933659 0.129486 0.333937
1440.00000000 -6920.00000000 -440.00000000 68 209 117 0.000000 0.000000 0.000000 0.000000 -60.708740 0.000000 160.000000 0.540279 0.806549 0.239952
1480.00000000 -6860.00000000 -460.00000000 68 209 117 0.000000 0.000000 0.000000 0.000000 -60.708740 0.000000 160.000000 0.822682 0.309882 0.476621
1480.00000000 -6910.00000000 -470.00000000 68 209 117 0.000000 0.000000 0.000000 0.000000 -60.708740 0.000000 160.000000 0.943818 0.329768 0.021479
1440.00000000 -6890.00000000 -460.00000000 68 209 117 0.000000 0.000000 0.000000 0.000000 -60.708740 0.000000 160.000000 0.732693 0.565502 0.378640
1430.00000000 -6880.00000000 -450.00000000 68 209 117 0.000000 0.000000 0.000000 0.000000 -60.708740 0.000000 160.000000 0.582348 0.794111 0.173948
1440.00000000 -6880.00000000 -500.00000000 68 209 117 0.000000 0.000000 0.000000 0.000000 -60.708740 0.000000 160.000000 0.658593 0.581506 0.477605
1430.00000000 -6870.00000000 -490.00000000 68 209 117 0.000000 0.000000 0.000000 0.000000 -60.708740 0.000000 160.000000 0.786644 0.376362 0.489431
1440.00000000 -6890.00000000 -500.00000000 68 209 117 0.000000 0.000000 0.000000 0.000000 -60.708740 0.000000 160.000000 0.809358 0.402275 0.427918
1460.00000000 -6940.00000000 -450.00000000 68 209 117 0.000000 0.000000 0.000000 0.000000 -60.708740 0.000000 160.000000 0.983514 0.173561 0.050770
1450.00000000 -6910.00000000 -490.00000000 68 209 117 0.000000 0.000000 0.000000 0.000000 -60.708740 0.000000 160.000000 0.814728 0.562444 0.140982
1450.00000000 -6920.00000000 -520.00000000 68 209 117 0.000000 0.000000 0.000000 0.000000 -60.708740 0.000000 160.000000 0.873073 0.074037 0.481936
1450.00000000 -6910.00000000 -520.00000000 68 209 117 0.000000 0.000000 0.000000 0.000000 -60.708740 0.000000 160.000000 0.886174 0.274399 0.373363
1360.00000000 -6850.00000000 -360.00000000 68 209 117 0.000000 0.000000 0.000000 0.000000 -60.708740 0.000000 160.000000 0.190381 0.896678 0.399654
1420.00000000 -6850.00000000 -510.00000000 68 209 117 0.000000 0.000000 0.000000 0.000000 -60.708740 0.000000 160.000000 0.194756 0.834884 0.514820
1390.00000000 -6850.00000000 -500.00000000 68 209 117 0.000000 0.000000 0.000000 0.000000 -60.708740 0.000000 160.000000 0.257411 0.740648 0.620629
1350.00000000 -6830.00000000 -470.00000000 68 209 117 0.000000 0.000000 0.000000 0.000000 -60.708740 0.000000 160.000000 -0.283047 0.940268 0.189158
1350.00000000 -6830.00000000 -500.00000000 68 209 117 0.000000 0.000000 0.000000 0.000000 -60.708740 0.000000 160.000000 -0.158465 0.946724 0.280360
1350.00000000 -6830.00000000 -510.00000000 68 209 117 0.000000 0.000000 0.000000 0.000000 -60.708740 0.000000 160.000000 -0.004005 0.871747 0.489940
1380.00000000 -6840.00000000 -510.00000000 68 209 117 0.000000 0.000000 0.000000 0.000000 -60.708740 0.000000 160.000000 0.144964 0.910597 0.387039
1390.00000000 -6890.00000000 -380.00000000 68 209 117 0.000000 0.000000 0.000000 0.000000 -60.708740 0.000000 160.000000 0.605765 0.665841 0.435550
1390.00000000 -6890.00000000 -370.00000000 68 209 117 0.000000 0.000000 0.000000 0.000000 -60.708740 0.000000 160.000000 0.356165 0.897063 0.261582
1390.00000000 -6880.00000000 -410.00000000 68 209 117 0.000000 0.000000 0.000000 0.000000 -60.708740 0.000000 160.000000 0.537218 0.752759 0.380462
1400.00000000 -6890.00000000 -420.00000000 68 209 117 0.000000 0.000000 0.000000 0.000000 -60.708740 0.000000 160.000000 0.521590 0.723602 0.452044
1420.00000000 -6870.00000000 -440.00000000 68 209 117 0.000000 0.000000 0.000000 0.000000 -60.708740 0.000000 160.000000 0.471004 0.856234 0.212177
1400.00000000 -6900.00000000 -360.00000000 68 209 117 0.000000 0.000000 0.000000 0.000000 -60.708740 0.000000 160.000000 0.431099 0.878493 0.205920
1410.00000000 -6910.00000000 -360.00000000 68 209 117 0.000000 0.000000 0.000000 0.000000 -60.708740 0.000000 160.000000 0.054076 0.927209 0.370620
1410.00000000 -6900.00000000 -410.00000000 68 209 117 0.000000 0.000000 0.000000 0.000000 -60.708740 0.000000 160.000000 0.149332 0.731575 0.665205
1360.00000000 -6890.00000000 -380.00000000 68 209 117 0.000000 0.000000 0.000000 0.000000 -60.708740 0.000000 160.000000 -0.023912 0.947654 0.318402
1380.00000000 -6890.00000000 -380.00000000 68 209 117 0.000000 0.000000 0.000000 0.000000 -60.708740 0.000000 160.000000 0.122959 0.608872 0.783681
1370.00000000 -6890.00000000 -370.00000000 68 209 117 0.000000 0.000000 0.000000 0.000000 -60.708740 0.000000 160.000000 -0.137168 0.952184 0.273004
1360.00000000 -6890.00000000 -380.00000000 68 209 117 0.000000 0.000000 0.000000 0.000000 -60.708740 0.000000 160.000000 -0.023912 0.947654 0.318402
1380.00000000 -6880.00000000 -380.00000000 68 209 117 0.000000 0.000000 0.000000 0.000000 -60.708740 0.000000 160.000000 -0.070744 0.737759 0.671347
1360.00000000 -6890.00000000 -370.00000000 68 209 117 0.000000 0.000000 0.000000 0.000000 -60.708740 0.000000 160.000000 0.064897 0.958190 0.278677
1360.00000000 -6880.00000000 -440.00000000 68 209 117 0.000000 0.000000 0.000000 0.000000 -60.708740 0.000000 160.000000 -0.214976 0.910403 0.353485
1370.00000000 -6890.00000000 -440.00000000 68 209 117 0.000000 0.000000 0.000000 0.000000 -60.708740 0.000000 160.000000 -0.140404 0.959206 0.245378
1370.00000000 -6890.00000000 -430.00000000 68 209 117 0.000000 0.000000 0.000000 0.000000 -60.708740 0.000000 160.000000 -0.183414 0.917072 0.354032
1350.00000000 -6880.00000000 -440.00000000 68 209 117 0.000000 0.000000 0.000000 0.000000 -60.708740 0.000000 160.000000 -0.014859 0.860482 0.509265
1350.00000000 -6890.00000000 -440.00000000 68 209 117 0.000000 0.000000 0.000000 0.000000 -60.708740 0.000000 160.000000 0.077093 0.918357 0.388172
1360.00000000 -6880.00000000 -430.00000000 68 209 117 0.000000 0.000000 0.000000 0.000000 -60.708740 0.000000 160.000000 -0.107084 0.931223 0.348362
1350.00000000 -6900.00000000 -360.00000000 68 209 117 0.000000 0.000000 0.000000 0.000000 -60.708740 0.000000 160.000000 -0.239047 0.929314 0.281482
1350.00000000 -6910.00000000 -410.00000000 68 209 117 0.000000 0.000000 0.000000 0.000000 -60.708740 0.000000 160.000000 0.046805 0.978097 0.202820
1350.00000000 -6900.00000000 -430.00000000 68 209 117 0.000000 0.000000 0.000000 0.000000 -60.708740 0.000000 160.000000 -0.249693 0.771065 0.585758
1390.00000000 -6870.00000000 -480.00000000 68 209 117 0.000000 0.000000 0.000000 0.000000 -60.708740 0.000000 160.000000 0.173707 0.942395 0.285864
1390.00000000 -6870.00000000 -480.00000000 68 209 117 0.000000 0.000000 0.000000 0.000000 -60.708740 0.000000 160.000000 0.173707 0.942395 0.285864
1400.00000000 -6870.00000000 -480.00000000 68 209 117 0.000000 0.000000 0.000000 0.000000 -60.708740 0.000000 160.000000 0.392409 0.879538 0.269124
1410.00000000 -6880.00000000 -510.00000000 68 209 117 0.000000 0.000000 0.000000 0.000000 -60.708740 0.000000 160.000000 0.772387 0.273257 0.573367
1400.00000000 -6870.00000000 -490.00000000 68 209 117 0.000000 0.000000 0.000000 0.000000 -60.708740 0.000000 160.000000 0.210366 0.866825 0.452062
1400.00000000 -6870.00000000 -500.00000000 68 209 117 0.000000 0.000000 0.000000 0.000000 -60.708740 0.000000 160.000000 0.138899 0.784107 0.604883
1420.00000000 -6890.00000000 -520.00000000 68 209 117 0.000000 0.000000 0.000000 0.000000 -60.708740 0.000000 160.000000 0.826330 0.554263 0.099854
1410.00000000 -6880.00000000 -510.00000000 68 209 117 0.000000 0.000000 0.000000 0.000000 -60.708740 0.000000 160.000000 0.772387 0.273257 0.573367
1400.00000000 -6860.00000000 -500.00000000 68 209 117 0.000000 0.000000 0.000000 0.000000 -60.708740 0.000000 160.000000 0.111120 0.727463 0.677089
1410.00000000 -6860.00000000 -510.00000000 68 209 117 0.000000 0.000000 0.000000 0.000000 -60.708740 0.000000 160.000000 0.250809 0.616769 0.746117
1410.00000000 -6900.00000000 -460.00000000 68 209 117 0.000000 0.000000 0.000000 0.000000 -60.708740 0.000000 160.000000 0.494720 0.826601 0.268296
1420.00000000 -6900.00000000 -470.00000000 68 209 117 0.000000 0.000000 0.000000 0.000000 -60.708740 0.000000 160.000000 0.581438 0.777849 0.238499
1420.00000000 -6900.00000000 -520.00000000 68 209 117 0.000000 0.000000 0.000000 0.000000 -60.708740 0.000000 160.000000 0.739747 0.206261 0.640493
1360.00000000 -6890.00000000 -470.00000000 68 209 117 0.000000 0.000000 0.000000 0.000000 -60.708740 0.000000 160.000000 0.199719 0.874326 0.442341
1380.00000000 -6890.00000000 -480.00000000 68 209 117 0.000000 0.000000 0.000000 0.000000 -60.708740 0.000000 160.000000 0.358515 0.549940 0.754342
1350.00000000 -6870.00000000 -450.00000000 68 209 117 0.000000 0.000000 0.000000 0.000000 -60.708740 0.000000 160.000000 -0.355796 0.650926 0.670601
1370.00000000 -6890.00000000 -470.00000000 68 209 117 0.000000 0.000000 0.000000 0.000000 -60.708740 0.000000 160.000000 0.211384 0.859030 0.466245
1360.00000000 -6890.00000000 -470.00000000 68 209 117 0.000000 0.000000 0.000000 0.000000 -60.708740 0.000000 160.000000 0.199719 0.874326 0.442341
1370.00000000 -6870.00000000 -500.00000000 68 209 117 0.000000 0.000000 0.000000 0.000000 -60.708740 0.000000 160.000000 0.175387 0.961334 0.212311
1360.00000000 -6860.00000000 -490.00000000 68 209 117 0.000000 0.000000 0.000000 0.000000 -60.708740 0.000000 160.000000 0.046924 0.666891 0.743676
1350.00000000 -6880.00000000 -490.00000000 68 209 117 0.000000 0.000000 0.000000 0.000000 -60.708740 0.000000 160.000000 0.100299 0.812566 0.574175
1380.00000000 -6870.00000000 -510.00000000 68 209 117 0.000000 0.000000 0.000000 0.000000 -60.708740 0.000000 160.000000 0.215458 0.966334 0.140628
1360.00000000 -6860.00000000 -490.00000000 68 209 117 0.000000 0.000000 0.000000 0.000000 -60.708740 0.000000 160.000000 0.046924 0.666891 0.743676
1350.00000000 -6870.00000000 -500.00000000 68 209 117 0.000000 0.000000 0.000000 0.000000 -60.708740 0.000000 160.000000 0.112932 0.870580 0.478891
1360.00000000 -6880.00000000 -490.00000000 68 209 117 0.000000 0.000000 0.000000 0.000000 -60.708740 0.000000 160.000000 0.159392 0.739276 0.654267
1380.00000000 -6910.00000000 -460.00000000 68 209 117 0.000000 0.000000 0.000000 0.000000 -60.708740 0.000000 160.000000 0.025592 -0.882250 -0.470085
1380.00000000 -6900.00000000 -470.00000000 68 209 117 0.000000 0.000000 0.000000 0.000000 -60.708740 0.000000 160.000000 0.573366 0.546305 0.610576
1430.00000000 -6850.00000000 -530.00000000 68 209 117 0.000000 0.000000 0.000000 0.000000 -60.708740 0.000000 160.000000 0.654360 0.752586 0.073670
1480.00000000 -6940.00000000 -590.00000000 68 209 117 0.000000 0.000000 0.000000 0.000000 -60.708740 0.000000 160.000000 0.952974 -0.256003 0.162180
1440.00000000 -6880.00000000 -550.00000000 68 209 117 0.000000 0.000000 0.000000 0.000000 -60.708740 0.000000 160.000000 0.791072 0.611597 0.012425
1460.00000000 -6930.00000000 -560.00000000 68 209 117 0.000000 0.000000 0.000000 0.000000 -60.708740 0.000000 160.000000 0.951375 0.295434 -0.087199
1460.00000000 -6910.00000000 -540.00000000 68 209 117 0.000000 0.000000 0.000000 0.000000 -60.708740 0.000000 160.000000 0.894175 0.436625 0.099043
1450.00000000 -6920.00000000 -560.00000000 68 209 117 0.000000 0.000000 0.000000 0.000000 -60.708740 0.000000 160.000000 0.964935 -0.043354 0.258885
1400.00000000 -6870.00000000 -540.00000000 68 209 117 0.000000 0.000000 0.000000 0.000000 -60.708740 0.000000 160.000000 0.334043 0.672975 0.659939
1400.00000000 -6870.00000000 -540.00000000 68 209 117 0.000000 0.000000 0.000000 0.000000 -60.708740 0.000000 160.000000 0.334043 0.672975 0.659939
1390.00000000 -6880.00000000 -530.00000000 68 209 117 0.000000 0.000000 0.000000 0.000000 -60.708740 0.000000 160.000000 0.407276 0.905524 0.118964
1500.00000000 -6980.00000000 -370.00000000 68 209 117 0.000000 0.000000 0.000000 0.000000 -60.708740 0.000000 160.000000 0.962146 -0.033348 0.270488
1500.00000000 -6980.00000000 -370.00000000 68 209 117 0.000000 0.000000 0.000000 0.000000 -60.708740 0.000000 160.000000 0.962146 -0.033348 0.270488
1480.00000000 -6960.00000000 -410.00000000 68 209 117 0.000000 0.000000 0.000000 0.000000 -60.708740 0.000000 160.000000 0.836494 0.519255 0.175080
1500.00000000 -7020.00000000 -360.00000000 68 209 117 0.000000 0.000000 0.000000 0.000000 -60.708740 0.000000 160.000000 0.935275 0.222285 -0.275410
1500.00000000 -6990.00000000 -360.00000000 68 209 117 0.000000 0.000000 0.000000 0.000000 -60.708740 0.000000 160.000000 0.918920 0.032866 0.393072
1490.00000000 -7010.00000000 -410.00000000 68 209 117 0.000000 0.000000 0.000000 0.000000 -60.708740 0.000000 160.000000 0.953958 -0.119738 -0.275003
1500.00000000 -7000.00000000 -420.00000000 68 209 117 0.000000 0.000000 0.000000 0.000000 -60.708740 0.000000 160.000000 0.979126 0.149778 0.137399
1490.00000000 -7010.00000000 -400.00000000 68 209 117 0.000000 0.000000 0.000000 0.000000 -60.708740 0.000000 160.000000 0.986863 -0.142325 -0.076455
1490.00000000 -7000.00000000 -410.00000000 68 209 117 0.000000 0.000000 0.000000 0.000000 -60.708740 0.000000 160.000000 0.964299 0.170938 -0.202255
1490.00000000 -6990.00000000 -430.00000000 68 209 117 0.000000 0.000000 0.000000 0.000000 -60.708740 0.000000 160.000000 0.916472 0.252571 -0.310302
1480.00000000 -7020.00000000 -440.00000000 68 209 117 0.000000 0.000000 0.000000 0.000000 -60.708740 0.000000 160.000000 0.906238 -0.164122 -0.389611
1490.00000000 -7010.00000000 -420.00000000 68 209 117 0.000000 0.000000 0.000000 0.000000 -60.708740 0.000000 160.000000 0.940819 0.008816 -0.338795
1490.00000000 -7020.00000000 -420.00000000 68 209 117 0.000000 0.000000 0.000000 0.000000 -60.708740 0.000000 160.000000 0.945712 -0.212751 -0.245693
1460.00000000 -6950.00000000 -440.00000000 68 209 117 0.000000 0.000000 0.000000 0.000000 -60.708740 0.000000 160.000000 0.959144 0.151722 0.238796
1460.00000000 -6970.00000000 -440.00000000 68 209 117 0.000000 0.000000 0.000000 0.000000 -60.708740 0.000000 160.000000 0.868881 0.271431 0.413970
1500.00000000 -6970.00000000 -460.00000000 68 209 117 0.000000 0.000000 0.000000 0.000000 -60.708740 0.000000 160.000000 0.959019 0.226196 -0.170639
1470.00000000 -6960.00000000 -520.00000000 68 209 117 0.000000 0.000000 0.000000 0.000000 -60.708740 0.000000 160.000000 0.988541 -0.148678 0.026104
1470.00000000 -6970.00000000 -490.00000000 68 209 117 0.000000 0.000000 0.000000 0.000000 -60.708740 0.000000 160.000000 0.908738 -0.006500 -0.417317
1470.00000000 -6970.00000000 -520.00000000 68 209 117 0.000000 0.000000 0.000000 0.000000 -60.708740 0.000000 160.000000 0.979515 0.029468 0.199203
1480.00000000 -6950.00000000 -520.00000000 68 209 117 0.000000 0.000000 0.000000 0.000000 -60.708740 0.000000 160.000000 0.950897 -0.052331 -0.305053
1470.00000000 -6970.00000000 -500.00000000 68 209 117 0.000000 0.000000 0.000000 0.000000 -60.708740 0.000000 160.000000 0.968892 -0.121271 -0.215735
1470.00000000 -6960.00000000 -500.00000000 68 209 117 0.000000 0.000000 0.000000 0.000000 -60.708740 0.000000 160.000000 0.986224 -0.164939 -0.012513
1470.00000000 -6950.00000000 -490.00000000 68 209 117 0.000000 0.000000 0.000000 0.000000 -60.708740 0.000000 160.000000 0.903203 0.244465 0.352791
1470.00000000 -6990.00000000 -460.00000000 68 209 117 0.000000 0.000000 0.000000 0.000000 -60.708740 0.000000 160.000000 0.955230 0.294206 -0.031298
1480.00000000 -7010.00000000 -470.00000000 68 209 117 0.000000 0.000000 0.000000 0.000000 -60.708740 0.000000 160.000000 0.910780 -0.402502 0.092040
1490.00000000 -7000.00000000 -500.00000000 68 209 117 0.000000 0.000000 0.000000 0.000000 -60.708740 0.000000 160.000000 0.987064 0.088658 0.133579
1500.00000000 -7010.00000000 -500.00000000 68 209 117 0.000000 0.000000 0.000000 0.000000 -60.708740 0.000000 160.000000 0.888566 -0.447792 -0.099665
1460.00000000 -6960.00000000 -470.00000000 68 209 117 0.000000 0.000000 0.000000 0.000000 -60.708740 0.000000 160.000000 0.970219 0.200163 -0.136417
1460.00000000 -6960.00000000 -450.00000000 68 209 117 0.000000 0.000000 0.000000 0.000000 -60.708740 0.000000 160.000000 0.989949 0.127624 0.060938
1430.00000000 -7020.00000000 -520.00000000 68 209 117 0.000000 0.000000 0.000000 0.000000 -60.708740 0.000000 160.000000 0.911473 -0.239099 -0.334738
1460.00000000 -7000.00000000 -500.00000000 68 209 117 0.000000 0.000000 0.000000 0.000000 -60.708740 0.000000 160.000000 0.968098 -0.027938 -0.249009
1440.00000000 -7020.00000000 -500.00000000 68 209 117 0.000000 0.000000 0.000000 0.000000 -60.708740 0.000000 160.000000 0.862545 -0.282426 -0.419823
1430.00000000 -7020.00000000 -520.00000000 68 209 117 0.000000 0.000000 0.000000 0.000000 -60.708740 0.000000 160.000000 0.911473 -0.239099 -0.334738
1490.00000000 -7060.00000000 -370.00000000 68 209 117 0.000000 0.000000 0.000000 0.000000 -60.708740 0.000000 160.000000 0.913239 -0.268600 -0.306349
1480.00000000 -7050.00000000 -370.00000000 68 209 117 0.000000 0.000000 0.000000 0.000000 -60.708740 0.000000 160.000000 0.980921 0.183698 0.063634
1500.00000000 -7030.00000000 -380.00000000 68 209 117 0.000000 0.000000 0.000000 0.000000 -60.708740 0.000000 160.000000 0.936372 0.310285 -0.164106
1490.00000000 -7060.00000000 -370.00000000 68 209 117 0.000000 0.000000 0.000000 0.000000 -60.708740 0.000000 160.000000 0.913239 -0.268600 -0.306349
