//X Y Z R G B PointSourceId ScanDirectionFlag NumberOfReturns ReturnNumber GpsTime Intensity Classification Nx Ny Nz
-15940.00000000 9180.00000000 -1610.00000000 226 162 61 0.000000 0.000000 0.000000 0.000000 -60.708740 0.000000 61.000000 0.956656 0.287877 -0.043999
-15940.00000000 9160.00000000 -1590.00000000 226 162 61 0.000000 0.000000 0.000000 0.000000 -60.708740 0.000000 61.000000 0.983659 0.070346 0.165732
-15940.00000000 9180.00000000 -1580.00000000 226 162 61 0.000000 0.000000 0.000000 0.000000 -60.708740 0.000000 61.000000 0.946821 0.058127 -0.316468
-15970.00000000 9190.00000000 -1550.00000000 226 162 61 0.000000 0.000000 0.000000 0.000000 -60.708740 0.000000 61.000000 0.925073 0.378142 0.035328
-16000.00000000 9200.00000000 -1560.00000000 226 162 61 0.000000 0.000000 0.000000 0.000000 -60.708740 0.000000 61.000000 0.945392 0.253843 -0.204446
-15970.00000000 9210.00000000 -1560.00000000 226 162 61 0.000000 0.000000 0.000000 0.000000 -60.708740 0.000000 61.000000 0.989259 0.051703 -0.136727
-15970.00000000 9200.00000000 -1560.00000000 226 162 61 0.000000 0.000000 0.000000 0.000000 -60.708740 0.000000 61.000000 0.869476 0.493559 -0.020283
-15970.00000000 9220.00000000 -1540.00000000 226 162 61 0.000000 0.000000 0.000000 0.000000 -60.708740 0.000000 61.000000 0.783532 0.620355 -0.035168
-15970.00000000 9200.00000000 -1550.00000000 226 162 61 0.000000 0.000000 0.000000 0.000000 -60.708740 0.000000 61.000000 0.759802 0.618013 -0.201895
-16000.00000000 9180.00000000 -1560.00000000 226 162 61 0.000000 0.000000 0.000000 0.000000 -60.708740 0.000000 61.000000 0.780467 0.555667 -0.286541
-15950.00000000 9140.00000000 -1560.00000000 226 162 61 0.000000 0.000000 0.000000 0.000000 -60.708740 0.000000 61.000000 0.825156 0.532505 0.188564
-15960.00000000 9120.00000000 -1600.00000000 226 162 61 0.000000 0.000000 0.000000 0.000000 -60.708740 0.000000 61.000000 0.987290 0.158732 -0.007880
-15930.00000000 9120.00000000 -1620.00000000 226 162 61 0.000000 0.000000 0.000000 0.000000 -60.708740 0.000000 61.000000 0.878379 0.186858 -0.439925
-15930.00000000 9130.00000000 -1620.00000000 226 162 61 0.000000 0.000000 0.000000 0.000000 -60.708740 0.000000 61.000000 0.927525 0.070732 -0.367006
-15930.00000000 9140.00000000 -1620.00000000 226 162 61 0.000000 0.000000 0.000000 0.000000 -60.708740 0.000000 61.000000 0.908247 0.385188 -0.163456
-15960.00000000 9120.00000000 -1600.00000000 226 162 61 0.000000 0.000000 0.000000 0.000000 -60.708740 0.000000 61.000000 0.987290 0.158732 -0.007880
-15930.00000000 9140.00000000 -1620.00000000 226 162 61 0.000000 0.000000 0.000000 0.000000 -60.708740 0.000000 61.000000 0.908247 0.385188 -0.163456
-15930.00000000 9120.00000000 -1620.00000000 226 162 61 0.000000 0.000000 0.000000 0.000000 -60.708740 0.000000 61.000000 0.878379 0.186858 -0.439925
-15930.00000000 9110.00000000 -1650.00000000 226 162 61 0.000000 0.000000 0.000000 0.000000 -60.708740 0.000000 61.000000 0.968187 0.147864 0.201866
-15940.00000000 9140.00000000 -1630.00000000 226 162 61 0.000000 0.000000 0.000000 0.000000 -60.708740 0.000000 61.000000 0.997670 -0.066371 -0.015803
-15930.00000000 9100.00000000 -1650.00000000 226 162 61 0.000000 0.000000 0.000000 0.000000 -60.708740 0.000000 61.000000 0.953517 0.106238 0.281989
-16080.00000000 9390.00000000 -1380.00000000 226 162 61 0.000000 0.000000 0.000000 0.000000 -60.708740 0.000000 61.000000 0.368500 0.895352 -0.250106
-16080.00000000 9350.00000000 -1370.00000000 226 162 61 0.000000 0.000000 0.000000 0.000000 -60.708740 0.000000 61.000000 0.645226 0.763307 -0.032332
-16070.00000000 9330.00000000 -1440.00000000 226 162 61 0.000000 0.000000 0.000000 0.000000 -60.708740 0.000000 61.000000 0.545155 0.701867 -0.458464
-16090.00000000 9320.00000000 -1450.00000000 226 162 61 0.000000 0.000000 0.000000 0.000000 -60.708740 0.000000 61.000000 0.381952 0.890231 -0.248195
-16090.00000000 9320.00000000 -1460.00000000 226 162 61 0.000000 0.000000 0.000000 0.000000 -60.708740 0.000000 61.000000 0.390932 0.780241 -0.488259
-16090.00000000 9320.00000000 -1460.00000000 226 162 61 0.000000 0.000000 0.000000 0.000000 -60.708740 0.000000 61.000000 0.390932 0.780241 -0.488259
-16020.00000000 9280.00000000 -1400.00000000 226 162 61 0.000000 0.000000 0.000000 0.000000 -60.708740 0.000000 61.000000 0.852031 0.521226 0.048648
-16050.00000000 9290.00000000 -1430.00000000 226 162 61 0.000000 0.000000 0.000000 0.000000 -60.708740 0.000000 61.000000 0.721990 0.587742 -0.365088
-16010.00000000 9250.00000000 -1380.00000000 226 162 61 0.000000 0.000000 0.000000 0.000000 -60.708740 0.000000 61.000000 0.700268 0.706165 0.104672
-16040.00000000 9240.00000000 -1370.00000000 226 162 61 0.000000 0.000000 0.000000 0.000000 -60.708740 0.000000 61.000000 0.922881 0.344149 0.172777
-16010.00000000 9260.00000000 -1390.00000000 226 162 61 0.000000 0.000000 0.000000 0.000000 -60.708740 0.000000 61.000000 0.855576 0.479302 0.195603
-16010.00000000 9270.00000000 -1370.00000000 226 162 61 0.000000 0.000000 0.000000 0.000000 -60.708740 0.000000 61.000000 0.594451 0.776646 -0.208444
-16010.00000000 9270.00000000 -1390.00000000 226 162 61 0.000000 0.000000 0.000000 0.000000 -60.708740 0.000000 61.000000 0.926548 0.367123 0.082031
-16010.00000000 9270.00000000 -1370.00000000 226 162 61 0.000000 0.000000 0.000000 0.000000 -60.708740 0.000000 61.000000 0.594451 0.776646 -0.208444
-16060.00000000 9290.00000000 -1400.00000000 226 162 61 0.000000 0.000000 0.000000 0.000000 -60.708740 0.000000 61.000000 0.466790 0.883227 0.044910
-16070.00000000 9310.00000000 -1450.00000000 226 162 61 0.000000 0.000000 0.000000 0.000000 -60.708740 0.000000 61.000000 0.659758 0.732895 -0.166082
-16090.00000000 9250.00000000 -1400.00000000 226 162 61 0.000000 0.000000 0.000000 0.000000 -60.708740 0.000000 61.000000 0.592395 0.796262 0.122615
-16090.00000000 9260.00000000 -1440.00000000 226 162 61 0.000000 0.000000 0.000000 0.000000 -60.708740 0.000000 61.000000 0.407820 0.836111 -0.366881
-16090.00000000 9260.00000000 -1430.00000000 226 162 61 0.000000 0.000000 0.000000 0.000000 -60.708740 0.000000 61.000000 0.425913 0.862513 -0.273256
-16010.00000000 9260.00000000 -1490.00000000 226 162 61 0.000000 0.000000 0.000000 0.000000 -60.708740 0.000000 61.000000 0.602929 0.781239 0.161688
-16070.00000000 9250.00000000 -1490.00000000 226 162 61 0.000000 0.000000 0.000000 0.000000 -60.708740 0.000000 61.000000 0.924214 0.381769 0.008998
-16070.00000000 9240.00000000 -1460.00000000 226 162 61 0.000000 0.000000 0.000000 0.000000 -60.708740 0.000000 61.000000 0.439383 0.810062 -0.388255
-16070.00000000 9230.00000000 -1520.00000000 226 162 61 0.000000 0.000000 0.000000 0.000000 -60.708740 0.000000 61.000000 0.870302 0.456576 -0.184699
-16110.00000000 9380.00000000 -1410.00000000 226 162 61 0.000000 0.000000 0.000000 0.000000 -60.708740 0.000000 61.000000 0.677938 0.608321 -0.412730
-16110.00000000 9380.00000000 -1420.00000000 226 162 61 0.000000 0.000000 0.000000 0.000000 -60.708740 0.000000 61.000000 0.591778 0.756778 -0.277644
-16100.00000000 9330.00000000 -1390.00000000 226 162 61 0.000000 0.000000 0.000000 0.000000 -60.708740 0.000000 61.000000 0.580215 0.800965 0.147664
-16100.00000000 9320.00000000 -1430.00000000 226 162 61 0.000000 0.000000 0.000000 0.000000 -60.708740 0.000000 61.000000 0.493986 0.869469 0.001331
-16110.00000000 9350.00000000 -1450.00000000 226 162 61 0.000000 0.000000 0.000000 0.000000 -60.708740 0.000000 61.000000 0.547928 0.649084 -0.527697
-16120.00000000 9350.00000000 -1440.00000000 226 162 61 0.000000 0.000000 0.000000 0.000000 -60.708740 0.000000 61.000000 0.665939 0.632890 -0.394937
-16110.00000000 9270.00000000 -1420.00000000 226 162 61 0.000000 0.000000 0.000000 0.000000 -60.708740 0.000000 61.000000 0.478515 0.874720 -0.076730
-16100.00000000 9260.00000000 -1450.00000000 226 162 61 0.000000 0.000000 0.000000 0.000000 -60.708740 0.000000 61.000000 0.650408 0.616968 -0.443080
-16110.00000000 9260.00000000 -1460.00000000 226 162 61 0.000000 0.000000 0.000000 0.000000 -60.708740 0.000000 61.000000 0.755546 0.583032 -0.298704
-16130.00000000 9240.00000000 -1480.00000000 226 162 61 0.000000 0.000000 0.000000 0.000000 -60.708740 0.000000 61.000000 0.694117 0.697182 0.179275
-16130.00000000 9250.00000000 -1480.00000000 226 162 61 0.000000 0.000000 0.000000 0.000000 -60.708740 0.000000 61.000000 0.514230 0.794430 -0.323185
-16130.00000000 9250.00000000 -1490.00000000 226 162 61 0.000000 0.000000 0.000000 0.000000 -60.708740 0.000000 61.000000 0.368021 0.924805 0.096419
-16110.00000000 9260.00000000 -1470.00000000 226 162 61 0.000000 0.000000 0.000000 0.000000 -60.708740 0.000000 61.000000 0.259470 0.921765 -0.288141
-16120.00000000 9230.00000000 -1470.00000000 226 162 61 0.000000 0.000000 0.000000 0.000000 -60.708740 0.000000 61.000000 0.809742 0.492818 -0.318509
-16110.00000000 9230.00000000 -1530.00000000 226 162 61 0.000000 0.000000 0.000000 0.000000 -60.708740 0.000000 61.000000 0.314636 0.902548 -0.293956
-16110.00000000 9230.00000000 -1500.00000000 226 162 61 0.000000 0.000000 0.000000 0.000000 -60.708740 0.000000 61.000000 0.875688 0.371826 -0.308084
-16010.00000000 9230.00000000 -1630.00000000 226 162 61 0.000000 0.000000 0.000000 0.000000 -60.708740 0.000000 61.000000 0.860786 0.508951 0.004029
-16110.00000000 9230.00000000 -1560.00000000 226 162 61 0.000000 0.000000 0.000000 0.000000 -60.708740 0.000000 61.000000 0.768932 0.605592 0.204946
-16110.00000000 9230.00000000 -1570.00000000 226 162 61 0.000000 0.000000 0.000000 0.000000 -60.708740 0.000000 61.000000 0.802739 0.596202 0.012392
-16130.00000000 9260.00000000 -1540.00000000 226 162 61 0.000000 0.000000 0.000000 0.000000 -60.708740 0.000000 61.000000 0.614981 0.774364 -0.148858
-16130.00000000 9230.00000000 -1620.00000000 226 162 61 0.000000 0.000000 0.000000 0.000000 -60.708740 0.000000 61.000000 0.647070 0.733967 0.206380
-16130.00000000 9250.00000000 -1610.00000000 226 162 61 0.000000 0.000000 0.000000 0.000000 -60.708740 0.000000 61.000000 0.518557 0.848939 -0.101988
-16140.00000000 9250.00000000 -1630.00000000 226 162 61 0.000000 0.000000 0.000000 0.000000 -60.708740 0.000000 61.000000 0.688668 0.712674 0.133533
-16140.00000000 9250.00000000 -1640.00000000 226 162 61 0.000000 0.000000 0.000000 0.000000 -60.708740 0.000000 61.000000 0.789761 0.613339 0.009648
-16010.00000000 9200.00000000 -1390.00000000 226 162 61 0.000000 0.000000 0.000000 0.000000 -60.708740 0.000000 61.000000 0.998649 0.011384 0.050709
-16070.00000000 9220.00000000 -1390.00000000 226 162 61 0.000000 0.000000 0.000000 0.000000 -60.708740 0.000000 61.000000 0.965594 0.211264 -0.151644
-16080.00000000 9190.00000000 -1410.00000000 226 162 61 0.000000 0.000000 0.000000 0.000000 -60.708740 0.000000 61.000000 0.868534 0.320148 -0.378356
-16080.00000000 9180.00000000 -1430.00000000 226 162 61 0.000000 0.000000 0.000000 0.000000 -60.708740 0.000000 61.000000 0.986472 0.071893 -0.147323
-16080.00000000 9180.00000000 -1430.00000000 226 162 61 0.000000 0.000000 0.000000 0.000000 -60.708740 0.000000 61.000000 0.986472 0.071893 -0.147323
-16030.00000000 9190.00000000 -1480.00000000 226 162 61 0.000000 0.000000 0.000000 0.000000 -60.708740 0.000000 61.000000 0.813433 0.571877 -0.106226
-16050.00000000 9190.00000000 -1510.00000000 226 162 61 0.000000 0.000000 0.000000 0.000000 -60.708740 0.000000 61.000000 0.772798 0.608179 0.181387
-16090.00000000 9190.00000000 -1510.00000000 226 162 61 0.000000 0.000000 0.000000 0.000000 -60.708740 0.000000 61.000000 0.957688 0.274546 -0.086359
-16110.00000000 9200.00000000 -1470.00000000 226 162 61 0.000000 0.000000 0.000000 0.000000 -60.708740 0.000000 61.000000 0.831715 0.537302 -0.139846
-16100.00000000 9200.00000000 -1460.00000000 226 162 61 0.000000 0.000000 0.000000 0.000000 -60.708740 0.000000 61.000000 0.911545 0.307737 -0.272734
-16120.00000000 9200.00000000 -1480.00000000 226 162 61 0.000000 0.000000 0.000000 0.000000 -60.708740 0.000000 61.000000 0.739360 0.670180 -0.064856
-16100.00000000 9190.00000000 -1480.00000000 226 162 61 0.000000 0.000000 0.000000 0.000000 -60.708740 0.000000 61.000000 0.671844 0.715090 0.193059
-16110.00000000 9200.00000000 -1460.00000000 226 162 61 0.000000 0.000000 0.000000 0.000000 -60.708740 0.000000 61.000000 0.945210 0.271424 -0.181404
-16100.00000000 9210.00000000 -1460.00000000 226 162 61 0.000000 0.000000 0.000000 0.000000 -60.708740 0.000000 61.000000 0.826120 0.417024 -0.378969
-16110.00000000 9200.00000000 -1480.00000000 226 162 61 0.000000 0.000000 0.000000 0.000000 -60.708740 0.000000 61.000000 0.797294 0.600467 0.061330
-16110.00000000 9110.00000000 -1480.00000000 226 162 61 0.000000 0.000000 0.000000 0.000000 -60.708740 0.000000 61.000000 0.932879 0.320201 0.164952
-16110.00000000 9070.00000000 -1480.00000000 226 162 61 0.000000 0.000000 0.000000 0.000000 -60.708740 0.000000 61.000000 0.997249 0.067338 -0.030997
-16110.00000000 9080.00000000 -1530.00000000 226 162 61 0.000000 0.000000 0.000000 0.000000 -60.708740 0.000000 61.000000 0.952723 -0.013628 0.303533
-16090.00000000 9190.00000000 -1600.00000000 226 162 61 0.000000 0.000000 0.000000 0.000000 -60.708740 0.000000 61.000000 0.663255 0.742318 -0.095169
-16080.00000000 9070.00000000 -1570.00000000 226 162 61 0.000000 0.000000 0.000000 0.000000 -60.708740 0.000000 61.000000 0.964872 0.257714 -0.051045
-16090.00000000 9070.00000000 -1580.00000000 226 162 61 0.000000 0.000000 0.000000 0.000000 -60.708740 0.000000 61.000000 0.938485 0.252401 -0.235667
-16100.00000000 9200.00000000 -1540.00000000 226 162 61 0.000000 0.000000 0.000000 0.000000 -60.708740 0.000000 61.000000 0.654240 0.667358 -0.355815
-16120.00000000 9200.00000000 -1550.00000000 226 162 61 0.000000 0.000000 0.000000 0.000000 -60.708740 0.000000 61.000000 0.849417 0.489875 -0.196250
-16110.00000000 9220.00000000 -1540.00000000 226 162 61 0.000000 0.000000 0.000000 0.000000 -60.708740 0.000000 61.000000 0.611022 0.611022 -0.503294
-16110.00000000 9190.00000000 -1580.00000000 226 162 61 0.000000 0.000000 0.000000 0.000000 -60.708740 0.000000 61.000000 0.793512 0.605463 -0.061259
-16110.00000000 9210.00000000 -1600.00000000 226 162 61 0.000000 0.000000 0.000000 0.000000 -60.708740 0.000000 61.000000 0.619479 0.669303 -0.410218
-16100.00000000 9190.00000000 -1600.00000000 226 162 61 0.000000 0.000000 0.000000 0.000000 -60.708740 0.000000 61.000000 0.746340 0.653979 0.123645
-16100.00000000 9160.00000000 -1580.00000000 226 162 61 0.000000 0.000000 0.000000 0.000000 -60.708740 0.000000 61.000000 0.828927 0.314961 -0.462256
-16100.00000000 9190.00000000 -1630.00000000 226 162 61 0.000000 0.000000 0.000000 0.000000 -60.708740 0.000000 61.000000 0.774783 0.583826 -0.242609
-16110.00000000 9120.00000000 -1550.00000000 226 162 61 0.000000 0.000000 0.000000 0.000000 -60.708740 0.000000 61.000000 0.879856 0.389543 0.272229
-16120.00000000 9120.00000000 -1570.00000000 226 162 61 0.000000 0.000000 0.000000 0.000000 -60.708740 0.000000 61.000000 0.943027 0.322234 -0.082860
-16110.00000000 9120.00000000 -1550.00000000 226 162 61 0.000000 0.000000 0.000000 0.000000 -60.708740 0.000000 61.000000 0.879856 0.389543 0.272229
-16120.00000000 9120.00000000 -1550.00000000 226 162 61 0.000000 0.000000 0.000000 0.000000 -60.708740 0.000000 61.000000 0.982277 -0.008042 -0.187264
-16110.00000000 9080.00000000 -1580.00000000 226 162 61 0.000000 0.000000 0.000000 0.000000 -60.708740 0.000000 61.000000 0.966149 -0.254768 -0.040615
-16100.00000000 9090.00000000 -1590.00000000 226 162 61 0.000000 0.000000 0.000000 0.000000 -60.708740 0.000000 61.000000 0.986234 -0.120447 0.113292
-16100.00000000 9080.00000000 -1590.00000000 226 162 61 0.000000 0.000000 0.000000 0.000000 -60.708740 0.000000 61.000000 0.926799 0.302310 -0.222829
-16020.00000000 9040.00000000 -1520.00000000 226 162 61 0.000000 0.000000 0.000000 0.000000 -60.708740 0.000000 61.000000 0.940726 -0.231371 0.247997
-16020.00000000 9030.00000000 -1540.00000000 226 162 61 0.000000 0.000000 0.000000 0.000000 -60.708740 0.000000 61.000000 0.913131 -0.265664 0.309216
-16080.00000000 9030.00000000 -1570.00000000 226 162 61 0.000000 0.000000 0.000000 0.000000 -60.708740 0.000000 61.000000 0.977728 -0.155689 -0.140743
-16090.00000000 9030.00000000 -1540.00000000 226 162 61 0.000000 0.000000 0.000000 0.000000 -60.708740 0.000000 61.000000 0.895978 -0.295688 -0.331348
-16080.00000000 9020.00000000 -1580.00000000 226 162 61 0.000000 0.000000 0.000000 0.000000 -60.708740 0.000000 61.000000 0.996081 -0.083458 -0.029265
-16070.00000000 9040.00000000 -1600.00000000 226 162 61 0.000000 0.000000 0.000000 0.000000 -60.708740 0.000000 61.000000 0.923558 -0.311648 0.223419
-16080.00000000 9030.00000000 -1590.00000000 226 162 61 0.000000 0.000000 0.000000 0.000000 -60.708740 0.000000 61.000000 0.966511 -0.243203 -0.081908
-16070.00000000 9040.00000000 -1610.00000000 226 162 61 0.000000 0.000000 0.000000 0.000000 -60.708740 0.000000 61.000000 0.918779 -0.076902 0.387209
-16100.00000000 9030.00000000 -1580.00000000 226 162 61 0.000000 0.000000 0.000000 0.000000 -60.708740 0.000000 61.000000 0.935020 0.003786 -0.354576
-16000.00000000 9330.00000000 60.00000000 226 162 61 0.000000 0.000000 0.000000 0.000000 -60.708740 0.000000 61.000000 0.925371 -0.308457 0.220326
-15990.00000000 9310.00000000 60.00000000 226 162 61 0.000000 0.000000 0.000000 0.000000 -60.708740 0.000000 61.000000 0.900361 -0.394540 0.183541
-15960.00000000 9270.00000000 60.00000000 226 162 61 0.000000 0.000000 0.000000 0.000000 -60.708740 0.000000 61.000000 0.825784 -0.550034 0.124674
-16020.00000000 9340.00000000 70.00000000 226 162 61 0.000000 0.000000 0.000000 0.000000 -60.708740 0.000000 61.000000 0.990760 0.014488 0.134850
-16020.00000000 9340.00000000 80.00000000 226 162 61 0.000000 0.000000 0.000000 0.000000 -60.708740 0.000000 61.000000 0.943393 -0.053058 -0.327405
-16010.00000000 9330.00000000 20.00000000 226 162 61 0.000000 0.000000 0.000000 0.000000 -60.708740 0.000000 61.000000 0.827479 -0.553097 0.096756
-16040.00000000 9260.00000000 90.00000000 226 162 61 0.000000 0.000000 0.000000 0.000000 -60.708740 0.000000 61.000000 0.728777 -0.626716 -0.275883
-16010.00000000 9300.00000000 70.00000000 226 162 61 0.000000 0.000000 0.000000 0.000000 -60.708740 0.000000 61.000000 0.923993 -0.229218 -0.306099
-16030.00000000 9270.00000000 70.00000000 226 162 61 0.000000 0.000000 0.000000 0.000000 -60.708740 0.000000 61.000000 0.744209 -0.603973 -0.285254
-16020.00000000 9310.00000000 60.00000000 226 162 61 0.000000 0.000000 0.000000 0.000000 -60.708740 0.000000 61.000000 -0.755431 0.604030 0.253913
-16050.00000000 9300.00000000 20.00000000 226 162 61 0.000000 0.000000 0.000000 0.000000 -60.708740 0.000000 61.000000 0.856292 -0.422765 0.296704
-16050.00000000 9300.00000000 10.00000000 226 162 61 0.000000 0.000000 0.000000 0.000000 -60.708740 0.000000 61.000000 0.929935 -0.153834 0.334000
-16050.00000000 9270.00000000 -10.00000000 226 162 61 0.000000 0.000000 0.000000 0.000000 -60.708740 0.000000 61.000000 0.779638 -0.619936 -0.088562
-16090.00000000 9240.00000000 0.00000000 226 162 61 0.000000 0.000000 0.000000 0.000000 -60.708740 0.000000 61.000000 -0.588914 0.807852 -0.023557
-16070.00000000 9260.00000000 0.00000000 226 162 61 0.000000 0.000000 0.000000 0.000000 -60.708740 0.000000 61.000000 0.730283 -0.682071 0.038287
-16040.00000000 9170.00000000 50.00000000 226 162 61 0.000000 0.000000 0.000000 0.000000 -60.708740 0.000000 61.000000 -0.355433 0.926322 -0.124882
-16040.00000000 9190.00000000 60.00000000 226 162 61 0.000000 0.000000 0.000000 0.000000 -60.708740 0.000000 61.000000 -0.653348 0.750249 -0.101306
-16140.00000000 9220.00000000 70.00000000 226 162 61 0.000000 0.000000 0.000000 0.000000 -60.708740 0.000000 61.000000 -0.295312 0.803817 -0.516401
-16110.00000000 9220.00000000 30.00000000 226 162 61 0.000000 0.000000 0.000000 0.000000 -60.708740 0.000000 61.000000 0.715937 -0.689257 0.111170
-16130.00000000 9180.00000000 30.00000000 226 162 61 0.000000 0.000000 0.000000 0.000000 -60.708740 0.000000 61.000000 -0.311788 0.884153 -0.347938
-16120.00000000 9180.00000000 40.00000000 226 162 61 0.000000 0.000000 0.000000 0.000000 -60.708740 0.000000 61.000000 -0.294106 0.952281 0.081624
-16190.00000000 9140.00000000 50.00000000 226 162 61 0.000000 0.000000 0.000000 0.000000 -60.708740 0.000000 61.000000 0.267398 0.917827 -0.293415
-16260.00000000 9110.00000000 20.00000000 226 162 61 0.000000 0.000000 0.000000 0.000000 -60.708740 0.000000 61.000000 0.411432 0.858307 -0.306648
-16220.00000000 9090.00000000 50.00000000 226 162 61 0.000000 0.000000 0.000000 0.000000 -60.708740 0.000000 61.000000 0.350547 0.923153 -0.157816
-16220.00000000 9090.00000000 40.00000000 226 162 61 0.000000 0.000000 0.000000 0.000000 -60.708740 0.000000 61.000000 0.330275 0.936904 -0.114585
-16250.00000000 9090.00000000 -10.00000000 226 162 61 0.000000 0.000000 0.000000 0.000000 -60.708740 0.000000 61.000000 0.271370 0.955694 -0.114054
-16250.00000000 9070.00000000 20.00000000 226 162 61 0.000000 0.000000 0.000000 0.000000 -60.708740 0.000000 61.000000 -0.132889 0.913435 -0.384678
-16240.00000000 9070.00000000 20.00000000 226 162 61 0.000000 0.000000 0.000000 0.000000 -60.708740 0.000000 61.000000 -0.018366 0.961130 -0.275483
-16240.00000000 9070.00000000 10.00000000 226 162 61 0.000000 0.000000 0.000000 0.000000 -60.708740 0.000000 61.000000 0.048017 0.997692 0.048017
-16250.00000000 9040.00000000 70.00000000 226 162 61 0.000000 0.000000 0.000000 0.000000 -60.708740 0.000000 61.000000 -0.107754 0.926142 -0.361455
-16260.00000000 9020.00000000 30.00000000 226 162 61 0.000000 0.000000 0.000000 0.000000 -60.708740 0.000000 61.000000 0.471004 0.856234 -0.212177
-16250.00000000 9020.00000000 0.00000000 226 162 61 0.000000 0.000000 0.000000 0.000000 -60.708740 0.000000 61.000000 0.025472 0.999525 0.017321
-16250.00000000 9020.00000000 10.00000000 226 162 61 0.000000 0.000000 0.000000 0.000000 -60.708740 0.000000 61.000000 0.028010 0.991558 -0.126606
-16290.00000000 9000.00000000 70.00000000 226 162 61 0.000000 0.000000 0.000000 0.000000 -60.708740 0.000000 61.000000 0.164165 0.976216 0.141608
-16270.00000000 9030.00000000 40.00000000 226 162 61 0.000000 0.000000 0.000000 0.000000 -60.708740 0.000000 61.000000 0.001083 0.993508 -0.113760
-16290.00000000 9040.00000000 60.00000000 226 162 61 0.000000 0.000000 0.000000 0.000000 -60.708740 0.000000 61.000000 0.454392 0.756227 -0.470796
-16280.00000000 9060.00000000 10.00000000 226 162 61 0.000000 0.000000 0.000000 0.000000 -60.708740 0.000000 61.000000 0.243178 0.881706 -0.404302
-16310.00000000 9060.00000000 30.00000000 226 162 61 0.000000 0.000000 0.000000 0.000000 -60.708740 0.000000 61.000000 0.082725 0.944110 -0.319080
-16330.00000000 9020.00000000 50.00000000 226 162 61 0.000000 0.000000 0.000000 0.000000 -60.708740 0.000000 61.000000 0.573514 0.800499 0.174021
-16310.00000000 9060.00000000 30.00000000 226 162 61 0.000000 0.000000 0.000000 0.000000 -60.708740 0.000000 61.000000 0.082725 0.944110 -0.319080
-16330.00000000 9020.00000000 50.00000000 226 162 61 0.000000 0.000000 0.000000 0.000000 -60.708740 0.000000 61.000000 0.573514 0.800499 0.174021
-16310.00000000 9060.00000000 20.00000000 226 162 61 0.000000 0.000000 0.000000 0.000000 -60.708740 0.000000 61.000000 0.136372 0.879960 -0.455053
-16320.00000000 9010.00000000 40.00000000 226 162 61 0.000000 0.000000 0.000000 0.000000 -60.708740 0.000000 61.000000 0.489460 0.867486 -0.088864
-16310.00000000 9000.00000000 30.00000000 226 162 61 0.000000 0.000000 0.000000 0.000000 -60.708740 0.000000 61.000000 -0.030837 0.987915 -0.151899
-16020.00000000 9310.00000000 -30.00000000 226 162 61 0.000000 0.000000 0.000000 0.000000 -60.708740 0.000000 61.000000 0.861692 -0.504844 0.051176
-16040.00000000 9290.00000000 -120.00000000 226 162 61 0.000000 0.000000 0.000000 0.000000 -60.708740 0.000000 61.000000 0.873356 -0.452142 -0.181151
-16430.00000000 9490.00000000 -90.00000000 226 162 61 0.000000 0.000000 0.000000 0.000000 -60.708740 0.000000 61.000000 0.950879 -0.309560 0.001233
-16430.00000000 9500.00000000 -90.00000000 226 162 61 0.000000 0.000000 0.000000 0.000000 -60.708740 0.000000 61.000000 0.970983 -0.159912 0.177822
-16440.00000000 9480.00000000 -170.00000000 226 162 61 0.000000 0.000000 0.000000 0.000000 -60.708740 0.000000 61.000000 0.846335 -0.509573 -0.155088
-16430.00000000 9460.00000000 -110.00000000 226 162 61 0.000000 0.000000 0.000000 0.000000 -60.708740 0.000000 61.000000 0.905847 -0.303906 0.295098
-16210.00000000 9110.00000000 -100.00000000 226 162 61 0.000000 0.000000 0.000000 0.000000 -60.708740 0.000000 61.000000 -0.066122 0.994073 -0.086295
-16260.00000000 9110.00000000 -80.00000000 226 162 61 0.000000 0.000000 0.000000 0.000000 -60.708740 0.000000 61.000000 0.355855 0.827164 -0.434933
-16250.00000000 9090.00000000 -90.00000000 226 162 61 0.000000 0.000000 0.000000 0.000000 -60.708740 0.000000 61.000000 0.237821 0.967643 -0.084307
-16250.00000000 9100.00000000 -100.00000000 226 162 61 0.000000 0.000000 0.000000 0.000000 -60.708740 0.000000 61.000000 -0.065960 0.997778 -0.009423
-16260.00000000 9110.00000000 -140.00000000 226 162 61 0.000000 0.000000 0.000000 0.000000 -60.708740 0.000000 61.000000 0.562429 0.708428 -0.426384
-16250.00000000 9110.00000000 -160.00000000 226 162 61 0.000000 0.000000 0.000000 0.000000 -60.708740 0.000000 61.000000 0.250414 0.942167 -0.222744
-16250.00000000 9090.00000000 -110.00000000 226 162 61 0.000000 0.000000 0.000000 0.000000 -60.708740 0.000000 61.000000 0.005846 0.976308 -0.216308
-16280.00000000 9110.00000000 -60.00000000 226 162 61 0.000000 0.000000 0.000000 0.000000 -60.708740 0.000000 61.000000 0.136727 0.989259 -0.051703
-16270.00000000 9120.00000000 -80.00000000 226 162 61 0.000000 0.000000 0.000000 0.000000 -60.708740 0.000000 61.000000 0.620637 0.746336 -0.240399
-16290.00000000 9110.00000000 -70.00000000 226 162 61 0.000000 0.000000 0.000000 0.000000 -60.708740 0.000000 61.000000 0.019678 0.982721 -0.184043
-16270.00000000 9120.00000000 -80.00000000 226 162 61 0.000000 0.000000 0.000000 0.000000 -60.708740 0.000000 61.000000 0.620637 0.746336 -0.240399
-16310.00000000 9110.00000000 -80.00000000 226 162 61 0.000000 0.000000 0.000000 0.000000 -60.708740 0.000000 61.000000 0.711344 0.606686 -0.354854
-16270.00000000 9130.00000000 -110.00000000 226 162 61 0.000000 0.000000 0.000000 0.000000 -60.708740 0.000000 61.000000 0.270488 0.962146 0.033348
-16270.00000000 9100.00000000 -170.00000000 226 162 61 0.000000 0.000000 0.000000 0.000000 -60.708740 0.000000 61.000000 0.342116 0.842012 -0.417100
-16270.00000000 9100.00000000 -150.00000000 226 162 61 0.000000 0.000000 0.000000 0.000000 -60.708740 0.000000 61.000000 0.373795 0.903217 0.210896
-16320.00000000 9070.00000000 -130.00000000 226 162 61 0.000000 0.000000 0.000000 0.000000 -60.708740 0.000000 61.000000 0.416102 0.894116 -0.165577
-16310.00000000 9070.00000000 -120.00000000 226 162 61 0.000000 0.000000 0.000000 0.000000 -60.708740 0.000000 61.000000 0.197435 0.954939 -0.221610
-16250.00000000 9100.00000000 -200.00000000 226 162 61 0.000000 0.000000 0.000000 0.000000 -60.708740 0.000000 61.000000 0.283213 0.954049 -0.097885
-16260.00000000 9090.00000000 -230.00000000 226 162 61 0.000000 0.000000 0.000000 0.000000 -60.708740 0.000000 61.000000 0.365380 0.927503 -0.078965
-16260.00000000 9090.00000000 -230.00000000 226 162 61 0.000000 0.000000 0.000000 0.000000 -60.708740 0.000000 61.000000 0.365380 0.927503 -0.078965
-16270.00000000 9070.00000000 -190.00000000 226 162 61 0.000000 0.000000 0.000000 0.000000 -60.708740 0.000000 61.000000 0.330858 0.921575 -0.203059
-16270.00000000 9090.00000000 -230.00000000 226 162 61 0.000000 0.000000 0.000000 0.000000 -60.708740 0.000000 61.000000 0.012996 0.974666 -0.223287
-16310.00000000 9100.00000000 -240.00000000 226 162 61 0.000000 0.000000 0.000000 0.000000 -60.708740 0.000000 61.000000 0.449150 0.860492 -0.240454
-16290.00000000 9090.00000000 -340.00000000 226 162 61 0.000000 0.000000 0.000000 0.000000 -60.708740 0.000000 61.000000 0.222351 0.890875 -0.396108
-16290.00000000 9080.00000000 -340.00000000 226 162 61 0.000000 0.000000 0.000000 0.000000 -60.708740 0.000000 61.000000 0.198308 0.938842 -0.281514
-16280.00000000 9070.00000000 -340.00000000 226 162 61 0.000000 0.000000 0.000000 0.000000 -60.708740 0.000000 61.000000 0.619203 0.745250 -0.247366
-16290.00000000 9070.00000000 -320.00000000 226 162 61 0.000000 0.000000 0.000000 0.000000 -60.708740 0.000000 61.000000 0.189993 0.851229 -0.489195
-16420.00000000 9330.00000000 -170.00000000 226 162 61 0.000000 0.000000 0.000000 0.000000 -60.708740 0.000000 61.000000 0.896232 0.307662 -0.319552
-16400.00000000 9290.00000000 -120.00000000 226 162 61 0.000000 0.000000 0.000000 0.000000 -60.708740 0.000000 61.000000 0.955216 0.073280 -0.286693
-16480.00000000 9320.00000000 -140.00000000 226 162 61 0.000000 0.000000 0.000000 0.000000 -60.708740 0.000000 61.000000 0.982290 0.161091 0.095685
-16470.00000000 9240.00000000 -80.00000000 226 162 61 0.000000 0.000000 0.000000 0.000000 -60.708740 0.000000 61.000000 0.949905 0.312517 -0.003706
-16480.00000000 9260.00000000 -100.00000000 226 162 61 0.000000 0.000000 0.000000 0.000000 -60.708740 0.000000 61.000000 0.906103 0.106845 -0.409342
-16440.00000000 9280.00000000 -160.00000000 226 162 61 0.000000 0.000000 0.000000 0.000000 -60.708740 0.000000 61.000000 0.850221 0.478721 -0.218974
-16500.00000000 9280.00000000 -120.00000000 226 162 61 0.000000 0.000000 0.000000 0.000000 -60.708740 0.000000 61.000000 0.982570 -0.139673 -0.122669
-16500.00000000 9300.00000000 -120.00000000 226 162 61 0.000000 0.000000 0.000000 0.000000 -60.708740 0.000000 61.000000 0.992361 0.014350 0.122527
-16490.00000000 9310.00000000 -150.00000000 226 162 61 0.000000 0.000000 0.000000 0.000000 -60.708740 0.000000 61.000000 0.979646 0.008115 0.200567
-16480.00000000 9230.00000000 -110.00000000 226 162 61 0.000000 0.000000 0.000000 0.000000 -60.708740 0.000000 61.000000 0.987164 0.124134 -0.100490
-16490.00000000 9230.00000000 -130.00000000 226 162 61 0.000000 0.000000 0.000000 0.000000 -60.708740 0.000000 61.000000 0.981238 0.145777 -0.126177
-16440.00000000 9330.00000000 -210.00000000 226 162 61 0.000000 0.000000 0.000000 0.000000 -60.708740 0.000000 61.000000 0.998239 0.059086 0.005183
-16450.00000000 9280.00000000 -210.00000000 226 162 61 0.000000 0.000000 0.000000 0.000000 -60.708740 0.000000 61.000000 0.912758 -0.066064 -0.403123
-16440.00000000 9310.00000000 -240.00000000 226 162 61 0.000000 0.000000 0.000000 0.000000 -60.708740 0.000000 61.000000 0.937401 0.151900 -0.313379
-16460.00000000 9260.00000000 -250.00000000 226 162 61 0.000000 0.000000 0.000000 0.000000 -60.708740 0.000000 61.000000 0.981256 0.188202 -0.041428
-16470.00000000 9270.00000000 -240.00000000 226 162 61 0.000000 0.000000 0.000000 0.000000 -60.708740 0.000000 61.000000 0.815504 0.537040 -0.215734
-16500.00000000 9290.00000000 -270.00000000 226 162 61 0.000000 0.000000 0.000000 0.000000 -60.708740 0.000000 61.000000 0.932520 0.255350 -0.255350
-16490.00000000 9260.00000000 -190.00000000 226 162 61 0.000000 0.000000 0.000000 0.000000 -60.708740 0.000000 61.000000 0.978745 -0.186951 -0.084311
-16490.00000000 9270.00000000 -200.00000000 226 162 61 0.000000 0.000000 0.000000 0.000000 -60.708740 0.000000 61.000000 0.991850 0.116755 -0.051009
-16510.00000000 9230.00000000 -240.00000000 226 162 61 0.000000 0.000000 0.000000 0.000000 -60.708740 0.000000 61.000000 0.994521 -0.103256 -0.016304
-16510.00000000 9260.00000000 -270.00000000 226 162 61 0.000000 0.000000 0.000000 0.000000 -60.708740 0.000000 61.000000 0.978190 0.180873 0.102125
-16510.00000000 9260.00000000 -290.00000000 226 162 61 0.000000 0.000000 0.000000 0.000000 -60.708740 0.000000 61.000000 0.930844 -0.165083 -0.326003
-16510.00000000 9270.00000000 -280.00000000 226 162 61 0.000000 0.000000 0.000000 0.000000 -60.708740 0.000000 61.000000 0.966060 0.025583 0.257048
-16350.00000000 9130.00000000 -50.00000000 226 162 61 0.000000 0.000000 0.000000 0.000000 -60.708740 0.000000 61.000000 0.481826 0.867287 0.125131
-16470.00000000 9200.00000000 -100.00000000 226 162 61 0.000000 0.000000 0.000000 0.000000 -60.708740 0.000000 61.000000 0.844149 0.371175 -0.386836
-16470.00000000 9200.00000000 -80.00000000 226 162 61 0.000000 0.000000 0.000000 0.000000 -60.708740 0.000000 61.000000 0.979207 0.179705 0.094131
-16490.00000000 9210.00000000 -110.00000000 226 162 61 0.000000 0.000000 0.000000 0.000000 -60.708740 0.000000 61.000000 0.952734 0.036595 -0.301594
-16470.00000000 9200.00000000 -110.00000000 226 162 61 0.000000 0.000000 0.000000 0.000000 -60.708740 0.000000 61.000000 0.702421 0.708215 -0.070966
-16470.00000000 9200.00000000 -110.00000000 226 162 61 0.000000 0.000000 0.000000 0.000000 -60.708740 0.000000 61.000000 0.702421 0.708215 -0.070966
-16490.00000000 9210.00000000 -150.00000000 226 162 61 0.000000 0.000000 0.000000 0.000000 -60.708740 0.000000 61.000000 0.865531 0.452946 -0.213767
-16480.00000000 9220.00000000 -220.00000000 226 162 61 0.000000 0.000000 0.000000 0.000000 -60.708740 0.000000 61.000000 0.752667 0.649562 -0.107524
-16260.00000000 9070.00000000 -490.00000000 226 162 61 0.000000 0.000000 0.000000 0.000000 -60.708740 0.000000 61.000000 0.098854 0.989704 0.103506
-16260.00000000 9070.00000000 -480.00000000 226 162 61 0.000000 0.000000 0.000000 0.000000 -60.708740 0.000000 61.000000 0.164048 0.967494 -0.192465
-16250.00000000 9070.00000000 -500.00000000 226 162 61 0.000000 0.000000 0.000000 0.000000 -60.708740 0.000000 61.000000 -0.082211 0.990000 0.114632
-16290.00000000 9080.00000000 -360.00000000 226 162 61 0.000000 0.000000 0.000000 0.000000 -60.708740 0.000000 61.000000 0.478685 0.875980 0.059318
-16280.00000000 9090.00000000 -380.00000000 226 162 61 0.000000 0.000000 0.000000 0.000000 -60.708740 0.000000 61.000000 0.273493 0.951222 0.142750
-16270.00000000 9090.00000000 -390.00000000 226 162 61 0.000000 0.000000 0.000000 0.000000 -60.708740 0.000000 61.000000 0.086375 0.970155 -0.226578
-16280.00000000 9100.00000000 -420.00000000 226 162 61 0.000000 0.000000 0.000000 0.000000 -60.708740 0.000000 61.000000 0.457381 0.862276 0.217444
-16300.00000000 9080.00000000 -430.00000000 226 162 61 0.000000 0.000000 0.000000 0.000000 -60.708740 0.000000 61.000000 0.555026 0.799300 -0.230359
-16250.00000000 9080.00000000 -540.00000000 226 162 61 0.000000 0.000000 0.000000 0.000000 -60.708740 0.000000 61.000000 -0.056048 0.887206 -0.457957
-16220.00000000 9070.00000000 -670.00000000 226 162 61 0.000000 0.000000 0.000000 0.000000 -60.708740 0.000000 61.000000 0.208775 0.958767 0.192817
-16260.00000000 9080.00000000 -670.00000000 226 162 61 0.000000 0.000000 0.000000 0.000000 -60.708740 0.000000 61.000000 0.335170 0.940805 0.050470
-16200.00000000 9090.00000000 -690.00000000 226 162 61 0.000000 0.000000 0.000000 0.000000 -60.708740 0.000000 61.000000 -0.431890 0.901849 0.011815
-16290.00000000 9070.00000000 -540.00000000 226 162 61 0.000000 0.000000 0.000000 0.000000 -60.708740 0.000000 61.000000 0.172064 0.866204 -0.469132
-16500.00000000 9250.00000000 -430.00000000 226 162 61 0.000000 0.000000 0.000000 0.000000 -60.708740 0.000000 61.000000 0.907957 0.197132 -0.369802
-16510.00000000 9250.00000000 -400.00000000 226 162 61 0.000000 0.000000 0.000000 0.000000 -60.708740 0.000000 61.000000 0.911802 -0.139088 -0.386357
-16470.00000000 9230.00000000 -450.00000000 226 162 61 0.000000 0.000000 0.000000 0.000000 -60.708740 0.000000 61.000000 0.981953 0.187538 -0.024461
-16510.00000000 9230.00000000 -490.00000000 226 162 61 0.000000 0.000000 0.000000 0.000000 -60.708740 0.000000 61.000000 0.940003 0.194626 0.280206
-16500.00000000 9240.00000000 -520.00000000 226 162 61 0.000000 0.000000 0.000000 0.000000 -60.708740 0.000000 61.000000 0.977241 -0.207439 0.044366
-16510.00000000 9240.00000000 -490.00000000 226 162 61 0.000000 0.000000 0.000000 0.000000 -60.708740 0.000000 61.000000 0.924886 0.059713 -0.375527
-16510.00000000 9230.00000000 -500.00000000 226 162 61 0.000000 0.000000 0.000000 0.000000 -60.708740 0.000000 61.000000 0.846060 0.490141 -0.209630
-16460.00000000 9280.00000000 -600.00000000 226 162 61 0.000000 0.000000 0.000000 0.000000 -60.708740 0.000000 61.000000 0.953957 -0.288646 0.081546
-16480.00000000 9250.00000000 -560.00000000 226 162 61 0.000000 0.000000 0.000000 0.000000 -60.708740 0.000000 61.000000 0.929721 -0.353213 0.104205
-16490.00000000 9240.00000000 -550.00000000 226 162 61 0.000000 0.000000 0.000000 0.000000 -60.708740 0.000000 61.000000 0.987312 -0.093187 0.128575
-16500.00000000 9250.00000000 -600.00000000 226 162 61 0.000000 0.000000 0.000000 0.000000 -60.708740 0.000000 61.000000 0.934901 0.256502 -0.245289
-16500.00000000 9250.00000000 -590.00000000 226 162 61 0.000000 0.000000 0.000000 0.000000 -60.708740 0.000000 61.000000 0.914192 0.065973 -0.399875
-16510.00000000 9260.00000000 -570.00000000 226 162 61 0.000000 0.000000 0.000000 0.000000 -60.708740 0.000000 61.000000 0.940762 -0.234151 0.245235
-16460.00000000 9270.00000000 -610.00000000 226 162 61 0.000000 0.000000 0.000000 0.000000 -60.708740 0.000000 61.000000 0.925063 0.172660 -0.338301
-16500.00000000 9220.00000000 -520.00000000 226 162 61 0.000000 0.000000 0.000000 0.000000 -60.708740 0.000000 61.000000 0.965170 0.243524 0.095624
-16490.00000000 9210.00000000 -550.00000000 226 162 61 0.000000 0.000000 0.000000 0.000000 -60.708740 0.000000 61.000000 0.994170 0.038705 0.100633
-16500.00000000 9190.00000000 -660.00000000 226 162 61 0.000000 0.000000 0.000000 0.000000 -60.708740 0.000000 61.000000 0.939687 0.160034 -0.302287
-16510.00000000 9190.00000000 -690.00000000 226 162 61 0.000000 0.000000 0.000000 0.000000 -60.708740 0.000000 61.000000 0.922783 0.253229 0.290426
-16490.00000000 9200.00000000 -650.00000000 226 162 61 0.000000 0.000000 0.000000 0.000000 -60.708740 0.000000 61.000000 0.953642 0.060002 -0.294901
-16510.00000000 9200.00000000 -690.00000000 226 162 61 0.000000 0.000000 0.000000 0.000000 -60.708740 0.000000 61.000000 0.918458 0.395465 0.006441
-16510.00000000 9200.00000000 -690.00000000 226 162 61 0.000000 0.000000 0.000000 0.000000 -60.708740 0.000000 61.000000 0.918458 0.395465 0.006441
-16000.00000000 9470.00000000 -1030.00000000 226 162 61 0.000000 0.000000 0.000000 0.000000 -60.708740 0.000000 61.000000 0.822423 0.465671 -0.326759
-16070.00000000 9400.00000000 -1000.00000000 226 162 61 0.000000 0.000000 0.000000 0.000000 -60.708740 0.000000 61.000000 0.289232 0.919499 -0.266209
-16090.00000000 9410.00000000 -990.00000000 226 162 61 0.000000 0.000000 0.000000 0.000000 -60.708740 0.000000 61.000000 0.496300 0.740329 -0.453431
-16030.00000000 9490.00000000 -1070.00000000 226 162 61 0.000000 0.000000 0.000000 0.000000 -60.708740 0.000000 61.000000 0.791716 0.553417 -0.258679
-16050.00000000 9510.00000000 -1070.00000000 226 162 61 0.000000 0.000000 0.000000 0.000000 -60.708740 0.000000 61.000000 0.469254 0.851947 -0.232349
-16050.00000000 9510.00000000 -1050.00000000 226 162 61 0.000000 0.000000 0.000000 0.000000 -60.708740 0.000000 61.000000 0.363698 0.802700 -0.472648
-16010.00000000 9490.00000000 -1060.00000000 226 162 61 0.000000 0.000000 0.000000 0.000000 -60.708740 0.000000 61.000000 0.694619 0.568022 -0.441425
-16050.00000000 9500.00000000 -1140.00000000 226 162 61 0.000000 0.000000 0.000000 0.000000 -60.708740 0.000000 61.000000 0.606538 0.743447 -0.281778
-16050.00000000 9500.00000000 -1140.00000000 226 162 61 0.000000 0.000000 0.000000 0.000000 -60.708740 0.000000 61.000000 0.606538 0.743447 -0.281778
-16050.00000000 9490.00000000 -1150.00000000 226 162 61 0.000000 0.000000 0.000000 0.000000 -60.708740 0.000000 61.000000 0.453061 0.743021 -0.492601
-16030.00000000 9490.00000000 -1130.00000000 226 162 61 0.000000 0.000000 0.000000 0.000000 -60.708740 0.000000 61.000000 0.714003 0.690252 -0.117269
-16050.00000000 9490.00000000 -1160.00000000 226 162 61 0.000000 0.000000 0.000000 0.000000 -60.708740 0.000000 61.000000 0.323415 0.902312 -0.285018
-16030.00000000 9520.00000000 -1190.00000000 226 162 61 0.000000 0.000000 0.000000 0.000000 -60.708740 0.000000 61.000000 0.421018 0.906706 0.025076
-16040.00000000 9460.00000000 -1110.00000000 226 162 61 0.000000 0.000000 0.000000 0.000000 -60.708740 0.000000 61.000000 0.704956 0.695937 0.136782
-16010.00000000 9400.00000000 -1070.00000000 226 162 61 0.000000 0.000000 0.000000 0.000000 -60.708740 0.000000 61.000000 0.854943 0.497128 0.148112
-16010.00000000 9400.00000000 -1070.00000000 226 162 61 0.000000 0.000000 0.000000 0.000000 -60.708740 0.000000 61.000000 0.854943 0.497128 0.148112
-16020.00000000 9410.00000000 -1080.00000000 226 162 61 0.000000 0.000000 0.000000 0.000000 -60.708740 0.000000 61.000000 0.758260 0.586579 -0.284546
-16030.00000000 9410.00000000 -1090.00000000 226 162 61 0.000000 0.000000 0.000000 0.000000 -60.708740 0.000000 61.000000 0.864625 0.437612 -0.246819
-16050.00000000 9520.00000000 -1240.00000000 226 162 61 0.000000 0.000000 0.000000 0.000000 -60.708740 0.000000 61.000000 0.638117 0.753311 -0.159150
-16050.00000000 9470.00000000 -1200.00000000 226 162 61 0.000000 0.000000 0.000000 0.000000 -60.708740 0.000000 61.000000 0.693485 0.719117 -0.044144
-16120.00000000 9400.00000000 -1330.00000000 226 162 61 0.000000 0.000000 0.000000 0.000000 -60.708740 0.000000 61.000000 0.345010 0.858657 -0.379047
-16050.00000000 9360.00000000 -930.00000000 226 162 61 0.000000 0.000000 0.000000 0.000000 -60.708740 0.000000 61.000000 0.609410 0.792650 -0.018046
-16040.00000000 9350.00000000 -930.00000000 226 162 61 0.000000 0.000000 0.000000 0.000000 -60.708740 0.000000 61.000000 0.947080 0.282368 -0.152668
-16040.00000000 9350.00000000 -930.00000000 226 162 61 0.000000 0.000000 0.000000 0.000000 -60.708740 0.000000 61.000000 0.947080 0.282368 -0.152668
-16090.00000000 9370.00000000 -940.00000000 226 162 61 0.000000 0.000000 0.000000 0.000000 -60.708740 0.000000 61.000000 0.694805 0.712432 0.098418
-16080.00000000 9350.00000000 -940.00000000 226 162 61 0.000000 0.000000 0.000000 0.000000 -60.708740 0.000000 61.000000 0.859711 0.509813 -0.031436
-16090.00000000 9330.00000000 -930.00000000 226 162 61 0.000000 0.000000 0.000000 0.000000 -60.708740 0.000000 61.000000 0.671795 0.694030 -0.258871
-16050.00000000 9360.00000000 -960.00000000 226 162 61 0.000000 0.000000 0.000000 0.000000 -60.708740 0.000000 61.000000 0.928107 0.371502 -0.024594
-16030.00000000 9370.00000000 -970.00000000 226 162 61 0.000000 0.000000 0.000000 0.000000 -60.708740 0.000000 61.000000 0.521435 0.835193 0.174808
-16050.00000000 9390.00000000 -1000.00000000 226 162 61 0.000000 0.000000 0.000000 0.000000 -60.708740 0.000000 61.000000 0.689932 0.702171 -0.175925
-16050.00000000 9370.00000000 -1020.00000000 226 162 61 0.000000 0.000000 0.000000 0.000000 -60.708740 0.000000 61.000000 0.719041 0.686559 -0.107782
-16050.00000000 9370.00000000 -1020.00000000 226 162 61 0.000000 0.000000 0.000000 0.000000 -60.708740 0.000000 61.000000 0.719041 0.686559 -0.107782
-16050.00000000 9390.00000000 -1000.00000000 226 162 61 0.000000 0.000000 0.000000 0.000000 -60.708740 0.000000 61.000000 0.689932 0.702171 -0.175925
-16050.00000000 9370.00000000 -1030.00000000 226 162 61 0.000000 0.000000 0.000000 0.000000 -60.708740 0.000000 61.000000 0.905558 0.393783 -0.157797
-16040.00000000 9360.00000000 -1010.00000000 226 162 61 0.000000 0.000000 0.000000 0.000000 -60.708740 0.000000 61.000000 0.575962 0.805157 0.141386
-16050.00000000 9320.00000000 -1010.00000000 226 162 61 0.000000 0.000000 0.000000 0.000000 -60.708740 0.000000 61.000000 0.881059 0.472990 -0.003975
-16090.00000000 9330.00000000 -990.00000000 226 162 61 0.000000 0.000000 0.000000 0.000000 -60.708740 0.000000 61.000000 0.754025 0.635687 0.165370
-16070.00000000 9300.00000000 -940.00000000 226 162 61 0.000000 0.000000 0.000000 0.000000 -60.708740 0.000000 61.000000 0.708772 0.671386 0.216526
-16070.00000000 9300.00000000 -930.00000000 226 162 61 0.000000 0.000000 0.000000 0.000000 -60.708740 0.000000 61.000000 0.599574 0.781723 -0.171524
-16040.00000000 9280.00000000 -950.00000000 226 162 61 0.000000 0.000000 0.000000 0.000000 -60.708740 0.000000 61.000000 0.814759 0.571634 0.096961
-16050.00000000 9290.00000000 -950.00000000 226 162 61 0.000000 0.000000 0.000000 0.000000 -60.708740 0.000000 61.000000 0.879031 0.344629 -0.329447
-16040.00000000 9300.00000000 -1010.00000000 226 162 61 0.000000 0.000000 0.000000 0.000000 -60.708740 0.000000 61.000000 0.657856 0.731462 0.179415
-16030.00000000 9270.00000000 -950.00000000 226 162 61 0.000000 0.000000 0.000000 0.000000 -60.708740 0.000000 61.000000 0.893566 0.433373 0.117166
-16080.00000000 9310.00000000 -1030.00000000 226 162 61 0.000000 0.000000 0.000000 0.000000 -60.708740 0.000000 61.000000 0.899144 0.432517 -0.066856
-15990.00000000 9380.00000000 -1120.00000000 226 162 61 0.000000 0.000000 0.000000 0.000000 -60.708740 0.000000 61.000000 0.770025 0.531107 -0.353534
-16000.00000000 9300.00000000 -1190.00000000 226 162 61 0.000000 0.000000 0.000000 0.000000 -60.708740 0.000000 61.000000 0.923328 0.179027 -0.339728
-16000.00000000 9390.00000000 -1060.00000000 226 162 61 0.000000 0.000000 0.000000 0.000000 -60.708740 0.000000 61.000000 0.567118 0.745866 -0.349371
-16000.00000000 9280.00000000 -1200.00000000 226 162 61 0.000000 0.000000 0.000000 0.000000 -60.708740 0.000000 61.000000 0.622628 0.760310 -0.185106
-16000.00000000 9280.00000000 -1200.00000000 226 162 61 0.000000 0.000000 0.000000 0.000000 -60.708740 0.000000 61.000000 0.622628 0.760310 -0.185106
-16000.00000000 9280.00000000 -1280.00000000 226 162 61 0.000000 0.000000 0.000000 0.000000 -60.708740 0.000000 61.000000 0.945136 0.297119 -0.135788
-16000.00000000 9240.00000000 -1210.00000000 226 162 61 0.000000 0.000000 0.000000 0.000000 -60.708740 0.000000 61.000000 0.917618 0.396984 0.019524
-16000.00000000 9270.00000000 -1250.00000000 226 162 61 0.000000 0.000000 0.000000 0.000000 -60.708740 0.000000 61.000000 0.864118 0.440382 0.243648
-15990.00000000 9230.00000000 -1280.00000000 226 162 61 0.000000 0.000000 0.000000 0.000000 -60.708740 0.000000 61.000000 0.972415 0.146180 -0.181772
-15990.00000000 9240.00000000 -1280.00000000 226 162 61 0.000000 0.000000 0.000000 0.000000 -60.708740 0.000000 61.000000 0.895712 0.150000 -0.418570
-15990.00000000 9250.00000000 -1270.00000000 226 162 61 0.000000 0.000000 0.000000 0.000000 -60.708740 0.000000 61.000000 0.807122 0.455505 -0.375592
-16000.00000000 9290.00000000 -1300.00000000 226 162 61 0.000000 0.000000 0.000000 0.000000 -60.708740 0.000000 61.000000 0.584343 0.808981 -0.063979
-15990.00000000 9250.00000000 -1320.00000000 226 162 61 0.000000 0.000000 0.000000 0.000000 -60.708740 0.000000 61.000000 0.874670 0.360516 -0.324008
-15990.00000000 9250.00000000 -1290.00000000 226 162 61 0.000000 0.000000 0.000000 0.000000 -60.708740 0.000000 61.000000 0.970757 0.238156 -0.030223
-16000.00000000 9260.00000000 -1300.00000000 226 162 61 0.000000 0.000000 0.000000 0.000000 -60.708740 0.000000 61.000000 0.986197 0.136477 -0.093754
-16000.00000000 9270.00000000 -1340.00000000 226 162 61 0.000000 0.000000 0.000000 0.000000 -60.708740 0.000000 61.000000 0.949651 0.313249 0.006191
-16000.00000000 9260.00000000 -1360.00000000 226 162 61 0.000000 0.000000 0.000000 0.000000 -60.708740 0.000000 61.000000 0.811545 0.541542 -0.219378
-15980.00000000 9230.00000000 -1350.00000000 226 162 61 0.000000 0.000000 0.000000 0.000000 -60.708740 0.000000 61.000000 0.674976 0.674976 -0.298020
-16000.00000000 9190.00000000 -1240.00000000 226 162 61 0.000000 0.000000 0.000000 0.000000 -60.708740 0.000000 61.000000 0.997999 0.063217 0.001036
-15990.00000000 9210.00000000 -1310.00000000 226 162 61 0.000000 0.000000 0.000000 0.000000 -60.708740 0.000000 61.000000 0.999336 0.023623 0.027731
-15990.00000000 9210.00000000 -1320.00000000 226 162 61 0.000000 0.000000 0.000000 0.000000 -60.708740 0.000000 61.000000 0.895595 0.438855 -0.072913
-16050.00000000 9360.00000000 -1050.00000000 226 162 61 0.000000 0.000000 0.000000 0.000000 -60.708740 0.000000 61.000000 0.367707 0.863111 -0.346167
