//X Y Z R G B PointSourceId ScanDirectionFlag NumberOfReturns ReturnNumber GpsTime Intensity Classification Nx Ny Nz
440.00000000 6600.00000000 -280.00000000 72 58 190 97.000000 1.000000 4.000000 1.000000 -60.708740 114.000000 149.000000 0.225093 0.244426 0.943180
380.00000000 6690.00000000 -240.00000000 72 58 190 97.000000 1.000000 4.000000 1.000000 -60.708740 114.000000 149.000000 0.551335 0.365930 0.749750
400.00000000 6700.00000000 -260.00000000 72 58 190 97.000000 1.000000 4.000000 1.000000 -60.708740 114.000000 149.000000 0.076735 -0.193664 0.978062
390.00000000 6670.00000000 -270.00000000 72 58 190 97.000000 1.000000 4.000000 1.000000 -60.708740 114.000000 149.000000 0.455987 0.117903 0.882142
390.00000000 6680.00000000 -240.00000000 72 58 190 97.000000 1.000000 4.000000 1.000000 -60.708740 114.000000 149.000000 0.378126 0.250601 0.891190
390.00000000 6650.00000000 -270.00000000 72 58 190 97.000000 1.000000 4.000000 1.000000 -60.708740 114.000000 149.000000 0.275940 0.185333 0.943138
410.00000000 6660.00000000 -260.00000000 72 58 190 97.000000 1.000000 4.000000 1.000000 -60.708740 114.000000 149.000000 0.568658 0.397236 0.720300
410.00000000 6630.00000000 -260.00000000 72 58 190 97.000000 1.000000 4.000000 1.000000 -60.708740 114.000000 149.000000 0.109176 0.165604 0.980131
400.00000000 6660.00000000 -250.00000000 72 58 190 97.000000 1.000000 4.000000 1.000000 -60.708740 114.000000 149.000000 0.258713 0.177442 0.949517
400.00000000 6620.00000000 -240.00000000 72 58 190 97.000000 1.000000 4.000000 1.000000 -60.708740 114.000000 149.000000 0.217966 0.464493 0.858334
360.00000000 6670.00000000 -230.00000000 72 58 190 97.000000 1.000000 4.000000 1.000000 -60.708740 114.000000 149.000000 0.317569 0.290981 0.902485
370.00000000 6690.00000000 -230.00000000 72 58 190 97.000000 1.000000 4.000000 1.000000 -60.708740 114.000000 149.000000 0.335551 0.226101 0.914485
340.00000000 6690.00000000 -230.00000000 72 58 190 97.000000 1.000000 4.000000 1.000000 -60.708740 114.000000 149.000000 0.540811 0.146686 0.828255
370.00000000 6670.00000000 -230.00000000 72 58 190 97.000000 1.000000 4.000000 1.000000 -60.708740 114.000000 149.000000 0.615642 0.315093 0.722289
340.00000000 6700.00000000 -220.00000000 72 58 190 97.000000 1.000000 4.000000 1.000000 -60.708740 114.000000 149.000000 0.013156 0.242796 0.969988
360.00000000 6700.00000000 -270.00000000 72 58 190 97.000000 1.000000 4.000000 1.000000 -60.708740 114.000000 149.000000 0.499851 0.301172 0.812061
360.00000000 6700.00000000 -270.00000000 72 58 190 97.000000 1.000000 4.000000 1.000000 -60.708740 114.000000 149.000000 0.499851 0.301172 0.812061
340.00000000 6630.00000000 -210.00000000 72 58 190 97.000000 1.000000 4.000000 1.000000 -60.708740 114.000000 149.000000 0.538349 0.698354 0.471680
340.00000000 6650.00000000 -200.00000000 72 58 190 97.000000 1.000000 4.000000 1.000000 -60.708740 114.000000 149.000000 0.129510 0.252479 0.958896
350.00000000 6660.00000000 -220.00000000 72 58 190 97.000000 1.000000 4.000000 1.000000 -60.708740 114.000000 149.000000 0.476856 0.563861 0.674291
370.00000000 6650.00000000 -220.00000000 72 58 190 97.000000 1.000000 4.000000 1.000000 -60.708740 114.000000 149.000000 0.377938 0.567725 0.731335
370.00000000 6650.00000000 -220.00000000 72 58 190 97.000000 1.000000 4.000000 1.000000 -60.708740 114.000000 149.000000 0.377938 0.567725 0.731335
350.00000000 6660.00000000 -220.00000000 72 58 190 97.000000 1.000000 4.000000 1.000000 -60.708740 114.000000 149.000000 0.476856 0.563861 0.674291
360.00000000 6660.00000000 -220.00000000 72 58 190 97.000000 1.000000 4.000000 1.000000 -60.708740 114.000000 149.000000 0.621512 0.424894 0.658170
350.00000000 6630.00000000 -210.00000000 72 58 190 97.000000 1.000000 4.000000 1.000000 -60.708740 114.000000 149.000000 0.478068 0.419329 0.771761
360.00000000 6660.00000000 -190.00000000 72 58 190 97.000000 1.000000 4.000000 1.000000 -60.708740 114.000000 149.000000 0.057457 0.294946 0.953785
350.00000000 6650.00000000 -200.00000000 72 58 190 97.000000 1.000000 4.000000 1.000000 -60.708740 114.000000 149.000000 0.261512 0.448088 0.854885
340.00000000 6620.00000000 -250.00000000 72 58 190 97.000000 1.000000 4.000000 1.000000 -60.708740 114.000000 149.000000 0.069410 0.542528 0.837165
370.00000000 6660.00000000 -240.00000000 72 58 190 97.000000 1.000000 4.000000 1.000000 -60.708740 114.000000 149.000000 0.301520 0.110247 0.947065
390.00000000 6700.00000000 -280.00000000 72 58 190 97.000000 1.000000 4.000000 1.000000 -60.708740 114.000000 149.000000 0.426405 0.297098 0.854349
410.00000000 6590.00000000 -240.00000000 72 58 190 97.000000 1.000000 4.000000 1.000000 -60.708740 114.000000 149.000000 0.403286 0.177793 0.897636
400.00000000 6600.00000000 -260.00000000 72 58 190 97.000000 1.000000 4.000000 1.000000 -60.708740 114.000000 149.000000 0.457177 0.594498 0.661484
400.00000000 6540.00000000 -220.00000000 72 58 190 97.000000 1.000000 4.000000 1.000000 -60.708740 114.000000 149.000000 0.507973 0.762776 0.400171
390.00000000 6540.00000000 -210.00000000 72 58 190 97.000000 1.000000 4.000000 1.000000 -60.708740 114.000000 149.000000 0.469506 0.411020 0.781426
380.00000000 6550.00000000 -220.00000000 72 58 190 97.000000 1.000000 4.000000 1.000000 -60.708740 114.000000 149.000000 0.550193 0.703117 0.450460
390.00000000 6570.00000000 -260.00000000 72 58 190 97.000000 1.000000 4.000000 1.000000 -60.708740 114.000000 149.000000 0.658594 0.428503 0.618578
360.00000000 6590.00000000 -220.00000000 72 58 190 97.000000 1.000000 4.000000 1.000000 -60.708740 114.000000 149.000000 0.592950 0.559164 0.579436
360.00000000 6590.00000000 -210.00000000 72 58 190 97.000000 1.000000 4.000000 1.000000 -60.708740 114.000000 149.000000 0.654786 0.341272 0.674380
350.00000000 6570.00000000 -190.00000000 72 58 190 97.000000 1.000000 4.000000 1.000000 -60.708740 114.000000 149.000000 0.559132 0.538861 0.630079
480.00000000 6530.00000000 -250.00000000 72 58 190 97.000000 1.000000 4.000000 1.000000 -60.708740 114.000000 149.000000 0.654157 0.543169 0.526352
460.00000000 6500.00000000 -260.00000000 72 58 190 97.000000 1.000000 4.000000 1.000000 -60.708740 114.000000 149.000000 0.456538 0.576943 0.677281
470.00000000 6490.00000000 -260.00000000 72 58 190 97.000000 1.000000 4.000000 1.000000 -60.708740 114.000000 149.000000 0.241654 0.913076 0.328476
420.00000000 6530.00000000 -200.00000000 72 58 190 97.000000 1.000000 4.000000 1.000000 -60.708740 114.000000 149.000000 0.485477 0.616506 0.619865
450.00000000 6530.00000000 -210.00000000 72 58 190 97.000000 1.000000 4.000000 1.000000 -60.708740 114.000000 149.000000 0.567418 0.503436 0.651605
420.00000000 6530.00000000 -200.00000000 72 58 190 97.000000 1.000000 4.000000 1.000000 -60.708740 114.000000 149.000000 0.485477 0.616506 0.619865
430.00000000 6510.00000000 -210.00000000 72 58 190 97.000000 1.000000 4.000000 1.000000 -60.708740 114.000000 149.000000 0.714513 0.488001 0.501325
450.00000000 6480.00000000 -240.00000000 72 58 190 97.000000 1.000000 4.000000 1.000000 -60.708740 114.000000 149.000000 0.366529 0.866480 0.338924
450.00000000 6490.00000000 -240.00000000 72 58 190 97.000000 1.000000 4.000000 1.000000 -60.708740 114.000000 149.000000 0.370148 0.818138 0.440047
450.00000000 6490.00000000 -250.00000000 72 58 190 97.000000 1.000000 4.000000 1.000000 -60.708740 114.000000 149.000000 0.379900 0.712107 0.590407
490.00000000 6520.00000000 -280.00000000 72 58 190 97.000000 1.000000 4.000000 1.000000 -60.708740 114.000000 149.000000 0.642737 0.416866 0.642737
400.00000000 6530.00000000 -240.00000000 72 58 190 97.000000 1.000000 4.000000 1.000000 -60.708740 114.000000 149.000000 0.371814 0.761489 0.530932
380.00000000 6530.00000000 -210.00000000 72 58 190 97.000000 1.000000 4.000000 1.000000 -60.708740 114.000000 149.000000 0.504921 0.435844 0.745047
600.00000000 6700.00000000 -390.00000000 72 58 190 97.000000 1.000000 4.000000 1.000000 -60.708740 114.000000 149.000000 0.278282 -0.480387 0.831738
640.00000000 6700.00000000 -490.00000000 72 58 190 97.000000 1.000000 4.000000 1.000000 -60.708740 114.000000 149.000000 0.122787 0.018805 0.992255
640.00000000 6700.00000000 -510.00000000 72 58 190 97.000000 1.000000 4.000000 1.000000 -60.708740 114.000000 149.000000 0.417121 0.011768 0.908775
590.00000000 6700.00000000 -500.00000000 72 58 190 97.000000 1.000000 4.000000 1.000000 -60.708740 114.000000 149.000000 0.288509 0.170918 0.942099
600.00000000 6700.00000000 -500.00000000 72 58 190 97.000000 1.000000 4.000000 1.000000 -60.708740 114.000000 149.000000 0.291124 -0.369562 0.882423
590.00000000 6600.00000000 -380.00000000 72 58 190 97.000000 1.000000 4.000000 1.000000 -60.708740 114.000000 149.000000 0.244382 0.377681 0.893104
600.00000000 6550.00000000 -360.00000000 72 58 190 97.000000 1.000000 4.000000 1.000000 -60.708740 114.000000 149.000000 0.308752 0.661149 0.683780
580.00000000 6630.00000000 -380.00000000 72 58 190 97.000000 1.000000 4.000000 1.000000 -60.708740 114.000000 149.000000 0.503836 0.355744 0.787144
530.00000000 6620.00000000 -410.00000000 72 58 190 97.000000 1.000000 4.000000 1.000000 -60.708740 114.000000 149.000000 0.367846 0.516930 0.772964
550.00000000 6600.00000000 -390.00000000 72 58 190 97.000000 1.000000 4.000000 1.000000 -60.708740 114.000000 149.000000 0.571625 0.393713 0.719885
660.00000000 6640.00000000 -530.00000000 72 58 190 97.000000 1.000000 4.000000 1.000000 -60.708740 114.000000 149.000000 0.459374 -0.014647 0.888122
630.00000000 6620.00000000 -530.00000000 72 58 190 97.000000 1.000000 4.000000 1.000000 -60.708740 114.000000 149.000000 0.179156 0.019649 0.983624
950.00000000 6880.00000000 -700.00000000 72 58 190 97.000000 1.000000 4.000000 1.000000 -60.708740 114.000000 149.000000 -0.229819 0.806681 -0.544471
960.00000000 6880.00000000 -700.00000000 72 58 190 97.000000 1.000000 4.000000 1.000000 -60.708740 114.000000 149.000000 0.322477 -0.678984 0.659538
870.00000000 6940.00000000 -700.00000000 72 58 190 97.000000 1.000000 4.000000 1.000000 -60.708740 114.000000 149.000000 -0.243469 -0.531910 0.811046
940.00000000 6860.00000000 -720.00000000 72 58 190 97.000000 1.000000 4.000000 1.000000 -60.708740 114.000000 149.000000 0.295033 -0.440233 0.848027
950.00000000 6860.00000000 -710.00000000 72 58 190 97.000000 1.000000 4.000000 1.000000 -60.708740 114.000000 149.000000 0.305489 -0.323371 0.895605
970.00000000 6790.00000000 -790.00000000 72 58 190 97.000000 1.000000 4.000000 1.000000 -60.708740 114.000000 149.000000 0.347704 -0.458842 0.817659
990.00000000 6780.00000000 -740.00000000 72 58 190 97.000000 1.000000 4.000000 1.000000 -60.708740 114.000000 149.000000 0.419207 -0.514556 0.747996
950.00000000 6730.00000000 -730.00000000 72 58 190 97.000000 1.000000 4.000000 1.000000 -60.708740 114.000000 149.000000 0.354682 -0.536071 0.766047
980.00000000 6740.00000000 -810.00000000 72 58 190 97.000000 1.000000 4.000000 1.000000 -60.708740 114.000000 149.000000 0.376074 -0.538877 0.753777
930.00000000 6780.00000000 -820.00000000 72 58 190 97.000000 1.000000 4.000000 1.000000 -60.708740 114.000000 149.000000 0.421252 -0.540193 0.728518
840.00000000 6860.00000000 -710.00000000 72 58 190 97.000000 1.000000 4.000000 1.000000 -60.708740 114.000000 149.000000 -0.226358 0.754008 -0.616632
860.00000000 6870.00000000 -710.00000000 72 58 190 97.000000 1.000000 4.000000 1.000000 -60.708740 114.000000 149.000000 0.073798 0.730744 -0.678651
880.00000000 6720.00000000 -740.00000000 72 58 190 97.000000 1.000000 4.000000 1.000000 -60.708740 114.000000 149.000000 0.602933 -0.055328 0.795871
860.00000000 6710.00000000 -770.00000000 72 58 190 97.000000 1.000000 4.000000 1.000000 -60.708740 114.000000 149.000000 0.308018 -0.620875 0.720860
730.00000000 6880.00000000 -710.00000000 72 58 190 97.000000 1.000000 4.000000 1.000000 -60.708740 114.000000 149.000000 -0.200212 -0.557844 0.805435
800.00000000 6860.00000000 -720.00000000 72 58 190 97.000000 1.000000 4.000000 1.000000 -60.708740 114.000000 149.000000 0.097980 -0.633212 0.767751
830.00000000 6800.00000000 -710.00000000 72 58 190 97.000000 1.000000 4.000000 1.000000 -60.708740 114.000000 149.000000 0.297770 -0.645437 0.703381
820.00000000 6800.00000000 -710.00000000 72 58 190 97.000000 1.000000 4.000000 1.000000 -60.708740 114.000000 149.000000 -0.434993 0.681656 -0.588324
790.00000000 6790.00000000 -700.00000000 72 58 190 97.000000 1.000000 4.000000 1.000000 -60.708740 114.000000 149.000000 -0.073873 -0.475296 0.876719
790.00000000 6790.00000000 -700.00000000 72 58 190 97.000000 1.000000 4.000000 1.000000 -60.708740 114.000000 149.000000 -0.073873 -0.475296 0.876719
950.00000000 6680.00000000 -730.00000000 72 58 190 97.000000 1.000000 4.000000 1.000000 -60.708740 114.000000 149.000000 0.397794 -0.579360 0.711408
920.00000000 6690.00000000 -780.00000000 72 58 190 97.000000 1.000000 4.000000 1.000000 -60.708740 114.000000 149.000000 0.633451 -0.398594 0.663221
970.00000000 6580.00000000 -800.00000000 72 58 190 97.000000 1.000000 4.000000 1.000000 -60.708740 114.000000 149.000000 0.342404 -0.485736 0.804251
900.00000000 6690.00000000 -750.00000000 72 58 190 97.000000 1.000000 4.000000 1.000000 -60.708740 114.000000 149.000000 0.512598 -0.227991 0.827807
900.00000000 6640.00000000 -710.00000000 72 58 190 97.000000 1.000000 4.000000 1.000000 -60.708740 114.000000 149.000000 0.469520 -0.085495 0.878773
910.00000000 6630.00000000 -700.00000000 72 58 190 97.000000 1.000000 4.000000 1.000000 -60.708740 114.000000 149.000000 0.349079 -0.479784 0.804954
840.00000000 6640.00000000 -720.00000000 72 58 190 97.000000 1.000000 4.000000 1.000000 -60.708740 114.000000 149.000000 0.631213 0.113825 0.767212
890.00000000 6670.00000000 -810.00000000 72 58 190 97.000000 1.000000 4.000000 1.000000 -60.708740 114.000000 149.000000 0.664250 -0.247713 0.705273
910.00000000 6550.00000000 -750.00000000 72 58 190 97.000000 1.000000 4.000000 1.000000 -60.708740 114.000000 149.000000 0.199998 0.194700 0.960256
840.00000000 6550.00000000 -700.00000000 72 58 190 97.000000 1.000000 4.000000 1.000000 -60.708740 114.000000 149.000000 0.563288 0.284024 0.775910
970.00000000 6670.00000000 -870.00000000 72 58 190 97.000000 1.000000 4.000000 1.000000 -60.708740 114.000000 149.000000 0.621520 -0.409374 0.667927
1000.00000000 6660.00000000 -880.00000000 72 58 190 97.000000 1.000000 4.000000 1.000000 -60.708740 114.000000 149.000000 0.462834 -0.556403 0.690073
960.00000000 6660.00000000 -870.00000000 72 58 190 97.000000 1.000000 4.000000 1.000000 -60.708740 114.000000 149.000000 0.337665 -0.567084 0.751265
990.00000000 6570.00000000 -900.00000000 72 58 190 97.000000 1.000000 4.000000 1.000000 -60.708740 114.000000 149.000000 0.229832 -0.488583 0.841703
870.00000000 6510.00000000 -710.00000000 72 58 190 97.000000 1.000000 4.000000 1.000000 -60.708740 114.000000 149.000000 0.422804 0.484837 0.765618
870.00000000 6510.00000000 -710.00000000 72 58 190 97.000000 1.000000 4.000000 1.000000 -60.708740 114.000000 149.000000 0.422804 0.484837 0.765618
870.00000000 6500.00000000 -740.00000000 72 58 190 97.000000 1.000000 4.000000 1.000000 -60.708740 114.000000 149.000000 0.085684 0.322963 0.942525
870.00000000 6460.00000000 -700.00000000 72 58 190 97.000000 1.000000 4.000000 1.000000 -60.708740 114.000000 149.000000 0.344580 0.287896 0.893521
860.00000000 6490.00000000 -700.00000000 72 58 190 97.000000 1.000000 4.000000 1.000000 -60.708740 114.000000 149.000000 0.517177 0.389922 0.761898
900.00000000 6520.00000000 -810.00000000 72 58 190 97.000000 1.000000 4.000000 1.000000 -60.708740 114.000000 149.000000 0.579512 -0.298537 0.758315
840.00000000 6460.00000000 -820.00000000 72 58 190 97.000000 1.000000 4.000000 1.000000 -60.708740 114.000000 149.000000 0.128379 0.413353 0.901476
800.00000000 6600.00000000 -770.00000000 72 58 190 97.000000 1.000000 4.000000 1.000000 -60.708740 114.000000 149.000000 0.459439 0.208020 0.863506
810.00000000 6540.00000000 -740.00000000 72 58 190 97.000000 1.000000 4.000000 1.000000 -60.708740 114.000000 149.000000 0.292331 0.414773 0.861688
800.00000000 6560.00000000 -740.00000000 72 58 190 97.000000 1.000000 4.000000 1.000000 -60.708740 114.000000 149.000000 0.301154 0.277876 0.912190
790.00000000 6550.00000000 -740.00000000 72 58 190 97.000000 1.000000 4.000000 1.000000 -60.708740 114.000000 149.000000 0.492787 0.427300 0.758008
820.00000000 6530.00000000 -780.00000000 72 58 190 97.000000 1.000000 4.000000 1.000000 -60.708740 114.000000 149.000000 0.386439 0.447371 0.806551
920.00000000 6220.00000000 -140.00000000 72 58 190 97.000000 1.000000 4.000000 1.000000 -60.708740 114.000000 149.000000 -0.334810 0.845590 -0.415787
950.00000000 6220.00000000 -170.00000000 72 58 190 97.000000 1.000000 4.000000 1.000000 -60.708740 114.000000 149.000000 0.323133 0.936678 -0.134980
920.00000000 6220.00000000 -170.00000000 72 58 190 97.000000 1.000000 4.000000 1.000000 -60.708740 114.000000 149.000000 0.232935 0.809874 -0.538373
860.00000000 6340.00000000 -140.00000000 72 58 190 97.000000 1.000000 4.000000 1.000000 -60.708740 114.000000 149.000000 -0.267941 0.753089 -0.600886
870.00000000 6330.00000000 -140.00000000 72 58 190 97.000000 1.000000 4.000000 1.000000 -60.708740 114.000000 149.000000 0.057443 0.974084 -0.218772
860.00000000 6300.00000000 -140.00000000 72 58 190 97.000000 1.000000 4.000000 1.000000 -60.708740 114.000000 149.000000 0.133768 0.980556 -0.143586
850.00000000 6270.00000000 -100.00000000 72 58 190 97.000000 1.000000 4.000000 1.000000 -60.708740 114.000000 149.000000 0.108805 0.885987 -0.450765
900.00000000 6240.00000000 -130.00000000 72 58 190 97.000000 1.000000 4.000000 1.000000 -60.708740 114.000000 149.000000 0.167022 0.978622 -0.120008
910.00000000 6270.00000000 -130.00000000 72 58 190 97.000000 1.000000 4.000000 1.000000 -60.708740 114.000000 149.000000 0.131790 0.798145 -0.587873
880.00000000 6260.00000000 -160.00000000 72 58 190 97.000000 1.000000 4.000000 1.000000 -60.708740 114.000000 149.000000 -0.257786 0.955792 -0.141452
910.00000000 6270.00000000 -170.00000000 72 58 190 97.000000 1.000000 4.000000 1.000000 -60.708740 114.000000 149.000000 -0.228931 0.905518 -0.357250
880.00000000 6220.00000000 -160.00000000 72 58 190 97.000000 1.000000 4.000000 1.000000 -60.708740 114.000000 149.000000 0.231815 0.939753 -0.251249
890.00000000 6220.00000000 -170.00000000 72 58 190 97.000000 1.000000 4.000000 1.000000 -60.708740 114.000000 149.000000 0.138398 0.989372 0.044608
880.00000000 6220.00000000 -170.00000000 72 58 190 97.000000 1.000000 4.000000 1.000000 -60.708740 114.000000 149.000000 -0.079134 0.986221 -0.145276
870.00000000 6280.00000000 -130.00000000 72 58 190 97.000000 1.000000 4.000000 1.000000 -60.708740 114.000000 149.000000 -0.207387 0.975576 -0.072401
870.00000000 6280.00000000 -120.00000000 72 58 190 97.000000 1.000000 4.000000 1.000000 -60.708740 114.000000 149.000000 -0.248947 0.824155 -0.508718
840.00000000 6270.00000000 -110.00000000 72 58 190 97.000000 1.000000 4.000000 1.000000 -60.708740 114.000000 149.000000 -0.004926 0.999976 -0.004926
870.00000000 6280.00000000 -120.00000000 72 58 190 97.000000 1.000000 4.000000 1.000000 -60.708740 114.000000 149.000000 -0.248947 0.824155 -0.508718
850.00000000 6270.00000000 -110.00000000 72 58 190 97.000000 1.000000 4.000000 1.000000 -60.708740 114.000000 149.000000 -0.260265 0.950709 -0.168565
840.00000000 6200.00000000 -160.00000000 72 58 190 97.000000 1.000000 4.000000 1.000000 -60.708740 114.000000 149.000000 0.443437 0.896140 0.017208
940.00000000 6350.00000000 -230.00000000 72 58 190 97.000000 1.000000 4.000000 1.000000 -60.708740 114.000000 149.000000 0.047056 0.902134 -0.428883
930.00000000 6330.00000000 -250.00000000 72 58 190 97.000000 1.000000 4.000000 1.000000 -60.708740 114.000000 149.000000 0.380834 0.853379 -0.355963
950.00000000 6210.00000000 -190.00000000 72 58 190 97.000000 1.000000 4.000000 1.000000 -60.708740 114.000000 149.000000 -0.279352 0.951916 -0.125775
960.00000000 6210.00000000 -190.00000000 72 58 190 97.000000 1.000000 4.000000 1.000000 -60.708740 114.000000 149.000000 -0.177549 0.916153 -0.359359
900.00000000 6330.00000000 -270.00000000 72 58 190 97.000000 1.000000 4.000000 1.000000 -60.708740 114.000000 149.000000 0.438637 0.825017 -0.356293
890.00000000 6350.00000000 -190.00000000 72 58 190 97.000000 1.000000 4.000000 1.000000 -60.708740 114.000000 149.000000 0.433142 0.823445 -0.366505
970.00000000 6120.00000000 -180.00000000 72 58 190 97.000000 1.000000 4.000000 1.000000 -60.708740 114.000000 149.000000 0.477325 0.806184 -0.349612
930.00000000 6180.00000000 -120.00000000 72 58 190 97.000000 1.000000 4.000000 1.000000 -60.708740 114.000000 149.000000 -0.347615 0.860541 -0.372335
930.00000000 6160.00000000 -170.00000000 72 58 190 97.000000 1.000000 4.000000 1.000000 -60.708740 114.000000 149.000000 0.238028 0.970423 0.040282
930.00000000 6180.00000000 -150.00000000 72 58 190 97.000000 1.000000 4.000000 1.000000 -60.708740 114.000000 149.000000 0.192604 0.719567 -0.667179
940.00000000 6140.00000000 -150.00000000 72 58 190 97.000000 1.000000 4.000000 1.000000 -60.708740 114.000000 149.000000 0.420949 0.798351 -0.430626
920.00000000 6140.00000000 -170.00000000 72 58 190 97.000000 1.000000 4.000000 1.000000 -60.708740 114.000000 149.000000 -0.153811 0.987811 0.023926
920.00000000 6140.00000000 -160.00000000 72 58 190 97.000000 1.000000 4.000000 1.000000 -60.708740 114.000000 149.000000 0.417262 0.907846 -0.041326
1000.00000000 6090.00000000 -100.00000000 72 58 190 97.000000 1.000000 4.000000 1.000000 -60.708740 114.000000 149.000000 -0.219231 -0.747873 0.626597
970.00000000 6110.00000000 -60.00000000 72 58 190 97.000000 1.000000 4.000000 1.000000 -60.708740 114.000000 149.000000 -0.115638 0.982311 -0.147286
960.00000000 6090.00000000 -120.00000000 72 58 190 97.000000 1.000000 4.000000 1.000000 -60.708740 114.000000 149.000000 0.162504 0.985543 0.047933
920.00000000 6100.00000000 -130.00000000 72 58 190 97.000000 1.000000 4.000000 1.000000 -60.708740 114.000000 149.000000 -0.047317 0.947621 -0.315874
920.00000000 6110.00000000 -180.00000000 72 58 190 97.000000 1.000000 4.000000 1.000000 -60.708740 114.000000 149.000000 0.233014 0.968582 0.086908
930.00000000 6070.00000000 -160.00000000 72 58 190 97.000000 1.000000 4.000000 1.000000 -60.708740 114.000000 149.000000 -0.268760 0.945435 -0.184176
880.00000000 6190.00000000 -180.00000000 72 58 190 97.000000 1.000000 4.000000 1.000000 -60.708740 114.000000 149.000000 -0.067130 0.985744 -0.154280
880.00000000 6190.00000000 -180.00000000 72 58 190 97.000000 1.000000 4.000000 1.000000 -60.708740 114.000000 149.000000 -0.067130 0.985744 -0.154280
900.00000000 6190.00000000 -170.00000000 72 58 190 97.000000 1.000000 4.000000 1.000000 -60.708740 114.000000 149.000000 -0.001036 0.998128 0.061152
880.00000000 6140.00000000 -160.00000000 72 58 190 97.000000 1.000000 4.000000 1.000000 -60.708740 114.000000 149.000000 0.358655 0.761128 -0.540417
880.00000000 6140.00000000 -170.00000000 72 58 190 97.000000 1.000000 4.000000 1.000000 -60.708740 114.000000 149.000000 -0.101208 0.932461 -0.346805
880.00000000 6130.00000000 -160.00000000 72 58 190 97.000000 1.000000 4.000000 1.000000 -60.708740 114.000000 149.000000 0.329819 0.938717 -0.100148
880.00000000 6130.00000000 -180.00000000 72 58 190 97.000000 1.000000 4.000000 1.000000 -60.708740 114.000000 149.000000 -0.067903 0.877190 -0.475318
880.00000000 6050.00000000 -150.00000000 72 58 190 97.000000 1.000000 4.000000 1.000000 -60.708740 114.000000 149.000000 0.390170 0.920699 0.009014
960.00000000 6180.00000000 -220.00000000 72 58 190 97.000000 1.000000 4.000000 1.000000 -60.708740 114.000000 149.000000 -0.065319 0.923804 -0.377253
950.00000000 6180.00000000 -200.00000000 72 58 190 97.000000 1.000000 4.000000 1.000000 -60.708740 114.000000 149.000000 -0.226538 0.932886 -0.280007
960.00000000 6180.00000000 -270.00000000 72 58 190 97.000000 1.000000 4.000000 1.000000 -60.708740 114.000000 149.000000 0.352109 0.904380 0.241071
920.00000000 6160.00000000 -260.00000000 72 58 190 97.000000 1.000000 4.000000 1.000000 -60.708740 114.000000 149.000000 -0.040030 0.938776 -0.342195
940.00000000 6150.00000000 -270.00000000 72 58 190 97.000000 1.000000 4.000000 1.000000 -60.708740 114.000000 149.000000 0.147644 0.953698 -0.262034
940.00000000 6140.00000000 -270.00000000 72 58 190 97.000000 1.000000 4.000000 1.000000 -60.708740 114.000000 149.000000 0.140758 0.989813 0.021395
990.00000000 6130.00000000 -290.00000000 72 58 190 97.000000 1.000000 4.000000 1.000000 -60.708740 114.000000 149.000000 -0.009063 0.915316 -0.402635
970.00000000 6050.00000000 -270.00000000 72 58 190 97.000000 1.000000 4.000000 1.000000 -60.708740 114.000000 149.000000 0.257572 0.926404 0.274648
930.00000000 6100.00000000 -210.00000000 72 58 190 97.000000 1.000000 4.000000 1.000000 -60.708740 114.000000 149.000000 0.419644 0.895144 -0.150384
920.00000000 6110.00000000 -200.00000000 72 58 190 97.000000 1.000000 4.000000 1.000000 -60.708740 114.000000 149.000000 -0.060256 0.984183 -0.166590
920.00000000 6110.00000000 -190.00000000 72 58 190 97.000000 1.000000 4.000000 1.000000 -60.708740 114.000000 149.000000 0.363730 0.931504 0.001267
930.00000000 6110.00000000 -200.00000000 72 58 190 97.000000 1.000000 4.000000 1.000000 -60.708740 114.000000 149.000000 0.310086 0.950343 0.026364
920.00000000 6110.00000000 -260.00000000 72 58 190 97.000000 1.000000 4.000000 1.000000 -60.708740 114.000000 149.000000 0.221479 0.921636 0.318643
940.00000000 6050.00000000 -200.00000000 72 58 190 97.000000 1.000000 4.000000 1.000000 -60.708740 114.000000 149.000000 0.239999 0.968699 -0.063419
920.00000000 6050.00000000 -200.00000000 72 58 190 97.000000 1.000000 4.000000 1.000000 -60.708740 114.000000 149.000000 0.233514 0.897340 -0.374503
960.00000000 6060.00000000 -200.00000000 72 58 190 97.000000 1.000000 4.000000 1.000000 -60.708740 114.000000 149.000000 0.532001 0.840533 -0.102363
950.00000000 6050.00000000 -190.00000000 72 58 190 97.000000 1.000000 4.000000 1.000000 -60.708740 114.000000 149.000000 0.089626 0.968210 -0.233532
920.00000000 6040.00000000 -260.00000000 72 58 190 97.000000 1.000000 4.000000 1.000000 -60.708740 114.000000 149.000000 0.423800 0.839781 -0.339353
880.00000000 6180.00000000 -200.00000000 72 58 190 97.000000 1.000000 4.000000 1.000000 -60.708740 114.000000 149.000000 -0.253824 0.963002 -0.090560
900.00000000 6180.00000000 -210.00000000 72 58 190 97.000000 1.000000 4.000000 1.000000 -60.708740 114.000000 149.000000 0.074247 0.916608 -0.392832
910.00000000 6110.00000000 -190.00000000 72 58 190 97.000000 1.000000 4.000000 1.000000 -60.708740 114.000000 149.000000 0.007780 0.990272 -0.138927
910.00000000 6110.00000000 -200.00000000 72 58 190 97.000000 1.000000 4.000000 1.000000 -60.708740 114.000000 149.000000 0.230603 0.967003 0.108294
900.00000000 6110.00000000 -190.00000000 72 58 190 97.000000 1.000000 4.000000 1.000000 -60.708740 114.000000 149.000000 0.285024 0.890887 -0.353669
900.00000000 6110.00000000 -190.00000000 72 58 190 97.000000 1.000000 4.000000 1.000000 -60.708740 114.000000 149.000000 0.285024 0.890887 -0.353669
840.00000000 6110.00000000 -200.00000000 72 58 190 97.000000 1.000000 4.000000 1.000000 -60.708740 114.000000 149.000000 0.340768 0.932698 0.118115
870.00000000 6110.00000000 -200.00000000 72 58 190 97.000000 1.000000 4.000000 1.000000 -60.708740 114.000000 149.000000 0.170702 0.918405 -0.356922
840.00000000 6070.00000000 -200.00000000 72 58 190 97.000000 1.000000 4.000000 1.000000 -60.708740 114.000000 149.000000 0.064641 0.932680 -0.354867
820.00000000 6350.00000000 -90.00000000 72 58 190 97.000000 1.000000 4.000000 1.000000 -60.708740 114.000000 149.000000 0.358539 0.708893 -0.607388
810.00000000 6320.00000000 -50.00000000 72 58 190 97.000000 1.000000 4.000000 1.000000 -60.708740 114.000000 149.000000 -0.193147 0.690695 -0.696875
770.00000000 6320.00000000 -90.00000000 72 58 190 97.000000 1.000000 4.000000 1.000000 -60.708740 114.000000 149.000000 0.307198 0.725374 -0.616005
820.00000000 6330.00000000 -110.00000000 72 58 190 97.000000 1.000000 4.000000 1.000000 -60.708740 114.000000 149.000000 0.394422 0.744655 -0.538443
820.00000000 6310.00000000 -130.00000000 72 58 190 97.000000 1.000000 4.000000 1.000000 -60.708740 114.000000 149.000000 -0.070402 -0.788784 0.610625
820.00000000 6310.00000000 -120.00000000 72 58 190 97.000000 1.000000 4.000000 1.000000 -60.708740 114.000000 149.000000 0.059717 0.867973 -0.493008
820.00000000 6310.00000000 -120.00000000 72 58 190 97.000000 1.000000 4.000000 1.000000 -60.708740 114.000000 149.000000 0.059717 0.867973 -0.493008
780.00000000 6360.00000000 -130.00000000 72 58 190 97.000000 1.000000 4.000000 1.000000 -60.708740 114.000000 149.000000 0.211359 0.977391 -0.005839
770.00000000 6360.00000000 -120.00000000 72 58 190 97.000000 1.000000 4.000000 1.000000 -60.708740 114.000000 149.000000 0.225726 0.758127 -0.611794
780.00000000 6290.00000000 -110.00000000 72 58 190 97.000000 1.000000 4.000000 1.000000 -60.708740 114.000000 149.000000 0.416746 0.905911 -0.075151
770.00000000 6290.00000000 -120.00000000 72 58 190 97.000000 1.000000 4.000000 1.000000 -60.708740 114.000000 149.000000 0.242926 0.965343 0.095390
800.00000000 6280.00000000 -90.00000000 72 58 190 97.000000 1.000000 4.000000 1.000000 -60.708740 114.000000 149.000000 0.104884 0.852002 -0.512925
810.00000000 6250.00000000 -130.00000000 72 58 190 97.000000 1.000000 4.000000 1.000000 -60.708740 114.000000 149.000000 0.324419 0.934930 -0.143730
820.00000000 6270.00000000 -120.00000000 72 58 190 97.000000 1.000000 4.000000 1.000000 -60.708740 114.000000 149.000000 -0.250232 0.954093 -0.164591
830.00000000 6270.00000000 -120.00000000 72 58 190 97.000000 1.000000 4.000000 1.000000 -60.708740 114.000000 149.000000 -0.244417 0.915479 -0.319622
830.00000000 6270.00000000 -110.00000000 72 58 190 97.000000 1.000000 4.000000 1.000000 -60.708740 114.000000 149.000000 -0.302620 0.930382 -0.206908
800.00000000 6210.00000000 -170.00000000 72 58 190 97.000000 1.000000 4.000000 1.000000 -60.708740 114.000000 149.000000 0.278474 0.942421 -0.185192
780.00000000 6240.00000000 -160.00000000 72 58 190 97.000000 1.000000 4.000000 1.000000 -60.708740 114.000000 149.000000 0.402965 0.914875 0.024939
790.00000000 6200.00000000 -150.00000000 72 58 190 97.000000 1.000000 4.000000 1.000000 -60.708740 114.000000 149.000000 0.122249 0.924420 -0.361252
710.00000000 6340.00000000 -30.00000000 72 58 190 97.000000 1.000000 4.000000 1.000000 -60.708740 114.000000 149.000000 -0.293612 0.818031 -0.494587
740.00000000 6340.00000000 -80.00000000 72 58 190 97.000000 1.000000 4.000000 1.000000 -60.708740 114.000000 149.000000 0.132068 0.974786 -0.179864
730.00000000 6350.00000000 -80.00000000 72 58 190 97.000000 1.000000 4.000000 1.000000 -60.708740 114.000000 149.000000 -0.053003 0.892898 -0.447129
720.00000000 6340.00000000 -80.00000000 72 58 190 97.000000 1.000000 4.000000 1.000000 -60.708740 114.000000 149.000000 0.211424 0.958720 -0.190148
690.00000000 6350.00000000 -100.00000000 72 58 190 97.000000 1.000000 4.000000 1.000000 -60.708740 114.000000 149.000000 -0.032297 0.770919 -0.636114
710.00000000 6350.00000000 -150.00000000 72 58 190 97.000000 1.000000 4.000000 1.000000 -60.708740 114.000000 149.000000 -0.143911 0.971721 -0.187212
730.00000000 6310.00000000 -130.00000000 72 58 190 97.000000 1.000000 4.000000 1.000000 -60.708740 114.000000 149.000000 0.336140 0.842695 -0.420566
720.00000000 6290.00000000 -140.00000000 72 58 190 97.000000 1.000000 4.000000 1.000000 -60.708740 114.000000 149.000000 0.248578 0.949487 -0.191527
750.00000000 6290.00000000 -180.00000000 72 58 190 97.000000 1.000000 4.000000 1.000000 -60.708740 114.000000 149.000000 0.116912 0.855912 -0.503732
700.00000000 6340.00000000 -120.00000000 72 58 190 97.000000 1.000000 4.000000 1.000000 -60.708740 114.000000 149.000000 -0.231711 0.874523 -0.426050
670.00000000 6330.00000000 -120.00000000 72 58 190 97.000000 1.000000 4.000000 1.000000 -60.708740 114.000000 149.000000 0.237031 0.807145 -0.540679
700.00000000 6340.00000000 -140.00000000 72 58 190 97.000000 1.000000 4.000000 1.000000 -60.708740 114.000000 149.000000 0.524763 0.851222 -0.006745
700.00000000 6290.00000000 -120.00000000 72 58 190 97.000000 1.000000 4.000000 1.000000 -60.708740 114.000000 149.000000 -0.177271 0.941322 -0.287206
670.00000000 6230.00000000 -80.00000000 72 58 190 97.000000 1.000000 4.000000 1.000000 -60.708740 114.000000 149.000000 0.070975 0.922679 -0.378981
740.00000000 6260.00000000 -150.00000000 72 58 190 97.000000 1.000000 4.000000 1.000000 -60.708740 114.000000 149.000000 -0.135865 0.888127 -0.439058
730.00000000 6240.00000000 -170.00000000 72 58 190 97.000000 1.000000 4.000000 1.000000 -60.708740 114.000000 149.000000 0.433384 0.874214 -0.218926
730.00000000 6240.00000000 -180.00000000 72 58 190 97.000000 1.000000 4.000000 1.000000 -60.708740 114.000000 149.000000 0.521810 0.844488 -0.120641
730.00000000 6230.00000000 -160.00000000 72 58 190 97.000000 1.000000 4.000000 1.000000 -60.708740 114.000000 149.000000 0.366962 0.919499 0.140925
750.00000000 6230.00000000 -160.00000000 72 58 190 97.000000 1.000000 4.000000 1.000000 -60.708740 114.000000 149.000000 -0.173875 0.984525 0.021878
750.00000000 6210.00000000 -210.00000000 72 58 190 97.000000 1.000000 4.000000 1.000000 -60.708740 114.000000 149.000000 -0.035348 0.997237 0.065340
810.00000000 6160.00000000 -130.00000000 72 58 190 97.000000 1.000000 4.000000 1.000000 -60.708740 114.000000 149.000000 0.191365 0.836281 -0.513823
800.00000000 6160.00000000 -130.00000000 72 58 190 97.000000 1.000000 4.000000 1.000000 -60.708740 114.000000 149.000000 -0.075445 0.957764 -0.277483
820.00000000 6160.00000000 -110.00000000 72 58 190 97.000000 1.000000 4.000000 1.000000 -60.708740 114.000000 149.000000 0.344587 0.924944 -0.160435
830.00000000 6170.00000000 -180.00000000 72 58 190 97.000000 1.000000 4.000000 1.000000 -60.708740 114.000000 149.000000 -0.162792 0.977995 -0.130482
820.00000000 6120.00000000 -170.00000000 72 58 190 97.000000 1.000000 4.000000 1.000000 -60.708740 114.000000 149.000000 -0.124291 0.930131 -0.345555
760.00000000 6180.00000000 -130.00000000 72 58 190 97.000000 1.000000 4.000000 1.000000 -60.708740 114.000000 149.000000 0.217041 0.842362 -0.493275
770.00000000 6160.00000000 -120.00000000 72 58 190 97.000000 1.000000 4.000000 1.000000 -60.708740 114.000000 149.000000 0.175287 0.828495 -0.531855
780.00000000 6150.00000000 -130.00000000 72 58 190 97.000000 1.000000 4.000000 1.000000 -60.708740 114.000000 149.000000 0.027312 0.977281 -0.210181
830.00000000 6110.00000000 -180.00000000 72 58 190 97.000000 1.000000 4.000000 1.000000 -60.708740 114.000000 149.000000 0.402348 0.915375 -0.014323
830.00000000 6110.00000000 -110.00000000 72 58 190 97.000000 1.000000 4.000000 1.000000 -60.708740 114.000000 149.000000 -0.190448 0.924026 -0.331521
720.00000000 6180.00000000 -120.00000000 72 58 190 97.000000 1.000000 4.000000 1.000000 -60.708740 114.000000 149.000000 0.328775 0.930836 0.159532
720.00000000 6170.00000000 -120.00000000 72 58 190 97.000000 1.000000 4.000000 1.000000 -60.708740 114.000000 149.000000 0.510580 0.856593 -0.074547
800.00000000 6190.00000000 -220.00000000 72 58 190 97.000000 1.000000 4.000000 1.000000 -60.708740 114.000000 149.000000 0.137495 0.866945 -0.479063
760.00000000 6180.00000000 -210.00000000 72 58 190 97.000000 1.000000 4.000000 1.000000 -60.708740 114.000000 149.000000 0.474696 0.836517 -0.273685
810.00000000 6080.00000000 -220.00000000 72 58 190 97.000000 1.000000 4.000000 1.000000 -60.708740 114.000000 149.000000 0.051670 0.959042 -0.278513
820.00000000 6090.00000000 -200.00000000 72 58 190 97.000000 1.000000 4.000000 1.000000 -60.708740 114.000000 149.000000 -0.014571 0.989709 -0.142348
810.00000000 6080.00000000 -200.00000000 72 58 190 97.000000 1.000000 4.000000 1.000000 -60.708740 114.000000 149.000000 0.460409 0.883034 -0.090962
830.00000000 6070.00000000 -200.00000000 72 58 190 97.000000 1.000000 4.000000 1.000000 -60.708740 114.000000 149.000000 0.451899 0.872887 0.183998
940.00000000 6010.00000000 -270.00000000 72 58 190 97.000000 1.000000 4.000000 1.000000 -60.708740 114.000000 149.000000 0.118946 0.988078 0.097748
950.00000000 6010.00000000 -260.00000000 72 58 190 97.000000 1.000000 4.000000 1.000000 -60.708740 114.000000 149.000000 -0.020051 0.977761 0.208762
660.00000000 6360.00000000 -100.00000000 72 58 190 97.000000 1.000000 4.000000 1.000000 -60.708740 114.000000 149.000000 0.314613 0.876966 -0.363249
630.00000000 6310.00000000 -70.00000000 72 58 190 97.000000 1.000000 4.000000 1.000000 -60.708740 114.000000 149.000000 0.454893 0.889418 -0.044810
600.00000000 6290.00000000 -40.00000000 72 58 190 97.000000 1.000000 4.000000 1.000000 -60.708740 114.000000 149.000000 0.035237 0.756892 -0.652590
650.00000000 6330.00000000 -130.00000000 72 58 190 97.000000 1.000000 4.000000 1.000000 -60.708740 114.000000 149.000000 0.355295 0.934103 0.034884
630.00000000 6320.00000000 -140.00000000 72 58 190 97.000000 1.000000 4.000000 1.000000 -60.708740 114.000000 149.000000 0.372084 0.926923 0.048647
600.00000000 6260.00000000 -100.00000000 72 58 190 97.000000 1.000000 4.000000 1.000000 -60.708740 114.000000 149.000000 0.510228 0.858676 0.048396
660.00000000 6220.00000000 -100.00000000 72 58 190 97.000000 1.000000 4.000000 1.000000 -60.708740 114.000000 149.000000 0.549237 0.831701 -0.081316
610.00000000 6260.00000000 -100.00000000 72 58 190 97.000000 1.000000 4.000000 1.000000 -60.708740 114.000000 149.000000 0.184846 0.935348 -0.301591
560.00000000 6290.00000000 -80.00000000 72 58 190 97.000000 1.000000 4.000000 1.000000 -60.708740 114.000000 149.000000 -0.161590 0.984876 0.062513
570.00000000 6290.00000000 -70.00000000 72 58 190 97.000000 1.000000 4.000000 1.000000 -60.708740 114.000000 149.000000 0.397563 0.846576 -0.353909
260.00000000 7060.00000000 320.00000000 72 58 190 97.000000 1.000000 4.000000 1.000000 -60.708740 114.000000 149.000000 0.501247 0.544834 0.672241
310.00000000 7070.00000000 320.00000000 72 58 190 97.000000 1.000000 4.000000 1.000000 -60.708740 114.000000 149.000000 0.287272 0.371498 0.882872
320.00000000 7280.00000000 240.00000000 72 58 190 97.000000 1.000000 4.000000 1.000000 -60.708740 114.000000 149.000000 0.163353 0.973787 0.158288
300.00000000 7290.00000000 220.00000000 72 58 190 97.000000 1.000000 4.000000 1.000000 -60.708740 114.000000 149.000000 0.250027 0.962926 -0.101293
180.00000000 7210.00000000 200.00000000 72 58 190 97.000000 1.000000 4.000000 1.000000 -60.708740 114.000000 149.000000 0.215028 0.939189 0.267745
180.00000000 7210.00000000 200.00000000 72 58 190 97.000000 1.000000 4.000000 1.000000 -60.708740 114.000000 149.000000 0.215028 0.939189 0.267745
170.00000000 7210.00000000 200.00000000 72 58 190 97.000000 1.000000 4.000000 1.000000 -60.708740 114.000000 149.000000 0.021058 0.999766 -0.005014
180.00000000 7240.00000000 200.00000000 72 58 190 97.000000 1.000000 4.000000 1.000000 -60.708740 114.000000 149.000000 0.248662 0.899009 0.360486
170.00000000 7220.00000000 180.00000000 72 58 190 97.000000 1.000000 4.000000 1.000000 -60.708740 114.000000 149.000000 0.184296 0.972321 0.143624
180.00000000 7210.00000000 180.00000000 72 58 190 97.000000 1.000000 4.000000 1.000000 -60.708740 114.000000 149.000000 0.091922 0.984880 -0.146837
290.00000000 7210.00000000 140.00000000 72 58 190 97.000000 1.000000 4.000000 1.000000 -60.708740 114.000000 149.000000 0.273948 0.948696 -0.157891
310.00000000 7130.00000000 190.00000000 72 58 190 97.000000 1.000000 4.000000 1.000000 -60.708740 114.000000 149.000000 0.165629 0.740013 0.651880
270.00000000 7140.00000000 210.00000000 72 58 190 97.000000 1.000000 4.000000 1.000000 -60.708740 114.000000 149.000000 0.336659 0.635912 0.694461
250.00000000 7080.00000000 310.00000000 72 58 190 97.000000 1.000000 4.000000 1.000000 -60.708740 114.000000 149.000000 0.418542 0.447630 0.790221
270.00000000 7050.00000000 240.00000000 72 58 190 97.000000 1.000000 4.000000 1.000000 -60.708740 114.000000 149.000000 0.144428 0.893738 0.424704
330.00000000 7110.00000000 210.00000000 72 58 190 97.000000 1.000000 4.000000 1.000000 -60.708740 114.000000 149.000000 0.219925 0.810494 0.542893
290.00000000 7060.00000000 180.00000000 72 58 190 97.000000 1.000000 4.000000 1.000000 -60.708740 114.000000 149.000000 0.282639 0.958997 0.020982
250.00000000 7110.00000000 200.00000000 72 58 190 97.000000 1.000000 4.000000 1.000000 -60.708740 114.000000 149.000000 0.439235 0.898255 0.014509
260.00000000 7070.00000000 230.00000000 72 58 190 97.000000 1.000000 4.000000 1.000000 -60.708740 114.000000 149.000000 0.259747 0.587185 0.766646
280.00000000 7060.00000000 210.00000000 72 58 190 97.000000 1.000000 4.000000 1.000000 -60.708740 114.000000 149.000000 0.373822 0.909489 0.181898
260.00000000 7070.00000000 230.00000000 72 58 190 97.000000 1.000000 4.000000 1.000000 -60.708740 114.000000 149.000000 0.259747 0.587185 0.766646
210.00000000 7180.00000000 210.00000000 72 58 190 97.000000 1.000000 4.000000 1.000000 -60.708740 114.000000 149.000000 0.437189 0.854436 0.280721
230.00000000 7190.00000000 180.00000000 72 58 190 97.000000 1.000000 4.000000 1.000000 -60.708740 114.000000 149.000000 0.369091 0.713576 0.595467
230.00000000 7180.00000000 180.00000000 72 58 190 97.000000 1.000000 4.000000 1.000000 -60.708740 114.000000 149.000000 0.192709 0.973620 -0.122175
240.00000000 7160.00000000 200.00000000 72 58 190 97.000000 1.000000 4.000000 1.000000 -60.708740 114.000000 149.000000 0.449309 0.786696 0.423356
210.00000000 7130.00000000 210.00000000 72 58 190 97.000000 1.000000 4.000000 1.000000 -60.708740 114.000000 149.000000 0.492086 0.796635 0.351032
210.00000000 7140.00000000 210.00000000 72 58 190 97.000000 1.000000 4.000000 1.000000 -60.708740 114.000000 149.000000 0.166398 0.985764 -0.024099
210.00000000 7140.00000000 190.00000000 72 58 190 97.000000 1.000000 4.000000 1.000000 -60.708740 114.000000 149.000000 0.485535 0.796406 0.360546
170.00000000 7180.00000000 200.00000000 72 58 190 97.000000 1.000000 4.000000 1.000000 -60.708740 114.000000 149.000000 0.098675 0.973012 0.208592
180.00000000 7180.00000000 170.00000000 72 58 190 97.000000 1.000000 4.000000 1.000000 -60.708740 114.000000 149.000000 0.312380 0.824117 0.472494
200.00000000 7140.00000000 210.00000000 72 58 190 97.000000 1.000000 4.000000 1.000000 -60.708740 114.000000 149.000000 0.181430 0.952844 0.243251
200.00000000 7140.00000000 180.00000000 72 58 190 97.000000 1.000000 4.000000 1.000000 -60.708740 114.000000 149.000000 0.376704 0.821755 0.427567
210.00000000 7090.00000000 250.00000000 72 58 190 97.000000 1.000000 4.000000 1.000000 -60.708740 114.000000 149.000000 0.308690 0.845406 0.435888
230.00000000 7050.00000000 280.00000000 72 58 190 97.000000 1.000000 4.000000 1.000000 -60.708740 114.000000 149.000000 0.414090 0.414090 0.810592
230.00000000 7070.00000000 250.00000000 72 58 190 97.000000 1.000000 4.000000 1.000000 -60.708740 114.000000 149.000000 0.364101 0.525924 0.768658
230.00000000 7070.00000000 240.00000000 72 58 190 97.000000 1.000000 4.000000 1.000000 -60.708740 114.000000 149.000000 0.111570 0.918734 0.378788
230.00000000 7070.00000000 250.00000000 72 58 190 97.000000 1.000000 4.000000 1.000000 -60.708740 114.000000 149.000000 0.364101 0.525924 0.768658
170.00000000 7120.00000000 250.00000000 72 58 190 97.000000 1.000000 4.000000 1.000000 -60.708740 114.000000 149.000000 0.139695 0.716501 0.683455
200.00000000 7070.00000000 250.00000000 72 58 190 97.000000 1.000000 4.000000 1.000000 -60.708740 114.000000 149.000000 0.582135 0.809240 0.079055
200.00000000 7070.00000000 250.00000000 72 58 190 97.000000 1.000000 4.000000 1.000000 -60.708740 114.000000 149.000000 0.582135 0.809240 0.079055
200.00000000 7070.00000000 250.00000000 72 58 190 97.000000 1.000000 4.000000 1.000000 -60.708740 114.000000 149.000000 0.582135 0.809240 0.079055
200.00000000 7070.00000000 250.00000000 72 58 190 97.000000 1.000000 4.000000 1.000000 -60.708740 114.000000 149.000000 0.582135 0.809240 0.079055
210.00000000 7120.00000000 230.00000000 72 58 190 97.000000 1.000000 4.000000 1.000000 -60.708740 114.000000 149.000000 0.634605 0.769872 0.067634
220.00000000 7090.00000000 220.00000000 72 58 190 97.000000 1.000000 4.000000 1.000000 -60.708740 114.000000 149.000000 0.333125 0.764418 0.551990
210.00000000 7090.00000000 230.00000000 72 58 190 97.000000 1.000000 4.000000 1.000000 -60.708740 114.000000 149.000000 0.296838 0.837673 0.458467
210.00000000 7100.00000000 200.00000000 72 58 190 97.000000 1.000000 4.000000 1.000000 -60.708740 114.000000 149.000000 0.356493 0.734147 0.577876
230.00000000 7090.00000000 210.00000000 72 58 190 97.000000 1.000000 4.000000 1.000000 -60.708740 114.000000 149.000000 0.340782 0.702761 0.624495
220.00000000 7050.00000000 230.00000000 72 58 190 97.000000 1.000000 4.000000 1.000000 -60.708740 114.000000 149.000000 0.315145 0.693319 0.648068
240.00000000 7050.00000000 220.00000000 72 58 190 97.000000 1.000000 4.000000 1.000000 -60.708740 114.000000 149.000000 0.180590 0.897171 0.403077
230.00000000 7080.00000000 230.00000000 72 58 190 97.000000 1.000000 4.000000 1.000000 -60.708740 114.000000 149.000000 0.205044 0.824734 0.527040
220.00000000 7080.00000000 220.00000000 72 58 190 97.000000 1.000000 4.000000 1.000000 -60.708740 114.000000 149.000000 0.076645 0.876535 0.475196
170.00000000 7120.00000000 210.00000000 72 58 190 97.000000 1.000000 4.000000 1.000000 -60.708740 114.000000 149.000000 0.693895 0.708817 0.126841
180.00000000 7110.00000000 210.00000000 72 58 190 97.000000 1.000000 4.000000 1.000000 -60.708740 114.000000 149.000000 0.379861 0.806203 0.453589
260.00000000 7180.00000000 140.00000000 72 58 190 97.000000 1.000000 4.000000 1.000000 -60.708740 114.000000 149.000000 0.243199 0.963790 -0.109375
100.00000000 7300.00000000 180.00000000 72 58 190 97.000000 1.000000 4.000000 1.000000 -60.708740 114.000000 149.000000 0.320151 0.821670 0.471553
110.00000000 7260.00000000 160.00000000 72 58 190 97.000000 1.000000 4.000000 1.000000 -60.708740 114.000000 149.000000 0.510173 0.850288 0.129360
90.00000000 7230.00000000 220.00000000 72 58 190 97.000000 1.000000 4.000000 1.000000 -60.708740 114.000000 149.000000 0.551920 0.819698 0.153229
100.00000000 7230.00000000 160.00000000 72 58 190 97.000000 1.000000 4.000000 1.000000 -60.708740 114.000000 149.000000 0.192997 0.981166 0.008090
80.00000000 7230.00000000 160.00000000 72 58 190 97.000000 1.000000 4.000000 1.000000 -60.708740 114.000000 149.000000 0.059123 0.962317 0.265424
100.00000000 7230.00000000 170.00000000 72 58 190 97.000000 1.000000 4.000000 1.000000 -60.708740 114.000000 149.000000 0.625619 0.779575 -0.029392
60.00000000 7280.00000000 160.00000000 72 58 190 97.000000 1.000000 4.000000 1.000000 -60.708740 114.000000 149.000000 0.193427 0.981032 0.012741
40.00000000 7240.00000000 170.00000000 72 58 190 97.000000 1.000000 4.000000 1.000000 -60.708740 114.000000 149.000000 0.227479 0.970826 -0.075826
70.00000000 7230.00000000 170.00000000 72 58 190 97.000000 1.000000 4.000000 1.000000 -60.708740 114.000000 149.000000 0.033687 0.999369 -0.011229
60.00000000 7230.00000000 190.00000000 72 58 190 97.000000 1.000000 4.000000 1.000000 -60.708740 114.000000 149.000000 0.419936 0.802866 0.423154
40.00000000 7230.00000000 160.00000000 72 58 190 97.000000 1.000000 4.000000 1.000000 -60.708740 114.000000 149.000000 0.560283 0.804548 0.196939
50.00000000 7230.00000000 160.00000000 72 58 190 97.000000 1.000000 4.000000 1.000000 -60.708740 114.000000 149.000000 0.357510 0.874759 -0.327084
30.00000000 7240.00000000 160.00000000 72 58 190 97.000000 1.000000 4.000000 1.000000 -60.708740 114.000000 149.000000 0.564238 0.822906 -0.066799
20.00000000 7240.00000000 160.00000000 72 58 190 97.000000 1.000000 4.000000 1.000000 -60.708740 114.000000 149.000000 0.274272 0.952664 0.131173
120.00000000 7350.00000000 110.00000000 72 58 190 97.000000 1.000000 4.000000 1.000000 -60.708740 114.000000 149.000000 -0.041489 0.956759 0.287908
