//X Y Z R G B PointSourceId ScanDirectionFlag NumberOfReturns ReturnNumber GpsTime Intensity Classification Nx Ny Nz
-7320.00000000 10360.00000000 -520.00000000 138 76 148 97.000000 1.000000 4.000000 1.000000 -60.708740 114.000000 148.000000 0.755567 -0.654638 0.023830
-7320.00000000 10360.00000000 -510.00000000 138 76 148 97.000000 1.000000 4.000000 1.000000 -60.708740 114.000000 148.000000 -0.644592 0.758601 0.095008
-7320.00000000 10340.00000000 -490.00000000 138 76 148 97.000000 1.000000 4.000000 1.000000 -60.708740 114.000000 148.000000 0.803901 -0.523873 0.281601
-7320.00000000 10350.00000000 -520.00000000 138 76 148 97.000000 1.000000 4.000000 1.000000 -60.708740 114.000000 148.000000 -0.509637 0.856020 -0.086596
-7310.00000000 10340.00000000 -500.00000000 138 76 148 97.000000 1.000000 4.000000 1.000000 -60.708740 114.000000 148.000000 0.755268 -0.611407 -0.236119
-7330.00000000 10340.00000000 -490.00000000 138 76 148 97.000000 1.000000 4.000000 1.000000 -60.708740 114.000000 148.000000 0.787052 -0.603258 -0.128952
-7330.00000000 10320.00000000 -360.00000000 138 76 148 97.000000 1.000000 4.000000 1.000000 -60.708740 114.000000 148.000000 0.780216 -0.580879 0.232040
-7340.00000000 10340.00000000 -380.00000000 138 76 148 97.000000 1.000000 4.000000 1.000000 -60.708740 114.000000 148.000000 -0.757628 0.582177 0.295076
-7340.00000000 10330.00000000 -420.00000000 138 76 148 97.000000 1.000000 4.000000 1.000000 -60.708740 114.000000 148.000000 -0.690492 0.721813 -0.046982
-7340.00000000 10330.00000000 -420.00000000 138 76 148 97.000000 1.000000 4.000000 1.000000 -60.708740 114.000000 148.000000 -0.690492 0.721813 -0.046982
-7350.00000000 10330.00000000 -410.00000000 138 76 148 97.000000 1.000000 4.000000 1.000000 -60.708740 114.000000 148.000000 0.810163 -0.579101 0.090981
-7340.00000000 10330.00000000 -470.00000000 138 76 148 97.000000 1.000000 4.000000 1.000000 -60.708740 114.000000 148.000000 -0.646616 0.755613 0.104578
-7360.00000000 10330.00000000 -460.00000000 138 76 148 97.000000 1.000000 4.000000 1.000000 -60.708740 114.000000 148.000000 0.802739 -0.596202 -0.012392
-7340.00000000 10330.00000000 -470.00000000 138 76 148 97.000000 1.000000 4.000000 1.000000 -60.708740 114.000000 148.000000 -0.646616 0.755613 0.104578
-7350.00000000 10340.00000000 -520.00000000 138 76 148 97.000000 1.000000 4.000000 1.000000 -60.708740 114.000000 148.000000 0.745136 -0.666256 0.029580
-7340.00000000 10340.00000000 -520.00000000 138 76 148 97.000000 1.000000 4.000000 1.000000 -60.708740 114.000000 148.000000 -0.686659 0.724087 0.064779
-7340.00000000 10330.00000000 -490.00000000 138 76 148 97.000000 1.000000 4.000000 1.000000 -60.708740 114.000000 148.000000 0.763307 -0.645226 -0.032332
-7340.00000000 10350.00000000 -520.00000000 138 76 148 97.000000 1.000000 4.000000 1.000000 -60.708740 114.000000 148.000000 -0.671878 0.712222 0.203270
-7350.00000000 10340.00000000 -520.00000000 138 76 148 97.000000 1.000000 4.000000 1.000000 -60.708740 114.000000 148.000000 0.745136 -0.666256 0.029580
-7350.00000000 10320.00000000 -380.00000000 138 76 148 97.000000 1.000000 4.000000 1.000000 -60.708740 114.000000 148.000000 0.797909 -0.601587 0.037862
-7360.00000000 10310.00000000 -390.00000000 138 76 148 97.000000 1.000000 4.000000 1.000000 -60.708740 114.000000 148.000000 0.818910 -0.560152 -0.124968
-7360.00000000 10310.00000000 -380.00000000 138 76 148 97.000000 1.000000 4.000000 1.000000 -60.708740 114.000000 148.000000 0.701979 -0.704922 -0.101544
-7350.00000000 10320.00000000 -390.00000000 138 76 148 97.000000 1.000000 4.000000 1.000000 -60.708740 114.000000 148.000000 0.717162 -0.606579 -0.343132
-7350.00000000 10310.00000000 -370.00000000 138 76 148 97.000000 1.000000 4.000000 1.000000 -60.708740 114.000000 148.000000 0.790077 -0.504816 -0.347762
-7350.00000000 10320.00000000 -370.00000000 138 76 148 97.000000 1.000000 4.000000 1.000000 -60.708740 114.000000 148.000000 0.827933 -0.547575 0.121197
-7340.00000000 10300.00000000 -360.00000000 138 76 148 97.000000 1.000000 4.000000 1.000000 -60.708740 114.000000 148.000000 0.823486 -0.511395 0.245655
-7370.00000000 10290.00000000 -390.00000000 138 76 148 97.000000 1.000000 4.000000 1.000000 -60.708740 114.000000 148.000000 -0.736314 0.664624 -0.126951
-7360.00000000 10310.00000000 -370.00000000 138 76 148 97.000000 1.000000 4.000000 1.000000 -60.708740 114.000000 148.000000 0.750693 -0.623246 -0.219146
-7360.00000000 10320.00000000 -430.00000000 138 76 148 97.000000 1.000000 4.000000 1.000000 -60.708740 114.000000 148.000000 0.739725 -0.662640 -0.117111
-7350.00000000 10320.00000000 -400.00000000 138 76 148 97.000000 1.000000 4.000000 1.000000 -60.708740 114.000000 148.000000 -0.652287 0.694162 0.304401
-7350.00000000 10300.00000000 -440.00000000 138 76 148 97.000000 1.000000 4.000000 1.000000 -60.708740 114.000000 148.000000 0.812489 -0.472229 0.341850
-7340.00000000 10320.00000000 -420.00000000 138 76 148 97.000000 1.000000 4.000000 1.000000 -60.708740 114.000000 148.000000 0.726204 -0.686567 -0.035390
-7360.00000000 10290.00000000 -440.00000000 138 76 148 97.000000 1.000000 4.000000 1.000000 -60.708740 114.000000 148.000000 0.837527 -0.469077 -0.280208
-7350.00000000 10310.00000000 -400.00000000 138 76 148 97.000000 1.000000 4.000000 1.000000 -60.708740 114.000000 148.000000 0.817233 -0.516392 -0.255870
-7370.00000000 10270.00000000 -360.00000000 138 76 148 97.000000 1.000000 4.000000 1.000000 -60.708740 114.000000 148.000000 0.849423 -0.428580 -0.307896
-7370.00000000 10270.00000000 -370.00000000 138 76 148 97.000000 1.000000 4.000000 1.000000 -60.708740 114.000000 148.000000 0.893786 -0.394792 -0.212806
-7360.00000000 10280.00000000 -360.00000000 138 76 148 97.000000 1.000000 4.000000 1.000000 -60.708740 114.000000 148.000000 0.782664 -0.593482 -0.187656
-7370.00000000 10250.00000000 -440.00000000 138 76 148 97.000000 1.000000 4.000000 1.000000 -60.708740 114.000000 148.000000 0.748008 -0.657252 -0.092220
-7360.00000000 10270.00000000 -420.00000000 138 76 148 97.000000 1.000000 4.000000 1.000000 -60.708740 114.000000 148.000000 0.888355 -0.458289 -0.028223
-7370.00000000 10260.00000000 -420.00000000 138 76 148 97.000000 1.000000 4.000000 1.000000 -60.708740 114.000000 148.000000 0.803064 -0.515917 -0.298191
-7350.00000000 10280.00000000 -410.00000000 138 76 148 97.000000 1.000000 4.000000 1.000000 -60.708740 114.000000 148.000000 0.865416 -0.448456 -0.223478
-7380.00000000 10260.00000000 -370.00000000 138 76 148 97.000000 1.000000 4.000000 1.000000 -60.708740 114.000000 148.000000 0.864530 -0.500517 -0.045502
-7380.00000000 10250.00000000 -370.00000000 138 76 148 97.000000 1.000000 4.000000 1.000000 -60.708740 114.000000 148.000000 0.843188 -0.534533 0.057522
-7380.00000000 10260.00000000 -370.00000000 138 76 148 97.000000 1.000000 4.000000 1.000000 -60.708740 114.000000 148.000000 0.864530 -0.500517 -0.045502
-7380.00000000 10260.00000000 -360.00000000 138 76 148 97.000000 1.000000 4.000000 1.000000 -60.708740 114.000000 148.000000 0.774628 -0.512645 -0.370333
-7390.00000000 10250.00000000 -410.00000000 138 76 148 97.000000 1.000000 4.000000 1.000000 -60.708740 114.000000 148.000000 0.896244 -0.442075 0.036280
-7380.00000000 10250.00000000 -440.00000000 138 76 148 97.000000 1.000000 4.000000 1.000000 -60.708740 114.000000 148.000000 0.760097 -0.630140 -0.158668
-7390.00000000 10250.00000000 -410.00000000 138 76 148 97.000000 1.000000 4.000000 1.000000 -60.708740 114.000000 148.000000 0.896244 -0.442075 0.036280
-7370.00000000 10310.00000000 -470.00000000 138 76 148 97.000000 1.000000 4.000000 1.000000 -60.708740 114.000000 148.000000 0.827824 -0.545511 0.130864
-7340.00000000 10300.00000000 -450.00000000 138 76 148 97.000000 1.000000 4.000000 1.000000 -60.708740 114.000000 148.000000 0.747552 -0.664027 -0.015313
-7370.00000000 10310.00000000 -470.00000000 138 76 148 97.000000 1.000000 4.000000 1.000000 -60.708740 114.000000 148.000000 0.827824 -0.545511 0.130864
-7360.00000000 10290.00000000 -460.00000000 138 76 148 97.000000 1.000000 4.000000 1.000000 -60.708740 114.000000 148.000000 0.712614 -0.685380 -0.149785
-7340.00000000 10320.00000000 -450.00000000 138 76 148 97.000000 1.000000 4.000000 1.000000 -60.708740 114.000000 148.000000 0.780701 -0.482055 -0.397654
-7360.00000000 10320.00000000 -450.00000000 138 76 148 97.000000 1.000000 4.000000 1.000000 -60.708740 114.000000 148.000000 0.828343 -0.482030 -0.285474
-7350.00000000 10300.00000000 -450.00000000 138 76 148 97.000000 1.000000 4.000000 1.000000 -60.708740 114.000000 148.000000 0.711561 -0.693809 -0.110950
-7340.00000000 10320.00000000 -450.00000000 138 76 148 97.000000 1.000000 4.000000 1.000000 -60.708740 114.000000 148.000000 0.780701 -0.482055 -0.397654
-7350.00000000 10320.00000000 -470.00000000 138 76 148 97.000000 1.000000 4.000000 1.000000 -60.708740 114.000000 148.000000 -0.684741 0.727449 -0.044131
-7350.00000000 10320.00000000 -500.00000000 138 76 148 97.000000 1.000000 4.000000 1.000000 -60.708740 114.000000 148.000000 0.821406 -0.537015 -0.192115
-7350.00000000 10310.00000000 -520.00000000 138 76 148 97.000000 1.000000 4.000000 1.000000 -60.708740 114.000000 148.000000 0.719141 -0.679943 -0.143225
-7350.00000000 10320.00000000 -490.00000000 138 76 148 97.000000 1.000000 4.000000 1.000000 -60.708740 114.000000 148.000000 -0.654893 0.755431 0.020945
-7370.00000000 10320.00000000 -510.00000000 138 76 148 97.000000 1.000000 4.000000 1.000000 -60.708740 114.000000 148.000000 0.834884 -0.514820 -0.194756
-7360.00000000 10310.00000000 -510.00000000 138 76 148 97.000000 1.000000 4.000000 1.000000 -60.708740 114.000000 148.000000 0.812271 -0.534835 0.232738
-7370.00000000 10320.00000000 -490.00000000 138 76 148 97.000000 1.000000 4.000000 1.000000 -60.708740 114.000000 148.000000 -0.571964 0.817296 -0.069891
-7370.00000000 10280.00000000 -450.00000000 138 76 148 97.000000 1.000000 4.000000 1.000000 -60.708740 114.000000 148.000000 0.672254 -0.662488 -0.330430
-7400.00000000 10290.00000000 -520.00000000 138 76 148 97.000000 1.000000 4.000000 1.000000 -60.708740 114.000000 148.000000 0.883635 -0.258661 -0.390235
-7390.00000000 10270.00000000 -480.00000000 138 76 148 97.000000 1.000000 4.000000 1.000000 -60.708740 114.000000 148.000000 0.861212 -0.508101 -0.012130
-7390.00000000 10270.00000000 -480.00000000 138 76 148 97.000000 1.000000 4.000000 1.000000 -60.708740 114.000000 148.000000 0.861212 -0.508101 -0.012130
-7380.00000000 10270.00000000 -470.00000000 138 76 148 97.000000 1.000000 4.000000 1.000000 -60.708740 114.000000 148.000000 0.818789 -0.572453 -0.043389
-7380.00000000 10280.00000000 -490.00000000 138 76 148 97.000000 1.000000 4.000000 1.000000 -60.708740 114.000000 148.000000 0.742846 -0.648661 0.165583
-7390.00000000 10260.00000000 -500.00000000 138 76 148 97.000000 1.000000 4.000000 1.000000 -60.708740 114.000000 148.000000 0.729467 -0.676415 -0.101683
-7380.00000000 10260.00000000 -490.00000000 138 76 148 97.000000 1.000000 4.000000 1.000000 -60.708740 114.000000 148.000000 0.835283 -0.507840 0.210716
-7400.00000000 10250.00000000 -500.00000000 138 76 148 97.000000 1.000000 4.000000 1.000000 -60.708740 114.000000 148.000000 0.780737 -0.538054 -0.317723
-7380.00000000 10280.00000000 -490.00000000 138 76 148 97.000000 1.000000 4.000000 1.000000 -60.708740 114.000000 148.000000 0.742846 -0.648661 0.165583
-7380.00000000 10260.00000000 -520.00000000 138 76 148 97.000000 1.000000 4.000000 1.000000 -60.708740 114.000000 148.000000 0.848910 -0.498047 0.176918
-7380.00000000 10270.00000000 -510.00000000 138 76 148 97.000000 1.000000 4.000000 1.000000 -60.708740 114.000000 148.000000 0.832095 -0.442001 -0.335040
-7380.00000000 10260.00000000 -520.00000000 138 76 148 97.000000 1.000000 4.000000 1.000000 -60.708740 114.000000 148.000000 0.848910 -0.498047 0.176918
-7380.00000000 10280.00000000 -510.00000000 138 76 148 97.000000 1.000000 4.000000 1.000000 -60.708740 114.000000 148.000000 0.900582 -0.378040 -0.214563
-7320.00000000 10370.00000000 -550.00000000 138 76 148 97.000000 1.000000 4.000000 1.000000 -60.708740 114.000000 148.000000 0.721750 -0.676546 -0.146158
-7300.00000000 10390.00000000 -550.00000000 138 76 148 97.000000 1.000000 4.000000 1.000000 -60.708740 114.000000 148.000000 0.714531 -0.644510 0.272126
-7320.00000000 10370.00000000 -560.00000000 138 76 148 97.000000 1.000000 4.000000 1.000000 -60.708740 114.000000 148.000000 -0.633787 0.762036 0.132722
-7300.00000000 10390.00000000 -550.00000000 138 76 148 97.000000 1.000000 4.000000 1.000000 -60.708740 114.000000 148.000000 0.714531 -0.644510 0.272126
-7320.00000000 10370.00000000 -550.00000000 138 76 148 97.000000 1.000000 4.000000 1.000000 -60.708740 114.000000 148.000000 0.721750 -0.676546 -0.146158
-7300.00000000 10380.00000000 -560.00000000 138 76 148 97.000000 1.000000 4.000000 1.000000 -60.708740 114.000000 148.000000 -0.551950 0.831454 -0.063524
-7320.00000000 10370.00000000 -550.00000000 138 76 148 97.000000 1.000000 4.000000 1.000000 -60.708740 114.000000 148.000000 0.721750 -0.676546 -0.146158
-7320.00000000 10400.00000000 -590.00000000 138 76 148 97.000000 1.000000 4.000000 1.000000 -60.708740 114.000000 148.000000 -0.624984 0.706151 -0.332784
-7300.00000000 10400.00000000 -580.00000000 138 76 148 97.000000 1.000000 4.000000 1.000000 -60.708740 114.000000 148.000000 -0.405957 0.912397 0.052252
-7320.00000000 10380.00000000 -590.00000000 138 76 148 97.000000 1.000000 4.000000 1.000000 -60.708740 114.000000 148.000000 0.780960 -0.541402 0.311426
-7320.00000000 10370.00000000 -570.00000000 138 76 148 97.000000 1.000000 4.000000 1.000000 -60.708740 114.000000 148.000000 0.542807 -0.715443 0.439889
-7320.00000000 10370.00000000 -570.00000000 138 76 148 97.000000 1.000000 4.000000 1.000000 -60.708740 114.000000 148.000000 0.542807 -0.715443 0.439889
-7320.00000000 10350.00000000 -530.00000000 138 76 148 97.000000 1.000000 4.000000 1.000000 -60.708740 114.000000 148.000000 -0.679558 0.716044 -0.159628
-7330.00000000 10360.00000000 -550.00000000 138 76 148 97.000000 1.000000 4.000000 1.000000 -60.708740 114.000000 148.000000 0.734966 -0.644843 -0.209768
-7330.00000000 10360.00000000 -560.00000000 138 76 148 97.000000 1.000000 4.000000 1.000000 -60.708740 114.000000 148.000000 0.719485 -0.694338 -0.015368
-7290.00000000 10400.00000000 -610.00000000 138 76 148 97.000000 1.000000 4.000000 1.000000 -60.708740 114.000000 148.000000 0.701680 -0.701680 -0.123651
-7310.00000000 10370.00000000 -640.00000000 138 76 148 97.000000 1.000000 4.000000 1.000000 -60.708740 114.000000 148.000000 0.719702 -0.640264 0.268498
-7320.00000000 10370.00000000 -640.00000000 138 76 148 97.000000 1.000000 4.000000 1.000000 -60.708740 114.000000 148.000000 -0.358759 0.933283 -0.016597
-7320.00000000 10390.00000000 -650.00000000 138 76 148 97.000000 1.000000 4.000000 1.000000 -60.708740 114.000000 148.000000 -0.548361 0.780421 -0.300406
-7330.00000000 10390.00000000 -650.00000000 138 76 148 97.000000 1.000000 4.000000 1.000000 -60.708740 114.000000 148.000000 -0.455890 0.766353 -0.452622
-7330.00000000 10370.00000000 -620.00000000 138 76 148 97.000000 1.000000 4.000000 1.000000 -60.708740 114.000000 148.000000 0.674165 -0.670932 -0.308790
-7330.00000000 10370.00000000 -640.00000000 138 76 148 97.000000 1.000000 4.000000 1.000000 -60.708740 114.000000 148.000000 -0.427544 0.898260 0.101664
-7310.00000000 10400.00000000 -630.00000000 138 76 148 97.000000 1.000000 4.000000 1.000000 -60.708740 114.000000 148.000000 0.786183 -0.538416 0.303355
-7330.00000000 10370.00000000 -690.00000000 138 76 148 97.000000 1.000000 4.000000 1.000000 -60.708740 114.000000 148.000000 0.639663 -0.609442 0.468414
-7330.00000000 10400.00000000 -690.00000000 138 76 148 97.000000 1.000000 4.000000 1.000000 -60.708740 114.000000 148.000000 0.784446 -0.490076 0.380092
-7320.00000000 10380.00000000 -690.00000000 138 76 148 97.000000 1.000000 4.000000 1.000000 -60.708740 114.000000 148.000000 -0.666987 0.744964 -0.012532
-7320.00000000 10380.00000000 -680.00000000 138 76 148 97.000000 1.000000 4.000000 1.000000 -60.708740 114.000000 148.000000 -0.528504 0.838872 -0.130296
-7330.00000000 10360.00000000 -630.00000000 138 76 148 97.000000 1.000000 4.000000 1.000000 -60.708740 114.000000 148.000000 -0.665568 0.745039 -0.043993
-7330.00000000 10360.00000000 -610.00000000 138 76 148 97.000000 1.000000 4.000000 1.000000 -60.708740 114.000000 148.000000 0.664590 -0.661324 -0.347808
-7340.00000000 10350.00000000 -530.00000000 138 76 148 97.000000 1.000000 4.000000 1.000000 -60.708740 114.000000 148.000000 0.755196 -0.655427 -0.009700
-7350.00000000 10330.00000000 -540.00000000 138 76 148 97.000000 1.000000 4.000000 1.000000 -60.708740 114.000000 148.000000 0.785994 -0.586814 0.194583
-7350.00000000 10340.00000000 -530.00000000 138 76 148 97.000000 1.000000 4.000000 1.000000 -60.708740 114.000000 148.000000 0.751855 -0.639909 0.158843
-7350.00000000 10340.00000000 -560.00000000 138 76 148 97.000000 1.000000 4.000000 1.000000 -60.708740 114.000000 148.000000 0.732931 -0.679060 -0.041112
-7340.00000000 10350.00000000 -550.00000000 138 76 148 97.000000 1.000000 4.000000 1.000000 -60.708740 114.000000 148.000000 0.801887 -0.590940 -0.088135
-7350.00000000 10340.00000000 -560.00000000 138 76 148 97.000000 1.000000 4.000000 1.000000 -60.708740 114.000000 148.000000 0.732931 -0.679060 -0.041112
-7340.00000000 10340.00000000 -530.00000000 138 76 148 97.000000 1.000000 4.000000 1.000000 -60.708740 114.000000 148.000000 0.709775 -0.652612 0.265173
-7350.00000000 10340.00000000 -530.00000000 138 76 148 97.000000 1.000000 4.000000 1.000000 -60.708740 114.000000 148.000000 0.751855 -0.639909 0.158843
-7350.00000000 10340.00000000 -560.00000000 138 76 148 97.000000 1.000000 4.000000 1.000000 -60.708740 114.000000 148.000000 0.732931 -0.679060 -0.041112
-7340.00000000 10330.00000000 -540.00000000 138 76 148 97.000000 1.000000 4.000000 1.000000 -60.708740 114.000000 148.000000 0.811508 -0.537412 0.229440
-7370.00000000 10350.00000000 -580.00000000 138 76 148 97.000000 1.000000 4.000000 1.000000 -60.708740 114.000000 148.000000 -0.556408 0.828241 0.066542
-7370.00000000 10350.00000000 -600.00000000 138 76 148 97.000000 1.000000 4.000000 1.000000 -60.708740 114.000000 148.000000 0.838145 -0.484433 -0.250675
-7340.00000000 10360.00000000 -590.00000000 138 76 148 97.000000 1.000000 4.000000 1.000000 -60.708740 114.000000 148.000000 0.654976 -0.708896 0.261673
-7340.00000000 10370.00000000 -640.00000000 138 76 148 97.000000 1.000000 4.000000 1.000000 -60.708740 114.000000 148.000000 0.692772 -0.637350 -0.337421
-7350.00000000 10370.00000000 -650.00000000 138 76 148 97.000000 1.000000 4.000000 1.000000 -60.708740 114.000000 148.000000 -0.496072 0.867096 0.045347
-7340.00000000 10370.00000000 -630.00000000 138 76 148 97.000000 1.000000 4.000000 1.000000 -60.708740 114.000000 148.000000 0.776619 -0.539630 0.325059
-7350.00000000 10400.00000000 -630.00000000 138 76 148 97.000000 1.000000 4.000000 1.000000 -60.708740 114.000000 148.000000 -0.581506 0.658593 -0.477605
-7340.00000000 10370.00000000 -660.00000000 138 76 148 97.000000 1.000000 4.000000 1.000000 -60.708740 114.000000 148.000000 -0.694569 0.719425 -0.001381
-7340.00000000 10380.00000000 -670.00000000 138 76 148 97.000000 1.000000 4.000000 1.000000 -60.708740 114.000000 148.000000 -0.632980 0.772377 0.052630
-7340.00000000 10380.00000000 -680.00000000 138 76 148 97.000000 1.000000 4.000000 1.000000 -60.708740 114.000000 148.000000 -0.501714 0.859060 -0.101486
-7340.00000000 10360.00000000 -630.00000000 138 76 148 97.000000 1.000000 4.000000 1.000000 -60.708740 114.000000 148.000000 -0.676182 0.731679 -0.086166
-7350.00000000 10360.00000000 -640.00000000 138 76 148 97.000000 1.000000 4.000000 1.000000 -60.708740 114.000000 148.000000 -0.726261 0.589169 0.354154
-7360.00000000 10350.00000000 -610.00000000 138 76 148 97.000000 1.000000 4.000000 1.000000 -60.708740 114.000000 148.000000 0.776717 -0.586818 0.228812
-7370.00000000 10330.00000000 -630.00000000 138 76 148 97.000000 1.000000 4.000000 1.000000 -60.708740 114.000000 148.000000 -0.640091 0.760752 -0.107418
-7370.00000000 10330.00000000 -630.00000000 138 76 148 97.000000 1.000000 4.000000 1.000000 -60.708740 114.000000 148.000000 -0.640091 0.760752 -0.107418
-7350.00000000 10340.00000000 -630.00000000 138 76 148 97.000000 1.000000 4.000000 1.000000 -60.708740 114.000000 148.000000 -0.526304 0.833439 -0.168477
-7350.00000000 10360.00000000 -620.00000000 138 76 148 97.000000 1.000000 4.000000 1.000000 -60.708740 114.000000 148.000000 0.836574 -0.485306 0.254208
-7350.00000000 10340.00000000 -650.00000000 138 76 148 97.000000 1.000000 4.000000 1.000000 -60.708740 114.000000 148.000000 0.677115 -0.692899 -0.247802
-7350.00000000 10350.00000000 -620.00000000 138 76 148 97.000000 1.000000 4.000000 1.000000 -60.708740 114.000000 148.000000 0.754698 -0.539535 0.373274
-7350.00000000 10340.00000000 -610.00000000 138 76 148 97.000000 1.000000 4.000000 1.000000 -60.708740 114.000000 148.000000 0.773167 -0.633858 -0.020896
-7350.00000000 10340.00000000 -630.00000000 138 76 148 97.000000 1.000000 4.000000 1.000000 -60.708740 114.000000 148.000000 -0.526304 0.833439 -0.168477
-7350.00000000 10340.00000000 -630.00000000 138 76 148 97.000000 1.000000 4.000000 1.000000 -60.708740 114.000000 148.000000 -0.526304 0.833439 -0.168477
-7350.00000000 10340.00000000 -630.00000000 138 76 148 97.000000 1.000000 4.000000 1.000000 -60.708740 114.000000 148.000000 -0.526304 0.833439 -0.168477
-7370.00000000 10330.00000000 -630.00000000 138 76 148 97.000000 1.000000 4.000000 1.000000 -60.708740 114.000000 148.000000 -0.640091 0.760752 -0.107418
-7370.00000000 10330.00000000 -640.00000000 138 76 148 97.000000 1.000000 4.000000 1.000000 -60.708740 114.000000 148.000000 0.755567 -0.654638 -0.023830
-7340.00000000 10350.00000000 -670.00000000 138 76 148 97.000000 1.000000 4.000000 1.000000 -60.708740 114.000000 148.000000 0.713999 -0.700135 0.004159
-7350.00000000 10360.00000000 -660.00000000 138 76 148 97.000000 1.000000 4.000000 1.000000 -60.708740 114.000000 148.000000 0.844489 -0.463007 0.269190
-7340.00000000 10360.00000000 -670.00000000 138 76 148 97.000000 1.000000 4.000000 1.000000 -60.708740 114.000000 148.000000 0.746767 -0.659084 -0.089144
-7370.00000000 10340.00000000 -670.00000000 138 76 148 97.000000 1.000000 4.000000 1.000000 -60.708740 114.000000 148.000000 -0.602764 0.774544 0.191719
-7340.00000000 10350.00000000 -690.00000000 138 76 148 97.000000 1.000000 4.000000 1.000000 -60.708740 114.000000 148.000000 -0.568080 0.822110 -0.037686
-7360.00000000 10340.00000000 -680.00000000 138 76 148 97.000000 1.000000 4.000000 1.000000 -60.708740 114.000000 148.000000 -0.632142 0.769374 -0.091975
-7350.00000000 10360.00000000 -690.00000000 138 76 148 97.000000 1.000000 4.000000 1.000000 -60.708740 114.000000 148.000000 -0.681568 0.608602 -0.406287
-7360.00000000 10350.00000000 -680.00000000 138 76 148 97.000000 1.000000 4.000000 1.000000 -60.708740 114.000000 148.000000 0.778542 -0.622544 0.079443
-7350.00000000 10350.00000000 -690.00000000 138 76 148 97.000000 1.000000 4.000000 1.000000 -60.708740 114.000000 148.000000 -0.509528 0.841245 -0.180800
-7370.00000000 10340.00000000 -680.00000000 138 76 148 97.000000 1.000000 4.000000 1.000000 -60.708740 114.000000 148.000000 0.688722 -0.723087 0.052979
-7360.00000000 10320.00000000 -560.00000000 138 76 148 97.000000 1.000000 4.000000 1.000000 -60.708740 114.000000 148.000000 -0.656920 0.749730 -0.079758
-7350.00000000 10320.00000000 -560.00000000 138 76 148 97.000000 1.000000 4.000000 1.000000 -60.708740 114.000000 148.000000 0.848800 -0.527929 -0.028796
-7360.00000000 10290.00000000 -580.00000000 138 76 148 97.000000 1.000000 4.000000 1.000000 -60.708740 114.000000 148.000000 0.898571 -0.333078 -0.285707
-7350.00000000 10320.00000000 -570.00000000 138 76 148 97.000000 1.000000 4.000000 1.000000 -60.708740 114.000000 148.000000 -0.632161 0.771034 0.076669
-7370.00000000 10320.00000000 -580.00000000 138 76 148 97.000000 1.000000 4.000000 1.000000 -60.708740 114.000000 148.000000 0.828495 -0.531855 -0.175287
-7350.00000000 10320.00000000 -580.00000000 138 76 148 97.000000 1.000000 4.000000 1.000000 -60.708740 114.000000 148.000000 0.710892 -0.702413 0.035333
-7370.00000000 10320.00000000 -600.00000000 138 76 148 97.000000 1.000000 4.000000 1.000000 -60.708740 114.000000 148.000000 0.872419 -0.388249 -0.296897
-7360.00000000 10310.00000000 -570.00000000 138 76 148 97.000000 1.000000 4.000000 1.000000 -60.708740 114.000000 148.000000 0.716000 -0.574446 -0.396681
-7370.00000000 10280.00000000 -570.00000000 138 76 148 97.000000 1.000000 4.000000 1.000000 -60.708740 114.000000 148.000000 -0.628305 0.741118 0.236594
-7370.00000000 10280.00000000 -590.00000000 138 76 148 97.000000 1.000000 4.000000 1.000000 -60.708740 114.000000 148.000000 -0.641100 0.714642 0.279782
-7380.00000000 10310.00000000 -530.00000000 138 76 148 97.000000 1.000000 4.000000 1.000000 -60.708740 114.000000 148.000000 0.851285 -0.490495 -0.186358
-7380.00000000 10310.00000000 -570.00000000 138 76 148 97.000000 1.000000 4.000000 1.000000 -60.708740 114.000000 148.000000 -0.618912 0.777683 0.110258
-7390.00000000 10310.00000000 -580.00000000 138 76 148 97.000000 1.000000 4.000000 1.000000 -60.708740 114.000000 148.000000 -0.708158 0.677166 -0.199896
-7390.00000000 10290.00000000 -580.00000000 138 76 148 97.000000 1.000000 4.000000 1.000000 -60.708740 114.000000 148.000000 0.899557 -0.416592 -0.131332
-7380.00000000 10270.00000000 -530.00000000 138 76 148 97.000000 1.000000 4.000000 1.000000 -60.708740 114.000000 148.000000 0.799367 -0.439089 -0.410138
-7390.00000000 10260.00000000 -540.00000000 138 76 148 97.000000 1.000000 4.000000 1.000000 -60.708740 114.000000 148.000000 0.909239 -0.230573 -0.346584
-7400.00000000 10250.00000000 -550.00000000 138 76 148 97.000000 1.000000 4.000000 1.000000 -60.708740 114.000000 148.000000 0.922430 -0.346789 -0.169884
-7400.00000000 10280.00000000 -570.00000000 138 76 148 97.000000 1.000000 4.000000 1.000000 -60.708740 114.000000 148.000000 0.876330 -0.461908 -0.136702
-7390.00000000 10280.00000000 -570.00000000 138 76 148 97.000000 1.000000 4.000000 1.000000 -60.708740 114.000000 148.000000 0.775911 -0.510255 0.370947
-7370.00000000 10310.00000000 -650.00000000 138 76 148 97.000000 1.000000 4.000000 1.000000 -60.708740 114.000000 148.000000 0.811815 -0.571060 -0.121846
-7380.00000000 10300.00000000 -610.00000000 138 76 148 97.000000 1.000000 4.000000 1.000000 -60.708740 114.000000 148.000000 0.891323 -0.319079 -0.322075
-7390.00000000 10320.00000000 -630.00000000 138 76 148 97.000000 1.000000 4.000000 1.000000 -60.708740 114.000000 148.000000 -0.618115 0.782370 0.076364
-7400.00000000 10300.00000000 -650.00000000 138 76 148 97.000000 1.000000 4.000000 1.000000 -60.708740 114.000000 148.000000 0.882480 -0.457530 0.109071
-7380.00000000 10290.00000000 -640.00000000 138 76 148 97.000000 1.000000 4.000000 1.000000 -60.708740 114.000000 148.000000 0.806442 -0.589702 -0.043629
-7400.00000000 10290.00000000 -660.00000000 138 76 148 97.000000 1.000000 4.000000 1.000000 -60.708740 114.000000 148.000000 -0.684615 0.711939 -0.156353
-7380.00000000 10320.00000000 -670.00000000 138 76 148 97.000000 1.000000 4.000000 1.000000 -60.708740 114.000000 148.000000 0.860770 -0.500579 0.092175
-7400.00000000 10300.00000000 -690.00000000 138 76 148 97.000000 1.000000 4.000000 1.000000 -60.708740 114.000000 148.000000 -0.650412 0.753185 -0.098369
-7380.00000000 10320.00000000 -670.00000000 138 76 148 97.000000 1.000000 4.000000 1.000000 -60.708740 114.000000 148.000000 0.860770 -0.500579 0.092175
-7410.00000000 10260.00000000 -640.00000000 138 76 148 97.000000 1.000000 4.000000 1.000000 -60.708740 114.000000 148.000000 0.870041 -0.487391 -0.074016
-7390.00000000 10260.00000000 -620.00000000 138 76 148 97.000000 1.000000 4.000000 1.000000 -60.708740 114.000000 148.000000 0.892790 -0.318533 0.318533
-7410.00000000 10260.00000000 -650.00000000 138 76 148 97.000000 1.000000 4.000000 1.000000 -60.708740 114.000000 148.000000 0.925832 -0.369527 0.079280
-7400.00000000 10280.00000000 -640.00000000 138 76 148 97.000000 1.000000 4.000000 1.000000 -60.708740 114.000000 148.000000 0.801987 -0.582589 0.131935
-7410.00000000 10260.00000000 -610.00000000 138 76 148 97.000000 1.000000 4.000000 1.000000 -60.708740 114.000000 148.000000 0.767198 -0.614064 -0.185291
-7380.00000000 10280.00000000 -620.00000000 138 76 148 97.000000 1.000000 4.000000 1.000000 -60.708740 114.000000 148.000000 0.857513 -0.474400 -0.199039
-7410.00000000 10260.00000000 -640.00000000 138 76 148 97.000000 1.000000 4.000000 1.000000 -60.708740 114.000000 148.000000 0.870041 -0.487391 -0.074016
-7410.00000000 10250.00000000 -660.00000000 138 76 148 97.000000 1.000000 4.000000 1.000000 -60.708740 114.000000 148.000000 0.948354 -0.264562 -0.175018
-7410.00000000 10250.00000000 -670.00000000 138 76 148 97.000000 1.000000 4.000000 1.000000 -60.708740 114.000000 148.000000 0.950701 -0.307617 -0.039243
-7410.00000000 10250.00000000 -660.00000000 138 76 148 97.000000 1.000000 4.000000 1.000000 -60.708740 114.000000 148.000000 0.948354 -0.264562 -0.175018
-7380.00000000 10270.00000000 -670.00000000 138 76 148 97.000000 1.000000 4.000000 1.000000 -60.708740 114.000000 148.000000 0.876970 -0.472862 -0.085592
-7410.00000000 10250.00000000 -670.00000000 138 76 148 97.000000 1.000000 4.000000 1.000000 -60.708740 114.000000 148.000000 0.950701 -0.307617 -0.039243
-7400.00000000 10270.00000000 -670.00000000 138 76 148 97.000000 1.000000 4.000000 1.000000 -60.708740 114.000000 148.000000 0.717931 -0.596913 0.358148
-7400.00000000 10280.00000000 -660.00000000 138 76 148 97.000000 1.000000 4.000000 1.000000 -60.708740 114.000000 148.000000 -0.609192 0.785344 -0.110095
-7410.00000000 10280.00000000 -660.00000000 138 76 148 97.000000 1.000000 4.000000 1.000000 -60.708740 114.000000 148.000000 0.816525 -0.552840 0.166301
-7390.00000000 10210.00000000 -390.00000000 138 76 148 97.000000 1.000000 4.000000 1.000000 -60.708740 114.000000 148.000000 0.931838 -0.362873 -0.001264
-7400.00000000 10210.00000000 -360.00000000 138 76 148 97.000000 1.000000 4.000000 1.000000 -60.708740 114.000000 148.000000 0.901457 0.036058 -0.431364
-7390.00000000 10210.00000000 -390.00000000 138 76 148 97.000000 1.000000 4.000000 1.000000 -60.708740 114.000000 148.000000 0.931838 -0.362873 -0.001264
-7400.00000000 10220.00000000 -390.00000000 138 76 148 97.000000 1.000000 4.000000 1.000000 -60.708740 114.000000 148.000000 0.915325 -0.300273 0.268360
-7400.00000000 10200.00000000 -390.00000000 138 76 148 97.000000 1.000000 4.000000 1.000000 -60.708740 114.000000 148.000000 0.932128 -0.343273 0.115329
-7390.00000000 10210.00000000 -390.00000000 138 76 148 97.000000 1.000000 4.000000 1.000000 -60.708740 114.000000 148.000000 0.931838 -0.362873 -0.001264
-7380.00000000 10220.00000000 -410.00000000 138 76 148 97.000000 1.000000 4.000000 1.000000 -60.708740 114.000000 148.000000 0.779950 -0.623105 -0.058461
-7400.00000000 10210.00000000 -410.00000000 138 76 148 97.000000 1.000000 4.000000 1.000000 -60.708740 114.000000 148.000000 0.860216 -0.421674 -0.286739
-7380.00000000 10240.00000000 -400.00000000 138 76 148 97.000000 1.000000 4.000000 1.000000 -60.708740 114.000000 148.000000 0.889642 -0.141827 -0.434076
-7400.00000000 10210.00000000 -410.00000000 138 76 148 97.000000 1.000000 4.000000 1.000000 -60.708740 114.000000 148.000000 0.860216 -0.421674 -0.286739
-7390.00000000 10220.00000000 -430.00000000 138 76 148 97.000000 1.000000 4.000000 1.000000 -60.708740 114.000000 148.000000 0.922675 -0.271206 -0.274076
-7390.00000000 10220.00000000 -420.00000000 138 76 148 97.000000 1.000000 4.000000 1.000000 -60.708740 114.000000 148.000000 0.901400 -0.422315 -0.095540
-7400.00000000 10200.00000000 -400.00000000 138 76 148 97.000000 1.000000 4.000000 1.000000 -60.708740 114.000000 148.000000 0.897002 -0.212178 -0.387774
-7400.00000000 10200.00000000 -400.00000000 138 76 148 97.000000 1.000000 4.000000 1.000000 -60.708740 114.000000 148.000000 0.897002 -0.212178 -0.387774
-7400.00000000 10210.00000000 -410.00000000 138 76 148 97.000000 1.000000 4.000000 1.000000 -60.708740 114.000000 148.000000 0.860216 -0.421674 -0.286739
-7400.00000000 10180.00000000 -370.00000000 138 76 148 97.000000 1.000000 4.000000 1.000000 -60.708740 114.000000 148.000000 0.852746 -0.471055 -0.225682
-7400.00000000 10180.00000000 -380.00000000 138 76 148 97.000000 1.000000 4.000000 1.000000 -60.708740 114.000000 148.000000 0.953102 -0.286323 -0.098056
-7410.00000000 10180.00000000 -380.00000000 138 76 148 97.000000 1.000000 4.000000 1.000000 -60.708740 114.000000 148.000000 0.966986 -0.250700 -0.045694
-7410.00000000 10170.00000000 -400.00000000 138 76 148 97.000000 1.000000 4.000000 1.000000 -60.708740 114.000000 148.000000 0.839993 -0.063316 -0.538890
-7400.00000000 10180.00000000 -400.00000000 138 76 148 97.000000 1.000000 4.000000 1.000000 -60.708740 114.000000 148.000000 0.873818 -0.459520 -0.159009
-7390.00000000 10160.00000000 -400.00000000 138 76 148 97.000000 1.000000 4.000000 1.000000 -60.708740 114.000000 148.000000 0.915642 -0.390072 -0.097176
-7410.00000000 10180.00000000 -420.00000000 138 76 148 97.000000 1.000000 4.000000 1.000000 -60.708740 114.000000 148.000000 0.848492 -0.529123 -0.009473
-7400.00000000 10180.00000000 -400.00000000 138 76 148 97.000000 1.000000 4.000000 1.000000 -60.708740 114.000000 148.000000 0.873818 -0.459520 -0.159009
-7400.00000000 10180.00000000 -430.00000000 138 76 148 97.000000 1.000000 4.000000 1.000000 -60.708740 114.000000 148.000000 0.911630 -0.275677 -0.304849
-7410.00000000 10230.00000000 -460.00000000 138 76 148 97.000000 1.000000 4.000000 1.000000 -60.708740 114.000000 148.000000 0.771236 -0.560463 -0.301788
-7400.00000000 10240.00000000 -460.00000000 138 76 148 97.000000 1.000000 4.000000 1.000000 -60.708740 114.000000 148.000000 0.888467 -0.390095 -0.241770
-7400.00000000 10240.00000000 -470.00000000 138 76 148 97.000000 1.000000 4.000000 1.000000 -60.708740 114.000000 148.000000 0.902496 -0.405057 -0.146389
-7410.00000000 10230.00000000 -480.00000000 138 76 148 97.000000 1.000000 4.000000 1.000000 -60.708740 114.000000 148.000000 0.842018 -0.472577 -0.260148
-7410.00000000 10220.00000000 -450.00000000 138 76 148 97.000000 1.000000 4.000000 1.000000 -60.708740 114.000000 148.000000 0.817367 -0.555333 -0.153349
-7410.00000000 10200.00000000 -510.00000000 138 76 148 97.000000 1.000000 4.000000 1.000000 -60.708740 114.000000 148.000000 0.822255 -0.529355 -0.208996
-7390.00000000 10240.00000000 -520.00000000 138 76 148 97.000000 1.000000 4.000000 1.000000 -60.708740 114.000000 148.000000 0.921286 -0.362678 -0.140347
-7390.00000000 10220.00000000 -510.00000000 138 76 148 97.000000 1.000000 4.000000 1.000000 -60.708740 114.000000 148.000000 0.897147 -0.441285 -0.019878
-7410.00000000 10200.00000000 -510.00000000 138 76 148 97.000000 1.000000 4.000000 1.000000 -60.708740 114.000000 148.000000 0.822255 -0.529355 -0.208996
-7410.00000000 10220.00000000 -490.00000000 138 76 148 97.000000 1.000000 4.000000 1.000000 -60.708740 114.000000 148.000000 0.920108 -0.248329 0.302875
-7390.00000000 10210.00000000 -490.00000000 138 76 148 97.000000 1.000000 4.000000 1.000000 -60.708740 114.000000 148.000000 0.819512 -0.486044 -0.303581
-7400.00000000 10200.00000000 -500.00000000 138 76 148 97.000000 1.000000 4.000000 1.000000 -60.708740 114.000000 148.000000 0.910076 -0.403407 -0.095000
-7390.00000000 10180.00000000 -460.00000000 138 76 148 97.000000 1.000000 4.000000 1.000000 -60.708740 114.000000 148.000000 0.910686 0.086276 -0.403989
-7400.00000000 10160.00000000 -460.00000000 138 76 148 97.000000 1.000000 4.000000 1.000000 -60.708740 114.000000 148.000000 0.867940 -0.371974 -0.329113
-7390.00000000 10160.00000000 -460.00000000 138 76 148 97.000000 1.000000 4.000000 1.000000 -60.708740 114.000000 148.000000 0.890088 -0.453850 0.041998
-7390.00000000 10160.00000000 -450.00000000 138 76 148 97.000000 1.000000 4.000000 1.000000 -60.708740 114.000000 148.000000 0.918015 -0.379630 -0.114579
-7410.00000000 10190.00000000 -490.00000000 138 76 148 97.000000 1.000000 4.000000 1.000000 -60.708740 114.000000 148.000000 0.874063 -0.222624 -0.431802
-7410.00000000 10160.00000000 -500.00000000 138 76 148 97.000000 1.000000 4.000000 1.000000 -60.708740 114.000000 148.000000 0.953825 -0.173057 0.245499
-7410.00000000 10190.00000000 -490.00000000 138 76 148 97.000000 1.000000 4.000000 1.000000 -60.708740 114.000000 148.000000 0.874063 -0.222624 -0.431802
-7410.00000000 10180.00000000 -520.00000000 138 76 148 97.000000 1.000000 4.000000 1.000000 -60.708740 114.000000 148.000000 0.914778 0.033001 -0.402608
-7410.00000000 10180.00000000 -520.00000000 138 76 148 97.000000 1.000000 4.000000 1.000000 -60.708740 114.000000 148.000000 0.914778 0.033001 -0.402608
-7370.00000000 10100.00000000 -430.00000000 138 76 148 97.000000 1.000000 4.000000 1.000000 -60.708740 114.000000 148.000000 0.977177 -0.173029 -0.123236
-7380.00000000 10130.00000000 -370.00000000 138 76 148 97.000000 1.000000 4.000000 1.000000 -60.708740 114.000000 148.000000 0.918004 0.074141 -0.389579
-7400.00000000 10130.00000000 -370.00000000 138 76 148 97.000000 1.000000 4.000000 1.000000 -60.708740 114.000000 148.000000 0.944787 -0.102032 -0.311395
-7390.00000000 10140.00000000 -380.00000000 138 76 148 97.000000 1.000000 4.000000 1.000000 -60.708740 114.000000 148.000000 0.972375 -0.215945 -0.088625
-7390.00000000 10130.00000000 -410.00000000 138 76 148 97.000000 1.000000 4.000000 1.000000 -60.708740 114.000000 148.000000 0.857114 0.176160 -0.484070
-7410.00000000 10150.00000000 -440.00000000 138 76 148 97.000000 1.000000 4.000000 1.000000 -60.708740 114.000000 148.000000 0.971758 -0.164295 0.169389
-7400.00000000 10120.00000000 -400.00000000 138 76 148 97.000000 1.000000 4.000000 1.000000 -60.708740 114.000000 148.000000 0.961454 -0.241342 0.131760
-7390.00000000 10100.00000000 -390.00000000 138 76 148 97.000000 1.000000 4.000000 1.000000 -60.708740 114.000000 148.000000 0.844663 -0.180892 -0.503808
-7400.00000000 10110.00000000 -400.00000000 138 76 148 97.000000 1.000000 4.000000 1.000000 -60.708740 114.000000 148.000000 0.902805 0.019827 -0.429593
-7380.00000000 10080.00000000 -430.00000000 138 76 148 97.000000 1.000000 4.000000 1.000000 -60.708740 114.000000 148.000000 0.999995 0.002944 0.000981
-7380.00000000 10090.00000000 -400.00000000 138 76 148 97.000000 1.000000 4.000000 1.000000 -60.708740 114.000000 148.000000 0.813341 -0.043547 -0.580155
-7400.00000000 10100.00000000 -400.00000000 138 76 148 97.000000 1.000000 4.000000 1.000000 -60.708740 114.000000 148.000000 0.915466 -0.126415 -0.382023
-7400.00000000 10110.00000000 -400.00000000 138 76 148 97.000000 1.000000 4.000000 1.000000 -60.708740 114.000000 148.000000 0.902805 0.019827 -0.429593
-7370.00000000 10080.00000000 -460.00000000 138 76 148 97.000000 1.000000 4.000000 1.000000 -60.708740 114.000000 148.000000 0.809056 0.257214 -0.528459
-7410.00000000 10120.00000000 -460.00000000 138 76 148 97.000000 1.000000 4.000000 1.000000 -60.708740 114.000000 148.000000 0.898782 -0.081207 -0.430810
-7400.00000000 10150.00000000 -460.00000000 138 76 148 97.000000 1.000000 4.000000 1.000000 -60.708740 114.000000 148.000000 0.902155 -0.337020 -0.269322
-7390.00000000 10150.00000000 -470.00000000 138 76 148 97.000000 1.000000 4.000000 1.000000 -60.708740 114.000000 148.000000 0.942140 -0.313151 0.119616
-7400.00000000 10150.00000000 -500.00000000 138 76 148 97.000000 1.000000 4.000000 1.000000 -60.708740 114.000000 148.000000 0.970577 -0.060430 -0.233086
-7400.00000000 10150.00000000 -490.00000000 138 76 148 97.000000 1.000000 4.000000 1.000000 -60.708740 114.000000 148.000000 0.794976 -0.424095 -0.433770
-7380.00000000 10080.00000000 -490.00000000 138 76 148 97.000000 1.000000 4.000000 1.000000 -60.708740 114.000000 148.000000 0.991433 -0.037221 0.125198
-7400.00000000 10230.00000000 -540.00000000 138 76 148 97.000000 1.000000 4.000000 1.000000 -60.708740 114.000000 148.000000 0.800315 -0.511885 -0.312202
-7400.00000000 10220.00000000 -530.00000000 138 76 148 97.000000 1.000000 4.000000 1.000000 -60.708740 114.000000 148.000000 0.859578 -0.224303 -0.459144
-7390.00000000 10240.00000000 -530.00000000 138 76 148 97.000000 1.000000 4.000000 1.000000 -60.708740 114.000000 148.000000 0.846511 -0.531976 -0.020513
-7410.00000000 10210.00000000 -540.00000000 138 76 148 97.000000 1.000000 4.000000 1.000000 -60.708740 114.000000 148.000000 0.856646 -0.441303 -0.267225
-7400.00000000 10220.00000000 -580.00000000 138 76 148 97.000000 1.000000 4.000000 1.000000 -60.708740 114.000000 148.000000 0.874962 -0.480885 0.056494
-7390.00000000 10230.00000000 -580.00000000 138 76 148 97.000000 1.000000 4.000000 1.000000 -60.708740 114.000000 148.000000 0.945949 -0.298369 0.127108
-7410.00000000 10220.00000000 -590.00000000 138 76 148 97.000000 1.000000 4.000000 1.000000 -60.708740 114.000000 148.000000 0.832479 -0.523487 -0.181495
-7410.00000000 10220.00000000 -590.00000000 138 76 148 97.000000 1.000000 4.000000 1.000000 -60.708740 114.000000 148.000000 0.832479 -0.523487 -0.181495
-7400.00000000 10240.00000000 -600.00000000 138 76 148 97.000000 1.000000 4.000000 1.000000 -60.708740 114.000000 148.000000 -0.680095 0.731423 0.049902
-7410.00000000 10240.00000000 -590.00000000 138 76 148 97.000000 1.000000 4.000000 1.000000 -60.708740 114.000000 148.000000 0.879063 -0.405836 0.250091
-7400.00000000 10190.00000000 -530.00000000 138 76 148 97.000000 1.000000 4.000000 1.000000 -60.708740 114.000000 148.000000 0.925411 -0.374666 -0.056928
-7400.00000000 10190.00000000 -560.00000000 138 76 148 97.000000 1.000000 4.000000 1.000000 -60.708740 114.000000 148.000000 0.975451 -0.151904 -0.159437
-7400.00000000 10190.00000000 -530.00000000 138 76 148 97.000000 1.000000 4.000000 1.000000 -60.708740 114.000000 148.000000 0.925411 -0.374666 -0.056928
-7410.00000000 10160.00000000 -600.00000000 138 76 148 97.000000 1.000000 4.000000 1.000000 -60.708740 114.000000 148.000000 0.948644 -0.052631 -0.311936
-7410.00000000 10220.00000000 -630.00000000 138 76 148 97.000000 1.000000 4.000000 1.000000 -60.708740 114.000000 148.000000 0.891992 -0.288366 -0.348131
-7400.00000000 10240.00000000 -620.00000000 138 76 148 97.000000 1.000000 4.000000 1.000000 -60.708740 114.000000 148.000000 0.805151 -0.504603 0.311620
-7400.00000000 10190.00000000 -610.00000000 138 76 148 97.000000 1.000000 4.000000 1.000000 -60.708740 114.000000 148.000000 0.851352 -0.265376 -0.452521
-7410.00000000 10170.00000000 -660.00000000 138 76 148 97.000000 1.000000 4.000000 1.000000 -60.708740 114.000000 148.000000 0.972235 -0.233859 -0.008310
-7410.00000000 10150.00000000 -560.00000000 138 76 148 97.000000 1.000000 4.000000 1.000000 -60.708740 114.000000 148.000000 0.947087 -0.315696 0.057985
-7390.00000000 10130.00000000 -540.00000000 138 76 148 97.000000 1.000000 4.000000 1.000000 -60.708740 114.000000 148.000000 0.939287 0.102881 -0.327347
-7410.00000000 10150.00000000 -560.00000000 138 76 148 97.000000 1.000000 4.000000 1.000000 -60.708740 114.000000 148.000000 0.947087 -0.315696 0.057985
-7390.00000000 10150.00000000 -580.00000000 138 76 148 97.000000 1.000000 4.000000 1.000000 -60.708740 114.000000 148.000000 0.952623 -0.195375 0.233103
-7400.00000000 10110.00000000 -560.00000000 138 76 148 97.000000 1.000000 4.000000 1.000000 -60.708740 114.000000 148.000000 0.940534 0.117062 -0.318893
-7390.00000000 10110.00000000 -550.00000000 138 76 148 97.000000 1.000000 4.000000 1.000000 -60.708740 114.000000 148.000000 0.931113 0.118604 -0.344907
-7390.00000000 10090.00000000 -530.00000000 138 76 148 97.000000 1.000000 4.000000 1.000000 -60.708740 114.000000 148.000000 0.988255 0.030847 0.149666
-7400.00000000 10110.00000000 -560.00000000 138 76 148 97.000000 1.000000 4.000000 1.000000 -60.708740 114.000000 148.000000 0.940534 0.117062 -0.318893
-7400.00000000 10080.00000000 -590.00000000 138 76 148 97.000000 1.000000 4.000000 1.000000 -60.708740 114.000000 148.000000 0.946661 0.039497 -0.319801
-7410.00000000 10150.00000000 -610.00000000 138 76 148 97.000000 1.000000 4.000000 1.000000 -60.708740 114.000000 148.000000 0.858755 -0.505067 0.086300
-7400.00000000 10140.00000000 -610.00000000 138 76 148 97.000000 1.000000 4.000000 1.000000 -60.708740 114.000000 148.000000 0.964296 -0.111709 -0.240111
-7390.00000000 10120.00000000 -640.00000000 138 76 148 97.000000 1.000000 4.000000 1.000000 -60.708740 114.000000 148.000000 0.998535 -0.017738 0.051127
-7410.00000000 10140.00000000 -630.00000000 138 76 148 97.000000 1.000000 4.000000 1.000000 -60.708740 114.000000 148.000000 0.967003 -0.108294 -0.230603
-7410.00000000 10120.00000000 -660.00000000 138 76 148 97.000000 1.000000 4.000000 1.000000 -60.708740 114.000000 148.000000 0.980607 0.029359 -0.193773
-7410.00000000 10120.00000000 -660.00000000 138 76 148 97.000000 1.000000 4.000000 1.000000 -60.708740 114.000000 148.000000 0.980607 0.029359 -0.193773
-7400.00000000 10110.00000000 -630.00000000 138 76 148 97.000000 1.000000 4.000000 1.000000 -60.708740 114.000000 148.000000 0.884838 -0.096757 -0.455741
-7400.00000000 10090.00000000 -610.00000000 138 76 148 97.000000 1.000000 4.000000 1.000000 -60.708740 114.000000 148.000000 0.991534 -0.060334 0.114977
-7410.00000000 10110.00000000 -640.00000000 138 76 148 97.000000 1.000000 4.000000 1.000000 -60.708740 114.000000 148.000000 0.963879 -0.212601 -0.160429
-7400.00000000 10080.00000000 -610.00000000 138 76 148 97.000000 1.000000 4.000000 1.000000 -60.708740 114.000000 148.000000 0.987064 -0.088658 0.133579
-7400.00000000 10080.00000000 -610.00000000 138 76 148 97.000000 1.000000 4.000000 1.000000 -60.708740 114.000000 148.000000 0.987064 -0.088658 0.133579
-7410.00000000 10110.00000000 -650.00000000 138 76 148 97.000000 1.000000 4.000000 1.000000 -60.708740 114.000000 148.000000 0.988244 -0.068839 -0.136511
-7410.00000000 10110.00000000 -640.00000000 138 76 148 97.000000 1.000000 4.000000 1.000000 -60.708740 114.000000 148.000000 0.963879 -0.212601 -0.160429
-7400.00000000 10110.00000000 -640.00000000 138 76 148 97.000000 1.000000 4.000000 1.000000 -60.708740 114.000000 148.000000 0.983591 -0.173159 -0.050652
-7390.00000000 10080.00000000 -680.00000000 138 76 148 97.000000 1.000000 4.000000 1.000000 -60.708740 114.000000 148.000000 0.953659 0.028823 -0.299507
-7390.00000000 10080.00000000 -680.00000000 138 76 148 97.000000 1.000000 4.000000 1.000000 -60.708740 114.000000 148.000000 0.953659 0.028823 -0.299507
-7120.00000000 9820.00000000 -60.00000000 138 76 148 97.000000 1.000000 4.000000 1.000000 -60.708740 114.000000 148.000000 0.512730 0.751894 -0.414443
-7150.00000000 9830.00000000 -20.00000000 138 76 148 97.000000 1.000000 4.000000 1.000000 -60.708740 114.000000 148.000000 0.657231 0.692583 -0.297281
-7160.00000000 9830.00000000 -80.00000000 138 76 148 97.000000 1.000000 4.000000 1.000000 -60.708740 114.000000 148.000000 0.162159 0.765332 -0.622874
-7100.00000000 9820.00000000 -170.00000000 138 76 148 97.000000 1.000000 4.000000 1.000000 -60.708740 114.000000 148.000000 -0.116380 -0.794033 0.596630
-7130.00000000 9830.00000000 -120.00000000 138 76 148 97.000000 1.000000 4.000000 1.000000 -60.708740 114.000000 148.000000 0.333037 0.719684 -0.609214
-7150.00000000 9820.00000000 -140.00000000 138 76 148 97.000000 1.000000 4.000000 1.000000 -60.708740 114.000000 148.000000 0.154194 0.889139 -0.430879
-7130.00000000 9830.00000000 -120.00000000 138 76 148 97.000000 1.000000 4.000000 1.000000 -60.708740 114.000000 148.000000 0.333037 0.719684 -0.609214
-7150.00000000 9830.00000000 -130.00000000 138 76 148 97.000000 1.000000 4.000000 1.000000 -60.708740 114.000000 148.000000 0.091582 0.792256 -0.603277
-7160.00000000 9820.00000000 -150.00000000 138 76 148 97.000000 1.000000 4.000000 1.000000 -60.708740 114.000000 148.000000 0.448164 0.787928 -0.422278
