//X Y Z R G B PointSourceId ScanDirectionFlag NumberOfReturns ReturnNumber GpsTime Intensity Classification Nx Ny Nz
-17930.00000000 10200.00000000 -1090.00000000 254 37 110 0.000000 0.000000 0.000000 0.000000 -60.708740 0.000000 62.000000 0.592079 0.507737 0.625816
-17930.00000000 10170.00000000 -1110.00000000 254 37 110 0.000000 0.000000 0.000000 0.000000 -60.708740 0.000000 62.000000 0.656933 0.509081 0.556125
-17910.00000000 10160.00000000 -1100.00000000 254 37 110 0.000000 0.000000 0.000000 0.000000 -60.708740 0.000000 62.000000 0.668762 0.445285 0.595381
-17900.00000000 10160.00000000 -1120.00000000 254 37 110 0.000000 0.000000 0.000000 0.000000 -60.708740 0.000000 62.000000 0.720824 0.631320 0.286092
-17900.00000000 10160.00000000 -1120.00000000 254 37 110 0.000000 0.000000 0.000000 0.000000 -60.708740 0.000000 62.000000 0.720824 0.631320 0.286092
-17930.00000000 10200.00000000 -1130.00000000 254 37 110 0.000000 0.000000 0.000000 0.000000 -60.708740 0.000000 62.000000 0.657119 0.485696 0.576449
-17940.00000000 10200.00000000 -1120.00000000 254 37 110 0.000000 0.000000 0.000000 0.000000 -60.708740 0.000000 62.000000 0.362849 0.785366 0.501538
-17920.00000000 10200.00000000 -1160.00000000 254 37 110 0.000000 0.000000 0.000000 0.000000 -60.708740 0.000000 62.000000 0.271130 0.439629 0.856280
-17940.00000000 10180.00000000 -1150.00000000 254 37 110 0.000000 0.000000 0.000000 0.000000 -60.708740 0.000000 62.000000 0.407884 0.866180 0.288727
-17940.00000000 10140.00000000 -1060.00000000 254 37 110 0.000000 0.000000 0.000000 0.000000 -60.708740 0.000000 62.000000 0.616874 0.689254 0.379994
-17930.00000000 10110.00000000 -1040.00000000 254 37 110 0.000000 0.000000 0.000000 0.000000 -60.708740 0.000000 62.000000 0.497409 0.817508 0.290286
-17950.00000000 10240.00000000 -1090.00000000 254 37 110 0.000000 0.000000 0.000000 0.000000 -60.708740 0.000000 62.000000 0.553013 0.818340 0.156513
-17990.00000000 10240.00000000 -1110.00000000 254 37 110 0.000000 0.000000 0.000000 0.000000 -60.708740 0.000000 62.000000 0.492368 0.724461 0.482421
-18000.00000000 10180.00000000 -1070.00000000 254 37 110 0.000000 0.000000 0.000000 0.000000 -60.708740 0.000000 62.000000 0.725226 0.663896 0.182456
-18010.00000000 10180.00000000 -1070.00000000 254 37 110 0.000000 0.000000 0.000000 0.000000 -60.708740 0.000000 62.000000 0.589627 0.806340 -0.046438
-17990.00000000 10170.00000000 -1080.00000000 254 37 110 0.000000 0.000000 0.000000 0.000000 -60.708740 0.000000 62.000000 0.628932 0.541252 0.558114
-17960.00000000 10210.00000000 -1170.00000000 254 37 110 0.000000 0.000000 0.000000 0.000000 -60.708740 0.000000 62.000000 0.439243 0.861767 0.253818
-17970.00000000 10160.00000000 -1160.00000000 254 37 110 0.000000 0.000000 0.000000 0.000000 -60.708740 0.000000 62.000000 0.410366 0.498652 0.763509
-17990.00000000 10160.00000000 -1140.00000000 254 37 110 0.000000 0.000000 0.000000 0.000000 -60.708740 0.000000 62.000000 0.718343 0.539172 0.439633
-17960.00000000 10120.00000000 -1080.00000000 254 37 110 0.000000 0.000000 0.000000 0.000000 -60.708740 0.000000 62.000000 0.755722 0.622814 0.202453
-17980.00000000 10100.00000000 -1040.00000000 254 37 110 0.000000 0.000000 0.000000 0.000000 -60.708740 0.000000 62.000000 0.458384 0.881289 0.114951
-18000.00000000 10100.00000000 -1060.00000000 254 37 110 0.000000 0.000000 0.000000 0.000000 -60.708740 0.000000 62.000000 0.422174 0.886712 0.188444
-17970.00000000 10210.00000000 -1210.00000000 254 37 110 0.000000 0.000000 0.000000 0.000000 -60.708740 0.000000 62.000000 0.136777 0.707936 0.692906
-17980.00000000 10210.00000000 -1220.00000000 254 37 110 0.000000 0.000000 0.000000 0.000000 -60.708740 0.000000 62.000000 0.453147 0.583574 0.673869
-18010.00000000 10200.00000000 -1270.00000000 254 37 110 0.000000 0.000000 0.000000 0.000000 -60.708740 0.000000 62.000000 0.212690 0.438765 0.873068
-18000.00000000 10180.00000000 -1230.00000000 254 37 110 0.000000 0.000000 0.000000 0.000000 -60.708740 0.000000 62.000000 0.202187 0.763988 0.612734
-18140.00000000 10270.00000000 -1090.00000000 254 37 110 0.000000 0.000000 0.000000 0.000000 -60.708740 0.000000 62.000000 0.724477 0.489063 0.485748
-18100.00000000 10250.00000000 -1050.00000000 254 37 110 0.000000 0.000000 0.000000 0.000000 -60.708740 0.000000 62.000000 0.750982 0.655112 0.082797
-18090.00000000 10340.00000000 -1280.00000000 254 37 110 0.000000 0.000000 0.000000 0.000000 -60.708740 0.000000 62.000000 0.137525 0.554538 0.820716
-18030.00000000 10370.00000000 -1300.00000000 254 37 110 0.000000 0.000000 0.000000 0.000000 -60.708740 0.000000 62.000000 0.420905 0.755009 0.502793
-18030.00000000 10350.00000000 -1320.00000000 254 37 110 0.000000 0.000000 0.000000 0.000000 -60.708740 0.000000 62.000000 0.240663 0.737718 0.630757
-18060.00000000 10340.00000000 -1300.00000000 254 37 110 0.000000 0.000000 0.000000 0.000000 -60.708740 0.000000 62.000000 0.262443 0.787328 0.557887
-18090.00000000 10250.00000000 -1280.00000000 254 37 110 0.000000 0.000000 0.000000 0.000000 -60.708740 0.000000 62.000000 0.557148 0.399371 0.728072
-18070.00000000 10320.00000000 -1290.00000000 254 37 110 0.000000 0.000000 0.000000 0.000000 -60.708740 0.000000 62.000000 0.380992 0.362331 0.850624
-18030.00000000 10320.00000000 -1300.00000000 254 37 110 0.000000 0.000000 0.000000 0.000000 -60.708740 0.000000 62.000000 0.642838 0.534854 0.548352
-18080.00000000 10250.00000000 -1350.00000000 254 37 110 0.000000 0.000000 0.000000 0.000000 -60.708740 0.000000 62.000000 0.371804 0.574904 0.728867
-18030.00000000 10320.00000000 -1300.00000000 254 37 110 0.000000 0.000000 0.000000 0.000000 -60.708740 0.000000 62.000000 0.642838 0.534854 0.548352
-18040.00000000 10150.00000000 -1110.00000000 254 37 110 0.000000 0.000000 0.000000 0.000000 -60.708740 0.000000 62.000000 0.803878 0.539547 0.250337
-18030.00000000 10120.00000000 -1110.00000000 254 37 110 0.000000 0.000000 0.000000 0.000000 -60.708740 0.000000 62.000000 0.553328 0.446983 0.702876
-18040.00000000 10150.00000000 -1120.00000000 254 37 110 0.000000 0.000000 0.000000 0.000000 -60.708740 0.000000 62.000000 0.716316 0.696378 0.044147
-18060.00000000 10120.00000000 -1150.00000000 254 37 110 0.000000 0.000000 0.000000 0.000000 -60.708740 0.000000 62.000000 0.192875 0.850742 0.488915
-18030.00000000 10150.00000000 -1130.00000000 254 37 110 0.000000 0.000000 0.000000 0.000000 -60.708740 0.000000 62.000000 0.566981 0.644373 0.513143
-18120.00000000 10200.00000000 -1110.00000000 254 37 110 0.000000 0.000000 0.000000 0.000000 -60.708740 0.000000 62.000000 0.508521 0.842564 0.177460
-18120.00000000 10190.00000000 -1050.00000000 254 37 110 0.000000 0.000000 0.000000 0.000000 -60.708740 0.000000 62.000000 0.755099 0.650747 -0.079713
-18170.00000000 10170.00000000 -1060.00000000 254 37 110 0.000000 0.000000 0.000000 0.000000 -60.708740 0.000000 62.000000 0.543589 0.820654 0.176177
-18170.00000000 10180.00000000 -1080.00000000 254 37 110 0.000000 0.000000 0.000000 0.000000 -60.708740 0.000000 62.000000 0.466655 0.580392 0.667367
-18190.00000000 10190.00000000 -1090.00000000 254 37 110 0.000000 0.000000 0.000000 0.000000 -60.708740 0.000000 62.000000 0.774445 0.607080 0.178016
-18190.00000000 10180.00000000 -1110.00000000 254 37 110 0.000000 0.000000 0.000000 0.000000 -60.708740 0.000000 62.000000 0.438400 0.581755 0.685104
-18190.00000000 10170.00000000 -1190.00000000 254 37 110 0.000000 0.000000 0.000000 0.000000 -60.708740 0.000000 62.000000 0.614703 0.774014 0.151797
-18150.00000000 10150.00000000 -1130.00000000 254 37 110 0.000000 0.000000 0.000000 0.000000 -60.708740 0.000000 62.000000 0.469290 0.877981 0.094422
-18040.00000000 10190.00000000 -1270.00000000 254 37 110 0.000000 0.000000 0.000000 0.000000 -60.708740 0.000000 62.000000 0.560042 0.660951 0.499497
-18050.00000000 10220.00000000 -1300.00000000 254 37 110 0.000000 0.000000 0.000000 0.000000 -60.708740 0.000000 62.000000 0.458923 0.552377 0.695895
-18060.00000000 10240.00000000 -1300.00000000 254 37 110 0.000000 0.000000 0.000000 0.000000 -60.708740 0.000000 62.000000 0.388272 0.498743 0.774920
-18030.00000000 10220.00000000 -1320.00000000 254 37 110 0.000000 0.000000 0.000000 0.000000 -60.708740 0.000000 62.000000 0.390474 0.457963 0.798624
-18040.00000000 10240.00000000 -1350.00000000 254 37 110 0.000000 0.000000 0.000000 0.000000 -60.708740 0.000000 62.000000 0.435076 0.729538 0.527716
-18110.00000000 10200.00000000 -1290.00000000 254 37 110 0.000000 0.000000 0.000000 0.000000 -60.708740 0.000000 62.000000 0.784121 0.417224 0.459433
-18120.00000000 10180.00000000 -1230.00000000 254 37 110 0.000000 0.000000 0.000000 0.000000 -60.708740 0.000000 62.000000 0.433227 0.479002 0.763460
-18140.00000000 10140.00000000 -1210.00000000 254 37 110 0.000000 0.000000 0.000000 0.000000 -60.708740 0.000000 62.000000 0.615656 0.354369 0.703840
-17930.00000000 10060.00000000 -770.00000000 254 37 110 0.000000 0.000000 0.000000 0.000000 -60.708740 0.000000 62.000000 0.450303 0.881903 -0.139551
-17920.00000000 10000.00000000 -700.00000000 254 37 110 0.000000 0.000000 0.000000 0.000000 -60.708740 0.000000 62.000000 0.361183 0.845888 -0.392454
-17920.00000000 10010.00000000 -820.00000000 254 37 110 0.000000 0.000000 0.000000 0.000000 -60.708740 0.000000 62.000000 0.645374 0.757102 -0.101437
-17930.00000000 9970.00000000 -700.00000000 254 37 110 0.000000 0.000000 0.000000 0.000000 -60.708740 0.000000 62.000000 0.794319 0.566049 -0.220558
-17910.00000000 9960.00000000 -720.00000000 254 37 110 0.000000 0.000000 0.000000 0.000000 -60.708740 0.000000 62.000000 0.699170 0.713410 -0.046991
-17950.00000000 10000.00000000 -710.00000000 254 37 110 0.000000 0.000000 0.000000 0.000000 -60.708740 0.000000 62.000000 0.409974 0.609152 -0.678864
-18020.00000000 10030.00000000 -750.00000000 254 37 110 0.000000 0.000000 0.000000 0.000000 -60.708740 0.000000 62.000000 0.714156 0.471110 -0.517722
-17950.00000000 10000.00000000 -710.00000000 254 37 110 0.000000 0.000000 0.000000 0.000000 -60.708740 0.000000 62.000000 0.409974 0.609152 -0.678864
-17970.00000000 10060.00000000 -810.00000000 254 37 110 0.000000 0.000000 0.000000 0.000000 -60.708740 0.000000 62.000000 0.693547 0.708526 0.130321
-17950.00000000 10040.00000000 -800.00000000 254 37 110 0.000000 0.000000 0.000000 0.000000 -60.708740 0.000000 62.000000 0.790593 0.481440 -0.378390
-17980.00000000 9980.00000000 -740.00000000 254 37 110 0.000000 0.000000 0.000000 0.000000 -60.708740 0.000000 62.000000 0.734884 0.670084 -0.104563
-17950.00000000 9920.00000000 -700.00000000 254 37 110 0.000000 0.000000 0.000000 0.000000 -60.708740 0.000000 62.000000 0.740203 0.630659 -0.233172
-17910.00000000 10070.00000000 -1020.00000000 254 37 110 0.000000 0.000000 0.000000 0.000000 -60.708740 0.000000 62.000000 0.863059 0.445889 0.237303
-17950.00000000 10050.00000000 -870.00000000 254 37 110 0.000000 0.000000 0.000000 0.000000 -60.708740 0.000000 62.000000 0.734692 0.655266 0.175654
-17960.00000000 10060.00000000 -990.00000000 254 37 110 0.000000 0.000000 0.000000 0.000000 -60.708740 0.000000 62.000000 0.641206 0.747820 -0.172105
-17980.00000000 10060.00000000 -1000.00000000 254 37 110 0.000000 0.000000 0.000000 0.000000 -60.708740 0.000000 62.000000 0.460512 0.737810 0.493524
-18030.00000000 10030.00000000 -710.00000000 254 37 110 0.000000 0.000000 0.000000 0.000000 -60.708740 0.000000 62.000000 0.626419 0.704518 -0.333548
-18060.00000000 10070.00000000 -740.00000000 254 37 110 0.000000 0.000000 0.000000 0.000000 -60.708740 0.000000 62.000000 0.748879 0.660102 -0.058708
-18140.00000000 10060.00000000 -780.00000000 254 37 110 0.000000 0.000000 0.000000 0.000000 -60.708740 0.000000 62.000000 0.474011 0.784626 -0.399593
-18040.00000000 10070.00000000 -970.00000000 254 37 110 0.000000 0.000000 0.000000 0.000000 -60.708740 0.000000 62.000000 0.653824 0.719677 0.233621
-17980.00000000 10070.00000000 -1050.00000000 254 37 110 0.000000 0.000000 0.000000 0.000000 -60.708740 0.000000 62.000000 0.724286 0.642232 0.250896
-18210.00000000 10220.00000000 -1020.00000000 254 37 110 0.000000 0.000000 0.000000 0.000000 -60.708740 0.000000 62.000000 0.508190 0.853702 -0.113731
-18210.00000000 10200.00000000 -1090.00000000 254 37 110 0.000000 0.000000 0.000000 0.000000 -60.708740 0.000000 62.000000 0.394787 0.918565 0.019544
-18230.00000000 10210.00000000 -1090.00000000 254 37 110 0.000000 0.000000 0.000000 0.000000 -60.708740 0.000000 62.000000 0.533136 0.696920 0.479655
-18270.00000000 10160.00000000 -1110.00000000 254 37 110 0.000000 0.000000 0.000000 0.000000 -60.708740 0.000000 62.000000 0.419923 0.902210 0.098398
-18230.00000000 10230.00000000 -1160.00000000 254 37 110 0.000000 0.000000 0.000000 0.000000 -60.708740 0.000000 62.000000 0.348753 0.854056 0.385953
-18200.00000000 10180.00000000 -1130.00000000 254 37 110 0.000000 0.000000 0.000000 0.000000 -60.708740 0.000000 62.000000 0.657713 0.738986 0.145991
-18280.00000000 10190.00000000 -1120.00000000 254 37 110 0.000000 0.000000 0.000000 0.000000 -60.708740 0.000000 62.000000 0.251863 0.932879 0.257491
-18280.00000000 10210.00000000 -1130.00000000 254 37 110 0.000000 0.000000 0.000000 0.000000 -60.708740 0.000000 62.000000 0.767476 0.622726 0.152289
-18200.00000000 10130.00000000 -1090.00000000 254 37 110 0.000000 0.000000 0.000000 0.000000 -60.708740 0.000000 62.000000 0.237112 0.957722 0.162932
-17980.00000000 10830.00000000 -1380.00000000 254 37 110 97.000000 1.000000 4.000000 1.000000 195.291260 114.000000 62.000000 -0.335014 0.147516 0.930594
-17960.00000000 10850.00000000 -1370.00000000 254 37 110 97.000000 1.000000 4.000000 1.000000 195.291260 114.000000 62.000000 -0.390263 0.180011 0.902934
-17980.00000000 10830.00000000 -1380.00000000 254 37 110 97.000000 1.000000 4.000000 1.000000 195.291260 114.000000 62.000000 -0.335014 0.147516 0.930594
-17970.00000000 10850.00000000 -1440.00000000 254 37 110 97.000000 1.000000 4.000000 1.000000 195.291260 114.000000 62.000000 -0.114879 -0.545310 0.830325
-18000.00000000 10850.00000000 -1370.00000000 254 37 110 97.000000 1.000000 4.000000 1.000000 195.291260 114.000000 62.000000 -0.534252 -0.226326 0.814464
-17990.00000000 10830.00000000 -1380.00000000 254 37 110 97.000000 1.000000 4.000000 1.000000 195.291260 114.000000 62.000000 -0.267799 0.056577 0.961812
-18000.00000000 10850.00000000 -1400.00000000 254 37 110 97.000000 1.000000 4.000000 1.000000 195.291260 114.000000 62.000000 -0.238465 0.249622 0.938522
-17990.00000000 10830.00000000 -1380.00000000 254 37 110 97.000000 1.000000 4.000000 1.000000 195.291260 114.000000 62.000000 -0.267799 0.056577 0.961812
-18000.00000000 10840.00000000 -1380.00000000 254 37 110 97.000000 1.000000 4.000000 1.000000 195.291260 114.000000 62.000000 -0.304208 -0.493353 0.814899
-18010.00000000 10850.00000000 -1400.00000000 254 37 110 97.000000 1.000000 4.000000 1.000000 195.291260 114.000000 62.000000 -0.042604 -0.496132 0.867201
-18000.00000000 10850.00000000 -1440.00000000 254 37 110 97.000000 1.000000 4.000000 1.000000 195.291260 114.000000 62.000000 -0.414478 -0.385894 0.824193
-17980.00000000 10890.00000000 -1460.00000000 254 37 110 97.000000 1.000000 4.000000 1.000000 195.291260 114.000000 62.000000 -0.064985 -0.474252 0.877988
-17980.00000000 10840.00000000 -1480.00000000 254 37 110 97.000000 1.000000 4.000000 1.000000 195.291260 114.000000 62.000000 0.145387 -0.347544 0.926324
-18020.00000000 10850.00000000 -1480.00000000 254 37 110 97.000000 1.000000 4.000000 1.000000 195.291260 114.000000 62.000000 -0.325824 -0.149852 0.933479
-17990.00000000 10840.00000000 -1470.00000000 254 37 110 97.000000 1.000000 4.000000 1.000000 195.291260 114.000000 62.000000 -0.308915 0.104739 0.945305
-18020.00000000 10850.00000000 -1480.00000000 254 37 110 97.000000 1.000000 4.000000 1.000000 195.291260 114.000000 62.000000 -0.325824 -0.149852 0.933479
-17990.00000000 10780.00000000 -1430.00000000 254 37 110 97.000000 1.000000 4.000000 1.000000 195.291260 114.000000 62.000000 -0.357159 -0.119053 0.926425
-18020.00000000 10780.00000000 -1440.00000000 254 37 110 97.000000 1.000000 4.000000 1.000000 195.291260 114.000000 62.000000 -0.070921 0.051281 0.996163
-17980.00000000 10810.00000000 -1530.00000000 254 37 110 97.000000 1.000000 4.000000 1.000000 195.291260 114.000000 62.000000 -0.177082 0.177082 0.968134
-18080.00000000 10920.00000000 -1490.00000000 254 37 110 97.000000 1.000000 4.000000 1.000000 195.291260 114.000000 62.000000 -0.440995 -0.316332 0.839915
-18080.00000000 10920.00000000 -1460.00000000 254 37 110 97.000000 1.000000 4.000000 1.000000 195.291260 114.000000 62.000000 -0.329447 -0.344629 0.879031
-18080.00000000 10930.00000000 -1490.00000000 254 37 110 97.000000 1.000000 4.000000 1.000000 195.291260 114.000000 62.000000 -0.561624 -0.183171 0.806862
-18100.00000000 10930.00000000 -1510.00000000 254 37 110 97.000000 1.000000 4.000000 1.000000 195.291260 114.000000 62.000000 -0.322473 0.105707 0.940658
-18030.00000000 10890.00000000 -1430.00000000 254 37 110 97.000000 1.000000 4.000000 1.000000 195.291260 114.000000 62.000000 0.072254 -0.415800 0.906581
-18030.00000000 10860.00000000 -1430.00000000 254 37 110 97.000000 1.000000 4.000000 1.000000 195.291260 114.000000 62.000000 -0.212604 0.201907 0.956051
-18030.00000000 10830.00000000 -1430.00000000 254 37 110 97.000000 1.000000 4.000000 1.000000 195.291260 114.000000 62.000000 -0.533712 -0.075031 0.842331
-18100.00000000 10860.00000000 -1440.00000000 254 37 110 97.000000 1.000000 4.000000 1.000000 195.291260 114.000000 62.000000 -0.449340 0.136381 0.882889
-18070.00000000 10900.00000000 -1460.00000000 254 37 110 97.000000 1.000000 4.000000 1.000000 195.291260 114.000000 62.000000 -0.244479 0.018065 0.969486
-18060.00000000 10880.00000000 -1480.00000000 254 37 110 97.000000 1.000000 4.000000 1.000000 195.291260 114.000000 62.000000 -0.329989 -0.372965 0.867182
-18030.00000000 10870.00000000 -1480.00000000 254 37 110 97.000000 1.000000 4.000000 1.000000 195.291260 114.000000 62.000000 0.125610 -0.065686 0.989903
-18110.00000000 10870.00000000 -1490.00000000 254 37 110 97.000000 1.000000 4.000000 1.000000 195.291260 114.000000 62.000000 0.258159 0.015756 0.965974
-18110.00000000 10870.00000000 -1490.00000000 254 37 110 97.000000 1.000000 4.000000 1.000000 195.291260 114.000000 62.000000 0.258159 0.015756 0.965974
-18090.00000000 10860.00000000 -1470.00000000 254 37 110 97.000000 1.000000 4.000000 1.000000 195.291260 114.000000 62.000000 -0.206664 0.334938 0.919297
-18060.00000000 10750.00000000 -1380.00000000 254 37 110 0.000000 0.000000 0.000000 0.000000 -60.708740 0.000000 62.000000 0.154438 0.307509 0.938929
-18040.00000000 10770.00000000 -1380.00000000 254 37 110 0.000000 0.000000 0.000000 0.000000 -60.708740 0.000000 62.000000 -0.053452 0.179361 0.982330
-18040.00000000 10770.00000000 -1420.00000000 254 37 110 0.000000 0.000000 0.000000 0.000000 -60.708740 0.000000 62.000000 -0.314999 0.317984 0.894238
-18070.00000000 10810.00000000 -1460.00000000 254 37 110 97.000000 1.000000 4.000000 1.000000 195.291260 114.000000 62.000000 -0.267967 -0.326539 0.906403
-18130.00000000 10840.00000000 -1430.00000000 254 37 110 97.000000 1.000000 4.000000 1.000000 195.291260 114.000000 62.000000 -0.149778 0.137399 0.979126
-18120.00000000 10850.00000000 -1440.00000000 254 37 110 97.000000 1.000000 4.000000 1.000000 195.291260 114.000000 62.000000 -0.005608 0.153656 0.988109
-18130.00000000 10910.00000000 -1490.00000000 254 37 110 97.000000 1.000000 4.000000 1.000000 195.291260 114.000000 62.000000 -0.543708 -0.072400 0.836146
-18140.00000000 10850.00000000 -1480.00000000 254 37 110 97.000000 1.000000 4.000000 1.000000 195.291260 114.000000 62.000000 0.196045 -0.027000 0.980223
-18120.00000000 10860.00000000 -1520.00000000 254 37 110 97.000000 1.000000 4.000000 1.000000 195.291260 114.000000 62.000000 0.235484 -0.055481 0.970293
-18180.00000000 10880.00000000 -1490.00000000 254 37 110 97.000000 1.000000 4.000000 1.000000 195.291260 114.000000 62.000000 0.318080 0.091068 0.943680
-18160.00000000 10890.00000000 -1500.00000000 254 37 110 97.000000 1.000000 4.000000 1.000000 195.291260 114.000000 62.000000 0.277548 -0.089074 0.956573
-18190.00000000 10830.00000000 -1500.00000000 254 37 110 97.000000 1.000000 4.000000 1.000000 195.291260 114.000000 62.000000 0.165732 -0.070346 0.983659
-18140.00000000 10890.00000000 -1560.00000000 254 37 110 97.000000 1.000000 4.000000 1.000000 195.291260 114.000000 62.000000 -0.414037 0.210702 0.885538
-18020.00000000 10690.00000000 -1450.00000000 254 37 110 0.000000 0.000000 0.000000 0.000000 -60.708740 0.000000 62.000000 0.296513 0.028775 0.954595
-18020.00000000 10710.00000000 -1420.00000000 254 37 110 0.000000 0.000000 0.000000 0.000000 -60.708740 0.000000 62.000000 0.087208 0.115114 0.989517
-18020.00000000 10670.00000000 -1410.00000000 254 37 110 0.000000 0.000000 0.000000 0.000000 -60.708740 0.000000 62.000000 -0.165708 -0.265402 0.949791
-18010.00000000 10660.00000000 -1430.00000000 254 37 110 0.000000 0.000000 0.000000 0.000000 -60.708740 0.000000 62.000000 -0.283946 0.176952 0.942371
-18090.00000000 10710.00000000 -1420.00000000 254 37 110 0.000000 0.000000 0.000000 0.000000 -60.708740 0.000000 62.000000 -0.084392 -0.075390 0.993577
-18080.00000000 10730.00000000 -1420.00000000 254 37 110 0.000000 0.000000 0.000000 0.000000 -60.708740 0.000000 62.000000 -0.287604 0.103748 0.952114
-18100.00000000 10700.00000000 -1510.00000000 254 37 110 0.000000 0.000000 0.000000 0.000000 -60.708740 0.000000 62.000000 0.179803 0.134538 0.974459
-18070.00000000 10640.00000000 -1450.00000000 254 37 110 0.000000 0.000000 0.000000 0.000000 -60.708740 0.000000 62.000000 -0.098235 -0.036424 0.994496
-18050.00000000 10620.00000000 -1420.00000000 254 37 110 0.000000 0.000000 0.000000 0.000000 -60.708740 0.000000 62.000000 -0.158637 0.119285 0.980105
-18070.00000000 10610.00000000 -1450.00000000 254 37 110 0.000000 0.000000 0.000000 0.000000 -60.708740 0.000000 62.000000 0.077894 0.528261 0.845501
-18100.00000000 10630.00000000 -1400.00000000 254 37 110 0.000000 0.000000 0.000000 0.000000 -60.708740 0.000000 62.000000 0.271302 0.488343 0.829408
-18090.00000000 10660.00000000 -1380.00000000 254 37 110 0.000000 0.000000 0.000000 0.000000 -60.708740 0.000000 62.000000 0.328110 0.292478 0.898220
-18100.00000000 10630.00000000 -1400.00000000 254 37 110 0.000000 0.000000 0.000000 0.000000 -60.708740 0.000000 62.000000 0.271302 0.488343 0.829408
-18080.00000000 10620.00000000 -1450.00000000 254 37 110 0.000000 0.000000 0.000000 0.000000 -60.708740 0.000000 62.000000 -0.197354 0.455546 0.868061
-18110.00000000 10590.00000000 -1400.00000000 254 37 110 0.000000 0.000000 0.000000 0.000000 -60.708740 0.000000 62.000000 0.428733 -0.011800 0.903354
-18070.00000000 10600.00000000 -1530.00000000 254 37 110 0.000000 0.000000 0.000000 0.000000 -60.708740 0.000000 62.000000 -0.210016 -0.104379 0.972110
-18120.00000000 10630.00000000 -1450.00000000 254 37 110 0.000000 0.000000 0.000000 0.000000 -60.708740 0.000000 62.000000 0.488968 0.240652 0.838449
-18150.00000000 10660.00000000 -1370.00000000 254 37 110 0.000000 0.000000 0.000000 0.000000 -60.708740 0.000000 62.000000 -0.229498 -0.001177 0.973308
-18180.00000000 10610.00000000 -1520.00000000 254 37 110 0.000000 0.000000 0.000000 0.000000 -60.708740 0.000000 62.000000 0.086569 0.184112 0.979086
-18110.00000000 10680.00000000 -1540.00000000 254 37 110 0.000000 0.000000 0.000000 0.000000 -60.708740 0.000000 62.000000 0.373039 0.226749 0.899682
-18110.00000000 10540.00000000 -1420.00000000 254 37 110 0.000000 0.000000 0.000000 0.000000 -60.708740 0.000000 62.000000 0.287593 0.256115 0.922873
-18080.00000000 10550.00000000 -1480.00000000 254 37 110 0.000000 0.000000 0.000000 0.000000 -60.708740 0.000000 62.000000 -0.099694 0.556264 0.825004
-18050.00000000 10530.00000000 -1480.00000000 254 37 110 0.000000 0.000000 0.000000 0.000000 -60.708740 0.000000 62.000000 0.382817 0.062691 0.921695
-18110.00000000 10520.00000000 -1490.00000000 254 37 110 0.000000 0.000000 0.000000 0.000000 -60.708740 0.000000 62.000000 -0.269542 0.313252 0.910615
-18060.00000000 10470.00000000 -1390.00000000 254 37 110 0.000000 0.000000 0.000000 0.000000 -60.708740 0.000000 62.000000 0.548577 0.271931 0.790643
-18060.00000000 10410.00000000 -1430.00000000 254 37 110 0.000000 0.000000 0.000000 0.000000 -60.708740 0.000000 62.000000 -0.001379 0.646807 0.762653
-18110.00000000 10490.00000000 -1420.00000000 254 37 110 0.000000 0.000000 0.000000 0.000000 -60.708740 0.000000 62.000000 -0.119761 0.607678 0.785102
-18100.00000000 10480.00000000 -1410.00000000 254 37 110 0.000000 0.000000 0.000000 0.000000 -60.708740 0.000000 62.000000 -0.096782 0.319512 0.942627
-18080.00000000 10430.00000000 -1420.00000000 254 37 110 0.000000 0.000000 0.000000 0.000000 -60.708740 0.000000 62.000000 0.365289 0.530887 0.764672
-18130.00000000 10500.00000000 -1410.00000000 254 37 110 0.000000 0.000000 0.000000 0.000000 -60.708740 0.000000 62.000000 0.234266 0.022826 0.971904
-18180.00000000 10530.00000000 -1380.00000000 254 37 110 0.000000 0.000000 0.000000 0.000000 -60.708740 0.000000 62.000000 0.339056 0.595375 0.728402
-18190.00000000 10520.00000000 -1380.00000000 254 37 110 0.000000 0.000000 0.000000 0.000000 -60.708740 0.000000 62.000000 0.434198 0.570613 0.697046
-18150.00000000 10540.00000000 -1460.00000000 254 37 110 0.000000 0.000000 0.000000 0.000000 -60.708740 0.000000 62.000000 0.471019 0.448043 0.759867
-18140.00000000 10490.00000000 -1490.00000000 254 37 110 0.000000 0.000000 0.000000 0.000000 -60.708740 0.000000 62.000000 0.300201 0.031402 0.953359
-18200.00000000 10860.00000000 -1490.00000000 254 37 110 97.000000 1.000000 4.000000 1.000000 195.291260 114.000000 62.000000 -0.389812 -0.014246 0.920784
-17920.00000000 10340.00000000 -1420.00000000 254 37 110 0.000000 0.000000 0.000000 0.000000 -60.708740 0.000000 62.000000 0.031387 0.498097 0.866553
-17940.00000000 10340.00000000 -1380.00000000 254 37 110 0.000000 0.000000 0.000000 0.000000 -60.708740 0.000000 62.000000 0.552451 0.318660 0.770229
-17930.00000000 10380.00000000 -1390.00000000 254 37 110 0.000000 0.000000 0.000000 0.000000 -60.708740 0.000000 62.000000 0.250675 0.484433 0.838145
-17990.00000000 10370.00000000 -1450.00000000 254 37 110 0.000000 0.000000 0.000000 0.000000 -60.708740 0.000000 62.000000 -0.049838 0.222449 0.973670
-17990.00000000 10340.00000000 -1450.00000000 254 37 110 0.000000 0.000000 0.000000 0.000000 -60.708740 0.000000 62.000000 0.059947 0.379663 0.923181
-17970.00000000 10290.00000000 -1400.00000000 254 37 110 0.000000 0.000000 0.000000 0.000000 -60.708740 0.000000 62.000000 0.268189 0.607790 0.747439
-18050.00000000 10370.00000000 -1370.00000000 254 37 110 0.000000 0.000000 0.000000 0.000000 -60.708740 0.000000 62.000000 0.203144 0.557500 0.804939
-18090.00000000 10380.00000000 -1460.00000000 254 37 110 0.000000 0.000000 0.000000 0.000000 -60.708740 0.000000 62.000000 0.339792 0.427480 0.837736
-18100.00000000 10400.00000000 -1470.00000000 254 37 110 0.000000 0.000000 0.000000 0.000000 -60.708740 0.000000 62.000000 0.178762 0.747135 0.640183
-18040.00000000 10290.00000000 -1400.00000000 254 37 110 0.000000 0.000000 0.000000 0.000000 -60.708740 0.000000 62.000000 0.489683 0.292558 0.821353
-18130.00000000 10370.00000000 -1440.00000000 254 37 110 0.000000 0.000000 0.000000 0.000000 -60.708740 0.000000 62.000000 0.176484 0.436105 0.882420
-18130.00000000 10380.00000000 -1450.00000000 254 37 110 0.000000 0.000000 0.000000 0.000000 -60.708740 0.000000 62.000000 -0.031014 0.467910 0.883232
-18120.00000000 10400.00000000 -1460.00000000 254 37 110 0.000000 0.000000 0.000000 0.000000 -60.708740 0.000000 62.000000 -0.052657 0.621917 0.781310
-15810.00000000 9410.00000000 -290.00000000 254 37 110 0.000000 0.000000 0.000000 0.000000 -60.708740 0.000000 61.000000 0.087347 0.298545 0.950390
-15770.00000000 9640.00000000 -690.00000000 254 37 110 0.000000 0.000000 0.000000 0.000000 -60.708740 0.000000 61.000000 0.730404 0.590505 0.343241
-15790.00000000 9630.00000000 -690.00000000 254 37 110 0.000000 0.000000 0.000000 0.000000 -60.708740 0.000000 61.000000 0.604030 0.755431 0.253913
-15780.00000000 9640.00000000 -660.00000000 254 37 110 0.000000 0.000000 0.000000 0.000000 -60.708740 0.000000 61.000000 0.753843 0.657019 -0.006916
-15830.00000000 9630.00000000 -660.00000000 254 37 110 0.000000 0.000000 0.000000 0.000000 -60.708740 0.000000 61.000000 0.739979 0.662867 -0.114185
-15740.00000000 9420.00000000 -520.00000000 254 37 110 0.000000 0.000000 0.000000 0.000000 -60.708740 0.000000 61.000000 0.749613 0.543837 0.377256
-15750.00000000 9420.00000000 -490.00000000 254 37 110 0.000000 0.000000 0.000000 0.000000 -60.708740 0.000000 61.000000 0.733901 0.535995 0.417251
-15720.00000000 9400.00000000 -520.00000000 254 37 110 0.000000 0.000000 0.000000 0.000000 -60.708740 0.000000 61.000000 0.220067 0.869789 0.441631
-15790.00000000 9400.00000000 -380.00000000 254 37 110 0.000000 0.000000 0.000000 0.000000 -60.708740 0.000000 61.000000 0.708393 0.471707 0.525045
-15790.00000000 9400.00000000 -390.00000000 254 37 110 0.000000 0.000000 0.000000 0.000000 -60.708740 0.000000 61.000000 0.734749 0.550651 0.396140
-15790.00000000 9410.00000000 -400.00000000 254 37 110 0.000000 0.000000 0.000000 0.000000 -60.708740 0.000000 61.000000 0.463564 0.654345 0.597445
-15810.00000000 9430.00000000 -370.00000000 254 37 110 0.000000 0.000000 0.000000 0.000000 -60.708740 0.000000 61.000000 0.509049 0.754572 0.414114
-15760.00000000 9400.00000000 -480.00000000 254 37 110 0.000000 0.000000 0.000000 0.000000 -60.708740 0.000000 61.000000 0.683775 0.437549 0.583954
-15700.00000000 9440.00000000 -600.00000000 254 37 110 0.000000 0.000000 0.000000 0.000000 -60.708740 0.000000 61.000000 0.540050 0.533320 0.651088
-15710.00000000 9400.00000000 -580.00000000 254 37 110 0.000000 0.000000 0.000000 0.000000 -60.708740 0.000000 61.000000 0.692124 0.619788 0.369900
-15720.00000000 9460.00000000 -590.00000000 254 37 110 0.000000 0.000000 0.000000 0.000000 -60.708740 0.000000 61.000000 0.757026 0.484431 0.438451
-15740.00000000 9400.00000000 -590.00000000 254 37 110 0.000000 0.000000 0.000000 0.000000 -60.708740 0.000000 61.000000 0.446096 0.834277 0.324006
-15690.00000000 9460.00000000 -650.00000000 254 37 110 0.000000 0.000000 0.000000 0.000000 -60.708740 0.000000 61.000000 0.561086 0.815722 -0.140642
-15700.00000000 9460.00000000 -620.00000000 254 37 110 0.000000 0.000000 0.000000 0.000000 -60.708740 0.000000 61.000000 0.717327 0.487649 0.497635
-15710.00000000 9410.00000000 -620.00000000 254 37 110 0.000000 0.000000 0.000000 0.000000 -60.708740 0.000000 61.000000 0.498774 0.846268 0.187228
-15710.00000000 9410.00000000 -610.00000000 254 37 110 0.000000 0.000000 0.000000 0.000000 -60.708740 0.000000 61.000000 0.392788 0.834477 0.386478
-15710.00000000 9410.00000000 -610.00000000 254 37 110 0.000000 0.000000 0.000000 0.000000 -60.708740 0.000000 61.000000 0.392788 0.834477 0.386478
-15690.00000000 9430.00000000 -650.00000000 254 37 110 0.000000 0.000000 0.000000 0.000000 -60.708740 0.000000 61.000000 0.783681 0.608872 0.122959
-15720.00000000 9430.00000000 -640.00000000 254 37 110 0.000000 0.000000 0.000000 0.000000 -60.708740 0.000000 61.000000 0.383719 0.844182 0.374322
-15720.00000000 9430.00000000 -650.00000000 254 37 110 0.000000 0.000000 0.000000 0.000000 -60.708740 0.000000 61.000000 0.512825 0.854708 -0.080526
-15720.00000000 9420.00000000 -630.00000000 254 37 110 0.000000 0.000000 0.000000 0.000000 -60.708740 0.000000 61.000000 0.381098 0.912667 0.147658
-15740.00000000 9410.00000000 -690.00000000 254 37 110 0.000000 0.000000 0.000000 0.000000 -60.708740 0.000000 61.000000 0.507824 0.851224 -0.132413
-15790.00000000 9430.00000000 -570.00000000 254 37 110 0.000000 0.000000 0.000000 0.000000 -60.708740 0.000000 61.000000 0.282400 0.865518 0.413678
-15770.00000000 9420.00000000 -570.00000000 254 37 110 0.000000 0.000000 0.000000 0.000000 -60.708740 0.000000 61.000000 0.241219 0.923484 0.298312
-15760.00000000 9430.00000000 -590.00000000 254 37 110 0.000000 0.000000 0.000000 0.000000 -60.708740 0.000000 61.000000 0.525181 0.846837 0.083972
-15810.00000000 9360.00000000 -310.00000000 254 37 110 0.000000 0.000000 0.000000 0.000000 -60.708740 0.000000 61.000000 0.501325 0.714513 0.488001
-15660.00000000 9390.00000000 -580.00000000 254 37 110 0.000000 0.000000 0.000000 0.000000 -60.708740 0.000000 61.000000 0.530123 0.546953 0.647929
-15750.00000000 9390.00000000 -390.00000000 254 37 110 0.000000 0.000000 0.000000 0.000000 -60.708740 0.000000 61.000000 0.470523 0.737979 0.483731
-15740.00000000 9390.00000000 -410.00000000 254 37 110 0.000000 0.000000 0.000000 0.000000 -60.708740 0.000000 61.000000 0.334810 0.845590 0.415787
-15720.00000000 9390.00000000 -500.00000000 254 37 110 0.000000 0.000000 0.000000 0.000000 -60.708740 0.000000 61.000000 0.588230 0.737313 0.332196
-15730.00000000 9390.00000000 -460.00000000 254 37 110 0.000000 0.000000 0.000000 0.000000 -60.708740 0.000000 61.000000 0.755519 0.579071 0.306378
-15730.00000000 9390.00000000 -500.00000000 254 37 110 0.000000 0.000000 0.000000 0.000000 -60.708740 0.000000 61.000000 0.464113 0.801358 0.377393
-15780.00000000 9390.00000000 -390.00000000 254 37 110 0.000000 0.000000 0.000000 0.000000 -60.708740 0.000000 61.000000 0.451354 0.759916 0.467767
-15770.00000000 9370.00000000 -370.00000000 254 37 110 0.000000 0.000000 0.000000 0.000000 -60.708740 0.000000 61.000000 0.704090 0.467729 0.534310
-15770.00000000 9390.00000000 -380.00000000 254 37 110 0.000000 0.000000 0.000000 0.000000 -60.708740 0.000000 61.000000 0.304987 0.862853 0.403073
-15770.00000000 9360.00000000 -370.00000000 254 37 110 0.000000 0.000000 0.000000 0.000000 -60.708740 0.000000 61.000000 0.730233 0.325448 0.600702
-15660.00000000 9400.00000000 -820.00000000 254 37 110 0.000000 0.000000 0.000000 0.000000 -60.708740 0.000000 61.000000 0.463893 0.860229 -0.211680
-15690.00000000 9420.00000000 -730.00000000 254 37 110 0.000000 0.000000 0.000000 0.000000 -60.708740 0.000000 61.000000 0.740783 0.634734 -0.219895
-15680.00000000 9410.00000000 -740.00000000 254 37 110 0.000000 0.000000 0.000000 0.000000 -60.708740 0.000000 61.000000 0.626116 0.672373 -0.394833
-15690.00000000 9420.00000000 -740.00000000 254 37 110 0.000000 0.000000 0.000000 0.000000 -60.708740 0.000000 61.000000 0.647121 0.653741 -0.392245
-15670.00000000 9390.00000000 -730.00000000 254 37 110 0.000000 0.000000 0.000000 0.000000 -60.708740 0.000000 61.000000 0.608179 0.777202 -0.161477
-15660.00000000 9380.00000000 -830.00000000 254 37 110 0.000000 0.000000 0.000000 0.000000 -60.708740 0.000000 61.000000 0.310946 0.935602 -0.167220
-15660.00000000 9390.00000000 -790.00000000 254 37 110 0.000000 0.000000 0.000000 0.000000 -60.708740 0.000000 61.000000 0.424075 0.778284 -0.463071
-15650.00000000 9380.00000000 -850.00000000 254 37 110 0.000000 0.000000 0.000000 0.000000 -60.708740 0.000000 61.000000 0.714697 0.687840 0.126825
-15660.00000000 9370.00000000 -830.00000000 254 37 110 0.000000 0.000000 0.000000 0.000000 -60.708740 0.000000 61.000000 0.295648 0.939198 -0.174639
-15630.00000000 9370.00000000 -830.00000000 254 37 110 0.000000 0.000000 0.000000 0.000000 -60.708740 0.000000 61.000000 0.371248 0.841181 -0.393178
-15630.00000000 9380.00000000 -830.00000000 254 37 110 0.000000 0.000000 0.000000 0.000000 -60.708740 0.000000 61.000000 0.356474 0.928458 -0.104367
-15840.00000000 9490.00000000 -350.00000000 254 37 110 0.000000 0.000000 0.000000 0.000000 -60.708740 0.000000 61.000000 0.591064 0.510235 0.624743
-15870.00000000 9410.00000000 -320.00000000 254 37 110 0.000000 0.000000 0.000000 0.000000 -60.708740 0.000000 61.000000 0.416746 0.407166 0.812735
-16130.00000000 9630.00000000 -350.00000000 254 37 110 0.000000 0.000000 0.000000 0.000000 -60.708740 0.000000 61.000000 0.172973 0.545992 0.819740
-16070.00000000 9490.00000000 -280.00000000 254 37 110 0.000000 0.000000 0.000000 0.000000 -60.708740 0.000000 61.000000 -0.009603 0.577572 0.816283
-16040.00000000 9410.00000000 -270.00000000 254 37 110 0.000000 0.000000 0.000000 0.000000 -60.708740 0.000000 61.000000 -0.031569 0.517465 0.855122
-16090.00000000 9420.00000000 -240.00000000 254 37 110 0.000000 0.000000 0.000000 0.000000 -60.708740 0.000000 61.000000 0.291685 0.379342 0.878077
-16050.00000000 9460.00000000 -290.00000000 254 37 110 0.000000 0.000000 0.000000 0.000000 -60.708740 0.000000 61.000000 0.536207 0.136623 0.832957
-16020.00000000 9410.00000000 -300.00000000 254 37 110 0.000000 0.000000 0.000000 0.000000 -60.708740 0.000000 61.000000 0.124948 0.105908 0.986495
-16070.00000000 9440.00000000 -350.00000000 254 37 110 0.000000 0.000000 0.000000 0.000000 -60.708740 0.000000 61.000000 0.541893 0.602667 0.585785
-16100.00000000 9420.00000000 -300.00000000 254 37 110 0.000000 0.000000 0.000000 0.000000 -60.708740 0.000000 61.000000 0.351606 0.619808 0.701577
-15910.00000000 9590.00000000 -380.00000000 254 37 110 0.000000 0.000000 0.000000 0.000000 -60.708740 0.000000 61.000000 0.533982 0.729059 0.428178
-15900.00000000 9590.00000000 -540.00000000 254 37 110 0.000000 0.000000 0.000000 0.000000 -60.708740 0.000000 61.000000 0.364191 0.569967 0.736548
-15860.00000000 9640.00000000 -610.00000000 254 37 110 0.000000 0.000000 0.000000 0.000000 -60.708740 0.000000 61.000000 0.828521 0.509977 0.231251
-15880.00000000 9610.00000000 -650.00000000 254 37 110 0.000000 0.000000 0.000000 0.000000 -60.708740 0.000000 61.000000 0.608974 0.766228 -0.205047
-15860.00000000 9620.00000000 -620.00000000 254 37 110 0.000000 0.000000 0.000000 0.000000 -60.708740 0.000000 61.000000 0.590543 0.793869 0.145019
-15900.00000000 9600.00000000 -620.00000000 254 37 110 0.000000 0.000000 0.000000 0.000000 -60.708740 0.000000 61.000000 0.768567 0.593252 0.239492
-15930.00000000 9690.00000000 -630.00000000 254 37 110 0.000000 0.000000 0.000000 0.000000 -60.708740 0.000000 61.000000 0.596076 0.790286 0.141923
-15950.00000000 9660.00000000 -680.00000000 254 37 110 0.000000 0.000000 0.000000 0.000000 -60.708740 0.000000 61.000000 0.796186 0.519667 0.309893
-15970.00000000 9570.00000000 -580.00000000 254 37 110 0.000000 0.000000 0.000000 0.000000 -60.708740 0.000000 61.000000 0.786678 0.520714 0.331655
-15930.00000000 9570.00000000 -550.00000000 254 37 110 0.000000 0.000000 0.000000 0.000000 -60.708740 0.000000 61.000000 0.686867 0.437399 0.580427
-15970.00000000 9570.00000000 -570.00000000 254 37 110 0.000000 0.000000 0.000000 0.000000 -60.708740 0.000000 61.000000 0.448006 0.891902 0.061652
-15980.00000000 9620.00000000 -670.00000000 254 37 110 0.000000 0.000000 0.000000 0.000000 -60.708740 0.000000 61.000000 0.710173 0.701565 -0.058822
-15940.00000000 9650.00000000 -660.00000000 254 37 110 0.000000 0.000000 0.000000 0.000000 -60.708740 0.000000 61.000000 0.607206 0.781122 0.145430
-15870.00000000 9400.00000000 -370.00000000 254 37 110 0.000000 0.000000 0.000000 0.000000 -60.708740 0.000000 61.000000 0.614128 0.405556 0.677031
-15920.00000000 9560.00000000 -600.00000000 254 37 110 0.000000 0.000000 0.000000 0.000000 -60.708740 0.000000 61.000000 0.394999 0.914376 0.088841
-15920.00000000 9560.00000000 -640.00000000 254 37 110 0.000000 0.000000 0.000000 0.000000 -60.708740 0.000000 61.000000 0.234929 0.890957 0.388593
-15990.00000000 9560.00000000 -550.00000000 254 37 110 0.000000 0.000000 0.000000 0.000000 -60.708740 0.000000 61.000000 0.311711 0.673490 0.670260
-15960.00000000 9560.00000000 -540.00000000 254 37 110 0.000000 0.000000 0.000000 0.000000 -60.708740 0.000000 61.000000 0.402321 0.647355 0.647355
-15990.00000000 9550.00000000 -670.00000000 254 37 110 0.000000 0.000000 0.000000 0.000000 -60.708740 0.000000 61.000000 0.521909 0.847923 -0.092943
-16020.00000000 9620.00000000 -440.00000000 254 37 110 0.000000 0.000000 0.000000 0.000000 -60.708740 0.000000 61.000000 0.503916 0.638744 0.581442
-16090.00000000 9590.00000000 -450.00000000 254 37 110 0.000000 0.000000 0.000000 0.000000 -60.708740 0.000000 61.000000 0.429093 0.707424 0.561632
-16030.00000000 9570.00000000 -500.00000000 254 37 110 0.000000 0.000000 0.000000 0.000000 -60.708740 0.000000 61.000000 0.361252 0.492908 0.791542
-16050.00000000 9580.00000000 -510.00000000 254 37 110 0.000000 0.000000 0.000000 0.000000 -60.708740 0.000000 61.000000 0.145110 0.848675 0.508619
-16140.00000000 9660.00000000 -380.00000000 254 37 110 0.000000 0.000000 0.000000 0.000000 -60.708740 0.000000 61.000000 0.017965 0.584538 0.811167
-16150.00000000 9680.00000000 -380.00000000 254 37 110 0.000000 0.000000 0.000000 0.000000 -60.708740 0.000000 61.000000 0.616910 0.626995 0.475710
-16140.00000000 9660.00000000 -370.00000000 254 37 110 0.000000 0.000000 0.000000 0.000000 -60.708740 0.000000 61.000000 0.594730 0.225159 0.771751
-16110.00000000 9610.00000000 -420.00000000 254 37 110 0.000000 0.000000 0.000000 0.000000 -60.708740 0.000000 61.000000 0.460937 0.217706 0.860315
-16150.00000000 9650.00000000 -360.00000000 254 37 110 0.000000 0.000000 0.000000 0.000000 -60.708740 0.000000 61.000000 0.559087 0.599625 0.572600
-16120.00000000 9590.00000000 -450.00000000 254 37 110 0.000000 0.000000 0.000000 0.000000 -60.708740 0.000000 61.000000 0.488001 0.714513 0.501325
-16010.00000000 9580.00000000 -530.00000000 254 37 110 0.000000 0.000000 0.000000 0.000000 -60.708740 0.000000 61.000000 0.233708 0.660343 0.713672
-16020.00000000 9570.00000000 -630.00000000 254 37 110 0.000000 0.000000 0.000000 0.000000 -60.708740 0.000000 61.000000 0.319567 0.927728 0.192866
-16090.00000000 9590.00000000 -650.00000000 254 37 110 0.000000 0.000000 0.000000 0.000000 -60.708740 0.000000 61.000000 0.509547 0.566724 0.647445
-16080.00000000 9590.00000000 -690.00000000 254 37 110 0.000000 0.000000 0.000000 0.000000 -60.708740 0.000000 61.000000 0.694392 0.615596 0.372641
-16070.00000000 9570.00000000 -660.00000000 254 37 110 0.000000 0.000000 0.000000 0.000000 -60.708740 0.000000 61.000000 0.528459 0.809056 0.257214
-16130.00000000 9620.00000000 -620.00000000 254 37 110 0.000000 0.000000 0.000000 0.000000 -60.708740 0.000000 61.000000 0.279902 0.708552 0.647773
-16150.00000000 9620.00000000 -620.00000000 254 37 110 0.000000 0.000000 0.000000 0.000000 -60.708740 0.000000 61.000000 0.448776 0.789003 0.419613
-16160.00000000 9570.00000000 -640.00000000 254 37 110 0.000000 0.000000 0.000000 0.000000 -60.708740 0.000000 61.000000 0.715900 0.536510 0.446815
-16150.00000000 9570.00000000 -650.00000000 254 37 110 0.000000 0.000000 0.000000 0.000000 -60.708740 0.000000 61.000000 0.230061 0.938369 0.257947
-16160.00000000 9580.00000000 -670.00000000 254 37 110 0.000000 0.000000 0.000000 0.000000 -60.708740 0.000000 61.000000 0.530422 0.500303 0.684361
-16030.00000000 9510.00000000 -480.00000000 254 37 110 0.000000 0.000000 0.000000 0.000000 -60.708740 0.000000 61.000000 0.107811 0.701507 0.704461
-16050.00000000 9510.00000000 -450.00000000 254 37 110 0.000000 0.000000 0.000000 0.000000 -60.708740 0.000000 61.000000 0.079799 0.744305 0.663055
-16080.00000000 9520.00000000 -510.00000000 254 37 110 0.000000 0.000000 0.000000 0.000000 -60.708740 0.000000 61.000000 0.610089 0.373289 0.698889
-16050.00000000 9470.00000000 -390.00000000 254 37 110 0.000000 0.000000 0.000000 0.000000 -60.708740 0.000000 61.000000 -0.029357 0.605319 0.795442
-16090.00000000 9440.00000000 -380.00000000 254 37 110 0.000000 0.000000 0.000000 0.000000 -60.708740 0.000000 61.000000 0.185715 0.655374 0.732116
-16090.00000000 9430.00000000 -520.00000000 254 37 110 0.000000 0.000000 0.000000 0.000000 -60.708740 0.000000 61.000000 0.041105 0.650591 0.758315
-16100.00000000 9530.00000000 -430.00000000 254 37 110 0.000000 0.000000 0.000000 0.000000 -60.708740 0.000000 61.000000 0.368373 0.761088 0.533898
-16160.00000000 9530.00000000 -440.00000000 254 37 110 0.000000 0.000000 0.000000 0.000000 -60.708740 0.000000 61.000000 0.213369 0.488782 0.845911
-16120.00000000 9490.00000000 -520.00000000 254 37 110 0.000000 0.000000 0.000000 0.000000 -60.708740 0.000000 61.000000 0.710737 0.564945 0.419153
-16140.00000000 9530.00000000 -460.00000000 254 37 110 0.000000 0.000000 0.000000 0.000000 -60.708740 0.000000 61.000000 0.297185 0.835542 0.462115
-16140.00000000 9530.00000000 -460.00000000 254 37 110 0.000000 0.000000 0.000000 0.000000 -60.708740 0.000000 61.000000 0.297185 0.835542 0.462115
-16160.00000000 9490.00000000 -510.00000000 254 37 110 0.000000 0.000000 0.000000 0.000000 -60.708740 0.000000 61.000000 0.143432 0.539717 0.829538
-16100.00000000 9450.00000000 -390.00000000 254 37 110 0.000000 0.000000 0.000000 0.000000 -60.708740 0.000000 61.000000 0.366388 0.744174 0.558538
-16110.00000000 9450.00000000 -430.00000000 254 37 110 0.000000 0.000000 0.000000 0.000000 -60.708740 0.000000 61.000000 0.265633 0.790612 0.551699
-16110.00000000 9470.00000000 -410.00000000 254 37 110 0.000000 0.000000 0.000000 0.000000 -60.708740 0.000000 61.000000 0.225568 0.356544 0.906640
-16130.00000000 9460.00000000 -440.00000000 254 37 110 0.000000 0.000000 0.000000 0.000000 -60.708740 0.000000 61.000000 0.252147 0.421251 0.871189
-16120.00000000 9430.00000000 -410.00000000 254 37 110 0.000000 0.000000 0.000000 0.000000 -60.708740 0.000000 61.000000 0.431012 0.099035 0.896895
-16100.00000000 9470.00000000 -450.00000000 254 37 110 0.000000 0.000000 0.000000 0.000000 -60.708740 0.000000 61.000000 0.149169 0.404887 0.902117
-16120.00000000 9440.00000000 -510.00000000 254 37 110 0.000000 0.000000 0.000000 0.000000 -60.708740 0.000000 61.000000 0.366458 0.685260 0.629387
-16140.00000000 9440.00000000 -510.00000000 254 37 110 0.000000 0.000000 0.000000 0.000000 -60.708740 0.000000 61.000000 0.633199 0.420471 0.649818
-16020.00000000 9560.00000000 -620.00000000 254 37 110 0.000000 0.000000 0.000000 0.000000 -60.708740 0.000000 61.000000 0.684361 0.500303 0.530422
-16030.00000000 9530.00000000 -670.00000000 254 37 110 0.000000 0.000000 0.000000 0.000000 -60.708740 0.000000 61.000000 0.251686 0.961571 0.109709
-16030.00000000 9530.00000000 -670.00000000 254 37 110 0.000000 0.000000 0.000000 0.000000 -60.708740 0.000000 61.000000 0.251686 0.961571 0.109709
-16040.00000000 9490.00000000 -640.00000000 254 37 110 0.000000 0.000000 0.000000 0.000000 -60.708740 0.000000 61.000000 0.687838 0.601651 0.406073
-16050.00000000 9490.00000000 -640.00000000 254 37 110 0.000000 0.000000 0.000000 0.000000 -60.708740 0.000000 61.000000 0.361546 0.721457 0.590580
-16090.00000000 9550.00000000 -670.00000000 254 37 110 0.000000 0.000000 0.000000 0.000000 -60.708740 0.000000 61.000000 0.458265 0.785367 0.416163
-16080.00000000 9500.00000000 -610.00000000 254 37 110 0.000000 0.000000 0.000000 0.000000 -60.708740 0.000000 61.000000 0.305103 0.921038 0.242077
-16080.00000000 9520.00000000 -640.00000000 254 37 110 0.000000 0.000000 0.000000 0.000000 -60.708740 0.000000 61.000000 0.707197 0.598903 0.375750
-16070.00000000 9510.00000000 -640.00000000 254 37 110 0.000000 0.000000 0.000000 0.000000 -60.708740 0.000000 61.000000 0.339862 0.774756 0.533148
-16090.00000000 9520.00000000 -660.00000000 254 37 110 0.000000 0.000000 0.000000 0.000000 -60.708740 0.000000 61.000000 0.795246 0.532799 0.289324
-16090.00000000 9520.00000000 -670.00000000 254 37 110 0.000000 0.000000 0.000000 0.000000 -60.708740 0.000000 61.000000 0.798139 0.602395 -0.009649
-16080.00000000 9510.00000000 -660.00000000 254 37 110 0.000000 0.000000 0.000000 0.000000 -60.708740 0.000000 61.000000 0.498431 0.864226 0.068412
-16050.00000000 9480.00000000 -600.00000000 254 37 110 0.000000 0.000000 0.000000 0.000000 -60.708740 0.000000 61.000000 0.761759 0.620749 0.185458
-16040.00000000 9440.00000000 -590.00000000 254 37 110 0.000000 0.000000 0.000000 0.000000 -60.708740 0.000000 61.000000 0.441098 0.483732 0.755934
-16070.00000000 9440.00000000 -550.00000000 254 37 110 0.000000 0.000000 0.000000 0.000000 -60.708740 0.000000 61.000000 0.136538 0.458480 0.878154
-16090.00000000 9430.00000000 -560.00000000 254 37 110 0.000000 0.000000 0.000000 0.000000 -60.708740 0.000000 61.000000 0.682091 0.632783 0.366521
