//X Y Z R G B PointSourceId ScanDirectionFlag NumberOfReturns ReturnNumber GpsTime Intensity Classification Nx Ny Nz
-90.00000000 17390.00000000 -180.00000000 99 102 155 0.000000 0.000000 0.000000 0.000000 -60.708740 0.000000 38.000000 0.880945 -0.454081 0.133216
-90.00000000 17360.00000000 -170.00000000 99 102 155 0.000000 0.000000 0.000000 0.000000 -60.708740 0.000000 38.000000 0.903401 -0.155072 -0.399773
-90.00000000 17390.00000000 -180.00000000 99 102 155 0.000000 0.000000 0.000000 0.000000 -60.708740 0.000000 38.000000 0.880945 -0.454081 0.133216
-90.00000000 17320.00000000 -140.00000000 99 102 155 0.000000 0.000000 0.000000 0.000000 -60.708740 0.000000 38.000000 0.799678 -0.594336 -0.085318
-90.00000000 17350.00000000 -170.00000000 99 102 155 0.000000 0.000000 0.000000 0.000000 -60.708740 0.000000 38.000000 -0.658254 0.711924 0.244675
-110.00000000 17420.00000000 -150.00000000 99 102 155 0.000000 0.000000 0.000000 0.000000 -60.708740 0.000000 38.000000 0.866889 -0.438721 0.236699
-100.00000000 17380.00000000 -100.00000000 99 102 155 0.000000 0.000000 0.000000 0.000000 -60.708740 0.000000 38.000000 0.793693 -0.604240 -0.070327
-100.00000000 17380.00000000 -90.00000000 99 102 155 0.000000 0.000000 0.000000 0.000000 -60.708740 0.000000 38.000000 0.799405 -0.599201 -0.043706
-110.00000000 17330.00000000 -50.00000000 99 102 155 0.000000 0.000000 0.000000 0.000000 -60.708740 0.000000 38.000000 0.842660 -0.528643 0.102272
-100.00000000 17320.00000000 -40.00000000 99 102 155 0.000000 0.000000 0.000000 0.000000 -60.708740 0.000000 38.000000 0.860095 -0.436898 -0.263357
-100.00000000 17330.00000000 -60.00000000 99 102 155 0.000000 0.000000 0.000000 0.000000 -60.708740 0.000000 38.000000 0.806018 -0.591812 0.009612
-100.00000000 17330.00000000 -60.00000000 99 102 155 0.000000 0.000000 0.000000 0.000000 -60.708740 0.000000 38.000000 0.806018 -0.591812 0.009612
-110.00000000 17350.00000000 -40.00000000 99 102 155 0.000000 0.000000 0.000000 0.000000 -60.708740 0.000000 38.000000 0.756841 -0.652933 -0.029487
-120.00000000 17350.00000000 -80.00000000 99 102 155 0.000000 0.000000 0.000000 0.000000 -60.708740 0.000000 38.000000 0.864160 -0.432839 0.256666
-100.00000000 17350.00000000 -70.00000000 99 102 155 0.000000 0.000000 0.000000 0.000000 -60.708740 0.000000 38.000000 0.743109 -0.489365 -0.456411
-100.00000000 17350.00000000 -80.00000000 99 102 155 0.000000 0.000000 0.000000 0.000000 -60.708740 0.000000 38.000000 0.742672 -0.609086 0.278303
-110.00000000 17340.00000000 -100.00000000 99 102 155 0.000000 0.000000 0.000000 0.000000 -60.708740 0.000000 38.000000 -0.681980 0.715247 -0.152727
-100.00000000 17360.00000000 -110.00000000 99 102 155 0.000000 0.000000 0.000000 0.000000 -60.708740 0.000000 38.000000 0.831619 -0.525943 0.178311
-100.00000000 17390.00000000 -130.00000000 99 102 155 0.000000 0.000000 0.000000 0.000000 -60.708740 0.000000 38.000000 0.894739 -0.326036 0.305194
-100.00000000 17390.00000000 -150.00000000 99 102 155 0.000000 0.000000 0.000000 0.000000 -60.708740 0.000000 38.000000 0.897378 -0.409205 -0.165118
-120.00000000 17330.00000000 -110.00000000 99 102 155 0.000000 0.000000 0.000000 0.000000 -60.708740 0.000000 38.000000 0.857179 -0.511520 0.059933
-120.00000000 17330.00000000 -110.00000000 99 102 155 0.000000 0.000000 0.000000 0.000000 -60.708740 0.000000 38.000000 0.857179 -0.511520 0.059933
-100.00000000 17330.00000000 -180.00000000 99 102 155 0.000000 0.000000 0.000000 0.000000 -60.708740 0.000000 38.000000 0.843014 -0.474483 0.253365
-100.00000000 17340.00000000 -170.00000000 99 102 155 0.000000 0.000000 0.000000 0.000000 -60.708740 0.000000 38.000000 0.760873 -0.612107 0.215400
-100.00000000 17350.00000000 -160.00000000 99 102 155 0.000000 0.000000 0.000000 0.000000 -60.708740 0.000000 38.000000 0.737734 -0.644937 0.199513
-100.00000000 17350.00000000 -180.00000000 99 102 155 0.000000 0.000000 0.000000 0.000000 -60.708740 0.000000 38.000000 0.839318 -0.378085 -0.390636
-110.00000000 17340.00000000 -170.00000000 99 102 155 0.000000 0.000000 0.000000 0.000000 -60.708740 0.000000 38.000000 0.850106 -0.474302 0.228817
-110.00000000 17340.00000000 -160.00000000 99 102 155 0.000000 0.000000 0.000000 0.000000 -60.708740 0.000000 38.000000 0.824870 -0.483652 -0.292696
-100.00000000 17340.00000000 -170.00000000 99 102 155 0.000000 0.000000 0.000000 0.000000 -60.708740 0.000000 38.000000 0.760873 -0.612107 0.215400
-110.00000000 17330.00000000 -150.00000000 99 102 155 0.000000 0.000000 0.000000 0.000000 -60.708740 0.000000 38.000000 -0.592336 0.669089 0.448840
-80.00000000 17450.00000000 -200.00000000 99 102 155 0.000000 0.000000 0.000000 0.000000 -60.708740 0.000000 38.000000 0.844165 -0.532344 0.063207
-80.00000000 17450.00000000 -200.00000000 99 102 155 0.000000 0.000000 0.000000 0.000000 -60.708740 0.000000 38.000000 0.844165 -0.532344 0.063207
-80.00000000 17460.00000000 -210.00000000 99 102 155 0.000000 0.000000 0.000000 0.000000 -60.708740 0.000000 38.000000 0.749750 -0.551335 -0.365930
-80.00000000 17480.00000000 -240.00000000 99 102 155 0.000000 0.000000 0.000000 0.000000 -60.708740 0.000000 38.000000 0.976553 -0.170866 0.130955
-80.00000000 17480.00000000 -240.00000000 99 102 155 0.000000 0.000000 0.000000 0.000000 -60.708740 0.000000 38.000000 0.976553 -0.170866 0.130955
-80.00000000 17400.00000000 -230.00000000 99 102 155 0.000000 0.000000 0.000000 0.000000 -60.708740 0.000000 38.000000 0.815522 -0.554195 -0.166709
-80.00000000 17410.00000000 -200.00000000 99 102 155 0.000000 0.000000 0.000000 0.000000 -60.708740 0.000000 38.000000 0.887460 -0.448652 -0.105483
-90.00000000 17440.00000000 -220.00000000 99 102 155 0.000000 0.000000 0.000000 0.000000 -60.708740 0.000000 38.000000 0.903172 -0.426685 0.047110
-90.00000000 17410.00000000 -200.00000000 99 102 155 0.000000 0.000000 0.000000 0.000000 -60.708740 0.000000 38.000000 0.933603 -0.270955 -0.234454
-80.00000000 17410.00000000 -240.00000000 99 102 155 0.000000 0.000000 0.000000 0.000000 -60.708740 0.000000 38.000000 0.795648 -0.522492 -0.306507
-90.00000000 17410.00000000 -240.00000000 99 102 155 0.000000 0.000000 0.000000 0.000000 -60.708740 0.000000 38.000000 0.918515 -0.395130 0.014251
-70.00000000 17480.00000000 -300.00000000 99 102 155 0.000000 0.000000 0.000000 0.000000 -60.708740 0.000000 38.000000 0.876084 -0.467340 0.118621
-70.00000000 17460.00000000 -290.00000000 99 102 155 0.000000 0.000000 0.000000 0.000000 -60.708740 0.000000 38.000000 0.939720 0.008830 -0.341831
-80.00000000 17480.00000000 -300.00000000 99 102 155 0.000000 0.000000 0.000000 0.000000 -60.708740 0.000000 38.000000 0.950603 -0.298612 0.084759
-70.00000000 17450.00000000 -350.00000000 99 102 155 0.000000 0.000000 0.000000 0.000000 -60.708740 0.000000 38.000000 0.772352 -0.633471 -0.046766
-80.00000000 17450.00000000 -320.00000000 99 102 155 0.000000 0.000000 0.000000 0.000000 -60.708740 0.000000 38.000000 0.902009 -0.353470 0.247869
-90.00000000 17440.00000000 -280.00000000 99 102 155 0.000000 0.000000 0.000000 0.000000 -60.708740 0.000000 38.000000 0.949006 -0.312089 -0.044584
-80.00000000 17410.00000000 -310.00000000 99 102 155 0.000000 0.000000 0.000000 0.000000 -60.708740 0.000000 38.000000 0.899829 -0.436081 -0.011857
-80.00000000 17410.00000000 -320.00000000 99 102 155 0.000000 0.000000 0.000000 0.000000 -60.708740 0.000000 38.000000 0.853987 -0.519995 -0.017650
-90.00000000 17380.00000000 -250.00000000 99 102 155 0.000000 0.000000 0.000000 0.000000 -60.708740 0.000000 38.000000 0.915014 -0.382997 -0.126737
-80.00000000 17370.00000000 -290.00000000 99 102 155 0.000000 0.000000 0.000000 0.000000 -60.708740 0.000000 38.000000 0.846051 -0.485836 0.219459
-100.00000000 17410.00000000 -200.00000000 99 102 155 0.000000 0.000000 0.000000 0.000000 -60.708740 0.000000 38.000000 0.917523 -0.372875 -0.138257
-110.00000000 17420.00000000 -260.00000000 99 102 155 0.000000 0.000000 0.000000 0.000000 -60.708740 0.000000 38.000000 0.931798 -0.362151 0.024487
-110.00000000 17360.00000000 -190.00000000 99 102 155 0.000000 0.000000 0.000000 0.000000 -60.708740 0.000000 38.000000 0.821596 -0.546234 0.163122
-100.00000000 17380.00000000 -230.00000000 99 102 155 0.000000 0.000000 0.000000 0.000000 -60.708740 0.000000 38.000000 0.903258 -0.417636 -0.098512
-110.00000000 17350.00000000 -210.00000000 99 102 155 0.000000 0.000000 0.000000 0.000000 -60.708740 0.000000 38.000000 0.839993 -0.538890 0.063316
-100.00000000 17330.00000000 -200.00000000 99 102 155 0.000000 0.000000 0.000000 0.000000 -60.708740 0.000000 38.000000 0.860007 -0.387544 -0.331960
-100.00000000 17360.00000000 -330.00000000 99 102 155 0.000000 0.000000 0.000000 0.000000 -60.708740 0.000000 38.000000 0.861761 -0.498317 -0.095120
-110.00000000 17350.00000000 -340.00000000 99 102 155 0.000000 0.000000 0.000000 0.000000 -60.708740 0.000000 38.000000 0.714097 -0.630276 -0.304660
-100.00000000 17320.00000000 -320.00000000 99 102 155 0.000000 0.000000 0.000000 0.000000 -60.708740 0.000000 38.000000 -0.545082 0.824307 0.152980
-110.00000000 17330.00000000 -300.00000000 99 102 155 0.000000 0.000000 0.000000 0.000000 -60.708740 0.000000 38.000000 0.805692 -0.588169 0.070122
-110.00000000 17340.00000000 -340.00000000 99 102 155 0.000000 0.000000 0.000000 0.000000 -60.708740 0.000000 38.000000 0.781505 -0.389944 -0.487025
-110.00000000 17310.00000000 -90.00000000 99 102 155 0.000000 0.000000 0.000000 0.000000 -60.708740 0.000000 38.000000 0.747873 -0.637305 0.185817
-110.00000000 17280.00000000 -80.00000000 99 102 155 0.000000 0.000000 0.000000 0.000000 -60.708740 0.000000 38.000000 -0.651786 0.755382 -0.067625
-120.00000000 17280.00000000 -70.00000000 99 102 155 0.000000 0.000000 0.000000 0.000000 -60.708740 0.000000 38.000000 -0.650327 0.716784 -0.251586
-150.00000000 17270.00000000 -50.00000000 99 102 155 0.000000 0.000000 0.000000 0.000000 -60.708740 0.000000 38.000000 -0.503323 0.825450 0.255533
-160.00000000 17260.00000000 -30.00000000 99 102 155 0.000000 0.000000 0.000000 0.000000 -60.708740 0.000000 38.000000 0.743136 -0.630964 0.222785
-150.00000000 17270.00000000 -30.00000000 99 102 155 0.000000 0.000000 0.000000 0.000000 -60.708740 0.000000 38.000000 0.769978 -0.584175 0.256659
-150.00000000 17270.00000000 -30.00000000 99 102 155 0.000000 0.000000 0.000000 0.000000 -60.708740 0.000000 38.000000 0.769978 -0.584175 0.256659
-160.00000000 17260.00000000 -40.00000000 99 102 155 0.000000 0.000000 0.000000 0.000000 -60.708740 0.000000 38.000000 -0.697242 0.716726 0.012525
-150.00000000 17270.00000000 -50.00000000 99 102 155 0.000000 0.000000 0.000000 0.000000 -60.708740 0.000000 38.000000 -0.503323 0.825450 0.255533
-140.00000000 17250.00000000 -40.00000000 99 102 155 0.000000 0.000000 0.000000 0.000000 -60.708740 0.000000 38.000000 -0.622046 0.665175 0.413039
-160.00000000 17240.00000000 -100.00000000 99 102 155 0.000000 0.000000 0.000000 0.000000 -60.708740 0.000000 38.000000 -0.539708 0.833565 0.117834
-140.00000000 17270.00000000 -90.00000000 99 102 155 0.000000 0.000000 0.000000 0.000000 -60.708740 0.000000 38.000000 -0.486415 0.872239 -0.050984
-100.00000000 17290.00000000 -120.00000000 99 102 155 0.000000 0.000000 0.000000 0.000000 -60.708740 0.000000 38.000000 -0.595437 0.795386 0.113207
-110.00000000 17280.00000000 -120.00000000 99 102 155 0.000000 0.000000 0.000000 0.000000 -60.708740 0.000000 38.000000 -0.645577 0.743253 -0.175512
-100.00000000 17310.00000000 -130.00000000 99 102 155 0.000000 0.000000 0.000000 0.000000 -60.708740 0.000000 38.000000 -0.681124 0.731682 0.026683
-100.00000000 17280.00000000 -130.00000000 99 102 155 0.000000 0.000000 0.000000 0.000000 -60.708740 0.000000 38.000000 0.727122 -0.631657 -0.268892
-110.00000000 17310.00000000 -120.00000000 99 102 155 0.000000 0.000000 0.000000 0.000000 -60.708740 0.000000 38.000000 0.771547 -0.622887 -0.129334
-120.00000000 17250.00000000 -140.00000000 99 102 155 0.000000 0.000000 0.000000 0.000000 -60.708740 0.000000 38.000000 -0.704355 0.698374 0.127113
-130.00000000 17250.00000000 -140.00000000 99 102 155 0.000000 0.000000 0.000000 0.000000 -60.708740 0.000000 38.000000 -0.562943 0.797373 -0.217465
-130.00000000 17250.00000000 -160.00000000 99 102 155 0.000000 0.000000 0.000000 0.000000 -60.708740 0.000000 38.000000 0.773584 -0.405521 -0.486951
-130.00000000 17270.00000000 -150.00000000 99 102 155 0.000000 0.000000 0.000000 0.000000 -60.708740 0.000000 38.000000 -0.690325 0.721768 -0.050024
-140.00000000 17260.00000000 -140.00000000 99 102 155 0.000000 0.000000 0.000000 0.000000 -60.708740 0.000000 38.000000 -0.446106 0.857194 0.257310
-150.00000000 17260.00000000 -130.00000000 99 102 155 0.000000 0.000000 0.000000 0.000000 -60.708740 0.000000 38.000000 -0.517186 0.846436 -0.126747
-150.00000000 17260.00000000 -120.00000000 99 102 155 0.000000 0.000000 0.000000 0.000000 -60.708740 0.000000 38.000000 -0.631399 0.765107 -0.126280
-150.00000000 17270.00000000 -150.00000000 99 102 155 0.000000 0.000000 0.000000 0.000000 -60.708740 0.000000 38.000000 -0.595092 0.785885 -0.168079
-140.00000000 17250.00000000 -180.00000000 99 102 155 0.000000 0.000000 0.000000 0.000000 -60.708740 0.000000 38.000000 -0.630757 0.737718 0.240663
-170.00000000 17250.00000000 -150.00000000 99 102 155 0.000000 0.000000 0.000000 0.000000 -60.708740 0.000000 38.000000 -0.445466 0.892310 0.073095
-140.00000000 17270.00000000 -170.00000000 99 102 155 0.000000 0.000000 0.000000 0.000000 -60.708740 0.000000 38.000000 -0.582507 0.812769 -0.009594
-170.00000000 17220.00000000 -20.00000000 99 102 155 0.000000 0.000000 0.000000 0.000000 -60.708740 0.000000 38.000000 -0.320565 0.921803 0.217984
-150.00000000 17230.00000000 -30.00000000 99 102 155 0.000000 0.000000 0.000000 0.000000 -60.708740 0.000000 38.000000 -0.745927 0.508811 0.429772
-160.00000000 17200.00000000 -80.00000000 99 102 155 0.000000 0.000000 0.000000 0.000000 -60.708740 0.000000 38.000000 -0.493971 0.865505 0.083032
-160.00000000 17200.00000000 -90.00000000 99 102 155 0.000000 0.000000 0.000000 0.000000 -60.708740 0.000000 38.000000 -0.391720 0.919289 0.038249
-170.00000000 17230.00000000 -90.00000000 99 102 155 0.000000 0.000000 0.000000 0.000000 -60.708740 0.000000 38.000000 -0.625355 0.772498 0.110357
-170.00000000 17200.00000000 -130.00000000 99 102 155 0.000000 0.000000 0.000000 0.000000 -60.708740 0.000000 38.000000 0.625405 -0.744530 0.233547
-160.00000000 17200.00000000 -180.00000000 99 102 155 0.000000 0.000000 0.000000 0.000000 -60.708740 0.000000 38.000000 -0.508833 0.849033 -0.142239
-170.00000000 17230.00000000 -150.00000000 99 102 155 0.000000 0.000000 0.000000 0.000000 -60.708740 0.000000 38.000000 -0.333684 0.925023 0.181625
-170.00000000 17200.00000000 -180.00000000 99 102 155 0.000000 0.000000 0.000000 0.000000 -60.708740 0.000000 38.000000 -0.614207 0.723829 0.314358
-90.00000000 17290.00000000 -300.00000000 99 102 155 0.000000 0.000000 0.000000 0.000000 -60.708740 0.000000 38.000000 -0.590602 0.791978 -0.154789
-110.00000000 17310.00000000 -210.00000000 99 102 155 0.000000 0.000000 0.000000 0.000000 -60.708740 0.000000 38.000000 0.750681 -0.649600 0.120406
-120.00000000 17300.00000000 -230.00000000 99 102 155 0.000000 0.000000 0.000000 0.000000 -60.708740 0.000000 38.000000 0.705190 -0.699251 -0.117284
-100.00000000 17280.00000000 -220.00000000 99 102 155 0.000000 0.000000 0.000000 0.000000 -60.708740 0.000000 38.000000 0.769771 -0.506129 -0.388954
-120.00000000 17300.00000000 -230.00000000 99 102 155 0.000000 0.000000 0.000000 0.000000 -60.708740 0.000000 38.000000 0.705190 -0.699251 -0.117284
-110.00000000 17310.00000000 -230.00000000 99 102 155 0.000000 0.000000 0.000000 0.000000 -60.708740 0.000000 38.000000 0.813878 -0.576438 0.072949
-120.00000000 17310.00000000 -240.00000000 99 102 155 0.000000 0.000000 0.000000 0.000000 -60.708740 0.000000 38.000000 0.805792 -0.542866 -0.236634
-110.00000000 17310.00000000 -260.00000000 99 102 155 0.000000 0.000000 0.000000 0.000000 -60.708740 0.000000 38.000000 -0.655596 0.754288 -0.035247
-120.00000000 17300.00000000 -250.00000000 99 102 155 0.000000 0.000000 0.000000 0.000000 -60.708740 0.000000 38.000000 0.767751 -0.633212 -0.097980
-120.00000000 17300.00000000 -240.00000000 99 102 155 0.000000 0.000000 0.000000 0.000000 -60.708740 0.000000 38.000000 0.809391 -0.563120 -0.166683
-110.00000000 17270.00000000 -230.00000000 99 102 155 0.000000 0.000000 0.000000 0.000000 -60.708740 0.000000 38.000000 -0.744491 0.579766 0.331064
-110.00000000 17270.00000000 -210.00000000 99 102 155 0.000000 0.000000 0.000000 0.000000 -60.708740 0.000000 38.000000 -0.607005 0.759926 -0.232503
-100.00000000 17270.00000000 -210.00000000 99 102 155 0.000000 0.000000 0.000000 0.000000 -60.708740 0.000000 38.000000 -0.687831 0.724705 0.041128
-120.00000000 17240.00000000 -190.00000000 99 102 155 0.000000 0.000000 0.000000 0.000000 -60.708740 0.000000 38.000000 0.712821 -0.695257 -0.092213
-130.00000000 17250.00000000 -230.00000000 99 102 155 0.000000 0.000000 0.000000 0.000000 -60.708740 0.000000 38.000000 -0.598516 0.771730 0.214971
-130.00000000 17270.00000000 -270.00000000 99 102 155 0.000000 0.000000 0.000000 0.000000 -60.708740 0.000000 38.000000 0.786002 -0.403535 -0.468360
-140.00000000 17280.00000000 -220.00000000 99 102 155 0.000000 0.000000 0.000000 0.000000 -60.708740 0.000000 38.000000 0.562928 -0.653669 -0.505795
-160.00000000 17240.00000000 -230.00000000 99 102 155 0.000000 0.000000 0.000000 0.000000 -60.708740 0.000000 38.000000 0.666027 -0.659481 -0.348559
-170.00000000 17240.00000000 -190.00000000 99 102 155 0.000000 0.000000 0.000000 0.000000 -60.708740 0.000000 38.000000 -0.606508 0.754591 -0.250480
-170.00000000 17240.00000000 -240.00000000 99 102 155 0.000000 0.000000 0.000000 0.000000 -60.708740 0.000000 38.000000 -0.582808 0.729735 0.357521
-150.00000000 17250.00000000 -260.00000000 99 102 155 0.000000 0.000000 0.000000 0.000000 -60.708740 0.000000 38.000000 -0.619511 0.781248 -0.076536
-140.00000000 17260.00000000 -250.00000000 99 102 155 0.000000 0.000000 0.000000 0.000000 -60.708740 0.000000 38.000000 -0.618972 0.771842 0.145376
-170.00000000 17240.00000000 -260.00000000 99 102 155 0.000000 0.000000 0.000000 0.000000 -60.708740 0.000000 38.000000 -0.652101 0.751748 -0.098181
-100.00000000 17290.00000000 -290.00000000 99 102 155 0.000000 0.000000 0.000000 0.000000 -60.708740 0.000000 38.000000 -0.568735 0.816011 0.103274
-120.00000000 17280.00000000 -340.00000000 99 102 155 0.000000 0.000000 0.000000 0.000000 -60.708740 0.000000 38.000000 0.707712 -0.650200 0.276375
-130.00000000 17250.00000000 -310.00000000 99 102 155 0.000000 0.000000 0.000000 0.000000 -60.708740 0.000000 38.000000 -0.606287 0.740662 0.289546
-160.00000000 17240.00000000 -320.00000000 99 102 155 0.000000 0.000000 0.000000 0.000000 -60.708740 0.000000 38.000000 -0.505555 0.795811 0.333316
-150.00000000 17240.00000000 -340.00000000 99 102 155 0.000000 0.000000 0.000000 0.000000 -60.708740 0.000000 38.000000 0.625173 -0.757273 -0.188934
-130.00000000 17220.00000000 -230.00000000 99 102 155 0.000000 0.000000 0.000000 0.000000 -60.708740 0.000000 38.000000 -0.454065 0.890920 -0.009267
-170.00000000 17220.00000000 -230.00000000 99 102 155 0.000000 0.000000 0.000000 0.000000 -60.708740 0.000000 38.000000 -0.410703 0.871417 0.268245
-160.00000000 17230.00000000 -230.00000000 99 102 155 0.000000 0.000000 0.000000 0.000000 -60.708740 0.000000 38.000000 -0.506518 0.822511 0.258680
-170.00000000 17200.00000000 -230.00000000 99 102 155 0.000000 0.000000 0.000000 0.000000 -60.708740 0.000000 38.000000 -0.298039 0.905862 0.300975
-160.00000000 17230.00000000 -200.00000000 99 102 155 0.000000 0.000000 0.000000 0.000000 -60.708740 0.000000 38.000000 -0.456645 0.887077 -0.067600
-160.00000000 17200.00000000 -200.00000000 99 102 155 0.000000 0.000000 0.000000 0.000000 -60.708740 0.000000 38.000000 -0.515212 0.852027 -0.092767
-150.00000000 17210.00000000 -210.00000000 99 102 155 0.000000 0.000000 0.000000 0.000000 -60.708740 0.000000 38.000000 0.798351 -0.430626 -0.420949
-170.00000000 17230.00000000 -230.00000000 99 102 155 0.000000 0.000000 0.000000 0.000000 -60.708740 0.000000 38.000000 -0.628076 0.624726 0.463938
-160.00000000 17200.00000000 -200.00000000 99 102 155 0.000000 0.000000 0.000000 0.000000 -60.708740 0.000000 38.000000 -0.515212 0.852027 -0.092767
-160.00000000 17230.00000000 -200.00000000 99 102 155 0.000000 0.000000 0.000000 0.000000 -60.708740 0.000000 38.000000 -0.456645 0.887077 -0.067600
-140.00000000 17230.00000000 -190.00000000 99 102 155 0.000000 0.000000 0.000000 0.000000 -60.708740 0.000000 38.000000 -0.485505 0.766673 0.420117
-160.00000000 17210.00000000 -310.00000000 99 102 155 0.000000 0.000000 0.000000 0.000000 -60.708740 0.000000 38.000000 -0.529808 0.712500 0.460052
-170.00000000 17230.00000000 -300.00000000 99 102 155 0.000000 0.000000 0.000000 0.000000 -60.708740 0.000000 38.000000 -0.476828 0.868146 0.137686
-160.00000000 17210.00000000 -310.00000000 99 102 155 0.000000 0.000000 0.000000 0.000000 -60.708740 0.000000 38.000000 -0.529808 0.712500 0.460052
-140.00000000 17220.00000000 -350.00000000 99 102 155 0.000000 0.000000 0.000000 0.000000 -60.708740 0.000000 38.000000 -0.460409 0.883034 0.090962
-150.00000000 17220.00000000 -320.00000000 99 102 155 0.000000 0.000000 0.000000 0.000000 -60.708740 0.000000 38.000000 -0.483851 0.860343 -0.160303
-150.00000000 17220.00000000 -320.00000000 99 102 155 0.000000 0.000000 0.000000 0.000000 -60.708740 0.000000 38.000000 -0.483851 0.860343 -0.160303
-180.00000000 17250.00000000 -50.00000000 99 102 155 0.000000 0.000000 0.000000 0.000000 -60.708740 0.000000 38.000000 0.722229 -0.687353 -0.077018
-190.00000000 17240.00000000 -30.00000000 99 102 155 0.000000 0.000000 0.000000 0.000000 -60.708740 0.000000 38.000000 -0.459639 0.877493 0.136883
-190.00000000 17240.00000000 -60.00000000 99 102 155 0.000000 0.000000 0.000000 0.000000 -60.708740 0.000000 38.000000 -0.308228 0.933053 0.185495
-180.00000000 17250.00000000 -110.00000000 99 102 155 0.000000 0.000000 0.000000 0.000000 -60.708740 0.000000 38.000000 -0.439324 0.898320 0.003934
-180.00000000 17250.00000000 -140.00000000 99 102 155 0.000000 0.000000 0.000000 0.000000 -60.708740 0.000000 38.000000 -0.630637 0.773638 0.061491
-210.00000000 17210.00000000 -20.00000000 99 102 155 0.000000 0.000000 0.000000 0.000000 -60.708740 0.000000 38.000000 -0.375994 0.926419 -0.019381
-200.00000000 17220.00000000 -60.00000000 99 102 155 0.000000 0.000000 0.000000 0.000000 -60.708740 0.000000 38.000000 -0.519655 0.667648 0.533109
-180.00000000 17200.00000000 -30.00000000 99 102 155 0.000000 0.000000 0.000000 0.000000 -60.708740 0.000000 38.000000 -0.420638 0.891869 0.166232
-210.00000000 17230.00000000 -50.00000000 99 102 155 0.000000 0.000000 0.000000 0.000000 -60.708740 0.000000 38.000000 -0.467149 0.857691 -0.214798
-200.00000000 17230.00000000 -20.00000000 99 102 155 0.000000 0.000000 0.000000 0.000000 -60.708740 0.000000 38.000000 -0.388330 0.813416 0.433076
-210.00000000 17230.00000000 -30.00000000 99 102 155 0.000000 0.000000 0.000000 0.000000 -60.708740 0.000000 38.000000 -0.332088 0.942411 0.039748
-210.00000000 17190.00000000 -50.00000000 99 102 155 0.000000 0.000000 0.000000 0.000000 -60.708740 0.000000 38.000000 -0.557425 0.786676 -0.265366
-200.00000000 17230.00000000 -20.00000000 99 102 155 0.000000 0.000000 0.000000 0.000000 -60.708740 0.000000 38.000000 -0.388330 0.813416 0.433076
-210.00000000 17190.00000000 -50.00000000 99 102 155 0.000000 0.000000 0.000000 0.000000 -60.708740 0.000000 38.000000 -0.557425 0.786676 -0.265366
-210.00000000 17210.00000000 -20.00000000 99 102 155 0.000000 0.000000 0.000000 0.000000 -60.708740 0.000000 38.000000 -0.375994 0.926419 -0.019381
-210.00000000 17190.00000000 -80.00000000 99 102 155 0.000000 0.000000 0.000000 0.000000 -60.708740 0.000000 38.000000 -0.440047 0.818138 0.370148
-200.00000000 17210.00000000 -90.00000000 99 102 155 0.000000 0.000000 0.000000 0.000000 -60.708740 0.000000 38.000000 -0.411829 0.881641 0.230446
-190.00000000 17210.00000000 -80.00000000 99 102 155 0.000000 0.000000 0.000000 0.000000 -60.708740 0.000000 38.000000 -0.568199 0.820417 -0.063763
-210.00000000 17200.00000000 -80.00000000 99 102 155 0.000000 0.000000 0.000000 0.000000 -60.708740 0.000000 38.000000 -0.455246 0.733360 0.504909
-200.00000000 17210.00000000 -90.00000000 99 102 155 0.000000 0.000000 0.000000 0.000000 -60.708740 0.000000 38.000000 -0.411829 0.881641 0.230446
-210.00000000 17210.00000000 -100.00000000 99 102 155 0.000000 0.000000 0.000000 0.000000 -60.708740 0.000000 38.000000 -0.552444 0.804814 0.216977
-200.00000000 17210.00000000 -90.00000000 99 102 155 0.000000 0.000000 0.000000 0.000000 -60.708740 0.000000 38.000000 -0.411829 0.881641 0.230446
-210.00000000 17170.00000000 -30.00000000 99 102 155 0.000000 0.000000 0.000000 0.000000 -60.708740 0.000000 38.000000 -0.350441 0.917958 -0.185862
-210.00000000 17170.00000000 -60.00000000 99 102 155 0.000000 0.000000 0.000000 0.000000 -60.708740 0.000000 38.000000 -0.326151 0.931267 0.162382
-210.00000000 17180.00000000 -70.00000000 99 102 155 0.000000 0.000000 0.000000 0.000000 -60.708740 0.000000 38.000000 -0.376716 0.870869 0.315709
-240.00000000 17200.00000000 -30.00000000 99 102 155 0.000000 0.000000 0.000000 0.000000 -60.708740 0.000000 38.000000 -0.399893 0.889800 -0.219868
-220.00000000 17200.00000000 -70.00000000 99 102 155 0.000000 0.000000 0.000000 0.000000 -60.708740 0.000000 38.000000 -0.545010 0.815237 -0.195839
-250.00000000 17210.00000000 -100.00000000 99 102 155 0.000000 0.000000 0.000000 0.000000 -60.708740 0.000000 38.000000 -0.215713 0.976072 0.027411
-250.00000000 17180.00000000 -50.00000000 99 102 155 0.000000 0.000000 0.000000 0.000000 -60.708740 0.000000 38.000000 -0.504891 0.834366 -0.221176
-250.00000000 17160.00000000 -40.00000000 99 102 155 0.000000 0.000000 0.000000 0.000000 -60.708740 0.000000 38.000000 -0.346286 0.938121 -0.003778
-220.00000000 17180.00000000 -40.00000000 99 102 155 0.000000 0.000000 0.000000 0.000000 -60.708740 0.000000 38.000000 -0.207834 0.949515 0.235002
-240.00000000 17160.00000000 -50.00000000 99 102 155 0.000000 0.000000 0.000000 0.000000 -60.708740 0.000000 38.000000 -0.370012 0.856137 0.360723
-230.00000000 17170.00000000 -70.00000000 99 102 155 0.000000 0.000000 0.000000 0.000000 -60.708740 0.000000 38.000000 -0.507266 0.816308 -0.276265
-230.00000000 17160.00000000 -90.00000000 99 102 155 0.000000 0.000000 0.000000 0.000000 -60.708740 0.000000 38.000000 -0.435203 0.894194 0.104952
-180.00000000 17220.00000000 -140.00000000 99 102 155 0.000000 0.000000 0.000000 0.000000 -60.708740 0.000000 38.000000 -0.537790 0.812078 -0.226519
-190.00000000 17220.00000000 -130.00000000 99 102 155 0.000000 0.000000 0.000000 0.000000 -60.708740 0.000000 38.000000 -0.528319 0.848345 0.034486
-210.00000000 17200.00000000 -130.00000000 99 102 155 0.000000 0.000000 0.000000 0.000000 -60.708740 0.000000 38.000000 -0.398921 0.904316 0.151902
-200.00000000 17200.00000000 -120.00000000 99 102 155 0.000000 0.000000 0.000000 0.000000 -60.708740 0.000000 38.000000 -0.425664 0.901969 0.072541
-210.00000000 17200.00000000 -120.00000000 99 102 155 0.000000 0.000000 0.000000 0.000000 -60.708740 0.000000 38.000000 -0.452366 0.877096 0.161455
-210.00000000 17200.00000000 -120.00000000 99 102 155 0.000000 0.000000 0.000000 0.000000 -60.708740 0.000000 38.000000 -0.452366 0.877096 0.161455
-200.00000000 17200.00000000 -130.00000000 99 102 155 0.000000 0.000000 0.000000 0.000000 -60.708740 0.000000 38.000000 -0.381260 0.918051 -0.108735
-180.00000000 17230.00000000 -160.00000000 99 102 155 0.000000 0.000000 0.000000 0.000000 -60.708740 0.000000 38.000000 -0.424688 0.891125 -0.159798
-190.00000000 17230.00000000 -160.00000000 99 102 155 0.000000 0.000000 0.000000 0.000000 -60.708740 0.000000 38.000000 -0.524211 0.836064 -0.161867
-190.00000000 17230.00000000 -150.00000000 99 102 155 0.000000 0.000000 0.000000 0.000000 -60.708740 0.000000 38.000000 -0.510995 0.841726 0.174304
-200.00000000 17200.00000000 -160.00000000 99 102 155 0.000000 0.000000 0.000000 0.000000 -60.708740 0.000000 38.000000 0.640810 -0.637481 -0.427762
-180.00000000 17230.00000000 -160.00000000 99 102 155 0.000000 0.000000 0.000000 0.000000 -60.708740 0.000000 38.000000 -0.424688 0.891125 -0.159798
-200.00000000 17220.00000000 -150.00000000 99 102 155 0.000000 0.000000 0.000000 0.000000 -60.708740 0.000000 38.000000 -0.269323 0.920307 0.283725
-240.00000000 17190.00000000 -150.00000000 99 102 155 0.000000 0.000000 0.000000 0.000000 -60.708740 0.000000 38.000000 -0.301096 0.943793 -0.136371
-220.00000000 17190.00000000 -180.00000000 99 102 155 0.000000 0.000000 0.000000 0.000000 -60.708740 0.000000 38.000000 -0.529339 0.802647 -0.274879
-220.00000000 17190.00000000 -170.00000000 99 102 155 0.000000 0.000000 0.000000 0.000000 -60.708740 0.000000 38.000000 -0.437305 0.879026 -0.189940
-220.00000000 17170.00000000 -140.00000000 99 102 155 0.000000 0.000000 0.000000 0.000000 -60.708740 0.000000 38.000000 -0.325208 0.945015 0.034434
-220.00000000 17160.00000000 -110.00000000 99 102 155 0.000000 0.000000 0.000000 0.000000 -60.708740 0.000000 38.000000 -0.251435 0.963623 -0.090619
-250.00000000 17180.00000000 -130.00000000 99 102 155 0.000000 0.000000 0.000000 0.000000 -60.708740 0.000000 38.000000 -0.170598 0.964985 0.199248
-250.00000000 17180.00000000 -140.00000000 99 102 155 0.000000 0.000000 0.000000 0.000000 -60.708740 0.000000 38.000000 -0.254740 0.852694 0.456092
-220.00000000 17170.00000000 -160.00000000 99 102 155 0.000000 0.000000 0.000000 0.000000 -60.708740 0.000000 38.000000 -0.382721 0.919346 -0.091254
-280.00000000 17180.00000000 -40.00000000 99 102 155 0.000000 0.000000 0.000000 0.000000 -60.708740 0.000000 38.000000 -0.250168 0.967722 -0.030508
-270.00000000 17180.00000000 -30.00000000 99 102 155 0.000000 0.000000 0.000000 0.000000 -60.708740 0.000000 38.000000 -0.340334 0.910937 0.233165
-260.00000000 17160.00000000 -80.00000000 99 102 155 0.000000 0.000000 0.000000 0.000000 -60.708740 0.000000 38.000000 -0.318903 0.881140 0.349131
-280.00000000 17170.00000000 -80.00000000 99 102 155 0.000000 0.000000 0.000000 0.000000 -60.708740 0.000000 38.000000 -0.328997 0.943124 0.047737
-260.00000000 17160.00000000 -100.00000000 99 102 155 0.000000 0.000000 0.000000 0.000000 -60.708740 0.000000 38.000000 -0.239940 0.966107 -0.095214
-280.00000000 17170.00000000 -90.00000000 99 102 155 0.000000 0.000000 0.000000 0.000000 -60.708740 0.000000 38.000000 -0.406196 0.857181 0.316616
-340.00000000 17190.00000000 -20.00000000 99 102 155 0.000000 0.000000 0.000000 0.000000 -60.708740 0.000000 38.000000 -0.045702 0.998004 -0.043576
-320.00000000 17190.00000000 -20.00000000 99 102 155 0.000000 0.000000 0.000000 0.000000 -60.708740 0.000000 38.000000 -0.377733 0.912501 -0.157035
-310.00000000 17180.00000000 -60.00000000 99 102 155 0.000000 0.000000 0.000000 0.000000 -60.708740 0.000000 38.000000 -0.317127 0.919813 0.231029
-330.00000000 17160.00000000 -40.00000000 99 102 155 0.000000 0.000000 0.000000 0.000000 -60.708740 0.000000 38.000000 -0.173752 0.972759 -0.153460
-340.00000000 17180.00000000 -70.00000000 99 102 155 0.000000 0.000000 0.000000 0.000000 -60.708740 0.000000 38.000000 -0.128189 0.989714 -0.063517
-260.00000000 17180.00000000 -130.00000000 99 102 155 0.000000 0.000000 0.000000 0.000000 -60.708740 0.000000 38.000000 -0.304927 0.865747 0.396865
-270.00000000 17160.00000000 -110.00000000 99 102 155 0.000000 0.000000 0.000000 0.000000 -60.708740 0.000000 38.000000 -0.276299 0.954605 0.111305
-260.00000000 17180.00000000 -130.00000000 99 102 155 0.000000 0.000000 0.000000 0.000000 -60.708740 0.000000 38.000000 -0.304927 0.865747 0.396865
-280.00000000 17160.00000000 -110.00000000 99 102 155 0.000000 0.000000 0.000000 0.000000 -60.708740 0.000000 38.000000 -0.447349 0.758691 0.473568
-300.00000000 17160.00000000 -120.00000000 99 102 155 0.000000 0.000000 0.000000 0.000000 -60.708740 0.000000 38.000000 -0.572584 0.663257 0.481911
-280.00000000 17180.00000000 -140.00000000 99 102 155 0.000000 0.000000 0.000000 0.000000 -60.708740 0.000000 38.000000 -0.382387 0.883239 0.271420
-290.00000000 17170.00000000 -180.00000000 99 102 155 0.000000 0.000000 0.000000 0.000000 -60.708740 0.000000 38.000000 -0.139722 0.985217 0.099119
-260.00000000 17160.00000000 -150.00000000 99 102 155 0.000000 0.000000 0.000000 0.000000 -60.708740 0.000000 38.000000 0.443121 -0.817948 -0.366885
-260.00000000 17160.00000000 -150.00000000 99 102 155 0.000000 0.000000 0.000000 0.000000 -60.708740 0.000000 38.000000 0.443121 -0.817948 -0.366885
-290.00000000 17170.00000000 -170.00000000 99 102 155 0.000000 0.000000 0.000000 0.000000 -60.708740 0.000000 38.000000 -0.130268 0.966045 0.223132
-260.00000000 17160.00000000 -150.00000000 99 102 155 0.000000 0.000000 0.000000 0.000000 -60.708740 0.000000 38.000000 0.443121 -0.817948 -0.366885
-290.00000000 17150.00000000 -170.00000000 99 102 155 0.000000 0.000000 0.000000 0.000000 -60.708740 0.000000 38.000000 -0.129367 0.991060 0.032623
-310.00000000 17180.00000000 -140.00000000 99 102 155 0.000000 0.000000 0.000000 0.000000 -60.708740 0.000000 38.000000 -0.054961 0.952238 0.300370
-320.00000000 17180.00000000 -110.00000000 99 102 155 0.000000 0.000000 0.000000 0.000000 -60.708740 0.000000 38.000000 -0.178876 0.978268 -0.104858
-330.00000000 17150.00000000 -170.00000000 99 102 155 0.000000 0.000000 0.000000 0.000000 -60.708740 0.000000 38.000000 -0.050090 0.986655 0.154929
-200.00000000 17240.00000000 -240.00000000 99 102 155 0.000000 0.000000 0.000000 0.000000 -60.708740 0.000000 38.000000 -0.575528 0.815920 0.055149
-180.00000000 17240.00000000 -190.00000000 99 102 155 0.000000 0.000000 0.000000 0.000000 -60.708740 0.000000 38.000000 -0.574288 0.798548 -0.180317
-180.00000000 17270.00000000 -220.00000000 99 102 155 0.000000 0.000000 0.000000 0.000000 -60.708740 0.000000 38.000000 -0.407384 0.894505 0.184120
-190.00000000 17220.00000000 -230.00000000 99 102 155 0.000000 0.000000 0.000000 0.000000 -60.708740 0.000000 38.000000 -0.378085 0.839318 0.390636
-180.00000000 17210.00000000 -190.00000000 99 102 155 0.000000 0.000000 0.000000 0.000000 -60.708740 0.000000 38.000000 -0.310306 0.922337 0.230227
-180.00000000 17220.00000000 -190.00000000 99 102 155 0.000000 0.000000 0.000000 0.000000 -60.708740 0.000000 38.000000 0.662814 -0.675778 -0.322494
-180.00000000 17210.00000000 -200.00000000 99 102 155 0.000000 0.000000 0.000000 0.000000 -60.708740 0.000000 38.000000 0.564262 -0.746387 -0.352867
-180.00000000 17230.00000000 -250.00000000 99 102 155 0.000000 0.000000 0.000000 0.000000 -60.708740 0.000000 38.000000 -0.569212 0.782471 -0.252461
-210.00000000 17170.00000000 -260.00000000 99 102 155 0.000000 0.000000 0.000000 0.000000 -60.708740 0.000000 38.000000 -0.287432 0.953339 -0.092343
-210.00000000 17180.00000000 -270.00000000 99 102 155 0.000000 0.000000 0.000000 0.000000 -60.708740 0.000000 38.000000 -0.564446 0.697649 0.441234
-220.00000000 17190.00000000 -260.00000000 99 102 155 0.000000 0.000000 0.000000 0.000000 -60.708740 0.000000 38.000000 -0.430388 0.895824 0.110751
-220.00000000 17190.00000000 -240.00000000 99 102 155 0.000000 0.000000 0.000000 0.000000 -60.708740 0.000000 38.000000 -0.325213 0.945267 0.026574
-220.00000000 17170.00000000 -200.00000000 99 102 155 0.000000 0.000000 0.000000 0.000000 -60.708740 0.000000 38.000000 -0.260927 0.959327 0.107746
-190.00000000 17190.00000000 -280.00000000 99 102 155 0.000000 0.000000 0.000000 0.000000 -60.708740 0.000000 38.000000 -0.342804 0.826206 0.447067
-200.00000000 17210.00000000 -310.00000000 99 102 155 0.000000 0.000000 0.000000 0.000000 -60.708740 0.000000 38.000000 -0.476858 0.841784 -0.252995
-190.00000000 17190.00000000 -280.00000000 99 102 155 0.000000 0.000000 0.000000 0.000000 -60.708740 0.000000 38.000000 -0.342804 0.826206 0.447067
-190.00000000 17190.00000000 -280.00000000 99 102 155 0.000000 0.000000 0.000000 0.000000 -60.708740 0.000000 38.000000 -0.342804 0.826206 0.447067
-200.00000000 17200.00000000 -350.00000000 99 102 155 0.000000 0.000000 0.000000 0.000000 -60.708740 0.000000 38.000000 -0.464709 0.884708 0.036581
-190.00000000 17170.00000000 -310.00000000 99 102 155 0.000000 0.000000 0.000000 0.000000 -60.708740 0.000000 38.000000 -0.390369 0.907075 -0.157567
-230.00000000 17200.00000000 -340.00000000 99 102 155 0.000000 0.000000 0.000000 0.000000 -60.708740 0.000000 38.000000 -0.273259 0.859468 0.432024
-240.00000000 17180.00000000 -280.00000000 99 102 155 0.000000 0.000000 0.000000 0.000000 -60.708740 0.000000 38.000000 -0.438686 0.881745 -0.173434
-240.00000000 17180.00000000 -280.00000000 99 102 155 0.000000 0.000000 0.000000 0.000000 -60.708740 0.000000 38.000000 -0.438686 0.881745 -0.173434
-240.00000000 17180.00000000 -280.00000000 99 102 155 0.000000 0.000000 0.000000 0.000000 -60.708740 0.000000 38.000000 -0.438686 0.881745 -0.173434
-220.00000000 17180.00000000 -310.00000000 99 102 155 0.000000 0.000000 0.000000 0.000000 -60.708740 0.000000 38.000000 -0.356169 0.919282 -0.167526
-220.00000000 17180.00000000 -320.00000000 99 102 155 0.000000 0.000000 0.000000 0.000000 -60.708740 0.000000 38.000000 -0.312876 0.943952 -0.105179
-250.00000000 17170.00000000 -320.00000000 99 102 155 0.000000 0.000000 0.000000 0.000000 -60.708740 0.000000 38.000000 -0.231090 0.968556 -0.092183
-250.00000000 17160.00000000 -350.00000000 99 102 155 0.000000 0.000000 0.000000 0.000000 -60.708740 0.000000 38.000000 -0.137056 0.985612 0.098919
-250.00000000 17170.00000000 -320.00000000 99 102 155 0.000000 0.000000 0.000000 0.000000 -60.708740 0.000000 38.000000 -0.231090 0.968556 -0.092183
-230.00000000 17170.00000000 -340.00000000 99 102 155 0.000000 0.000000 0.000000 0.000000 -60.708740 0.000000 38.000000 -0.225093 0.943180 0.244426
-300.00000000 17170.00000000 -190.00000000 99 102 155 0.000000 0.000000 0.000000 0.000000 -60.708740 0.000000 38.000000 -0.185042 0.982676 -0.010344
-280.00000000 17170.00000000 -190.00000000 99 102 155 0.000000 0.000000 0.000000 0.000000 -60.708740 0.000000 38.000000 -0.177956 0.983925 0.014925
-300.00000000 17170.00000000 -190.00000000 99 102 155 0.000000 0.000000 0.000000 0.000000 -60.708740 0.000000 38.000000 -0.185042 0.982676 -0.010344
-260.00000000 17180.00000000 -190.00000000 99 102 155 0.000000 0.000000 0.000000 0.000000 -60.708740 0.000000 38.000000 -0.253425 0.960415 0.115666
-300.00000000 17160.00000000 -250.00000000 99 102 155 0.000000 0.000000 0.000000 0.000000 -60.708740 0.000000 38.000000 -0.227187 0.966508 -0.119369
-260.00000000 17150.00000000 -240.00000000 99 102 155 0.000000 0.000000 0.000000 0.000000 -60.708740 0.000000 38.000000 -0.140058 0.989514 -0.035299
-270.00000000 17160.00000000 -250.00000000 99 102 155 0.000000 0.000000 0.000000 0.000000 -60.708740 0.000000 38.000000 -0.107769 0.977358 0.182093
-300.00000000 17160.00000000 -250.00000000 99 102 155 0.000000 0.000000 0.000000 0.000000 -60.708740 0.000000 38.000000 -0.227187 0.966508 -0.119369
-290.00000000 17160.00000000 -260.00000000 99 102 155 0.000000 0.000000 0.000000 0.000000 -60.708740 0.000000 38.000000 -0.135438 0.990603 -0.019029
-340.00000000 17170.00000000 -190.00000000 99 102 155 0.000000 0.000000 0.000000 0.000000 -60.708740 0.000000 38.000000 -0.023854 0.950403 0.310105
-330.00000000 17170.00000000 -230.00000000 99 102 155 0.000000 0.000000 0.000000 0.000000 -60.708740 0.000000 38.000000 -0.162623 0.986121 0.033447
-330.00000000 17170.00000000 -230.00000000 99 102 155 0.000000 0.000000 0.000000 0.000000 -60.708740 0.000000 38.000000 -0.162623 0.986121 0.033447
-330.00000000 17150.00000000 -240.00000000 99 102 155 0.000000 0.000000 0.000000 0.000000 -60.708740 0.000000 38.000000 -0.078663 0.987392 -0.137366
-330.00000000 17150.00000000 -250.00000000 99 102 155 0.000000 0.000000 0.000000 0.000000 -60.708740 0.000000 38.000000 -0.121567 0.989900 -0.072940
-320.00000000 17150.00000000 -240.00000000 99 102 155 0.000000 0.000000 0.000000 0.000000 -60.708740 0.000000 38.000000 -0.066371 0.997670 -0.015803
-290.00000000 17170.00000000 -320.00000000 99 102 155 0.000000 0.000000 0.000000 0.000000 -60.708740 0.000000 38.000000 -0.166307 0.968193 0.186935
-290.00000000 17170.00000000 -320.00000000 99 102 155 0.000000 0.000000 0.000000 0.000000 -60.708740 0.000000 38.000000 -0.166307 0.968193 0.186935
-270.00000000 17150.00000000 -340.00000000 99 102 155 0.000000 0.000000 0.000000 0.000000 -60.708740 0.000000 38.000000 -0.390720 0.830477 0.397047
-290.00000000 17170.00000000 -320.00000000 99 102 155 0.000000 0.000000 0.000000 0.000000 -60.708740 0.000000 38.000000 -0.166307 0.968193 0.186935
-290.00000000 17170.00000000 -320.00000000 99 102 155 0.000000 0.000000 0.000000 0.000000 -60.708740 0.000000 38.000000 -0.166307 0.968193 0.186935
-290.00000000 17170.00000000 -350.00000000 99 102 155 0.000000 0.000000 0.000000 0.000000 -60.708740 0.000000 38.000000 -0.260842 0.942620 0.208398
-310.00000000 17160.00000000 -310.00000000 99 102 155 0.000000 0.000000 0.000000 0.000000 -60.708740 0.000000 38.000000 -0.063331 0.997202 0.039716
-340.00000000 17170.00000000 -280.00000000 99 102 155 0.000000 0.000000 0.000000 0.000000 -60.708740 0.000000 38.000000 -0.008954 0.999900 0.010944
-320.00000000 17160.00000000 -290.00000000 99 102 155 0.000000 0.000000 0.000000 0.000000 -60.708740 0.000000 38.000000 -0.459768 0.715380 0.526161
-340.00000000 17180.00000000 -310.00000000 99 102 155 0.000000 0.000000 0.000000 0.000000 -60.708740 0.000000 38.000000 -0.093184 0.993590 -0.063994
-70.00000000 17450.00000000 -370.00000000 99 102 155 0.000000 0.000000 0.000000 0.000000 -60.708740 0.000000 38.000000 0.960139 -0.271976 -0.064515
-70.00000000 17450.00000000 -370.00000000 99 102 155 0.000000 0.000000 0.000000 0.000000 -60.708740 0.000000 38.000000 0.960139 -0.271976 -0.064515
-70.00000000 17470.00000000 -440.00000000 99 102 155 0.000000 0.000000 0.000000 0.000000 -60.708740 0.000000 38.000000 0.892513 -0.392588 0.222025
-80.00000000 17480.00000000 -420.00000000 99 102 155 0.000000 0.000000 0.000000 0.000000 -60.708740 0.000000 38.000000 0.951670 -0.306385 0.021259
-80.00000000 17470.00000000 -420.00000000 99 102 155 0.000000 0.000000 0.000000 0.000000 -60.708740 0.000000 38.000000 0.954282 -0.284337 0.092182
-80.00000000 17440.00000000 -360.00000000 99 102 155 0.000000 0.000000 0.000000 0.000000 -60.708740 0.000000 38.000000 0.945084 -0.326711 -0.008762
-80.00000000 17440.00000000 -360.00000000 99 102 155 0.000000 0.000000 0.000000 0.000000 -60.708740 0.000000 38.000000 0.945084 -0.326711 -0.008762
-70.00000000 17440.00000000 -400.00000000 99 102 155 0.000000 0.000000 0.000000 0.000000 -60.708740 0.000000 38.000000 0.920748 -0.388993 0.030124
-50.00000000 17420.00000000 -400.00000000 99 102 155 0.000000 0.000000 0.000000 0.000000 -60.708740 0.000000 38.000000 0.895211 -0.435771 -0.093280
-60.00000000 17480.00000000 -460.00000000 99 102 155 0.000000 0.000000 0.000000 0.000000 -60.708740 0.000000 38.000000 0.909478 -0.375499 -0.178469
-50.00000000 17480.00000000 -500.00000000 99 102 155 0.000000 0.000000 0.000000 0.000000 -60.708740 0.000000 38.000000 0.936545 -0.146292 -0.318562
-60.00000000 17450.00000000 -520.00000000 99 102 155 0.000000 0.000000 0.000000 0.000000 -60.708740 0.000000 38.000000 0.936648 -0.097819 -0.336336
-50.00000000 17480.00000000 -520.00000000 99 102 155 0.000000 0.000000 0.000000 0.000000 -60.708740 0.000000 38.000000 0.960257 -0.259773 -0.102100
-70.00000000 17420.00000000 -460.00000000 99 102 155 0.000000 0.000000 0.000000 0.000000 -60.708740 0.000000 38.000000 0.904427 -0.397378 0.155248
-90.00000000 17370.00000000 -410.00000000 99 102 155 0.000000 0.000000 0.000000 0.000000 -60.708740 0.000000 38.000000 0.814367 -0.568741 -0.115503
-80.00000000 17370.00000000 -400.00000000 99 102 155 0.000000 0.000000 0.000000 0.000000 -60.708740 0.000000 38.000000 0.801082 -0.501672 -0.326485
-90.00000000 17360.00000000 -400.00000000 99 102 155 0.000000 0.000000 0.000000 0.000000 -60.708740 0.000000 38.000000 0.838086 -0.300094 -0.455583
-90.00000000 17380.00000000 -420.00000000 99 102 155 0.000000 0.000000 0.000000 0.000000 -60.708740 0.000000 38.000000 0.865291 -0.465926 0.184891
-80.00000000 17370.00000000 -430.00000000 99 102 155 0.000000 0.000000 0.000000 0.000000 -60.708740 0.000000 38.000000 0.677083 -0.702102 -0.220482
-90.00000000 17360.00000000 -400.00000000 99 102 155 0.000000 0.000000 0.000000 0.000000 -60.708740 0.000000 38.000000 0.838086 -0.300094 -0.455583
-80.00000000 17370.00000000 -430.00000000 99 102 155 0.000000 0.000000 0.000000 0.000000 -60.708740 0.000000 38.000000 0.677083 -0.702102 -0.220482
-80.00000000 17360.00000000 -450.00000000 99 102 155 0.000000 0.000000 0.000000 0.000000 -60.708740 0.000000 38.000000 0.793175 -0.556313 0.247770
-70.00000000 17380.00000000 -460.00000000 99 102 155 0.000000 0.000000 0.000000 0.000000 -60.708740 0.000000 38.000000 0.888068 -0.238696 -0.392885
-80.00000000 17380.00000000 -450.00000000 99 102 155 0.000000 0.000000 0.000000 0.000000 -60.708740 0.000000 38.000000 0.763771 -0.616242 -0.192095
-80.00000000 17330.00000000 -500.00000000 99 102 155 0.000000 0.000000 0.000000 0.000000 -60.708740 0.000000 38.000000 0.848104 -0.403044 -0.343910
-100.00000000 17320.00000000 -370.00000000 99 102 155 0.000000 0.000000 0.000000 0.000000 -60.708740 0.000000 38.000000 -0.669616 0.739036 0.073759
-70.00000000 17480.00000000 -540.00000000 99 102 155 0.000000 0.000000 0.000000 0.000000 -60.708740 0.000000 38.000000 0.813521 -0.525302 -0.249480
-60.00000000 17450.00000000 -530.00000000 99 102 155 0.000000 0.000000 0.000000 0.000000 -60.708740 0.000000 38.000000 0.835847 -0.503944 -0.217716
-90.00000000 17470.00000000 -560.00000000 99 102 155 0.000000 0.000000 0.000000 0.000000 -60.708740 0.000000 38.000000 0.920237 -0.311531 0.236879
-70.00000000 17450.00000000 -560.00000000 99 102 155 0.000000 0.000000 0.000000 0.000000 -60.708740 0.000000 38.000000 -0.708710 0.668034 0.226850
-70.00000000 17460.00000000 -580.00000000 99 102 155 0.000000 0.000000 0.000000 0.000000 -60.708740 0.000000 38.000000 0.925260 -0.139688 -0.352678
-70.00000000 17460.00000000 -580.00000000 99 102 155 0.000000 0.000000 0.000000 0.000000 -60.708740 0.000000 38.000000 0.925260 -0.139688 -0.352678
-70.00000000 17420.00000000 -550.00000000 99 102 155 0.000000 0.000000 0.000000 0.000000 -60.708740 0.000000 38.000000 0.889746 -0.454999 0.036454
-60.00000000 17440.00000000 -530.00000000 99 102 155 0.000000 0.000000 0.000000 0.000000 -60.708740 0.000000 38.000000 0.896937 -0.325753 -0.298979
-70.00000000 17440.00000000 -530.00000000 99 102 155 0.000000 0.000000 0.000000 0.000000 -60.708740 0.000000 38.000000 0.931430 -0.235324 -0.277597
-50.00000000 17450.00000000 -690.00000000 99 102 155 0.000000 0.000000 0.000000 0.000000 -60.708740 0.000000 38.000000 0.862055 -0.440875 0.249981
-70.00000000 17410.00000000 -670.00000000 99 102 155 0.000000 0.000000 0.000000 0.000000 -60.708740 0.000000 38.000000 0.850591 -0.334327 -0.405858
-50.00000000 17390.00000000 -560.00000000 99 102 155 0.000000 0.000000 0.000000 0.000000 -60.708740 0.000000 38.000000 -0.617393 0.735447 0.279183
-50.00000000 17390.00000000 -540.00000000 99 102 155 0.000000 0.000000 0.000000 0.000000 -60.708740 0.000000 38.000000 0.871800 -0.439626 0.216087
-60.00000000 17380.00000000 -610.00000000 99 102 155 0.000000 0.000000 0.000000 0.000000 -60.708740 0.000000 38.000000 0.852386 -0.297487 -0.430046
-80.00000000 17390.00000000 -670.00000000 99 102 155 0.000000 0.000000 0.000000 0.000000 -60.708740 0.000000 38.000000 0.804034 -0.505891 -0.312416
-80.00000000 17310.00000000 -420.00000000 99 102 155 0.000000 0.000000 0.000000 0.000000 -60.708740 0.000000 38.000000 0.687043 -0.702413 0.185978
-110.00000000 17290.00000000 -390.00000000 99 102 155 0.000000 0.000000 0.000000 0.000000 -60.708740 0.000000 38.000000 0.821454 -0.352956 -0.447922
-100.00000000 17290.00000000 -380.00000000 99 102 155 0.000000 0.000000 0.000000 0.000000 -60.708740 0.000000 38.000000 0.730235 -0.677763 -0.085996
