//X Y Z R G B PointSourceId ScanDirectionFlag NumberOfReturns ReturnNumber GpsTime Intensity Classification Nx Ny Nz
2400.00000000 -3120.00000000 160.00000000 161 161 94 0.000000 0.000000 0.000000 0.000000 -60.708740 0.000000 118.000000 0.801998 -0.594756 0.055359
2360.00000000 -3160.00000000 240.00000000 161 161 94 0.000000 0.000000 0.000000 0.000000 -60.708740 0.000000 118.000000 0.801428 -0.597225 0.032169
2360.00000000 -3160.00000000 270.00000000 161 161 94 0.000000 0.000000 0.000000 0.000000 -60.708740 0.000000 118.000000 0.883232 -0.467910 -0.031014
2360.00000000 -3160.00000000 210.00000000 161 161 94 0.000000 0.000000 0.000000 0.000000 -60.708740 0.000000 118.000000 -0.689922 0.719094 0.083141
2400.00000000 -3100.00000000 120.00000000 161 161 94 0.000000 0.000000 0.000000 0.000000 -60.708740 0.000000 118.000000 0.829391 -0.548585 0.105664
2410.00000000 -3110.00000000 100.00000000 161 161 94 0.000000 0.000000 0.000000 0.000000 -60.708740 0.000000 118.000000 0.977964 0.061652 -0.199461
2400.00000000 -3130.00000000 80.00000000 161 161 94 0.000000 0.000000 0.000000 0.000000 -60.708740 0.000000 118.000000 0.828458 -0.397597 -0.394429
2380.00000000 -3080.00000000 110.00000000 161 161 94 0.000000 0.000000 0.000000 0.000000 -60.708740 0.000000 118.000000 0.816855 -0.515007 -0.259838
2390.00000000 -3080.00000000 130.00000000 161 161 94 0.000000 0.000000 0.000000 0.000000 -60.708740 0.000000 118.000000 0.979475 -0.193491 -0.056485
2380.00000000 -3100.00000000 100.00000000 161 161 94 0.000000 0.000000 0.000000 0.000000 -60.708740 0.000000 118.000000 0.946250 -0.231427 0.225950
2380.00000000 -3130.00000000 140.00000000 161 161 94 0.000000 0.000000 0.000000 0.000000 -60.708740 0.000000 118.000000 0.929289 -0.368355 -0.027142
2380.00000000 -3120.00000000 140.00000000 161 161 94 0.000000 0.000000 0.000000 0.000000 -60.708740 0.000000 118.000000 0.919025 -0.122997 -0.374520
2360.00000000 -3150.00000000 80.00000000 161 161 94 0.000000 0.000000 0.000000 0.000000 -60.708740 0.000000 118.000000 0.932198 -0.360726 -0.029737
2360.00000000 -3140.00000000 100.00000000 161 161 94 0.000000 0.000000 0.000000 0.000000 -60.708740 0.000000 118.000000 0.908813 -0.382583 0.166402
2360.00000000 -3140.00000000 100.00000000 161 161 94 0.000000 0.000000 0.000000 0.000000 -60.708740 0.000000 118.000000 0.908813 -0.382583 0.166402
2370.00000000 -3160.00000000 100.00000000 161 161 94 0.000000 0.000000 0.000000 0.000000 -60.708740 0.000000 118.000000 0.817573 -0.574397 -0.040529
2360.00000000 -3170.00000000 90.00000000 161 161 94 0.000000 0.000000 0.000000 0.000000 -60.708740 0.000000 118.000000 0.763527 -0.586477 -0.270317
2300.00000000 -2820.00000000 1040.00000000 161 161 94 0.000000 0.000000 0.000000 0.000000 -60.708740 0.000000 118.000000 0.172003 0.972137 -0.159262
2280.00000000 -2820.00000000 1020.00000000 161 161 94 0.000000 0.000000 0.000000 0.000000 -60.708740 0.000000 118.000000 -0.005254 0.997199 0.074606
2290.00000000 -2810.00000000 920.00000000 161 161 94 0.000000 0.000000 0.000000 0.000000 -60.708740 0.000000 118.000000 0.367707 0.863111 -0.346167
2300.00000000 -2810.00000000 940.00000000 161 161 94 0.000000 0.000000 0.000000 0.000000 -60.708740 0.000000 118.000000 0.289700 0.957110 -0.003667
2310.00000000 -2810.00000000 930.00000000 161 161 94 0.000000 0.000000 0.000000 0.000000 -60.708740 0.000000 118.000000 0.230098 0.967430 -0.105515
2290.00000000 -2810.00000000 960.00000000 161 161 94 0.000000 0.000000 0.000000 0.000000 -60.708740 0.000000 118.000000 0.223451 0.963061 -0.150274
2290.00000000 -2810.00000000 990.00000000 161 161 94 0.000000 0.000000 0.000000 0.000000 -60.708740 0.000000 118.000000 0.159738 0.959745 0.231025
2320.00000000 -2810.00000000 950.00000000 161 161 94 0.000000 0.000000 0.000000 0.000000 -60.708740 0.000000 118.000000 0.422227 0.906275 -0.019730
2280.00000000 -2790.00000000 850.00000000 161 161 94 0.000000 0.000000 0.000000 0.000000 -60.708740 0.000000 118.000000 0.017960 0.971033 -0.238268
2280.00000000 -2800.00000000 830.00000000 161 161 94 0.000000 0.000000 0.000000 0.000000 -60.708740 0.000000 118.000000 0.474392 0.879856 -0.028382
2280.00000000 -2820.00000000 950.00000000 161 161 94 0.000000 0.000000 0.000000 0.000000 -60.708740 0.000000 118.000000 -0.001236 0.948187 -0.317711
2320.00000000 -2820.00000000 930.00000000 161 161 94 0.000000 0.000000 0.000000 0.000000 -60.708740 0.000000 118.000000 0.389417 0.920795 0.022141
2320.00000000 -2820.00000000 910.00000000 161 161 94 0.000000 0.000000 0.000000 0.000000 -60.708740 0.000000 118.000000 0.309512 0.931337 -0.191869
2300.00000000 -2820.00000000 950.00000000 161 161 94 0.000000 0.000000 0.000000 0.000000 -60.708740 0.000000 118.000000 0.030025 0.999098 -0.030025
2310.00000000 -2820.00000000 880.00000000 161 161 94 0.000000 0.000000 0.000000 0.000000 -60.708740 0.000000 118.000000 0.528339 0.799606 0.285461
2310.00000000 -2820.00000000 850.00000000 161 161 94 0.000000 0.000000 0.000000 0.000000 -60.708740 0.000000 118.000000 0.470248 0.840278 -0.269814
2340.00000000 -2850.00000000 840.00000000 161 161 94 0.000000 0.000000 0.000000 0.000000 -60.708740 0.000000 118.000000 0.592299 0.772631 -0.228525
2350.00000000 -2860.00000000 830.00000000 161 161 94 0.000000 0.000000 0.000000 0.000000 -60.708740 0.000000 118.000000 0.699299 0.657693 -0.280039
2300.00000000 -2820.00000000 900.00000000 161 161 94 0.000000 0.000000 0.000000 0.000000 -60.708740 0.000000 118.000000 0.210994 0.883813 -0.417561
2300.00000000 -2820.00000000 900.00000000 161 161 94 0.000000 0.000000 0.000000 0.000000 -60.708740 0.000000 118.000000 0.210994 0.883813 -0.417561
2290.00000000 -2820.00000000 890.00000000 161 161 94 0.000000 0.000000 0.000000 0.000000 -60.708740 0.000000 118.000000 0.315849 0.881052 -0.352118
2290.00000000 -2820.00000000 860.00000000 161 161 94 0.000000 0.000000 0.000000 0.000000 -60.708740 0.000000 118.000000 -0.105930 0.992100 -0.067203
2290.00000000 -2820.00000000 860.00000000 161 161 94 0.000000 0.000000 0.000000 0.000000 -60.708740 0.000000 118.000000 -0.105930 0.992100 -0.067203
2280.00000000 -2830.00000000 840.00000000 161 161 94 0.000000 0.000000 0.000000 0.000000 -60.708740 0.000000 118.000000 0.403736 0.893466 -0.196766
2230.00000000 -2770.00000000 960.00000000 161 161 94 0.000000 0.000000 0.000000 0.000000 -60.708740 0.000000 118.000000 -0.339816 0.939945 -0.032058
2230.00000000 -2750.00000000 930.00000000 161 161 94 0.000000 0.000000 0.000000 0.000000 -60.708740 0.000000 118.000000 0.123583 0.992004 0.025607
2250.00000000 -2770.00000000 920.00000000 161 161 94 0.000000 0.000000 0.000000 0.000000 -60.708740 0.000000 118.000000 0.134574 0.960310 -0.244324
2240.00000000 -2760.00000000 920.00000000 161 161 94 0.000000 0.000000 0.000000 0.000000 -60.708740 0.000000 118.000000 0.283340 0.931778 -0.226954
2230.00000000 -2770.00000000 960.00000000 161 161 94 0.000000 0.000000 0.000000 0.000000 -60.708740 0.000000 118.000000 -0.339816 0.939945 -0.032058
2260.00000000 -2790.00000000 870.00000000 161 161 94 0.000000 0.000000 0.000000 0.000000 -60.708740 0.000000 118.000000 0.194597 0.959745 -0.202539
2250.00000000 -2790.00000000 830.00000000 161 161 94 0.000000 0.000000 0.000000 0.000000 -60.708740 0.000000 118.000000 0.005564 0.989301 0.145780
2300.00000000 -2810.00000000 820.00000000 161 161 94 0.000000 0.000000 0.000000 0.000000 -60.708740 0.000000 118.000000 0.579503 0.814097 -0.037703
2280.00000000 -2800.00000000 810.00000000 161 161 94 0.000000 0.000000 0.000000 0.000000 -60.708740 0.000000 118.000000 0.092918 0.900054 -0.425757
2290.00000000 -2800.00000000 780.00000000 161 161 94 0.000000 0.000000 0.000000 0.000000 -60.708740 0.000000 118.000000 0.366095 0.907280 0.206923
2300.00000000 -2810.00000000 740.00000000 161 161 94 0.000000 0.000000 0.000000 0.000000 -60.708740 0.000000 118.000000 0.252031 0.910515 -0.327785
2290.00000000 -2800.00000000 750.00000000 161 161 94 0.000000 0.000000 0.000000 0.000000 -60.708740 0.000000 118.000000 0.415295 0.871364 0.261258
2270.00000000 -2800.00000000 700.00000000 161 161 94 0.000000 0.000000 0.000000 0.000000 -60.708740 0.000000 118.000000 0.168596 0.981251 0.093395
2310.00000000 -2810.00000000 730.00000000 161 161 94 0.000000 0.000000 0.000000 0.000000 -60.708740 0.000000 118.000000 0.154466 0.949628 0.272666
2310.00000000 -2810.00000000 720.00000000 161 161 94 0.000000 0.000000 0.000000 0.000000 -60.708740 0.000000 118.000000 0.338873 0.905129 -0.256722
2300.00000000 -2810.00000000 690.00000000 161 161 94 0.000000 0.000000 0.000000 0.000000 -60.708740 0.000000 118.000000 0.384650 0.901388 -0.198857
2280.00000000 -2800.00000000 700.00000000 161 161 94 0.000000 0.000000 0.000000 0.000000 -60.708740 0.000000 118.000000 0.217651 0.975220 -0.039682
2320.00000000 -2840.00000000 800.00000000 161 161 94 0.000000 0.000000 0.000000 0.000000 -60.708740 0.000000 118.000000 0.372531 0.925318 0.070767
2330.00000000 -2840.00000000 790.00000000 161 161 94 0.000000 0.000000 0.000000 0.000000 -60.708740 0.000000 118.000000 0.302851 0.902643 -0.305805
2330.00000000 -2840.00000000 790.00000000 161 161 94 0.000000 0.000000 0.000000 0.000000 -60.708740 0.000000 118.000000 0.302851 0.902643 -0.305805
2320.00000000 -2830.00000000 800.00000000 161 161 94 0.000000 0.000000 0.000000 0.000000 -60.708740 0.000000 118.000000 0.722486 0.680775 -0.120663
2320.00000000 -2830.00000000 750.00000000 161 161 94 0.000000 0.000000 0.000000 0.000000 -60.708740 0.000000 118.000000 0.041702 0.997641 -0.054533
2350.00000000 -2870.00000000 820.00000000 161 161 94 0.000000 0.000000 0.000000 0.000000 -60.708740 0.000000 118.000000 0.651947 0.618599 -0.438522
2350.00000000 -2880.00000000 810.00000000 161 161 94 0.000000 0.000000 0.000000 0.000000 -60.708740 0.000000 118.000000 0.734414 0.678458 -0.018185
2330.00000000 -2880.00000000 810.00000000 161 161 94 0.000000 0.000000 0.000000 0.000000 -60.708740 0.000000 118.000000 0.692430 0.663645 0.283049
2350.00000000 -2870.00000000 760.00000000 161 161 94 0.000000 0.000000 0.000000 0.000000 -60.708740 0.000000 118.000000 0.702918 0.711237 0.006932
2280.00000000 -2830.00000000 820.00000000 161 161 94 0.000000 0.000000 0.000000 0.000000 -60.708740 0.000000 118.000000 0.558750 0.829245 0.012295
2290.00000000 -2830.00000000 750.00000000 161 161 94 0.000000 0.000000 0.000000 0.000000 -60.708740 0.000000 118.000000 0.646239 0.760871 0.058749
2280.00000000 -2830.00000000 760.00000000 161 161 94 0.000000 0.000000 0.000000 0.000000 -60.708740 0.000000 118.000000 0.508178 0.845976 -0.161491
2340.00000000 -2830.00000000 720.00000000 161 161 94 0.000000 0.000000 0.000000 0.000000 -60.708740 0.000000 118.000000 0.148037 0.988795 -0.019211
2320.00000000 -2840.00000000 730.00000000 161 161 94 0.000000 0.000000 0.000000 0.000000 -60.708740 0.000000 118.000000 0.553025 0.736819 -0.388922
2320.00000000 -2850.00000000 660.00000000 161 161 94 0.000000 0.000000 0.000000 0.000000 -60.708740 0.000000 118.000000 0.556448 0.702620 -0.443498
2320.00000000 -2820.00000000 660.00000000 161 161 94 0.000000 0.000000 0.000000 0.000000 -60.708740 0.000000 118.000000 0.489219 0.804741 -0.336238
2310.00000000 -2840.00000000 660.00000000 161 161 94 0.000000 0.000000 0.000000 0.000000 -60.708740 0.000000 118.000000 0.434170 0.835424 -0.336991
2320.00000000 -2850.00000000 670.00000000 161 161 94 0.000000 0.000000 0.000000 0.000000 -60.708740 0.000000 118.000000 0.647831 0.711499 0.272184
2350.00000000 -2830.00000000 680.00000000 161 161 94 0.000000 0.000000 0.000000 0.000000 -60.708740 0.000000 118.000000 0.546304 0.835606 -0.057580
2350.00000000 -2860.00000000 700.00000000 161 161 94 0.000000 0.000000 0.000000 0.000000 -60.708740 0.000000 118.000000 0.609717 0.731982 -0.304054
2330.00000000 -2860.00000000 700.00000000 161 161 94 0.000000 0.000000 0.000000 0.000000 -60.708740 0.000000 118.000000 0.358122 0.930586 -0.075885
2260.00000000 -2770.00000000 810.00000000 161 161 94 0.000000 0.000000 0.000000 0.000000 -60.708740 0.000000 118.000000 0.019602 0.913474 -0.406424
2240.00000000 -2760.00000000 780.00000000 161 161 94 0.000000 0.000000 0.000000 0.000000 -60.708740 0.000000 118.000000 0.282974 0.946405 0.155703
2210.00000000 -2770.00000000 790.00000000 161 161 94 0.000000 0.000000 0.000000 0.000000 -60.708740 0.000000 118.000000 -0.038179 0.995916 -0.081811
2200.00000000 -2770.00000000 760.00000000 161 161 94 0.000000 0.000000 0.000000 0.000000 -60.708740 0.000000 118.000000 0.072098 0.994947 0.069879
2210.00000000 -2770.00000000 780.00000000 161 161 94 0.000000 0.000000 0.000000 0.000000 -60.708740 0.000000 118.000000 0.200612 0.975983 0.084922
2230.00000000 -2760.00000000 720.00000000 161 161 94 0.000000 0.000000 0.000000 0.000000 -60.708740 0.000000 118.000000 -0.117977 0.950441 -0.287651
2240.00000000 -2770.00000000 680.00000000 161 161 94 0.000000 0.000000 0.000000 0.000000 -60.708740 0.000000 118.000000 0.057990 0.983458 -0.171602
2220.00000000 -2760.00000000 720.00000000 161 161 94 0.000000 0.000000 0.000000 0.000000 -60.708740 0.000000 118.000000 0.125207 0.972571 -0.196032
2260.00000000 -2820.00000000 790.00000000 161 161 94 0.000000 0.000000 0.000000 0.000000 -60.708740 0.000000 118.000000 0.442477 0.896771 -0.003939
2350.00000000 -2900.00000000 780.00000000 161 161 94 0.000000 0.000000 0.000000 0.000000 -60.708740 0.000000 118.000000 0.915814 0.395189 -0.071485
2340.00000000 -2920.00000000 790.00000000 161 161 94 0.000000 0.000000 0.000000 0.000000 -60.708740 0.000000 118.000000 0.487159 0.867797 0.098000
2180.00000000 -2770.00000000 760.00000000 161 161 94 0.000000 0.000000 0.000000 0.000000 -60.708740 0.000000 118.000000 -0.197293 0.971192 -0.133650
2180.00000000 -2770.00000000 720.00000000 161 161 94 0.000000 0.000000 0.000000 0.000000 -60.708740 0.000000 118.000000 -0.068680 0.988298 -0.136197
2160.00000000 -2780.00000000 660.00000000 161 161 94 0.000000 0.000000 0.000000 0.000000 -60.708740 0.000000 118.000000 -0.289797 0.913080 0.286885
2150.00000000 -2780.00000000 670.00000000 161 161 94 0.000000 0.000000 0.000000 0.000000 -60.708740 0.000000 118.000000 -0.078761 0.991935 -0.099308
2140.00000000 -2760.00000000 660.00000000 161 161 94 0.000000 0.000000 0.000000 0.000000 -60.708740 0.000000 118.000000 -0.234680 0.965649 0.111569
2100.00000000 -2790.00000000 660.00000000 161 161 94 0.000000 0.000000 0.000000 0.000000 -60.708740 0.000000 118.000000 -0.078457 0.992654 0.092102
2050.00000000 -2780.00000000 670.00000000 161 161 94 0.000000 0.000000 0.000000 0.000000 -60.708740 0.000000 118.000000 -0.278054 0.960215 0.025952
2010.00000000 -2810.00000000 660.00000000 161 161 94 0.000000 0.000000 0.000000 0.000000 -60.708740 0.000000 118.000000 0.834449 -0.550323 0.028964
1950.00000000 -2850.00000000 660.00000000 161 161 94 0.000000 0.000000 0.000000 0.000000 -60.708740 0.000000 118.000000 0.933412 -0.185013 -0.307428
1940.00000000 -3040.00000000 680.00000000 161 161 94 0.000000 0.000000 0.000000 0.000000 -60.708740 0.000000 118.000000 0.936607 0.277772 -0.213563
1940.00000000 -3020.00000000 670.00000000 161 161 94 0.000000 0.000000 0.000000 0.000000 -60.708740 0.000000 118.000000 0.983784 -0.150518 0.097536
1910.00000000 -3020.00000000 670.00000000 161 161 94 0.000000 0.000000 0.000000 0.000000 -60.708740 0.000000 118.000000 0.861685 -0.028677 -0.506633
2190.00000000 -2720.00000000 30.00000000 161 161 94 0.000000 0.000000 0.000000 0.000000 -60.708740 0.000000 118.000000 -0.159839 0.985868 -0.050168
2330.00000000 -2810.00000000 580.00000000 161 161 94 0.000000 0.000000 0.000000 0.000000 -60.708740 0.000000 118.000000 0.465694 0.857540 0.218529
2300.00000000 -2800.00000000 620.00000000 161 161 94 0.000000 0.000000 0.000000 0.000000 -60.708740 0.000000 118.000000 0.198436 0.957551 -0.209090
2290.00000000 -2790.00000000 600.00000000 161 161 94 0.000000 0.000000 0.000000 0.000000 -60.708740 0.000000 118.000000 0.653637 0.743794 0.139743
2300.00000000 -2800.00000000 610.00000000 161 161 94 0.000000 0.000000 0.000000 0.000000 -60.708740 0.000000 118.000000 -0.001119 0.987835 0.155503
2280.00000000 -2780.00000000 590.00000000 161 161 94 0.000000 0.000000 0.000000 0.000000 -60.708740 0.000000 118.000000 0.506294 0.858866 0.077566
2320.00000000 -2810.00000000 550.00000000 161 161 94 0.000000 0.000000 0.000000 0.000000 -60.708740 0.000000 118.000000 0.436447 0.896301 0.078478
2310.00000000 -2810.00000000 490.00000000 161 161 94 0.000000 0.000000 0.000000 0.000000 -60.708740 0.000000 118.000000 0.681516 0.714909 0.156339
2270.00000000 -2780.00000000 540.00000000 161 161 94 0.000000 0.000000 0.000000 0.000000 -60.708740 0.000000 118.000000 0.157335 0.908575 -0.386959
2270.00000000 -2780.00000000 510.00000000 161 161 94 0.000000 0.000000 0.000000 0.000000 -60.708740 0.000000 118.000000 0.418448 0.902236 0.104265
2310.00000000 -2850.00000000 650.00000000 161 161 94 0.000000 0.000000 0.000000 0.000000 -60.708740 0.000000 118.000000 0.671099 0.677537 -0.300949
2310.00000000 -2820.00000000 630.00000000 161 161 94 0.000000 0.000000 0.000000 0.000000 -60.708740 0.000000 118.000000 0.237779 0.960311 0.145820
2320.00000000 -2850.00000000 640.00000000 161 161 94 0.000000 0.000000 0.000000 0.000000 -60.708740 0.000000 118.000000 0.742022 0.625934 0.240020
2310.00000000 -2820.00000000 630.00000000 161 161 94 0.000000 0.000000 0.000000 0.000000 -60.708740 0.000000 118.000000 0.237779 0.960311 0.145820
2350.00000000 -2830.00000000 650.00000000 161 161 94 0.000000 0.000000 0.000000 0.000000 -60.708740 0.000000 118.000000 0.785979 0.617253 -0.035151
2320.00000000 -2830.00000000 600.00000000 161 161 94 0.000000 0.000000 0.000000 0.000000 -60.708740 0.000000 118.000000 0.790425 0.611987 0.026487
2320.00000000 -2840.00000000 600.00000000 161 161 94 0.000000 0.000000 0.000000 0.000000 -60.708740 0.000000 118.000000 0.471966 0.754817 -0.455521
2310.00000000 -2840.00000000 590.00000000 161 161 94 0.000000 0.000000 0.000000 0.000000 -60.708740 0.000000 118.000000 0.610045 0.714159 -0.343252
2310.00000000 -2830.00000000 600.00000000 161 161 94 0.000000 0.000000 0.000000 0.000000 -60.708740 0.000000 118.000000 0.604648 0.730414 -0.317642
2320.00000000 -2860.00000000 610.00000000 161 161 94 0.000000 0.000000 0.000000 0.000000 -60.708740 0.000000 118.000000 0.390060 0.902463 0.182796
2330.00000000 -2860.00000000 580.00000000 161 161 94 0.000000 0.000000 0.000000 0.000000 -60.708740 0.000000 118.000000 0.531594 0.801312 -0.274422
2340.00000000 -2870.00000000 570.00000000 161 161 94 0.000000 0.000000 0.000000 0.000000 -60.708740 0.000000 118.000000 0.528771 0.784370 -0.324291
2310.00000000 -2850.00000000 540.00000000 161 161 94 0.000000 0.000000 0.000000 0.000000 -60.708740 0.000000 118.000000 0.702174 0.696134 -0.149495
2330.00000000 -2850.00000000 550.00000000 161 161 94 0.000000 0.000000 0.000000 0.000000 -60.708740 0.000000 118.000000 0.239422 0.968852 -0.063267
2330.00000000 -2850.00000000 550.00000000 161 161 94 0.000000 0.000000 0.000000 0.000000 -60.708740 0.000000 118.000000 0.239422 0.968852 -0.063267
2320.00000000 -2850.00000000 520.00000000 161 161 94 0.000000 0.000000 0.000000 0.000000 -60.708740 0.000000 118.000000 0.542893 0.810494 0.219925
2320.00000000 -2820.00000000 510.00000000 161 161 94 0.000000 0.000000 0.000000 0.000000 -60.708740 0.000000 118.000000 0.244207 0.948178 -0.203278
2320.00000000 -2820.00000000 490.00000000 161 161 94 0.000000 0.000000 0.000000 0.000000 -60.708740 0.000000 118.000000 0.648145 0.699611 -0.300752
2350.00000000 -2860.00000000 550.00000000 161 161 94 0.000000 0.000000 0.000000 0.000000 -60.708740 0.000000 118.000000 0.842950 0.520430 -0.136338
2350.00000000 -2870.00000000 530.00000000 161 161 94 0.000000 0.000000 0.000000 0.000000 -60.708740 0.000000 118.000000 0.750631 0.626816 -0.208939
2340.00000000 -2870.00000000 500.00000000 161 161 94 0.000000 0.000000 0.000000 0.000000 -60.708740 0.000000 118.000000 0.813130 0.540555 -0.215916
2340.00000000 -2890.00000000 520.00000000 161 161 94 0.000000 0.000000 0.000000 0.000000 -60.708740 0.000000 118.000000 0.673163 0.729632 -0.120367
2350.00000000 -2890.00000000 500.00000000 161 161 94 0.000000 0.000000 0.000000 0.000000 -60.708740 0.000000 118.000000 0.733157 0.597207 -0.325308
2350.00000000 -2880.00000000 510.00000000 161 161 94 0.000000 0.000000 0.000000 0.000000 -60.708740 0.000000 118.000000 0.543077 0.831360 -0.117934
2330.00000000 -2860.00000000 490.00000000 161 161 94 0.000000 0.000000 0.000000 0.000000 -60.708740 0.000000 118.000000 0.840224 0.528598 -0.120864
2300.00000000 -2820.00000000 530.00000000 161 161 94 0.000000 0.000000 0.000000 0.000000 -60.708740 0.000000 118.000000 0.400694 0.906834 0.130753
2230.00000000 -2770.00000000 620.00000000 161 161 94 0.000000 0.000000 0.000000 0.000000 -60.708740 0.000000 118.000000 -0.076918 0.977956 -0.194126
2230.00000000 -2740.00000000 640.00000000 161 161 94 0.000000 0.000000 0.000000 0.000000 -60.708740 0.000000 118.000000 0.114426 0.984064 -0.136107
2230.00000000 -2770.00000000 610.00000000 161 161 94 0.000000 0.000000 0.000000 0.000000 -60.708740 0.000000 118.000000 -0.015192 0.999658 -0.021269
2260.00000000 -2770.00000000 600.00000000 161 161 94 0.000000 0.000000 0.000000 0.000000 -60.708740 0.000000 118.000000 0.230229 0.930803 -0.283902
2250.00000000 -2790.00000000 590.00000000 161 161 94 0.000000 0.000000 0.000000 0.000000 -60.708740 0.000000 118.000000 0.508108 0.859769 -0.051226
2250.00000000 -2780.00000000 580.00000000 161 161 94 0.000000 0.000000 0.000000 0.000000 -60.708740 0.000000 118.000000 0.397537 0.917090 -0.030176
2200.00000000 -2750.00000000 580.00000000 161 161 94 0.000000 0.000000 0.000000 0.000000 -60.708740 0.000000 118.000000 0.128324 0.981370 -0.142989
2210.00000000 -2750.00000000 580.00000000 161 161 94 0.000000 0.000000 0.000000 0.000000 -60.708740 0.000000 118.000000 0.032287 0.998814 -0.036453
2210.00000000 -2750.00000000 570.00000000 161 161 94 0.000000 0.000000 0.000000 0.000000 -60.708740 0.000000 118.000000 -0.237811 0.969727 -0.055448
2220.00000000 -2790.00000000 640.00000000 161 161 94 0.000000 0.000000 0.000000 0.000000 -60.708740 0.000000 118.000000 0.200970 0.938322 -0.281358
2230.00000000 -2750.00000000 560.00000000 161 161 94 0.000000 0.000000 0.000000 0.000000 -60.708740 0.000000 118.000000 -0.078530 0.988074 -0.132446
2260.00000000 -2760.00000000 510.00000000 161 161 94 0.000000 0.000000 0.000000 0.000000 -60.708740 0.000000 118.000000 0.043480 0.983591 0.175096
2230.00000000 -2780.00000000 540.00000000 161 161 94 0.000000 0.000000 0.000000 0.000000 -60.708740 0.000000 118.000000 -0.293759 0.955647 -0.021071
2260.00000000 -2810.00000000 530.00000000 161 161 94 0.000000 0.000000 0.000000 0.000000 -60.708740 0.000000 118.000000 0.375934 0.912172 -0.163141
2220.00000000 -2750.00000000 540.00000000 161 161 94 0.000000 0.000000 0.000000 0.000000 -60.708740 0.000000 118.000000 0.415898 0.886172 0.204275
2220.00000000 -2750.00000000 540.00000000 161 161 94 0.000000 0.000000 0.000000 0.000000 -60.708740 0.000000 118.000000 0.415898 0.886172 0.204275
2190.00000000 -2740.00000000 530.00000000 161 161 94 0.000000 0.000000 0.000000 0.000000 -60.708740 0.000000 118.000000 0.204850 0.974588 0.090631
2190.00000000 -2740.00000000 520.00000000 161 161 94 0.000000 0.000000 0.000000 0.000000 -60.708740 0.000000 118.000000 0.329218 0.936171 0.123287
2280.00000000 -2790.00000000 440.00000000 161 161 94 0.000000 0.000000 0.000000 0.000000 -60.708740 0.000000 118.000000 0.218577 0.896312 -0.385810
2320.00000000 -2810.00000000 340.00000000 161 161 94 0.000000 0.000000 0.000000 0.000000 -60.708740 0.000000 118.000000 0.792424 0.604783 0.079387
2270.00000000 -2760.00000000 360.00000000 161 161 94 0.000000 0.000000 0.000000 0.000000 -60.708740 0.000000 118.000000 0.326721 0.920240 0.215436
2300.00000000 -2790.00000000 380.00000000 161 161 94 0.000000 0.000000 0.000000 0.000000 -60.708740 0.000000 118.000000 0.321761 0.883711 0.339889
2300.00000000 -2810.00000000 320.00000000 161 161 94 0.000000 0.000000 0.000000 0.000000 -60.708740 0.000000 118.000000 0.815118 0.578246 0.034834
2300.00000000 -2810.00000000 340.00000000 161 161 94 0.000000 0.000000 0.000000 0.000000 -60.708740 0.000000 118.000000 0.166057 0.940073 -0.297804
2290.00000000 -2810.00000000 330.00000000 161 161 94 0.000000 0.000000 0.000000 0.000000 -60.708740 0.000000 118.000000 0.127897 0.989761 -0.063372
2310.00000000 -2850.00000000 480.00000000 161 161 94 0.000000 0.000000 0.000000 0.000000 -60.708740 0.000000 118.000000 0.415307 0.887846 0.198114
2310.00000000 -2830.00000000 470.00000000 161 161 94 0.000000 0.000000 0.000000 0.000000 -60.708740 0.000000 118.000000 0.420949 0.798351 -0.430626
2330.00000000 -2830.00000000 430.00000000 161 161 94 0.000000 0.000000 0.000000 0.000000 -60.708740 0.000000 118.000000 0.757934 0.647794 0.076808
2330.00000000 -2830.00000000 430.00000000 161 161 94 0.000000 0.000000 0.000000 0.000000 -60.708740 0.000000 118.000000 0.757934 0.647794 0.076808
2350.00000000 -2890.00000000 470.00000000 161 161 94 0.000000 0.000000 0.000000 0.000000 -60.708740 0.000000 118.000000 0.859112 0.479263 0.179538
2350.00000000 -2890.00000000 460.00000000 161 161 94 0.000000 0.000000 0.000000 0.000000 -60.708740 0.000000 118.000000 0.917911 0.393010 0.054622
2350.00000000 -2870.00000000 450.00000000 161 161 94 0.000000 0.000000 0.000000 0.000000 -60.708740 0.000000 118.000000 0.701816 0.710392 0.052886
2320.00000000 -2890.00000000 440.00000000 161 161 94 0.000000 0.000000 0.000000 0.000000 -60.708740 0.000000 118.000000 0.462998 0.827118 -0.318605
2350.00000000 -2870.00000000 440.00000000 161 161 94 0.000000 0.000000 0.000000 0.000000 -60.708740 0.000000 118.000000 0.672491 0.642895 -0.366664
2350.00000000 -2870.00000000 440.00000000 161 161 94 0.000000 0.000000 0.000000 0.000000 -60.708740 0.000000 118.000000 0.672491 0.642895 -0.366664
2340.00000000 -2850.00000000 360.00000000 161 161 94 0.000000 0.000000 0.000000 0.000000 -60.708740 0.000000 118.000000 0.642931 0.704162 0.301323
2340.00000000 -2840.00000000 380.00000000 161 161 94 0.000000 0.000000 0.000000 0.000000 -60.708740 0.000000 118.000000 0.352482 0.934275 0.053724
2320.00000000 -2840.00000000 360.00000000 161 161 94 0.000000 0.000000 0.000000 0.000000 -60.708740 0.000000 118.000000 0.788848 0.567909 -0.234943
2330.00000000 -2850.00000000 370.00000000 161 161 94 0.000000 0.000000 0.000000 0.000000 -60.708740 0.000000 118.000000 0.812307 0.580623 -0.055096
2350.00000000 -2840.00000000 330.00000000 161 161 94 0.000000 0.000000 0.000000 0.000000 -60.708740 0.000000 118.000000 0.660511 0.748959 0.052784
2330.00000000 -2830.00000000 330.00000000 161 161 94 0.000000 0.000000 0.000000 0.000000 -60.708740 0.000000 118.000000 0.870626 0.480198 0.106869
2340.00000000 -2840.00000000 320.00000000 161 161 94 0.000000 0.000000 0.000000 0.000000 -60.708740 0.000000 118.000000 0.608080 0.765902 -0.208882
2330.00000000 -2830.00000000 340.00000000 161 161 94 0.000000 0.000000 0.000000 0.000000 -60.708740 0.000000 118.000000 0.868346 0.490804 0.071313
2350.00000000 -2870.00000000 370.00000000 161 161 94 0.000000 0.000000 0.000000 0.000000 -60.708740 0.000000 118.000000 0.923095 0.364561 0.122437
2350.00000000 -2880.00000000 360.00000000 161 161 94 0.000000 0.000000 0.000000 0.000000 -60.708740 0.000000 118.000000 0.629102 0.776961 -0.023713
2350.00000000 -2870.00000000 330.00000000 161 161 94 0.000000 0.000000 0.000000 0.000000 -60.708740 0.000000 118.000000 0.927839 0.313973 -0.201337
2350.00000000 -2880.00000000 340.00000000 161 161 94 0.000000 0.000000 0.000000 0.000000 -60.708740 0.000000 118.000000 0.920118 0.378711 -0.099805
2230.00000000 -2790.00000000 470.00000000 161 161 94 0.000000 0.000000 0.000000 0.000000 -60.708740 0.000000 118.000000 0.402983 0.911152 0.086061
2260.00000000 -2780.00000000 440.00000000 161 161 94 0.000000 0.000000 0.000000 0.000000 -60.708740 0.000000 118.000000 0.626435 0.766972 -0.139042
2250.00000000 -2790.00000000 420.00000000 161 161 94 0.000000 0.000000 0.000000 0.000000 -60.708740 0.000000 118.000000 0.169370 0.956205 -0.238718
2200.00000000 -2750.00000000 450.00000000 161 161 94 0.000000 0.000000 0.000000 0.000000 -60.708740 0.000000 118.000000 0.346040 0.927829 0.139243
2210.00000000 -2750.00000000 450.00000000 161 161 94 0.000000 0.000000 0.000000 0.000000 -60.708740 0.000000 118.000000 0.021142 0.999735 -0.009061
2190.00000000 -2750.00000000 440.00000000 161 161 94 0.000000 0.000000 0.000000 0.000000 -60.708740 0.000000 118.000000 -0.272532 0.926037 0.261117
2230.00000000 -2740.00000000 330.00000000 161 161 94 0.000000 0.000000 0.000000 0.000000 -60.708740 0.000000 118.000000 0.371295 0.890213 0.263933
2250.00000000 -2770.00000000 320.00000000 161 161 94 0.000000 0.000000 0.000000 0.000000 -60.708740 0.000000 118.000000 0.375761 0.903857 -0.204565
2240.00000000 -2780.00000000 350.00000000 161 161 94 0.000000 0.000000 0.000000 0.000000 -60.708740 0.000000 118.000000 0.471995 0.862612 0.181992
2210.00000000 -2760.00000000 370.00000000 161 161 94 0.000000 0.000000 0.000000 0.000000 -60.708740 0.000000 118.000000 0.248537 0.952500 0.175991
2220.00000000 -2760.00000000 370.00000000 161 161 94 0.000000 0.000000 0.000000 0.000000 -60.708740 0.000000 118.000000 0.342512 0.932770 0.112366
2220.00000000 -2760.00000000 370.00000000 161 161 94 0.000000 0.000000 0.000000 0.000000 -60.708740 0.000000 118.000000 0.342512 0.932770 0.112366
2190.00000000 -2740.00000000 340.00000000 161 161 94 0.000000 0.000000 0.000000 0.000000 -60.708740 0.000000 118.000000 -0.349730 0.928500 -0.124806
2210.00000000 -2740.00000000 350.00000000 161 161 94 0.000000 0.000000 0.000000 0.000000 -60.708740 0.000000 118.000000 0.396282 0.916653 -0.052037
2190.00000000 -2730.00000000 340.00000000 161 161 94 0.000000 0.000000 0.000000 0.000000 -60.708740 0.000000 118.000000 -0.028599 0.987229 0.156721
2220.00000000 -2790.00000000 320.00000000 161 161 94 0.000000 0.000000 0.000000 0.000000 -60.708740 0.000000 118.000000 -0.018937 0.943077 0.332034
2200.00000000 -2800.00000000 330.00000000 161 161 94 0.000000 0.000000 0.000000 0.000000 -60.708740 0.000000 118.000000 0.157220 0.986409 0.047748
2350.00000000 -2940.00000000 540.00000000 161 161 94 0.000000 0.000000 0.000000 0.000000 -60.708740 0.000000 118.000000 0.946452 0.318060 0.055371
2350.00000000 -2900.00000000 650.00000000 161 161 94 0.000000 0.000000 0.000000 0.000000 -60.708740 0.000000 118.000000 0.669164 0.629510 -0.394889
2150.00000000 -2760.00000000 650.00000000 161 161 94 0.000000 0.000000 0.000000 0.000000 -60.708740 0.000000 118.000000 -0.465791 0.884600 -0.022820
2150.00000000 -2760.00000000 640.00000000 161 161 94 0.000000 0.000000 0.000000 0.000000 -60.708740 0.000000 118.000000 0.139120 0.987870 0.068976
2170.00000000 -2780.00000000 590.00000000 161 161 94 0.000000 0.000000 0.000000 0.000000 -60.708740 0.000000 118.000000 0.232311 0.970239 0.068327
2100.00000000 -2770.00000000 600.00000000 161 161 94 0.000000 0.000000 0.000000 0.000000 -60.708740 0.000000 118.000000 -0.299998 0.951496 -0.068240
2140.00000000 -2770.00000000 590.00000000 161 161 94 0.000000 0.000000 0.000000 0.000000 -60.708740 0.000000 118.000000 -0.495091 0.803925 0.329530
2140.00000000 -2780.00000000 650.00000000 161 161 94 0.000000 0.000000 0.000000 0.000000 -60.708740 0.000000 118.000000 -0.428253 0.886992 0.172753
2180.00000000 -2760.00000000 530.00000000 161 161 94 0.000000 0.000000 0.000000 0.000000 -60.708740 0.000000 118.000000 0.070409 0.972139 0.223580
2180.00000000 -2760.00000000 530.00000000 161 161 94 0.000000 0.000000 0.000000 0.000000 -60.708740 0.000000 118.000000 0.070409 0.972139 0.223580
2160.00000000 -2740.00000000 510.00000000 161 161 94 0.000000 0.000000 0.000000 0.000000 -60.708740 0.000000 118.000000 0.155703 0.946405 -0.282974
2160.00000000 -2780.00000000 490.00000000 161 161 94 0.000000 0.000000 0.000000 0.000000 -60.708740 0.000000 118.000000 0.048185 0.936361 0.347717
2130.00000000 -2750.00000000 560.00000000 161 161 94 0.000000 0.000000 0.000000 0.000000 -60.708740 0.000000 118.000000 -0.149329 0.958087 0.244477
2120.00000000 -2750.00000000 530.00000000 161 161 94 0.000000 0.000000 0.000000 0.000000 -60.708740 0.000000 118.000000 -0.480074 0.865873 -0.140686
2120.00000000 -2740.00000000 530.00000000 161 161 94 0.000000 0.000000 0.000000 0.000000 -60.708740 0.000000 118.000000 -0.187330 0.976349 -0.107932
2140.00000000 -2760.00000000 490.00000000 161 161 94 0.000000 0.000000 0.000000 0.000000 -60.708740 0.000000 118.000000 -0.073476 0.952608 0.295193
2100.00000000 -2790.00000000 530.00000000 161 161 94 0.000000 0.000000 0.000000 0.000000 -60.708740 0.000000 118.000000 -0.120149 0.918380 0.377019
2140.00000000 -2780.00000000 500.00000000 161 161 94 0.000000 0.000000 0.000000 0.000000 -60.708740 0.000000 118.000000 -0.038688 0.959713 -0.278304
2080.00000000 -2750.00000000 610.00000000 161 161 94 0.000000 0.000000 0.000000 0.000000 -60.708740 0.000000 118.000000 -0.667844 0.742208 0.055773
2090.00000000 -2740.00000000 610.00000000 161 161 94 0.000000 0.000000 0.000000 0.000000 -60.708740 0.000000 118.000000 -0.354003 0.933994 -0.048333
2080.00000000 -2800.00000000 650.00000000 161 161 94 0.000000 0.000000 0.000000 0.000000 -60.708740 0.000000 118.000000 -0.262509 0.964929 0.001199
2060.00000000 -2790.00000000 650.00000000 161 161 94 0.000000 0.000000 0.000000 0.000000 -60.708740 0.000000 118.000000 0.780838 -0.617981 0.091607
2090.00000000 -2800.00000000 640.00000000 161 161 94 0.000000 0.000000 0.000000 0.000000 -60.708740 0.000000 118.000000 0.769881 -0.628565 0.110404
2080.00000000 -2780.00000000 610.00000000 161 161 94 0.000000 0.000000 0.000000 0.000000 -60.708740 0.000000 118.000000 0.714576 -0.677853 0.172906
2060.00000000 -2780.00000000 600.00000000 161 161 94 0.000000 0.000000 0.000000 0.000000 -60.708740 0.000000 118.000000 -0.220532 0.975293 0.012972
2080.00000000 -2780.00000000 570.00000000 161 161 94 0.000000 0.000000 0.000000 0.000000 -60.708740 0.000000 118.000000 -0.348961 0.843454 0.408426
2020.00000000 -2800.00000000 630.00000000 161 161 94 0.000000 0.000000 0.000000 0.000000 -60.708740 0.000000 118.000000 -0.405858 0.850591 0.334327
2020.00000000 -2790.00000000 620.00000000 161 161 94 0.000000 0.000000 0.000000 0.000000 -60.708740 0.000000 118.000000 -0.662866 0.742234 0.098475
2070.00000000 -2780.00000000 540.00000000 161 161 94 0.000000 0.000000 0.000000 0.000000 -60.708740 0.000000 118.000000 -0.494348 0.798316 0.343964
2020.00000000 -2760.00000000 530.00000000 161 161 94 0.000000 0.000000 0.000000 0.000000 -60.708740 0.000000 118.000000 -0.368556 0.917887 0.147142
2050.00000000 -2790.00000000 490.00000000 161 161 94 0.000000 0.000000 0.000000 0.000000 -60.708740 0.000000 118.000000 -0.433625 0.830983 0.348477
2050.00000000 -2790.00000000 490.00000000 161 161 94 0.000000 0.000000 0.000000 0.000000 -60.708740 0.000000 118.000000 -0.433625 0.830983 0.348477
2020.00000000 -2810.00000000 490.00000000 161 161 94 0.000000 0.000000 0.000000 0.000000 -60.708740 0.000000 118.000000 -0.467837 0.883693 -0.014662
2020.00000000 -2790.00000000 510.00000000 161 161 94 0.000000 0.000000 0.000000 0.000000 -60.708740 0.000000 118.000000 -0.537737 0.825329 -0.172256
2030.00000000 -2820.00000000 650.00000000 161 161 94 0.000000 0.000000 0.000000 0.000000 -60.708740 0.000000 118.000000 -0.496237 0.847052 0.190399
2180.00000000 -2760.00000000 480.00000000 161 161 94 0.000000 0.000000 0.000000 0.000000 -60.708740 0.000000 118.000000 0.067067 0.992372 -0.103443
2180.00000000 -2740.00000000 460.00000000 161 161 94 0.000000 0.000000 0.000000 0.000000 -60.708740 0.000000 118.000000 -0.077337 0.994173 0.075095
2170.00000000 -2760.00000000 480.00000000 161 161 94 0.000000 0.000000 0.000000 0.000000 -60.708740 0.000000 118.000000 -0.132140 0.988130 0.078349
2180.00000000 -2760.00000000 420.00000000 161 161 94 0.000000 0.000000 0.000000 0.000000 -60.708740 0.000000 118.000000 -0.149995 0.987175 -0.054649
2150.00000000 -2770.00000000 420.00000000 161 161 94 0.000000 0.000000 0.000000 0.000000 -60.708740 0.000000 118.000000 0.183835 0.946411 0.265540
2130.00000000 -2770.00000000 460.00000000 161 161 94 0.000000 0.000000 0.000000 0.000000 -60.708740 0.000000 118.000000 -0.228101 0.965242 -0.127582
2130.00000000 -2760.00000000 420.00000000 161 161 94 0.000000 0.000000 0.000000 0.000000 -60.708740 0.000000 118.000000 -0.246932 0.916969 -0.313358
2180.00000000 -2740.00000000 390.00000000 161 161 94 0.000000 0.000000 0.000000 0.000000 -60.708740 0.000000 118.000000 -0.023926 0.987811 -0.153811
2160.00000000 -2740.00000000 320.00000000 161 161 94 0.000000 0.000000 0.000000 0.000000 -60.708740 0.000000 118.000000 0.037722 0.930042 0.365513
2130.00000000 -2750.00000000 400.00000000 161 161 94 0.000000 0.000000 0.000000 0.000000 -60.708740 0.000000 118.000000 -0.054644 0.975099 0.214935
2100.00000000 -2770.00000000 320.00000000 161 161 94 0.000000 0.000000 0.000000 0.000000 -60.708740 0.000000 118.000000 -0.559944 0.804061 0.199871
2110.00000000 -2750.00000000 340.00000000 161 161 94 0.000000 0.000000 0.000000 0.000000 -60.708740 0.000000 118.000000 -0.001183 0.971313 -0.237800
2140.00000000 -2750.00000000 320.00000000 161 161 94 0.000000 0.000000 0.000000 0.000000 -60.708740 0.000000 118.000000 -0.018847 0.992221 0.123058
2130.00000000 -2780.00000000 390.00000000 161 161 94 0.000000 0.000000 0.000000 0.000000 -60.708740 0.000000 118.000000 0.035900 0.961879 -0.271109
2130.00000000 -2780.00000000 340.00000000 161 161 94 0.000000 0.000000 0.000000 0.000000 -60.708740 0.000000 118.000000 0.149013 0.988489 0.026163
2080.00000000 -2770.00000000 480.00000000 161 161 94 0.000000 0.000000 0.000000 0.000000 -60.708740 0.000000 118.000000 0.744683 -0.659155 -0.104698
2080.00000000 -2750.00000000 470.00000000 161 161 94 0.000000 0.000000 0.000000 0.000000 -60.708740 0.000000 118.000000 -0.612635 0.783056 -0.107248
2070.00000000 -2770.00000000 440.00000000 161 161 94 0.000000 0.000000 0.000000 0.000000 -60.708740 0.000000 118.000000 -0.468912 0.881444 0.056379
2070.00000000 -2760.00000000 430.00000000 161 161 94 0.000000 0.000000 0.000000 0.000000 -60.708740 0.000000 118.000000 -0.414934 0.795962 0.440766
2080.00000000 -2800.00000000 480.00000000 161 161 94 0.000000 0.000000 0.000000 0.000000 -60.708740 0.000000 118.000000 -0.421243 0.906787 0.017060
2090.00000000 -2780.00000000 410.00000000 161 161 94 0.000000 0.000000 0.000000 0.000000 -60.708740 0.000000 118.000000 -0.200237 0.873627 0.443488
2070.00000000 -2780.00000000 410.00000000 161 161 94 0.000000 0.000000 0.000000 0.000000 -60.708740 0.000000 118.000000 -0.508178 0.859887 0.048464
2020.00000000 -2790.00000000 450.00000000 161 161 94 0.000000 0.000000 0.000000 0.000000 -60.708740 0.000000 118.000000 -0.348485 0.932433 -0.095531
2040.00000000 -2810.00000000 450.00000000 161 161 94 0.000000 0.000000 0.000000 0.000000 -60.708740 0.000000 118.000000 -0.541589 0.837260 0.075339
2030.00000000 -2790.00000000 440.00000000 161 161 94 0.000000 0.000000 0.000000 0.000000 -60.708740 0.000000 118.000000 -0.332403 0.920172 -0.206860
2030.00000000 -2810.00000000 430.00000000 161 161 94 0.000000 0.000000 0.000000 0.000000 -60.708740 0.000000 118.000000 0.854472 -0.514928 0.068751
2040.00000000 -2800.00000000 410.00000000 161 161 94 0.000000 0.000000 0.000000 0.000000 -60.708740 0.000000 118.000000 0.687573 -0.671620 -0.275987
2060.00000000 -2760.00000000 360.00000000 161 161 94 0.000000 0.000000 0.000000 0.000000 -60.708740 0.000000 118.000000 -0.313234 0.904409 -0.289705
2060.00000000 -2760.00000000 400.00000000 161 161 94 0.000000 0.000000 0.000000 0.000000 -60.708740 0.000000 118.000000 -0.340817 0.905432 0.253053
2070.00000000 -2760.00000000 350.00000000 161 161 94 0.000000 0.000000 0.000000 0.000000 -60.708740 0.000000 118.000000 -0.130739 0.926183 0.353684
2090.00000000 -2790.00000000 390.00000000 161 161 94 0.000000 0.000000 0.000000 0.000000 -60.708740 0.000000 118.000000 -0.430439 0.853164 0.294673
2080.00000000 -2780.00000000 350.00000000 161 161 94 0.000000 0.000000 0.000000 0.000000 -60.708740 0.000000 118.000000 -0.041661 0.979638 0.196404
2090.00000000 -2800.00000000 330.00000000 161 161 94 0.000000 0.000000 0.000000 0.000000 -60.708740 0.000000 118.000000 -0.339517 0.903908 0.260149
2020.00000000 -2770.00000000 370.00000000 161 161 94 0.000000 0.000000 0.000000 0.000000 -60.708740 0.000000 118.000000 -0.328476 0.913076 -0.241654
2040.00000000 -2760.00000000 340.00000000 161 161 94 0.000000 0.000000 0.000000 0.000000 -60.708740 0.000000 118.000000 -0.398849 0.877468 0.266401
2040.00000000 -2800.00000000 360.00000000 161 161 94 0.000000 0.000000 0.000000 0.000000 -60.708740 0.000000 118.000000 0.819585 -0.571901 0.034787
2020.00000000 -2780.00000000 360.00000000 161 161 94 0.000000 0.000000 0.000000 0.000000 -60.708740 0.000000 118.000000 -0.561857 0.808894 -0.173227
2030.00000000 -2800.00000000 330.00000000 161 161 94 0.000000 0.000000 0.000000 0.000000 -60.708740 0.000000 118.000000 -0.385504 0.888595 0.248568
2030.00000000 -2800.00000000 340.00000000 161 161 94 0.000000 0.000000 0.000000 0.000000 -60.708740 0.000000 118.000000 -0.404217 0.914393 0.022238
2020.00000000 -2820.00000000 420.00000000 161 161 94 0.000000 0.000000 0.000000 0.000000 -60.708740 0.000000 118.000000 -0.489354 0.871620 0.028467
2290.00000000 -2780.00000000 240.00000000 161 161 94 0.000000 0.000000 0.000000 0.000000 -60.708740 0.000000 118.000000 0.594724 0.769551 0.232582
2310.00000000 -2810.00000000 270.00000000 161 161 94 0.000000 0.000000 0.000000 0.000000 -60.708740 0.000000 118.000000 0.409015 0.832242 -0.374272
2320.00000000 -2810.00000000 170.00000000 161 161 94 0.000000 0.000000 0.000000 0.000000 -60.708740 0.000000 118.000000 0.688302 0.722788 0.061789
2310.00000000 -2810.00000000 170.00000000 161 161 94 0.000000 0.000000 0.000000 0.000000 -60.708740 0.000000 118.000000 0.698943 0.663916 0.265885
2330.00000000 -2850.00000000 300.00000000 161 161 94 0.000000 0.000000 0.000000 0.000000 -60.708740 0.000000 118.000000 0.627047 0.758254 -0.178502
2330.00000000 -2850.00000000 310.00000000 161 161 94 0.000000 0.000000 0.000000 0.000000 -60.708740 0.000000 118.000000 0.838865 0.456006 -0.297260
2310.00000000 -2840.00000000 260.00000000 161 161 94 0.000000 0.000000 0.000000 0.000000 -60.708740 0.000000 118.000000 0.558768 0.775270 -0.294507
2320.00000000 -2850.00000000 260.00000000 161 161 94 0.000000 0.000000 0.000000 0.000000 -60.708740 0.000000 118.000000 0.564583 0.668452 -0.484167
2320.00000000 -2850.00000000 250.00000000 161 161 94 0.000000 0.000000 0.000000 0.000000 -60.708740 0.000000 118.000000 0.544970 0.833904 -0.087252
2340.00000000 -2860.00000000 310.00000000 161 161 94 0.000000 0.000000 0.000000 0.000000 -60.708740 0.000000 118.000000 0.821564 0.570037 -0.009569
2340.00000000 -2870.00000000 280.00000000 161 161 94 0.000000 0.000000 0.000000 0.000000 -60.708740 0.000000 118.000000 0.911820 0.312666 -0.266129
2310.00000000 -2860.00000000 250.00000000 161 161 94 0.000000 0.000000 0.000000 0.000000 -60.708740 0.000000 118.000000 0.762647 0.646802 -0.004137
2290.00000000 -2840.00000000 310.00000000 161 161 94 0.000000 0.000000 0.000000 0.000000 -60.708740 0.000000 118.000000 0.411428 0.878212 0.243865
2280.00000000 -2820.00000000 290.00000000 161 161 94 0.000000 0.000000 0.000000 0.000000 -60.708740 0.000000 118.000000 0.714476 0.690808 0.110943
2300.00000000 -2830.00000000 260.00000000 161 161 94 0.000000 0.000000 0.000000 0.000000 -60.708740 0.000000 118.000000 0.524935 0.765463 -0.372168
2330.00000000 -2850.00000000 200.00000000 161 161 94 0.000000 0.000000 0.000000 0.000000 -60.708740 0.000000 118.000000 0.743136 0.630964 -0.222785
2340.00000000 -2850.00000000 160.00000000 161 161 94 0.000000 0.000000 0.000000 0.000000 -60.708740 0.000000 118.000000 0.554962 0.710683 -0.432373
2310.00000000 -2830.00000000 180.00000000 161 161 94 0.000000 0.000000 0.000000 0.000000 -60.708740 0.000000 118.000000 0.853586 0.520809 0.012175
2330.00000000 -2820.00000000 150.00000000 161 161 94 0.000000 0.000000 0.000000 0.000000 -60.708740 0.000000 118.000000 0.489838 0.840812 -0.230422
2350.00000000 -2890.00000000 200.00000000 161 161 94 0.000000 0.000000 0.000000 0.000000 -60.708740 0.000000 118.000000 0.892036 0.451947 -0.003953
2320.00000000 -2870.00000000 230.00000000 161 161 94 0.000000 0.000000 0.000000 0.000000 -60.708740 0.000000 118.000000 0.774014 0.614703 -0.151797
2350.00000000 -2870.00000000 230.00000000 161 161 94 0.000000 0.000000 0.000000 0.000000 -60.708740 0.000000 118.000000 0.625518 0.766522 0.145504
2340.00000000 -2890.00000000 220.00000000 161 161 94 0.000000 0.000000 0.000000 0.000000 -60.708740 0.000000 118.000000 0.716157 0.696144 0.050031
2310.00000000 -2860.00000000 150.00000000 161 161 94 0.000000 0.000000 0.000000 0.000000 -60.708740 0.000000 118.000000 0.641007 0.614229 -0.460253
2340.00000000 -2890.00000000 170.00000000 161 161 94 0.000000 0.000000 0.000000 0.000000 -60.708740 0.000000 118.000000 0.873470 0.485261 -0.039641
2300.00000000 -2830.00000000 210.00000000 161 161 94 0.000000 0.000000 0.000000 0.000000 -60.708740 0.000000 118.000000 0.496037 0.799082 -0.339729
2300.00000000 -2820.00000000 180.00000000 161 161 94 0.000000 0.000000 0.000000 0.000000 -60.708740 0.000000 118.000000 0.693106 0.644410 -0.323017
2250.00000000 -2750.00000000 310.00000000 161 161 94 0.000000 0.000000 0.000000 0.000000 -60.708740 0.000000 118.000000 0.220232 0.885364 -0.409425
2240.00000000 -2770.00000000 310.00000000 161 161 94 0.000000 0.000000 0.000000 0.000000 -60.708740 0.000000 118.000000 0.064542 0.933889 0.351690
2240.00000000 -2750.00000000 270.00000000 161 161 94 0.000000 0.000000 0.000000 0.000000 -60.708740 0.000000 118.000000 0.224152 0.970490 0.088909
2260.00000000 -2790.00000000 280.00000000 161 161 94 0.000000 0.000000 0.000000 0.000000 -60.708740 0.000000 118.000000 0.356609 0.930924 0.078801
2260.00000000 -2810.00000000 240.00000000 161 161 94 0.000000 0.000000 0.000000 0.000000 -60.708740 0.000000 118.000000 0.549418 0.773670 0.315555
2240.00000000 -2790.00000000 270.00000000 161 161 94 0.000000 0.000000 0.000000 0.000000 -60.708740 0.000000 118.000000 0.067482 0.997237 0.031063
2210.00000000 -2740.00000000 290.00000000 161 161 94 0.000000 0.000000 0.000000 0.000000 -60.708740 0.000000 118.000000 0.127011 0.932779 -0.337330
2210.00000000 -2770.00000000 270.00000000 161 161 94 0.000000 0.000000 0.000000 0.000000 -60.708740 0.000000 118.000000 -0.050942 0.982115 -0.181259
2220.00000000 -2770.00000000 250.00000000 161 161 94 0.000000 0.000000 0.000000 0.000000 -60.708740 0.000000 118.000000 0.003445 0.981878 -0.189485
2210.00000000 -2780.00000000 250.00000000 161 161 94 0.000000 0.000000 0.000000 0.000000 -60.708740 0.000000 118.000000 0.427044 0.892650 0.144252
2230.00000000 -2770.00000000 230.00000000 161 161 94 0.000000 0.000000 0.000000 0.000000 -60.708740 0.000000 118.000000 0.212113 0.975722 0.054543
2260.00000000 -2760.00000000 230.00000000 161 161 94 0.000000 0.000000 0.000000 0.000000 -60.708740 0.000000 118.000000 0.288118 0.957531 0.011034
2260.00000000 -2790.00000000 230.00000000 161 161 94 0.000000 0.000000 0.000000 0.000000 -60.708740 0.000000 118.000000 0.277895 0.943200 -0.182069
2260.00000000 -2790.00000000 230.00000000 161 161 94 0.000000 0.000000 0.000000 0.000000 -60.708740 0.000000 118.000000 0.277895 0.943200 -0.182069
2240.00000000 -2800.00000000 190.00000000 161 161 94 0.000000 0.000000 0.000000 0.000000 -60.708740 0.000000 118.000000 0.419192 0.906687 0.046875
2250.00000000 -2780.00000000 170.00000000 161 161 94 0.000000 0.000000 0.000000 0.000000 -60.708740 0.000000 118.000000 0.568908 0.766512 0.297999
2220.00000000 -2740.00000000 220.00000000 161 161 94 0.000000 0.000000 0.000000 0.000000 -60.708740 0.000000 118.000000 0.104292 0.994541 -0.003226
2220.00000000 -2760.00000000 220.00000000 161 161 94 0.000000 0.000000 0.000000 0.000000 -60.708740 0.000000 118.000000 0.470136 0.850504 -0.235829
2190.00000000 -2770.00000000 190.00000000 161 161 94 0.000000 0.000000 0.000000 0.000000 -60.708740 0.000000 118.000000 0.361203 0.902275 0.235440
