//X Y Z R G B PointSourceId ScanDirectionFlag NumberOfReturns ReturnNumber GpsTime Intensity Classification Nx Ny Nz
14920.00000000 -5580.00000000 -170.00000000 204 81 113 97.000000 1.000000 4.000000 1.000000 -60.708740 114.000000 121.000000 -0.352897 0.861438 0.365225
14920.00000000 -5580.00000000 -170.00000000 204 81 113 97.000000 1.000000 4.000000 1.000000 -60.708740 114.000000 121.000000 -0.352897 0.861438 0.365225
14910.00000000 -5590.00000000 -170.00000000 204 81 113 97.000000 1.000000 4.000000 1.000000 -60.708740 114.000000 121.000000 -0.690445 0.705619 0.159333
14900.00000000 -5590.00000000 -170.00000000 204 81 113 97.000000 1.000000 4.000000 1.000000 -60.708740 114.000000 121.000000 -0.396717 0.876398 0.273026
14860.00000000 -5580.00000000 -140.00000000 204 81 113 97.000000 1.000000 4.000000 1.000000 -60.708740 114.000000 121.000000 -0.535491 0.748377 0.391383
14950.00000000 -5460.00000000 -260.00000000 204 81 113 97.000000 1.000000 4.000000 1.000000 -60.708740 114.000000 121.000000 -0.634451 0.766323 0.101102
14950.00000000 -5460.00000000 -250.00000000 204 81 113 97.000000 1.000000 4.000000 1.000000 -60.708740 114.000000 121.000000 0.802243 -0.547760 0.237414
14970.00000000 -5470.00000000 -260.00000000 204 81 113 97.000000 1.000000 4.000000 1.000000 -60.708740 114.000000 121.000000 -0.396937 0.882248 -0.253141
14930.00000000 -5480.00000000 -240.00000000 204 81 113 97.000000 1.000000 4.000000 1.000000 -60.708740 114.000000 121.000000 0.773707 -0.618068 0.139177
14920.00000000 -5530.00000000 -220.00000000 204 81 113 97.000000 1.000000 4.000000 1.000000 -60.708740 114.000000 121.000000 0.739782 -0.509115 0.439915
14920.00000000 -5510.00000000 -260.00000000 204 81 113 97.000000 1.000000 4.000000 1.000000 -60.708740 114.000000 121.000000 0.778506 -0.433948 0.453451
14900.00000000 -5580.00000000 -210.00000000 204 81 113 97.000000 1.000000 4.000000 1.000000 -60.708740 114.000000 121.000000 -0.552997 0.808930 -0.199566
14910.00000000 -5570.00000000 -200.00000000 204 81 113 97.000000 1.000000 4.000000 1.000000 -60.708740 114.000000 121.000000 -0.402012 0.877802 -0.260480
14870.00000000 -5570.00000000 -230.00000000 204 81 113 97.000000 1.000000 4.000000 1.000000 -60.708740 114.000000 121.000000 0.740667 -0.473433 0.476732
14860.00000000 -5580.00000000 -230.00000000 204 81 113 97.000000 1.000000 4.000000 1.000000 -60.708740 114.000000 121.000000 -0.577946 0.803776 -0.141144
14860.00000000 -5570.00000000 -190.00000000 204 81 113 97.000000 1.000000 4.000000 1.000000 -60.708740 114.000000 121.000000 -0.600092 0.799661 -0.020788
14870.00000000 -5570.00000000 -220.00000000 204 81 113 97.000000 1.000000 4.000000 1.000000 -60.708740 114.000000 121.000000 0.742589 -0.663808 -0.088994
14850.00000000 -5590.00000000 -230.00000000 204 81 113 97.000000 1.000000 4.000000 1.000000 -60.708740 114.000000 121.000000 0.768196 -0.620292 0.158469
14910.00000000 -5600.00000000 -160.00000000 204 81 113 97.000000 1.000000 4.000000 1.000000 -60.708740 114.000000 121.000000 -0.635186 0.771995 0.023732
14910.00000000 -5600.00000000 -170.00000000 204 81 113 97.000000 1.000000 4.000000 1.000000 -60.708740 114.000000 121.000000 -0.574206 0.745659 0.338054
14910.00000000 -5610.00000000 -130.00000000 204 81 113 97.000000 1.000000 4.000000 1.000000 -60.708740 114.000000 121.000000 -0.438671 0.890120 -0.123509
14890.00000000 -5630.00000000 -150.00000000 204 81 113 97.000000 1.000000 4.000000 1.000000 -60.708740 114.000000 121.000000 -0.560018 0.828389 0.012323
14890.00000000 -5630.00000000 -150.00000000 204 81 113 97.000000 1.000000 4.000000 1.000000 -60.708740 114.000000 121.000000 -0.560018 0.828389 0.012323
14890.00000000 -5600.00000000 -180.00000000 204 81 113 97.000000 1.000000 4.000000 1.000000 -60.708740 114.000000 121.000000 -0.207427 0.977871 -0.027262
14890.00000000 -5640.00000000 -140.00000000 204 81 113 97.000000 1.000000 4.000000 1.000000 -60.708740 114.000000 121.000000 -0.530031 0.831626 -0.165728
14870.00000000 -5640.00000000 -180.00000000 204 81 113 97.000000 1.000000 4.000000 1.000000 -60.708740 114.000000 121.000000 -0.599055 0.794367 -0.100571
14880.00000000 -5640.00000000 -160.00000000 204 81 113 97.000000 1.000000 4.000000 1.000000 -60.708740 114.000000 121.000000 -0.504134 0.851914 0.141742
14850.00000000 -5610.00000000 -140.00000000 204 81 113 97.000000 1.000000 4.000000 1.000000 -60.708740 114.000000 121.000000 -0.497666 0.732446 0.464599
14820.00000000 -5630.00000000 -180.00000000 204 81 113 97.000000 1.000000 4.000000 1.000000 -60.708740 114.000000 121.000000 0.604022 -0.620847 0.499706
14830.00000000 -5630.00000000 -160.00000000 204 81 113 97.000000 1.000000 4.000000 1.000000 -60.708740 114.000000 121.000000 -0.691840 0.717947 -0.076871
14830.00000000 -5660.00000000 -140.00000000 204 81 113 97.000000 1.000000 4.000000 1.000000 -60.708740 114.000000 121.000000 0.690358 -0.628045 -0.359117
14820.00000000 -5670.00000000 -170.00000000 204 81 113 97.000000 1.000000 4.000000 1.000000 -60.708740 114.000000 121.000000 -0.245853 0.886561 -0.391875
14820.00000000 -5640.00000000 -180.00000000 204 81 113 97.000000 1.000000 4.000000 1.000000 -60.708740 114.000000 121.000000 -0.680286 0.732935 0.004157
14820.00000000 -5680.00000000 -140.00000000 204 81 113 97.000000 1.000000 4.000000 1.000000 -60.708740 114.000000 121.000000 0.753032 -0.657320 -0.029558
14880.00000000 -5610.00000000 -200.00000000 204 81 113 97.000000 1.000000 4.000000 1.000000 -60.708740 114.000000 121.000000 0.845769 -0.527362 0.081023
14880.00000000 -5600.00000000 -190.00000000 204 81 113 97.000000 1.000000 4.000000 1.000000 -60.708740 114.000000 121.000000 0.753149 -0.646193 -0.123297
14850.00000000 -5600.00000000 -190.00000000 204 81 113 97.000000 1.000000 4.000000 1.000000 -60.708740 114.000000 121.000000 0.809906 -0.511105 0.287792
14830.00000000 -5640.00000000 -200.00000000 204 81 113 97.000000 1.000000 4.000000 1.000000 -60.708740 114.000000 121.000000 -0.364561 0.923095 -0.122437
14830.00000000 -5680.00000000 -190.00000000 204 81 113 97.000000 1.000000 4.000000 1.000000 -60.708740 114.000000 121.000000 0.800700 -0.598796 -0.017978
14810.00000000 -5590.00000000 -160.00000000 204 81 113 97.000000 1.000000 4.000000 1.000000 -60.708740 114.000000 121.000000 -0.316035 0.928441 -0.195240
14800.00000000 -5590.00000000 -150.00000000 204 81 113 97.000000 1.000000 4.000000 1.000000 -60.708740 114.000000 121.000000 -0.534180 0.749813 0.390425
14780.00000000 -5710.00000000 -180.00000000 204 81 113 97.000000 1.000000 4.000000 1.000000 -60.708740 114.000000 121.000000 0.615180 -0.733422 0.289214
14780.00000000 -5700.00000000 -160.00000000 204 81 113 97.000000 1.000000 4.000000 1.000000 -60.708740 114.000000 121.000000 -0.603474 0.772386 -0.198087
14800.00000000 -5690.00000000 -180.00000000 204 81 113 97.000000 1.000000 4.000000 1.000000 -60.708740 114.000000 121.000000 -0.512003 0.829904 -0.221613
14780.00000000 -5700.00000000 -160.00000000 204 81 113 97.000000 1.000000 4.000000 1.000000 -60.708740 114.000000 121.000000 -0.603474 0.772386 -0.198087
14790.00000000 -5720.00000000 -180.00000000 204 81 113 97.000000 1.000000 4.000000 1.000000 -60.708740 114.000000 121.000000 -0.616856 0.783652 0.073333
14740.00000000 -5680.00000000 -180.00000000 204 81 113 97.000000 1.000000 4.000000 1.000000 -60.708740 114.000000 121.000000 -0.433770 0.794976 -0.424095
14770.00000000 -5710.00000000 -150.00000000 204 81 113 97.000000 1.000000 4.000000 1.000000 -60.708740 114.000000 121.000000 -0.706673 0.678839 -0.199477
14770.00000000 -5750.00000000 -130.00000000 204 81 113 97.000000 1.000000 4.000000 1.000000 -60.708740 114.000000 121.000000 -0.682500 0.723774 -0.101712
14760.00000000 -5750.00000000 -140.00000000 204 81 113 97.000000 1.000000 4.000000 1.000000 -60.708740 114.000000 121.000000 -0.285113 0.952567 -0.106425
14750.00000000 -5720.00000000 -150.00000000 204 81 113 97.000000 1.000000 4.000000 1.000000 -60.708740 114.000000 121.000000 -0.360697 0.932123 0.032320
14730.00000000 -5760.00000000 -130.00000000 204 81 113 97.000000 1.000000 4.000000 1.000000 -60.708740 114.000000 121.000000 -0.677537 0.671099 -0.300949
14800.00000000 -5600.00000000 -190.00000000 204 81 113 97.000000 1.000000 4.000000 1.000000 -60.708740 114.000000 121.000000 -0.658641 0.726510 -0.195896
14800.00000000 -5690.00000000 -190.00000000 204 81 113 97.000000 1.000000 4.000000 1.000000 -60.708740 114.000000 121.000000 -0.613435 0.714318 -0.336820
14800.00000000 -5690.00000000 -190.00000000 204 81 113 97.000000 1.000000 4.000000 1.000000 -60.708740 114.000000 121.000000 -0.613435 0.714318 -0.336820
14800.00000000 -5680.00000000 -190.00000000 204 81 113 97.000000 1.000000 4.000000 1.000000 -60.708740 114.000000 121.000000 0.736207 -0.426572 0.525391
14700.00000000 -5810.00000000 -100.00000000 204 81 113 97.000000 1.000000 4.000000 1.000000 -60.708740 114.000000 121.000000 0.742514 -0.659518 -0.117083
14710.00000000 -5770.00000000 -80.00000000 204 81 113 97.000000 1.000000 4.000000 1.000000 -60.708740 114.000000 121.000000 -0.648454 0.759618 0.049881
14660.00000000 -5840.00000000 -70.00000000 204 81 113 97.000000 1.000000 4.000000 1.000000 -60.708740 114.000000 121.000000 -0.306099 0.923993 -0.229218
14700.00000000 -5790.00000000 -120.00000000 204 81 113 97.000000 1.000000 4.000000 1.000000 -60.708740 114.000000 121.000000 0.781239 -0.602929 0.161688
14700.00000000 -5800.00000000 -110.00000000 204 81 113 97.000000 1.000000 4.000000 1.000000 -60.708740 114.000000 121.000000 -0.657019 0.753843 -0.006916
14690.00000000 -5800.00000000 -130.00000000 204 81 113 97.000000 1.000000 4.000000 1.000000 -60.708740 114.000000 121.000000 -0.235621 0.887655 -0.395666
14710.00000000 -5800.00000000 -110.00000000 204 81 113 97.000000 1.000000 4.000000 1.000000 -60.708740 114.000000 121.000000 -0.628274 0.749275 -0.209425
14700.00000000 -5800.00000000 -120.00000000 204 81 113 97.000000 1.000000 4.000000 1.000000 -60.708740 114.000000 121.000000 0.631313 -0.696565 0.340942
14720.00000000 -5770.00000000 -140.00000000 204 81 113 97.000000 1.000000 4.000000 1.000000 -60.708740 114.000000 121.000000 0.711780 -0.641401 0.286311
14710.00000000 -5800.00000000 -110.00000000 204 81 113 97.000000 1.000000 4.000000 1.000000 -60.708740 114.000000 121.000000 -0.628274 0.749275 -0.209425
14720.00000000 -5770.00000000 -140.00000000 204 81 113 97.000000 1.000000 4.000000 1.000000 -60.708740 114.000000 121.000000 0.711780 -0.641401 0.286311
14710.00000000 -5800.00000000 -140.00000000 204 81 113 97.000000 1.000000 4.000000 1.000000 -60.708740 114.000000 121.000000 0.835648 -0.522839 0.168321
14700.00000000 -5810.00000000 -130.00000000 204 81 113 97.000000 1.000000 4.000000 1.000000 -60.708740 114.000000 121.000000 0.666270 -0.508513 0.545435
14700.00000000 -5810.00000000 -130.00000000 204 81 113 97.000000 1.000000 4.000000 1.000000 -60.708740 114.000000 121.000000 0.666270 -0.508513 0.545435
14700.00000000 -5810.00000000 -130.00000000 204 81 113 97.000000 1.000000 4.000000 1.000000 -60.708740 114.000000 121.000000 0.666270 -0.508513 0.545435
14680.00000000 -5800.00000000 -130.00000000 204 81 113 97.000000 1.000000 4.000000 1.000000 -60.708740 114.000000 121.000000 -0.384735 0.857541 -0.341471
14680.00000000 -5800.00000000 -110.00000000 204 81 113 97.000000 1.000000 4.000000 1.000000 -60.708740 114.000000 121.000000 -0.231825 0.917221 -0.323979
14730.00000000 -5850.00000000 -90.00000000 204 81 113 97.000000 1.000000 4.000000 1.000000 -60.708740 114.000000 121.000000 -0.574772 0.816035 -0.061025
14730.00000000 -5850.00000000 -90.00000000 204 81 113 97.000000 1.000000 4.000000 1.000000 -60.708740 114.000000 121.000000 -0.574772 0.816035 -0.061025
14710.00000000 -5880.00000000 -100.00000000 204 81 113 97.000000 1.000000 4.000000 1.000000 -60.708740 114.000000 121.000000 -0.490818 0.869012 -0.062569
14660.00000000 -5890.00000000 -110.00000000 204 81 113 97.000000 1.000000 4.000000 1.000000 -60.708740 114.000000 121.000000 -0.339872 0.920071 -0.194822
14660.00000000 -5890.00000000 -110.00000000 204 81 113 97.000000 1.000000 4.000000 1.000000 -60.708740 114.000000 121.000000 -0.339872 0.920071 -0.194822
14660.00000000 -5900.00000000 -110.00000000 204 81 113 97.000000 1.000000 4.000000 1.000000 -60.708740 114.000000 121.000000 -0.475119 0.708511 -0.521798
14620.00000000 -5890.00000000 -80.00000000 204 81 113 97.000000 1.000000 4.000000 1.000000 -60.708740 114.000000 121.000000 -0.462963 0.882828 0.079246
14640.00000000 -5890.00000000 -90.00000000 204 81 113 97.000000 1.000000 4.000000 1.000000 -60.708740 114.000000 121.000000 -0.435639 0.723856 -0.535024
14570.00000000 -5870.00000000 -90.00000000 204 81 113 97.000000 1.000000 4.000000 1.000000 -60.708740 114.000000 121.000000 -0.510206 0.655017 -0.557354
14580.00000000 -5910.00000000 -100.00000000 204 81 113 97.000000 1.000000 4.000000 1.000000 -60.708740 114.000000 121.000000 -0.701803 0.670261 -0.241294
14640.00000000 -5860.00000000 -110.00000000 204 81 113 97.000000 1.000000 4.000000 1.000000 -60.708740 114.000000 121.000000 -0.415336 0.908962 0.035828
14570.00000000 -5880.00000000 -120.00000000 204 81 113 97.000000 1.000000 4.000000 1.000000 -60.708740 114.000000 121.000000 -0.255135 0.824163 -0.505631
14600.00000000 -5890.00000000 -110.00000000 204 81 113 97.000000 1.000000 4.000000 1.000000 -60.708740 114.000000 121.000000 -0.615648 0.783684 0.082569
14480.00000000 -5830.00000000 -60.00000000 204 81 113 97.000000 1.000000 4.000000 1.000000 -60.708740 114.000000 121.000000 -0.424618 0.880306 0.211569
14510.00000000 -5820.00000000 -60.00000000 204 81 113 97.000000 1.000000 4.000000 1.000000 -60.708740 114.000000 121.000000 -0.273363 0.949363 -0.154861
14500.00000000 -5830.00000000 -80.00000000 204 81 113 97.000000 1.000000 4.000000 1.000000 -60.708740 114.000000 121.000000 -0.394325 0.837352 -0.378615
14490.00000000 -5830.00000000 -70.00000000 204 81 113 97.000000 1.000000 4.000000 1.000000 -60.708740 114.000000 121.000000 -0.479969 0.831015 -0.281147
14500.00000000 -5830.00000000 -80.00000000 204 81 113 97.000000 1.000000 4.000000 1.000000 -60.708740 114.000000 121.000000 -0.394325 0.837352 -0.378615
14490.00000000 -5840.00000000 -80.00000000 204 81 113 97.000000 1.000000 4.000000 1.000000 -60.708740 114.000000 121.000000 0.614274 -0.660886 0.431157
14490.00000000 -5840.00000000 -90.00000000 204 81 113 97.000000 1.000000 4.000000 1.000000 -60.708740 114.000000 121.000000 0.651115 -0.600900 0.463647
14510.00000000 -5850.00000000 -60.00000000 204 81 113 97.000000 1.000000 4.000000 1.000000 -60.708740 114.000000 121.000000 -0.495543 0.849715 -0.180062
14610.00000000 -5950.00000000 -20.00000000 204 81 113 97.000000 1.000000 4.000000 1.000000 -60.708740 114.000000 121.000000 -0.093369 0.948157 0.303778
14580.00000000 -5930.00000000 -40.00000000 204 81 113 97.000000 1.000000 4.000000 1.000000 -60.708740 114.000000 121.000000 0.681088 -0.604860 -0.412630
14570.00000000 -5940.00000000 -50.00000000 204 81 113 97.000000 1.000000 4.000000 1.000000 -60.708740 114.000000 121.000000 -0.602681 0.797544 -0.026446
14570.00000000 -5940.00000000 -50.00000000 204 81 113 97.000000 1.000000 4.000000 1.000000 -60.708740 114.000000 121.000000 -0.602681 0.797544 -0.026446
14570.00000000 -5940.00000000 -70.00000000 204 81 113 97.000000 1.000000 4.000000 1.000000 -60.708740 114.000000 121.000000 0.861485 -0.507781 -0.001340
14580.00000000 -5930.00000000 -70.00000000 204 81 113 97.000000 1.000000 4.000000 1.000000 -60.708740 114.000000 121.000000 0.740999 -0.664698 -0.095376
14580.00000000 -5980.00000000 -30.00000000 204 81 113 97.000000 1.000000 4.000000 1.000000 -60.708740 114.000000 121.000000 -0.334994 0.934457 -0.120706
14570.00000000 -5990.00000000 -90.00000000 204 81 113 97.000000 1.000000 4.000000 1.000000 -60.708740 114.000000 121.000000 0.420471 -0.649818 0.633199
14570.00000000 -5980.00000000 -70.00000000 204 81 113 97.000000 1.000000 4.000000 1.000000 -60.708740 114.000000 121.000000 0.506653 -0.806541 0.304623
14570.00000000 -5980.00000000 -70.00000000 204 81 113 97.000000 1.000000 4.000000 1.000000 -60.708740 114.000000 121.000000 0.506653 -0.806541 0.304623
14600.00000000 -5990.00000000 -120.00000000 204 81 113 97.000000 1.000000 4.000000 1.000000 -60.708740 114.000000 121.000000 0.575385 -0.426150 0.698089
14630.00000000 -6020.00000000 -20.00000000 204 81 113 97.000000 1.000000 4.000000 1.000000 -60.708740 114.000000 121.000000 -0.055206 0.413375 0.908886
14610.00000000 -6040.00000000 -30.00000000 204 81 113 97.000000 1.000000 4.000000 1.000000 -60.708740 114.000000 121.000000 0.090294 -0.434798 0.895990
14610.00000000 -6040.00000000 -50.00000000 204 81 113 97.000000 1.000000 4.000000 1.000000 -60.708740 114.000000 121.000000 0.017978 0.598796 0.800700
14530.00000000 -5930.00000000 -50.00000000 204 81 113 97.000000 1.000000 4.000000 1.000000 -60.708740 114.000000 121.000000 -0.620167 0.772593 0.135988
14560.00000000 -5950.00000000 -20.00000000 204 81 113 97.000000 1.000000 4.000000 1.000000 -60.708740 114.000000 121.000000 -0.289441 0.874384 0.389457
14540.00000000 -5960.00000000 -30.00000000 204 81 113 97.000000 1.000000 4.000000 1.000000 -60.708740 114.000000 121.000000 0.760023 -0.634102 0.142411
14550.00000000 -5930.00000000 -90.00000000 204 81 113 97.000000 1.000000 4.000000 1.000000 -60.708740 114.000000 121.000000 -0.358791 0.918787 -0.164622
14540.00000000 -6000.00000000 -40.00000000 204 81 113 97.000000 1.000000 4.000000 1.000000 -60.708740 114.000000 121.000000 -0.564159 0.709749 -0.421879
14540.00000000 -6010.00000000 -60.00000000 204 81 113 97.000000 1.000000 4.000000 1.000000 -60.708740 114.000000 121.000000 0.807425 -0.518947 0.280639
14530.00000000 -5990.00000000 -50.00000000 204 81 113 97.000000 1.000000 4.000000 1.000000 -60.708740 114.000000 121.000000 -0.240179 0.964570 -0.109172
14560.00000000 -5980.00000000 -40.00000000 204 81 113 97.000000 1.000000 4.000000 1.000000 -60.708740 114.000000 121.000000 -0.310934 0.897096 0.313909
14530.00000000 -6000.00000000 -40.00000000 204 81 113 97.000000 1.000000 4.000000 1.000000 -60.708740 114.000000 121.000000 -0.292123 0.924818 -0.243673
14550.00000000 -6010.00000000 -100.00000000 204 81 113 97.000000 1.000000 4.000000 1.000000 -60.708740 114.000000 121.000000 0.423637 -0.459346 0.780726
14560.00000000 -5990.00000000 -80.00000000 204 81 113 97.000000 1.000000 4.000000 1.000000 -60.708740 114.000000 121.000000 -0.555784 0.795534 -0.241307
14500.00000000 -5950.00000000 -50.00000000 204 81 113 97.000000 1.000000 4.000000 1.000000 -60.708740 114.000000 121.000000 -0.455151 0.788820 -0.413037
14520.00000000 -5940.00000000 -80.00000000 204 81 113 97.000000 1.000000 4.000000 1.000000 -60.708740 114.000000 121.000000 0.623593 -0.539095 0.566135
14520.00000000 -6020.00000000 -30.00000000 204 81 113 97.000000 1.000000 4.000000 1.000000 -60.708740 114.000000 121.000000 -0.599055 0.794367 -0.100571
14490.00000000 -6060.00000000 -40.00000000 204 81 113 97.000000 1.000000 4.000000 1.000000 -60.708740 114.000000 121.000000 -0.240652 0.838449 -0.488968
14500.00000000 -6060.00000000 -60.00000000 204 81 113 97.000000 1.000000 4.000000 1.000000 -60.708740 114.000000 121.000000 -0.573421 0.712231 -0.404865
14480.00000000 -6060.00000000 -20.00000000 204 81 113 97.000000 1.000000 4.000000 1.000000 -60.708740 114.000000 121.000000 -0.633212 0.767751 0.097980
14480.00000000 -6070.00000000 -40.00000000 204 81 113 97.000000 1.000000 4.000000 1.000000 -60.708740 114.000000 121.000000 -0.373580 0.689560 -0.620439
14490.00000000 -6060.00000000 -40.00000000 204 81 113 97.000000 1.000000 4.000000 1.000000 -60.708740 114.000000 121.000000 -0.240652 0.838449 -0.488968
14470.00000000 -5840.00000000 -70.00000000 204 81 113 97.000000 1.000000 4.000000 1.000000 -60.708740 114.000000 121.000000 -0.551676 0.669054 -0.498017
14470.00000000 -5940.00000000 -80.00000000 204 81 113 97.000000 1.000000 4.000000 1.000000 -60.708740 114.000000 121.000000 -0.320082 0.791446 -0.520730
14410.00000000 -5960.00000000 -120.00000000 204 81 113 97.000000 1.000000 4.000000 1.000000 -60.708740 114.000000 121.000000 0.816466 -0.461343 0.347196
14470.00000000 -6070.00000000 -40.00000000 204 81 113 97.000000 1.000000 4.000000 1.000000 -60.708740 114.000000 121.000000 -0.498102 0.729777 -0.468315
14450.00000000 -6060.00000000 -20.00000000 204 81 113 97.000000 1.000000 4.000000 1.000000 -60.708740 114.000000 121.000000 -0.531571 0.762406 -0.369011
14470.00000000 -6070.00000000 -40.00000000 204 81 113 97.000000 1.000000 4.000000 1.000000 -60.708740 114.000000 121.000000 -0.498102 0.729777 -0.468315
14470.00000000 -6070.00000000 -40.00000000 204 81 113 97.000000 1.000000 4.000000 1.000000 -60.708740 114.000000 121.000000 -0.498102 0.729777 -0.468315
14370.00000000 -5960.00000000 -100.00000000 204 81 113 97.000000 1.000000 4.000000 1.000000 -60.708740 114.000000 121.000000 -0.493562 0.852247 -0.173414
14330.00000000 -5950.00000000 -100.00000000 204 81 113 97.000000 1.000000 4.000000 1.000000 -60.708740 114.000000 121.000000 -0.580759 0.813063 -0.040583
14320.00000000 -5960.00000000 -80.00000000 204 81 113 97.000000 1.000000 4.000000 1.000000 -60.708740 114.000000 121.000000 -0.667598 0.743814 -0.032462
14320.00000000 -5970.00000000 -90.00000000 204 81 113 97.000000 1.000000 4.000000 1.000000 -60.708740 114.000000 121.000000 0.602955 -0.562421 0.565798
14320.00000000 -5960.00000000 -80.00000000 204 81 113 97.000000 1.000000 4.000000 1.000000 -60.708740 114.000000 121.000000 -0.667598 0.743814 -0.032462
14370.00000000 -5970.00000000 -120.00000000 204 81 113 97.000000 1.000000 4.000000 1.000000 -60.708740 114.000000 121.000000 0.782100 -0.356380 0.511187
14370.00000000 -5980.00000000 -120.00000000 204 81 113 97.000000 1.000000 4.000000 1.000000 -60.708740 114.000000 121.000000 -0.462709 0.857594 -0.224572
14340.00000000 -5950.00000000 -120.00000000 204 81 113 97.000000 1.000000 4.000000 1.000000 -60.708740 114.000000 121.000000 -0.402997 0.668345 -0.625226
14340.00000000 -5950.00000000 -120.00000000 204 81 113 97.000000 1.000000 4.000000 1.000000 -60.708740 114.000000 121.000000 -0.402997 0.668345 -0.625226
14340.00000000 -5950.00000000 -110.00000000 204 81 113 97.000000 1.000000 4.000000 1.000000 -60.708740 114.000000 121.000000 -0.225281 0.769061 -0.598159
14350.00000000 -5980.00000000 -120.00000000 204 81 113 97.000000 1.000000 4.000000 1.000000 -60.708740 114.000000 121.000000 0.314123 -0.607304 0.729732
14460.00000000 -6100.00000000 -20.00000000 204 81 113 97.000000 1.000000 4.000000 1.000000 -60.708740 114.000000 121.000000 -0.370600 0.891524 -0.260462
14430.00000000 -6110.00000000 -40.00000000 204 81 113 97.000000 1.000000 4.000000 1.000000 -60.708740 114.000000 121.000000 0.675703 -0.237835 0.697754
14460.00000000 -6100.00000000 -20.00000000 204 81 113 97.000000 1.000000 4.000000 1.000000 -60.708740 114.000000 121.000000 -0.370600 0.891524 -0.260462
14300.00000000 -6130.00000000 -20.00000000 204 81 113 97.000000 1.000000 4.000000 1.000000 -60.708740 114.000000 121.000000 -0.356776 0.741248 -0.568562
13980.00000000 -6120.00000000 -20.00000000 204 81 113 97.000000 1.000000 4.000000 1.000000 -60.708740 114.000000 121.000000 -0.638842 0.428675 -0.638842
13970.00000000 -6260.00000000 -20.00000000 204 81 113 97.000000 1.000000 4.000000 1.000000 -60.708740 114.000000 121.000000 0.506090 -0.499409 0.703181
15410.00000000 -5330.00000000 0.00000000 204 81 113 97.000000 1.000000 4.000000 1.000000 -60.708740 114.000000 121.000000 0.261603 0.275898 0.924902
15420.00000000 -5320.00000000 -10.00000000 204 81 113 97.000000 1.000000 4.000000 1.000000 -60.708740 114.000000 121.000000 -0.425201 0.322405 0.845730
14670.00000000 -6070.00000000 -10.00000000 204 81 113 97.000000 1.000000 4.000000 1.000000 -60.708740 114.000000 121.000000 -0.398000 0.810385 -0.429968
14610.00000000 -5950.00000000 -10.00000000 204 81 113 97.000000 1.000000 4.000000 1.000000 -60.708740 114.000000 121.000000 -0.210716 0.835283 0.507840
14620.00000000 -6030.00000000 -10.00000000 204 81 113 97.000000 1.000000 4.000000 1.000000 -60.708740 114.000000 121.000000 0.377078 0.298330 0.876819
14630.00000000 -6150.00000000 -10.00000000 204 81 113 97.000000 1.000000 4.000000 1.000000 -60.708740 114.000000 121.000000 0.537715 -0.632110 0.557942
14430.00000000 -5940.00000000 70.00000000 204 81 113 97.000000 1.000000 4.000000 1.000000 -60.708740 114.000000 121.000000 -0.173881 0.881094 0.439816
14420.00000000 -5960.00000000 20.00000000 204 81 113 97.000000 1.000000 4.000000 1.000000 -60.708740 114.000000 121.000000 -0.334719 0.929157 -0.156943
14440.00000000 -6070.00000000 70.00000000 204 81 113 97.000000 1.000000 4.000000 1.000000 -60.708740 114.000000 121.000000 0.580592 -0.493082 -0.647907
14420.00000000 -6090.00000000 80.00000000 204 81 113 97.000000 1.000000 4.000000 1.000000 -60.708740 114.000000 121.000000 -0.340345 0.371146 0.863954
14450.00000000 -6050.00000000 60.00000000 204 81 113 97.000000 1.000000 4.000000 1.000000 -60.708740 114.000000 121.000000 -0.240618 0.715562 0.655801
14430.00000000 -6060.00000000 60.00000000 204 81 113 97.000000 1.000000 4.000000 1.000000 -60.708740 114.000000 121.000000 -0.123404 0.744887 0.655679
14380.00000000 -5980.00000000 70.00000000 204 81 113 97.000000 1.000000 4.000000 1.000000 -60.708740 114.000000 121.000000 -0.591025 0.779289 0.208325
14380.00000000 -6000.00000000 30.00000000 204 81 113 97.000000 1.000000 4.000000 1.000000 -60.708740 114.000000 121.000000 -0.479009 0.871313 0.106604
14380.00000000 -6080.00000000 40.00000000 204 81 113 97.000000 1.000000 4.000000 1.000000 -60.708740 114.000000 121.000000 -0.464392 0.658867 0.591806
14410.00000000 -6160.00000000 170.00000000 204 81 113 97.000000 1.000000 4.000000 1.000000 -60.708740 114.000000 121.000000 0.006482 0.405769 0.913953
14400.00000000 -6170.00000000 190.00000000 204 81 113 97.000000 1.000000 4.000000 1.000000 -60.708740 114.000000 121.000000 0.118316 0.556521 0.822366
14400.00000000 -6180.00000000 190.00000000 204 81 113 97.000000 1.000000 4.000000 1.000000 -60.708740 114.000000 121.000000 0.471878 -0.076558 0.878334
14400.00000000 -6170.00000000 190.00000000 204 81 113 97.000000 1.000000 4.000000 1.000000 -60.708740 114.000000 121.000000 0.118316 0.556521 0.822366
14410.00000000 -6240.00000000 260.00000000 204 81 113 97.000000 1.000000 4.000000 1.000000 -60.708740 114.000000 121.000000 0.319843 -0.331856 0.887452
14440.00000000 -6190.00000000 160.00000000 204 81 113 97.000000 1.000000 4.000000 1.000000 -60.708740 114.000000 121.000000 0.072149 -0.331884 0.940557
14410.00000000 -6220.00000000 220.00000000 204 81 113 97.000000 1.000000 4.000000 1.000000 -60.708740 114.000000 121.000000 0.214649 0.384032 0.898023
14410.00000000 -6210.00000000 170.00000000 204 81 113 97.000000 1.000000 4.000000 1.000000 -60.708740 114.000000 121.000000 0.240288 -0.345141 0.907270
14420.00000000 -6240.00000000 210.00000000 204 81 113 97.000000 1.000000 4.000000 1.000000 -60.708740 114.000000 121.000000 0.320927 -0.363515 0.874564
14320.00000000 -6120.00000000 210.00000000 204 81 113 97.000000 1.000000 4.000000 1.000000 -60.708740 114.000000 121.000000 0.338369 0.481341 0.808590
14380.00000000 -6180.00000000 190.00000000 204 81 113 97.000000 1.000000 4.000000 1.000000 -60.708740 114.000000 121.000000 0.204703 -0.234528 0.950312
14380.00000000 -6180.00000000 190.00000000 204 81 113 97.000000 1.000000 4.000000 1.000000 -60.708740 114.000000 121.000000 0.204703 -0.234528 0.950312
14340.00000000 -6240.00000000 240.00000000 204 81 113 97.000000 1.000000 4.000000 1.000000 -60.708740 114.000000 121.000000 -0.139147 0.028282 0.989868
14350.00000000 -6230.00000000 240.00000000 204 81 113 97.000000 1.000000 4.000000 1.000000 -60.708740 114.000000 121.000000 0.492254 -0.154289 0.856669
14370.00000000 -6230.00000000 210.00000000 204 81 113 97.000000 1.000000 4.000000 1.000000 -60.708740 114.000000 121.000000 0.465408 -0.291074 0.835866
14390.00000000 -6230.00000000 200.00000000 204 81 113 97.000000 1.000000 4.000000 1.000000 -60.708740 114.000000 121.000000 0.603491 -0.032205 0.796720
14340.00000000 -6220.00000000 190.00000000 204 81 113 97.000000 1.000000 4.000000 1.000000 -60.708740 114.000000 121.000000 0.389427 -0.166897 0.905810
14350.00000000 -6210.00000000 180.00000000 204 81 113 97.000000 1.000000 4.000000 1.000000 -60.708740 114.000000 121.000000 0.135551 0.293917 0.946171
14340.00000000 -6240.00000000 210.00000000 204 81 113 97.000000 1.000000 4.000000 1.000000 -60.708740 114.000000 121.000000 0.019678 0.184043 0.982721
14330.00000000 -6240.00000000 180.00000000 204 81 113 97.000000 1.000000 4.000000 1.000000 -60.708740 114.000000 121.000000 0.178168 0.185971 0.966267
14330.00000000 -6240.00000000 170.00000000 204 81 113 97.000000 1.000000 4.000000 1.000000 -60.708740 114.000000 121.000000 0.060641 0.411010 0.909612
14330.00000000 -6240.00000000 180.00000000 204 81 113 97.000000 1.000000 4.000000 1.000000 -60.708740 114.000000 121.000000 0.178168 0.185971 0.966267
14450.00000000 -6110.00000000 70.00000000 204 81 113 97.000000 1.000000 4.000000 1.000000 -60.708740 114.000000 121.000000 0.342561 0.414515 0.843107
14440.00000000 -6120.00000000 70.00000000 204 81 113 97.000000 1.000000 4.000000 1.000000 -60.708740 114.000000 121.000000 0.086954 0.531702 0.842456
14420.00000000 -6150.00000000 80.00000000 204 81 113 97.000000 1.000000 4.000000 1.000000 -60.708740 114.000000 121.000000 0.086600 0.283065 0.955183
14430.00000000 -6170.00000000 100.00000000 204 81 113 97.000000 1.000000 4.000000 1.000000 -60.708740 114.000000 121.000000 0.209237 0.328801 0.920929
14430.00000000 -6150.00000000 100.00000000 204 81 113 97.000000 1.000000 4.000000 1.000000 -60.708740 114.000000 121.000000 -0.011060 0.288796 0.957327
14450.00000000 -6100.00000000 -10.00000000 204 81 113 97.000000 1.000000 4.000000 1.000000 -60.708740 114.000000 121.000000 -0.402815 0.856560 -0.322560
14400.00000000 -6130.00000000 60.00000000 204 81 113 97.000000 1.000000 4.000000 1.000000 -60.708740 114.000000 121.000000 0.580730 -0.577344 -0.573957
14410.00000000 -6130.00000000 60.00000000 204 81 113 97.000000 1.000000 4.000000 1.000000 -60.708740 114.000000 121.000000 -0.431647 0.402764 0.807132
14400.00000000 -6120.00000000 30.00000000 204 81 113 97.000000 1.000000 4.000000 1.000000 -60.708740 114.000000 121.000000 -0.185733 0.976031 0.113434
14410.00000000 -6130.00000000 0.00000000 204 81 113 97.000000 1.000000 4.000000 1.000000 -60.708740 114.000000 121.000000 -0.682033 0.728175 0.067771
14410.00000000 -6260.00000000 140.00000000 204 81 113 97.000000 1.000000 4.000000 1.000000 -60.708740 114.000000 121.000000 0.769061 -0.225281 0.598159
14360.00000000 -6150.00000000 30.00000000 204 81 113 97.000000 1.000000 4.000000 1.000000 -60.708740 114.000000 121.000000 -0.370160 0.864732 0.339442
14360.00000000 -6150.00000000 40.00000000 204 81 113 97.000000 1.000000 4.000000 1.000000 -60.708740 114.000000 121.000000 -0.426347 0.848044 0.314722
14380.00000000 -6170.00000000 20.00000000 204 81 113 97.000000 1.000000 4.000000 1.000000 -60.708740 114.000000 121.000000 0.714983 -0.697926 -0.041222
14340.00000000 -6180.00000000 50.00000000 204 81 113 97.000000 1.000000 4.000000 1.000000 -60.708740 114.000000 121.000000 -0.627605 0.774768 0.076467
14320.00000000 -6200.00000000 40.00000000 204 81 113 97.000000 1.000000 4.000000 1.000000 -60.708740 114.000000 121.000000 -0.435250 0.886406 0.157615
14330.00000000 -6230.00000000 40.00000000 204 81 113 97.000000 1.000000 4.000000 1.000000 -60.708740 114.000000 121.000000 -0.585262 0.743267 0.324071
14320.00000000 -6240.00000000 50.00000000 204 81 113 97.000000 1.000000 4.000000 1.000000 -60.708740 114.000000 121.000000 0.572459 -0.269671 0.774318
14320.00000000 -6250.00000000 30.00000000 204 81 113 97.000000 1.000000 4.000000 1.000000 -60.708740 114.000000 121.000000 -0.335040 0.832095 0.442001
14320.00000000 -6250.00000000 40.00000000 204 81 113 97.000000 1.000000 4.000000 1.000000 -60.708740 114.000000 121.000000 -0.522563 0.841663 0.136130
14420.00000000 -6330.00000000 210.00000000 204 81 113 97.000000 1.000000 4.000000 1.000000 -60.708740 114.000000 121.000000 0.571731 -0.049166 0.818966
14320.00000000 -6330.00000000 240.00000000 204 81 113 97.000000 1.000000 4.000000 1.000000 -60.708740 114.000000 121.000000 0.032496 -0.124383 0.991702
14320.00000000 -6310.00000000 250.00000000 204 81 113 97.000000 1.000000 4.000000 1.000000 -60.708740 114.000000 121.000000 0.180684 0.185884 0.965816
14370.00000000 -6290.00000000 230.00000000 204 81 113 97.000000 1.000000 4.000000 1.000000 -60.708740 114.000000 121.000000 0.244342 0.084823 0.965972
14390.00000000 -6350.00000000 230.00000000 204 81 113 97.000000 1.000000 4.000000 1.000000 -60.708740 114.000000 121.000000 0.658032 -0.155810 0.736693
14320.00000000 -6290.00000000 220.00000000 204 81 113 97.000000 1.000000 4.000000 1.000000 -60.708740 114.000000 121.000000 0.120447 0.113292 0.986234
14340.00000000 -6280.00000000 220.00000000 204 81 113 97.000000 1.000000 4.000000 1.000000 -60.708740 114.000000 121.000000 0.372123 -0.369009 0.851679
14360.00000000 -6370.00000000 280.00000000 204 81 113 97.000000 1.000000 4.000000 1.000000 -60.708740 114.000000 121.000000 0.683455 -0.139695 0.716501
14360.00000000 -6370.00000000 260.00000000 204 81 113 97.000000 1.000000 4.000000 1.000000 -60.708740 114.000000 121.000000 0.554022 -0.202989 0.807376
14360.00000000 -6380.00000000 270.00000000 204 81 113 97.000000 1.000000 4.000000 1.000000 -60.708740 114.000000 121.000000 0.411704 -0.260897 0.873174
14360.00000000 -6410.00000000 290.00000000 204 81 113 97.000000 1.000000 4.000000 1.000000 -60.708740 114.000000 121.000000 0.747382 -0.428718 0.507563
14380.00000000 -6400.00000000 270.00000000 204 81 113 97.000000 1.000000 4.000000 1.000000 -60.708740 114.000000 121.000000 0.197261 -0.248957 0.948213
14330.00000000 -6390.00000000 290.00000000 204 81 113 97.000000 1.000000 4.000000 1.000000 -60.708740 114.000000 121.000000 0.280324 0.003641 0.959898
14330.00000000 -6380.00000000 310.00000000 204 81 113 97.000000 1.000000 4.000000 1.000000 -60.708740 114.000000 121.000000 0.041428 -0.188202 0.981256
14330.00000000 -6380.00000000 260.00000000 204 81 113 97.000000 1.000000 4.000000 1.000000 -60.708740 114.000000 121.000000 0.299191 -0.331938 0.894596
14330.00000000 -6360.00000000 270.00000000 204 81 113 97.000000 1.000000 4.000000 1.000000 -60.708740 114.000000 121.000000 0.246815 -0.602104 0.759311
14320.00000000 -6410.00000000 260.00000000 204 81 113 97.000000 1.000000 4.000000 1.000000 -60.708740 114.000000 121.000000 0.590407 -0.379900 0.712107
14290.00000000 -6120.00000000 210.00000000 204 81 113 97.000000 1.000000 4.000000 1.000000 -60.708740 114.000000 121.000000 -0.043499 0.386216 0.921382
14310.00000000 -6140.00000000 230.00000000 204 81 113 97.000000 1.000000 4.000000 1.000000 -60.708740 114.000000 121.000000 0.171413 0.511258 0.842160
14250.00000000 -6170.00000000 210.00000000 204 81 113 97.000000 1.000000 4.000000 1.000000 -60.708740 114.000000 121.000000 0.091439 0.266589 0.959463
14310.00000000 -6220.00000000 190.00000000 204 81 113 97.000000 1.000000 4.000000 1.000000 -60.708740 114.000000 121.000000 0.385251 0.001280 0.922811
14310.00000000 -6220.00000000 190.00000000 204 81 113 97.000000 1.000000 4.000000 1.000000 -60.708740 114.000000 121.000000 0.385251 0.001280 0.922811
14290.00000000 -6250.00000000 230.00000000 204 81 113 97.000000 1.000000 4.000000 1.000000 -60.708740 114.000000 121.000000 0.151612 0.129425 0.979930
14240.00000000 -6220.00000000 190.00000000 204 81 113 97.000000 1.000000 4.000000 1.000000 -60.708740 114.000000 121.000000 -0.322291 0.694787 0.642962
14230.00000000 -6210.00000000 150.00000000 204 81 113 97.000000 1.000000 4.000000 1.000000 -60.708740 114.000000 121.000000 -0.435458 0.669037 0.602300
14260.00000000 -6190.00000000 150.00000000 204 81 113 97.000000 1.000000 4.000000 1.000000 -60.708740 114.000000 121.000000 -0.242152 0.231082 0.942318
14230.00000000 -6220.00000000 180.00000000 204 81 113 97.000000 1.000000 4.000000 1.000000 -60.708740 114.000000 121.000000 -0.464341 0.343898 0.816163
14220.00000000 -6170.00000000 170.00000000 204 81 113 97.000000 1.000000 4.000000 1.000000 -60.708740 114.000000 121.000000 -0.073094 0.450975 0.889538
14210.00000000 -6160.00000000 160.00000000 204 81 113 97.000000 1.000000 4.000000 1.000000 -60.708740 114.000000 121.000000 -0.162589 0.715694 0.679225
14170.00000000 -6140.00000000 170.00000000 204 81 113 97.000000 1.000000 4.000000 1.000000 -60.708740 114.000000 121.000000 -0.596792 0.708587 0.376488
14160.00000000 -6160.00000000 160.00000000 204 81 113 97.000000 1.000000 4.000000 1.000000 -60.708740 114.000000 121.000000 -0.518425 0.616369 0.592727
14220.00000000 -6190.00000000 190.00000000 204 81 113 97.000000 1.000000 4.000000 1.000000 -60.708740 114.000000 121.000000 -0.371742 0.343977 0.862257
14210.00000000 -6220.00000000 170.00000000 204 81 113 97.000000 1.000000 4.000000 1.000000 -60.708740 114.000000 121.000000 0.030754 0.266946 0.963221
14190.00000000 -6260.00000000 210.00000000 204 81 113 97.000000 1.000000 4.000000 1.000000 -60.708740 114.000000 121.000000 0.080829 0.526096 0.846575
14170.00000000 -6200.00000000 200.00000000 204 81 113 97.000000 1.000000 4.000000 1.000000 -60.708740 114.000000 121.000000 -0.203353 0.693883 0.690778
14170.00000000 -6250.00000000 210.00000000 204 81 113 97.000000 1.000000 4.000000 1.000000 -60.708740 114.000000 121.000000 -0.001269 0.366791 0.930303
14150.00000000 -6240.00000000 190.00000000 204 81 113 97.000000 1.000000 4.000000 1.000000 -60.708740 114.000000 121.000000 -0.167122 0.885022 0.434518
14240.00000000 -6180.00000000 0.00000000 204 81 113 97.000000 1.000000 4.000000 1.000000 -60.708740 114.000000 121.000000 0.859852 -0.424562 0.283552
14290.00000000 -6130.00000000 0.00000000 204 81 113 97.000000 1.000000 4.000000 1.000000 -60.708740 114.000000 121.000000 0.382358 -0.730255 0.566153
14260.00000000 -6150.00000000 60.00000000 204 81 113 97.000000 1.000000 4.000000 1.000000 -60.708740 114.000000 121.000000 0.708273 -0.699474 -0.095316
14270.00000000 -6140.00000000 0.00000000 204 81 113 97.000000 1.000000 4.000000 1.000000 -60.708740 114.000000 121.000000 -0.703082 0.628390 -0.332868
14300.00000000 -6260.00000000 70.00000000 204 81 113 97.000000 1.000000 4.000000 1.000000 -60.708740 114.000000 121.000000 0.561474 -0.291076 0.774611
14310.00000000 -6220.00000000 60.00000000 204 81 113 97.000000 1.000000 4.000000 1.000000 -60.708740 114.000000 121.000000 -0.317841 0.366506 0.874443
14290.00000000 -6220.00000000 40.00000000 204 81 113 97.000000 1.000000 4.000000 1.000000 -60.708740 114.000000 121.000000 -0.733087 0.511341 -0.448457
14210.00000000 -6230.00000000 70.00000000 204 81 113 97.000000 1.000000 4.000000 1.000000 -60.708740 114.000000 121.000000 0.650394 -0.701783 -0.290670
14220.00000000 -6220.00000000 50.00000000 204 81 113 97.000000 1.000000 4.000000 1.000000 -60.708740 114.000000 121.000000 -0.791128 0.579956 -0.194339
14310.00000000 -6300.00000000 220.00000000 204 81 113 97.000000 1.000000 4.000000 1.000000 -60.708740 114.000000 121.000000 0.076804 -0.104316 0.991574
14310.00000000 -6280.00000000 220.00000000 204 81 113 97.000000 1.000000 4.000000 1.000000 -60.708740 114.000000 121.000000 0.096150 0.211031 0.972739
14230.00000000 -6290.00000000 220.00000000 204 81 113 97.000000 1.000000 4.000000 1.000000 -60.708740 114.000000 121.000000 -0.201336 0.284647 0.937251
14280.00000000 -6380.00000000 260.00000000 204 81 113 97.000000 1.000000 4.000000 1.000000 -60.708740 114.000000 121.000000 0.732103 -0.353823 0.582095
14240.00000000 -6370.00000000 270.00000000 204 81 113 97.000000 1.000000 4.000000 1.000000 -60.708740 114.000000 121.000000 0.398615 0.189886 0.897246
14260.00000000 -6360.00000000 210.00000000 204 81 113 97.000000 1.000000 4.000000 1.000000 -60.708740 114.000000 121.000000 0.733031 -0.085982 0.674739
14280.00000000 -6360.00000000 200.00000000 204 81 113 97.000000 1.000000 4.000000 1.000000 -60.708740 114.000000 121.000000 0.420958 -0.300684 0.855794
14210.00000000 -6270.00000000 210.00000000 204 81 113 97.000000 1.000000 4.000000 1.000000 -60.708740 114.000000 121.000000 0.185202 0.250091 0.950345
14200.00000000 -6300.00000000 210.00000000 204 81 113 97.000000 1.000000 4.000000 1.000000 -60.708740 114.000000 121.000000 0.286184 0.336600 0.897106
14200.00000000 -6320.00000000 220.00000000 204 81 113 97.000000 1.000000 4.000000 1.000000 -60.708740 114.000000 121.000000 -0.005073 0.033483 0.999426
14180.00000000 -6270.00000000 210.00000000 204 81 113 97.000000 1.000000 4.000000 1.000000 -60.708740 114.000000 121.000000 -0.250580 0.104087 0.962484
14150.00000000 -6340.00000000 220.00000000 204 81 113 97.000000 1.000000 4.000000 1.000000 -60.708740 114.000000 121.000000 0.263925 -0.110511 0.958191
14150.00000000 -6330.00000000 220.00000000 204 81 113 97.000000 1.000000 4.000000 1.000000 -60.708740 114.000000 121.000000 0.088980 0.013937 0.995936
14190.00000000 -6360.00000000 240.00000000 204 81 113 97.000000 1.000000 4.000000 1.000000 -60.708740 114.000000 121.000000 -0.011053 0.019091 0.999757
14170.00000000 -6420.00000000 240.00000000 204 81 113 97.000000 1.000000 4.000000 1.000000 -60.708740 114.000000 121.000000 0.174944 -0.211774 0.961533
14190.00000000 -6400.00000000 220.00000000 204 81 113 97.000000 1.000000 4.000000 1.000000 -60.708740 114.000000 121.000000 0.082044 -0.112088 0.990305
14160.00000000 -6370.00000000 230.00000000 204 81 113 97.000000 1.000000 4.000000 1.000000 -60.708740 114.000000 121.000000 0.202009 0.423186 0.883236
14150.00000000 -6380.00000000 230.00000000 204 81 113 97.000000 1.000000 4.000000 1.000000 -60.708740 114.000000 121.000000 0.451755 -0.111877 0.885100
14150.00000000 -6400.00000000 230.00000000 204 81 113 97.000000 1.000000 4.000000 1.000000 -60.708740 114.000000 121.000000 0.180034 0.112987 0.977150
14150.00000000 -6410.00000000 230.00000000 204 81 113 97.000000 1.000000 4.000000 1.000000 -60.708740 114.000000 121.000000 0.083696 0.065841 0.994314
14150.00000000 -6420.00000000 200.00000000 204 81 113 97.000000 1.000000 4.000000 1.000000 -60.708740 114.000000 121.000000 0.710370 -0.262217 0.653159
14170.00000000 -6430.00000000 220.00000000 204 81 113 97.000000 1.000000 4.000000 1.000000 -60.708740 114.000000 121.000000 0.399828 -0.362198 0.841992
14180.00000000 -6410.00000000 230.00000000 204 81 113 97.000000 1.000000 4.000000 1.000000 -60.708740 114.000000 121.000000 0.446565 0.022662 0.894464
14260.00000000 -6280.00000000 50.00000000 204 81 113 97.000000 1.000000 4.000000 1.000000 -60.708740 114.000000 121.000000 -0.257399 0.373451 0.891224
14280.00000000 -6270.00000000 50.00000000 204 81 113 97.000000 1.000000 4.000000 1.000000 -60.708740 114.000000 121.000000 -0.051373 0.517894 0.853901
14210.00000000 -6310.00000000 140.00000000 204 81 113 97.000000 1.000000 4.000000 1.000000 -60.708740 114.000000 121.000000 0.114176 -0.276909 0.954089
14200.00000000 -6350.00000000 130.00000000 204 81 113 97.000000 1.000000 4.000000 1.000000 -60.708740 114.000000 121.000000 0.672959 -0.413745 0.613140
14200.00000000 -6350.00000000 80.00000000 204 81 113 97.000000 1.000000 4.000000 1.000000 -60.708740 114.000000 121.000000 -0.531855 0.828495 0.175287
14200.00000000 -6350.00000000 80.00000000 204 81 113 97.000000 1.000000 4.000000 1.000000 -60.708740 114.000000 121.000000 -0.531855 0.828495 0.175287
14160.00000000 -6350.00000000 140.00000000 204 81 113 97.000000 1.000000 4.000000 1.000000 -60.708740 114.000000 121.000000 0.411908 0.424730 0.806186
14180.00000000 -6350.00000000 100.00000000 204 81 113 97.000000 1.000000 4.000000 1.000000 -60.708740 114.000000 121.000000 0.753709 -0.327630 0.569720
14160.00000000 -6370.00000000 110.00000000 204 81 113 97.000000 1.000000 4.000000 1.000000 -60.708740 114.000000 121.000000 0.324691 -0.489413 0.809352
14170.00000000 -6380.00000000 80.00000000 204 81 113 97.000000 1.000000 4.000000 1.000000 -60.708740 114.000000 121.000000 -0.507859 0.615842 0.602344
14170.00000000 -6370.00000000 90.00000000 204 81 113 97.000000 1.000000 4.000000 1.000000 -60.708740 114.000000 121.000000 0.823867 -0.537698 -0.179233
14170.00000000 -6380.00000000 100.00000000 204 81 113 97.000000 1.000000 4.000000 1.000000 -60.708740 114.000000 121.000000 -0.571072 0.819241 -0.052172
14150.00000000 -6410.00000000 130.00000000 204 81 113 97.000000 1.000000 4.000000 1.000000 -60.708740 114.000000 121.000000 0.482871 -0.427218 0.764409
14150.00000000 -6410.00000000 70.00000000 204 81 113 97.000000 1.000000 4.000000 1.000000 -60.708740 114.000000 121.000000 -0.451164 0.858275 0.244570
14090.00000000 -6260.00000000 10.00000000 204 81 113 97.000000 1.000000 4.000000 1.000000 -60.708740 114.000000 121.000000 -0.582761 0.771255 -0.256038
14020.00000000 -6180.00000000 -10.00000000 204 81 113 97.000000 1.000000 4.000000 1.000000 -60.708740 114.000000 121.000000 0.851447 -0.333445 0.404786
14130.00000000 -6330.00000000 220.00000000 204 81 113 97.000000 1.000000 4.000000 1.000000 -60.708740 114.000000 121.000000 -0.278557 0.450923 0.847982
14120.00000000 -6350.00000000 230.00000000 204 81 113 97.000000 1.000000 4.000000 1.000000 -60.708740 114.000000 121.000000 -0.156254 0.200160 0.967223
14120.00000000 -6340.00000000 230.00000000 204 81 113 97.000000 1.000000 4.000000 1.000000 -60.708740 114.000000 121.000000 -0.277243 0.274370 0.920792
14130.00000000 -6400.00000000 240.00000000 204 81 113 97.000000 1.000000 4.000000 1.000000 -60.708740 114.000000 121.000000 0.431745 -0.019805 0.901778
14130.00000000 -6380.00000000 240.00000000 204 81 113 97.000000 1.000000 4.000000 1.000000 -60.708740 114.000000 121.000000 0.331000 0.216368 0.918490
14130.00000000 -6370.00000000 230.00000000 204 81 113 97.000000 1.000000 4.000000 1.000000 -60.708740 114.000000 121.000000 0.373669 0.463477 0.803468
14120.00000000 -6420.00000000 210.00000000 204 81 113 97.000000 1.000000 4.000000 1.000000 -60.708740 114.000000 121.000000 0.079970 -0.044914 0.995785
14130.00000000 -6420.00000000 210.00000000 204 81 113 97.000000 1.000000 4.000000 1.000000 -60.708740 114.000000 121.000000 0.481083 0.143889 0.864786
14110.00000000 -6420.00000000 210.00000000 204 81 113 97.000000 1.000000 4.000000 1.000000 -60.708740 114.000000 121.000000 0.080303 0.049502 0.995541
14140.00000000 -6400.00000000 230.00000000 204 81 113 97.000000 1.000000 4.000000 1.000000 -60.708740 114.000000 121.000000 0.012090 0.121996 0.992457
14120.00000000 -6400.00000000 200.00000000 204 81 113 97.000000 1.000000 4.000000 1.000000 -60.708740 114.000000 121.000000 0.329740 0.323718 0.886836
14140.00000000 -6420.00000000 200.00000000 204 81 113 97.000000 1.000000 4.000000 1.000000 -60.708740 114.000000 121.000000 0.432637 -0.369247 0.822485
14130.00000000 -6420.00000000 210.00000000 204 81 113 97.000000 1.000000 4.000000 1.000000 -60.708740 114.000000 121.000000 0.481083 0.143889 0.864786
14070.00000000 -6430.00000000 220.00000000 204 81 113 97.000000 1.000000 4.000000 1.000000 -60.708740 114.000000 121.000000 0.115662 0.214802 0.969785
14080.00000000 -6420.00000000 220.00000000 204 81 113 97.000000 1.000000 4.000000 1.000000 -60.708740 114.000000 121.000000 0.026298 0.301806 0.953007
14060.00000000 -6270.00000000 50.00000000 204 81 113 97.000000 1.000000 4.000000 1.000000 -60.708740 114.000000 121.000000 0.840139 -0.492495 0.227188
14070.00000000 -6310.00000000 10.00000000 204 81 113 97.000000 1.000000 4.000000 1.000000 -60.708740 114.000000 121.000000 0.483919 -0.434707 0.759507
14100.00000000 -6420.00000000 120.00000000 204 81 113 97.000000 1.000000 4.000000 1.000000 -60.708740 114.000000 121.000000 -0.430672 0.821614 -0.373461
14100.00000000 -6420.00000000 120.00000000 204 81 113 97.000000 1.000000 4.000000 1.000000 -60.708740 114.000000 121.000000 -0.430672 0.821614 -0.373461
14130.00000000 -6420.00000000 120.00000000 204 81 113 97.000000 1.000000 4.000000 1.000000 -60.708740 114.000000 121.000000 -0.594911 0.615135 -0.517387
14070.00000000 -6410.00000000 -10.00000000 204 81 113 97.000000 1.000000 4.000000 1.000000 -60.708740 114.000000 121.000000 -0.201909 0.262344 0.943615
