//X Y Z R G B PointSourceId ScanDirectionFlag NumberOfReturns ReturnNumber GpsTime Intensity Classification Nx Ny Nz
-570.00000000 17810.00000000 80.00000000 128 223 80 0.000000 0.000000 0.000000 0.000000 -60.708740 0.000000 38.000000 0.931919 -0.280563 -0.229808
-590.00000000 17810.00000000 -10.00000000 128 223 80 0.000000 0.000000 0.000000 0.000000 -60.708740 0.000000 38.000000 0.717549 -0.674710 -0.172885
-590.00000000 17800.00000000 0.00000000 128 223 80 0.000000 0.000000 0.000000 0.000000 -60.708740 0.000000 38.000000 0.734358 -0.669081 0.114233
-550.00000000 17820.00000000 50.00000000 128 223 80 0.000000 0.000000 0.000000 0.000000 -60.708740 0.000000 38.000000 0.796124 -0.601038 -0.070288
-550.00000000 17810.00000000 50.00000000 128 223 80 0.000000 0.000000 0.000000 0.000000 -60.708740 0.000000 38.000000 -0.580102 0.814347 -0.017913
-580.00000000 17800.00000000 -10.00000000 128 223 80 0.000000 0.000000 0.000000 0.000000 -60.708740 0.000000 38.000000 -0.667534 0.743743 -0.035282
-610.00000000 17800.00000000 120.00000000 128 223 80 0.000000 0.000000 0.000000 0.000000 -60.708740 0.000000 38.000000 0.784161 -0.605604 0.135405
-610.00000000 17810.00000000 100.00000000 128 223 80 0.000000 0.000000 0.000000 0.000000 -60.708740 0.000000 38.000000 0.775772 -0.585341 -0.235697
-660.00000000 17790.00000000 140.00000000 128 223 80 0.000000 0.000000 0.000000 0.000000 -60.708740 0.000000 38.000000 0.932422 -0.333695 -0.138696
-670.00000000 17740.00000000 120.00000000 128 223 80 0.000000 0.000000 0.000000 0.000000 -60.708740 0.000000 38.000000 0.891323 -0.322075 0.319079
-600.00000000 17790.00000000 30.00000000 128 223 80 0.000000 0.000000 0.000000 0.000000 -60.708740 0.000000 38.000000 0.834990 -0.548787 0.040291
-630.00000000 17800.00000000 60.00000000 128 223 80 0.000000 0.000000 0.000000 0.000000 -60.708740 0.000000 38.000000 0.870893 -0.486307 -0.071065
-600.00000000 17820.00000000 40.00000000 128 223 80 0.000000 0.000000 0.000000 0.000000 -60.708740 0.000000 38.000000 0.738415 -0.656873 0.152515
-600.00000000 17790.00000000 -10.00000000 128 223 80 0.000000 0.000000 0.000000 0.000000 -60.708740 0.000000 38.000000 0.751630 -0.659251 -0.020995
-600.00000000 17800.00000000 20.00000000 128 223 80 0.000000 0.000000 0.000000 0.000000 -60.708740 0.000000 38.000000 0.797294 -0.600467 0.061330
-670.00000000 17750.00000000 40.00000000 128 223 80 0.000000 0.000000 0.000000 0.000000 -60.708740 0.000000 38.000000 0.812087 -0.504217 0.293734
-660.00000000 17750.00000000 -10.00000000 128 223 80 0.000000 0.000000 0.000000 0.000000 -60.708740 0.000000 38.000000 0.803079 -0.494569 0.332363
-670.00000000 17730.00000000 70.00000000 128 223 80 0.000000 0.000000 0.000000 0.000000 -60.708740 0.000000 38.000000 0.876575 -0.444895 0.183537
-510.00000000 17190.00000000 650.00000000 128 223 80 0.000000 0.000000 0.000000 0.000000 -60.708740 0.000000 38.000000 0.544755 0.837334 -0.045977
-490.00000000 17180.00000000 590.00000000 128 223 80 0.000000 0.000000 0.000000 0.000000 -60.708740 0.000000 38.000000 0.796465 0.603974 -0.029292
-490.00000000 17180.00000000 600.00000000 128 223 80 0.000000 0.000000 0.000000 0.000000 -60.708740 0.000000 38.000000 0.832168 0.518028 -0.197848
-430.00000000 17210.00000000 550.00000000 128 223 80 0.000000 0.000000 0.000000 0.000000 -60.708740 0.000000 38.000000 0.538270 0.827534 0.159543
-470.00000000 17210.00000000 560.00000000 128 223 80 0.000000 0.000000 0.000000 0.000000 -60.708740 0.000000 38.000000 0.807991 0.526679 -0.264121
-470.00000000 17200.00000000 560.00000000 128 223 80 0.000000 0.000000 0.000000 0.000000 -60.708740 0.000000 38.000000 0.694290 0.608534 -0.384250
-460.00000000 17190.00000000 500.00000000 128 223 80 0.000000 0.000000 0.000000 0.000000 -60.708740 0.000000 38.000000 0.544627 0.836039 -0.066487
-470.00000000 17200.00000000 510.00000000 128 223 80 0.000000 0.000000 0.000000 0.000000 -60.708740 0.000000 38.000000 0.544297 0.817204 -0.189519
-470.00000000 17180.00000000 530.00000000 128 223 80 0.000000 0.000000 0.000000 0.000000 -60.708740 0.000000 38.000000 0.714446 0.693991 -0.089123
-450.00000000 17180.00000000 560.00000000 128 223 80 0.000000 0.000000 0.000000 0.000000 -60.708740 0.000000 38.000000 0.589754 0.800486 -0.106829
-480.00000000 17210.00000000 550.00000000 128 223 80 0.000000 0.000000 0.000000 0.000000 -60.708740 0.000000 38.000000 0.548751 0.829641 -0.102800
-490.00000000 17210.00000000 520.00000000 128 223 80 0.000000 0.000000 0.000000 0.000000 -60.708740 0.000000 38.000000 0.878379 0.406907 -0.250751
-370.00000000 17190.00000000 440.00000000 128 223 80 0.000000 0.000000 0.000000 0.000000 -60.708740 0.000000 38.000000 0.682397 0.613000 -0.398202
-360.00000000 17180.00000000 440.00000000 128 223 80 0.000000 0.000000 0.000000 0.000000 -60.708740 0.000000 38.000000 0.367451 0.891106 -0.266290
-380.00000000 17180.00000000 430.00000000 128 223 80 0.000000 0.000000 0.000000 0.000000 -60.708740 0.000000 38.000000 0.249147 0.964970 -0.082206
-380.00000000 17180.00000000 420.00000000 128 223 80 0.000000 0.000000 0.000000 0.000000 -60.708740 0.000000 38.000000 0.191662 0.960952 -0.199593
-360.00000000 17170.00000000 430.00000000 128 223 80 0.000000 0.000000 0.000000 0.000000 -60.708740 0.000000 38.000000 0.648869 0.732494 -0.205966
-420.00000000 17190.00000000 410.00000000 128 223 80 0.000000 0.000000 0.000000 0.000000 -60.708740 0.000000 38.000000 0.198859 0.951005 -0.236737
-390.00000000 17200.00000000 430.00000000 128 223 80 0.000000 0.000000 0.000000 0.000000 -60.708740 0.000000 38.000000 0.209180 0.940617 -0.267363
-420.00000000 17190.00000000 420.00000000 128 223 80 0.000000 0.000000 0.000000 0.000000 -60.708740 0.000000 38.000000 0.371987 0.928037 0.019307
-410.00000000 17180.00000000 450.00000000 128 223 80 0.000000 0.000000 0.000000 0.000000 -60.708740 0.000000 38.000000 0.203252 0.979093 -0.008130
-390.00000000 17180.00000000 410.00000000 128 223 80 0.000000 0.000000 0.000000 0.000000 -60.708740 0.000000 38.000000 0.149994 0.988129 -0.033205
-380.00000000 17180.00000000 380.00000000 128 223 80 0.000000 0.000000 0.000000 0.000000 -60.708740 0.000000 38.000000 0.496736 0.867597 -0.023010
-380.00000000 17180.00000000 380.00000000 128 223 80 0.000000 0.000000 0.000000 0.000000 -60.708740 0.000000 38.000000 0.496736 0.867597 -0.023010
-370.00000000 17170.00000000 390.00000000 128 223 80 0.000000 0.000000 0.000000 0.000000 -60.708740 0.000000 38.000000 0.740692 0.599301 -0.303667
-350.00000000 17160.00000000 380.00000000 128 223 80 0.000000 0.000000 0.000000 0.000000 -60.708740 0.000000 38.000000 0.145167 0.982009 -0.120769
-380.00000000 17180.00000000 360.00000000 128 223 80 0.000000 0.000000 0.000000 0.000000 -60.708740 0.000000 38.000000 0.220538 0.975321 0.010614
-380.00000000 17180.00000000 360.00000000 128 223 80 0.000000 0.000000 0.000000 0.000000 -60.708740 0.000000 38.000000 0.220538 0.975321 0.010614
-360.00000000 17160.00000000 370.00000000 128 223 80 0.000000 0.000000 0.000000 0.000000 -60.708740 0.000000 38.000000 0.119665 0.986943 -0.107817
-350.00000000 17180.00000000 370.00000000 128 223 80 0.000000 0.000000 0.000000 0.000000 -60.708740 0.000000 38.000000 0.107906 0.993398 0.038935
-400.00000000 17200.00000000 370.00000000 128 223 80 0.000000 0.000000 0.000000 0.000000 -60.708740 0.000000 38.000000 0.438113 0.889069 0.132718
-400.00000000 17200.00000000 370.00000000 128 223 80 0.000000 0.000000 0.000000 0.000000 -60.708740 0.000000 38.000000 0.438113 0.889069 0.132718
-400.00000000 17200.00000000 320.00000000 128 223 80 0.000000 0.000000 0.000000 0.000000 -60.708740 0.000000 38.000000 0.756146 0.643244 -0.120330
-410.00000000 17190.00000000 340.00000000 128 223 80 0.000000 0.000000 0.000000 0.000000 -60.708740 0.000000 38.000000 0.238344 0.889720 -0.389345
-390.00000000 17200.00000000 330.00000000 128 223 80 0.000000 0.000000 0.000000 0.000000 -60.708740 0.000000 38.000000 0.313252 0.910615 -0.269542
-390.00000000 17180.00000000 370.00000000 128 223 80 0.000000 0.000000 0.000000 0.000000 -60.708740 0.000000 38.000000 0.299554 0.937313 -0.178076
-390.00000000 17180.00000000 370.00000000 128 223 80 0.000000 0.000000 0.000000 0.000000 -60.708740 0.000000 38.000000 0.299554 0.937313 -0.178076
-390.00000000 17180.00000000 350.00000000 128 223 80 0.000000 0.000000 0.000000 0.000000 -60.708740 0.000000 38.000000 0.189483 0.981867 0.005742
-470.00000000 17210.00000000 480.00000000 128 223 80 0.000000 0.000000 0.000000 0.000000 -60.708740 0.000000 38.000000 0.688048 0.706355 -0.166291
-460.00000000 17200.00000000 480.00000000 128 223 80 0.000000 0.000000 0.000000 0.000000 -60.708740 0.000000 38.000000 0.268878 0.933330 -0.237908
-470.00000000 17210.00000000 480.00000000 128 223 80 0.000000 0.000000 0.000000 0.000000 -60.708740 0.000000 38.000000 0.688048 0.706355 -0.166291
-460.00000000 17220.00000000 450.00000000 128 223 80 0.000000 0.000000 0.000000 0.000000 -60.708740 0.000000 38.000000 0.744836 0.587182 -0.316917
-450.00000000 17210.00000000 410.00000000 128 223 80 0.000000 0.000000 0.000000 0.000000 -60.708740 0.000000 38.000000 0.356516 0.916146 -0.183229
-470.00000000 17210.00000000 420.00000000 128 223 80 0.000000 0.000000 0.000000 0.000000 -60.708740 0.000000 38.000000 0.694928 0.688710 -0.206768
-460.00000000 17190.00000000 420.00000000 128 223 80 0.000000 0.000000 0.000000 0.000000 -60.708740 0.000000 38.000000 0.363112 0.916964 -0.165308
-460.00000000 17210.00000000 420.00000000 128 223 80 0.000000 0.000000 0.000000 0.000000 -60.708740 0.000000 38.000000 0.478174 0.811783 -0.335198
-430.00000000 17200.00000000 430.00000000 128 223 80 0.000000 0.000000 0.000000 0.000000 -60.708740 0.000000 38.000000 0.347210 0.915891 -0.201467
-430.00000000 17190.00000000 410.00000000 128 223 80 0.000000 0.000000 0.000000 0.000000 -60.708740 0.000000 38.000000 0.295240 0.954144 -0.049418
-470.00000000 17210.00000000 420.00000000 128 223 80 0.000000 0.000000 0.000000 0.000000 -60.708740 0.000000 38.000000 0.694928 0.688710 -0.206768
-510.00000000 17220.00000000 460.00000000 128 223 80 0.000000 0.000000 0.000000 0.000000 -60.708740 0.000000 38.000000 0.624846 0.759287 -0.181801
-480.00000000 17190.00000000 470.00000000 128 223 80 0.000000 0.000000 0.000000 0.000000 -60.708740 0.000000 38.000000 0.514379 0.639179 -0.571720
-480.00000000 17220.00000000 480.00000000 128 223 80 0.000000 0.000000 0.000000 0.000000 -60.708740 0.000000 38.000000 0.582790 0.656689 -0.478660
-490.00000000 17190.00000000 430.00000000 128 223 80 0.000000 0.000000 0.000000 0.000000 -60.708740 0.000000 38.000000 0.713271 0.507104 -0.483827
-470.00000000 17190.00000000 400.00000000 128 223 80 0.000000 0.000000 0.000000 0.000000 -60.708740 0.000000 38.000000 0.236118 0.937485 -0.255678
-450.00000000 17190.00000000 350.00000000 128 223 80 0.000000 0.000000 0.000000 0.000000 -60.708740 0.000000 38.000000 0.672543 0.518244 -0.528307
-450.00000000 17190.00000000 350.00000000 128 223 80 0.000000 0.000000 0.000000 0.000000 -60.708740 0.000000 38.000000 0.672543 0.518244 -0.528307
-470.00000000 17180.00000000 390.00000000 128 223 80 0.000000 0.000000 0.000000 0.000000 -60.708740 0.000000 38.000000 0.804274 0.552073 -0.219907
-430.00000000 17180.00000000 390.00000000 128 223 80 0.000000 0.000000 0.000000 0.000000 -60.708740 0.000000 38.000000 0.539055 0.742225 -0.398147
-470.00000000 17180.00000000 390.00000000 128 223 80 0.000000 0.000000 0.000000 0.000000 -60.708740 0.000000 38.000000 0.804274 0.552073 -0.219907
-470.00000000 17170.00000000 380.00000000 128 223 80 0.000000 0.000000 0.000000 0.000000 -60.708740 0.000000 38.000000 0.365794 0.929564 0.045888
-500.00000000 17200.00000000 400.00000000 128 223 80 0.000000 0.000000 0.000000 0.000000 -60.708740 0.000000 38.000000 0.391478 0.797455 -0.459141
-490.00000000 17210.00000000 360.00000000 128 223 80 0.000000 0.000000 0.000000 0.000000 -60.708740 0.000000 38.000000 0.643626 0.643626 -0.414116
-480.00000000 17210.00000000 390.00000000 128 223 80 0.000000 0.000000 0.000000 0.000000 -60.708740 0.000000 38.000000 0.789947 0.595820 -0.144849
-480.00000000 17190.00000000 340.00000000 128 223 80 0.000000 0.000000 0.000000 0.000000 -60.708740 0.000000 38.000000 0.512508 0.849341 -0.126312
-500.00000000 17200.00000000 340.00000000 128 223 80 0.000000 0.000000 0.000000 0.000000 -60.708740 0.000000 38.000000 0.398069 0.905216 -0.148744
-480.00000000 17180.00000000 380.00000000 128 223 80 0.000000 0.000000 0.000000 0.000000 -60.708740 0.000000 38.000000 0.578001 0.713033 -0.396861
-680.00000000 17320.00000000 380.00000000 128 223 80 0.000000 0.000000 0.000000 0.000000 -60.708740 0.000000 38.000000 0.902627 0.308755 -0.299891
-570.00000000 17240.00000000 580.00000000 128 223 80 0.000000 0.000000 0.000000 0.000000 -60.708740 0.000000 38.000000 0.731679 0.676182 0.086166
-590.00000000 17250.00000000 520.00000000 128 223 80 0.000000 0.000000 0.000000 0.000000 -60.708740 0.000000 38.000000 0.863929 0.429687 -0.262671
-590.00000000 17250.00000000 520.00000000 128 223 80 0.000000 0.000000 0.000000 0.000000 -60.708740 0.000000 38.000000 0.863929 0.429687 -0.262671
-520.00000000 17230.00000000 630.00000000 128 223 80 0.000000 0.000000 0.000000 0.000000 -60.708740 0.000000 38.000000 0.465342 0.853380 -0.234945
-540.00000000 17210.00000000 620.00000000 128 223 80 0.000000 0.000000 0.000000 0.000000 -60.708740 0.000000 38.000000 0.670636 0.610728 -0.421020
-540.00000000 17220.00000000 620.00000000 128 223 80 0.000000 0.000000 0.000000 0.000000 -60.708740 0.000000 38.000000 0.596264 0.669753 -0.442605
-550.00000000 17220.00000000 650.00000000 128 223 80 0.000000 0.000000 0.000000 0.000000 -60.708740 0.000000 38.000000 0.598117 0.776476 -0.198347
-550.00000000 17210.00000000 570.00000000 128 223 80 0.000000 0.000000 0.000000 0.000000 -60.708740 0.000000 38.000000 0.665855 0.743514 -0.061840
-560.00000000 17210.00000000 590.00000000 128 223 80 0.000000 0.000000 0.000000 0.000000 -60.708740 0.000000 38.000000 0.727354 0.684653 0.046972
-560.00000000 17220.00000000 600.00000000 128 223 80 0.000000 0.000000 0.000000 0.000000 -60.708740 0.000000 38.000000 0.888925 0.376714 -0.260573
-570.00000000 17220.00000000 590.00000000 128 223 80 0.000000 0.000000 0.000000 0.000000 -60.708740 0.000000 38.000000 0.488051 0.824854 -0.285346
-540.00000000 17200.00000000 510.00000000 128 223 80 0.000000 0.000000 0.000000 0.000000 -60.708740 0.000000 38.000000 0.742891 0.660184 -0.110769
-520.00000000 17220.00000000 510.00000000 128 223 80 0.000000 0.000000 0.000000 0.000000 -60.708740 0.000000 38.000000 0.581417 0.697369 -0.419084
-560.00000000 17210.00000000 500.00000000 128 223 80 0.000000 0.000000 0.000000 0.000000 -60.708740 0.000000 38.000000 0.620294 0.758822 -0.198556
-580.00000000 17230.00000000 520.00000000 128 223 80 0.000000 0.000000 0.000000 0.000000 -60.708740 0.000000 38.000000 0.704485 0.605955 -0.369485
-630.00000000 17280.00000000 490.00000000 128 223 80 0.000000 0.000000 0.000000 0.000000 -60.708740 0.000000 38.000000 0.627304 0.689543 -0.361969
-620.00000000 17250.00000000 560.00000000 128 223 80 0.000000 0.000000 0.000000 0.000000 -60.708740 0.000000 38.000000 0.832817 0.546133 0.090305
-610.00000000 17270.00000000 510.00000000 128 223 80 0.000000 0.000000 0.000000 0.000000 -60.708740 0.000000 38.000000 0.900703 0.340528 -0.269769
-610.00000000 17270.00000000 500.00000000 128 223 80 0.000000 0.000000 0.000000 0.000000 -60.708740 0.000000 38.000000 0.806343 0.591318 0.012405
-620.00000000 17260.00000000 500.00000000 128 223 80 0.000000 0.000000 0.000000 0.000000 -60.708740 0.000000 38.000000 0.950696 0.286928 -0.117680
-670.00000000 17300.00000000 490.00000000 128 223 80 0.000000 0.000000 0.000000 0.000000 -60.708740 0.000000 38.000000 0.937808 0.310777 -0.154704
-670.00000000 17310.00000000 490.00000000 128 223 80 0.000000 0.000000 0.000000 0.000000 -60.708740 0.000000 38.000000 0.943523 0.119111 -0.309154
-580.00000000 17240.00000000 480.00000000 128 223 80 0.000000 0.000000 0.000000 0.000000 -60.708740 0.000000 38.000000 0.485539 0.807109 -0.335897
-580.00000000 17240.00000000 420.00000000 128 223 80 0.000000 0.000000 0.000000 0.000000 -60.708740 0.000000 38.000000 0.795960 0.600914 0.073142
-530.00000000 17240.00000000 440.00000000 128 223 80 0.000000 0.000000 0.000000 0.000000 -60.708740 0.000000 38.000000 0.743182 0.459751 -0.486117
-540.00000000 17240.00000000 340.00000000 128 223 80 0.000000 0.000000 0.000000 0.000000 -60.708740 0.000000 38.000000 0.630224 0.776403 0.004137
-590.00000000 17250.00000000 360.00000000 128 223 80 0.000000 0.000000 0.000000 0.000000 -60.708740 0.000000 38.000000 0.755907 0.630686 0.175615
-580.00000000 17240.00000000 350.00000000 128 223 80 0.000000 0.000000 0.000000 0.000000 -60.708740 0.000000 38.000000 0.610706 0.743951 -0.271249
-540.00000000 17210.00000000 430.00000000 128 223 80 0.000000 0.000000 0.000000 0.000000 -60.708740 0.000000 38.000000 0.623740 0.760994 -0.178429
-520.00000000 17230.00000000 440.00000000 128 223 80 0.000000 0.000000 0.000000 0.000000 -60.708740 0.000000 38.000000 0.604044 0.792355 -0.085464
-560.00000000 17230.00000000 450.00000000 128 223 80 0.000000 0.000000 0.000000 0.000000 -60.708740 0.000000 38.000000 0.552846 0.657030 -0.512517
-560.00000000 17220.00000000 480.00000000 128 223 80 0.000000 0.000000 0.000000 0.000000 -60.708740 0.000000 38.000000 0.725139 0.512741 -0.459642
-570.00000000 17230.00000000 440.00000000 128 223 80 0.000000 0.000000 0.000000 0.000000 -60.708740 0.000000 38.000000 0.467013 0.843089 -0.266644
-550.00000000 17210.00000000 390.00000000 128 223 80 0.000000 0.000000 0.000000 0.000000 -60.708740 0.000000 38.000000 0.544033 0.766813 -0.340626
-530.00000000 17200.00000000 360.00000000 128 223 80 0.000000 0.000000 0.000000 0.000000 -60.708740 0.000000 38.000000 0.580357 0.811359 0.069871
-530.00000000 17200.00000000 360.00000000 128 223 80 0.000000 0.000000 0.000000 0.000000 -60.708740 0.000000 38.000000 0.580357 0.811359 0.069871
-530.00000000 17230.00000000 400.00000000 128 223 80 0.000000 0.000000 0.000000 0.000000 -60.708740 0.000000 38.000000 0.728797 0.551122 -0.406349
-530.00000000 17190.00000000 320.00000000 128 223 80 0.000000 0.000000 0.000000 0.000000 -60.708740 0.000000 38.000000 0.760760 0.485905 -0.430279
-540.00000000 17200.00000000 320.00000000 128 223 80 0.000000 0.000000 0.000000 0.000000 -60.708740 0.000000 38.000000 0.837828 0.488605 -0.243537
-570.00000000 17230.00000000 380.00000000 128 223 80 0.000000 0.000000 0.000000 0.000000 -60.708740 0.000000 38.000000 0.828843 0.479199 -0.288768
-560.00000000 17230.00000000 400.00000000 128 223 80 0.000000 0.000000 0.000000 0.000000 -60.708740 0.000000 38.000000 0.729632 0.673163 -0.120367
-580.00000000 17230.00000000 350.00000000 128 223 80 0.000000 0.000000 0.000000 0.000000 -60.708740 0.000000 38.000000 0.664983 0.728894 -0.162822
-620.00000000 17260.00000000 470.00000000 128 223 80 0.000000 0.000000 0.000000 0.000000 -60.708740 0.000000 38.000000 0.829283 0.380680 -0.409113
-600.00000000 17240.00000000 450.00000000 128 223 80 0.000000 0.000000 0.000000 0.000000 -60.708740 0.000000 38.000000 0.811384 0.583919 -0.026353
-610.00000000 17250.00000000 480.00000000 128 223 80 0.000000 0.000000 0.000000 0.000000 -60.708740 0.000000 38.000000 0.836368 0.303709 -0.456343
-610.00000000 17240.00000000 430.00000000 128 223 80 0.000000 0.000000 0.000000 0.000000 -60.708740 0.000000 38.000000 0.876747 0.455094 -0.155575
-620.00000000 17260.00000000 410.00000000 128 223 80 0.000000 0.000000 0.000000 0.000000 -60.708740 0.000000 38.000000 0.965363 0.255354 -0.053562
-670.00000000 17300.00000000 480.00000000 128 223 80 0.000000 0.000000 0.000000 0.000000 -60.708740 0.000000 38.000000 0.932937 0.355592 -0.056422
-670.00000000 17280.00000000 440.00000000 128 223 80 0.000000 0.000000 0.000000 0.000000 -60.708740 0.000000 38.000000 0.728346 0.584958 -0.356841
-660.00000000 17290.00000000 440.00000000 128 223 80 0.000000 0.000000 0.000000 0.000000 -60.708740 0.000000 38.000000 0.940921 0.335951 -0.042477
-620.00000000 17270.00000000 360.00000000 128 223 80 0.000000 0.000000 0.000000 0.000000 -60.708740 0.000000 38.000000 0.624991 0.493591 -0.604776
-600.00000000 17250.00000000 390.00000000 128 223 80 0.000000 0.000000 0.000000 0.000000 -60.708740 0.000000 38.000000 0.802346 0.551903 -0.227254
-620.00000000 17270.00000000 360.00000000 128 223 80 0.000000 0.000000 0.000000 0.000000 -60.708740 0.000000 38.000000 0.624991 0.493591 -0.604776
-620.00000000 17240.00000000 400.00000000 128 223 80 0.000000 0.000000 0.000000 0.000000 -60.708740 0.000000 38.000000 0.806312 0.591296 -0.015161
-600.00000000 17250.00000000 390.00000000 128 223 80 0.000000 0.000000 0.000000 0.000000 -60.708740 0.000000 38.000000 0.802346 0.551903 -0.227254
-610.00000000 17250.00000000 340.00000000 128 223 80 0.000000 0.000000 0.000000 0.000000 -60.708740 0.000000 38.000000 0.877216 0.440819 -0.190186
-610.00000000 17250.00000000 350.00000000 128 223 80 0.000000 0.000000 0.000000 0.000000 -60.708740 0.000000 38.000000 0.674836 0.681248 -0.283720
-610.00000000 17250.00000000 320.00000000 128 223 80 0.000000 0.000000 0.000000 0.000000 -60.708740 0.000000 38.000000 0.875887 0.476360 -0.076832
-650.00000000 17280.00000000 350.00000000 128 223 80 0.000000 0.000000 0.000000 0.000000 -60.708740 0.000000 38.000000 0.851778 0.516186 0.089586
-600.00000000 17220.00000000 440.00000000 128 223 80 0.000000 0.000000 0.000000 0.000000 -60.708740 0.000000 38.000000 0.844710 0.524153 -0.108296
-350.00000000 17190.00000000 310.00000000 128 223 80 0.000000 0.000000 0.000000 0.000000 -60.708740 0.000000 38.000000 0.253479 0.860615 -0.441691
-380.00000000 17200.00000000 240.00000000 128 223 80 0.000000 0.000000 0.000000 0.000000 -60.708740 0.000000 38.000000 0.304620 0.916747 -0.258422
-350.00000000 17170.00000000 290.00000000 128 223 80 0.000000 0.000000 0.000000 0.000000 -60.708740 0.000000 38.000000 0.573173 0.819406 0.006840
-350.00000000 17170.00000000 280.00000000 128 223 80 0.000000 0.000000 0.000000 0.000000 -60.708740 0.000000 38.000000 0.335845 0.934111 -0.121013
-350.00000000 17180.00000000 290.00000000 128 223 80 0.000000 0.000000 0.000000 0.000000 -60.708740 0.000000 38.000000 0.422691 0.903824 -0.066598
-360.00000000 17180.00000000 250.00000000 128 223 80 0.000000 0.000000 0.000000 0.000000 -60.708740 0.000000 38.000000 0.473112 0.880921 -0.011994
-360.00000000 17170.00000000 240.00000000 128 223 80 0.000000 0.000000 0.000000 0.000000 -60.708740 0.000000 38.000000 0.572652 0.711276 -0.407622
-380.00000000 17180.00000000 270.00000000 128 223 80 0.000000 0.000000 0.000000 0.000000 -60.708740 0.000000 38.000000 0.601134 0.788154 -0.132101
-370.00000000 17170.00000000 270.00000000 128 223 80 0.000000 0.000000 0.000000 0.000000 -60.708740 0.000000 38.000000 0.220032 0.975435 0.010590
-380.00000000 17180.00000000 240.00000000 128 223 80 0.000000 0.000000 0.000000 0.000000 -60.708740 0.000000 38.000000 0.308188 0.894786 -0.323076
-400.00000000 17190.00000000 280.00000000 128 223 80 0.000000 0.000000 0.000000 0.000000 -60.708740 0.000000 38.000000 0.099240 0.971042 -0.217322
-390.00000000 17190.00000000 280.00000000 128 223 80 0.000000 0.000000 0.000000 0.000000 -60.708740 0.000000 38.000000 0.207235 0.978290 0.001158
-410.00000000 17210.00000000 290.00000000 128 223 80 0.000000 0.000000 0.000000 0.000000 -60.708740 0.000000 38.000000 0.153122 0.968918 -0.194298
-350.00000000 17200.00000000 230.00000000 128 223 80 0.000000 0.000000 0.000000 0.000000 -60.708740 0.000000 38.000000 0.036378 0.982208 -0.184237
-370.00000000 17200.00000000 180.00000000 128 223 80 0.000000 0.000000 0.000000 0.000000 -60.708740 0.000000 38.000000 0.465946 0.875978 -0.124730
-350.00000000 17200.00000000 160.00000000 128 223 80 0.000000 0.000000 0.000000 0.000000 -60.708740 0.000000 38.000000 0.118525 0.959919 -0.253981
-350.00000000 17180.00000000 210.00000000 128 223 80 0.000000 0.000000 0.000000 0.000000 -60.708740 0.000000 38.000000 0.176993 0.975347 -0.131804
-360.00000000 17180.00000000 190.00000000 128 223 80 0.000000 0.000000 0.000000 0.000000 -60.708740 0.000000 38.000000 0.550651 0.760577 -0.343955
-360.00000000 17170.00000000 160.00000000 128 223 80 0.000000 0.000000 0.000000 0.000000 -60.708740 0.000000 38.000000 0.365934 0.868135 -0.335312
-370.00000000 17180.00000000 180.00000000 128 223 80 0.000000 0.000000 0.000000 0.000000 -60.708740 0.000000 38.000000 0.511395 0.823486 -0.245655
-410.00000000 17190.00000000 220.00000000 128 223 80 0.000000 0.000000 0.000000 0.000000 -60.708740 0.000000 38.000000 0.181323 0.972553 -0.145819
-400.00000000 17210.00000000 220.00000000 128 223 80 0.000000 0.000000 0.000000 0.000000 -60.708740 0.000000 38.000000 0.396395 0.918036 0.009038
-410.00000000 17200.00000000 180.00000000 128 223 80 0.000000 0.000000 0.000000 0.000000 -60.708740 0.000000 38.000000 0.436447 0.896301 -0.078478
-410.00000000 17200.00000000 180.00000000 128 223 80 0.000000 0.000000 0.000000 0.000000 -60.708740 0.000000 38.000000 0.436447 0.896301 -0.078478
-410.00000000 17200.00000000 170.00000000 128 223 80 0.000000 0.000000 0.000000 0.000000 -60.708740 0.000000 38.000000 0.578659 0.815569 -0.001362
-420.00000000 17180.00000000 180.00000000 128 223 80 0.000000 0.000000 0.000000 0.000000 -60.708740 0.000000 38.000000 0.249425 0.819539 -0.515891
-470.00000000 17210.00000000 290.00000000 128 223 80 0.000000 0.000000 0.000000 0.000000 -60.708740 0.000000 38.000000 0.719404 0.673582 -0.169541
-450.00000000 17200.00000000 290.00000000 128 223 80 0.000000 0.000000 0.000000 0.000000 -60.708740 0.000000 38.000000 0.646975 0.692377 -0.319434
-470.00000000 17210.00000000 290.00000000 128 223 80 0.000000 0.000000 0.000000 0.000000 -60.708740 0.000000 38.000000 0.719404 0.673582 -0.169541
-470.00000000 17200.00000000 270.00000000 128 223 80 0.000000 0.000000 0.000000 0.000000 -60.708740 0.000000 38.000000 0.444379 0.813898 -0.374297
-480.00000000 17200.00000000 260.00000000 128 223 80 0.000000 0.000000 0.000000 0.000000 -60.708740 0.000000 38.000000 0.378184 0.923412 -0.065481
-470.00000000 17200.00000000 210.00000000 128 223 80 0.000000 0.000000 0.000000 0.000000 -60.708740 0.000000 38.000000 0.434043 0.900868 0.006557
-470.00000000 17190.00000000 210.00000000 128 223 80 0.000000 0.000000 0.000000 0.000000 -60.708740 0.000000 38.000000 0.626286 0.582396 -0.518248
-440.00000000 17200.00000000 190.00000000 128 223 80 0.000000 0.000000 0.000000 0.000000 -60.708740 0.000000 38.000000 0.226772 0.931031 -0.285929
-430.00000000 17200.00000000 180.00000000 128 223 80 0.000000 0.000000 0.000000 0.000000 -60.708740 0.000000 38.000000 -0.354854 -0.711344 0.606686
-450.00000000 17180.00000000 230.00000000 128 223 80 0.000000 0.000000 0.000000 0.000000 -60.708740 0.000000 38.000000 0.434578 0.899910 0.036103
-440.00000000 17180.00000000 230.00000000 128 223 80 0.000000 0.000000 0.000000 0.000000 -60.708740 0.000000 38.000000 0.555013 0.831841 -0.001357
-490.00000000 17210.00000000 170.00000000 128 223 80 0.000000 0.000000 0.000000 0.000000 -60.708740 0.000000 38.000000 0.492365 0.706002 -0.509056
-500.00000000 17200.00000000 150.00000000 128 223 80 0.000000 0.000000 0.000000 0.000000 -60.708740 0.000000 38.000000 0.599103 0.798330 -0.061191
-480.00000000 17190.00000000 170.00000000 128 223 80 0.000000 0.000000 0.000000 0.000000 -60.708740 0.000000 38.000000 0.629050 0.764169 0.142625
-480.00000000 17200.00000000 170.00000000 128 223 80 0.000000 0.000000 0.000000 0.000000 -60.708740 0.000000 38.000000 0.686062 0.723773 -0.073973
-490.00000000 17200.00000000 170.00000000 128 223 80 0.000000 0.000000 0.000000 0.000000 -60.708740 0.000000 38.000000 0.662254 0.745937 -0.070698
-360.00000000 17190.00000000 110.00000000 128 223 80 0.000000 0.000000 0.000000 0.000000 -60.708740 0.000000 38.000000 0.192047 0.960236 -0.202643
-370.00000000 17200.00000000 70.00000000 128 223 80 0.000000 0.000000 0.000000 0.000000 -60.708740 0.000000 38.000000 0.570488 0.641168 -0.513271
-350.00000000 17200.00000000 90.00000000 128 223 80 0.000000 0.000000 0.000000 0.000000 -60.708740 0.000000 38.000000 0.486486 0.718937 -0.496448
-360.00000000 17200.00000000 90.00000000 128 223 80 0.000000 0.000000 0.000000 0.000000 -60.708740 0.000000 38.000000 0.311017 0.809907 -0.497311
-370.00000000 17170.00000000 90.00000000 128 223 80 0.000000 0.000000 0.000000 0.000000 -60.708740 0.000000 38.000000 0.643203 0.733532 -0.219592
-380.00000000 17180.00000000 80.00000000 128 223 80 0.000000 0.000000 0.000000 0.000000 -60.708740 0.000000 38.000000 0.343901 0.905851 -0.247316
-370.00000000 17180.00000000 90.00000000 128 223 80 0.000000 0.000000 0.000000 0.000000 -60.708740 0.000000 38.000000 0.694959 0.717698 -0.044057
-390.00000000 17190.00000000 130.00000000 128 223 80 0.000000 0.000000 0.000000 0.000000 -60.708740 0.000000 38.000000 0.175387 0.961334 -0.212311
-400.00000000 17190.00000000 70.00000000 128 223 80 0.000000 0.000000 0.000000 0.000000 -60.708740 0.000000 38.000000 0.529529 0.844691 -0.078081
-400.00000000 17180.00000000 110.00000000 128 223 80 0.000000 0.000000 0.000000 0.000000 -60.708740 0.000000 38.000000 0.196938 0.979973 -0.029482
-380.00000000 17190.00000000 0.00000000 128 223 80 0.000000 0.000000 0.000000 0.000000 -60.708740 0.000000 38.000000 0.190219 0.981436 -0.024507
-350.00000000 17190.00000000 -10.00000000 128 223 80 0.000000 0.000000 0.000000 0.000000 -60.708740 0.000000 38.000000 -0.035084 0.990268 -0.134677
-370.00000000 17180.00000000 30.00000000 128 223 80 0.000000 0.000000 0.000000 0.000000 -60.708740 0.000000 38.000000 0.401476 0.903675 0.148957
-370.00000000 17180.00000000 30.00000000 128 223 80 0.000000 0.000000 0.000000 0.000000 -60.708740 0.000000 38.000000 0.401476 0.903675 0.148957
-380.00000000 17180.00000000 60.00000000 128 223 80 0.000000 0.000000 0.000000 0.000000 -60.708740 0.000000 38.000000 0.225095 0.965980 -0.127340
-360.00000000 17180.00000000 -10.00000000 128 223 80 0.000000 0.000000 0.000000 0.000000 -60.708740 0.000000 38.000000 0.239835 0.935497 -0.259471
-360.00000000 17170.00000000 20.00000000 128 223 80 0.000000 0.000000 0.000000 0.000000 -60.708740 0.000000 38.000000 0.238795 0.931160 -0.275533
-380.00000000 17180.00000000 20.00000000 128 223 80 0.000000 0.000000 0.000000 0.000000 -60.708740 0.000000 38.000000 0.130464 0.955415 -0.264881
-370.00000000 17180.00000000 -10.00000000 128 223 80 0.000000 0.000000 0.000000 0.000000 -60.708740 0.000000 38.000000 0.354900 0.908254 -0.221631
-410.00000000 17190.00000000 50.00000000 128 223 80 0.000000 0.000000 0.000000 0.000000 -60.708740 0.000000 38.000000 0.308263 0.948201 0.076741
-410.00000000 17180.00000000 50.00000000 128 223 80 0.000000 0.000000 0.000000 0.000000 -60.708740 0.000000 38.000000 0.191150 0.979792 -0.058908
-400.00000000 17180.00000000 20.00000000 128 223 80 0.000000 0.000000 0.000000 0.000000 -60.708740 0.000000 38.000000 0.058032 0.947855 -0.313373
-470.00000000 17190.00000000 110.00000000 128 223 80 0.000000 0.000000 0.000000 0.000000 -60.708740 0.000000 38.000000 0.562403 0.826246 0.031939
-430.00000000 17190.00000000 80.00000000 128 223 80 0.000000 0.000000 0.000000 0.000000 -60.708740 0.000000 38.000000 0.405281 0.875347 -0.263659
-430.00000000 17180.00000000 110.00000000 128 223 80 0.000000 0.000000 0.000000 0.000000 -60.708740 0.000000 38.000000 0.233866 0.970972 -0.050202
-440.00000000 17180.00000000 140.00000000 128 223 80 0.000000 0.000000 0.000000 0.000000 -60.708740 0.000000 38.000000 0.715853 0.695769 0.058818
-460.00000000 17180.00000000 120.00000000 128 223 80 0.000000 0.000000 0.000000 0.000000 -60.708740 0.000000 38.000000 0.298470 0.898379 -0.322228
-430.00000000 17180.00000000 70.00000000 128 223 80 0.000000 0.000000 0.000000 0.000000 -60.708740 0.000000 38.000000 0.185895 0.956222 -0.226016
-450.00000000 17170.00000000 90.00000000 128 223 80 0.000000 0.000000 0.000000 0.000000 -60.708740 0.000000 38.000000 0.420145 0.871914 -0.251485
-440.00000000 17170.00000000 100.00000000 128 223 80 0.000000 0.000000 0.000000 0.000000 -60.708740 0.000000 38.000000 0.157774 0.947991 -0.276441
-480.00000000 17190.00000000 140.00000000 128 223 80 0.000000 0.000000 0.000000 0.000000 -60.708740 0.000000 38.000000 0.484077 0.871896 -0.073937
-480.00000000 17190.00000000 90.00000000 128 223 80 0.000000 0.000000 0.000000 0.000000 -60.708740 0.000000 38.000000 0.787895 0.519403 -0.330820
-500.00000000 17200.00000000 80.00000000 128 223 80 0.000000 0.000000 0.000000 0.000000 -60.708740 0.000000 38.000000 0.455479 0.877700 -0.148934
-430.00000000 17190.00000000 30.00000000 128 223 80 0.000000 0.000000 0.000000 0.000000 -60.708740 0.000000 38.000000 0.797093 0.503175 -0.333853
-460.00000000 17170.00000000 30.00000000 128 223 80 0.000000 0.000000 0.000000 0.000000 -60.708740 0.000000 38.000000 0.336569 0.938433 0.077873
-460.00000000 17180.00000000 60.00000000 128 223 80 0.000000 0.000000 0.000000 0.000000 -60.708740 0.000000 38.000000 0.590642 0.803331 -0.076166
-450.00000000 17180.00000000 10.00000000 128 223 80 0.000000 0.000000 0.000000 0.000000 -60.708740 0.000000 38.000000 0.449707 0.851833 -0.268596
-490.00000000 17210.00000000 30.00000000 128 223 80 0.000000 0.000000 0.000000 0.000000 -60.708740 0.000000 38.000000 0.567361 0.822323 -0.043428
-500.00000000 17210.00000000 60.00000000 128 223 80 0.000000 0.000000 0.000000 0.000000 -60.708740 0.000000 38.000000 0.360739 0.844848 -0.395095
-480.00000000 17210.00000000 10.00000000 128 223 80 0.000000 0.000000 0.000000 0.000000 -60.708740 0.000000 38.000000 0.695950 0.707872 0.120711
-510.00000000 17190.00000000 10.00000000 128 223 80 0.000000 0.000000 0.000000 0.000000 -60.708740 0.000000 38.000000 0.419657 0.868099 -0.265126
-480.00000000 17200.00000000 10.00000000 128 223 80 0.000000 0.000000 0.000000 0.000000 -60.708740 0.000000 38.000000 0.717477 0.694564 0.052987
-620.00000000 17320.00000000 220.00000000 128 223 80 0.000000 0.000000 0.000000 0.000000 -60.708740 0.000000 38.000000 0.898571 0.285707 -0.333078
-680.00000000 17320.00000000 160.00000000 128 223 80 0.000000 0.000000 0.000000 0.000000 -60.708740 0.000000 38.000000 0.810313 0.534528 -0.240150
-570.00000000 17240.00000000 290.00000000 128 223 80 0.000000 0.000000 0.000000 0.000000 -60.708740 0.000000 38.000000 0.543011 0.776874 -0.318758
-590.00000000 17260.00000000 290.00000000 128 223 80 0.000000 0.000000 0.000000 0.000000 -60.708740 0.000000 38.000000 0.819179 0.527164 -0.225928
-570.00000000 17240.00000000 250.00000000 128 223 80 0.000000 0.000000 0.000000 0.000000 -60.708740 0.000000 38.000000 0.646203 0.707135 -0.287023
-570.00000000 17240.00000000 250.00000000 128 223 80 0.000000 0.000000 0.000000 0.000000 -60.708740 0.000000 38.000000 0.646203 0.707135 -0.287023
-530.00000000 17260.00000000 160.00000000 128 223 80 0.000000 0.000000 0.000000 0.000000 -60.708740 0.000000 38.000000 0.668937 0.742478 -0.035356
-550.00000000 17250.00000000 170.00000000 128 223 80 0.000000 0.000000 0.000000 0.000000 -60.708740 0.000000 38.000000 0.918171 0.391593 0.060142
-580.00000000 17240.00000000 180.00000000 128 223 80 0.000000 0.000000 0.000000 0.000000 -60.708740 0.000000 38.000000 0.749132 0.631743 -0.199254
-580.00000000 17240.00000000 180.00000000 128 223 80 0.000000 0.000000 0.000000 0.000000 -60.708740 0.000000 38.000000 0.749132 0.631743 -0.199254
-520.00000000 17210.00000000 280.00000000 128 223 80 0.000000 0.000000 0.000000 0.000000 -60.708740 0.000000 38.000000 0.674763 0.735189 -0.064743
-550.00000000 17210.00000000 310.00000000 128 223 80 0.000000 0.000000 0.000000 0.000000 -60.708740 0.000000 38.000000 0.688542 0.588994 -0.423080
-520.00000000 17200.00000000 280.00000000 128 223 80 0.000000 0.000000 0.000000 0.000000 -60.708740 0.000000 38.000000 0.555041 0.805804 -0.206420
-550.00000000 17200.00000000 300.00000000 128 223 80 0.000000 0.000000 0.000000 0.000000 -60.708740 0.000000 38.000000 0.780467 0.555667 -0.286541
-550.00000000 17210.00000000 310.00000000 128 223 80 0.000000 0.000000 0.000000 0.000000 -60.708740 0.000000 38.000000 0.688542 0.588994 -0.423080
-550.00000000 17230.00000000 300.00000000 128 223 80 0.000000 0.000000 0.000000 0.000000 -60.708740 0.000000 38.000000 0.557106 0.677562 -0.480149
-520.00000000 17220.00000000 290.00000000 128 223 80 0.000000 0.000000 0.000000 0.000000 -60.708740 0.000000 38.000000 0.390822 0.848598 -0.356567
-550.00000000 17230.00000000 250.00000000 128 223 80 0.000000 0.000000 0.000000 0.000000 -60.708740 0.000000 38.000000 0.574853 0.804794 -0.147819
-520.00000000 17210.00000000 270.00000000 128 223 80 0.000000 0.000000 0.000000 0.000000 -60.708740 0.000000 38.000000 0.859998 0.507107 0.056963
-520.00000000 17210.00000000 240.00000000 128 223 80 0.000000 0.000000 0.000000 0.000000 -60.708740 0.000000 38.000000 0.736285 0.672638 0.073773
-560.00000000 17230.00000000 260.00000000 128 223 80 0.000000 0.000000 0.000000 0.000000 -60.708740 0.000000 38.000000 0.870237 0.491636 -0.031323
-550.00000000 17210.00000000 210.00000000 128 223 80 0.000000 0.000000 0.000000 0.000000 -60.708740 0.000000 38.000000 0.666515 0.739758 0.092287
-530.00000000 17210.00000000 170.00000000 128 223 80 0.000000 0.000000 0.000000 0.000000 -60.708740 0.000000 38.000000 0.477986 0.757222 -0.445135
-530.00000000 17210.00000000 180.00000000 128 223 80 0.000000 0.000000 0.000000 0.000000 -60.708740 0.000000 38.000000 0.372487 0.882206 -0.288037
-520.00000000 17180.00000000 170.00000000 128 223 80 0.000000 0.000000 0.000000 0.000000 -60.708740 0.000000 38.000000 0.769872 0.634605 -0.067634
-570.00000000 17230.00000000 170.00000000 128 223 80 0.000000 0.000000 0.000000 0.000000 -60.708740 0.000000 38.000000 0.651398 0.729131 -0.209878
-560.00000000 17210.00000000 180.00000000 128 223 80 0.000000 0.000000 0.000000 0.000000 -60.708740 0.000000 38.000000 0.486157 0.846609 -0.216574
-570.00000000 17230.00000000 170.00000000 128 223 80 0.000000 0.000000 0.000000 0.000000 -60.708740 0.000000 38.000000 0.651398 0.729131 -0.209878
-560.00000000 17210.00000000 150.00000000 128 223 80 0.000000 0.000000 0.000000 0.000000 -60.708740 0.000000 38.000000 0.639284 0.665714 -0.384892
-630.00000000 17270.00000000 300.00000000 128 223 80 0.000000 0.000000 0.000000 0.000000 -60.708740 0.000000 38.000000 0.717354 0.572234 -0.397431
-630.00000000 17260.00000000 310.00000000 128 223 80 0.000000 0.000000 0.000000 0.000000 -60.708740 0.000000 38.000000 0.800514 0.597924 0.040799
-630.00000000 17260.00000000 310.00000000 128 223 80 0.000000 0.000000 0.000000 0.000000 -60.708740 0.000000 38.000000 0.800514 0.597924 0.040799
-640.00000000 17270.00000000 290.00000000 128 223 80 0.000000 0.000000 0.000000 0.000000 -60.708740 0.000000 38.000000 0.947069 0.318246 -0.042177
-660.00000000 17270.00000000 260.00000000 128 223 80 0.000000 0.000000 0.000000 0.000000 -60.708740 0.000000 38.000000 0.737039 0.440245 -0.512794
-610.00000000 17270.00000000 210.00000000 128 223 80 0.000000 0.000000 0.000000 0.000000 -60.708740 0.000000 38.000000 0.801027 0.570864 -0.180193
-620.00000000 17250.00000000 220.00000000 128 223 80 0.000000 0.000000 0.000000 0.000000 -60.708740 0.000000 38.000000 0.875870 0.468555 -0.115359
-610.00000000 17240.00000000 230.00000000 128 223 80 0.000000 0.000000 0.000000 0.000000 -60.708740 0.000000 38.000000 0.870041 0.487391 -0.074016
-630.00000000 17260.00000000 150.00000000 128 223 80 0.000000 0.000000 0.000000 0.000000 -60.708740 0.000000 38.000000 0.594911 0.615135 -0.517387
-650.00000000 17280.00000000 200.00000000 128 223 80 0.000000 0.000000 0.000000 0.000000 -60.708740 0.000000 38.000000 0.707673 0.660178 -0.251723
-680.00000000 17300.00000000 220.00000000 128 223 80 0.000000 0.000000 0.000000 0.000000 -60.708740 0.000000 38.000000 0.766925 0.350363 -0.537654
-680.00000000 17300.00000000 210.00000000 128 223 80 0.000000 0.000000 0.000000 0.000000 -60.708740 0.000000 38.000000 0.846060 0.490141 -0.209630
-670.00000000 17310.00000000 160.00000000 128 223 80 0.000000 0.000000 0.000000 0.000000 -60.708740 0.000000 38.000000 0.871607 0.355665 -0.337347
-680.00000000 17280.00000000 190.00000000 128 223 80 0.000000 0.000000 0.000000 0.000000 -60.708740 0.000000 38.000000 0.632866 0.704084 -0.322098
-650.00000000 17280.00000000 150.00000000 128 223 80 0.000000 0.000000 0.000000 0.000000 -60.708740 0.000000 38.000000 0.769707 0.606855 -0.198188
-650.00000000 17280.00000000 190.00000000 128 223 80 0.000000 0.000000 0.000000 0.000000 -60.708740 0.000000 38.000000 0.762584 0.630222 -0.145899
-590.00000000 17240.00000000 130.00000000 128 223 80 0.000000 0.000000 0.000000 0.000000 -60.708740 0.000000 38.000000 0.679785 0.698537 -0.223469
-590.00000000 17240.00000000 120.00000000 128 223 80 0.000000 0.000000 0.000000 0.000000 -60.708740 0.000000 38.000000 0.830510 0.505061 -0.234876
-590.00000000 17250.00000000 120.00000000 128 223 80 0.000000 0.000000 0.000000 0.000000 -60.708740 0.000000 38.000000 0.661209 0.733836 -0.155846
-570.00000000 17240.00000000 100.00000000 128 223 80 0.000000 0.000000 0.000000 0.000000 -60.708740 0.000000 38.000000 0.504878 0.763036 -0.403576
-590.00000000 17250.00000000 100.00000000 128 223 80 0.000000 0.000000 0.000000 0.000000 -60.708740 0.000000 38.000000 0.713356 0.695851 0.083152
-590.00000000 17240.00000000 20.00000000 128 223 80 0.000000 0.000000 0.000000 0.000000 -60.708740 0.000000 38.000000 0.705955 0.488995 -0.512360
-590.00000000 17240.00000000 20.00000000 128 223 80 0.000000 0.000000 0.000000 0.000000 -60.708740 0.000000 38.000000 0.705955 0.488995 -0.512360
-560.00000000 17240.00000000 0.00000000 128 223 80 0.000000 0.000000 0.000000 0.000000 -60.708740 0.000000 38.000000 0.825289 0.322256 -0.463734
-540.00000000 17210.00000000 140.00000000 128 223 80 0.000000 0.000000 0.000000 0.000000 -60.708740 0.000000 38.000000 0.581303 0.801336 0.141237
-540.00000000 17210.00000000 130.00000000 128 223 80 0.000000 0.000000 0.000000 0.000000 -60.708740 0.000000 38.000000 0.631551 0.775274 -0.009674
-540.00000000 17220.00000000 100.00000000 128 223 80 0.000000 0.000000 0.000000 0.000000 -60.708740 0.000000 38.000000 0.641578 0.677677 -0.359349
-520.00000000 17190.00000000 80.00000000 128 223 80 0.000000 0.000000 0.000000 0.000000 -60.708740 0.000000 38.000000 0.456651 0.857168 -0.238187
-530.00000000 17210.00000000 80.00000000 128 223 80 0.000000 0.000000 0.000000 0.000000 -60.708740 0.000000 38.000000 0.834452 0.395931 -0.383312
-520.00000000 17230.00000000 70.00000000 128 223 80 0.000000 0.000000 0.000000 0.000000 -60.708740 0.000000 38.000000 0.738702 0.548703 -0.391463
-560.00000000 17230.00000000 120.00000000 128 223 80 0.000000 0.000000 0.000000 0.000000 -60.708740 0.000000 38.000000 0.648216 0.648216 -0.399540
-580.00000000 17230.00000000 140.00000000 128 223 80 0.000000 0.000000 0.000000 0.000000 -60.708740 0.000000 38.000000 0.787763 0.454541 -0.415719
-570.00000000 17220.00000000 110.00000000 128 223 80 0.000000 0.000000 0.000000 0.000000 -60.708740 0.000000 38.000000 0.592530 0.799260 0.100453
-560.00000000 17200.00000000 110.00000000 128 223 80 0.000000 0.000000 0.000000 0.000000 -60.708740 0.000000 38.000000 0.584336 0.811502 0.004105
-580.00000000 17220.00000000 140.00000000 128 223 80 0.000000 0.000000 0.000000 0.000000 -60.708740 0.000000 38.000000 0.793337 0.405555 -0.454028
-580.00000000 17210.00000000 130.00000000 128 223 80 0.000000 0.000000 0.000000 0.000000 -60.708740 0.000000 38.000000 0.665757 0.669013 -0.330437
-580.00000000 17220.00000000 80.00000000 128 223 80 0.000000 0.000000 0.000000 0.000000 -60.708740 0.000000 38.000000 0.874124 0.485024 -0.025670
-580.00000000 17230.00000000 90.00000000 128 223 80 0.000000 0.000000 0.000000 0.000000 -60.708740 0.000000 38.000000 0.770809 0.636512 0.026580
-570.00000000 17200.00000000 100.00000000 128 223 80 0.000000 0.000000 0.000000 0.000000 -60.708740 0.000000 38.000000 0.687808 0.665362 -0.290194
-580.00000000 17230.00000000 100.00000000 128 223 80 0.000000 0.000000 0.000000 0.000000 -60.708740 0.000000 38.000000 0.471354 0.842910 -0.259475
-540.00000000 17200.00000000 60.00000000 128 223 80 0.000000 0.000000 0.000000 0.000000 -60.708740 0.000000 38.000000 0.688495 0.678999 -0.254822
-540.00000000 17200.00000000 50.00000000 128 223 80 0.000000 0.000000 0.000000 0.000000 -60.708740 0.000000 38.000000 0.452885 0.862136 -0.227195
-550.00000000 17210.00000000 40.00000000 128 223 80 0.000000 0.000000 0.000000 0.000000 -60.708740 0.000000 38.000000 0.833455 0.495775 -0.244050
-550.00000000 17200.00000000 30.00000000 128 223 80 0.000000 0.000000 0.000000 0.000000 -60.708740 0.000000 38.000000 0.668211 0.742299 0.049867
-540.00000000 17210.00000000 60.00000000 128 223 80 0.000000 0.000000 0.000000 0.000000 -60.708740 0.000000 38.000000 0.730744 0.678651 0.073798
-540.00000000 17210.00000000 40.00000000 128 223 80 0.000000 0.000000 0.000000 0.000000 -60.708740 0.000000 38.000000 0.603769 0.623951 -0.496133
-550.00000000 17210.00000000 40.00000000 128 223 80 0.000000 0.000000 0.000000 0.000000 -60.708740 0.000000 38.000000 0.833455 0.495775 -0.244050
-530.00000000 17210.00000000 40.00000000 128 223 80 0.000000 0.000000 0.000000 0.000000 -60.708740 0.000000 38.000000 0.835902 0.545521 0.060613
-540.00000000 17210.00000000 20.00000000 128 223 80 0.000000 0.000000 0.000000 0.000000 -60.708740 0.000000 38.000000 0.893224 0.394544 -0.215606
-520.00000000 17180.00000000 -10.00000000 128 223 80 0.000000 0.000000 0.000000 0.000000 -60.708740 0.000000 38.000000 0.475340 0.841460 -0.256899
-560.00000000 17230.00000000 30.00000000 128 223 80 0.000000 0.000000 0.000000 0.000000 -60.708740 0.000000 38.000000 0.800766 0.596677 0.052440
-560.00000000 17220.00000000 50.00000000 128 223 80 0.000000 0.000000 0.000000 0.000000 -60.708740 0.000000 38.000000 0.630055 0.775991 -0.029468
-560.00000000 17220.00000000 50.00000000 128 223 80 0.000000 0.000000 0.000000 0.000000 -60.708740 0.000000 38.000000 0.630055 0.775991 -0.029468
-560.00000000 17220.00000000 20.00000000 128 223 80 0.000000 0.000000 0.000000 0.000000 -60.708740 0.000000 38.000000 0.770443 0.534626 -0.347265
-580.00000000 17230.00000000 0.00000000 128 223 80 0.000000 0.000000 0.000000 0.000000 -60.708740 0.000000 38.000000 0.867978 0.495008 -0.039765
-610.00000000 17260.00000000 120.00000000 128 223 80 0.000000 0.000000 0.000000 0.000000 -60.708740 0.000000 38.000000 0.707533 0.602470 -0.369362
-680.00000000 17290.00000000 110.00000000 128 223 80 0.000000 0.000000 0.000000 0.000000 -60.708740 0.000000 38.000000 0.693379 0.654768 -0.300839
-660.00000000 17290.00000000 120.00000000 128 223 80 0.000000 0.000000 0.000000 0.000000 -60.708740 0.000000 38.000000 0.806435 0.312117 -0.502240
-670.00000000 17280.00000000 120.00000000 128 223 80 0.000000 0.000000 0.000000 0.000000 -60.708740 0.000000 38.000000 0.911341 0.103405 -0.398453
-680.00000000 17290.00000000 80.00000000 128 223 80 0.000000 0.000000 0.000000 0.000000 -60.708740 0.000000 38.000000 0.739893 0.556961 -0.377296
-670.00000000 17300.00000000 90.00000000 128 223 80 0.000000 0.000000 0.000000 0.000000 -60.708740 0.000000 38.000000 0.724647 0.618601 -0.303677
-650.00000000 17260.00000000 120.00000000 128 223 80 0.000000 0.000000 0.000000 0.000000 -60.708740 0.000000 38.000000 0.584826 0.756927 -0.291616
-640.00000000 17270.00000000 130.00000000 128 223 80 0.000000 0.000000 0.000000 0.000000 -60.708740 0.000000 38.000000 0.634647 0.627949 -0.450449
-660.00000000 17280.00000000 -10.00000000 128 223 80 0.000000 0.000000 0.000000 0.000000 -60.708740 0.000000 38.000000 0.729405 0.554875 -0.400103
-650.00000000 17280.00000000 -10.00000000 128 223 80 0.000000 0.000000 0.000000 0.000000 -60.708740 0.000000 38.000000 0.624726 0.628076 -0.463938
-650.00000000 17250.00000000 40.00000000 128 223 80 0.000000 0.000000 0.000000 0.000000 -60.708740 0.000000 38.000000 0.607917 0.730467 -0.311215
-640.00000000 17260.00000000 50.00000000 128 223 80 0.000000 0.000000 0.000000 0.000000 -60.708740 0.000000 38.000000 0.638734 0.709525 -0.297647
-650.00000000 17270.00000000 30.00000000 128 223 80 0.000000 0.000000 0.000000 0.000000 -60.708740 0.000000 38.000000 0.956154 0.121978 -0.266254
