//X Y Z R G B PointSourceId ScanDirectionFlag NumberOfReturns ReturnNumber GpsTime Intensity Classification Nx Ny Nz
3120.00000000 -21750.00000000 1160.00000000 171 17 161 0.000000 0.000000 0.000000 0.000000 -60.708740 0.000000 157.000000 0.154019 0.979561 0.129376
3140.00000000 -21740.00000000 1190.00000000 171 17 161 0.000000 0.000000 0.000000 0.000000 -60.708740 0.000000 157.000000 0.072557 0.937969 0.339041
3050.00000000 -21670.00000000 1180.00000000 171 17 161 0.000000 0.000000 0.000000 0.000000 -60.708740 0.000000 157.000000 -0.116878 0.984424 0.131337
3090.00000000 -21700.00000000 1290.00000000 171 17 161 0.000000 0.000000 0.000000 0.000000 -60.708740 0.000000 157.000000 0.033336 0.996844 -0.072048
3090.00000000 -21700.00000000 1290.00000000 171 17 161 0.000000 0.000000 0.000000 0.000000 -60.708740 0.000000 157.000000 0.033336 0.996844 -0.072048
3100.00000000 -21720.00000000 1270.00000000 171 17 161 0.000000 0.000000 0.000000 0.000000 -60.708740 0.000000 157.000000 -0.544886 0.835113 -0.075402
3090.00000000 -21730.00000000 1260.00000000 171 17 161 0.000000 0.000000 0.000000 0.000000 -60.708740 0.000000 157.000000 -0.459892 0.874811 -0.152330
3030.00000000 -21680.00000000 1250.00000000 171 17 161 0.000000 0.000000 0.000000 0.000000 -60.708740 0.000000 157.000000 -0.204058 0.976301 -0.072092
3030.00000000 -21680.00000000 1250.00000000 171 17 161 0.000000 0.000000 0.000000 0.000000 -60.708740 0.000000 157.000000 -0.204058 0.976301 -0.072092
3090.00000000 -21710.00000000 1230.00000000 171 17 161 0.000000 0.000000 0.000000 0.000000 -60.708740 0.000000 157.000000 -0.216638 0.868047 0.446723
3100.00000000 -21710.00000000 1240.00000000 171 17 161 0.000000 0.000000 0.000000 0.000000 -60.708740 0.000000 157.000000 -0.492473 0.862905 0.113427
3070.00000000 -21710.00000000 1210.00000000 171 17 161 0.000000 0.000000 0.000000 0.000000 -60.708740 0.000000 157.000000 -0.084329 0.995522 -0.042712
3070.00000000 -21690.00000000 1170.00000000 171 17 161 0.000000 0.000000 0.000000 0.000000 -60.708740 0.000000 157.000000 0.047204 0.995666 -0.080136
3070.00000000 -21690.00000000 1170.00000000 171 17 161 0.000000 0.000000 0.000000 0.000000 -60.708740 0.000000 157.000000 0.047204 0.995666 -0.080136
3070.00000000 -21710.00000000 1160.00000000 171 17 161 0.000000 0.000000 0.000000 0.000000 -60.708740 0.000000 157.000000 -0.414412 0.863996 0.285960
3100.00000000 -21710.00000000 1180.00000000 171 17 161 0.000000 0.000000 0.000000 0.000000 -60.708740 0.000000 157.000000 0.054649 0.987175 -0.149995
3060.00000000 -21680.00000000 1210.00000000 171 17 161 0.000000 0.000000 0.000000 0.000000 -60.708740 0.000000 157.000000 -0.188955 0.981870 -0.015070
3050.00000000 -21700.00000000 1230.00000000 171 17 161 0.000000 0.000000 0.000000 0.000000 -60.708740 0.000000 157.000000 -0.145060 0.969209 -0.198977
3050.00000000 -21710.00000000 1210.00000000 171 17 161 0.000000 0.000000 0.000000 0.000000 -60.708740 0.000000 157.000000 -0.022141 0.920795 0.389417
3050.00000000 -21700.00000000 1230.00000000 171 17 161 0.000000 0.000000 0.000000 0.000000 -60.708740 0.000000 157.000000 -0.145060 0.969209 -0.198977
3050.00000000 -21710.00000000 1190.00000000 171 17 161 0.000000 0.000000 0.000000 0.000000 -60.708740 0.000000 157.000000 -0.520504 0.850580 -0.074761
3040.00000000 -21680.00000000 1170.00000000 171 17 161 0.000000 0.000000 0.000000 0.000000 -60.708740 0.000000 157.000000 -0.091814 0.938095 0.333988
3060.00000000 -21680.00000000 1200.00000000 171 17 161 0.000000 0.000000 0.000000 0.000000 -60.708740 0.000000 157.000000 -0.154149 0.987698 0.026263
3170.00000000 -21760.00000000 1150.00000000 171 17 161 0.000000 0.000000 0.000000 0.000000 -60.708740 0.000000 157.000000 -0.365048 0.911905 -0.187535
3170.00000000 -21760.00000000 1140.00000000 171 17 161 0.000000 0.000000 0.000000 0.000000 -60.708740 0.000000 157.000000 -0.197644 0.959035 -0.202949
3160.00000000 -21760.00000000 1150.00000000 171 17 161 0.000000 0.000000 0.000000 0.000000 -60.708740 0.000000 157.000000 0.225641 0.967581 0.113458
3110.00000000 -21740.00000000 1130.00000000 171 17 161 0.000000 0.000000 0.000000 0.000000 -60.708740 0.000000 157.000000 0.104535 0.991358 0.079263
3110.00000000 -21740.00000000 1140.00000000 171 17 161 0.000000 0.000000 0.000000 0.000000 -60.708740 0.000000 157.000000 -0.019905 0.998373 -0.053428
3120.00000000 -21730.00000000 1130.00000000 171 17 161 0.000000 0.000000 0.000000 0.000000 -60.708740 0.000000 157.000000 0.005450 0.992903 0.118800
3140.00000000 -21730.00000000 1090.00000000 171 17 161 0.000000 0.000000 0.000000 0.000000 -60.708740 0.000000 157.000000 0.300369 0.950519 0.079318
3160.00000000 -21750.00000000 1010.00000000 171 17 161 0.000000 0.000000 0.000000 0.000000 -60.708740 0.000000 157.000000 0.183520 0.973287 -0.137956
3140.00000000 -21720.00000000 1060.00000000 171 17 161 0.000000 0.000000 0.000000 0.000000 -60.708740 0.000000 157.000000 0.097401 0.994806 0.029549
3110.00000000 -21720.00000000 1030.00000000 171 17 161 0.000000 0.000000 0.000000 0.000000 -60.708740 0.000000 157.000000 0.171478 0.968270 0.181792
3110.00000000 -21720.00000000 1030.00000000 171 17 161 0.000000 0.000000 0.000000 0.000000 -60.708740 0.000000 157.000000 0.171478 0.968270 0.181792
3110.00000000 -21730.00000000 1050.00000000 171 17 161 0.000000 0.000000 0.000000 0.000000 -60.708740 0.000000 157.000000 -0.011783 0.907321 0.420274
3150.00000000 -21760.00000000 1000.00000000 171 17 161 0.000000 0.000000 0.000000 0.000000 -60.708740 0.000000 157.000000 0.300624 0.919133 0.254596
3150.00000000 -21750.00000000 1010.00000000 171 17 161 0.000000 0.000000 0.000000 0.000000 -60.708740 0.000000 157.000000 -0.122002 0.979716 -0.158973
3070.00000000 -21670.00000000 1000.00000000 171 17 161 0.000000 0.000000 0.000000 0.000000 -60.708740 0.000000 157.000000 -0.185727 0.979621 0.076476
3080.00000000 -21710.00000000 1130.00000000 171 17 161 0.000000 0.000000 0.000000 0.000000 -60.708740 0.000000 157.000000 -0.037875 0.996649 -0.072503
3080.00000000 -21710.00000000 1130.00000000 171 17 161 0.000000 0.000000 0.000000 0.000000 -60.708740 0.000000 157.000000 -0.037875 0.996649 -0.072503
3080.00000000 -21710.00000000 1120.00000000 171 17 161 0.000000 0.000000 0.000000 0.000000 -60.708740 0.000000 157.000000 -0.058101 0.982976 -0.174303
3090.00000000 -21700.00000000 1090.00000000 171 17 161 0.000000 0.000000 0.000000 0.000000 -60.708740 0.000000 157.000000 -0.072636 0.973811 -0.215445
3090.00000000 -21700.00000000 1100.00000000 171 17 161 0.000000 0.000000 0.000000 0.000000 -60.708740 0.000000 157.000000 0.066998 0.986165 0.151627
3070.00000000 -21710.00000000 1080.00000000 171 17 161 0.000000 0.000000 0.000000 0.000000 -60.708740 0.000000 157.000000 0.045207 0.971338 0.233365
3090.00000000 -21700.00000000 1100.00000000 171 17 161 0.000000 0.000000 0.000000 0.000000 -60.708740 0.000000 157.000000 0.066998 0.986165 0.151627
3100.00000000 -21720.00000000 1090.00000000 171 17 161 0.000000 0.000000 0.000000 0.000000 -60.708740 0.000000 157.000000 0.030788 0.988643 -0.147099
3080.00000000 -21700.00000000 1110.00000000 171 17 161 0.000000 0.000000 0.000000 0.000000 -60.708740 0.000000 157.000000 -0.398437 0.887226 -0.232545
3080.00000000 -21700.00000000 1100.00000000 171 17 161 0.000000 0.000000 0.000000 0.000000 -60.708740 0.000000 157.000000 -0.095026 0.995038 -0.029491
3070.00000000 -21710.00000000 1080.00000000 171 17 161 0.000000 0.000000 0.000000 0.000000 -60.708740 0.000000 157.000000 0.045207 0.971338 0.233365
3080.00000000 -21700.00000000 1100.00000000 171 17 161 0.000000 0.000000 0.000000 0.000000 -60.708740 0.000000 157.000000 -0.095026 0.995038 -0.029491
3030.00000000 -21690.00000000 1140.00000000 171 17 161 0.000000 0.000000 0.000000 0.000000 -60.708740 0.000000 157.000000 -0.136494 0.941944 0.306774
3030.00000000 -21690.00000000 1140.00000000 171 17 161 0.000000 0.000000 0.000000 0.000000 -60.708740 0.000000 157.000000 -0.136494 0.941944 0.306774
3030.00000000 -21690.00000000 1130.00000000 171 17 161 0.000000 0.000000 0.000000 0.000000 -60.708740 0.000000 157.000000 -0.188677 0.932202 0.308870
3030.00000000 -21700.00000000 1110.00000000 171 17 161 0.000000 0.000000 0.000000 0.000000 -60.708740 0.000000 157.000000 -0.127627 0.929066 0.347199
3050.00000000 -21690.00000000 1100.00000000 171 17 161 0.000000 0.000000 0.000000 0.000000 -60.708740 0.000000 157.000000 -0.110045 0.864636 0.490199
3070.00000000 -21720.00000000 1060.00000000 171 17 161 0.000000 0.000000 0.000000 0.000000 -60.708740 0.000000 157.000000 0.127340 0.965980 0.225095
3090.00000000 -21720.00000000 1070.00000000 171 17 161 0.000000 0.000000 0.000000 0.000000 -60.708740 0.000000 157.000000 0.040324 0.987367 -0.153232
3090.00000000 -21690.00000000 1060.00000000 171 17 161 0.000000 0.000000 0.000000 0.000000 -60.708740 0.000000 157.000000 -0.349958 0.930970 -0.104042
3090.00000000 -21720.00000000 1070.00000000 171 17 161 0.000000 0.000000 0.000000 0.000000 -60.708740 0.000000 157.000000 0.040324 0.987367 -0.153232
3100.00000000 -21720.00000000 1030.00000000 171 17 161 0.000000 0.000000 0.000000 0.000000 -60.708740 0.000000 157.000000 0.076960 0.991295 0.106826
3100.00000000 -21720.00000000 1030.00000000 171 17 161 0.000000 0.000000 0.000000 0.000000 -60.708740 0.000000 157.000000 0.076960 0.991295 0.106826
3090.00000000 -21720.00000000 1020.00000000 171 17 161 0.000000 0.000000 0.000000 0.000000 -60.708740 0.000000 157.000000 -0.028348 0.998481 0.047247
3090.00000000 -21710.00000000 1010.00000000 171 17 161 0.000000 0.000000 0.000000 0.000000 -60.708740 0.000000 157.000000 -0.148950 0.922934 0.354975
3050.00000000 -21710.00000000 1000.00000000 171 17 161 0.000000 0.000000 0.000000 0.000000 -60.708740 0.000000 157.000000 -0.039683 0.871655 0.488510
3030.00000000 -21690.00000000 1000.00000000 171 17 161 0.000000 0.000000 0.000000 0.000000 -60.708740 0.000000 157.000000 -0.157181 0.965170 -0.209142
3030.00000000 -21690.00000000 1010.00000000 171 17 161 0.000000 0.000000 0.000000 0.000000 -60.708740 0.000000 157.000000 -0.276991 0.954372 0.111584
3030.00000000 -21690.00000000 1000.00000000 171 17 161 0.000000 0.000000 0.000000 0.000000 -60.708740 0.000000 157.000000 -0.157181 0.965170 -0.209142
3190.00000000 -21770.00000000 1300.00000000 171 17 161 0.000000 0.000000 0.000000 0.000000 -60.708740 0.000000 157.000000 0.201924 0.965326 0.165447
3160.00000000 -21770.00000000 1280.00000000 171 17 161 0.000000 0.000000 0.000000 0.000000 -60.708740 0.000000 157.000000 0.156964 0.983723 -0.087469
3160.00000000 -21770.00000000 1280.00000000 171 17 161 0.000000 0.000000 0.000000 0.000000 -60.708740 0.000000 157.000000 0.156964 0.983723 -0.087469
3190.00000000 -21790.00000000 1230.00000000 171 17 161 0.000000 0.000000 0.000000 0.000000 -60.708740 0.000000 157.000000 -0.075836 0.894864 0.439849
3170.00000000 -21800.00000000 1170.00000000 171 17 161 0.000000 0.000000 0.000000 0.000000 -60.708740 0.000000 157.000000 -0.114118 0.941135 0.318187
3180.00000000 -21820.00000000 1180.00000000 171 17 161 0.000000 0.000000 0.000000 0.000000 -60.708740 0.000000 157.000000 -0.488332 0.862189 0.134762
3180.00000000 -21920.00000000 1280.00000000 171 17 161 0.000000 0.000000 0.000000 0.000000 -60.708740 0.000000 157.000000 -0.545103 0.834108 0.084412
3190.00000000 -21850.00000000 1170.00000000 171 17 161 0.000000 0.000000 0.000000 0.000000 -60.708740 0.000000 157.000000 -0.264219 0.962959 0.053846
3160.00000000 -21770.00000000 1150.00000000 171 17 161 0.000000 0.000000 0.000000 0.000000 -60.708740 0.000000 157.000000 0.112866 0.907108 0.405482
3180.00000000 -21830.00000000 1130.00000000 171 17 161 0.000000 0.000000 0.000000 0.000000 -60.708740 0.000000 157.000000 -0.098860 0.994158 -0.043321
3190.00000000 -21830.00000000 1130.00000000 171 17 161 0.000000 0.000000 0.000000 0.000000 -60.708740 0.000000 157.000000 -0.036488 0.994029 0.102831
3170.00000000 -21800.00000000 1050.00000000 171 17 161 0.000000 0.000000 0.000000 0.000000 -60.708740 0.000000 157.000000 -0.090069 0.896536 0.433718
3180.00000000 -21800.00000000 1050.00000000 171 17 161 0.000000 0.000000 0.000000 0.000000 -60.708740 0.000000 157.000000 0.326130 0.941421 0.085824
3170.00000000 -21800.00000000 1050.00000000 171 17 161 0.000000 0.000000 0.000000 0.000000 -60.708740 0.000000 157.000000 -0.090069 0.896536 0.433718
3190.00000000 -21800.00000000 1030.00000000 171 17 161 0.000000 0.000000 0.000000 0.000000 -60.708740 0.000000 157.000000 0.386644 0.920772 0.051818
3170.00000000 -21770.00000000 1020.00000000 171 17 161 0.000000 0.000000 0.000000 0.000000 -60.708740 0.000000 157.000000 0.140362 0.989384 -0.037658
3190.00000000 -21800.00000000 1030.00000000 171 17 161 0.000000 0.000000 0.000000 0.000000 -60.708740 0.000000 157.000000 0.386644 0.920772 0.051818
3190.00000000 -21770.00000000 1010.00000000 171 17 161 0.000000 0.000000 0.000000 0.000000 -60.708740 0.000000 157.000000 -0.078136 0.993122 0.087195
3180.00000000 -21810.00000000 1010.00000000 171 17 161 0.000000 0.000000 0.000000 0.000000 -60.708740 0.000000 157.000000 -0.135178 0.948924 -0.285079
3160.00000000 -21810.00000000 1000.00000000 171 17 161 0.000000 0.000000 0.000000 0.000000 -60.708740 0.000000 157.000000 -0.167325 0.977922 0.125184
3200.00000000 -21810.00000000 960.00000000 171 17 161 0.000000 0.000000 0.000000 0.000000 -60.708740 0.000000 157.000000 0.232116 0.963474 -0.133564
3210.00000000 -21800.00000000 830.00000000 171 17 161 0.000000 0.000000 0.000000 0.000000 -60.708740 0.000000 157.000000 0.405122 0.857997 -0.315780
3200.00000000 -21820.00000000 870.00000000 171 17 161 0.000000 0.000000 0.000000 0.000000 -60.708740 0.000000 157.000000 0.386352 0.913577 -0.126924
3250.00000000 -21880.00000000 960.00000000 171 17 161 0.000000 0.000000 0.000000 0.000000 -60.708740 0.000000 157.000000 0.656815 0.740983 0.139780
3240.00000000 -21910.00000000 980.00000000 171 17 161 0.000000 0.000000 0.000000 0.000000 -60.708740 0.000000 157.000000 0.558464 0.755949 0.341553
3240.00000000 -21920.00000000 930.00000000 171 17 161 0.000000 0.000000 0.000000 0.000000 -60.708740 0.000000 157.000000 0.462630 0.853969 0.238141
3250.00000000 -21920.00000000 930.00000000 171 17 161 0.000000 0.000000 0.000000 0.000000 -60.708740 0.000000 157.000000 0.712619 0.701550 0.001384
3230.00000000 -21880.00000000 950.00000000 171 17 161 0.000000 0.000000 0.000000 0.000000 -60.708740 0.000000 157.000000 0.204683 0.977931 0.041894
3230.00000000 -21860.00000000 920.00000000 171 17 161 0.000000 0.000000 0.000000 0.000000 -60.708740 0.000000 157.000000 0.395505 0.907832 0.139342
3230.00000000 -21860.00000000 940.00000000 171 17 161 0.000000 0.000000 0.000000 0.000000 -60.708740 0.000000 157.000000 0.638472 0.764121 -0.092045
3210.00000000 -21890.00000000 970.00000000 171 17 161 0.000000 0.000000 0.000000 0.000000 -60.708740 0.000000 157.000000 0.130936 0.963222 -0.234648
3250.00000000 -21870.00000000 890.00000000 171 17 161 0.000000 0.000000 0.000000 0.000000 -60.708740 0.000000 157.000000 0.401345 0.823313 -0.401345
3240.00000000 -21870.00000000 860.00000000 171 17 161 0.000000 0.000000 0.000000 0.000000 -60.708740 0.000000 157.000000 0.619315 0.765394 0.174991
3260.00000000 -21910.00000000 860.00000000 171 17 161 0.000000 0.000000 0.000000 0.000000 -60.708740 0.000000 157.000000 0.616005 0.725374 0.307198
3270.00000000 -21900.00000000 850.00000000 171 17 161 0.000000 0.000000 0.000000 0.000000 -60.708740 0.000000 157.000000 0.711009 0.702561 -0.029567
3250.00000000 -21920.00000000 840.00000000 171 17 161 0.000000 0.000000 0.000000 0.000000 -60.708740 0.000000 157.000000 0.365665 0.895658 0.253153
3250.00000000 -21900.00000000 850.00000000 171 17 161 0.000000 0.000000 0.000000 0.000000 -60.708740 0.000000 157.000000 0.157768 0.986911 -0.033396
3210.00000000 -21850.00000000 860.00000000 171 17 161 0.000000 0.000000 0.000000 0.000000 -60.708740 0.000000 157.000000 0.510486 0.852727 0.110725
3230.00000000 -21900.00000000 850.00000000 171 17 161 0.000000 0.000000 0.000000 0.000000 -60.708740 0.000000 157.000000 0.680038 0.716388 -0.156000
3230.00000000 -21900.00000000 850.00000000 171 17 161 0.000000 0.000000 0.000000 0.000000 -60.708740 0.000000 157.000000 0.680038 0.716388 -0.156000
3220.00000000 -21810.00000000 710.00000000 171 17 161 0.000000 0.000000 0.000000 0.000000 -60.708740 0.000000 157.000000 0.407810 0.887761 -0.213475
3220.00000000 -21830.00000000 700.00000000 171 17 161 0.000000 0.000000 0.000000 0.000000 -60.708740 0.000000 157.000000 0.268379 0.958126 -0.099832
3240.00000000 -21880.00000000 820.00000000 171 17 161 0.000000 0.000000 0.000000 0.000000 -60.708740 0.000000 157.000000 0.574394 0.796839 0.187402
3260.00000000 -21870.00000000 770.00000000 171 17 161 0.000000 0.000000 0.000000 0.000000 -60.708740 0.000000 157.000000 0.220136 0.974194 -0.049865
3250.00000000 -21920.00000000 820.00000000 171 17 161 0.000000 0.000000 0.000000 0.000000 -60.708740 0.000000 157.000000 0.475148 0.876011 -0.082695
3220.00000000 -21870.00000000 750.00000000 171 17 161 0.000000 0.000000 0.000000 0.000000 -60.708740 0.000000 157.000000 0.530609 0.837573 0.130094
3230.00000000 -21920.00000000 820.00000000 171 17 161 0.000000 0.000000 0.000000 0.000000 -60.708740 0.000000 157.000000 0.731693 0.681519 0.012543
3250.00000000 -21870.00000000 730.00000000 171 17 161 0.000000 0.000000 0.000000 0.000000 -60.708740 0.000000 157.000000 0.490073 0.773371 -0.402153
3260.00000000 -21870.00000000 680.00000000 171 17 161 0.000000 0.000000 0.000000 0.000000 -60.708740 0.000000 157.000000 0.319916 0.919578 0.228101
3250.00000000 -21900.00000000 710.00000000 171 17 161 0.000000 0.000000 0.000000 0.000000 -60.708740 0.000000 157.000000 0.660102 0.748879 -0.058708
3250.00000000 -21930.00000000 670.00000000 171 17 161 0.000000 0.000000 0.000000 0.000000 -60.708740 0.000000 157.000000 0.710677 0.702132 -0.044150
3170.00000000 -21760.00000000 910.00000000 171 17 161 0.000000 0.000000 0.000000 0.000000 -60.708740 0.000000 157.000000 0.011520 0.927973 0.372469
3160.00000000 -21760.00000000 940.00000000 171 17 161 0.000000 0.000000 0.000000 0.000000 -60.708740 0.000000 157.000000 -0.074337 0.991545 -0.106360
3150.00000000 -21760.00000000 990.00000000 171 17 161 0.000000 0.000000 0.000000 0.000000 -60.708740 0.000000 157.000000 0.241136 0.970485 0.003564
3150.00000000 -21750.00000000 990.00000000 171 17 161 0.000000 0.000000 0.000000 0.000000 -60.708740 0.000000 157.000000 0.245820 0.967057 -0.066134
3120.00000000 -21740.00000000 960.00000000 171 17 161 0.000000 0.000000 0.000000 0.000000 -60.708740 0.000000 157.000000 0.166913 0.972175 -0.164365
3140.00000000 -21760.00000000 970.00000000 171 17 161 0.000000 0.000000 0.000000 0.000000 -60.708740 0.000000 157.000000 0.179780 0.980949 -0.073601
3120.00000000 -21740.00000000 930.00000000 171 17 161 0.000000 0.000000 0.000000 0.000000 -60.708740 0.000000 157.000000 0.196542 0.955969 0.217934
3120.00000000 -21730.00000000 910.00000000 171 17 161 0.000000 0.000000 0.000000 0.000000 -60.708740 0.000000 157.000000 0.056542 0.988912 0.137317
3110.00000000 -21740.00000000 930.00000000 171 17 161 0.000000 0.000000 0.000000 0.000000 -60.708740 0.000000 157.000000 -0.099294 0.890845 0.443325
3110.00000000 -21730.00000000 910.00000000 171 17 161 0.000000 0.000000 0.000000 0.000000 -60.708740 0.000000 157.000000 0.086103 0.994099 0.065975
3110.00000000 -21730.00000000 910.00000000 171 17 161 0.000000 0.000000 0.000000 0.000000 -60.708740 0.000000 157.000000 0.086103 0.994099 0.065975
3120.00000000 -21730.00000000 910.00000000 171 17 161 0.000000 0.000000 0.000000 0.000000 -60.708740 0.000000 157.000000 0.056542 0.988912 0.137317
3160.00000000 -21760.00000000 870.00000000 171 17 161 0.000000 0.000000 0.000000 0.000000 -60.708740 0.000000 157.000000 0.221814 0.962069 -0.158814
3160.00000000 -21760.00000000 870.00000000 171 17 161 0.000000 0.000000 0.000000 0.000000 -60.708740 0.000000 157.000000 0.221814 0.962069 -0.158814
3110.00000000 -21720.00000000 870.00000000 171 17 161 0.000000 0.000000 0.000000 0.000000 -60.708740 0.000000 157.000000 -0.168395 0.958658 0.229388
3120.00000000 -21720.00000000 880.00000000 171 17 161 0.000000 0.000000 0.000000 0.000000 -60.708740 0.000000 157.000000 0.026054 0.988922 -0.146129
3130.00000000 -21750.00000000 880.00000000 171 17 161 0.000000 0.000000 0.000000 0.000000 -60.708740 0.000000 157.000000 -0.141739 0.987488 0.069112
3110.00000000 -21730.00000000 900.00000000 171 17 161 0.000000 0.000000 0.000000 0.000000 -60.708740 0.000000 157.000000 -0.067537 0.973756 0.217345
3130.00000000 -21750.00000000 890.00000000 171 17 161 0.000000 0.000000 0.000000 0.000000 -60.708740 0.000000 157.000000 -0.353444 0.924498 0.142764
3140.00000000 -21760.00000000 830.00000000 171 17 161 0.000000 0.000000 0.000000 0.000000 -60.708740 0.000000 157.000000 0.086100 0.972060 -0.218370
3150.00000000 -21750.00000000 840.00000000 171 17 161 0.000000 0.000000 0.000000 0.000000 -60.708740 0.000000 157.000000 -0.266966 0.963291 -0.028296
3090.00000000 -21710.00000000 990.00000000 171 17 161 0.000000 0.000000 0.000000 0.000000 -60.708740 0.000000 157.000000 -0.094511 0.984589 -0.147150
3090.00000000 -21720.00000000 940.00000000 171 17 161 0.000000 0.000000 0.000000 0.000000 -60.708740 0.000000 157.000000 -0.085091 0.992733 -0.085091
3090.00000000 -21750.00000000 960.00000000 171 17 161 0.000000 0.000000 0.000000 0.000000 -60.708740 0.000000 157.000000 -0.308915 0.945305 0.104739
3060.00000000 -21690.00000000 970.00000000 171 17 161 0.000000 0.000000 0.000000 0.000000 -60.708740 0.000000 157.000000 -0.143658 0.919134 0.366817
3060.00000000 -21690.00000000 990.00000000 171 17 161 0.000000 0.000000 0.000000 0.000000 -60.708740 0.000000 157.000000 -0.553711 0.832618 -0.012305
3050.00000000 -21690.00000000 960.00000000 171 17 161 0.000000 0.000000 0.000000 0.000000 -60.708740 0.000000 157.000000 -0.179283 0.983127 -0.036325
3040.00000000 -21690.00000000 970.00000000 171 17 161 0.000000 0.000000 0.000000 0.000000 -60.708740 0.000000 157.000000 -0.380203 0.882130 0.278014
3060.00000000 -21690.00000000 990.00000000 171 17 161 0.000000 0.000000 0.000000 0.000000 -60.708740 0.000000 157.000000 -0.553711 0.832618 -0.012305
3040.00000000 -21700.00000000 980.00000000 171 17 161 0.000000 0.000000 0.000000 0.000000 -60.708740 0.000000 157.000000 -0.190794 0.842799 0.503276
3040.00000000 -21690.00000000 980.00000000 171 17 161 0.000000 0.000000 0.000000 0.000000 -60.708740 0.000000 157.000000 -0.428745 0.903379 -0.009178
3050.00000000 -21700.00000000 990.00000000 171 17 161 0.000000 0.000000 0.000000 0.000000 -60.708740 0.000000 157.000000 -0.220258 0.971872 0.083374
3030.00000000 -21690.00000000 930.00000000 171 17 161 0.000000 0.000000 0.000000 0.000000 -60.708740 0.000000 157.000000 -0.350058 0.932146 -0.092544
3030.00000000 -21690.00000000 940.00000000 171 17 161 0.000000 0.000000 0.000000 0.000000 -60.708740 0.000000 157.000000 -0.260165 0.942926 0.207857
3090.00000000 -21720.00000000 840.00000000 171 17 161 0.000000 0.000000 0.000000 0.000000 -60.708740 0.000000 157.000000 -0.093270 0.973740 -0.207681
3070.00000000 -21700.00000000 840.00000000 171 17 161 0.000000 0.000000 0.000000 0.000000 -60.708740 0.000000 157.000000 -0.283604 0.958257 -0.036231
3090.00000000 -21720.00000000 830.00000000 171 17 161 0.000000 0.000000 0.000000 0.000000 -60.708740 0.000000 157.000000 -0.194089 0.977770 0.079345
3100.00000000 -21720.00000000 840.00000000 171 17 161 0.000000 0.000000 0.000000 0.000000 -60.708740 0.000000 157.000000 -0.394766 0.918515 0.022149
3090.00000000 -21730.00000000 850.00000000 171 17 161 0.000000 0.000000 0.000000 0.000000 -60.708740 0.000000 157.000000 -0.232709 0.818335 0.525522
3050.00000000 -21700.00000000 880.00000000 171 17 161 0.000000 0.000000 0.000000 0.000000 -60.708740 0.000000 157.000000 -0.016949 0.913949 0.405475
3060.00000000 -21710.00000000 860.00000000 171 17 161 0.000000 0.000000 0.000000 0.000000 -60.708740 0.000000 157.000000 -0.098529 0.900636 0.423257
3060.00000000 -21700.00000000 850.00000000 171 17 161 0.000000 0.000000 0.000000 0.000000 -60.708740 0.000000 157.000000 -0.257958 0.952974 -0.159052
3150.00000000 -21720.00000000 810.00000000 171 17 161 0.000000 0.000000 0.000000 0.000000 -60.708740 0.000000 157.000000 -0.009026 0.919374 0.393281
3140.00000000 -21760.00000000 820.00000000 171 17 161 0.000000 0.000000 0.000000 0.000000 -60.708740 0.000000 157.000000 0.093211 0.981737 -0.165842
3140.00000000 -21760.00000000 820.00000000 171 17 161 0.000000 0.000000 0.000000 0.000000 -60.708740 0.000000 157.000000 0.093211 0.981737 -0.165842
3140.00000000 -21760.00000000 760.00000000 171 17 161 0.000000 0.000000 0.000000 0.000000 -60.708740 0.000000 157.000000 0.206106 0.896050 0.393210
3120.00000000 -21740.00000000 750.00000000 171 17 161 0.000000 0.000000 0.000000 0.000000 -60.708740 0.000000 157.000000 0.025168 0.999658 -0.007047
3140.00000000 -21730.00000000 780.00000000 171 17 161 0.000000 0.000000 0.000000 0.000000 -60.708740 0.000000 157.000000 -0.057020 0.998360 0.005184
3120.00000000 -21740.00000000 750.00000000 171 17 161 0.000000 0.000000 0.000000 0.000000 -60.708740 0.000000 157.000000 0.025168 0.999658 -0.007047
3150.00000000 -21730.00000000 720.00000000 171 17 161 0.000000 0.000000 0.000000 0.000000 -60.708740 0.000000 157.000000 0.174544 0.875654 0.450294
3120.00000000 -21740.00000000 700.00000000 171 17 161 0.000000 0.000000 0.000000 0.000000 -60.708740 0.000000 157.000000 -0.190186 0.877216 0.440819
3120.00000000 -21740.00000000 720.00000000 171 17 161 0.000000 0.000000 0.000000 0.000000 -60.708740 0.000000 157.000000 -0.137068 0.974564 0.177308
3140.00000000 -21730.00000000 730.00000000 171 17 161 0.000000 0.000000 0.000000 0.000000 -60.708740 0.000000 157.000000 0.343290 0.874245 0.343290
3120.00000000 -21740.00000000 670.00000000 171 17 161 0.000000 0.000000 0.000000 0.000000 -60.708740 0.000000 157.000000 -0.246187 0.944863 0.215929
3140.00000000 -21730.00000000 660.00000000 171 17 161 0.000000 0.000000 0.000000 0.000000 -60.708740 0.000000 157.000000 -0.069654 0.900036 0.430214
3110.00000000 -21740.00000000 690.00000000 171 17 161 0.000000 0.000000 0.000000 0.000000 -60.708740 0.000000 157.000000 0.143658 0.919134 0.366817
3120.00000000 -21740.00000000 660.00000000 171 17 161 0.000000 0.000000 0.000000 0.000000 -60.708740 0.000000 157.000000 0.044073 0.955744 0.290879
3110.00000000 -21740.00000000 660.00000000 171 17 161 0.000000 0.000000 0.000000 0.000000 -60.708740 0.000000 157.000000 -0.025723 0.870527 0.491448
3130.00000000 -21740.00000000 660.00000000 171 17 161 0.000000 0.000000 0.000000 0.000000 -60.708740 0.000000 157.000000 0.118867 0.927711 0.353869
3120.00000000 -21740.00000000 670.00000000 171 17 161 0.000000 0.000000 0.000000 0.000000 -60.708740 0.000000 157.000000 -0.246187 0.944863 0.215929
3030.00000000 -21670.00000000 680.00000000 171 17 161 0.000000 0.000000 0.000000 0.000000 -60.708740 0.000000 157.000000 0.032351 0.932990 0.358444
3090.00000000 -21710.00000000 790.00000000 171 17 161 0.000000 0.000000 0.000000 0.000000 -60.708740 0.000000 157.000000 -0.181411 0.960021 0.213191
3090.00000000 -21710.00000000 790.00000000 171 17 161 0.000000 0.000000 0.000000 0.000000 -60.708740 0.000000 157.000000 -0.181411 0.960021 0.213191
3090.00000000 -21710.00000000 820.00000000 171 17 161 0.000000 0.000000 0.000000 0.000000 -60.708740 0.000000 157.000000 0.023744 0.989351 0.143597
3090.00000000 -21710.00000000 780.00000000 171 17 161 0.000000 0.000000 0.000000 0.000000 -60.708740 0.000000 157.000000 -0.220581 0.951339 -0.215168
3060.00000000 -21710.00000000 800.00000000 171 17 161 0.000000 0.000000 0.000000 0.000000 -60.708740 0.000000 157.000000 0.046383 0.959009 0.279554
3040.00000000 -21690.00000000 800.00000000 171 17 161 0.000000 0.000000 0.000000 0.000000 -60.708740 0.000000 157.000000 -0.091887 0.866564 0.490534
3060.00000000 -21700.00000000 740.00000000 171 17 161 0.000000 0.000000 0.000000 0.000000 -60.708740 0.000000 157.000000 -0.200632 0.907896 0.368066
3050.00000000 -21710.00000000 740.00000000 171 17 161 0.000000 0.000000 0.000000 0.000000 -60.708740 0.000000 157.000000 -0.446540 0.794745 0.411075
3060.00000000 -21690.00000000 740.00000000 171 17 161 0.000000 0.000000 0.000000 0.000000 -60.708740 0.000000 157.000000 -0.375472 0.920114 -0.111404
3080.00000000 -21720.00000000 700.00000000 171 17 161 0.000000 0.000000 0.000000 0.000000 -60.708740 0.000000 157.000000 -0.055501 0.983667 0.171227
3070.00000000 -21720.00000000 710.00000000 171 17 161 0.000000 0.000000 0.000000 0.000000 -60.708740 0.000000 157.000000 -0.117840 0.935944 0.331847
3080.00000000 -21720.00000000 700.00000000 171 17 161 0.000000 0.000000 0.000000 0.000000 -60.708740 0.000000 157.000000 -0.055501 0.983667 0.171227
3090.00000000 -21720.00000000 660.00000000 171 17 161 0.000000 0.000000 0.000000 0.000000 -60.708740 0.000000 157.000000 -0.295949 0.944606 -0.141894
3090.00000000 -21720.00000000 660.00000000 171 17 161 0.000000 0.000000 0.000000 0.000000 -60.708740 0.000000 157.000000 -0.295949 0.944606 -0.141894
3070.00000000 -21720.00000000 690.00000000 171 17 161 0.000000 0.000000 0.000000 0.000000 -60.708740 0.000000 157.000000 0.215321 0.908972 0.356941
3080.00000000 -21720.00000000 690.00000000 171 17 161 0.000000 0.000000 0.000000 0.000000 -60.708740 0.000000 157.000000 0.123511 0.887295 0.444357
3100.00000000 -21730.00000000 730.00000000 171 17 161 0.000000 0.000000 0.000000 0.000000 -60.708740 0.000000 157.000000 0.038915 0.897739 0.438805
3080.00000000 -21730.00000000 660.00000000 171 17 161 0.000000 0.000000 0.000000 0.000000 -60.708740 0.000000 157.000000 -0.190444 0.978905 0.073994
3040.00000000 -21690.00000000 670.00000000 171 17 161 0.000000 0.000000 0.000000 0.000000 -60.708740 0.000000 157.000000 -0.477882 0.863128 0.163215
3170.00000000 -21770.00000000 920.00000000 171 17 161 0.000000 0.000000 0.000000 0.000000 -60.708740 0.000000 157.000000 0.272771 0.900883 0.337647
3160.00000000 -21770.00000000 920.00000000 171 17 161 0.000000 0.000000 0.000000 0.000000 -60.708740 0.000000 157.000000 0.299238 0.953268 -0.041666
3160.00000000 -21790.00000000 760.00000000 171 17 161 0.000000 0.000000 0.000000 0.000000 -60.708740 0.000000 157.000000 -0.223705 0.971054 0.083733
3170.00000000 -21770.00000000 770.00000000 171 17 161 0.000000 0.000000 0.000000 0.000000 -60.708740 0.000000 157.000000 0.049747 0.974317 0.219616
3170.00000000 -21830.00000000 740.00000000 171 17 161 0.000000 0.000000 0.000000 0.000000 -60.708740 0.000000 157.000000 0.183060 0.940073 0.287665
3170.00000000 -21770.00000000 660.00000000 171 17 161 0.000000 0.000000 0.000000 0.000000 -60.708740 0.000000 157.000000 0.213778 0.927317 -0.307218
3120.00000000 -21770.00000000 730.00000000 171 17 161 0.000000 0.000000 0.000000 0.000000 -60.708740 0.000000 157.000000 -0.170656 0.981576 -0.085933
3280.00000000 -21930.00000000 580.00000000 171 17 161 0.000000 0.000000 0.000000 0.000000 -60.708740 0.000000 157.000000 0.628965 0.771978 0.091937
3210.00000000 -21800.00000000 610.00000000 171 17 161 0.000000 0.000000 0.000000 0.000000 -60.708740 0.000000 157.000000 0.351785 0.856992 0.376580
3210.00000000 -21770.00000000 610.00000000 171 17 161 0.000000 0.000000 0.000000 0.000000 -60.708740 0.000000 157.000000 0.198756 0.944432 0.261809
3220.00000000 -21810.00000000 590.00000000 171 17 161 0.000000 0.000000 0.000000 0.000000 -60.708740 0.000000 157.000000 0.309303 0.901271 0.303384
3200.00000000 -21790.00000000 500.00000000 171 17 161 0.000000 0.000000 0.000000 0.000000 -60.708740 0.000000 157.000000 0.225195 0.953371 0.200923
3200.00000000 -21790.00000000 500.00000000 171 17 161 0.000000 0.000000 0.000000 0.000000 -60.708740 0.000000 157.000000 0.225195 0.953371 0.200923
3240.00000000 -21860.00000000 650.00000000 171 17 161 0.000000 0.000000 0.000000 0.000000 -60.708740 0.000000 157.000000 0.426405 0.854349 -0.297098
3260.00000000 -21900.00000000 580.00000000 171 17 161 0.000000 0.000000 0.000000 0.000000 -60.708740 0.000000 157.000000 0.660699 0.657420 -0.362319
3260.00000000 -21900.00000000 580.00000000 171 17 161 0.000000 0.000000 0.000000 0.000000 -60.708740 0.000000 157.000000 0.660699 0.657420 -0.362319
3200.00000000 -21850.00000000 600.00000000 171 17 161 0.000000 0.000000 0.000000 0.000000 -60.708740 0.000000 157.000000 0.153460 0.972759 0.173752
3260.00000000 -21860.00000000 530.00000000 171 17 161 0.000000 0.000000 0.000000 0.000000 -60.708740 0.000000 157.000000 0.704402 0.547869 -0.451284
3230.00000000 -21860.00000000 500.00000000 171 17 161 0.000000 0.000000 0.000000 0.000000 -60.708740 0.000000 157.000000 0.480392 0.813336 0.328188
3210.00000000 -21810.00000000 480.00000000 171 17 161 0.000000 0.000000 0.000000 0.000000 -60.708740 0.000000 157.000000 0.218818 0.954478 -0.202709
3270.00000000 -21920.00000000 450.00000000 171 17 161 0.000000 0.000000 0.000000 0.000000 -60.708740 0.000000 157.000000 0.884344 0.214073 -0.414859
3260.00000000 -21890.00000000 420.00000000 171 17 161 0.000000 0.000000 0.000000 0.000000 -60.708740 0.000000 157.000000 0.942591 0.227712 -0.244273
3260.00000000 -21920.00000000 320.00000000 171 17 161 0.000000 0.000000 0.000000 0.000000 -60.708740 0.000000 157.000000 0.892802 0.206708 -0.400221
3260.00000000 -21910.00000000 320.00000000 171 17 161 0.000000 0.000000 0.000000 0.000000 -60.708740 0.000000 157.000000 0.945803 0.206680 -0.250480
3160.00000000 -21720.00000000 600.00000000 171 17 161 0.000000 0.000000 0.000000 0.000000 -60.708740 0.000000 157.000000 -0.135139 0.973756 -0.183132
3180.00000000 -21740.00000000 650.00000000 171 17 161 0.000000 0.000000 0.000000 0.000000 -60.708740 0.000000 157.000000 -0.108531 0.939261 0.325592
3160.00000000 -21760.00000000 610.00000000 171 17 161 0.000000 0.000000 0.000000 0.000000 -60.708740 0.000000 157.000000 0.285784 0.890269 0.354611
3170.00000000 -21760.00000000 610.00000000 171 17 161 0.000000 0.000000 0.000000 0.000000 -60.708740 0.000000 157.000000 0.475681 0.802412 0.360365
3160.00000000 -21760.00000000 610.00000000 171 17 161 0.000000 0.000000 0.000000 0.000000 -60.708740 0.000000 157.000000 0.285784 0.890269 0.354611
3110.00000000 -21740.00000000 640.00000000 171 17 161 0.000000 0.000000 0.000000 0.000000 -60.708740 0.000000 157.000000 -0.280022 0.959899 -0.013451
3120.00000000 -21730.00000000 640.00000000 171 17 161 0.000000 0.000000 0.000000 0.000000 -60.708740 0.000000 157.000000 -0.071032 0.981211 0.179387
3150.00000000 -21750.00000000 570.00000000 171 17 161 0.000000 0.000000 0.000000 0.000000 -60.708740 0.000000 157.000000 0.303049 0.859920 0.410731
3110.00000000 -21740.00000000 570.00000000 171 17 161 0.000000 0.000000 0.000000 0.000000 -60.708740 0.000000 157.000000 -0.139608 0.969574 -0.201087
3110.00000000 -21760.00000000 540.00000000 171 17 161 0.000000 0.000000 0.000000 0.000000 -60.708740 0.000000 157.000000 0.132345 0.947804 0.290090
3140.00000000 -21750.00000000 540.00000000 171 17 161 0.000000 0.000000 0.000000 0.000000 -60.708740 0.000000 157.000000 0.316653 0.854190 0.412421
3140.00000000 -21750.00000000 510.00000000 171 17 161 0.000000 0.000000 0.000000 0.000000 -60.708740 0.000000 157.000000 -0.160307 0.984406 -0.072435
3150.00000000 -21740.00000000 500.00000000 171 17 161 0.000000 0.000000 0.000000 0.000000 -60.708740 0.000000 157.000000 -0.014018 0.995286 0.095970
3130.00000000 -21730.00000000 520.00000000 171 17 161 0.000000 0.000000 0.000000 0.000000 -60.708740 0.000000 157.000000 -0.204177 0.956831 0.206846
3090.00000000 -21720.00000000 650.00000000 171 17 161 0.000000 0.000000 0.000000 0.000000 -60.708740 0.000000 157.000000 -0.091892 0.989876 0.108177
3060.00000000 -21710.00000000 650.00000000 171 17 161 0.000000 0.000000 0.000000 0.000000 -60.708740 0.000000 157.000000 -0.361175 0.897778 0.252085
3040.00000000 -21700.00000000 650.00000000 171 17 161 0.000000 0.000000 0.000000 0.000000 -60.708740 0.000000 157.000000 -0.268184 0.956306 0.116431
3060.00000000 -21710.00000000 650.00000000 171 17 161 0.000000 0.000000 0.000000 0.000000 -60.708740 0.000000 157.000000 -0.361175 0.897778 0.252085
3040.00000000 -21700.00000000 650.00000000 171 17 161 0.000000 0.000000 0.000000 0.000000 -60.708740 0.000000 157.000000 -0.268184 0.956306 0.116431
3060.00000000 -21720.00000000 570.00000000 171 17 161 0.000000 0.000000 0.000000 0.000000 -60.708740 0.000000 157.000000 0.297397 0.915402 0.271284
3050.00000000 -21690.00000000 610.00000000 171 17 161 0.000000 0.000000 0.000000 0.000000 -60.708740 0.000000 157.000000 -0.354580 0.915643 0.189394
3030.00000000 -21730.00000000 640.00000000 171 17 161 0.000000 0.000000 0.000000 0.000000 -60.708740 0.000000 157.000000 -0.405094 0.888261 0.216541
3090.00000000 -21720.00000000 530.00000000 171 17 161 0.000000 0.000000 0.000000 0.000000 -60.708740 0.000000 157.000000 0.109186 -0.877744 -0.466523
3100.00000000 -21690.00000000 540.00000000 171 17 161 0.000000 0.000000 0.000000 0.000000 -60.708740 0.000000 157.000000 -0.190540 0.970602 -0.147061
3100.00000000 -21720.00000000 500.00000000 171 17 161 0.000000 0.000000 0.000000 0.000000 -60.708740 0.000000 157.000000 -0.111237 0.921478 0.372162
3050.00000000 -21720.00000000 560.00000000 171 17 161 0.000000 0.000000 0.000000 0.000000 -60.708740 0.000000 157.000000 -0.354470 0.934512 -0.032225
3050.00000000 -21710.00000000 560.00000000 171 17 161 0.000000 0.000000 0.000000 0.000000 -60.708740 0.000000 157.000000 -0.462205 0.884399 0.064847
3050.00000000 -21710.00000000 510.00000000 171 17 161 0.000000 0.000000 0.000000 0.000000 -60.708740 0.000000 157.000000 0.288987 0.899565 0.327519
3030.00000000 -21720.00000000 520.00000000 171 17 161 0.000000 0.000000 0.000000 0.000000 -60.708740 0.000000 157.000000 -0.263015 0.841340 0.472196
3030.00000000 -21740.00000000 540.00000000 171 17 161 0.000000 0.000000 0.000000 0.000000 -60.708740 0.000000 157.000000 -0.109212 0.913790 0.391229
3160.00000000 -21720.00000000 470.00000000 171 17 161 0.000000 0.000000 0.000000 0.000000 -60.708740 0.000000 157.000000 0.046892 0.977512 0.205602
3110.00000000 -21720.00000000 460.00000000 171 17 161 0.000000 0.000000 0.000000 0.000000 -60.708740 0.000000 157.000000 0.242468 0.910343 0.335389
3140.00000000 -21730.00000000 450.00000000 171 17 161 0.000000 0.000000 0.000000 0.000000 -60.708740 0.000000 157.000000 0.509955 0.791310 0.337306
3150.00000000 -21730.00000000 440.00000000 171 17 161 0.000000 0.000000 0.000000 0.000000 -60.708740 0.000000 157.000000 0.564506 0.771227 0.294179
3120.00000000 -21740.00000000 410.00000000 171 17 161 0.000000 0.000000 0.000000 0.000000 -60.708740 0.000000 157.000000 -0.049203 0.916234 0.397611
3120.00000000 -21740.00000000 410.00000000 171 17 161 0.000000 0.000000 0.000000 0.000000 -60.708740 0.000000 157.000000 -0.049203 0.916234 0.397611
3150.00000000 -21740.00000000 390.00000000 171 17 161 0.000000 0.000000 0.000000 0.000000 -60.708740 0.000000 157.000000 0.059596 0.957337 0.282763
3140.00000000 -21750.00000000 370.00000000 171 17 161 0.000000 0.000000 0.000000 0.000000 -60.708740 0.000000 157.000000 0.268346 0.896956 0.351370
3150.00000000 -21740.00000000 390.00000000 171 17 161 0.000000 0.000000 0.000000 0.000000 -60.708740 0.000000 157.000000 0.059596 0.957337 0.282763
3130.00000000 -21760.00000000 330.00000000 171 17 161 0.000000 0.000000 0.000000 0.000000 -60.708740 0.000000 157.000000 -0.018054 0.968913 0.246742
3070.00000000 -21710.00000000 450.00000000 171 17 161 0.000000 0.000000 0.000000 0.000000 -60.708740 0.000000 157.000000 0.061191 0.901545 0.428336
3070.00000000 -21710.00000000 450.00000000 171 17 161 0.000000 0.000000 0.000000 0.000000 -60.708740 0.000000 157.000000 0.061191 0.901545 0.428336
3090.00000000 -21710.00000000 450.00000000 171 17 161 0.000000 0.000000 0.000000 0.000000 -60.708740 0.000000 157.000000 0.172064 0.866204 0.469132
3050.00000000 -21700.00000000 450.00000000 171 17 161 0.000000 0.000000 0.000000 0.000000 -60.708740 0.000000 157.000000 0.190700 0.892359 0.409059
3040.00000000 -21710.00000000 470.00000000 171 17 161 0.000000 0.000000 0.000000 0.000000 -60.708740 0.000000 157.000000 -0.378612 0.866056 0.326496
3040.00000000 -21690.00000000 430.00000000 171 17 161 0.000000 0.000000 0.000000 0.000000 -60.708740 0.000000 157.000000 0.232220 0.915900 0.327416
3080.00000000 -21700.00000000 400.00000000 171 17 161 0.000000 0.000000 0.000000 0.000000 -60.708740 0.000000 157.000000 -0.090783 0.962816 0.254449
3080.00000000 -21690.00000000 370.00000000 171 17 161 0.000000 0.000000 0.000000 0.000000 -60.708740 0.000000 157.000000 0.070838 0.926236 0.370227
3040.00000000 -21700.00000000 360.00000000 171 17 161 0.000000 0.000000 0.000000 0.000000 -60.708740 0.000000 157.000000 -0.314819 0.864601 0.391604
3050.00000000 -21690.00000000 360.00000000 171 17 161 0.000000 0.000000 0.000000 0.000000 -60.708740 0.000000 157.000000 0.110014 0.903788 0.413598
3060.00000000 -21690.00000000 400.00000000 171 17 161 0.000000 0.000000 0.000000 0.000000 -60.708740 0.000000 157.000000 0.287712 0.881213 0.375080
3030.00000000 -21690.00000000 360.00000000 171 17 161 0.000000 0.000000 0.000000 0.000000 -60.708740 0.000000 157.000000 -0.229145 0.851327 0.471948
3050.00000000 -21690.00000000 340.00000000 171 17 161 0.000000 0.000000 0.000000 0.000000 -60.708740 0.000000 157.000000 -0.346321 0.920223 0.182348
3040.00000000 -21710.00000000 330.00000000 171 17 161 0.000000 0.000000 0.000000 0.000000 -60.708740 0.000000 157.000000 -0.314335 0.914033 0.256393
3050.00000000 -21680.00000000 340.00000000 171 17 161 0.000000 0.000000 0.000000 0.000000 -60.708740 0.000000 157.000000 -0.339837 0.939396 0.045225
3030.00000000 -21710.00000000 330.00000000 171 17 161 0.000000 0.000000 0.000000 0.000000 -60.708740 0.000000 157.000000 -0.404232 0.901308 0.155693
3040.00000000 -21680.00000000 320.00000000 171 17 161 0.000000 0.000000 0.000000 0.000000 -60.708740 0.000000 157.000000 -0.142464 0.906974 0.396360
3160.00000000 -21790.00000000 650.00000000 171 17 161 0.000000 0.000000 0.000000 0.000000 -60.708740 0.000000 157.000000 0.217811 0.913076 -0.344747
3160.00000000 -21780.00000000 570.00000000 171 17 161 0.000000 0.000000 0.000000 0.000000 -60.708740 0.000000 157.000000 0.049990 0.947241 -0.316601
3180.00000000 -21820.00000000 630.00000000 171 17 161 0.000000 0.000000 0.000000 0.000000 -60.708740 0.000000 157.000000 0.195091 0.980186 0.034289
3140.00000000 -21780.00000000 630.00000000 171 17 161 0.000000 0.000000 0.000000 0.000000 -60.708740 0.000000 157.000000 -0.150583 0.988410 -0.019247
3130.00000000 -21770.00000000 600.00000000 171 17 161 0.000000 0.000000 0.000000 0.000000 -60.708740 0.000000 157.000000 0.072157 0.908087 0.412519
3190.00000000 -21790.00000000 340.00000000 171 17 161 0.000000 0.000000 0.000000 0.000000 -60.708740 0.000000 157.000000 0.606873 0.726629 0.322047
3180.00000000 -21770.00000000 320.00000000 171 17 161 0.000000 0.000000 0.000000 0.000000 -60.708740 0.000000 157.000000 0.563114 0.727287 0.392374
3300.00000000 -21920.00000000 270.00000000 171 17 161 0.000000 0.000000 0.000000 0.000000 -60.708740 0.000000 157.000000 0.769071 0.395104 -0.502416
3210.00000000 -21790.00000000 250.00000000 171 17 161 0.000000 0.000000 0.000000 0.000000 -60.708740 0.000000 157.000000 0.746221 0.571402 -0.341546
3210.00000000 -21790.00000000 250.00000000 171 17 161 0.000000 0.000000 0.000000 0.000000 -60.708740 0.000000 157.000000 0.746221 0.571402 -0.341546
3220.00000000 -21840.00000000 290.00000000 171 17 161 0.000000 0.000000 0.000000 0.000000 -60.708740 0.000000 157.000000 0.750122 0.572674 0.330699
3210.00000000 -21800.00000000 190.00000000 171 17 161 0.000000 0.000000 0.000000 0.000000 -60.708740 0.000000 157.000000 0.576414 0.729906 0.367402
3260.00000000 -21910.00000000 310.00000000 171 17 161 0.000000 0.000000 0.000000 0.000000 -60.708740 0.000000 157.000000 0.919064 0.222238 -0.325472
3250.00000000 -21900.00000000 310.00000000 171 17 161 0.000000 0.000000 0.000000 0.000000 -60.708740 0.000000 157.000000 0.920245 0.300049 -0.251237
3240.00000000 -21870.00000000 210.00000000 171 17 161 0.000000 0.000000 0.000000 0.000000 -60.708740 0.000000 157.000000 0.676744 0.569802 -0.466201
3290.00000000 -21880.00000000 110.00000000 171 17 161 0.000000 0.000000 0.000000 0.000000 -60.708740 0.000000 157.000000 0.865857 0.285565 -0.410786
3280.00000000 -21930.00000000 10.00000000 171 17 161 0.000000 0.000000 0.000000 0.000000 -60.708740 0.000000 157.000000 0.908490 0.264793 -0.323311
3290.00000000 -21900.00000000 10.00000000 171 17 161 0.000000 0.000000 0.000000 0.000000 -60.708740 0.000000 157.000000 0.897922 0.069915 -0.434567
3250.00000000 -21840.00000000 120.00000000 171 17 161 0.000000 0.000000 0.000000 0.000000 -60.708740 0.000000 157.000000 0.847727 0.321981 -0.421530
3210.00000000 -21770.00000000 130.00000000 171 17 161 0.000000 0.000000 0.000000 0.000000 -60.708740 0.000000 157.000000 0.581197 0.754116 0.305809
3200.00000000 -21800.00000000 40.00000000 171 17 161 0.000000 0.000000 0.000000 0.000000 -60.708740 0.000000 157.000000 0.689074 0.609756 -0.391632
3200.00000000 -21770.00000000 20.00000000 171 17 161 0.000000 0.000000 0.000000 0.000000 -60.708740 0.000000 157.000000 0.667214 0.650820 -0.362296
3200.00000000 -21770.00000000 20.00000000 171 17 161 0.000000 0.000000 0.000000 0.000000 -60.708740 0.000000 157.000000 0.667214 0.650820 -0.362296
3210.00000000 -21810.00000000 40.00000000 171 17 161 0.000000 0.000000 0.000000 0.000000 -60.708740 0.000000 157.000000 0.803658 0.441130 -0.399423
3250.00000000 -21850.00000000 110.00000000 171 17 161 0.000000 0.000000 0.000000 0.000000 -60.708740 0.000000 157.000000 0.787412 0.522280 -0.327423
3260.00000000 -21870.00000000 90.00000000 171 17 161 0.000000 0.000000 0.000000 0.000000 -60.708740 0.000000 157.000000 0.776166 0.447475 -0.444221
3260.00000000 -21870.00000000 90.00000000 171 17 161 0.000000 0.000000 0.000000 0.000000 -60.708740 0.000000 157.000000 0.776166 0.447475 -0.444221
3270.00000000 -21920.00000000 80.00000000 171 17 161 0.000000 0.000000 0.000000 0.000000 -60.708740 0.000000 157.000000 0.858253 0.062799 -0.509370
3270.00000000 -21910.00000000 80.00000000 171 17 161 0.000000 0.000000 0.000000 0.000000 -60.708740 0.000000 157.000000 0.934208 0.185171 -0.304905
3260.00000000 -21860.00000000 50.00000000 171 17 161 0.000000 0.000000 0.000000 0.000000 -60.708740 0.000000 157.000000 0.725356 0.546909 -0.418030
3260.00000000 -21860.00000000 50.00000000 171 17 161 0.000000 0.000000 0.000000 0.000000 -60.708740 0.000000 157.000000 0.725356 0.546909 -0.418030
3120.00000000 -21720.00000000 290.00000000 171 17 161 0.000000 0.000000 0.000000 0.000000 -60.708740 0.000000 157.000000 0.035733 0.911858 0.408947
3120.00000000 -21720.00000000 250.00000000 171 17 161 0.000000 0.000000 0.000000 0.000000 -60.708740 0.000000 157.000000 0.151242 0.941516 0.301122
3120.00000000 -21740.00000000 290.00000000 171 17 161 0.000000 0.000000 0.000000 0.000000 -60.708740 0.000000 157.000000 0.040515 0.929239 0.367252
3110.00000000 -21730.00000000 290.00000000 171 17 161 0.000000 0.000000 0.000000 0.000000 -60.708740 0.000000 157.000000 0.246498 0.866525 0.434019
3120.00000000 -21740.00000000 270.00000000 171 17 161 0.000000 0.000000 0.000000 0.000000 -60.708740 0.000000 157.000000 0.350909 0.884049 0.308739
3120.00000000 -21730.00000000 260.00000000 171 17 161 0.000000 0.000000 0.000000 0.000000 -60.708740 0.000000 157.000000 0.337877 0.869918 0.359281
3120.00000000 -21740.00000000 270.00000000 171 17 161 0.000000 0.000000 0.000000 0.000000 -60.708740 0.000000 157.000000 0.350909 0.884049 0.308739
3140.00000000 -21740.00000000 200.00000000 171 17 161 0.000000 0.000000 0.000000 0.000000 -60.708740 0.000000 157.000000 0.375988 0.858739 0.348137
3080.00000000 -21740.00000000 310.00000000 171 17 161 0.000000 0.000000 0.000000 0.000000 -60.708740 0.000000 157.000000 -0.001282 0.921514 0.388343
3040.00000000 -21720.00000000 260.00000000 171 17 161 0.000000 0.000000 0.000000 0.000000 -60.708740 0.000000 157.000000 0.230020 0.901032 0.367738
3070.00000000 -21720.00000000 220.00000000 171 17 161 0.000000 0.000000 0.000000 0.000000 -60.708740 0.000000 157.000000 0.015960 0.958812 0.283592
