//X Y Z R G B PointSourceId ScanDirectionFlag NumberOfReturns ReturnNumber GpsTime Intensity Classification Nx Ny Nz
-13270.00000000 -720.00000000 -800.00000000 26 165 160 97.000000 1.000000 4.000000 1.000000 -60.708740 114.000000 187.000000 0.998133 0.057726 -0.019942
-13250.00000000 -720.00000000 -840.00000000 26 165 160 97.000000 1.000000 4.000000 1.000000 -60.708740 114.000000 187.000000 0.975774 0.190183 0.108143
-13250.00000000 -720.00000000 -840.00000000 26 165 160 97.000000 1.000000 4.000000 1.000000 -60.708740 114.000000 187.000000 0.975774 0.190183 0.108143
-13260.00000000 -740.00000000 -850.00000000 26 165 160 97.000000 1.000000 4.000000 1.000000 -60.708740 114.000000 187.000000 0.983897 0.165371 0.067814
-13250.00000000 -730.00000000 -850.00000000 26 165 160 97.000000 1.000000 4.000000 1.000000 -60.708740 114.000000 187.000000 0.904151 -0.321966 0.280801
-13280.00000000 -860.00000000 -720.00000000 26 165 160 97.000000 1.000000 4.000000 1.000000 -60.708740 114.000000 187.000000 0.788868 -0.348644 0.506097
-13260.00000000 -870.00000000 -800.00000000 26 165 160 97.000000 1.000000 4.000000 1.000000 -60.708740 114.000000 187.000000 -0.653142 0.755596 -0.049804
-13240.00000000 -850.00000000 -780.00000000 26 165 160 97.000000 1.000000 4.000000 1.000000 -60.708740 114.000000 187.000000 0.736207 -0.426572 0.525391
-13240.00000000 -850.00000000 -780.00000000 26 165 160 97.000000 1.000000 4.000000 1.000000 -60.708740 114.000000 187.000000 0.736207 -0.426572 0.525391
-13240.00000000 -840.00000000 -800.00000000 26 165 160 97.000000 1.000000 4.000000 1.000000 -60.708740 114.000000 187.000000 0.945636 -0.323674 0.031733
-13210.00000000 -720.00000000 -910.00000000 26 165 160 97.000000 1.000000 4.000000 1.000000 -60.708740 114.000000 187.000000 0.950879 -0.001233 0.309560
-13210.00000000 -720.00000000 -930.00000000 26 165 160 97.000000 1.000000 4.000000 1.000000 -60.708740 114.000000 187.000000 0.972759 0.020341 0.230926
-13200.00000000 -740.00000000 -1000.00000000 26 165 160 97.000000 1.000000 4.000000 1.000000 -60.708740 114.000000 187.000000 0.975587 0.005870 0.219536
-13200.00000000 -790.00000000 -1030.00000000 26 165 160 97.000000 1.000000 4.000000 1.000000 -60.708740 114.000000 187.000000 0.938817 0.235052 0.251742
-13220.00000000 -830.00000000 -870.00000000 26 165 160 97.000000 1.000000 4.000000 1.000000 -60.708740 114.000000 187.000000 0.895185 -0.165775 0.413717
-13220.00000000 -820.00000000 -890.00000000 26 165 160 97.000000 1.000000 4.000000 1.000000 -60.708740 114.000000 187.000000 0.967819 -0.053150 0.245972
-13190.00000000 -870.00000000 -920.00000000 26 165 160 97.000000 1.000000 4.000000 1.000000 -60.708740 114.000000 187.000000 0.790752 -0.519181 0.324288
-13190.00000000 -870.00000000 -920.00000000 26 165 160 97.000000 1.000000 4.000000 1.000000 -60.708740 114.000000 187.000000 0.790752 -0.519181 0.324288
-13250.00000000 -750.00000000 -1020.00000000 26 165 160 97.000000 1.000000 4.000000 1.000000 -60.708740 114.000000 187.000000 0.983589 0.092474 -0.154924
-13260.00000000 -720.00000000 -1030.00000000 26 165 160 97.000000 1.000000 4.000000 1.000000 -60.708740 114.000000 187.000000 0.959672 0.280670 0.015933
-13250.00000000 -730.00000000 -1020.00000000 26 165 160 97.000000 1.000000 4.000000 1.000000 -60.708740 114.000000 187.000000 0.833609 0.029031 -0.551592
-13260.00000000 -730.00000000 -1030.00000000 26 165 160 97.000000 1.000000 4.000000 1.000000 -60.708740 114.000000 187.000000 0.880537 0.363996 -0.303581
-13260.00000000 -710.00000000 -1000.00000000 26 165 160 97.000000 1.000000 4.000000 1.000000 -60.708740 114.000000 187.000000 0.793931 0.251125 -0.553724
-13270.00000000 -710.00000000 -1030.00000000 26 165 160 97.000000 1.000000 4.000000 1.000000 -60.708740 114.000000 187.000000 0.918787 0.345078 -0.191710
-13270.00000000 -880.00000000 -770.00000000 26 165 160 97.000000 1.000000 4.000000 1.000000 -60.708740 114.000000 187.000000 -0.672312 0.718256 -0.179181
-13250.00000000 -880.00000000 -770.00000000 26 165 160 97.000000 1.000000 4.000000 1.000000 -60.708740 114.000000 187.000000 0.777054 -0.591673 0.214733
-13250.00000000 -880.00000000 -780.00000000 26 165 160 97.000000 1.000000 4.000000 1.000000 -60.708740 114.000000 187.000000 0.945225 -0.124689 0.301667
-13190.00000000 -890.00000000 -940.00000000 26 165 160 97.000000 1.000000 4.000000 1.000000 -60.708740 114.000000 187.000000 0.748532 -0.646117 0.149104
-13170.00000000 -900.00000000 -1000.00000000 26 165 160 97.000000 1.000000 4.000000 1.000000 -60.708740 114.000000 187.000000 0.953550 -0.178372 0.242746
-13220.00000000 -950.00000000 -990.00000000 26 165 160 97.000000 1.000000 4.000000 1.000000 -60.708740 114.000000 187.000000 0.909650 -0.281802 0.305163
-13310.00000000 -990.00000000 -940.00000000 26 165 160 97.000000 1.000000 4.000000 1.000000 -60.708740 114.000000 187.000000 0.848690 -0.206520 0.486904
-13230.00000000 -1000.00000000 -890.00000000 26 165 160 97.000000 1.000000 4.000000 1.000000 -60.708740 114.000000 187.000000 0.904835 -0.412805 0.104244
-13240.00000000 -1040.00000000 -990.00000000 26 165 160 97.000000 1.000000 4.000000 1.000000 -60.708740 114.000000 187.000000 0.655050 -0.457362 0.601440
-13250.00000000 -970.00000000 -950.00000000 26 165 160 97.000000 1.000000 4.000000 1.000000 -60.708740 114.000000 187.000000 0.724786 -0.687909 -0.038296
-13260.00000000 -1040.00000000 -950.00000000 26 165 160 97.000000 1.000000 4.000000 1.000000 -60.708740 114.000000 187.000000 0.844128 -0.535932 -0.015001
-13470.00000000 -1000.00000000 -990.00000000 26 165 160 97.000000 1.000000 4.000000 1.000000 -60.708740 114.000000 187.000000 -0.258827 0.826077 -0.500606
-13330.00000000 -1030.00000000 -900.00000000 26 165 160 97.000000 1.000000 4.000000 1.000000 -60.708740 114.000000 187.000000 0.788720 -0.614677 -0.009669
-13190.00000000 -770.00000000 -1110.00000000 26 165 160 97.000000 1.000000 4.000000 1.000000 -60.708740 114.000000 187.000000 0.994384 0.094439 0.047775
-13200.00000000 -790.00000000 -1090.00000000 26 165 160 97.000000 1.000000 4.000000 1.000000 -60.708740 114.000000 187.000000 0.958421 0.283931 0.028517
-13150.00000000 -870.00000000 -1060.00000000 26 165 160 97.000000 1.000000 4.000000 1.000000 -60.708740 114.000000 187.000000 0.947601 -0.272486 -0.166745
-13240.00000000 -750.00000000 -1070.00000000 26 165 160 97.000000 1.000000 4.000000 1.000000 -60.708740 114.000000 187.000000 0.846807 0.520779 -0.108195
-13270.00000000 -740.00000000 -1160.00000000 26 165 160 97.000000 1.000000 4.000000 1.000000 -60.708740 114.000000 187.000000 0.823019 0.551142 -0.137416
-13210.00000000 -720.00000000 -1230.00000000 26 165 160 97.000000 1.000000 4.000000 1.000000 -60.708740 114.000000 187.000000 0.887260 -0.028188 -0.460408
-13150.00000000 -780.00000000 -1230.00000000 26 165 160 97.000000 1.000000 4.000000 1.000000 -60.708740 114.000000 187.000000 0.865518 0.282400 -0.413678
-13180.00000000 -750.00000000 -1280.00000000 26 165 160 97.000000 1.000000 4.000000 1.000000 -60.708740 114.000000 187.000000 0.746972 0.554940 -0.366163
-13180.00000000 -780.00000000 -1320.00000000 26 165 160 97.000000 1.000000 4.000000 1.000000 -60.708740 114.000000 187.000000 0.874832 0.354497 -0.330154
-13220.00000000 -760.00000000 -1360.00000000 26 165 160 97.000000 1.000000 4.000000 1.000000 -60.708740 114.000000 187.000000 0.975790 0.162004 -0.146934
-13200.00000000 -840.00000000 -1280.00000000 26 165 160 97.000000 1.000000 4.000000 1.000000 -60.708740 114.000000 187.000000 0.999411 0.017354 0.029605
-13210.00000000 -810.00000000 -1260.00000000 26 165 160 97.000000 1.000000 4.000000 1.000000 -60.708740 114.000000 187.000000 0.795377 0.494510 -0.350478
-13190.00000000 -870.00000000 -1220.00000000 26 165 160 97.000000 1.000000 4.000000 1.000000 -60.708740 114.000000 187.000000 0.977096 0.192961 -0.089721
-13170.00000000 -830.00000000 -1330.00000000 26 165 160 97.000000 1.000000 4.000000 1.000000 -60.708740 114.000000 187.000000 0.861811 0.504913 0.048416
-13240.00000000 -760.00000000 -1220.00000000 26 165 160 97.000000 1.000000 4.000000 1.000000 -60.708740 114.000000 187.000000 0.950298 0.285754 -0.123605
-13280.00000000 -720.00000000 -1330.00000000 26 165 160 97.000000 1.000000 4.000000 1.000000 -60.708740 114.000000 187.000000 0.776160 0.231759 -0.586398
-13180.00000000 -910.00000000 -1060.00000000 26 165 160 97.000000 1.000000 4.000000 1.000000 -60.708740 114.000000 187.000000 0.909196 -0.245847 -0.336039
-13180.00000000 -900.00000000 -1070.00000000 26 165 160 97.000000 1.000000 4.000000 1.000000 -60.708740 114.000000 187.000000 0.953793 0.052071 0.295917
-13180.00000000 -900.00000000 -1070.00000000 26 165 160 97.000000 1.000000 4.000000 1.000000 -60.708740 114.000000 187.000000 0.953793 0.052071 0.295917
-13170.00000000 -890.00000000 -1100.00000000 26 165 160 97.000000 1.000000 4.000000 1.000000 -60.708740 114.000000 187.000000 0.988523 0.051906 -0.141877
-13170.00000000 -880.00000000 -1080.00000000 26 165 160 97.000000 1.000000 4.000000 1.000000 -60.708740 114.000000 187.000000 0.948265 0.018790 0.316923
-13170.00000000 -890.00000000 -1100.00000000 26 165 160 97.000000 1.000000 4.000000 1.000000 -60.708740 114.000000 187.000000 0.988523 0.051906 -0.141877
-13170.00000000 -880.00000000 -1100.00000000 26 165 160 97.000000 1.000000 4.000000 1.000000 -60.708740 114.000000 187.000000 0.915375 -0.402348 0.014323
-13170.00000000 -880.00000000 -1100.00000000 26 165 160 97.000000 1.000000 4.000000 1.000000 -60.708740 114.000000 187.000000 0.915375 -0.402348 0.014323
-13180.00000000 -920.00000000 -1050.00000000 26 165 160 97.000000 1.000000 4.000000 1.000000 -60.708740 114.000000 187.000000 0.938261 0.045295 0.342950
-13180.00000000 -930.00000000 -1070.00000000 26 165 160 97.000000 1.000000 4.000000 1.000000 -60.708740 114.000000 187.000000 0.926145 0.101998 0.363114
-13190.00000000 -910.00000000 -1070.00000000 26 165 160 97.000000 1.000000 4.000000 1.000000 -60.708740 114.000000 187.000000 0.973517 0.098726 -0.206201
-13190.00000000 -920.00000000 -1040.00000000 26 165 160 97.000000 1.000000 4.000000 1.000000 -60.708740 114.000000 187.000000 0.885425 -0.214335 0.412410
-13150.00000000 -950.00000000 -1160.00000000 26 165 160 97.000000 1.000000 4.000000 1.000000 -60.708740 114.000000 187.000000 0.877837 -0.288583 -0.382259
-13170.00000000 -940.00000000 -1120.00000000 26 165 160 97.000000 1.000000 4.000000 1.000000 -60.708740 114.000000 187.000000 0.951152 0.254990 0.174041
-13180.00000000 -890.00000000 -1180.00000000 26 165 160 97.000000 1.000000 4.000000 1.000000 -60.708740 114.000000 187.000000 0.995619 -0.018338 0.091688
-13170.00000000 -910.00000000 -1190.00000000 26 165 160 97.000000 1.000000 4.000000 1.000000 -60.708740 114.000000 187.000000 0.959799 0.170308 -0.223117
-13210.00000000 -1000.00000000 -1100.00000000 26 165 160 97.000000 1.000000 4.000000 1.000000 -60.708740 114.000000 187.000000 0.850393 -0.331140 0.408873
-13190.00000000 -990.00000000 -1050.00000000 26 165 160 97.000000 1.000000 4.000000 1.000000 -60.708740 114.000000 187.000000 0.804435 -0.574597 -0.150738
-13160.00000000 -900.00000000 -1220.00000000 26 165 160 97.000000 1.000000 4.000000 1.000000 -60.708740 114.000000 187.000000 0.981168 -0.085898 -0.173005
-13390.00000000 -980.00000000 -1170.00000000 26 165 160 97.000000 1.000000 4.000000 1.000000 -60.708740 114.000000 187.000000 0.830768 -0.472275 0.294587
-13400.00000000 -980.00000000 -1100.00000000 26 165 160 97.000000 1.000000 4.000000 1.000000 -60.708740 114.000000 187.000000 0.773939 -0.633223 0.006898
-13440.00000000 -970.00000000 -1050.00000000 26 165 160 97.000000 1.000000 4.000000 1.000000 -60.708740 114.000000 187.000000 0.492697 -0.657490 0.570049
-13460.00000000 -1040.00000000 -1200.00000000 26 165 160 97.000000 1.000000 4.000000 1.000000 -60.708740 114.000000 187.000000 0.814476 -0.216273 0.538382
-13550.00000000 -1010.00000000 -860.00000000 26 165 160 97.000000 1.000000 4.000000 1.000000 -60.708740 114.000000 187.000000 -0.395027 0.656175 -0.642952
-13590.00000000 -1010.00000000 -800.00000000 26 165 160 97.000000 1.000000 4.000000 1.000000 -60.708740 114.000000 187.000000 -0.129246 0.893362 -0.430348
-13550.00000000 -1040.00000000 -890.00000000 26 165 160 97.000000 1.000000 4.000000 1.000000 -60.708740 114.000000 187.000000 0.067435 0.887663 -0.455529
-13490.00000000 -990.00000000 -950.00000000 26 165 160 97.000000 1.000000 4.000000 1.000000 -60.708740 114.000000 187.000000 0.416514 -0.732603 0.538340
-13500.00000000 -1000.00000000 -1000.00000000 26 165 160 97.000000 1.000000 4.000000 1.000000 -60.708740 114.000000 187.000000 0.400205 -0.471497 0.785828
-13490.00000000 -1030.00000000 -990.00000000 26 165 160 97.000000 1.000000 4.000000 1.000000 -60.708740 114.000000 187.000000 -0.638915 0.648873 -0.413221
-13490.00000000 -1020.00000000 -1030.00000000 26 165 160 97.000000 1.000000 4.000000 1.000000 -60.708740 114.000000 187.000000 -0.291249 0.935064 -0.202063
-13730.00000000 -1030.00000000 -940.00000000 26 165 160 97.000000 1.000000 4.000000 1.000000 -60.708740 114.000000 187.000000 0.530969 0.494119 -0.688417
-13730.00000000 -1030.00000000 -940.00000000 26 165 160 97.000000 1.000000 4.000000 1.000000 -60.708740 114.000000 187.000000 0.530969 0.494119 -0.688417
-13670.00000000 -1010.00000000 -970.00000000 26 165 160 97.000000 1.000000 4.000000 1.000000 -60.708740 114.000000 187.000000 0.452419 0.807320 -0.378881
-13540.00000000 -1040.00000000 -1060.00000000 26 165 160 97.000000 1.000000 4.000000 1.000000 -60.708740 114.000000 187.000000 -0.533986 0.790679 -0.299476
-13520.00000000 -1030.00000000 -1150.00000000 26 165 160 97.000000 1.000000 4.000000 1.000000 -60.708740 114.000000 187.000000 -0.220868 0.860936 -0.458264
-13520.00000000 -1040.00000000 -1230.00000000 26 165 160 97.000000 1.000000 4.000000 1.000000 -60.708740 114.000000 187.000000 0.847184 -0.136076 0.513578
-13660.00000000 -940.00000000 -1170.00000000 26 165 160 97.000000 1.000000 4.000000 1.000000 -60.708740 114.000000 187.000000 0.875659 0.137047 -0.463075
-13700.00000000 -920.00000000 -1240.00000000 26 165 160 97.000000 1.000000 4.000000 1.000000 -60.708740 114.000000 187.000000 0.902805 -0.429593 0.019827
-13920.00000000 -470.00000000 -240.00000000 26 165 160 97.000000 1.000000 4.000000 1.000000 -60.708740 114.000000 187.000000 0.644561 0.631236 -0.431373
-13920.00000000 -530.00000000 -320.00000000 26 165 160 97.000000 1.000000 4.000000 1.000000 -60.708740 114.000000 187.000000 0.824422 0.198894 -0.529877
-13920.00000000 -560.00000000 -340.00000000 26 165 160 97.000000 1.000000 4.000000 1.000000 -60.708740 114.000000 187.000000 0.959956 0.278697 -0.028489
-14110.00000000 -500.00000000 -180.00000000 26 165 160 97.000000 1.000000 4.000000 1.000000 -60.708740 114.000000 187.000000 0.824587 0.298854 -0.480357
-14070.00000000 -500.00000000 -110.00000000 26 165 160 97.000000 1.000000 4.000000 1.000000 -60.708740 114.000000 187.000000 0.944790 0.077313 -0.318424
-13820.00000000 -1020.00000000 -740.00000000 26 165 160 97.000000 1.000000 4.000000 1.000000 -60.708740 114.000000 187.000000 0.445483 0.602320 -0.662386
-13260.00000000 -540.00000000 -1370.00000000 26 165 160 97.000000 1.000000 4.000000 1.000000 -60.708740 114.000000 187.000000 0.532214 0.572763 -0.623450
-13030.00000000 -1050.00000000 -690.00000000 26 165 160 97.000000 1.000000 4.000000 1.000000 -60.708740 114.000000 187.000000 0.944617 -0.127651 0.302331
-13050.00000000 -1120.00000000 -760.00000000 26 165 160 97.000000 1.000000 4.000000 1.000000 -60.708740 114.000000 187.000000 0.890345 -0.235549 0.389618
-13070.00000000 -1060.00000000 -850.00000000 26 165 160 97.000000 1.000000 4.000000 1.000000 -60.708740 114.000000 187.000000 0.804363 -0.291208 0.517878
-13100.00000000 -1060.00000000 -930.00000000 26 165 160 97.000000 1.000000 4.000000 1.000000 -60.708740 114.000000 187.000000 0.925382 -0.320705 0.202030
-13640.00000000 -1070.00000000 -680.00000000 26 165 160 97.000000 1.000000 4.000000 1.000000 -60.708740 114.000000 187.000000 -0.333004 -0.501896 0.798254
-13740.00000000 -1080.00000000 -600.00000000 26 165 160 97.000000 1.000000 4.000000 1.000000 -60.708740 114.000000 187.000000 0.684499 0.510445 -0.520487
-13300.00000000 -1060.00000000 -790.00000000 26 165 160 97.000000 1.000000 4.000000 1.000000 -60.708740 114.000000 187.000000 0.748835 -0.606351 0.267554
-13260.00000000 -1100.00000000 -820.00000000 26 165 160 97.000000 1.000000 4.000000 1.000000 -60.708740 114.000000 187.000000 0.586228 -0.339395 0.735627
-13590.00000000 -1060.00000000 -860.00000000 26 165 160 97.000000 1.000000 4.000000 1.000000 -60.708740 114.000000 187.000000 -0.058418 0.898003 -0.436095
-13580.00000000 -1120.00000000 -980.00000000 26 165 160 97.000000 1.000000 4.000000 1.000000 -60.708740 114.000000 187.000000 0.225945 0.933250 -0.279273
-13640.00000000 -1080.00000000 -990.00000000 26 165 160 97.000000 1.000000 4.000000 1.000000 -60.708740 114.000000 187.000000 -0.427897 -0.530328 0.731886
-13630.00000000 -1110.00000000 -980.00000000 26 165 160 97.000000 1.000000 4.000000 1.000000 -60.708740 114.000000 187.000000 -0.043557 -0.591533 0.805103
-13630.00000000 -1110.00000000 -970.00000000 26 165 160 97.000000 1.000000 4.000000 1.000000 -60.708740 114.000000 187.000000 -0.110654 0.768678 -0.629992
-13590.00000000 -1190.00000000 -1020.00000000 26 165 160 97.000000 1.000000 4.000000 1.000000 -60.708740 114.000000 187.000000 -0.076212 0.800940 -0.593875
-13690.00000000 -1070.00000000 -870.00000000 26 165 160 97.000000 1.000000 4.000000 1.000000 -60.708740 114.000000 187.000000 0.721768 0.546694 -0.424472
-13660.00000000 -1310.00000000 -850.00000000 26 165 160 97.000000 1.000000 4.000000 1.000000 -60.708740 114.000000 187.000000 0.493802 0.797435 -0.346780
-13500.00000000 -1050.00000000 -1180.00000000 26 165 160 97.000000 1.000000 4.000000 1.000000 -60.708740 114.000000 187.000000 0.525225 -0.525225 0.669536
-13550.00000000 -1090.00000000 -1140.00000000 26 165 160 97.000000 1.000000 4.000000 1.000000 -60.708740 114.000000 187.000000 0.167777 -0.597043 0.784469
-13570.00000000 -1090.00000000 -1150.00000000 26 165 160 97.000000 1.000000 4.000000 1.000000 -60.708740 114.000000 187.000000 -0.024268 0.938806 -0.343590
-13620.00000000 -1110.00000000 -1130.00000000 26 165 160 97.000000 1.000000 4.000000 1.000000 -60.708740 114.000000 187.000000 0.479890 0.812487 -0.331013
-13590.00000000 -1130.00000000 -1130.00000000 26 165 160 97.000000 1.000000 4.000000 1.000000 -60.708740 114.000000 187.000000 0.407024 0.720120 -0.561924
-13540.00000000 -1070.00000000 -1250.00000000 26 165 160 97.000000 1.000000 4.000000 1.000000 -60.708740 114.000000 187.000000 -0.357223 0.889322 -0.285480
-13550.00000000 -1100.00000000 -1250.00000000 26 165 160 97.000000 1.000000 4.000000 1.000000 -60.708740 114.000000 187.000000 0.500348 -0.517082 0.694463
-13560.00000000 -1130.00000000 -1200.00000000 26 165 160 97.000000 1.000000 4.000000 1.000000 -60.708740 114.000000 187.000000 -0.424983 0.725943 -0.540737
-13570.00000000 -1120.00000000 -1200.00000000 26 165 160 97.000000 1.000000 4.000000 1.000000 -60.708740 114.000000 187.000000 -0.015584 0.969813 -0.243352
-13570.00000000 -1060.00000000 -1200.00000000 26 165 160 97.000000 1.000000 4.000000 1.000000 -60.708740 114.000000 187.000000 0.017186 0.900294 -0.434944
-13660.00000000 -1390.00000000 -740.00000000 26 165 160 97.000000 1.000000 4.000000 1.000000 -60.708740 114.000000 187.000000 0.293767 0.872168 -0.391182
-13840.00000000 -1110.00000000 -610.00000000 26 165 160 97.000000 1.000000 4.000000 1.000000 -60.708740 114.000000 187.000000 -0.347143 -0.422541 0.837228
-14180.00000000 -1070.00000000 -900.00000000 26 165 160 97.000000 1.000000 4.000000 1.000000 -60.708740 114.000000 187.000000 0.999426 0.005073 -0.033483
-13130.00000000 -560.00000000 180.00000000 26 165 160 97.000000 1.000000 4.000000 1.000000 -60.708740 114.000000 187.000000 -0.520185 0.758264 -0.392993
-13100.00000000 -570.00000000 110.00000000 26 165 160 97.000000 1.000000 4.000000 1.000000 -60.708740 114.000000 187.000000 -0.578934 0.778674 -0.241873
-13160.00000000 -530.00000000 60.00000000 26 165 160 97.000000 1.000000 4.000000 1.000000 -60.708740 114.000000 187.000000 0.463892 -0.577771 0.671554
-13300.00000000 -660.00000000 190.00000000 26 165 160 97.000000 1.000000 4.000000 1.000000 -60.708740 114.000000 187.000000 -0.278780 0.917229 -0.284558
-13150.00000000 -580.00000000 120.00000000 26 165 160 97.000000 1.000000 4.000000 1.000000 -60.708740 114.000000 187.000000 -0.553506 0.760062 -0.340495
-13180.00000000 -550.00000000 110.00000000 26 165 160 97.000000 1.000000 4.000000 1.000000 -60.708740 114.000000 187.000000 0.744619 -0.640219 0.188842
-13160.00000000 -670.00000000 90.00000000 26 165 160 97.000000 1.000000 4.000000 1.000000 -60.708740 114.000000 187.000000 -0.608970 0.753738 -0.247050
-13150.00000000 -680.00000000 0.00000000 26 165 160 97.000000 1.000000 4.000000 1.000000 -60.708740 114.000000 187.000000 -0.569306 0.565928 -0.596336
-13260.00000000 -680.00000000 100.00000000 26 165 160 97.000000 1.000000 4.000000 1.000000 -60.708740 114.000000 187.000000 -0.146431 0.832735 -0.533956
-13270.00000000 -660.00000000 100.00000000 26 165 160 97.000000 1.000000 4.000000 1.000000 -60.708740 114.000000 187.000000 0.368279 -0.577789 0.728375
-13290.00000000 -660.00000000 100.00000000 26 165 160 97.000000 1.000000 4.000000 1.000000 -60.708740 114.000000 187.000000 0.343394 -0.594022 0.727474
-13330.00000000 -610.00000000 270.00000000 26 165 160 97.000000 1.000000 4.000000 1.000000 -60.708740 114.000000 187.000000 -0.215992 0.937822 -0.271731
-13340.00000000 -670.00000000 200.00000000 26 165 160 97.000000 1.000000 4.000000 1.000000 -60.708740 114.000000 187.000000 -0.064617 0.889513 -0.452318
-13320.00000000 -670.00000000 60.00000000 26 165 160 97.000000 1.000000 4.000000 1.000000 -60.708740 114.000000 187.000000 -0.301198 0.918006 -0.257964
-13650.00000000 -500.00000000 180.00000000 26 165 160 97.000000 1.000000 4.000000 1.000000 -60.708740 114.000000 187.000000 0.664608 0.533369 -0.523273
-13660.00000000 -520.00000000 240.00000000 26 165 160 97.000000 1.000000 4.000000 1.000000 -60.708740 114.000000 187.000000 0.201252 0.830733 -0.519019
-13710.00000000 -550.00000000 200.00000000 26 165 160 97.000000 1.000000 4.000000 1.000000 -60.708740 114.000000 187.000000 -0.388637 -0.512221 0.765892
-13130.00000000 -470.00000000 -170.00000000 26 165 160 97.000000 1.000000 4.000000 1.000000 -60.708740 114.000000 187.000000 0.940631 -0.339429 0.001253
-13140.00000000 -490.00000000 -120.00000000 26 165 160 97.000000 1.000000 4.000000 1.000000 -60.708740 114.000000 187.000000 0.811835 -0.583807 0.009616
-13060.00000000 -460.00000000 -330.00000000 26 165 160 97.000000 1.000000 4.000000 1.000000 -60.708740 114.000000 187.000000 0.939427 -0.232421 0.251906
-13100.00000000 -440.00000000 -350.00000000 26 165 160 97.000000 1.000000 4.000000 1.000000 -60.708740 114.000000 187.000000 0.937795 -0.108983 0.329641
-13080.00000000 -510.00000000 -270.00000000 26 165 160 97.000000 1.000000 4.000000 1.000000 -60.708740 114.000000 187.000000 0.841029 -0.525095 -0.130177
-13120.00000000 -490.00000000 -210.00000000 26 165 160 97.000000 1.000000 4.000000 1.000000 -60.708740 114.000000 187.000000 0.916608 -0.392832 -0.074247
-13070.00000000 -500.00000000 -250.00000000 26 165 160 97.000000 1.000000 4.000000 1.000000 -60.708740 114.000000 187.000000 0.985484 -0.168645 0.019503
-13100.00000000 -470.00000000 -240.00000000 26 165 160 97.000000 1.000000 4.000000 1.000000 -60.708740 114.000000 187.000000 0.884794 -0.465751 -0.014680
-13140.00000000 -500.00000000 -330.00000000 26 165 160 97.000000 1.000000 4.000000 1.000000 -60.708740 114.000000 187.000000 0.938755 -0.334986 -0.080767
-13080.00000000 -620.00000000 -240.00000000 26 165 160 97.000000 1.000000 4.000000 1.000000 -60.708740 114.000000 187.000000 -0.612209 0.655580 -0.442058
-13100.00000000 -700.00000000 -240.00000000 26 165 160 97.000000 1.000000 4.000000 1.000000 -60.708740 114.000000 187.000000 0.740382 -0.251004 0.623563
-13070.00000000 -630.00000000 -290.00000000 26 165 160 97.000000 1.000000 4.000000 1.000000 -60.708740 114.000000 187.000000 0.780056 -0.596873 0.187763
-13060.00000000 -450.00000000 -420.00000000 26 165 160 97.000000 1.000000 4.000000 1.000000 -60.708740 114.000000 187.000000 0.929816 -0.341986 -0.135970
-13120.00000000 -400.00000000 -390.00000000 26 165 160 97.000000 1.000000 4.000000 1.000000 -60.708740 114.000000 187.000000 0.967884 0.145634 0.204918
-13070.00000000 -410.00000000 -380.00000000 26 165 160 97.000000 1.000000 4.000000 1.000000 -60.708740 114.000000 187.000000 0.904569 -0.412684 -0.106992
-13090.00000000 -440.00000000 -470.00000000 26 165 160 97.000000 1.000000 4.000000 1.000000 -60.708740 114.000000 187.000000 0.867636 -0.437577 0.236081
-13100.00000000 -450.00000000 -490.00000000 26 165 160 97.000000 1.000000 4.000000 1.000000 -60.708740 114.000000 187.000000 0.929121 -0.364491 0.062295
-13090.00000000 -450.00000000 -460.00000000 26 165 160 97.000000 1.000000 4.000000 1.000000 -60.708740 114.000000 187.000000 0.858681 -0.488788 -0.154122
-13080.00000000 -500.00000000 -440.00000000 26 165 160 97.000000 1.000000 4.000000 1.000000 -60.708740 114.000000 187.000000 0.848558 -0.308707 0.429708
-13100.00000000 -460.00000000 -430.00000000 26 165 160 97.000000 1.000000 4.000000 1.000000 -60.708740 114.000000 187.000000 0.980837 -0.111153 0.160012
-13050.00000000 -440.00000000 -660.00000000 26 165 160 97.000000 1.000000 4.000000 1.000000 -60.708740 114.000000 187.000000 0.870422 0.322775 -0.371727
-13040.00000000 -400.00000000 -690.00000000 26 165 160 97.000000 1.000000 4.000000 1.000000 -60.708740 114.000000 187.000000 0.989015 -0.142921 -0.037731
-13040.00000000 -470.00000000 -640.00000000 26 165 160 97.000000 1.000000 4.000000 1.000000 -60.708740 114.000000 187.000000 0.961108 -0.264209 0.080411
-13090.00000000 -410.00000000 -560.00000000 26 165 160 97.000000 1.000000 4.000000 1.000000 -60.708740 114.000000 187.000000 0.940762 0.245235 -0.234151
-13080.00000000 -430.00000000 -540.00000000 26 165 160 97.000000 1.000000 4.000000 1.000000 -60.708740 114.000000 187.000000 0.944299 0.218550 0.246040
-13120.00000000 -440.00000000 -630.00000000 26 165 160 97.000000 1.000000 4.000000 1.000000 -60.708740 114.000000 187.000000 0.956630 0.259224 -0.132902
-12990.00000000 -620.00000000 -630.00000000 26 165 160 97.000000 1.000000 4.000000 1.000000 -60.708740 114.000000 187.000000 0.960458 -0.101847 -0.259130
-13120.00000000 -740.00000000 -160.00000000 26 165 160 97.000000 1.000000 4.000000 1.000000 -60.708740 114.000000 187.000000 0.747731 -0.282193 0.601054
-13080.00000000 -720.00000000 -100.00000000 26 165 160 97.000000 1.000000 4.000000 1.000000 -60.708740 114.000000 187.000000 -0.378763 0.788149 -0.485139
-12900.00000000 -380.00000000 -770.00000000 26 165 160 97.000000 1.000000 4.000000 1.000000 -60.708740 114.000000 187.000000 0.949660 0.299962 -0.090381
-12930.00000000 -390.00000000 -910.00000000 26 165 160 97.000000 1.000000 4.000000 1.000000 -60.708740 114.000000 187.000000 0.784534 0.026571 -0.619516
-12940.00000000 -410.00000000 -930.00000000 26 165 160 97.000000 1.000000 4.000000 1.000000 -60.708740 114.000000 187.000000 0.924170 0.261396 -0.278536
-12940.00000000 -560.00000000 -830.00000000 26 165 160 97.000000 1.000000 4.000000 1.000000 -60.708740 114.000000 187.000000 0.965756 -0.010851 -0.259223
-12970.00000000 -620.00000000 -860.00000000 26 165 160 97.000000 1.000000 4.000000 1.000000 -60.708740 114.000000 187.000000 0.948002 -0.115675 -0.296500
-12920.00000000 -620.00000000 -900.00000000 26 165 160 97.000000 1.000000 4.000000 1.000000 -60.708740 114.000000 187.000000 0.999098 -0.027896 0.032029
-12920.00000000 -560.00000000 -1030.00000000 26 165 160 97.000000 1.000000 4.000000 1.000000 -60.708740 114.000000 187.000000 0.986699 0.069386 0.147005
-12960.00000000 -570.00000000 -950.00000000 26 165 160 97.000000 1.000000 4.000000 1.000000 -60.708740 114.000000 187.000000 0.951439 0.305322 0.039274
-13030.00000000 -410.00000000 -740.00000000 26 165 160 97.000000 1.000000 4.000000 1.000000 -60.708740 114.000000 187.000000 0.859059 0.095451 -0.502899
-13050.00000000 -420.00000000 -770.00000000 26 165 160 97.000000 1.000000 4.000000 1.000000 -60.708740 114.000000 187.000000 0.982351 -0.083168 -0.167542
-13020.00000000 -400.00000000 -860.00000000 26 165 160 97.000000 1.000000 4.000000 1.000000 -60.708740 114.000000 187.000000 0.828442 0.400757 -0.391253
-13000.00000000 -460.00000000 -750.00000000 26 165 160 97.000000 1.000000 4.000000 1.000000 -60.708740 114.000000 187.000000 0.918482 0.380298 -0.108461
-13020.00000000 -410.00000000 -890.00000000 26 165 160 97.000000 1.000000 4.000000 1.000000 -60.708740 114.000000 187.000000 0.692395 0.545574 -0.472163
-12990.00000000 -380.00000000 -880.00000000 26 165 160 97.000000 1.000000 4.000000 1.000000 -60.708740 114.000000 187.000000 0.899825 -0.063981 -0.431535
-12980.00000000 -610.00000000 -740.00000000 26 165 160 97.000000 1.000000 4.000000 1.000000 -60.708740 114.000000 187.000000 0.957295 0.065009 -0.281707
-12980.00000000 -620.00000000 -830.00000000 26 165 160 97.000000 1.000000 4.000000 1.000000 -60.708740 114.000000 187.000000 0.945949 0.298369 0.127108
-12980.00000000 -590.00000000 -890.00000000 26 165 160 97.000000 1.000000 4.000000 1.000000 -60.708740 114.000000 187.000000 0.987290 0.007880 -0.158732
-12960.00000000 -570.00000000 -1090.00000000 26 165 160 97.000000 1.000000 4.000000 1.000000 -60.708740 114.000000 187.000000 0.994688 0.081131 -0.063349
-13030.00000000 -520.00000000 -1210.00000000 26 165 160 97.000000 1.000000 4.000000 1.000000 -60.708740 114.000000 187.000000 0.894864 0.439849 -0.075836
-12980.00000000 -540.00000000 -1180.00000000 26 165 160 97.000000 1.000000 4.000000 1.000000 -60.708740 114.000000 187.000000 0.764868 0.409343 -0.497409
-13120.00000000 -850.00000000 -1030.00000000 26 165 160 97.000000 1.000000 4.000000 1.000000 -60.708740 114.000000 187.000000 0.978991 -0.168707 0.114523
-13070.00000000 -1020.00000000 -930.00000000 26 165 160 97.000000 1.000000 4.000000 1.000000 -60.708740 114.000000 187.000000 0.949264 0.018760 0.313920
-13110.00000000 -860.00000000 -1160.00000000 26 165 160 97.000000 1.000000 4.000000 1.000000 -60.708740 114.000000 187.000000 0.970006 -0.144415 0.195535
-13060.00000000 -850.00000000 -1300.00000000 26 165 160 97.000000 1.000000 4.000000 1.000000 -60.708740 114.000000 187.000000 0.831114 0.464860 -0.305211
-13140.00000000 -790.00000000 -1200.00000000 26 165 160 97.000000 1.000000 4.000000 1.000000 -60.708740 114.000000 187.000000 0.933978 0.138114 -0.329559
-13120.00000000 -870.00000000 -1340.00000000 26 165 160 97.000000 1.000000 4.000000 1.000000 -60.708740 114.000000 187.000000 0.828260 0.508635 -0.235109
-13120.00000000 -840.00000000 -1340.00000000 26 165 160 97.000000 1.000000 4.000000 1.000000 -60.708740 114.000000 187.000000 0.992409 -0.094569 -0.078618
-13040.00000000 -860.00000000 -1370.00000000 26 165 160 97.000000 1.000000 4.000000 1.000000 -60.708740 114.000000 187.000000 0.920700 0.265725 -0.285834
-13150.00000000 -490.00000000 -110.00000000 26 165 160 97.000000 1.000000 4.000000 1.000000 -60.708740 114.000000 187.000000 0.675085 -0.494169 0.547774
-13160.00000000 -490.00000000 -140.00000000 26 165 160 97.000000 1.000000 4.000000 1.000000 -60.708740 114.000000 187.000000 0.561614 -0.541375 0.625702
-13160.00000000 -540.00000000 -30.00000000 26 165 160 97.000000 1.000000 4.000000 1.000000 -60.708740 114.000000 187.000000 0.707356 -0.544248 0.451044
-13290.00000000 -670.00000000 -170.00000000 26 165 160 97.000000 1.000000 4.000000 1.000000 -60.708740 114.000000 187.000000 -0.642669 0.746473 -0.172498
-13280.00000000 -640.00000000 -80.00000000 26 165 160 97.000000 1.000000 4.000000 1.000000 -60.708740 114.000000 187.000000 0.655947 -0.712849 0.248154
-13290.00000000 -690.00000000 -180.00000000 26 165 160 97.000000 1.000000 4.000000 1.000000 -60.708740 114.000000 187.000000 0.626116 -0.394833 0.672373
-13290.00000000 -670.00000000 -210.00000000 26 165 160 97.000000 1.000000 4.000000 1.000000 -60.708740 114.000000 187.000000 0.705390 -0.586448 0.398124
-13260.00000000 -710.00000000 -290.00000000 26 165 160 97.000000 1.000000 4.000000 1.000000 -60.708740 114.000000 187.000000 -0.843122 0.425457 -0.328833
-13310.00000000 -780.00000000 -330.00000000 26 165 160 97.000000 1.000000 4.000000 1.000000 -60.708740 114.000000 187.000000 0.685256 -0.455170 0.568546
-13290.00000000 -720.00000000 -210.00000000 26 165 160 97.000000 1.000000 4.000000 1.000000 -60.708740 114.000000 187.000000 0.356648 -0.448583 0.819497
-13320.00000000 -870.00000000 -140.00000000 26 165 160 97.000000 1.000000 4.000000 1.000000 -60.708740 114.000000 187.000000 0.521376 -0.507964 0.685668
-13360.00000000 -900.00000000 -100.00000000 26 165 160 97.000000 1.000000 4.000000 1.000000 -60.708740 114.000000 187.000000 -0.127518 0.906640 -0.402173
-13320.00000000 -900.00000000 -230.00000000 26 165 160 97.000000 1.000000 4.000000 1.000000 -60.708740 114.000000 187.000000 0.303526 -0.595811 0.743560
-13290.00000000 -730.00000000 -430.00000000 26 165 160 97.000000 1.000000 4.000000 1.000000 -60.708740 114.000000 187.000000 0.797373 -0.562943 0.217465
-13290.00000000 -730.00000000 -490.00000000 26 165 160 97.000000 1.000000 4.000000 1.000000 -60.708740 114.000000 187.000000 -0.394801 0.870391 -0.294195
-13280.00000000 -730.00000000 -560.00000000 26 165 160 97.000000 1.000000 4.000000 1.000000 -60.708740 114.000000 187.000000 0.895622 -0.286659 0.340129
-13260.00000000 -820.00000000 -650.00000000 26 165 160 97.000000 1.000000 4.000000 1.000000 -60.708740 114.000000 187.000000 0.628932 -0.541252 0.558114
-13250.00000000 -800.00000000 -650.00000000 26 165 160 97.000000 1.000000 4.000000 1.000000 -60.708740 114.000000 187.000000 0.774242 -0.546618 0.318994
-13330.00000000 -780.00000000 -410.00000000 26 165 160 97.000000 1.000000 4.000000 1.000000 -60.708740 114.000000 187.000000 0.797455 -0.459141 0.391478
-13320.00000000 -760.00000000 -390.00000000 26 165 160 97.000000 1.000000 4.000000 1.000000 -60.708740 114.000000 187.000000 -0.361662 0.879187 -0.310212
-13330.00000000 -770.00000000 -470.00000000 26 165 160 97.000000 1.000000 4.000000 1.000000 -60.708740 114.000000 187.000000 0.674301 -0.347763 0.651444
-13320.00000000 -770.00000000 -490.00000000 26 165 160 97.000000 1.000000 4.000000 1.000000 -60.708740 114.000000 187.000000 -0.769632 0.623178 -0.138982
-13380.00000000 -850.00000000 -490.00000000 26 165 160 97.000000 1.000000 4.000000 1.000000 -60.708740 114.000000 187.000000 0.379744 -0.586877 0.715102
-13350.00000000 -860.00000000 -510.00000000 26 165 160 97.000000 1.000000 4.000000 1.000000 -60.708740 114.000000 187.000000 0.725953 -0.609542 0.318514
-13430.00000000 -860.00000000 -360.00000000 26 165 160 97.000000 1.000000 4.000000 1.000000 -60.708740 114.000000 187.000000 0.209020 0.816244 -0.538569
-13320.00000000 -850.00000000 -580.00000000 26 165 160 97.000000 1.000000 4.000000 1.000000 -60.708740 114.000000 187.000000 -0.520648 0.821671 -0.231911
-13340.00000000 -860.00000000 -580.00000000 26 165 160 97.000000 1.000000 4.000000 1.000000 -60.708740 114.000000 187.000000 -0.359676 0.912803 -0.193451
-13350.00000000 -880.00000000 -560.00000000 26 165 160 97.000000 1.000000 4.000000 1.000000 -60.708740 114.000000 187.000000 -0.707848 0.626858 -0.325577
-13330.00000000 -900.00000000 -590.00000000 26 165 160 97.000000 1.000000 4.000000 1.000000 -60.708740 114.000000 187.000000 -0.586544 0.752758 -0.298866
-13590.00000000 -520.00000000 -160.00000000 26 165 160 97.000000 1.000000 4.000000 1.000000 -60.708740 114.000000 187.000000 0.598499 0.520947 -0.608615
-13610.00000000 -520.00000000 -360.00000000 26 165 160 97.000000 1.000000 4.000000 1.000000 -60.708740 114.000000 187.000000 0.693823 0.641827 -0.326601
-13560.00000000 -550.00000000 -450.00000000 26 165 160 97.000000 1.000000 4.000000 1.000000 -60.708740 114.000000 187.000000 0.396761 0.762499 -0.511054
-13620.00000000 -560.00000000 -460.00000000 26 165 160 97.000000 1.000000 4.000000 1.000000 -60.708740 114.000000 187.000000 0.531093 0.571557 -0.625510
-13560.00000000 -660.00000000 -530.00000000 26 165 160 97.000000 1.000000 4.000000 1.000000 -60.708740 114.000000 187.000000 0.474576 0.704371 -0.527862
-13580.00000000 -850.00000000 -170.00000000 26 165 160 97.000000 1.000000 4.000000 1.000000 -60.708740 114.000000 187.000000 0.333921 0.790865 -0.512864
-13580.00000000 -870.00000000 -190.00000000 26 165 160 97.000000 1.000000 4.000000 1.000000 -60.708740 114.000000 187.000000 -0.184943 -0.615967 0.765755
-13610.00000000 -870.00000000 -310.00000000 26 165 160 97.000000 1.000000 4.000000 1.000000 -60.708740 114.000000 187.000000 0.171012 0.794526 -0.582652
-13580.00000000 -870.00000000 -190.00000000 26 165 160 97.000000 1.000000 4.000000 1.000000 -60.708740 114.000000 187.000000 -0.184943 -0.615967 0.765755
-13540.00000000 -890.00000000 -310.00000000 26 165 160 97.000000 1.000000 4.000000 1.000000 -60.708740 114.000000 187.000000 -0.078675 0.893031 -0.443065
-13600.00000000 -910.00000000 -250.00000000 26 165 160 97.000000 1.000000 4.000000 1.000000 -60.708740 114.000000 187.000000 0.142932 -0.717668 0.681559
-13640.00000000 -970.00000000 -270.00000000 26 165 160 97.000000 1.000000 4.000000 1.000000 -60.708740 114.000000 187.000000 -0.266570 -0.569418 0.777627
-13620.00000000 -920.00000000 -190.00000000 26 165 160 97.000000 1.000000 4.000000 1.000000 -60.708740 114.000000 187.000000 -0.178918 -0.530739 0.828435
-13710.00000000 -850.00000000 -60.00000000 26 165 160 97.000000 1.000000 4.000000 1.000000 -60.708740 114.000000 187.000000 -0.017877 0.820970 -0.570691
-13730.00000000 -970.00000000 -260.00000000 26 165 160 97.000000 1.000000 4.000000 1.000000 -60.708740 114.000000 187.000000 0.052393 0.909484 -0.412425
-13750.00000000 -970.00000000 -240.00000000 26 165 160 97.000000 1.000000 4.000000 1.000000 -60.708740 114.000000 187.000000 -0.104429 -0.633931 0.766307
-13740.00000000 -990.00000000 -210.00000000 26 165 160 97.000000 1.000000 4.000000 1.000000 -60.708740 114.000000 187.000000 0.640381 0.695503 -0.325865
-13720.00000000 -1040.00000000 -460.00000000 26 165 160 97.000000 1.000000 4.000000 1.000000 -60.708740 114.000000 187.000000 0.605293 0.668658 -0.431876
-13740.00000000 -980.00000000 -400.00000000 26 165 160 97.000000 1.000000 4.000000 1.000000 -60.708740 114.000000 187.000000 -0.470904 -0.396466 0.788076
-13740.00000000 -1010.00000000 -490.00000000 26 165 160 97.000000 1.000000 4.000000 1.000000 -60.708740 114.000000 187.000000 0.515784 0.529225 -0.673712
-13780.00000000 -1000.00000000 -450.00000000 26 165 160 97.000000 1.000000 4.000000 1.000000 -60.708740 114.000000 187.000000 -0.073842 -0.696435 0.713810
-13720.00000000 -1040.00000000 -690.00000000 26 165 160 97.000000 1.000000 4.000000 1.000000 -60.708740 114.000000 187.000000 -0.500913 -0.461236 0.732357
-13770.00000000 -1030.00000000 -670.00000000 26 165 160 97.000000 1.000000 4.000000 1.000000 -60.708740 114.000000 187.000000 0.710201 0.321936 -0.626077
-13280.00000000 -690.00000000 -850.00000000 26 165 160 97.000000 1.000000 4.000000 1.000000 -60.708740 114.000000 187.000000 0.933438 -0.196733 -0.299984
-13220.00000000 -670.00000000 -960.00000000 26 165 160 97.000000 1.000000 4.000000 1.000000 -60.708740 114.000000 187.000000 0.990534 0.079566 0.111853
-13230.00000000 -700.00000000 -990.00000000 26 165 160 97.000000 1.000000 4.000000 1.000000 -60.708740 114.000000 187.000000 0.949916 0.299217 -0.090157
-13360.00000000 -590.00000000 -780.00000000 26 165 160 97.000000 1.000000 4.000000 1.000000 -60.708740 114.000000 187.000000 0.994784 -0.029613 -0.097614
-13330.00000000 -630.00000000 -800.00000000 26 165 160 97.000000 1.000000 4.000000 1.000000 -60.708740 114.000000 187.000000 0.968733 -0.234351 0.081459
-13370.00000000 -690.00000000 -850.00000000 26 165 160 97.000000 1.000000 4.000000 1.000000 -60.708740 114.000000 187.000000 0.969410 -0.050503 -0.240197
-13400.00000000 -620.00000000 -790.00000000 26 165 160 97.000000 1.000000 4.000000 1.000000 -60.708740 114.000000 187.000000 0.919712 0.356336 -0.164788
-13380.00000000 -690.00000000 -880.00000000 26 165 160 97.000000 1.000000 4.000000 1.000000 -60.708740 114.000000 187.000000 0.962994 -0.061521 -0.262407
-13310.00000000 -610.00000000 -1170.00000000 26 165 160 97.000000 1.000000 4.000000 1.000000 -60.708740 114.000000 187.000000 0.640292 0.646945 -0.414111
-13240.00000000 -640.00000000 -1090.00000000 26 165 160 97.000000 1.000000 4.000000 1.000000 -60.708740 114.000000 187.000000 0.818308 0.568946 -0.081687
-13230.00000000 -700.00000000 -1070.00000000 26 165 160 97.000000 1.000000 4.000000 1.000000 -60.708740 114.000000 187.000000 0.978451 -0.056565 -0.198579
-13270.00000000 -630.00000000 -1140.00000000 26 165 160 97.000000 1.000000 4.000000 1.000000 -60.708740 114.000000 187.000000 0.697228 0.675194 -0.240803
-13270.00000000 -670.00000000 -1140.00000000 26 165 160 97.000000 1.000000 4.000000 1.000000 -60.708740 114.000000 187.000000 0.974464 0.224515 -0.003526
-13270.00000000 -670.00000000 -1140.00000000 26 165 160 97.000000 1.000000 4.000000 1.000000 -60.708740 114.000000 187.000000 0.974464 0.224515 -0.003526
-13220.00000000 -680.00000000 -1240.00000000 26 165 160 97.000000 1.000000 4.000000 1.000000 -60.708740 114.000000 187.000000 0.839985 0.243274 -0.485019
-13210.00000000 -670.00000000 -1290.00000000 26 165 160 97.000000 1.000000 4.000000 1.000000 -60.708740 114.000000 187.000000 0.973824 0.150305 -0.170514
-13310.00000000 -660.00000000 -1260.00000000 26 165 160 97.000000 1.000000 4.000000 1.000000 -60.708740 114.000000 187.000000 0.655745 0.732531 -0.182749
-13230.00000000 -690.00000000 -1260.00000000 26 165 160 97.000000 1.000000 4.000000 1.000000 -60.708740 114.000000 187.000000 0.976608 0.136300 -0.166311
-13320.00000000 -680.00000000 -1070.00000000 26 165 160 97.000000 1.000000 4.000000 1.000000 -60.708740 114.000000 187.000000 0.889011 0.416040 -0.191232
-13270.00000000 -720.00000000 -790.00000000 26 165 160 97.000000 1.000000 4.000000 1.000000 -60.708740 114.000000 187.000000 0.995437 0.016212 -0.094032
-13250.00000000 -720.00000000 -850.00000000 26 165 160 97.000000 1.000000 4.000000 1.000000 -60.708740 114.000000 187.000000 0.972722 -0.085938 0.215468
-13230.00000000 -870.00000000 -750.00000000 26 165 160 97.000000 1.000000 4.000000 1.000000 -60.708740 114.000000 187.000000 0.849983 -0.517443 -0.098902
-13280.00000000 -840.00000000 -750.00000000 26 165 160 97.000000 1.000000 4.000000 1.000000 -60.708740 114.000000 187.000000 0.972696 -0.186423 0.138232
-13230.00000000 -870.00000000 -720.00000000 26 165 160 97.000000 1.000000 4.000000 1.000000 -60.708740 114.000000 187.000000 -0.653075 0.753991 -0.070642
-13230.00000000 -840.00000000 -830.00000000 26 165 160 97.000000 1.000000 4.000000 1.000000 -60.708740 114.000000 187.000000 0.892536 -0.438562 -0.105087
-13230.00000000 -860.00000000 -860.00000000 26 165 160 97.000000 1.000000 4.000000 1.000000 -60.708740 114.000000 187.000000 0.834985 -0.516036 0.191069
-13260.00000000 -820.00000000 -800.00000000 26 165 160 97.000000 1.000000 4.000000 1.000000 -60.708740 114.000000 187.000000 0.958427 -0.118662 0.259493
-13190.00000000 -750.00000000 -1000.00000000 26 165 160 97.000000 1.000000 4.000000 1.000000 -60.708740 114.000000 187.000000 0.965326 0.201924 -0.165447
-13190.00000000 -840.00000000 -880.00000000 26 165 160 97.000000 1.000000 4.000000 1.000000 -60.708740 114.000000 187.000000 0.894486 -0.268494 0.357498
-13180.00000000 -840.00000000 -1000.00000000 26 165 160 97.000000 1.000000 4.000000 1.000000 -60.708740 114.000000 187.000000 0.982106 0.043728 0.183185
-13230.00000000 -760.00000000 -910.00000000 26 165 160 97.000000 1.000000 4.000000 1.000000 -60.708740 114.000000 187.000000 0.991784 -0.104097 0.074355
-13250.00000000 -880.00000000 -770.00000000 26 165 160 97.000000 1.000000 4.000000 1.000000 -60.708740 114.000000 187.000000 0.777054 -0.591673 0.214733
-13180.00000000 -910.00000000 -1030.00000000 26 165 160 97.000000 1.000000 4.000000 1.000000 -60.708740 114.000000 187.000000 0.822060 -0.501938 0.268840
-13200.00000000 -910.00000000 -970.00000000 26 165 160 97.000000 1.000000 4.000000 1.000000 -60.708740 114.000000 187.000000 0.872502 -0.334638 0.356030
-13170.00000000 -880.00000000 -950.00000000 26 165 160 97.000000 1.000000 4.000000 1.000000 -60.708740 114.000000 187.000000 0.951438 -0.306224 -0.031505
-13160.00000000 -880.00000000 -990.00000000 26 165 160 97.000000 1.000000 4.000000 1.000000 -60.708740 114.000000 187.000000 0.897366 -0.345597 0.274401
-13240.00000000 -880.00000000 -880.00000000 26 165 160 97.000000 1.000000 4.000000 1.000000 -60.708740 114.000000 187.000000 0.802219 -0.500394 0.325653
-13480.00000000 -1030.00000000 -1010.00000000 26 165 160 97.000000 1.000000 4.000000 1.000000 -60.708740 114.000000 187.000000 0.659396 -0.662669 0.355059
-13180.00000000 -860.00000000 -1130.00000000 26 165 160 97.000000 1.000000 4.000000 1.000000 -60.708740 114.000000 187.000000 0.933394 -0.328544 0.144339
-13200.00000000 -840.00000000 -1180.00000000 26 165 160 97.000000 1.000000 4.000000 1.000000 -60.708740 114.000000 187.000000 0.882394 0.377310 -0.281103
-13230.00000000 -710.00000000 -1070.00000000 26 165 160 97.000000 1.000000 4.000000 1.000000 -60.708740 114.000000 187.000000 0.938282 0.345683 0.011396
-13270.00000000 -710.00000000 -1170.00000000 26 165 160 97.000000 1.000000 4.000000 1.000000 -60.708740 114.000000 187.000000 0.830580 0.553248 -0.063673
-13160.00000000 -870.00000000 -1210.00000000 26 165 160 97.000000 1.000000 4.000000 1.000000 -60.708740 114.000000 187.000000 0.950989 -0.287016 -0.115071
-13150.00000000 -860.00000000 -1220.00000000 26 165 160 97.000000 1.000000 4.000000 1.000000 -60.708740 114.000000 187.000000 0.883267 0.420252 -0.207914
-13170.00000000 -830.00000000 -1330.00000000 26 165 160 97.000000 1.000000 4.000000 1.000000 -60.708740 114.000000 187.000000 0.861811 0.504913 0.048416
-13230.00000000 -780.00000000 -1210.00000000 26 165 160 97.000000 1.000000 4.000000 1.000000 -60.708740 114.000000 187.000000 0.885819 0.456162 -0.085094
-13240.00000000 -710.00000000 -1230.00000000 26 165 160 97.000000 1.000000 4.000000 1.000000 -60.708740 114.000000 187.000000 0.715467 0.688693 -0.117509
-13240.00000000 -750.00000000 -1200.00000000 26 165 160 97.000000 1.000000 4.000000 1.000000 -60.708740 114.000000 187.000000 0.909253 0.416143 0.009132
-13280.00000000 -710.00000000 -1320.00000000 26 165 160 97.000000 1.000000 4.000000 1.000000 -60.708740 114.000000 187.000000 0.867388 0.458159 -0.194236
-13240.00000000 -830.00000000 -1280.00000000 26 165 160 97.000000 1.000000 4.000000 1.000000 -60.708740 114.000000 187.000000 0.949523 0.055101 -0.308819
-13170.00000000 -900.00000000 -1180.00000000 26 165 160 97.000000 1.000000 4.000000 1.000000 -60.708740 114.000000 187.000000 0.868346 0.071313 -0.490804
-13150.00000000 -880.00000000 -1240.00000000 26 165 160 97.000000 1.000000 4.000000 1.000000 -60.708740 114.000000 187.000000 0.958538 0.070013 -0.276232
-13160.00000000 -910.00000000 -1260.00000000 26 165 160 97.000000 1.000000 4.000000 1.000000 -60.708740 114.000000 187.000000 0.897406 0.425530 -0.116564
-13410.00000000 -990.00000000 -1090.00000000 26 165 160 97.000000 1.000000 4.000000 1.000000 -60.708740 114.000000 187.000000 -0.747316 0.330885 -0.576224
-13480.00000000 -1000.00000000 -1160.00000000 26 165 160 97.000000 1.000000 4.000000 1.000000 -60.708740 114.000000 187.000000 -0.713576 0.595467 -0.369091
-13620.00000000 -1030.00000000 -810.00000000 26 165 160 97.000000 1.000000 4.000000 1.000000 -60.708740 114.000000 187.000000 -0.390474 -0.457963 0.798624
-13510.00000000 -1000.00000000 -870.00000000 26 165 160 97.000000 1.000000 4.000000 1.000000 -60.708740 114.000000 187.000000 0.199929 -0.488548 0.849323
-13540.00000000 -1020.00000000 -870.00000000 26 165 160 97.000000 1.000000 4.000000 1.000000 -60.708740 114.000000 187.000000 -0.312666 0.911820 -0.266129
