//X Y Z R G B PointSourceId ScanDirectionFlag NumberOfReturns ReturnNumber GpsTime Intensity Classification Nx Ny Nz
-8270.00000000 -19370.00000000 970.00000000 11 112 194 0.000000 0.000000 0.000000 0.000000 -60.708740 0.000000 44.000000 0.804006 0.422063 -0.418853
-8270.00000000 -19360.00000000 900.00000000 11 112 194 0.000000 0.000000 0.000000 0.000000 -60.708740 0.000000 44.000000 0.980656 -0.019823 -0.194732
-8300.00000000 -19380.00000000 900.00000000 11 112 194 0.000000 0.000000 0.000000 0.000000 -60.708740 0.000000 44.000000 0.940921 0.111090 -0.319886
-8290.00000000 -19320.00000000 770.00000000 11 112 194 0.000000 0.000000 0.000000 0.000000 -60.708740 0.000000 44.000000 0.960642 0.104727 0.257292
-8270.00000000 -19300.00000000 690.00000000 11 112 194 0.000000 0.000000 0.000000 0.000000 -60.708740 0.000000 44.000000 0.994886 -0.085213 -0.054226
-8310.00000000 -19470.00000000 870.00000000 11 112 194 0.000000 0.000000 0.000000 0.000000 -60.708740 0.000000 44.000000 0.813690 0.423630 -0.398053
-8280.00000000 -19500.00000000 820.00000000 11 112 194 0.000000 0.000000 0.000000 0.000000 -60.708740 0.000000 44.000000 0.546432 0.693485 -0.469564
-8180.00000000 -19590.00000000 1320.00000000 11 112 194 0.000000 0.000000 0.000000 0.000000 -60.708740 0.000000 44.000000 0.730306 0.515023 -0.448782
-8190.00000000 -19590.00000000 1320.00000000 11 112 194 0.000000 0.000000 0.000000 0.000000 -60.708740 0.000000 44.000000 0.466297 0.749700 -0.469592
-8180.00000000 -19580.00000000 1230.00000000 11 112 194 0.000000 0.000000 0.000000 0.000000 -60.708740 0.000000 44.000000 0.593854 0.693106 -0.408585
-8120.00000000 -19580.00000000 1070.00000000 11 112 194 0.000000 0.000000 0.000000 0.000000 -60.708740 0.000000 44.000000 0.377719 0.870129 -0.316550
-8190.00000000 -19590.00000000 830.00000000 11 112 194 0.000000 0.000000 0.000000 0.000000 -60.708740 0.000000 44.000000 0.817415 0.434999 -0.377636
-8160.00000000 -19610.00000000 810.00000000 11 112 194 0.000000 0.000000 0.000000 0.000000 -60.708740 0.000000 44.000000 0.701189 0.554622 -0.448028
-7920.00000000 -19560.00000000 400.00000000 11 112 194 0.000000 0.000000 0.000000 0.000000 -60.708740 0.000000 44.000000 -0.634192 0.603913 -0.482794
-7910.00000000 -19550.00000000 360.00000000 11 112 194 0.000000 0.000000 0.000000 0.000000 -60.708740 0.000000 44.000000 -0.659646 0.582435 -0.475012
-7910.00000000 -19560.00000000 390.00000000 11 112 194 0.000000 0.000000 0.000000 0.000000 -60.708740 0.000000 44.000000 -0.713064 0.584613 -0.386998
-7910.00000000 -19560.00000000 390.00000000 11 112 194 0.000000 0.000000 0.000000 0.000000 -60.708740 0.000000 44.000000 -0.713064 0.584613 -0.386998
-8000.00000000 -19510.00000000 610.00000000 11 112 194 0.000000 0.000000 0.000000 0.000000 -60.708740 0.000000 44.000000 0.139558 0.841756 -0.521507
-8000.00000000 -19550.00000000 580.00000000 11 112 194 0.000000 0.000000 0.000000 0.000000 -60.708740 0.000000 44.000000 -0.367483 0.873724 -0.318688
-7950.00000000 -19570.00000000 510.00000000 11 112 194 0.000000 0.000000 0.000000 0.000000 -60.708740 0.000000 44.000000 -0.427986 0.872491 -0.235768
-7980.00000000 -19520.00000000 490.00000000 11 112 194 0.000000 0.000000 0.000000 0.000000 -60.708740 0.000000 44.000000 -0.160224 0.887725 -0.431593
-7990.00000000 -19560.00000000 530.00000000 11 112 194 0.000000 0.000000 0.000000 0.000000 -60.708740 0.000000 44.000000 -0.126466 0.960878 -0.246413
-7970.00000000 -19560.00000000 530.00000000 11 112 194 0.000000 0.000000 0.000000 0.000000 -60.708740 0.000000 44.000000 -0.267941 0.753089 -0.600886
-8000.00000000 -19560.00000000 550.00000000 11 112 194 0.000000 0.000000 0.000000 0.000000 -60.708740 0.000000 44.000000 0.001184 0.970072 -0.242814
-7990.00000000 -19560.00000000 550.00000000 11 112 194 0.000000 0.000000 0.000000 0.000000 -60.708740 0.000000 44.000000 0.037904 0.801610 -0.596645
-8000.00000000 -19560.00000000 550.00000000 11 112 194 0.000000 0.000000 0.000000 0.000000 -60.708740 0.000000 44.000000 0.001184 0.970072 -0.242814
-7980.00000000 -19560.00000000 490.00000000 11 112 194 0.000000 0.000000 0.000000 0.000000 -60.708740 0.000000 44.000000 -0.494209 0.840916 -0.220493
-7970.00000000 -19570.00000000 520.00000000 11 112 194 0.000000 0.000000 0.000000 0.000000 -60.708740 0.000000 44.000000 -0.531910 0.811046 -0.243469
-7970.00000000 -19570.00000000 520.00000000 11 112 194 0.000000 0.000000 0.000000 0.000000 -60.708740 0.000000 44.000000 -0.531910 0.811046 -0.243469
-7970.00000000 -19570.00000000 520.00000000 11 112 194 0.000000 0.000000 0.000000 0.000000 -60.708740 0.000000 44.000000 -0.531910 0.811046 -0.243469
-8030.00000000 -19560.00000000 630.00000000 11 112 194 0.000000 0.000000 0.000000 0.000000 -60.708740 0.000000 44.000000 0.053226 0.941197 -0.333638
-8040.00000000 -19570.00000000 610.00000000 11 112 194 0.000000 0.000000 0.000000 0.000000 -60.708740 0.000000 44.000000 -0.006557 0.900868 -0.434043
-8020.00000000 -19560.00000000 500.00000000 11 112 194 0.000000 0.000000 0.000000 0.000000 -60.708740 0.000000 44.000000 0.219304 0.918784 -0.328240
-8020.00000000 -19560.00000000 490.00000000 11 112 194 0.000000 0.000000 0.000000 0.000000 -60.708740 0.000000 44.000000 -0.101586 0.927817 -0.358937
-7960.00000000 -19550.00000000 470.00000000 11 112 194 0.000000 0.000000 0.000000 0.000000 -60.708740 0.000000 44.000000 -0.485018 0.806243 -0.338718
-7980.00000000 -19570.00000000 330.00000000 11 112 194 0.000000 0.000000 0.000000 0.000000 -60.708740 0.000000 44.000000 -0.213172 0.889441 -0.404292
-8030.00000000 -19550.00000000 400.00000000 11 112 194 0.000000 0.000000 0.000000 0.000000 -60.708740 0.000000 44.000000 0.274214 0.961575 0.013406
-7760.00000000 -19240.00000000 270.00000000 11 112 194 0.000000 0.000000 0.000000 0.000000 -60.708740 0.000000 44.000000 0.770050 0.326347 -0.548198
-7790.00000000 -19290.00000000 130.00000000 11 112 194 0.000000 0.000000 0.000000 0.000000 -60.708740 0.000000 44.000000 0.685612 0.715617 0.133522
-7770.00000000 -19270.00000000 30.00000000 11 112 194 0.000000 0.000000 0.000000 0.000000 -60.708740 0.000000 44.000000 0.612349 0.763508 -0.205145
-7910.00000000 -19280.00000000 70.00000000 11 112 194 0.000000 0.000000 0.000000 0.000000 -60.708740 0.000000 44.000000 0.139019 0.943442 -0.300984
-7910.00000000 -19570.00000000 170.00000000 11 112 194 0.000000 0.000000 0.000000 0.000000 -60.708740 0.000000 44.000000 0.835916 -0.484924 0.257087
-7890.00000000 -19540.00000000 -10.00000000 11 112 194 0.000000 0.000000 0.000000 0.000000 -60.708740 0.000000 44.000000 0.995286 0.095970 0.014018
-7960.00000000 -19250.00000000 10.00000000 11 112 194 0.000000 0.000000 0.000000 0.000000 -60.708740 0.000000 44.000000 0.368901 0.883857 -0.287592
-7970.00000000 -19300.00000000 20.00000000 11 112 194 0.000000 0.000000 0.000000 0.000000 -60.708740 0.000000 44.000000 0.041661 0.979638 -0.196404
-7910.00000000 -19620.00000000 420.00000000 11 112 194 0.000000 0.000000 0.000000 0.000000 -60.708740 0.000000 44.000000 0.425674 -0.791462 0.438622
-7910.00000000 -19590.00000000 330.00000000 11 112 194 0.000000 0.000000 0.000000 0.000000 -60.708740 0.000000 44.000000 -0.549406 0.739647 -0.388684
-7910.00000000 -19590.00000000 330.00000000 11 112 194 0.000000 0.000000 0.000000 0.000000 -60.708740 0.000000 44.000000 -0.549406 0.739647 -0.388684
-7770.00000000 -19780.00000000 530.00000000 11 112 194 0.000000 0.000000 0.000000 0.000000 -60.708740 0.000000 44.000000 -0.546018 0.696298 -0.465868
-7770.00000000 -19800.00000000 510.00000000 11 112 194 0.000000 0.000000 0.000000 0.000000 -60.708740 0.000000 44.000000 -0.535570 0.676598 -0.505350
-7770.00000000 -19870.00000000 490.00000000 11 112 194 0.000000 0.000000 0.000000 0.000000 -60.708740 0.000000 44.000000 -0.608602 0.681568 -0.406287
-7820.00000000 -19850.00000000 490.00000000 11 112 194 0.000000 0.000000 0.000000 0.000000 -60.708740 0.000000 44.000000 -0.042722 0.987214 -0.153567
-7800.00000000 -19880.00000000 500.00000000 11 112 194 0.000000 0.000000 0.000000 0.000000 -60.708740 0.000000 44.000000 0.593893 -0.641001 0.486219
-7780.00000000 -19820.00000000 350.00000000 11 112 194 0.000000 0.000000 0.000000 0.000000 -60.708740 0.000000 44.000000 -0.463831 0.853144 -0.238759
-7800.00000000 -19880.00000000 350.00000000 11 112 194 0.000000 0.000000 0.000000 0.000000 -60.708740 0.000000 44.000000 -0.065574 0.971241 -0.228891
-7840.00000000 -19860.00000000 450.00000000 11 112 194 0.000000 0.000000 0.000000 0.000000 -60.708740 0.000000 44.000000 -0.123599 0.985195 -0.118799
-7840.00000000 -19890.00000000 340.00000000 11 112 194 0.000000 0.000000 0.000000 0.000000 -60.708740 0.000000 44.000000 -0.043880 0.999036 -0.001020
-7850.00000000 -19890.00000000 360.00000000 11 112 194 0.000000 0.000000 0.000000 0.000000 -60.708740 0.000000 44.000000 -0.076848 0.994571 0.070166
-7990.00000000 -19590.00000000 530.00000000 11 112 194 0.000000 0.000000 0.000000 0.000000 -60.708740 0.000000 44.000000 0.064420 0.788791 -0.611277
-7970.00000000 -19600.00000000 540.00000000 11 112 194 0.000000 0.000000 0.000000 0.000000 -60.708740 0.000000 44.000000 -0.050410 0.886935 -0.459135
-7980.00000000 -19590.00000000 490.00000000 11 112 194 0.000000 0.000000 0.000000 0.000000 -60.708740 0.000000 44.000000 0.019444 0.921632 -0.387578
-7950.00000000 -19590.00000000 480.00000000 11 112 194 0.000000 0.000000 0.000000 0.000000 -60.708740 0.000000 44.000000 -0.445421 0.802401 -0.397181
-7950.00000000 -19590.00000000 480.00000000 11 112 194 0.000000 0.000000 0.000000 0.000000 -60.708740 0.000000 44.000000 -0.445421 0.802401 -0.397181
-7990.00000000 -19580.00000000 430.00000000 11 112 194 0.000000 0.000000 0.000000 0.000000 -60.708740 0.000000 44.000000 0.267885 0.943778 -0.193701
-7980.00000000 -19580.00000000 440.00000000 11 112 194 0.000000 0.000000 0.000000 0.000000 -60.708740 0.000000 44.000000 0.134677 0.990268 -0.035084
-7910.00000000 -19590.00000000 300.00000000 11 112 194 0.000000 0.000000 0.000000 0.000000 -60.708740 0.000000 44.000000 -0.543290 0.736970 -0.402133
-7900.00000000 -19590.00000000 240.00000000 11 112 194 0.000000 0.000000 0.000000 0.000000 -60.708740 0.000000 44.000000 -0.365325 0.903852 -0.222688
-7890.00000000 -19580.00000000 250.00000000 11 112 194 0.000000 0.000000 0.000000 0.000000 -60.708740 0.000000 44.000000 0.685537 -0.609549 0.398107
-7890.00000000 -19600.00000000 270.00000000 11 112 194 0.000000 0.000000 0.000000 0.000000 -60.708740 0.000000 44.000000 -0.460759 0.853089 -0.244826
-7880.00000000 -19600.00000000 200.00000000 11 112 194 0.000000 0.000000 0.000000 0.000000 -60.708740 0.000000 44.000000 -0.476528 0.877526 -0.053558
-7820.00000000 -19620.00000000 100.00000000 11 112 194 0.000000 0.000000 0.000000 0.000000 -60.708740 0.000000 44.000000 0.744467 -0.514389 0.425644
-7790.00000000 -19620.00000000 30.00000000 11 112 194 0.000000 0.000000 0.000000 0.000000 -60.708740 0.000000 44.000000 0.952783 -0.167507 0.253271
-7790.00000000 -19650.00000000 20.00000000 11 112 194 0.000000 0.000000 0.000000 0.000000 -60.708740 0.000000 44.000000 0.926630 -0.288949 0.240554
-7830.00000000 -19580.00000000 60.00000000 11 112 194 0.000000 0.000000 0.000000 0.000000 -60.708740 0.000000 44.000000 0.916608 -0.177088 0.358426
-7800.00000000 -19640.00000000 30.00000000 11 112 194 0.000000 0.000000 0.000000 0.000000 -60.708740 0.000000 44.000000 0.951833 -0.139780 0.272903
-7830.00000000 -19630.00000000 60.00000000 11 112 194 0.000000 0.000000 0.000000 0.000000 -60.708740 0.000000 44.000000 0.907267 -0.323919 0.268223
-7800.00000000 -19620.00000000 60.00000000 11 112 194 0.000000 0.000000 0.000000 0.000000 -60.708740 0.000000 44.000000 0.847742 -0.311510 0.429295
-7770.00000000 -19700.00000000 70.00000000 11 112 194 0.000000 0.000000 0.000000 0.000000 -60.708740 0.000000 44.000000 0.854467 -0.418735 0.307485
-7840.00000000 -19590.00000000 120.00000000 11 112 194 0.000000 0.000000 0.000000 0.000000 -60.708740 0.000000 44.000000 0.921373 -0.218558 0.321409
-7850.00000000 -19600.00000000 -10.00000000 11 112 194 0.000000 0.000000 0.000000 0.000000 -60.708740 0.000000 44.000000 0.937477 -0.155102 0.311577
-7760.00000000 -19800.00000000 300.00000000 11 112 194 0.000000 0.000000 0.000000 0.000000 -60.708740 0.000000 44.000000 -0.585344 0.652432 -0.481357
-7770.00000000 -19810.00000000 270.00000000 11 112 194 0.000000 0.000000 0.000000 0.000000 -60.708740 0.000000 44.000000 0.760808 -0.604585 0.235897
-7790.00000000 -19780.00000000 160.00000000 11 112 194 0.000000 0.000000 0.000000 0.000000 -60.708740 0.000000 44.000000 0.744746 -0.608182 0.274714
-7790.00000000 -19780.00000000 180.00000000 11 112 194 0.000000 0.000000 0.000000 0.000000 -60.708740 0.000000 44.000000 -0.592291 0.737539 -0.324388
-7790.00000000 -19820.00000000 150.00000000 11 112 194 0.000000 0.000000 0.000000 0.000000 -60.708740 0.000000 44.000000 -0.452875 0.797770 -0.398079
-7790.00000000 -19830.00000000 270.00000000 11 112 194 0.000000 0.000000 0.000000 0.000000 -60.708740 0.000000 44.000000 -0.405836 0.879063 -0.250091
-7780.00000000 -19830.00000000 270.00000000 11 112 194 0.000000 0.000000 0.000000 0.000000 -60.708740 0.000000 44.000000 0.638764 -0.674890 0.369465
-7780.00000000 -19830.00000000 270.00000000 11 112 194 0.000000 0.000000 0.000000 0.000000 -60.708740 0.000000 44.000000 0.638764 -0.674890 0.369465
-7780.00000000 -19880.00000000 270.00000000 11 112 194 0.000000 0.000000 0.000000 0.000000 -60.708740 0.000000 44.000000 -0.270955 0.933603 -0.234454
-7780.00000000 -19890.00000000 260.00000000 11 112 194 0.000000 0.000000 0.000000 0.000000 -60.708740 0.000000 44.000000 0.671099 -0.677537 0.300949
-7760.00000000 -19830.00000000 210.00000000 11 112 194 0.000000 0.000000 0.000000 0.000000 -60.708740 0.000000 44.000000 -0.772964 0.516930 -0.367846
-7770.00000000 -19850.00000000 160.00000000 11 112 194 0.000000 0.000000 0.000000 0.000000 -60.708740 0.000000 44.000000 0.764524 -0.602588 0.228890
-7790.00000000 -19880.00000000 180.00000000 11 112 194 0.000000 0.000000 0.000000 0.000000 -60.708740 0.000000 44.000000 -0.254873 0.943720 -0.210787
-7800.00000000 -19860.00000000 160.00000000 11 112 194 0.000000 0.000000 0.000000 0.000000 -60.708740 0.000000 44.000000 0.801740 -0.539182 0.257869
-7800.00000000 -19860.00000000 160.00000000 11 112 194 0.000000 0.000000 0.000000 0.000000 -60.708740 0.000000 44.000000 0.801740 -0.539182 0.257869
-7830.00000000 -19840.00000000 180.00000000 11 112 194 0.000000 0.000000 0.000000 0.000000 -60.708740 0.000000 44.000000 0.474628 -0.732614 0.487858
-7800.00000000 -19860.00000000 170.00000000 11 112 194 0.000000 0.000000 0.000000 0.000000 -60.708740 0.000000 44.000000 -0.618804 0.713005 -0.329704
-7810.00000000 -19890.00000000 230.00000000 11 112 194 0.000000 0.000000 0.000000 0.000000 -60.708740 0.000000 44.000000 -0.163135 0.982432 -0.090630
-7850.00000000 -19850.00000000 260.00000000 11 112 194 0.000000 0.000000 0.000000 0.000000 -60.708740 0.000000 44.000000 -0.389995 0.722396 -0.571006
-7850.00000000 -19850.00000000 260.00000000 11 112 194 0.000000 0.000000 0.000000 0.000000 -60.708740 0.000000 44.000000 -0.389995 0.722396 -0.571006
-7850.00000000 -19880.00000000 280.00000000 11 112 194 0.000000 0.000000 0.000000 0.000000 -60.708740 0.000000 44.000000 0.717546 -0.641178 0.272063
-7840.00000000 -19860.00000000 200.00000000 11 112 194 0.000000 0.000000 0.000000 0.000000 -60.708740 0.000000 44.000000 0.594358 -0.654631 0.467115
-7850.00000000 -19830.00000000 190.00000000 11 112 194 0.000000 0.000000 0.000000 0.000000 -60.708740 0.000000 44.000000 -0.409102 0.847760 -0.337548
-7760.00000000 -19780.00000000 110.00000000 11 112 194 0.000000 0.000000 0.000000 0.000000 -60.708740 0.000000 44.000000 0.574986 -0.737872 0.353462
-7760.00000000 -19820.00000000 90.00000000 11 112 194 0.000000 0.000000 0.000000 0.000000 -60.708740 0.000000 44.000000 0.873222 -0.407100 0.267869
-7800.00000000 -19790.00000000 140.00000000 11 112 194 0.000000 0.000000 0.000000 0.000000 -60.708740 0.000000 44.000000 -0.343650 0.920643 -0.185260
-7770.00000000 -19770.00000000 50.00000000 11 112 194 0.000000 0.000000 0.000000 0.000000 -60.708740 0.000000 44.000000 -0.585548 0.749180 -0.309618
-7780.00000000 -19780.00000000 50.00000000 11 112 194 0.000000 0.000000 0.000000 0.000000 -60.708740 0.000000 44.000000 0.727605 -0.615172 0.303570
-7800.00000000 -19760.00000000 30.00000000 11 112 194 0.000000 0.000000 0.000000 0.000000 -60.708740 0.000000 44.000000 0.853950 -0.389004 0.345609
-7820.00000000 -19800.00000000 60.00000000 11 112 194 0.000000 0.000000 0.000000 0.000000 -60.708740 0.000000 44.000000 -0.561808 0.695175 -0.448446
-7830.00000000 -19820.00000000 50.00000000 11 112 194 0.000000 0.000000 0.000000 0.000000 -60.708740 0.000000 44.000000 -0.660886 0.614274 -0.431157
-7830.00000000 -19840.00000000 140.00000000 11 112 194 0.000000 0.000000 0.000000 0.000000 -60.708740 0.000000 44.000000 0.707513 -0.588770 0.390864
-7830.00000000 -19850.00000000 100.00000000 11 112 194 0.000000 0.000000 0.000000 0.000000 -60.708740 0.000000 44.000000 -0.274378 0.905301 -0.324265
-7790.00000000 -19870.00000000 -10.00000000 11 112 194 0.000000 0.000000 0.000000 0.000000 -60.708740 0.000000 44.000000 -0.243392 0.932768 -0.265902
-7840.00000000 -19850.00000000 120.00000000 11 112 194 0.000000 0.000000 0.000000 0.000000 -60.708740 0.000000 44.000000 -0.149994 0.988129 0.033205
-7850.00000000 -19900.00000000 110.00000000 11 112 194 0.000000 0.000000 0.000000 0.000000 -60.708740 0.000000 44.000000 -0.547164 0.644811 -0.533695
-7850.00000000 -19830.00000000 60.00000000 11 112 194 0.000000 0.000000 0.000000 0.000000 -60.708740 0.000000 44.000000 0.675460 -0.655928 0.336916
-7850.00000000 -19830.00000000 50.00000000 11 112 194 0.000000 0.000000 0.000000 0.000000 -60.708740 0.000000 44.000000 0.663904 -0.663904 0.344186
-7840.00000000 -19830.00000000 40.00000000 11 112 194 0.000000 0.000000 0.000000 0.000000 -60.708740 0.000000 44.000000 0.703628 -0.605218 0.372316
-7850.00000000 -19870.00000000 10.00000000 11 112 194 0.000000 0.000000 0.000000 0.000000 -60.708740 0.000000 44.000000 -0.249094 0.958157 -0.141022
-7970.00000000 -19620.00000000 260.00000000 11 112 194 0.000000 0.000000 0.000000 0.000000 -60.708740 0.000000 44.000000 -0.581932 0.740788 -0.335543
-7940.00000000 -19620.00000000 180.00000000 11 112 194 0.000000 0.000000 0.000000 0.000000 -60.708740 0.000000 44.000000 -0.451796 0.809401 -0.375166
-8210.00000000 -19240.00000000 570.00000000 11 112 194 0.000000 0.000000 0.000000 0.000000 -60.708740 0.000000 44.000000 0.849193 -0.527133 -0.031655
-8230.00000000 -19270.00000000 650.00000000 11 112 194 0.000000 0.000000 0.000000 0.000000 -60.708740 0.000000 44.000000 0.885723 -0.453389 -0.099661
-8220.00000000 -19240.00000000 620.00000000 11 112 194 0.000000 0.000000 0.000000 0.000000 -60.708740 0.000000 44.000000 0.999984 -0.002956 0.004926
-8240.00000000 -19270.00000000 640.00000000 11 112 194 0.000000 0.000000 0.000000 0.000000 -60.708740 0.000000 44.000000 0.924682 -0.294930 0.240788
-8230.00000000 -19240.00000000 620.00000000 11 112 194 0.000000 0.000000 0.000000 0.000000 -60.708740 0.000000 44.000000 0.811614 -0.405006 0.421015
-8230.00000000 -19250.00000000 610.00000000 11 112 194 0.000000 0.000000 0.000000 0.000000 -60.708740 0.000000 44.000000 0.930973 -0.361097 -0.053836
-8220.00000000 -19250.00000000 580.00000000 11 112 194 0.000000 0.000000 0.000000 0.000000 -60.708740 0.000000 44.000000 0.916625 -0.341768 -0.207349
-8220.00000000 -19260.00000000 570.00000000 11 112 194 0.000000 0.000000 0.000000 0.000000 -60.708740 0.000000 44.000000 0.847954 -0.370102 -0.379471
-8240.00000000 -19260.00000000 610.00000000 11 112 194 0.000000 0.000000 0.000000 0.000000 -60.708740 0.000000 44.000000 0.964127 -0.258851 0.058773
-8240.00000000 -19300.00000000 650.00000000 11 112 194 0.000000 0.000000 0.000000 0.000000 -60.708740 0.000000 44.000000 0.998945 0.001020 0.045917
-8240.00000000 -19280.00000000 630.00000000 11 112 194 0.000000 0.000000 0.000000 0.000000 -60.708740 0.000000 44.000000 0.949253 -0.270638 0.160229
-8260.00000000 -19290.00000000 550.00000000 11 112 194 0.000000 0.000000 0.000000 0.000000 -60.708740 0.000000 44.000000 0.961833 -0.188156 0.198682
-8230.00000000 -19280.00000000 540.00000000 11 112 194 0.000000 0.000000 0.000000 0.000000 -60.708740 0.000000 44.000000 0.998165 -0.011473 0.059452
-8230.00000000 -19320.00000000 530.00000000 11 112 194 0.000000 0.000000 0.000000 0.000000 -60.708740 0.000000 44.000000 0.885312 -0.386671 0.258278
-8220.00000000 -19320.00000000 520.00000000 11 112 194 0.000000 0.000000 0.000000 0.000000 -60.708740 0.000000 44.000000 0.995105 -0.098109 -0.011859
-8220.00000000 -19330.00000000 510.00000000 11 112 194 0.000000 0.000000 0.000000 0.000000 -60.708740 0.000000 44.000000 0.939572 -0.275368 0.203413
-8220.00000000 -19350.00000000 550.00000000 11 112 194 0.000000 0.000000 0.000000 0.000000 -60.708740 0.000000 44.000000 0.984325 -0.175731 -0.014931
-8230.00000000 -19330.00000000 530.00000000 11 112 194 0.000000 0.000000 0.000000 0.000000 -60.708740 0.000000 44.000000 0.870269 -0.426839 0.245847
-8240.00000000 -19400.00000000 470.00000000 11 112 194 0.000000 0.000000 0.000000 0.000000 -60.708740 0.000000 44.000000 0.901545 0.428336 -0.061191
-8230.00000000 -19560.00000000 510.00000000 11 112 194 0.000000 0.000000 0.000000 0.000000 -60.708740 0.000000 44.000000 0.452866 0.794530 -0.404517
-8210.00000000 -19440.00000000 410.00000000 11 112 194 0.000000 0.000000 0.000000 0.000000 -60.708740 0.000000 44.000000 0.898706 0.438103 -0.019854
-8210.00000000 -19460.00000000 480.00000000 11 112 194 0.000000 0.000000 0.000000 0.000000 -60.708740 0.000000 44.000000 0.717805 0.661751 -0.216431
-8200.00000000 -19460.00000000 450.00000000 11 112 194 0.000000 0.000000 0.000000 0.000000 -60.708740 0.000000 44.000000 0.961307 0.274483 0.023386
-8200.00000000 -19470.00000000 470.00000000 11 112 194 0.000000 0.000000 0.000000 0.000000 -60.708740 0.000000 44.000000 0.972698 0.169110 0.158938
-8210.00000000 -19460.00000000 480.00000000 11 112 194 0.000000 0.000000 0.000000 0.000000 -60.708740 0.000000 44.000000 0.717805 0.661751 -0.216431
-8270.00000000 -19310.00000000 580.00000000 11 112 194 0.000000 0.000000 0.000000 0.000000 -60.708740 0.000000 44.000000 0.969936 -0.115378 0.214273
-8270.00000000 -19300.00000000 570.00000000 11 112 194 0.000000 0.000000 0.000000 0.000000 -60.708740 0.000000 44.000000 0.985927 -0.166039 0.019467
-8270.00000000 -19310.00000000 620.00000000 11 112 194 0.000000 0.000000 0.000000 0.000000 -60.708740 0.000000 44.000000 0.990459 0.134395 0.030493
-8310.00000000 -19310.00000000 540.00000000 11 112 194 0.000000 0.000000 0.000000 0.000000 -60.708740 0.000000 44.000000 0.991085 -0.113430 0.069892
-8310.00000000 -19340.00000000 500.00000000 11 112 194 0.000000 0.000000 0.000000 0.000000 -60.708740 0.000000 44.000000 0.993988 0.025262 0.106538
-8330.00000000 -19350.00000000 370.00000000 11 112 194 0.000000 0.000000 0.000000 0.000000 -60.708740 0.000000 44.000000 0.979177 0.041642 0.198691
-8350.00000000 -19570.00000000 390.00000000 11 112 194 0.000000 0.000000 0.000000 0.000000 -60.708740 0.000000 44.000000 0.991595 0.126325 0.027948
-8350.00000000 -19570.00000000 390.00000000 11 112 194 0.000000 0.000000 0.000000 0.000000 -60.708740 0.000000 44.000000 0.991595 0.126325 0.027948
-8410.00000000 -19540.00000000 370.00000000 11 112 194 0.000000 0.000000 0.000000 0.000000 -60.708740 0.000000 44.000000 0.998111 -0.041279 0.045513
-8240.00000000 -19250.00000000 170.00000000 11 112 194 0.000000 0.000000 0.000000 0.000000 -60.708740 0.000000 44.000000 -0.664772 0.699677 -0.261784
-8100.00000000 -19250.00000000 10.00000000 11 112 194 0.000000 0.000000 0.000000 0.000000 -60.708740 0.000000 44.000000 -0.336044 0.801090 -0.495306
-8130.00000000 -19250.00000000 -10.00000000 11 112 194 0.000000 0.000000 0.000000 0.000000 -60.708740 0.000000 44.000000 -0.209041 0.946832 -0.244564
-8240.00000000 -19550.00000000 40.00000000 11 112 194 0.000000 0.000000 0.000000 0.000000 -60.708740 0.000000 44.000000 0.876005 0.453307 -0.164706
-8270.00000000 -19530.00000000 180.00000000 11 112 194 0.000000 0.000000 0.000000 0.000000 -60.708740 0.000000 44.000000 0.944482 0.321775 0.066439
-8270.00000000 -19540.00000000 130.00000000 11 112 194 0.000000 0.000000 0.000000 0.000000 -60.708740 0.000000 44.000000 0.908011 0.397167 0.133325
-8340.00000000 -19570.00000000 -10.00000000 11 112 194 0.000000 0.000000 0.000000 0.000000 -60.708740 0.000000 44.000000 0.838114 0.433940 -0.330546
-8200.00000000 -19590.00000000 480.00000000 11 112 194 0.000000 0.000000 0.000000 0.000000 -60.708740 0.000000 44.000000 0.881562 0.462574 -0.094202
-8230.00000000 -19590.00000000 430.00000000 11 112 194 0.000000 0.000000 0.000000 0.000000 -60.708740 0.000000 44.000000 0.868359 0.495626 -0.017556
-8250.00000000 -19850.00000000 450.00000000 11 112 194 0.000000 0.000000 0.000000 0.000000 -60.708740 0.000000 234.000000 0.304927 0.865747 -0.396865
-8320.00000000 -19820.00000000 350.00000000 11 112 194 0.000000 0.000000 0.000000 0.000000 -60.708740 0.000000 234.000000 0.361388 0.708058 -0.606673
-8270.00000000 -19790.00000000 340.00000000 11 112 194 0.000000 0.000000 0.000000 0.000000 -60.708740 0.000000 234.000000 0.336618 0.851628 -0.401770
-8270.00000000 -19870.00000000 440.00000000 11 112 194 0.000000 0.000000 0.000000 0.000000 -60.708740 0.000000 234.000000 0.326347 0.770050 -0.548198
-8320.00000000 -19850.00000000 370.00000000 11 112 194 0.000000 0.000000 0.000000 0.000000 -60.708740 0.000000 234.000000 0.204272 0.918509 -0.338548
-8320.00000000 -19830.00000000 340.00000000 11 112 194 0.000000 0.000000 0.000000 0.000000 -60.708740 0.000000 234.000000 0.541890 0.765117 -0.347780
-8350.00000000 -19820.00000000 330.00000000 11 112 194 0.000000 0.000000 0.000000 0.000000 -60.708740 0.000000 234.000000 0.331359 0.810166 -0.483563
-8260.00000000 -19880.00000000 70.00000000 11 112 194 0.000000 0.000000 0.000000 0.000000 -60.708740 0.000000 234.000000 0.234551 0.907609 -0.348184
-8250.00000000 -19840.00000000 70.00000000 11 112 194 0.000000 0.000000 0.000000 0.000000 -60.708740 0.000000 234.000000 0.610481 0.720594 -0.328720
-8320.00000000 -19580.00000000 300.00000000 11 112 194 0.000000 0.000000 0.000000 0.000000 -60.708740 0.000000 44.000000 0.997457 0.052498 -0.048212
-8310.00000000 -19630.00000000 40.00000000 11 112 194 0.000000 0.000000 0.000000 0.000000 -60.708740 0.000000 44.000000 0.893031 0.443065 -0.078675
-8290.00000000 -19870.00000000 250.00000000 11 112 194 0.000000 0.000000 0.000000 0.000000 -60.708740 0.000000 234.000000 0.735731 0.676192 0.038275
-8310.00000000 -19840.00000000 290.00000000 11 112 194 0.000000 0.000000 0.000000 0.000000 -60.708740 0.000000 234.000000 0.340868 0.764126 -0.547650
-8310.00000000 -19870.00000000 210.00000000 11 112 194 0.000000 0.000000 0.000000 0.000000 -60.708740 0.000000 234.000000 0.727583 0.686007 -0.004158
-8290.00000000 -19880.00000000 90.00000000 11 112 194 0.000000 0.000000 0.000000 0.000000 -60.708740 0.000000 234.000000 0.770584 0.630212 -0.095044
-8290.00000000 -19870.00000000 90.00000000 11 112 194 0.000000 0.000000 0.000000 0.000000 -60.708740 0.000000 234.000000 0.682503 0.726160 0.082948
-8270.00000000 -19880.00000000 0.00000000 11 112 194 0.000000 0.000000 0.000000 0.000000 -60.708740 0.000000 234.000000 0.612186 0.779010 -0.135545
-8400.00000000 -19830.00000000 30.00000000 11 112 194 0.000000 0.000000 0.000000 0.000000 -60.708740 0.000000 234.000000 0.830783 0.547595 0.099694
-8440.00000000 -19100.00000000 540.00000000 11 112 194 0.000000 0.000000 0.000000 0.000000 -60.708740 0.000000 44.000000 0.829813 -0.422019 0.365118
-8450.00000000 -19070.00000000 520.00000000 11 112 194 0.000000 0.000000 0.000000 0.000000 -60.708740 0.000000 44.000000 0.791197 -0.451419 0.412587
-8440.00000000 -19110.00000000 530.00000000 11 112 194 0.000000 0.000000 0.000000 0.000000 -60.708740 0.000000 44.000000 0.800626 -0.519539 0.298458
-8430.00000000 -19080.00000000 380.00000000 11 112 194 0.000000 0.000000 0.000000 0.000000 -60.708740 0.000000 44.000000 -0.479956 0.841839 -0.246878
-8460.00000000 -19150.00000000 230.00000000 11 112 194 0.000000 0.000000 0.000000 0.000000 -60.708740 0.000000 44.000000 -0.567909 0.788848 -0.234943
-8480.00000000 -19380.00000000 680.00000000 11 112 194 0.000000 0.000000 0.000000 0.000000 -60.708740 0.000000 44.000000 0.975247 0.069923 0.209770
-8450.00000000 -19550.00000000 750.00000000 11 112 194 0.000000 0.000000 0.000000 0.000000 -60.708740 0.000000 44.000000 0.630066 0.692254 -0.351855
-8480.00000000 -19680.00000000 80.00000000 11 112 194 0.000000 0.000000 0.000000 0.000000 -60.708740 0.000000 44.000000 0.702062 0.562646 -0.436507
-8550.00000000 -19620.00000000 50.00000000 11 112 194 0.000000 0.000000 0.000000 0.000000 -60.708740 0.000000 44.000000 0.796717 0.363893 -0.482519
-7770.00000000 -19920.00000000 120.00000000 11 112 194 0.000000 0.000000 0.000000 0.000000 -60.708740 0.000000 44.000000 -0.603619 0.735610 -0.307443
-7780.00000000 -19910.00000000 10.00000000 11 112 194 0.000000 0.000000 0.000000 0.000000 -60.708740 0.000000 44.000000 0.784496 -0.572385 0.238624
-7750.00000000 -19560.00000000 -340.00000000 11 112 194 0.000000 0.000000 0.000000 0.000000 -60.708740 0.000000 44.000000 0.997827 0.005213 0.065688
-7750.00000000 -19570.00000000 -390.00000000 11 112 194 0.000000 0.000000 0.000000 0.000000 -60.708740 0.000000 44.000000 0.966551 0.156563 -0.203144
-7740.00000000 -19640.00000000 -120.00000000 11 112 194 0.000000 0.000000 0.000000 0.000000 -60.708740 0.000000 44.000000 0.860182 -0.432383 0.270430
-7750.00000000 -19640.00000000 -210.00000000 11 112 194 0.000000 0.000000 0.000000 0.000000 -60.708740 0.000000 44.000000 0.983634 0.136717 -0.117359
-7740.00000000 -19660.00000000 -250.00000000 11 112 194 0.000000 0.000000 0.000000 0.000000 -60.708740 0.000000 44.000000 0.992309 -0.025558 0.121122
-7720.00000000 -19740.00000000 -210.00000000 11 112 194 0.000000 0.000000 0.000000 0.000000 -60.708740 0.000000 44.000000 0.897455 -0.385042 0.215214
-7750.00000000 -19730.00000000 -340.00000000 11 112 194 0.000000 0.000000 0.000000 0.000000 -60.708740 0.000000 44.000000 0.982983 -0.136963 -0.122418
-7750.00000000 -19820.00000000 -90.00000000 11 112 194 0.000000 0.000000 0.000000 0.000000 -60.708740 0.000000 44.000000 0.867357 -0.472439 0.156505
-7750.00000000 -19780.00000000 -130.00000000 11 112 194 0.000000 0.000000 0.000000 0.000000 -60.708740 0.000000 44.000000 0.773338 -0.470515 0.424929
-7750.00000000 -19760.00000000 -170.00000000 11 112 194 0.000000 0.000000 0.000000 0.000000 -60.708740 0.000000 44.000000 0.934302 -0.299367 0.193544
-7750.00000000 -19760.00000000 -170.00000000 11 112 194 0.000000 0.000000 0.000000 0.000000 -60.708740 0.000000 44.000000 0.934302 -0.299367 0.193544
-7750.00000000 -19840.00000000 -200.00000000 11 112 194 0.000000 0.000000 0.000000 0.000000 -60.708740 0.000000 44.000000 0.916146 -0.356516 0.183229
-7720.00000000 -19670.00000000 -390.00000000 11 112 194 0.000000 0.000000 0.000000 0.000000 -60.708740 0.000000 44.000000 0.913613 -0.162892 -0.372528
-7740.00000000 -19660.00000000 -480.00000000 11 112 194 0.000000 0.000000 0.000000 0.000000 -60.708740 0.000000 44.000000 0.904808 -0.098379 -0.414300
-7740.00000000 -19670.00000000 -480.00000000 11 112 194 0.000000 0.000000 0.000000 0.000000 -60.708740 0.000000 44.000000 0.999496 -0.021396 -0.023434
-7740.00000000 -19670.00000000 -540.00000000 11 112 194 0.000000 0.000000 0.000000 0.000000 -60.708740 0.000000 44.000000 0.939501 -0.058637 -0.337491
-7740.00000000 -19660.00000000 -590.00000000 11 112 194 0.000000 0.000000 0.000000 0.000000 -60.708740 0.000000 44.000000 0.981552 -0.068313 -0.178573
-7750.00000000 -19700.00000000 -530.00000000 11 112 194 0.000000 0.000000 0.000000 0.000000 -60.708740 0.000000 44.000000 0.987367 -0.153232 -0.040324
-7830.00000000 -19040.00000000 -90.00000000 11 112 194 0.000000 0.000000 0.000000 0.000000 -60.708740 0.000000 44.000000 0.506517 0.634408 -0.583924
-7820.00000000 -19050.00000000 -120.00000000 11 112 194 0.000000 0.000000 0.000000 0.000000 -60.708740 0.000000 44.000000 0.348386 0.785072 -0.512143
-7870.00000000 -19010.00000000 -20.00000000 11 112 194 0.000000 0.000000 0.000000 0.000000 -60.708740 0.000000 44.000000 0.254998 0.910708 -0.324941
-7870.00000000 -19020.00000000 -90.00000000 11 112 194 0.000000 0.000000 0.000000 0.000000 -60.708740 0.000000 44.000000 0.248011 0.797066 -0.550615
-7880.00000000 -19040.00000000 -30.00000000 11 112 194 0.000000 0.000000 0.000000 0.000000 -60.708740 0.000000 44.000000 0.013758 0.946828 -0.321446
-7880.00000000 -19050.00000000 -80.00000000 11 112 194 0.000000 0.000000 0.000000 0.000000 -60.708740 0.000000 44.000000 -0.020912 0.960708 -0.276772
-7910.00000000 -19000.00000000 -40.00000000 11 112 194 0.000000 0.000000 0.000000 0.000000 -60.708740 0.000000 44.000000 0.078154 0.996734 0.020342
-7900.00000000 -18990.00000000 -20.00000000 11 112 194 0.000000 0.000000 0.000000 0.000000 -60.708740 0.000000 44.000000 0.036834 0.948799 -0.313726
-7920.00000000 -19020.00000000 -60.00000000 11 112 194 0.000000 0.000000 0.000000 0.000000 -60.708740 0.000000 44.000000 0.073498 0.782539 -0.618249
-7890.00000000 -19050.00000000 -100.00000000 11 112 194 0.000000 0.000000 0.000000 0.000000 -60.708740 0.000000 44.000000 0.169759 0.812738 -0.557349
-7850.00000000 -19060.00000000 -120.00000000 11 112 194 0.000000 0.000000 0.000000 0.000000 -60.708740 0.000000 44.000000 0.660152 0.606672 -0.442887
-7870.00000000 -19030.00000000 -130.00000000 11 112 194 0.000000 0.000000 0.000000 0.000000 -60.708740 0.000000 44.000000 0.274820 0.884529 -0.376938
-7870.00000000 -19040.00000000 -140.00000000 11 112 194 0.000000 0.000000 0.000000 0.000000 -60.708740 0.000000 44.000000 0.323185 0.794430 -0.514230
-7890.00000000 -19060.00000000 -180.00000000 11 112 194 0.000000 0.000000 0.000000 0.000000 -60.708740 0.000000 44.000000 0.236971 0.745439 -0.623030
-7870.00000000 -19040.00000000 -200.00000000 11 112 194 0.000000 0.000000 0.000000 0.000000 -60.708740 0.000000 44.000000 0.160687 0.908666 -0.385365
-7900.00000000 -19030.00000000 -210.00000000 11 112 194 0.000000 0.000000 0.000000 0.000000 -60.708740 0.000000 44.000000 0.487463 0.671728 -0.557819
-7850.00000000 -19060.00000000 -190.00000000 11 112 194 0.000000 0.000000 0.000000 0.000000 -60.708740 0.000000 44.000000 0.629717 0.619641 -0.468509
-7830.00000000 -19130.00000000 -40.00000000 11 112 194 0.000000 0.000000 0.000000 0.000000 -60.708740 0.000000 44.000000 0.509574 0.718715 -0.473057
-7880.00000000 -19140.00000000 -60.00000000 11 112 194 0.000000 0.000000 0.000000 0.000000 -60.708740 0.000000 44.000000 0.107446 0.861004 -0.497119
-7860.00000000 -19110.00000000 -20.00000000 11 112 194 0.000000 0.000000 0.000000 0.000000 -60.708740 0.000000 44.000000 0.556759 0.600758 -0.573681
-7870.00000000 -19140.00000000 -60.00000000 11 112 194 0.000000 0.000000 0.000000 0.000000 -60.708740 0.000000 44.000000 -0.362202 -0.676875 0.640819
-7880.00000000 -19130.00000000 -50.00000000 11 112 194 0.000000 0.000000 0.000000 0.000000 -60.708740 0.000000 44.000000 0.236133 0.911212 -0.337540
-7910.00000000 -19120.00000000 -30.00000000 11 112 194 0.000000 0.000000 0.000000 0.000000 -60.708740 0.000000 44.000000 0.110311 0.959055 -0.260853
-7900.00000000 -19150.00000000 -80.00000000 11 112 194 0.000000 0.000000 0.000000 0.000000 -60.708740 0.000000 44.000000 0.489833 0.637961 -0.594196
-7910.00000000 -19140.00000000 -80.00000000 11 112 194 0.000000 0.000000 0.000000 0.000000 -60.708740 0.000000 44.000000 0.253315 0.963617 -0.085287
-7910.00000000 -19150.00000000 -100.00000000 11 112 194 0.000000 0.000000 0.000000 0.000000 -60.708740 0.000000 44.000000 0.599504 0.636448 -0.485313
-7910.00000000 -19140.00000000 -90.00000000 11 112 194 0.000000 0.000000 0.000000 0.000000 -60.708740 0.000000 44.000000 0.340868 0.764126 -0.547650
-7840.00000000 -19070.00000000 -130.00000000 11 112 194 0.000000 0.000000 0.000000 0.000000 -60.708740 0.000000 44.000000 0.524105 0.652182 -0.547698
-7850.00000000 -19100.00000000 -160.00000000 11 112 194 0.000000 0.000000 0.000000 0.000000 -60.708740 0.000000 44.000000 0.230349 0.957348 -0.174426
-7880.00000000 -19070.00000000 -170.00000000 11 112 194 0.000000 0.000000 0.000000 0.000000 -60.708740 0.000000 44.000000 0.265432 0.915232 -0.303143
-7890.00000000 -19070.00000000 -180.00000000 11 112 194 0.000000 0.000000 0.000000 0.000000 -60.708740 0.000000 44.000000 0.441316 0.735527 -0.514043
-7920.00000000 -19130.00000000 -150.00000000 11 112 194 0.000000 0.000000 0.000000 0.000000 -60.708740 0.000000 44.000000 0.354926 0.932835 0.062013
-7860.00000000 -19200.00000000 -30.00000000 11 112 194 0.000000 0.000000 0.000000 0.000000 -60.708740 0.000000 44.000000 0.340782 0.702761 -0.624495
-7890.00000000 -19170.00000000 -160.00000000 11 112 194 0.000000 0.000000 0.000000 0.000000 -60.708740 0.000000 44.000000 0.178475 0.983363 -0.033829
-7830.00000000 -19220.00000000 -340.00000000 11 112 194 0.000000 0.000000 0.000000 0.000000 -60.708740 0.000000 44.000000 0.407942 0.833209 -0.373290
-7860.00000000 -19080.00000000 -220.00000000 11 112 194 0.000000 0.000000 0.000000 0.000000 -60.708740 0.000000 44.000000 0.408619 0.886571 -0.216848
-7860.00000000 -19080.00000000 -220.00000000 11 112 194 0.000000 0.000000 0.000000 0.000000 -60.708740 0.000000 44.000000 0.408619 0.886571 -0.216848
-7840.00000000 -19090.00000000 -230.00000000 11 112 194 0.000000 0.000000 0.000000 0.000000 -60.708740 0.000000 44.000000 0.423793 0.892121 0.156588
-7860.00000000 -19100.00000000 -260.00000000 11 112 194 0.000000 0.000000 0.000000 0.000000 -60.708740 0.000000 44.000000 0.176700 0.920253 -0.349159
-7840.00000000 -19090.00000000 -270.00000000 11 112 194 0.000000 0.000000 0.000000 0.000000 -60.708740 0.000000 44.000000 0.599504 0.636448 -0.485313
-7860.00000000 -19150.00000000 -190.00000000 11 112 194 0.000000 0.000000 0.000000 0.000000 -60.708740 0.000000 44.000000 0.625631 0.595277 -0.504214
-7850.00000000 -19150.00000000 -260.00000000 11 112 194 0.000000 0.000000 0.000000 0.000000 -60.708740 0.000000 44.000000 0.539763 0.667557 -0.512859
-7870.00000000 -19140.00000000 -240.00000000 11 112 194 0.000000 0.000000 0.000000 0.000000 -60.708740 0.000000 44.000000 0.334913 0.938551 -0.083397
-7900.00000000 -19070.00000000 -190.00000000 11 112 194 0.000000 0.000000 0.000000 0.000000 -60.708740 0.000000 44.000000 0.555084 0.698439 -0.451735
-7890.00000000 -19070.00000000 -190.00000000 11 112 194 0.000000 0.000000 0.000000 0.000000 -60.708740 0.000000 44.000000 0.204096 0.865547 -0.457354
-7890.00000000 -19080.00000000 -190.00000000 11 112 194 0.000000 0.000000 0.000000 0.000000 -60.708740 0.000000 44.000000 0.127209 0.946702 -0.295928
-7890.00000000 -19070.00000000 -220.00000000 11 112 194 0.000000 0.000000 0.000000 0.000000 -60.708740 0.000000 44.000000 0.145732 0.977777 -0.150715
-7900.00000000 -19110.00000000 -220.00000000 11 112 194 0.000000 0.000000 0.000000 0.000000 -60.708740 0.000000 44.000000 0.167156 0.985877 0.010234
-7890.00000000 -19150.00000000 -210.00000000 11 112 194 0.000000 0.000000 0.000000 0.000000 -60.708740 0.000000 44.000000 0.219341 0.904962 -0.364600
-7880.00000000 -19100.00000000 -280.00000000 11 112 194 0.000000 0.000000 0.000000 0.000000 -60.708740 0.000000 44.000000 0.248941 0.960571 0.123819
-7860.00000000 -19160.00000000 -200.00000000 11 112 194 0.000000 0.000000 0.000000 0.000000 -60.708740 0.000000 44.000000 0.228729 0.892782 -0.388102
-7840.00000000 -19160.00000000 -260.00000000 11 112 194 0.000000 0.000000 0.000000 0.000000 -60.708740 0.000000 44.000000 0.438639 0.632107 -0.638778
-7910.00000000 -19230.00000000 -250.00000000 11 112 194 0.000000 0.000000 0.000000 0.000000 -60.708740 0.000000 44.000000 0.229112 0.759032 -0.609408
-7870.00000000 -19180.00000000 -320.00000000 11 112 194 0.000000 0.000000 0.000000 0.000000 -60.708740 0.000000 44.000000 0.547723 0.635358 -0.544352
-7860.00000000 -19160.00000000 -350.00000000 11 112 194 0.000000 0.000000 0.000000 0.000000 -60.708740 0.000000 44.000000 0.045451 0.969212 -0.241996
-7950.00000000 -19080.00000000 -70.00000000 11 112 194 0.000000 0.000000 0.000000 0.000000 -60.708740 0.000000 44.000000 -0.037686 -0.822110 0.568080
-7940.00000000 -19120.00000000 -70.00000000 11 112 194 0.000000 0.000000 0.000000 0.000000 -60.708740 0.000000 44.000000 0.156473 0.979496 0.126903
-7940.00000000 -19120.00000000 -90.00000000 11 112 194 0.000000 0.000000 0.000000 0.000000 -60.708740 0.000000 44.000000 0.113792 0.897696 -0.425668
-7930.00000000 -19130.00000000 -80.00000000 11 112 194 0.000000 0.000000 0.000000 0.000000 -60.708740 0.000000 44.000000 0.384992 0.809922 -0.442502
-7940.00000000 -19220.00000000 -30.00000000 11 112 194 0.000000 0.000000 0.000000 0.000000 -60.708740 0.000000 44.000000 0.105215 0.840282 -0.531842
-7950.00000000 -19220.00000000 -60.00000000 11 112 194 0.000000 0.000000 0.000000 0.000000 -60.708740 0.000000 44.000000 0.338815 0.931397 -0.133057
-7930.00000000 -19230.00000000 -40.00000000 11 112 194 0.000000 0.000000 0.000000 0.000000 -60.708740 0.000000 44.000000 0.465419 0.882500 0.067672
-7940.00000000 -19220.00000000 -60.00000000 11 112 194 0.000000 0.000000 0.000000 0.000000 -60.708740 0.000000 44.000000 0.037933 0.967914 -0.248403
-7940.00000000 -19220.00000000 -40.00000000 11 112 194 0.000000 0.000000 0.000000 0.000000 -60.708740 0.000000 44.000000 0.086150 0.995632 0.035987
-7940.00000000 -19220.00000000 -70.00000000 11 112 194 0.000000 0.000000 0.000000 0.000000 -60.708740 0.000000 44.000000 0.221000 0.965420 -0.138286
-7970.00000000 -19170.00000000 -30.00000000 11 112 194 0.000000 0.000000 0.000000 0.000000 -60.708740 0.000000 44.000000 0.170460 0.979836 -0.104238
-7980.00000000 -19170.00000000 -30.00000000 11 112 194 0.000000 0.000000 0.000000 0.000000 -60.708740 0.000000 44.000000 0.148186 0.951860 -0.268336
-7950.00000000 -19170.00000000 -140.00000000 11 112 194 0.000000 0.000000 0.000000 0.000000 -60.708740 0.000000 44.000000 0.346709 0.932203 0.103878
-7950.00000000 -19190.00000000 -180.00000000 11 112 194 0.000000 0.000000 0.000000 0.000000 -60.708740 0.000000 44.000000 0.306908 0.951034 0.036627
-7940.00000000 -19200.00000000 -160.00000000 11 112 194 0.000000 0.000000 0.000000 0.000000 -60.708740 0.000000 44.000000 0.260066 0.963626 0.061562
-7990.00000000 -19190.00000000 -170.00000000 11 112 194 0.000000 0.000000 0.000000 0.000000 -60.708740 0.000000 44.000000 -0.006751 0.849266 -0.527922
-7990.00000000 -19200.00000000 -180.00000000 11 112 194 0.000000 0.000000 0.000000 0.000000 -60.708740 0.000000 44.000000 0.188663 0.920617 -0.341863
-8020.00000000 -19140.00000000 -50.00000000 11 112 194 0.000000 0.000000 0.000000 0.000000 -60.708740 0.000000 44.000000 0.083910 0.986833 0.138275
-8050.00000000 -19150.00000000 -20.00000000 11 112 194 0.000000 0.000000 0.000000 0.000000 -60.708740 0.000000 44.000000 -0.227473 0.949395 -0.216576
-8050.00000000 -19150.00000000 -20.00000000 11 112 194 0.000000 0.000000 0.000000 0.000000 -60.708740 0.000000 44.000000 -0.227473 0.949395 -0.216576
-8020.00000000 -19190.00000000 -20.00000000 11 112 194 0.000000 0.000000 0.000000 0.000000 -60.708740 0.000000 44.000000 -0.065417 0.971381 -0.228342
-8040.00000000 -19180.00000000 -50.00000000 11 112 194 0.000000 0.000000 0.000000 0.000000 -60.708740 0.000000 44.000000 0.294665 0.880971 -0.370219
-8020.00000000 -19190.00000000 -70.00000000 11 112 194 0.000000 0.000000 0.000000 0.000000 -60.708740 0.000000 44.000000 0.231616 0.963989 0.130688
-8030.00000000 -19230.00000000 -50.00000000 11 112 194 0.000000 0.000000 0.000000 0.000000 -60.708740 0.000000 44.000000 -0.036394 0.982631 -0.181969
-8050.00000000 -19190.00000000 -20.00000000 11 112 194 0.000000 0.000000 0.000000 0.000000 -60.708740 0.000000 44.000000 0.064512 0.996103 -0.060138
-8060.00000000 -19210.00000000 -80.00000000 11 112 194 0.000000 0.000000 0.000000 0.000000 -60.708740 0.000000 44.000000 0.097731 0.976076 -0.194226
-8060.00000000 -19200.00000000 -100.00000000 11 112 194 0.000000 0.000000 0.000000 0.000000 -60.708740 0.000000 44.000000 -0.026717 0.997075 -0.071601
-8010.00000000 -19190.00000000 -140.00000000 11 112 194 0.000000 0.000000 0.000000 0.000000 -60.708740 0.000000 44.000000 0.279485 0.955449 -0.094895
-8090.00000000 -19230.00000000 -130.00000000 11 112 194 0.000000 0.000000 0.000000 0.000000 -60.708740 0.000000 44.000000 0.059614 0.993189 -0.100106
-8080.00000000 -19230.00000000 -150.00000000 11 112 194 0.000000 0.000000 0.000000 0.000000 -60.708740 0.000000 44.000000 -0.304520 0.889557 -0.340522
-7950.00000000 -19230.00000000 -210.00000000 11 112 194 0.000000 0.000000 0.000000 0.000000 -60.708740 0.000000 44.000000 0.396717 0.876398 -0.273026
-7940.00000000 -19230.00000000 -220.00000000 11 112 194 0.000000 0.000000 0.000000 0.000000 -60.708740 0.000000 44.000000 0.442368 0.676072 -0.589268
-8000.00000000 -19180.00000000 -220.00000000 11 112 194 0.000000 0.000000 0.000000 0.000000 -60.708740 0.000000 44.000000 0.329010 0.802657 -0.497488
-7970.00000000 -19230.00000000 -280.00000000 11 112 194 0.000000 0.000000 0.000000 0.000000 -60.708740 0.000000 44.000000 0.411521 0.834079 -0.367373
-8070.00000000 -19220.00000000 -260.00000000 11 112 194 0.000000 0.000000 0.000000 0.000000 -60.708740 0.000000 44.000000 0.206541 0.958082 -0.198545
-8040.00000000 -19210.00000000 -240.00000000 11 112 194 0.000000 0.000000 0.000000 0.000000 -60.708740 0.000000 44.000000 0.435783 0.838765 -0.326447
-8060.00000000 -19230.00000000 -290.00000000 11 112 194 0.000000 0.000000 0.000000 0.000000 -60.708740 0.000000 44.000000 0.172275 0.938552 -0.299069
-7880.00000000 -19130.00000000 -410.00000000 11 112 194 0.000000 0.000000 0.000000 0.000000 -60.708740 0.000000 44.000000 0.344789 0.815100 -0.465545
-7900.00000000 -19130.00000000 -360.00000000 11 112 194 0.000000 0.000000 0.000000 0.000000 -60.708740 0.000000 44.000000 0.340266 0.800345 -0.493626
-7850.00000000 -19160.00000000 -360.00000000 11 112 194 0.000000 0.000000 0.000000 0.000000 -60.708740 0.000000 44.000000 0.534168 0.635272 -0.557759
-7860.00000000 -19190.00000000 -420.00000000 11 112 194 0.000000 0.000000 0.000000 0.000000 -60.708740 0.000000 44.000000 0.362048 0.923704 -0.125271
-7850.00000000 -19180.00000000 -430.00000000 11 112 194 0.000000 0.000000 0.000000 0.000000 -60.708740 0.000000 44.000000 0.383078 0.903486 -0.192262
-7910.00000000 -19210.00000000 -420.00000000 11 112 194 0.000000 0.000000 0.000000 0.000000 -60.708740 0.000000 44.000000 0.333153 0.716685 -0.612676
-7900.00000000 -19220.00000000 -430.00000000 11 112 194 0.000000 0.000000 0.000000 0.000000 -60.708740 0.000000 44.000000 0.121092 0.959620 -0.253902
-7900.00000000 -19220.00000000 -400.00000000 11 112 194 0.000000 0.000000 0.000000 0.000000 -60.708740 0.000000 44.000000 0.581270 0.687864 -0.434704
-7880.00000000 -19180.00000000 -470.00000000 11 112 194 0.000000 0.000000 0.000000 0.000000 -60.708740 0.000000 44.000000 0.055863 0.941877 -0.331281
-7870.00000000 -19220.00000000 -480.00000000 11 112 194 0.000000 0.000000 0.000000 0.000000 -60.708740 0.000000 44.000000 0.194633 0.919180 -0.342384
-7890.00000000 -19210.00000000 -530.00000000 11 112 194 0.000000 0.000000 0.000000 0.000000 -60.708740 0.000000 44.000000 0.479050 0.692704 -0.539140
-7940.00000000 -19220.00000000 -400.00000000 11 112 194 0.000000 0.000000 0.000000 0.000000 -60.708740 0.000000 44.000000 0.200896 0.962460 -0.182513
-7950.00000000 -19230.00000000 -620.00000000 11 112 194 0.000000 0.000000 0.000000 0.000000 -60.708740 0.000000 44.000000 0.321452 0.934005 0.155897
-7960.00000000 -19220.00000000 -630.00000000 11 112 194 0.000000 0.000000 0.000000 0.000000 -60.708740 0.000000 44.000000 0.331390 0.937821 0.103308
-8110.00000000 -19170.00000000 -40.00000000 11 112 194 0.000000 0.000000 0.000000 0.000000 -60.708740 0.000000 44.000000 0.014776 0.874442 -0.484905
-8130.00000000 -19180.00000000 -60.00000000 11 112 194 0.000000 0.000000 0.000000 0.000000 -60.708740 0.000000 44.000000 -0.343823 0.769969 -0.537526
