//X Y Z R G B PointSourceId ScanDirectionFlag NumberOfReturns ReturnNumber GpsTime Intensity Classification Nx Ny Nz
910.00000000 5090.00000000 -190.00000000 130 106 137 97.000000 1.000000 4.000000 1.000000 -60.708740 114.000000 149.000000 0.349371 0.745866 0.567118
900.00000000 5020.00000000 -220.00000000 130 106 137 97.000000 1.000000 4.000000 1.000000 -60.708740 114.000000 149.000000 0.620330 0.726123 0.296540
890.00000000 5060.00000000 -190.00000000 130 106 137 97.000000 1.000000 4.000000 1.000000 -60.708740 114.000000 149.000000 0.218004 0.951904 0.215296
900.00000000 5020.00000000 -220.00000000 130 106 137 97.000000 1.000000 4.000000 1.000000 -60.708740 114.000000 149.000000 0.620330 0.726123 0.296540
890.00000000 5050.00000000 -210.00000000 130 106 137 97.000000 1.000000 4.000000 1.000000 -60.708740 114.000000 149.000000 0.257437 0.966288 0.003592
890.00000000 5060.00000000 -190.00000000 130 106 137 97.000000 1.000000 4.000000 1.000000 -60.708740 114.000000 149.000000 0.218004 0.951904 0.215296
860.00000000 5020.00000000 -200.00000000 130 106 137 97.000000 1.000000 4.000000 1.000000 -60.708740 114.000000 149.000000 0.454062 0.635017 0.624964
900.00000000 5070.00000000 -310.00000000 130 106 137 97.000000 1.000000 4.000000 1.000000 -60.708740 114.000000 149.000000 0.511522 0.704801 -0.491528
910.00000000 5080.00000000 -290.00000000 130 106 137 97.000000 1.000000 4.000000 1.000000 -60.708740 114.000000 149.000000 0.027488 0.917575 -0.396612
900.00000000 5070.00000000 -310.00000000 130 106 137 97.000000 1.000000 4.000000 1.000000 -60.708740 114.000000 149.000000 0.511522 0.704801 -0.491528
870.00000000 5020.00000000 -340.00000000 130 106 137 97.000000 1.000000 4.000000 1.000000 -60.708740 114.000000 149.000000 -0.180539 -0.397185 0.899805
770.00000000 5200.00000000 -20.00000000 130 106 137 97.000000 1.000000 4.000000 1.000000 -60.708740 114.000000 149.000000 0.682970 0.623724 0.380159
690.00000000 5280.00000000 -20.00000000 130 106 137 97.000000 1.000000 4.000000 1.000000 -60.708740 114.000000 149.000000 0.705527 0.630919 0.322758
690.00000000 5280.00000000 -20.00000000 130 106 137 97.000000 1.000000 4.000000 1.000000 -60.708740 114.000000 149.000000 0.705527 0.630919 0.322758
720.00000000 5300.00000000 -30.00000000 130 106 137 97.000000 1.000000 4.000000 1.000000 -60.708740 114.000000 149.000000 0.423902 0.616736 0.663282
700.00000000 5310.00000000 -20.00000000 130 106 137 97.000000 1.000000 4.000000 1.000000 -60.708740 114.000000 149.000000 0.467460 0.530675 0.707012
750.00000000 5240.00000000 -20.00000000 130 106 137 97.000000 1.000000 4.000000 1.000000 -60.708740 114.000000 149.000000 0.809674 0.362517 0.461530
750.00000000 5200.00000000 -30.00000000 130 106 137 97.000000 1.000000 4.000000 1.000000 -60.708740 114.000000 149.000000 0.351403 0.612913 0.707710
740.00000000 5270.00000000 -40.00000000 130 106 137 97.000000 1.000000 4.000000 1.000000 -60.708740 114.000000 149.000000 0.790304 0.392728 0.470303
790.00000000 5180.00000000 -20.00000000 130 106 137 97.000000 1.000000 4.000000 1.000000 -60.708740 114.000000 149.000000 0.333459 0.623000 0.707585
780.00000000 5180.00000000 -20.00000000 130 106 137 97.000000 1.000000 4.000000 1.000000 -60.708740 114.000000 149.000000 0.768823 0.245836 0.590318
760.00000000 5110.00000000 -60.00000000 130 106 137 97.000000 1.000000 4.000000 1.000000 -60.708740 114.000000 149.000000 0.427901 -0.072456 0.900917
760.00000000 5120.00000000 -50.00000000 130 106 137 97.000000 1.000000 4.000000 1.000000 -60.708740 114.000000 149.000000 0.573247 -0.020720 0.819121
820.00000000 5090.00000000 -80.00000000 130 106 137 97.000000 1.000000 4.000000 1.000000 -60.708740 114.000000 149.000000 0.294614 0.348452 0.889823
830.00000000 5030.00000000 -20.00000000 130 106 137 97.000000 1.000000 4.000000 1.000000 -60.708740 114.000000 149.000000 0.440483 0.219495 0.870515
830.00000000 5020.00000000 -70.00000000 130 106 137 97.000000 1.000000 4.000000 1.000000 -60.708740 114.000000 149.000000 0.656924 0.038144 0.752991
790.00000000 5100.00000000 -60.00000000 130 106 137 97.000000 1.000000 4.000000 1.000000 -60.708740 114.000000 149.000000 0.388330 0.433076 0.813416
780.00000000 5100.00000000 -60.00000000 130 106 137 97.000000 1.000000 4.000000 1.000000 -60.708740 114.000000 149.000000 0.200800 0.227753 0.952789
770.00000000 5060.00000000 -60.00000000 130 106 137 97.000000 1.000000 4.000000 1.000000 -60.708740 114.000000 149.000000 0.302950 0.001227 0.953006
760.00000000 5020.00000000 -100.00000000 130 106 137 97.000000 1.000000 4.000000 1.000000 -60.708740 114.000000 149.000000 0.139243 -0.346040 0.927829
830.00000000 5100.00000000 -140.00000000 130 106 137 97.000000 1.000000 4.000000 1.000000 -60.708740 114.000000 149.000000 0.684528 0.638784 0.351250
810.00000000 5090.00000000 -110.00000000 130 106 137 97.000000 1.000000 4.000000 1.000000 -60.708740 114.000000 149.000000 0.324209 0.168366 0.930882
810.00000000 5090.00000000 -110.00000000 130 106 137 97.000000 1.000000 4.000000 1.000000 -60.708740 114.000000 149.000000 0.324209 0.168366 0.930882
800.00000000 5040.00000000 -140.00000000 130 106 137 97.000000 1.000000 4.000000 1.000000 -60.708740 114.000000 149.000000 0.346216 0.163997 0.923710
760.00000000 5030.00000000 -110.00000000 130 106 137 97.000000 1.000000 4.000000 1.000000 -60.708740 114.000000 149.000000 0.129967 0.103735 0.986077
770.00000000 5030.00000000 -110.00000000 130 106 137 97.000000 1.000000 4.000000 1.000000 -60.708740 114.000000 149.000000 0.424134 0.192254 0.884957
780.00000000 5020.00000000 -110.00000000 130 106 137 97.000000 1.000000 4.000000 1.000000 -60.708740 114.000000 149.000000 0.551880 0.001356 0.833922
780.00000000 5030.00000000 -130.00000000 130 106 137 97.000000 1.000000 4.000000 1.000000 -60.708740 114.000000 149.000000 0.163217 -0.052840 0.985174
790.00000000 5030.00000000 -130.00000000 130 106 137 97.000000 1.000000 4.000000 1.000000 -60.708740 114.000000 149.000000 0.378228 -0.016781 0.925561
780.00000000 5030.00000000 -130.00000000 130 106 137 97.000000 1.000000 4.000000 1.000000 -60.708740 114.000000 149.000000 0.163217 -0.052840 0.985174
710.00000000 5110.00000000 -70.00000000 130 106 137 97.000000 1.000000 4.000000 1.000000 -60.708740 114.000000 149.000000 0.253271 0.371760 0.893112
750.00000000 5110.00000000 -40.00000000 130 106 137 97.000000 1.000000 4.000000 1.000000 -60.708740 114.000000 149.000000 0.214541 0.239138 0.946987
710.00000000 5090.00000000 -60.00000000 130 106 137 97.000000 1.000000 4.000000 1.000000 -60.708740 114.000000 149.000000 0.622544 0.079443 0.778542
750.00000000 5060.00000000 -50.00000000 130 106 137 97.000000 1.000000 4.000000 1.000000 -60.708740 114.000000 149.000000 0.314360 -0.387966 0.866407
750.00000000 5060.00000000 -50.00000000 130 106 137 97.000000 1.000000 4.000000 1.000000 -60.708740 114.000000 149.000000 0.314360 -0.387966 0.866407
740.00000000 5060.00000000 -50.00000000 130 106 137 97.000000 1.000000 4.000000 1.000000 -60.708740 114.000000 149.000000 0.412721 -0.374770 0.830186
740.00000000 5040.00000000 -120.00000000 130 106 137 97.000000 1.000000 4.000000 1.000000 -60.708740 114.000000 149.000000 0.027955 -0.437964 0.898558
710.00000000 5030.00000000 -120.00000000 130 106 137 97.000000 1.000000 4.000000 1.000000 -60.708740 114.000000 149.000000 0.115937 -0.412065 0.903749
720.00000000 5030.00000000 -130.00000000 130 106 137 97.000000 1.000000 4.000000 1.000000 -60.708740 114.000000 149.000000 0.079298 -0.598341 0.797308
940.00000000 5350.00000000 -440.00000000 130 106 137 97.000000 1.000000 4.000000 1.000000 -60.708740 114.000000 149.000000 0.361264 0.854319 -0.373668
940.00000000 5350.00000000 -440.00000000 130 106 137 97.000000 1.000000 4.000000 1.000000 -60.708740 114.000000 149.000000 0.361264 0.854319 -0.373668
980.00000000 5330.00000000 -520.00000000 130 106 137 97.000000 1.000000 4.000000 1.000000 -60.708740 114.000000 149.000000 0.439574 0.633454 -0.636797
990.00000000 5280.00000000 -460.00000000 130 106 137 97.000000 1.000000 4.000000 1.000000 -60.708740 114.000000 149.000000 0.048259 0.935185 -0.350857
990.00000000 5280.00000000 -460.00000000 130 106 137 97.000000 1.000000 4.000000 1.000000 -60.708740 114.000000 149.000000 0.048259 0.935185 -0.350857
970.00000000 5310.00000000 -490.00000000 130 106 137 97.000000 1.000000 4.000000 1.000000 -60.708740 114.000000 149.000000 0.156466 0.864217 -0.478171
980.00000000 5230.00000000 -390.00000000 130 106 137 97.000000 1.000000 4.000000 1.000000 -60.708740 114.000000 149.000000 0.554971 0.772482 -0.308673
990.00000000 5220.00000000 -380.00000000 130 106 137 97.000000 1.000000 4.000000 1.000000 -60.708740 114.000000 149.000000 0.533549 0.752189 -0.386700
990.00000000 5220.00000000 -440.00000000 130 106 137 97.000000 1.000000 4.000000 1.000000 -60.708740 114.000000 149.000000 0.597006 0.696231 -0.398555
930.00000000 5210.00000000 -380.00000000 130 106 137 97.000000 1.000000 4.000000 1.000000 -60.708740 114.000000 149.000000 0.366428 0.849802 -0.378902
930.00000000 5200.00000000 -390.00000000 130 106 137 97.000000 1.000000 4.000000 1.000000 -60.708740 114.000000 149.000000 0.240020 0.742022 -0.625934
950.00000000 5220.00000000 -420.00000000 130 106 137 97.000000 1.000000 4.000000 1.000000 -60.708740 114.000000 149.000000 0.445611 0.458669 -0.768801
980.00000000 5200.00000000 -470.00000000 130 106 137 97.000000 1.000000 4.000000 1.000000 -60.708740 114.000000 149.000000 -0.012366 0.817552 -0.575722
1000.00000000 5210.00000000 -450.00000000 130 106 137 97.000000 1.000000 4.000000 1.000000 -60.708740 114.000000 149.000000 0.308431 0.876674 -0.369206
960.00000000 5250.00000000 -460.00000000 130 106 137 97.000000 1.000000 4.000000 1.000000 -60.708740 114.000000 149.000000 -0.177102 -0.501540 0.846813
880.00000000 5210.00000000 -390.00000000 130 106 137 97.000000 1.000000 4.000000 1.000000 -60.708740 114.000000 149.000000 0.307660 0.633039 -0.710357
880.00000000 5200.00000000 -400.00000000 130 106 137 97.000000 1.000000 4.000000 1.000000 -60.708740 114.000000 149.000000 0.419341 0.817955 -0.393830
910.00000000 5210.00000000 -370.00000000 130 106 137 97.000000 1.000000 4.000000 1.000000 -60.708740 114.000000 149.000000 0.004159 -0.694514 0.719467
990.00000000 5150.00000000 -420.00000000 130 106 137 97.000000 1.000000 4.000000 1.000000 -60.708740 114.000000 149.000000 0.622109 0.601878 -0.500722
970.00000000 5140.00000000 -430.00000000 130 106 137 97.000000 1.000000 4.000000 1.000000 -60.708740 114.000000 149.000000 -0.079429 -0.607994 0.789959
990.00000000 5140.00000000 -420.00000000 130 106 137 97.000000 1.000000 4.000000 1.000000 -60.708740 114.000000 149.000000 -0.453689 -0.543430 0.706293
1000.00000000 5130.00000000 -420.00000000 130 106 137 97.000000 1.000000 4.000000 1.000000 -60.708740 114.000000 149.000000 -0.569393 -0.485411 0.663451
930.00000000 5160.00000000 -370.00000000 130 106 137 97.000000 1.000000 4.000000 1.000000 -60.708740 114.000000 149.000000 0.069791 0.821825 -0.565450
950.00000000 5140.00000000 -390.00000000 130 106 137 97.000000 1.000000 4.000000 1.000000 -60.708740 114.000000 149.000000 0.510032 0.553797 -0.658161
970.00000000 5100.00000000 -390.00000000 130 106 137 97.000000 1.000000 4.000000 1.000000 -60.708740 114.000000 149.000000 0.624942 0.648273 -0.434960
950.00000000 5100.00000000 -360.00000000 130 106 137 97.000000 1.000000 4.000000 1.000000 -60.708740 114.000000 149.000000 0.069524 0.832864 -0.549094
910.00000000 5140.00000000 -390.00000000 130 106 137 97.000000 1.000000 4.000000 1.000000 -60.708740 114.000000 149.000000 0.394579 0.311671 -0.864389
900.00000000 5090.00000000 -410.00000000 130 106 137 97.000000 1.000000 4.000000 1.000000 -60.708740 114.000000 149.000000 0.115066 0.825851 -0.552024
880.00000000 5020.00000000 -370.00000000 130 106 137 97.000000 1.000000 4.000000 1.000000 -60.708740 114.000000 149.000000 0.110184 -0.255368 0.960545
900.00000000 5070.00000000 -450.00000000 130 106 137 97.000000 1.000000 4.000000 1.000000 -60.708740 114.000000 149.000000 0.206822 -0.247912 0.946448
970.00000000 5070.00000000 -630.00000000 130 106 137 97.000000 1.000000 4.000000 1.000000 -60.708740 114.000000 149.000000 -0.085819 -0.650185 0.754913
990.00000000 5050.00000000 -620.00000000 130 106 137 97.000000 1.000000 4.000000 1.000000 -60.708740 114.000000 149.000000 -0.140628 -0.215458 0.966334
640.00000000 5670.00000000 -20.00000000 130 106 137 97.000000 1.000000 4.000000 1.000000 -60.708740 114.000000 149.000000 0.421606 0.906778 -0.001297
610.00000000 5670.00000000 -20.00000000 130 106 137 97.000000 1.000000 4.000000 1.000000 -60.708740 114.000000 149.000000 0.645066 0.715147 0.269175
610.00000000 5690.00000000 -30.00000000 130 106 137 97.000000 1.000000 4.000000 1.000000 -60.708740 114.000000 149.000000 0.841696 0.509801 0.177907
610.00000000 5690.00000000 -30.00000000 130 106 137 97.000000 1.000000 4.000000 1.000000 -60.708740 114.000000 149.000000 0.841696 0.509801 0.177907
660.00000000 5440.00000000 -30.00000000 130 106 137 97.000000 1.000000 4.000000 1.000000 -60.708740 114.000000 149.000000 0.798201 0.411195 0.440220
650.00000000 5400.00000000 -20.00000000 130 106 137 97.000000 1.000000 4.000000 1.000000 -60.708740 114.000000 149.000000 0.609142 0.534897 0.585518
630.00000000 5420.00000000 -30.00000000 130 106 137 97.000000 1.000000 4.000000 1.000000 -60.708740 114.000000 149.000000 0.658682 0.655397 0.369585
630.00000000 5430.00000000 -40.00000000 130 106 137 97.000000 1.000000 4.000000 1.000000 -60.708740 114.000000 149.000000 0.689578 0.600281 0.405148
650.00000000 5420.00000000 -40.00000000 130 106 137 97.000000 1.000000 4.000000 1.000000 -60.708740 114.000000 149.000000 0.391632 0.689074 0.609756
630.00000000 5410.00000000 -40.00000000 130 106 137 97.000000 1.000000 4.000000 1.000000 -60.708740 114.000000 149.000000 0.435096 0.756903 0.487636
940.00000000 5000.00000000 -60.00000000 130 106 137 97.000000 1.000000 4.000000 1.000000 -60.708740 114.000000 149.000000 0.398575 0.533074 0.746304
930.00000000 4990.00000000 -100.00000000 130 106 137 97.000000 1.000000 4.000000 1.000000 -60.708740 114.000000 149.000000 0.340613 -0.127217 0.931557
950.00000000 4930.00000000 -20.00000000 130 106 137 97.000000 1.000000 4.000000 1.000000 -60.708740 114.000000 149.000000 0.190671 0.244762 0.950650
930.00000000 4870.00000000 -130.00000000 130 106 137 97.000000 1.000000 4.000000 1.000000 -60.708740 114.000000 149.000000 -0.239047 -0.281482 0.929314
940.00000000 4890.00000000 -170.00000000 130 106 137 97.000000 1.000000 4.000000 1.000000 -60.708740 114.000000 149.000000 0.342768 0.024210 0.939108
950.00000000 4930.00000000 -170.00000000 130 106 137 97.000000 1.000000 4.000000 1.000000 -60.708740 114.000000 149.000000 0.559448 0.217306 0.799872
880.00000000 4990.00000000 -60.00000000 130 106 137 97.000000 1.000000 4.000000 1.000000 -60.708740 114.000000 149.000000 0.594807 0.161125 0.787555
880.00000000 4980.00000000 -130.00000000 130 106 137 97.000000 1.000000 4.000000 1.000000 -60.708740 114.000000 149.000000 0.159027 0.227370 0.960736
890.00000000 4960.00000000 -120.00000000 130 106 137 97.000000 1.000000 4.000000 1.000000 -60.708740 114.000000 149.000000 0.275577 -0.328629 0.903361
890.00000000 4940.00000000 -170.00000000 130 106 137 97.000000 1.000000 4.000000 1.000000 -60.708740 114.000000 149.000000 0.300293 -0.423491 0.854681
870.00000000 4990.00000000 -170.00000000 130 106 137 97.000000 1.000000 4.000000 1.000000 -60.708740 114.000000 149.000000 0.372922 0.351259 0.858805
860.00000000 4970.00000000 -170.00000000 130 106 137 97.000000 1.000000 4.000000 1.000000 -60.708740 114.000000 149.000000 0.005493 0.126331 0.991973
890.00000000 4900.00000000 -150.00000000 130 106 137 97.000000 1.000000 4.000000 1.000000 -60.708740 114.000000 149.000000 -0.204556 -0.419414 0.884448
900.00000000 4860.00000000 -130.00000000 130 106 137 97.000000 1.000000 4.000000 1.000000 -60.708740 114.000000 149.000000 -0.156778 -0.421432 0.893205
910.00000000 4860.00000000 -130.00000000 130 106 137 97.000000 1.000000 4.000000 1.000000 -60.708740 114.000000 149.000000 0.055882 -0.247121 0.967372
900.00000000 4880.00000000 -150.00000000 130 106 137 97.000000 1.000000 4.000000 1.000000 -60.708740 114.000000 149.000000 -0.429324 -0.468502 0.772131
850.00000000 4910.00000000 -110.00000000 130 106 137 97.000000 1.000000 4.000000 1.000000 -60.708740 114.000000 149.000000 0.040855 -0.261221 0.964414
980.00000000 4990.00000000 -270.00000000 130 106 137 97.000000 1.000000 4.000000 1.000000 -60.708740 114.000000 149.000000 0.719328 0.683585 -0.123611
980.00000000 4990.00000000 -250.00000000 130 106 137 97.000000 1.000000 4.000000 1.000000 -60.708740 114.000000 149.000000 0.642669 0.746473 0.172498
980.00000000 4990.00000000 -270.00000000 130 106 137 97.000000 1.000000 4.000000 1.000000 -60.708740 114.000000 149.000000 0.719328 0.683585 -0.123611
990.00000000 4950.00000000 -270.00000000 130 106 137 97.000000 1.000000 4.000000 1.000000 -60.708740 114.000000 149.000000 0.518496 0.602942 -0.606319
950.00000000 4980.00000000 -210.00000000 130 106 137 97.000000 1.000000 4.000000 1.000000 -60.708740 114.000000 149.000000 0.333243 0.819682 0.465908
930.00000000 5010.00000000 -210.00000000 130 106 137 97.000000 1.000000 4.000000 1.000000 -60.708740 114.000000 149.000000 0.216020 0.847464 0.484913
920.00000000 4980.00000000 -270.00000000 130 106 137 97.000000 1.000000 4.000000 1.000000 -60.708740 114.000000 149.000000 0.166029 0.890783 -0.423014
920.00000000 4980.00000000 -270.00000000 130 106 137 97.000000 1.000000 4.000000 1.000000 -60.708740 114.000000 149.000000 0.166029 0.890783 -0.423014
950.00000000 4980.00000000 -270.00000000 130 106 137 97.000000 1.000000 4.000000 1.000000 -60.708740 114.000000 149.000000 0.145468 0.951548 -0.270917
950.00000000 4980.00000000 -250.00000000 130 106 137 97.000000 1.000000 4.000000 1.000000 -60.708740 114.000000 149.000000 0.720277 0.681343 0.130279
940.00000000 4980.00000000 -270.00000000 130 106 137 97.000000 1.000000 4.000000 1.000000 -60.708740 114.000000 149.000000 0.210018 0.905251 -0.369342
930.00000000 4970.00000000 -200.00000000 130 106 137 97.000000 1.000000 4.000000 1.000000 -60.708740 114.000000 149.000000 0.649624 0.435866 0.622904
930.00000000 4970.00000000 -200.00000000 130 106 137 97.000000 1.000000 4.000000 1.000000 -60.708740 114.000000 149.000000 0.649624 0.435866 0.622904
930.00000000 4970.00000000 -280.00000000 130 106 137 97.000000 1.000000 4.000000 1.000000 -60.708740 114.000000 149.000000 0.159076 0.737809 -0.655998
930.00000000 4960.00000000 -280.00000000 130 106 137 97.000000 1.000000 4.000000 1.000000 -60.708740 114.000000 149.000000 -0.037678 -0.576329 0.816349
950.00000000 4950.00000000 -300.00000000 130 106 137 97.000000 1.000000 4.000000 1.000000 -60.708740 114.000000 149.000000 0.523754 0.564172 -0.638272
1000.00000000 4870.00000000 -200.00000000 130 106 137 97.000000 1.000000 4.000000 1.000000 -60.708740 114.000000 149.000000 0.454137 -0.261473 0.851699
980.00000000 4890.00000000 -310.00000000 130 106 137 97.000000 1.000000 4.000000 1.000000 -60.708740 114.000000 149.000000 -0.267444 -0.253293 0.929686
950.00000000 4910.00000000 -330.00000000 130 106 137 97.000000 1.000000 4.000000 1.000000 -60.708740 114.000000 149.000000 0.073969 0.139719 0.987425
960.00000000 4890.00000000 -320.00000000 130 106 137 97.000000 1.000000 4.000000 1.000000 -60.708740 114.000000 149.000000 0.235997 -0.020365 0.971540
940.00000000 4880.00000000 -330.00000000 130 106 137 97.000000 1.000000 4.000000 1.000000 -60.708740 114.000000 149.000000 0.473568 0.447349 0.758691
910.00000000 4990.00000000 -270.00000000 130 106 137 97.000000 1.000000 4.000000 1.000000 -60.708740 114.000000 149.000000 0.336435 0.703751 -0.625737
910.00000000 4980.00000000 -280.00000000 130 106 137 97.000000 1.000000 4.000000 1.000000 -60.708740 114.000000 149.000000 0.083972 0.846837 -0.525181
880.00000000 5000.00000000 -310.00000000 130 106 137 97.000000 1.000000 4.000000 1.000000 -60.708740 114.000000 149.000000 0.098288 -0.346027 0.933062
880.00000000 5000.00000000 -350.00000000 130 106 137 97.000000 1.000000 4.000000 1.000000 -60.708740 114.000000 149.000000 -0.291638 -0.218376 0.931268
860.00000000 5010.00000000 -350.00000000 130 106 137 97.000000 1.000000 4.000000 1.000000 -60.708740 114.000000 149.000000 -0.213117 -0.398308 0.892150
860.00000000 4980.00000000 -350.00000000 130 106 137 97.000000 1.000000 4.000000 1.000000 -60.708740 114.000000 149.000000 0.345334 -0.075418 0.935445
860.00000000 5010.00000000 -350.00000000 130 106 137 97.000000 1.000000 4.000000 1.000000 -60.708740 114.000000 149.000000 -0.213117 -0.398308 0.892150
860.00000000 5010.00000000 -350.00000000 130 106 137 97.000000 1.000000 4.000000 1.000000 -60.708740 114.000000 149.000000 -0.213117 -0.398308 0.892150
860.00000000 4950.00000000 -320.00000000 130 106 137 97.000000 1.000000 4.000000 1.000000 -60.708740 114.000000 149.000000 0.426943 0.129076 0.895019
860.00000000 4870.00000000 -220.00000000 130 106 137 97.000000 1.000000 4.000000 1.000000 -60.708740 114.000000 149.000000 0.696104 0.549204 -0.462400
880.00000000 4860.00000000 -340.00000000 130 106 137 97.000000 1.000000 4.000000 1.000000 -60.708740 114.000000 149.000000 0.659767 0.098451 0.744993
840.00000000 4910.00000000 -280.00000000 130 106 137 97.000000 1.000000 4.000000 1.000000 -60.708740 114.000000 149.000000 0.512565 0.696220 0.502548
840.00000000 4910.00000000 -320.00000000 130 106 137 97.000000 1.000000 4.000000 1.000000 -60.708740 114.000000 149.000000 0.528120 0.397316 0.750486
870.00000000 4870.00000000 -330.00000000 130 106 137 97.000000 1.000000 4.000000 1.000000 -60.708740 114.000000 149.000000 0.166988 0.244470 0.955170
920.00000000 4800.00000000 -40.00000000 130 106 137 97.000000 1.000000 4.000000 1.000000 -60.708740 114.000000 149.000000 0.006908 0.763997 -0.645183
950.00000000 4810.00000000 -100.00000000 130 106 137 97.000000 1.000000 4.000000 1.000000 -60.708740 114.000000 149.000000 0.029459 -0.643899 0.764543
950.00000000 4820.00000000 -100.00000000 130 106 137 97.000000 1.000000 4.000000 1.000000 -60.708740 114.000000 149.000000 -0.224613 -0.456763 0.860765
970.00000000 4810.00000000 -120.00000000 130 106 137 97.000000 1.000000 4.000000 1.000000 -60.708740 114.000000 149.000000 0.047801 -0.465721 0.883640
970.00000000 4770.00000000 -130.00000000 130 106 137 97.000000 1.000000 4.000000 1.000000 -60.708740 114.000000 149.000000 -0.185624 -0.422405 0.887197
990.00000000 4770.00000000 -110.00000000 130 106 137 97.000000 1.000000 4.000000 1.000000 -60.708740 114.000000 149.000000 -0.200059 -0.554363 0.807873
990.00000000 4780.00000000 -110.00000000 130 106 137 97.000000 1.000000 4.000000 1.000000 -60.708740 114.000000 149.000000 -0.099455 -0.546283 0.831675
970.00000000 4770.00000000 -120.00000000 130 106 137 97.000000 1.000000 4.000000 1.000000 -60.708740 114.000000 149.000000 0.114129 0.745544 -0.656612
980.00000000 4770.00000000 -130.00000000 130 106 137 97.000000 1.000000 4.000000 1.000000 -60.708740 114.000000 149.000000 -0.348503 -0.552742 0.756982
970.00000000 4780.00000000 -130.00000000 130 106 137 97.000000 1.000000 4.000000 1.000000 -60.708740 114.000000 149.000000 -0.377310 -0.281103 0.882394
950.00000000 4770.00000000 -130.00000000 130 106 137 97.000000 1.000000 4.000000 1.000000 -60.708740 114.000000 149.000000 0.148470 -0.598377 0.787338
930.00000000 4790.00000000 -130.00000000 130 106 137 97.000000 1.000000 4.000000 1.000000 -60.708740 114.000000 149.000000 -0.324839 -0.526463 0.785695
950.00000000 4800.00000000 -110.00000000 130 106 137 97.000000 1.000000 4.000000 1.000000 -60.708740 114.000000 149.000000 -0.009465 -0.525959 0.850457
930.00000000 4790.00000000 -110.00000000 130 106 137 97.000000 1.000000 4.000000 1.000000 -60.708740 114.000000 149.000000 -0.106611 -0.288245 0.951603
940.00000000 4800.00000000 -130.00000000 130 106 137 97.000000 1.000000 4.000000 1.000000 -60.708740 114.000000 149.000000 -0.038232 -0.703752 0.709416
970.00000000 4760.00000000 -140.00000000 130 106 137 97.000000 1.000000 4.000000 1.000000 -60.708740 114.000000 149.000000 -0.176013 -0.474792 0.862318
990.00000000 4760.00000000 -140.00000000 130 106 137 97.000000 1.000000 4.000000 1.000000 -60.708740 114.000000 149.000000 -0.189508 -0.553364 0.811095
980.00000000 4750.00000000 -150.00000000 130 106 137 97.000000 1.000000 4.000000 1.000000 -60.708740 114.000000 149.000000 -0.045969 -0.536308 0.842770
1000.00000000 4700.00000000 -130.00000000 130 106 137 97.000000 1.000000 4.000000 1.000000 -60.708740 114.000000 149.000000 0.588384 0.504088 -0.632218
1000.00000000 4710.00000000 -180.00000000 130 106 137 97.000000 1.000000 4.000000 1.000000 -60.708740 114.000000 149.000000 0.564228 0.671381 -0.480515
950.00000000 4760.00000000 -120.00000000 130 106 137 97.000000 1.000000 4.000000 1.000000 -60.708740 114.000000 149.000000 0.041592 -0.433360 0.900261
950.00000000 4720.00000000 -160.00000000 130 106 137 97.000000 1.000000 4.000000 1.000000 -60.708740 114.000000 149.000000 -0.487116 -0.431352 0.759377
950.00000000 4720.00000000 -160.00000000 130 106 137 97.000000 1.000000 4.000000 1.000000 -60.708740 114.000000 149.000000 -0.487116 -0.431352 0.759377
880.00000000 4830.00000000 -60.00000000 130 106 137 97.000000 1.000000 4.000000 1.000000 -60.708740 114.000000 149.000000 -0.401186 -0.308959 0.862319
880.00000000 4810.00000000 -30.00000000 130 106 137 97.000000 1.000000 4.000000 1.000000 -60.708740 114.000000 149.000000 0.025887 -0.505480 0.862450
900.00000000 4840.00000000 -100.00000000 130 106 137 97.000000 1.000000 4.000000 1.000000 -60.708740 114.000000 149.000000 0.086213 -0.501731 0.860717
890.00000000 4790.00000000 -90.00000000 130 106 137 97.000000 1.000000 4.000000 1.000000 -60.708740 114.000000 149.000000 0.240291 0.837191 -0.491295
870.00000000 4850.00000000 -90.00000000 130 106 137 97.000000 1.000000 4.000000 1.000000 -60.708740 114.000000 149.000000 -0.077894 -0.528261 0.845501
880.00000000 4830.00000000 -130.00000000 130 106 137 97.000000 1.000000 4.000000 1.000000 -60.708740 114.000000 149.000000 -0.268677 -0.650230 0.710643
880.00000000 4850.00000000 -120.00000000 130 106 137 97.000000 1.000000 4.000000 1.000000 -60.708740 114.000000 149.000000 0.236675 -0.631656 0.738238
880.00000000 4850.00000000 -120.00000000 130 106 137 97.000000 1.000000 4.000000 1.000000 -60.708740 114.000000 149.000000 0.236675 -0.631656 0.738238
890.00000000 4830.00000000 -170.00000000 130 106 137 97.000000 1.000000 4.000000 1.000000 -60.708740 114.000000 149.000000 -0.328831 -0.594487 0.733795
900.00000000 4820.00000000 -170.00000000 130 106 137 97.000000 1.000000 4.000000 1.000000 -60.708740 114.000000 149.000000 0.623342 0.646739 -0.439515
880.00000000 4800.00000000 -120.00000000 130 106 137 97.000000 1.000000 4.000000 1.000000 -60.708740 114.000000 149.000000 0.466403 0.743279 -0.479588
880.00000000 4800.00000000 -120.00000000 130 106 137 97.000000 1.000000 4.000000 1.000000 -60.708740 114.000000 149.000000 0.466403 0.743279 -0.479588
870.00000000 4850.00000000 -120.00000000 130 106 137 97.000000 1.000000 4.000000 1.000000 -60.708740 114.000000 149.000000 -0.255173 -0.654574 0.711632
870.00000000 4840.00000000 -130.00000000 130 106 137 97.000000 1.000000 4.000000 1.000000 -60.708740 114.000000 149.000000 -0.046494 0.801664 -0.595964
870.00000000 4810.00000000 -120.00000000 130 106 137 97.000000 1.000000 4.000000 1.000000 -60.708740 114.000000 149.000000 0.401880 0.821232 -0.405056
840.00000000 4810.00000000 -160.00000000 130 106 137 97.000000 1.000000 4.000000 1.000000 -60.708740 114.000000 149.000000 0.225527 0.942231 -0.247664
850.00000000 4850.00000000 -150.00000000 130 106 137 97.000000 1.000000 4.000000 1.000000 -60.708740 114.000000 149.000000 0.020629 -0.562491 0.826546
850.00000000 4810.00000000 -160.00000000 130 106 137 97.000000 1.000000 4.000000 1.000000 -60.708740 114.000000 149.000000 0.696975 0.661887 -0.275919
870.00000000 4790.00000000 -130.00000000 130 106 137 97.000000 1.000000 4.000000 1.000000 -60.708740 114.000000 149.000000 -0.108121 -0.433888 0.894456
840.00000000 4770.00000000 -110.00000000 130 106 137 97.000000 1.000000 4.000000 1.000000 -60.708740 114.000000 149.000000 0.423472 0.766828 -0.482333
860.00000000 4790.00000000 -170.00000000 130 106 137 97.000000 1.000000 4.000000 1.000000 -60.708740 114.000000 149.000000 0.729059 0.517450 -0.448016
850.00000000 4780.00000000 -180.00000000 130 106 137 97.000000 1.000000 4.000000 1.000000 -60.708740 114.000000 149.000000 0.416089 0.875740 -0.244847
870.00000000 4760.00000000 -90.00000000 130 106 137 97.000000 1.000000 4.000000 1.000000 -60.708740 114.000000 149.000000 0.635944 0.514490 -0.575217
870.00000000 4760.00000000 -100.00000000 130 106 137 97.000000 1.000000 4.000000 1.000000 -60.708740 114.000000 149.000000 -0.052869 -0.753027 0.655862
850.00000000 4760.00000000 -110.00000000 130 106 137 97.000000 1.000000 4.000000 1.000000 -60.708740 114.000000 149.000000 0.114749 0.916611 -0.382958
850.00000000 4760.00000000 -110.00000000 130 106 137 97.000000 1.000000 4.000000 1.000000 -60.708740 114.000000 149.000000 0.114749 0.916611 -0.382958
840.00000000 4690.00000000 -120.00000000 130 106 137 97.000000 1.000000 4.000000 1.000000 -60.708740 114.000000 149.000000 -0.221549 -0.590282 0.776198
860.00000000 4790.00000000 -240.00000000 130 106 137 97.000000 1.000000 4.000000 1.000000 -60.708740 114.000000 149.000000 0.305078 0.952288 -0.008646
860.00000000 4780.00000000 -240.00000000 130 106 137 97.000000 1.000000 4.000000 1.000000 -60.708740 114.000000 149.000000 0.222061 0.954189 0.200528
850.00000000 4850.00000000 -330.00000000 130 106 137 97.000000 1.000000 4.000000 1.000000 -60.708740 114.000000 149.000000 0.356030 0.334638 0.872502
910.00000000 4690.00000000 -340.00000000 130 106 137 97.000000 1.000000 4.000000 1.000000 -60.708740 114.000000 149.000000 0.386830 0.716047 0.581068
810.00000000 4980.00000000 -20.00000000 130 106 137 97.000000 1.000000 4.000000 1.000000 -60.708740 114.000000 149.000000 0.140654 0.042311 0.989154
760.00000000 4990.00000000 -100.00000000 130 106 137 97.000000 1.000000 4.000000 1.000000 -60.708740 114.000000 149.000000 -0.049985 -0.436358 0.898384
810.00000000 5010.00000000 -130.00000000 130 106 137 97.000000 1.000000 4.000000 1.000000 -60.708740 114.000000 149.000000 0.575979 -0.151101 0.803378
800.00000000 4970.00000000 -160.00000000 130 106 137 97.000000 1.000000 4.000000 1.000000 -60.708740 114.000000 149.000000 0.023844 -0.702686 0.711101
810.00000000 4970.00000000 -170.00000000 130 106 137 97.000000 1.000000 4.000000 1.000000 -60.708740 114.000000 149.000000 0.318386 -0.260233 0.911542
770.00000000 5000.00000000 -120.00000000 130 106 137 97.000000 1.000000 4.000000 1.000000 -60.708740 114.000000 149.000000 0.164246 -0.316071 0.934410
800.00000000 4860.00000000 -180.00000000 130 106 137 97.000000 1.000000 4.000000 1.000000 -60.708740 114.000000 149.000000 0.312517 0.949905 -0.003706
750.00000000 4990.00000000 -110.00000000 130 106 137 97.000000 1.000000 4.000000 1.000000 -60.708740 114.000000 149.000000 0.189601 0.722951 -0.664375
830.00000000 4950.00000000 -310.00000000 130 106 137 97.000000 1.000000 4.000000 1.000000 -60.708740 114.000000 149.000000 -0.043665 -0.047925 0.997896
800.00000000 4860.00000000 -220.00000000 130 106 137 97.000000 1.000000 4.000000 1.000000 -60.708740 114.000000 149.000000 0.532470 0.799490 0.278015
800.00000000 4880.00000000 -240.00000000 130 106 137 97.000000 1.000000 4.000000 1.000000 -60.708740 114.000000 149.000000 0.416203 0.864423 0.282043
810.00000000 4900.00000000 -300.00000000 130 106 137 97.000000 1.000000 4.000000 1.000000 -60.708740 114.000000 149.000000 0.374855 0.264340 0.888599
810.00000000 4900.00000000 -300.00000000 130 106 137 97.000000 1.000000 4.000000 1.000000 -60.708740 114.000000 149.000000 0.374855 0.264340 0.888599
820.00000000 4920.00000000 -320.00000000 130 106 137 97.000000 1.000000 4.000000 1.000000 -60.708740 114.000000 149.000000 0.616632 0.226358 0.754008
790.00000000 4860.00000000 -300.00000000 130 106 137 97.000000 1.000000 4.000000 1.000000 -60.708740 114.000000 149.000000 0.681391 0.668504 0.298008
810.00000000 4830.00000000 -30.00000000 130 106 137 97.000000 1.000000 4.000000 1.000000 -60.708740 114.000000 149.000000 0.221707 -0.463020 0.858171
800.00000000 4780.00000000 -20.00000000 130 106 137 97.000000 1.000000 4.000000 1.000000 -60.708740 114.000000 149.000000 -0.073670 0.752586 -0.654360
800.00000000 4780.00000000 -20.00000000 130 106 137 97.000000 1.000000 4.000000 1.000000 -60.708740 114.000000 149.000000 -0.073670 0.752586 -0.654360
830.00000000 4820.00000000 -160.00000000 130 106 137 97.000000 1.000000 4.000000 1.000000 -60.708740 114.000000 149.000000 0.085790 0.916459 -0.390823
830.00000000 4810.00000000 -170.00000000 130 106 137 97.000000 1.000000 4.000000 1.000000 -60.708740 114.000000 149.000000 0.346435 0.929761 -0.124607
810.00000000 4770.00000000 -110.00000000 130 106 137 97.000000 1.000000 4.000000 1.000000 -60.708740 114.000000 149.000000 0.473843 0.827271 -0.301821
810.00000000 4760.00000000 -30.00000000 130 106 137 97.000000 1.000000 4.000000 1.000000 -60.708740 114.000000 149.000000 -0.168175 -0.598461 0.783302
820.00000000 4730.00000000 -90.00000000 130 106 137 97.000000 1.000000 4.000000 1.000000 -60.708740 114.000000 149.000000 0.573533 0.730397 -0.370917
790.00000000 4690.00000000 -50.00000000 130 106 137 97.000000 1.000000 4.000000 1.000000 -60.708740 114.000000 149.000000 0.207466 0.943900 -0.256928
770.00000000 4710.00000000 -40.00000000 130 106 137 97.000000 1.000000 4.000000 1.000000 -60.708740 114.000000 149.000000 0.209691 0.906733 -0.365875
820.00000000 4760.00000000 -110.00000000 130 106 137 97.000000 1.000000 4.000000 1.000000 -60.708740 114.000000 149.000000 0.555614 0.538726 -0.633299
810.00000000 4740.00000000 -130.00000000 130 106 137 97.000000 1.000000 4.000000 1.000000 -60.708740 114.000000 149.000000 0.450433 0.637974 -0.624579
800.00000000 4760.00000000 -140.00000000 130 106 137 97.000000 1.000000 4.000000 1.000000 -60.708740 114.000000 149.000000 0.447756 0.885563 -0.123666
780.00000000 4750.00000000 -170.00000000 130 106 137 97.000000 1.000000 4.000000 1.000000 -60.708740 114.000000 149.000000 0.742710 0.651951 -0.152777
790.00000000 4710.00000000 -170.00000000 130 106 137 97.000000 1.000000 4.000000 1.000000 -60.708740 114.000000 149.000000 0.782973 0.540586 -0.307767
750.00000000 4780.00000000 -80.00000000 130 106 137 97.000000 1.000000 4.000000 1.000000 -60.708740 114.000000 149.000000 0.337665 0.751265 -0.567084
720.00000000 4790.00000000 -100.00000000 130 106 137 97.000000 1.000000 4.000000 1.000000 -60.708740 114.000000 149.000000 0.701444 0.568783 -0.429490
740.00000000 4720.00000000 -80.00000000 130 106 137 97.000000 1.000000 4.000000 1.000000 -60.708740 114.000000 149.000000 0.639954 0.623245 -0.449472
740.00000000 4720.00000000 -80.00000000 130 106 137 97.000000 1.000000 4.000000 1.000000 -60.708740 114.000000 149.000000 0.639954 0.623245 -0.449472
750.00000000 4730.00000000 -130.00000000 130 106 137 97.000000 1.000000 4.000000 1.000000 -60.708740 114.000000 149.000000 0.536030 0.774266 -0.336427
750.00000000 4720.00000000 -180.00000000 130 106 137 97.000000 1.000000 4.000000 1.000000 -60.708740 114.000000 149.000000 0.305464 0.799272 -0.517548
820.00000000 4820.00000000 -200.00000000 130 106 137 97.000000 1.000000 4.000000 1.000000 -60.708740 114.000000 149.000000 0.379630 0.918015 -0.114579
800.00000000 4820.00000000 -210.00000000 130 106 137 97.000000 1.000000 4.000000 1.000000 -60.708740 114.000000 149.000000 0.179267 0.983040 0.038665
810.00000000 4810.00000000 -210.00000000 130 106 137 97.000000 1.000000 4.000000 1.000000 -60.708740 114.000000 149.000000 0.306266 0.844175 -0.439966
810.00000000 4840.00000000 -270.00000000 130 106 137 97.000000 1.000000 4.000000 1.000000 -60.708740 114.000000 149.000000 0.555784 0.795534 0.241307
820.00000000 4810.00000000 -250.00000000 130 106 137 97.000000 1.000000 4.000000 1.000000 -60.708740 114.000000 149.000000 0.487593 0.850662 0.196537
820.00000000 4810.00000000 -250.00000000 130 106 137 97.000000 1.000000 4.000000 1.000000 -60.708740 114.000000 149.000000 0.487593 0.850662 0.196537
830.00000000 4810.00000000 -250.00000000 130 106 137 97.000000 1.000000 4.000000 1.000000 -60.708740 114.000000 149.000000 0.525493 0.824034 0.211720
810.00000000 4800.00000000 -230.00000000 130 106 137 97.000000 1.000000 4.000000 1.000000 -60.708740 114.000000 149.000000 0.709863 0.704328 -0.004151
800.00000000 4800.00000000 -270.00000000 130 106 137 97.000000 1.000000 4.000000 1.000000 -60.708740 114.000000 149.000000 0.396168 0.915377 -0.071662
800.00000000 4790.00000000 -260.00000000 130 106 137 97.000000 1.000000 4.000000 1.000000 -60.708740 114.000000 149.000000 0.631194 0.745957 0.212466
780.00000000 4830.00000000 -210.00000000 130 106 137 97.000000 1.000000 4.000000 1.000000 -60.708740 114.000000 149.000000 0.667748 0.733477 0.126977
780.00000000 4790.00000000 -200.00000000 130 106 137 97.000000 1.000000 4.000000 1.000000 -60.708740 114.000000 149.000000 0.374377 0.817257 -0.438101
760.00000000 4780.00000000 -260.00000000 130 106 137 97.000000 1.000000 4.000000 1.000000 -60.708740 114.000000 149.000000 0.767250 0.631766 -0.110449
790.00000000 4790.00000000 -270.00000000 130 106 137 97.000000 1.000000 4.000000 1.000000 -60.708740 114.000000 149.000000 0.383724 0.910459 -0.154339
770.00000000 4780.00000000 -260.00000000 130 106 137 97.000000 1.000000 4.000000 1.000000 -60.708740 114.000000 149.000000 0.487437 0.735286 0.470914
830.00000000 4820.00000000 -350.00000000 130 106 137 97.000000 1.000000 4.000000 1.000000 -60.708740 114.000000 149.000000 0.554036 0.641604 0.530460
800.00000000 4800.00000000 -310.00000000 130 106 137 97.000000 1.000000 4.000000 1.000000 -60.708740 114.000000 149.000000 0.366768 0.858887 0.357483
830.00000000 4770.00000000 -350.00000000 130 106 137 97.000000 1.000000 4.000000 1.000000 -60.708740 114.000000 149.000000 0.592907 0.475334 0.650015
820.00000000 4780.00000000 -350.00000000 130 106 137 97.000000 1.000000 4.000000 1.000000 -60.708740 114.000000 149.000000 0.713531 0.357582 0.602501
800.00000000 4800.00000000 -350.00000000 130 106 137 97.000000 1.000000 4.000000 1.000000 -60.708740 114.000000 149.000000 0.476311 0.414537 0.775427
830.00000000 4770.00000000 -340.00000000 130 106 137 97.000000 1.000000 4.000000 1.000000 -60.708740 114.000000 149.000000 0.659194 0.700693 0.272935
810.00000000 4800.00000000 -350.00000000 130 106 137 97.000000 1.000000 4.000000 1.000000 -60.708740 114.000000 149.000000 0.543624 0.516695 0.661437
800.00000000 4800.00000000 -350.00000000 130 106 137 97.000000 1.000000 4.000000 1.000000 -60.708740 114.000000 149.000000 0.476311 0.414537 0.775427
770.00000000 4780.00000000 -290.00000000 130 106 137 97.000000 1.000000 4.000000 1.000000 -60.708740 114.000000 149.000000 0.572584 0.663257 0.481911
790.00000000 4800.00000000 -280.00000000 130 106 137 97.000000 1.000000 4.000000 1.000000 -60.708740 114.000000 149.000000 0.594747 0.793490 0.129035
770.00000000 4780.00000000 -290.00000000 130 106 137 97.000000 1.000000 4.000000 1.000000 -60.708740 114.000000 149.000000 0.572584 0.663257 0.481911
780.00000000 4800.00000000 -280.00000000 130 106 137 97.000000 1.000000 4.000000 1.000000 -60.708740 114.000000 149.000000 0.285582 0.927786 0.240116
770.00000000 4780.00000000 -340.00000000 130 106 137 97.000000 1.000000 4.000000 1.000000 -60.708740 114.000000 149.000000 0.612795 0.555399 0.562151
770.00000000 4730.00000000 -230.00000000 130 106 137 97.000000 1.000000 4.000000 1.000000 -60.708740 114.000000 149.000000 0.700075 0.708844 -0.086230
770.00000000 4740.00000000 -200.00000000 130 106 137 97.000000 1.000000 4.000000 1.000000 -60.708740 114.000000 149.000000 0.687701 0.708955 -0.156365
770.00000000 4760.00000000 -270.00000000 130 106 137 97.000000 1.000000 4.000000 1.000000 -60.708740 114.000000 149.000000 0.723155 0.623741 0.296638
760.00000000 4750.00000000 -240.00000000 130 106 137 97.000000 1.000000 4.000000 1.000000 -60.708740 114.000000 149.000000 0.823703 0.554500 0.118508
780.00000000 4690.00000000 -200.00000000 130 106 137 97.000000 1.000000 4.000000 1.000000 -60.708740 114.000000 149.000000 0.632050 0.615284 -0.471103
810.00000000 4710.00000000 -300.00000000 130 106 137 97.000000 1.000000 4.000000 1.000000 -60.708740 114.000000 149.000000 0.391383 0.748377 0.535491
800.00000000 4700.00000000 -310.00000000 130 106 137 97.000000 1.000000 4.000000 1.000000 -60.708740 114.000000 149.000000 0.740412 0.588781 0.324233
810.00000000 4700.00000000 -280.00000000 130 106 137 97.000000 1.000000 4.000000 1.000000 -60.708740 114.000000 149.000000 0.325128 0.904769 0.275109
830.00000000 4710.00000000 -340.00000000 130 106 137 97.000000 1.000000 4.000000 1.000000 -60.708740 114.000000 149.000000 0.457963 0.798624 0.390474
780.00000000 4760.00000000 -280.00000000 130 106 137 97.000000 1.000000 4.000000 1.000000 -60.708740 114.000000 149.000000 0.436914 0.743578 0.506160
790.00000000 4760.00000000 -320.00000000 130 106 137 97.000000 1.000000 4.000000 1.000000 -60.708740 114.000000 149.000000 0.589862 0.803309 0.082206
770.00000000 4730.00000000 -320.00000000 130 106 137 97.000000 1.000000 4.000000 1.000000 -60.708740 114.000000 149.000000 0.661527 0.523499 0.536965
790.00000000 4760.00000000 -330.00000000 130 106 137 97.000000 1.000000 4.000000 1.000000 -60.708740 114.000000 149.000000 0.726123 0.620330 0.296540
780.00000000 4750.00000000 -340.00000000 130 106 137 97.000000 1.000000 4.000000 1.000000 -60.708740 114.000000 149.000000 0.860182 0.432383 0.270430
780.00000000 4700.00000000 -280.00000000 130 106 137 97.000000 1.000000 4.000000 1.000000 -60.708740 114.000000 149.000000 0.433868 0.818468 0.376654
760.00000000 4720.00000000 -280.00000000 130 106 137 97.000000 1.000000 4.000000 1.000000 -60.708740 114.000000 149.000000 0.738612 0.537920 0.406319
770.00000000 4710.00000000 -290.00000000 130 106 137 97.000000 1.000000 4.000000 1.000000 -60.708740 114.000000 149.000000 0.710647 0.663584 0.233745
760.00000000 4710.00000000 -290.00000000 130 106 137 97.000000 1.000000 4.000000 1.000000 -60.708740 114.000000 149.000000 0.359598 0.807098 0.468276
720.00000000 4780.00000000 -250.00000000 130 106 137 97.000000 1.000000 4.000000 1.000000 -60.708740 114.000000 149.000000 0.686171 0.695507 -0.213164
730.00000000 4830.00000000 -280.00000000 130 106 137 97.000000 1.000000 4.000000 1.000000 -60.708740 114.000000 149.000000 0.284746 0.956389 0.065121
710.00000000 4700.00000000 -210.00000000 130 106 137 97.000000 1.000000 4.000000 1.000000 -60.708740 114.000000 149.000000 0.574755 0.684708 -0.448142
750.00000000 4720.00000000 -220.00000000 130 106 137 97.000000 1.000000 4.000000 1.000000 -60.708740 114.000000 149.000000 0.725176 0.670674 0.155936
720.00000000 4720.00000000 -250.00000000 130 106 137 97.000000 1.000000 4.000000 1.000000 -60.708740 114.000000 149.000000 0.445421 0.802401 0.397181
730.00000000 4710.00000000 -260.00000000 130 106 137 97.000000 1.000000 4.000000 1.000000 -60.708740 114.000000 149.000000 0.369903 0.892817 -0.257001
710.00000000 4700.00000000 -260.00000000 130 106 137 97.000000 1.000000 4.000000 1.000000 -60.708740 114.000000 149.000000 0.492047 0.811641 0.314847
720.00000000 4720.00000000 -260.00000000 130 106 137 97.000000 1.000000 4.000000 1.000000 -60.708740 114.000000 149.000000 0.682275 0.694823 -0.227425
750.00000000 4750.00000000 -310.00000000 130 106 137 97.000000 1.000000 4.000000 1.000000 -60.708740 114.000000 149.000000 0.779602 0.431304 0.454090
950.00000000 4980.00000000 -480.00000000 130 106 137 97.000000 1.000000 4.000000 1.000000 -60.708740 114.000000 149.000000 -0.066770 -0.429239 0.900720
1000.00000000 4910.00000000 -430.00000000 130 106 137 97.000000 1.000000 4.000000 1.000000 -60.708740 114.000000 149.000000 0.097402 -0.594585 0.798111
990.00000000 4870.00000000 -420.00000000 130 106 137 97.000000 1.000000 4.000000 1.000000 -60.708740 114.000000 149.000000 -0.035367 0.001010 0.999374
990.00000000 4860.00000000 -420.00000000 130 106 137 97.000000 1.000000 4.000000 1.000000 -60.708740 114.000000 149.000000 -0.133318 -0.066079 0.988868
990.00000000 4860.00000000 -420.00000000 130 106 137 97.000000 1.000000 4.000000 1.000000 -60.708740 114.000000 149.000000 -0.133318 -0.066079 0.988868
930.00000000 4920.00000000 -380.00000000 130 106 137 97.000000 1.000000 4.000000 1.000000 -60.708740 114.000000 149.000000 0.507811 -0.259341 0.821505
940.00000000 4910.00000000 -390.00000000 130 106 137 97.000000 1.000000 4.000000 1.000000 -60.708740 114.000000 149.000000 0.196821 0.046521 0.979335
960.00000000 4900.00000000 -390.00000000 130 106 137 97.000000 1.000000 4.000000 1.000000 -60.708740 114.000000 149.000000 -0.006500 -0.417317 0.908738
940.00000000 4910.00000000 -400.00000000 130 106 137 97.000000 1.000000 4.000000 1.000000 -60.708740 114.000000 149.000000 0.256197 -0.362822 0.895948
960.00000000 4930.00000000 -400.00000000 130 106 137 97.000000 1.000000 4.000000 1.000000 -60.708740 114.000000 149.000000 -0.279419 -0.242541 0.929031
930.00000000 4860.00000000 -370.00000000 130 106 137 97.000000 1.000000 4.000000 1.000000 -60.708740 114.000000 149.000000 0.274876 0.489185 0.827733
940.00000000 4860.00000000 -380.00000000 130 106 137 97.000000 1.000000 4.000000 1.000000 -60.708740 114.000000 149.000000 0.586978 0.343081 0.733316
950.00000000 4860.00000000 -390.00000000 130 106 137 97.000000 1.000000 4.000000 1.000000 -60.708740 114.000000 149.000000 0.618681 0.257916 0.742101
960.00000000 4880.00000000 -390.00000000 130 106 137 97.000000 1.000000 4.000000 1.000000 -60.708740 114.000000 149.000000 0.402075 0.083141 0.911824
930.00000000 4890.00000000 -390.00000000 130 106 137 97.000000 1.000000 4.000000 1.000000 -60.708740 114.000000 149.000000 0.028064 0.038458 0.998866
950.00000000 4880.00000000 -420.00000000 130 106 137 97.000000 1.000000 4.000000 1.000000 -60.708740 114.000000 149.000000 0.507840 -0.210716 0.835283
960.00000000 4860.00000000 -430.00000000 130 106 137 97.000000 1.000000 4.000000 1.000000 -60.708740 114.000000 149.000000 0.456171 0.022742 0.889601
960.00000000 4880.00000000 -430.00000000 130 106 137 97.000000 1.000000 4.000000 1.000000 -60.708740 114.000000 149.000000 0.536177 -0.233322 0.811218
960.00000000 4870.00000000 -420.00000000 130 106 137 97.000000 1.000000 4.000000 1.000000 -60.708740 114.000000 149.000000 0.208091 -0.213461 0.954533
920.00000000 4860.00000000 -400.00000000 130 106 137 97.000000 1.000000 4.000000 1.000000 -60.708740 114.000000 149.000000 0.371987 -0.267412 0.888885
930.00000000 4860.00000000 -420.00000000 130 106 137 97.000000 1.000000 4.000000 1.000000 -60.708740 114.000000 149.000000 0.155948 0.413477 0.897060
930.00000000 4890.00000000 -460.00000000 130 106 137 97.000000 1.000000 4.000000 1.000000 -60.708740 114.000000 149.000000 0.209362 -0.362413 0.908198
950.00000000 4870.00000000 -470.00000000 130 106 137 97.000000 1.000000 4.000000 1.000000 -60.708740 114.000000 149.000000 -0.091371 -0.138836 0.986091
960.00000000 4880.00000000 -520.00000000 130 106 137 97.000000 1.000000 4.000000 1.000000 -60.708740 114.000000 149.000000 0.390535 0.255868 0.884315
880.00000000 4960.00000000 -360.00000000 130 106 137 97.000000 1.000000 4.000000 1.000000 -60.708740 114.000000 149.000000 0.328629 0.162234 0.930421
880.00000000 4900.00000000 -410.00000000 130 106 137 97.000000 1.000000 4.000000 1.000000 -60.708740 114.000000 149.000000 0.539501 0.292691 0.789475
880.00000000 4890.00000000 -370.00000000 130 106 137 97.000000 1.000000 4.000000 1.000000 -60.708740 114.000000 149.000000 0.315047 0.456113 0.832289
880.00000000 4870.00000000 -390.00000000 130 106 137 97.000000 1.000000 4.000000 1.000000 -60.708740 114.000000 149.000000 0.449843 0.593660 0.667240
900.00000000 4860.00000000 -420.00000000 130 106 137 97.000000 1.000000 4.000000 1.000000 -60.708740 114.000000 149.000000 -0.017082 -0.011053 0.999793
