//X Y Z R G B PointSourceId ScanDirectionFlag NumberOfReturns ReturnNumber GpsTime Intensity Classification Nx Ny Nz
14850.00000000 15920.00000000 -840.00000000 70 145 148 97.000000 1.000000 4.000000 1.000000 -60.708740 114.000000 226.000000 0.345271 0.937532 0.042674
14830.00000000 15910.00000000 -840.00000000 70 145 148 97.000000 1.000000 4.000000 1.000000 -60.708740 114.000000 226.000000 0.673576 0.736769 0.058884
14850.00000000 15900.00000000 -830.00000000 70 145 148 97.000000 1.000000 4.000000 1.000000 -60.708740 114.000000 226.000000 0.250912 0.941268 -0.225960
14920.00000000 15930.00000000 -870.00000000 70 145 148 97.000000 1.000000 4.000000 1.000000 -60.708740 114.000000 226.000000 0.923412 -0.378184 0.065481
14930.00000000 15960.00000000 -890.00000000 70 145 148 97.000000 1.000000 4.000000 1.000000 -60.708740 114.000000 226.000000 0.950127 -0.311741 0.008694
14930.00000000 15960.00000000 -880.00000000 70 145 148 97.000000 1.000000 4.000000 1.000000 -60.708740 114.000000 226.000000 0.996991 -0.071904 -0.028976
14910.00000000 15930.00000000 -880.00000000 70 145 148 97.000000 1.000000 4.000000 1.000000 -60.708740 114.000000 226.000000 0.829527 -0.551586 0.087394
14920.00000000 15950.00000000 -890.00000000 70 145 148 97.000000 1.000000 4.000000 1.000000 -60.708740 114.000000 226.000000 0.958582 -0.267782 -0.097022
14940.00000000 15950.00000000 -920.00000000 70 145 148 97.000000 1.000000 4.000000 1.000000 -60.708740 114.000000 226.000000 0.986216 -0.045303 0.159142
14930.00000000 15950.00000000 -920.00000000 70 145 148 97.000000 1.000000 4.000000 1.000000 -60.708740 114.000000 226.000000 0.962105 -0.229073 0.147916
14920.00000000 15920.00000000 -900.00000000 70 145 148 97.000000 1.000000 4.000000 1.000000 -60.708740 114.000000 226.000000 0.806202 -0.517038 0.287593
14900.00000000 15900.00000000 -870.00000000 70 145 148 97.000000 1.000000 4.000000 1.000000 -60.708740 114.000000 226.000000 -0.166723 0.923282 -0.346055
14900.00000000 15900.00000000 -930.00000000 70 145 148 97.000000 1.000000 4.000000 1.000000 -60.708740 114.000000 226.000000 -0.491739 0.865857 0.092112
14960.00000000 15890.00000000 -950.00000000 70 145 148 97.000000 1.000000 4.000000 1.000000 -60.708740 114.000000 226.000000 0.873148 -0.484163 0.056555
14960.00000000 15890.00000000 -960.00000000 70 145 148 97.000000 1.000000 4.000000 1.000000 -60.708740 114.000000 226.000000 0.760030 -0.621843 -0.188856
14970.00000000 15890.00000000 -980.00000000 70 145 148 97.000000 1.000000 4.000000 1.000000 -60.708740 114.000000 226.000000 -0.699492 0.705432 0.114354
14970.00000000 15890.00000000 -1010.00000000 70 145 148 97.000000 1.000000 4.000000 1.000000 -60.708740 114.000000 226.000000 -0.536172 0.839289 0.090077
14920.00000000 15940.00000000 -1030.00000000 70 145 148 97.000000 1.000000 4.000000 1.000000 -60.708740 114.000000 226.000000 0.915197 -0.074351 0.396090
14930.00000000 15890.00000000 -1000.00000000 70 145 148 97.000000 1.000000 4.000000 1.000000 -60.708740 114.000000 226.000000 -0.438805 0.897739 -0.038915
14960.00000000 15850.00000000 -880.00000000 70 145 148 97.000000 1.000000 4.000000 1.000000 -60.708740 114.000000 226.000000 0.643863 -0.710965 -0.282788
14980.00000000 15800.00000000 -870.00000000 70 145 148 97.000000 1.000000 4.000000 1.000000 -60.708740 114.000000 226.000000 -0.421302 0.859456 0.289550
14970.00000000 15840.00000000 -930.00000000 70 145 148 97.000000 1.000000 4.000000 1.000000 -60.708740 114.000000 226.000000 -0.529277 0.811764 0.246789
14960.00000000 15820.00000000 -950.00000000 70 145 148 97.000000 1.000000 4.000000 1.000000 -60.708740 114.000000 226.000000 0.575786 -0.755418 0.312753
14960.00000000 15820.00000000 -960.00000000 70 145 148 97.000000 1.000000 4.000000 1.000000 -60.708740 114.000000 226.000000 0.728564 -0.678723 0.092353
14970.00000000 15830.00000000 -960.00000000 70 145 148 97.000000 1.000000 4.000000 1.000000 -60.708740 114.000000 226.000000 -0.201268 0.977065 -0.069529
14960.00000000 15830.00000000 -1020.00000000 70 145 148 97.000000 1.000000 4.000000 1.000000 -60.708740 114.000000 226.000000 -0.349270 0.931836 0.098443
14970.00000000 15830.00000000 -1020.00000000 70 145 148 97.000000 1.000000 4.000000 1.000000 -60.708740 114.000000 226.000000 -0.309512 0.931337 -0.191869
14970.00000000 15830.00000000 -1010.00000000 70 145 148 97.000000 1.000000 4.000000 1.000000 -60.708740 114.000000 226.000000 -0.379561 0.919441 -0.102769
14960.00000000 15830.00000000 -1010.00000000 70 145 148 97.000000 1.000000 4.000000 1.000000 -60.708740 114.000000 226.000000 -0.686426 0.689567 -0.230903
14910.00000000 15880.00000000 -1030.00000000 70 145 148 97.000000 1.000000 4.000000 1.000000 -60.708740 114.000000 226.000000 0.228214 0.952019 -0.203908
14880.00000000 15900.00000000 -870.00000000 70 145 148 97.000000 1.000000 4.000000 1.000000 -60.708740 114.000000 226.000000 -0.019552 0.999232 -0.033959
14860.00000000 15920.00000000 -870.00000000 70 145 148 97.000000 1.000000 4.000000 1.000000 -60.708740 114.000000 226.000000 0.435074 0.814369 -0.384076
14870.00000000 15890.00000000 -900.00000000 70 145 148 97.000000 1.000000 4.000000 1.000000 -60.708740 114.000000 226.000000 0.016399 0.993750 -0.110417
14890.00000000 15900.00000000 -890.00000000 70 145 148 97.000000 1.000000 4.000000 1.000000 -60.708740 114.000000 226.000000 0.095566 0.995395 0.007516
14860.00000000 15910.00000000 -880.00000000 70 145 148 97.000000 1.000000 4.000000 1.000000 -60.708740 114.000000 226.000000 0.195909 0.925985 0.322756
14880.00000000 15890.00000000 -870.00000000 70 145 148 97.000000 1.000000 4.000000 1.000000 -60.708740 114.000000 226.000000 0.011213 0.948124 -0.317703
14870.00000000 15890.00000000 -890.00000000 70 145 148 97.000000 1.000000 4.000000 1.000000 -60.708740 114.000000 226.000000 0.118493 0.930235 -0.347306
14870.00000000 15900.00000000 -880.00000000 70 145 148 97.000000 1.000000 4.000000 1.000000 -60.708740 114.000000 226.000000 0.227608 0.963757 0.139166
14890.00000000 15900.00000000 -890.00000000 70 145 148 97.000000 1.000000 4.000000 1.000000 -60.708740 114.000000 226.000000 0.095566 0.995395 0.007516
14860.00000000 15890.00000000 -930.00000000 70 145 148 97.000000 1.000000 4.000000 1.000000 -60.708740 114.000000 226.000000 0.250761 0.953427 -0.167621
14860.00000000 15890.00000000 -930.00000000 70 145 148 97.000000 1.000000 4.000000 1.000000 -60.708740 114.000000 226.000000 0.250761 0.953427 -0.167621
14880.00000000 15890.00000000 -910.00000000 70 145 148 97.000000 1.000000 4.000000 1.000000 -60.708740 114.000000 226.000000 0.013192 0.999538 -0.027398
14870.00000000 15890.00000000 -920.00000000 70 145 148 97.000000 1.000000 4.000000 1.000000 -60.708740 114.000000 226.000000 0.546413 0.808076 -0.220104
14860.00000000 15890.00000000 -940.00000000 70 145 148 97.000000 1.000000 4.000000 1.000000 -60.708740 114.000000 226.000000 0.143034 0.981675 -0.125918
14860.00000000 15890.00000000 -940.00000000 70 145 148 97.000000 1.000000 4.000000 1.000000 -60.708740 114.000000 226.000000 0.143034 0.981675 -0.125918
14890.00000000 15890.00000000 -920.00000000 70 145 148 97.000000 1.000000 4.000000 1.000000 -60.708740 114.000000 226.000000 0.100736 0.965282 -0.241002
14890.00000000 15900.00000000 -910.00000000 70 145 148 97.000000 1.000000 4.000000 1.000000 -60.708740 114.000000 226.000000 -0.199186 0.961635 -0.188634
14820.00000000 15950.00000000 -870.00000000 70 145 148 97.000000 1.000000 4.000000 1.000000 -60.708740 114.000000 226.000000 0.893001 0.449818 0.014596
14840.00000000 15910.00000000 -880.00000000 70 145 148 97.000000 1.000000 4.000000 1.000000 -60.708740 114.000000 226.000000 0.675682 0.709698 -0.199458
14820.00000000 15900.00000000 -890.00000000 70 145 148 97.000000 1.000000 4.000000 1.000000 -60.708740 114.000000 226.000000 0.919124 0.385788 0.079865
14840.00000000 15920.00000000 -880.00000000 70 145 148 97.000000 1.000000 4.000000 1.000000 -60.708740 114.000000 226.000000 0.593724 0.771373 -0.229075
14840.00000000 15910.00000000 -890.00000000 70 145 148 97.000000 1.000000 4.000000 1.000000 -60.708740 114.000000 226.000000 0.497660 0.867195 -0.017533
14830.00000000 15890.00000000 -890.00000000 70 145 148 97.000000 1.000000 4.000000 1.000000 -60.708740 114.000000 226.000000 0.590573 0.727235 0.349789
14820.00000000 15900.00000000 -870.00000000 70 145 148 97.000000 1.000000 4.000000 1.000000 -60.708740 114.000000 226.000000 0.755092 0.599958 0.264361
14850.00000000 15900.00000000 -890.00000000 70 145 148 97.000000 1.000000 4.000000 1.000000 -60.708740 114.000000 226.000000 0.416439 0.837592 0.353580
14840.00000000 15920.00000000 -870.00000000 70 145 148 97.000000 1.000000 4.000000 1.000000 -60.708740 114.000000 226.000000 0.449818 0.893001 0.014596
14850.00000000 15890.00000000 -870.00000000 70 145 148 97.000000 1.000000 4.000000 1.000000 -60.708740 114.000000 226.000000 0.706653 0.691521 -0.149804
14850.00000000 15910.00000000 -880.00000000 70 145 148 97.000000 1.000000 4.000000 1.000000 -60.708740 114.000000 226.000000 0.461807 0.883153 -0.082316
14840.00000000 15900.00000000 -870.00000000 70 145 148 97.000000 1.000000 4.000000 1.000000 -60.708740 114.000000 226.000000 0.443312 0.857679 0.260503
14820.00000000 15900.00000000 -890.00000000 70 145 148 97.000000 1.000000 4.000000 1.000000 -60.708740 114.000000 226.000000 0.919124 0.385788 0.079865
14830.00000000 15900.00000000 -930.00000000 70 145 148 97.000000 1.000000 4.000000 1.000000 -60.708740 114.000000 226.000000 0.687083 0.719451 -0.101518
14840.00000000 15890.00000000 -910.00000000 70 145 148 97.000000 1.000000 4.000000 1.000000 -60.708740 114.000000 226.000000 0.615036 0.763014 -0.198846
14830.00000000 15890.00000000 -920.00000000 70 145 148 97.000000 1.000000 4.000000 1.000000 -60.708740 114.000000 226.000000 0.819871 0.517245 0.245498
14830.00000000 15920.00000000 -910.00000000 70 145 148 97.000000 1.000000 4.000000 1.000000 -60.708740 114.000000 226.000000 0.600158 0.787800 0.138498
14830.00000000 15910.00000000 -940.00000000 70 145 148 97.000000 1.000000 4.000000 1.000000 -60.708740 114.000000 226.000000 0.730266 0.656470 0.189100
14870.00000000 15890.00000000 -970.00000000 70 145 148 97.000000 1.000000 4.000000 1.000000 -60.708740 114.000000 226.000000 0.037792 0.988305 -0.147730
14880.00000000 15890.00000000 -960.00000000 70 145 148 97.000000 1.000000 4.000000 1.000000 -60.708740 114.000000 226.000000 0.262596 0.953077 -0.150626
14890.00000000 15890.00000000 -950.00000000 70 145 148 97.000000 1.000000 4.000000 1.000000 -60.708740 114.000000 226.000000 0.226747 0.973953 0.001175
14860.00000000 15890.00000000 -1030.00000000 70 145 148 97.000000 1.000000 4.000000 1.000000 -60.708740 114.000000 226.000000 0.241796 0.957933 -0.154591
14860.00000000 15890.00000000 -1030.00000000 70 145 148 97.000000 1.000000 4.000000 1.000000 -60.708740 114.000000 226.000000 0.241796 0.957933 -0.154591
14820.00000000 15930.00000000 -950.00000000 70 145 148 97.000000 1.000000 4.000000 1.000000 -60.708740 114.000000 226.000000 0.932739 0.223688 0.282776
14820.00000000 15940.00000000 -950.00000000 70 145 148 97.000000 1.000000 4.000000 1.000000 -60.708740 114.000000 226.000000 0.978774 0.097018 -0.180527
14820.00000000 15940.00000000 -960.00000000 70 145 148 97.000000 1.000000 4.000000 1.000000 -60.708740 114.000000 226.000000 0.904569 0.412684 0.106992
14820.00000000 15930.00000000 -1020.00000000 70 145 148 97.000000 1.000000 4.000000 1.000000 -60.708740 114.000000 226.000000 0.779077 0.599172 0.184478
14840.00000000 15890.00000000 -970.00000000 70 145 148 97.000000 1.000000 4.000000 1.000000 -60.708740 114.000000 226.000000 0.599793 0.799256 -0.037926
14830.00000000 15920.00000000 -980.00000000 70 145 148 97.000000 1.000000 4.000000 1.000000 -60.708740 114.000000 226.000000 0.982879 0.184218 0.003433
14830.00000000 15890.00000000 -980.00000000 70 145 148 97.000000 1.000000 4.000000 1.000000 -60.708740 114.000000 226.000000 0.577386 0.759718 0.299089
14820.00000000 15910.00000000 -970.00000000 70 145 148 97.000000 1.000000 4.000000 1.000000 -60.708740 114.000000 226.000000 0.818141 0.483948 0.310547
14820.00000000 15920.00000000 -970.00000000 70 145 148 97.000000 1.000000 4.000000 1.000000 -60.708740 114.000000 226.000000 0.901764 0.263321 0.342759
14830.00000000 15900.00000000 -960.00000000 70 145 148 97.000000 1.000000 4.000000 1.000000 -60.708740 114.000000 226.000000 0.866799 0.497074 -0.039711
14840.00000000 15890.00000000 -960.00000000 70 145 148 97.000000 1.000000 4.000000 1.000000 -60.708740 114.000000 226.000000 0.609322 0.773429 -0.174743
14820.00000000 15900.00000000 -980.00000000 70 145 148 97.000000 1.000000 4.000000 1.000000 -60.708740 114.000000 226.000000 0.662481 0.706752 -0.248233
14830.00000000 15920.00000000 -950.00000000 70 145 148 97.000000 1.000000 4.000000 1.000000 -60.708740 114.000000 226.000000 0.838865 0.456006 0.297260
14830.00000000 15890.00000000 -970.00000000 70 145 148 97.000000 1.000000 4.000000 1.000000 -60.708740 114.000000 226.000000 0.818473 0.567302 -0.090941
14840.00000000 15890.00000000 -960.00000000 70 145 148 97.000000 1.000000 4.000000 1.000000 -60.708740 114.000000 226.000000 0.609322 0.773429 -0.174743
14830.00000000 15890.00000000 -970.00000000 70 145 148 97.000000 1.000000 4.000000 1.000000 -60.708740 114.000000 226.000000 0.818473 0.567302 -0.090941
14840.00000000 15890.00000000 -970.00000000 70 145 148 97.000000 1.000000 4.000000 1.000000 -60.708740 114.000000 226.000000 0.599793 0.799256 -0.037926
14830.00000000 15900.00000000 -1020.00000000 70 145 148 97.000000 1.000000 4.000000 1.000000 -60.708740 114.000000 226.000000 0.608647 0.783393 0.125876
14820.00000000 15920.00000000 -1030.00000000 70 145 148 97.000000 1.000000 4.000000 1.000000 -60.708740 114.000000 226.000000 0.754008 0.616632 0.226358
14830.00000000 15900.00000000 -1000.00000000 70 145 148 97.000000 1.000000 4.000000 1.000000 -60.708740 114.000000 226.000000 0.528352 0.848894 -0.014941
14830.00000000 15900.00000000 -1010.00000000 70 145 148 97.000000 1.000000 4.000000 1.000000 -60.708740 114.000000 226.000000 0.743462 0.661019 -0.101582
14820.00000000 15910.00000000 -1020.00000000 70 145 148 97.000000 1.000000 4.000000 1.000000 -60.708740 114.000000 226.000000 0.883424 0.400744 0.242830
14850.00000000 15890.00000000 -1020.00000000 70 145 148 97.000000 1.000000 4.000000 1.000000 -60.708740 114.000000 226.000000 0.728148 0.660699 0.182420
14820.00000000 15890.00000000 -1000.00000000 70 145 148 97.000000 1.000000 4.000000 1.000000 -60.708740 114.000000 226.000000 0.914079 0.403153 0.043908
14850.00000000 15890.00000000 -1030.00000000 70 145 148 97.000000 1.000000 4.000000 1.000000 -60.708740 114.000000 226.000000 0.549418 0.793604 -0.261404
14820.00000000 15910.00000000 -1010.00000000 70 145 148 97.000000 1.000000 4.000000 1.000000 -60.708740 114.000000 226.000000 0.758419 0.597590 -0.260165
14840.00000000 15900.00000000 -1030.00000000 70 145 148 97.000000 1.000000 4.000000 1.000000 -60.708740 114.000000 226.000000 0.566909 0.823725 -0.009562
14820.00000000 15900.00000000 -990.00000000 70 145 148 97.000000 1.000000 4.000000 1.000000 -60.708740 114.000000 226.000000 0.589395 0.741184 0.321341
14840.00000000 15880.00000000 -930.00000000 70 145 148 97.000000 1.000000 4.000000 1.000000 -60.708740 114.000000 226.000000 0.281633 0.959503 -0.006096
14830.00000000 15880.00000000 -880.00000000 70 145 148 97.000000 1.000000 4.000000 1.000000 -60.708740 114.000000 226.000000 0.576046 0.766475 0.284056
14870.00000000 15880.00000000 -930.00000000 70 145 148 97.000000 1.000000 4.000000 1.000000 -60.708740 114.000000 226.000000 0.474112 0.842355 -0.256235
14880.00000000 15880.00000000 -970.00000000 70 145 148 97.000000 1.000000 4.000000 1.000000 -60.708740 114.000000 226.000000 0.175544 0.973700 -0.145234
14880.00000000 15870.00000000 -1030.00000000 70 145 148 97.000000 1.000000 4.000000 1.000000 -60.708740 114.000000 226.000000 0.382009 0.918738 -0.099952
14890.00000000 15880.00000000 -1020.00000000 70 145 148 97.000000 1.000000 4.000000 1.000000 -60.708740 114.000000 226.000000 -0.070173 0.990473 0.118489
14860.00000000 15880.00000000 -1010.00000000 70 145 148 97.000000 1.000000 4.000000 1.000000 -60.708740 114.000000 226.000000 0.462709 0.857594 0.224572
14880.00000000 15880.00000000 -1020.00000000 70 145 148 97.000000 1.000000 4.000000 1.000000 -60.708740 114.000000 226.000000 0.319680 0.946202 0.050070
14860.00000000 15870.00000000 -1010.00000000 70 145 148 97.000000 1.000000 4.000000 1.000000 -60.708740 114.000000 226.000000 0.333430 0.913684 0.232391
14840.00000000 15870.00000000 -970.00000000 70 145 148 97.000000 1.000000 4.000000 1.000000 -60.708740 114.000000 226.000000 0.564060 0.804279 -0.187006
14830.00000000 15880.00000000 -970.00000000 70 145 148 97.000000 1.000000 4.000000 1.000000 -60.708740 114.000000 226.000000 0.617967 0.754947 -0.219480
14840.00000000 15880.00000000 -980.00000000 70 145 148 97.000000 1.000000 4.000000 1.000000 -60.708740 114.000000 226.000000 0.694442 0.685079 0.220037
14850.00000000 15880.00000000 -1020.00000000 70 145 148 97.000000 1.000000 4.000000 1.000000 -60.708740 114.000000 226.000000 0.644739 0.708733 0.286373
14840.00000000 15880.00000000 -1000.00000000 70 145 148 97.000000 1.000000 4.000000 1.000000 -60.708740 114.000000 226.000000 0.389707 0.908370 0.151631
14840.00000000 15880.00000000 -990.00000000 70 145 148 97.000000 1.000000 4.000000 1.000000 -60.708740 114.000000 226.000000 0.665727 0.694464 0.272996
14820.00000000 15880.00000000 -990.00000000 70 145 148 97.000000 1.000000 4.000000 1.000000 -60.708740 114.000000 226.000000 0.824419 0.540137 -0.169073
14850.00000000 15880.00000000 -1000.00000000 70 145 148 97.000000 1.000000 4.000000 1.000000 -60.708740 114.000000 226.000000 0.662171 0.744029 0.089167
14850.00000000 15880.00000000 -990.00000000 70 145 148 97.000000 1.000000 4.000000 1.000000 -60.708740 114.000000 226.000000 0.504627 0.781930 0.365975
15130.00000000 16120.00000000 -1060.00000000 70 145 148 97.000000 1.000000 4.000000 1.000000 -60.708740 114.000000 226.000000 0.888694 0.393162 -0.235897
15090.00000000 16120.00000000 -1130.00000000 70 145 148 97.000000 1.000000 4.000000 1.000000 -60.708740 114.000000 226.000000 0.810433 0.585236 0.026412
15040.00000000 16100.00000000 -1080.00000000 70 145 148 97.000000 1.000000 4.000000 1.000000 -60.708740 114.000000 226.000000 0.843390 0.506034 -0.180620
15030.00000000 16080.00000000 -1110.00000000 70 145 148 97.000000 1.000000 4.000000 1.000000 -60.708740 114.000000 226.000000 0.831600 0.552047 0.060711
15030.00000000 16080.00000000 -1110.00000000 70 145 148 97.000000 1.000000 4.000000 1.000000 -60.708740 114.000000 226.000000 0.831600 0.552047 0.060711
15020.00000000 16120.00000000 -1090.00000000 70 145 148 97.000000 1.000000 4.000000 1.000000 -60.708740 114.000000 226.000000 0.346286 0.938121 0.003778
15040.00000000 16080.00000000 -1150.00000000 70 145 148 97.000000 1.000000 4.000000 1.000000 -60.708740 114.000000 226.000000 0.586932 0.799824 -0.125666
15050.00000000 16070.00000000 -1140.00000000 70 145 148 97.000000 1.000000 4.000000 1.000000 -60.708740 114.000000 226.000000 0.730004 0.662947 -0.166118
15000.00000000 16130.00000000 -1130.00000000 70 145 148 97.000000 1.000000 4.000000 1.000000 -60.708740 114.000000 226.000000 0.353185 0.934441 -0.045614
15000.00000000 16130.00000000 -1130.00000000 70 145 148 97.000000 1.000000 4.000000 1.000000 -60.708740 114.000000 226.000000 0.353185 0.934441 -0.045614
14990.00000000 16130.00000000 -1140.00000000 70 145 148 97.000000 1.000000 4.000000 1.000000 -60.708740 114.000000 226.000000 -0.003337 0.988988 -0.147959
14990.00000000 16130.00000000 -1160.00000000 70 145 148 97.000000 1.000000 4.000000 1.000000 -60.708740 114.000000 226.000000 0.074119 0.966054 0.247481
14990.00000000 16130.00000000 -1160.00000000 70 145 148 97.000000 1.000000 4.000000 1.000000 -60.708740 114.000000 226.000000 0.074119 0.966054 0.247481
15040.00000000 16030.00000000 -1150.00000000 70 145 148 97.000000 1.000000 4.000000 1.000000 -60.708740 114.000000 226.000000 0.635638 0.763062 -0.117052
15020.00000000 16040.00000000 -1120.00000000 70 145 148 97.000000 1.000000 4.000000 1.000000 -60.708740 114.000000 226.000000 0.792807 0.592739 -0.141839
15080.00000000 15800.00000000 -1090.00000000 70 145 148 97.000000 1.000000 4.000000 1.000000 -60.708740 114.000000 226.000000 0.752485 -0.658597 -0.004142
15040.00000000 15890.00000000 -1050.00000000 70 145 148 97.000000 1.000000 4.000000 1.000000 -60.708740 114.000000 226.000000 0.774783 -0.583826 0.242609
15050.00000000 15900.00000000 -1040.00000000 70 145 148 97.000000 1.000000 4.000000 1.000000 -60.708740 114.000000 226.000000 0.997528 0.060812 0.035207
15030.00000000 15830.00000000 -1180.00000000 70 145 148 97.000000 1.000000 4.000000 1.000000 -60.708740 114.000000 226.000000 -0.557404 0.829912 0.023397
15020.00000000 15820.00000000 -1160.00000000 70 145 148 97.000000 1.000000 4.000000 1.000000 -60.708740 114.000000 226.000000 0.747754 -0.517676 0.415784
14900.00000000 16060.00000000 -1070.00000000 70 145 148 97.000000 1.000000 4.000000 1.000000 -60.708740 114.000000 226.000000 -0.087240 0.976842 0.195368
14950.00000000 16110.00000000 -1150.00000000 70 145 148 97.000000 1.000000 4.000000 1.000000 -60.708740 114.000000 226.000000 0.328110 0.898220 0.292478
14960.00000000 16130.00000000 -1180.00000000 70 145 148 97.000000 1.000000 4.000000 1.000000 -60.708740 114.000000 226.000000 -0.049589 0.988312 -0.144153
14960.00000000 16130.00000000 -1160.00000000 70 145 148 97.000000 1.000000 4.000000 1.000000 -60.708740 114.000000 226.000000 -0.040679 0.994996 -0.091254
14950.00000000 16070.00000000 -1170.00000000 70 145 148 97.000000 1.000000 4.000000 1.000000 -60.708740 114.000000 226.000000 0.342461 0.915617 0.210635
14930.00000000 16130.00000000 -1190.00000000 70 145 148 97.000000 1.000000 4.000000 1.000000 -60.708740 114.000000 226.000000 0.193122 0.973185 -0.124961
14940.00000000 16120.00000000 -1190.00000000 70 145 148 97.000000 1.000000 4.000000 1.000000 -60.708740 114.000000 226.000000 0.196404 0.979638 0.041661
14920.00000000 16100.00000000 -1170.00000000 70 145 148 97.000000 1.000000 4.000000 1.000000 -60.708740 114.000000 226.000000 -0.299013 0.954113 -0.016129
14930.00000000 16130.00000000 -1190.00000000 70 145 148 97.000000 1.000000 4.000000 1.000000 -60.708740 114.000000 226.000000 0.193122 0.973185 -0.124961
14940.00000000 16130.00000000 -1180.00000000 70 145 148 97.000000 1.000000 4.000000 1.000000 -60.708740 114.000000 226.000000 0.212462 0.976851 0.024926
14930.00000000 16130.00000000 -1160.00000000 70 145 148 97.000000 1.000000 4.000000 1.000000 -60.708740 114.000000 226.000000 -0.226001 0.971926 0.065454
14910.00000000 16130.00000000 -1170.00000000 70 145 148 97.000000 1.000000 4.000000 1.000000 -60.708740 114.000000 226.000000 -0.207767 0.970005 0.126190
14910.00000000 16080.00000000 -1130.00000000 70 145 148 97.000000 1.000000 4.000000 1.000000 -60.708740 114.000000 226.000000 0.143916 0.989559 0.007809
14940.00000000 16070.00000000 -1170.00000000 70 145 148 97.000000 1.000000 4.000000 1.000000 -60.708740 114.000000 226.000000 -0.113653 0.981323 0.155203
14940.00000000 15990.00000000 -1100.00000000 70 145 148 97.000000 1.000000 4.000000 1.000000 -60.708740 114.000000 226.000000 0.594451 0.776646 -0.208444
14940.00000000 15990.00000000 -1090.00000000 70 145 148 97.000000 1.000000 4.000000 1.000000 -60.708740 114.000000 226.000000 0.580823 0.813152 0.037788
14940.00000000 16050.00000000 -1140.00000000 70 145 148 97.000000 1.000000 4.000000 1.000000 -60.708740 114.000000 226.000000 0.225453 0.963060 -0.147261
14940.00000000 16050.00000000 -1130.00000000 70 145 148 97.000000 1.000000 4.000000 1.000000 -60.708740 114.000000 226.000000 0.170050 0.935966 -0.308302
14930.00000000 16040.00000000 -1170.00000000 70 145 148 97.000000 1.000000 4.000000 1.000000 -60.708740 114.000000 226.000000 0.274125 0.927479 0.254240
14940.00000000 16040.00000000 -1160.00000000 70 145 148 97.000000 1.000000 4.000000 1.000000 -60.708740 114.000000 226.000000 -0.149003 0.988428 -0.028436
14900.00000000 16050.00000000 -1170.00000000 70 145 148 97.000000 1.000000 4.000000 1.000000 -60.708740 114.000000 226.000000 0.101394 0.972635 0.209048
14900.00000000 16040.00000000 -1170.00000000 70 145 148 97.000000 1.000000 4.000000 1.000000 -60.708740 114.000000 226.000000 0.036188 0.984091 0.173938
14880.00000000 16110.00000000 -1060.00000000 70 145 148 97.000000 1.000000 4.000000 1.000000 -60.708740 114.000000 226.000000 -0.376076 0.872435 -0.312128
14890.00000000 16060.00000000 -1050.00000000 70 145 148 97.000000 1.000000 4.000000 1.000000 -60.708740 114.000000 226.000000 0.012136 0.991844 0.126877
14860.00000000 16070.00000000 -1100.00000000 70 145 148 97.000000 1.000000 4.000000 1.000000 -60.708740 114.000000 226.000000 -0.537872 0.798183 0.271288
14880.00000000 16070.00000000 -1150.00000000 70 145 148 97.000000 1.000000 4.000000 1.000000 -60.708740 114.000000 226.000000 -0.552940 0.827245 0.099616
14860.00000000 16060.00000000 -1150.00000000 70 145 148 97.000000 1.000000 4.000000 1.000000 -60.708740 114.000000 226.000000 -0.401644 0.904054 0.146181
14860.00000000 16070.00000000 -1190.00000000 70 145 148 97.000000 1.000000 4.000000 1.000000 -60.708740 114.000000 226.000000 -0.178966 0.982534 0.050964
14820.00000000 16070.00000000 -1120.00000000 70 145 148 97.000000 1.000000 4.000000 1.000000 -60.708740 114.000000 226.000000 -0.359790 0.904572 -0.228692
14830.00000000 16060.00000000 -1140.00000000 70 145 148 97.000000 1.000000 4.000000 1.000000 -60.708740 114.000000 226.000000 -0.657648 0.748056 0.088950
14850.00000000 16060.00000000 -1190.00000000 70 145 148 97.000000 1.000000 4.000000 1.000000 -60.708740 114.000000 226.000000 -0.609349 0.791159 0.052555
14850.00000000 16060.00000000 -1180.00000000 70 145 148 97.000000 1.000000 4.000000 1.000000 -60.708740 114.000000 226.000000 -0.244540 0.964077 -0.103706
14840.00000000 16070.00000000 -1170.00000000 70 145 148 97.000000 1.000000 4.000000 1.000000 -60.708740 114.000000 226.000000 -0.165842 0.981737 0.093211
14850.00000000 16060.00000000 -1170.00000000 70 145 148 97.000000 1.000000 4.000000 1.000000 -60.708740 114.000000 226.000000 -0.122263 0.992424 -0.012116
14840.00000000 16060.00000000 -1170.00000000 70 145 148 97.000000 1.000000 4.000000 1.000000 -60.708740 114.000000 226.000000 -0.647039 0.759442 -0.067730
14880.00000000 16050.00000000 -1060.00000000 70 145 148 97.000000 1.000000 4.000000 1.000000 -60.708740 114.000000 226.000000 0.120414 0.985965 0.115645
14860.00000000 16050.00000000 -1060.00000000 70 145 148 97.000000 1.000000 4.000000 1.000000 -60.708740 114.000000 226.000000 -0.413375 0.908886 0.055206
14850.00000000 16040.00000000 -1040.00000000 70 145 148 97.000000 1.000000 4.000000 1.000000 -60.708740 114.000000 226.000000 -0.516157 0.840429 0.165111
14850.00000000 16040.00000000 -1060.00000000 70 145 148 97.000000 1.000000 4.000000 1.000000 -60.708740 114.000000 226.000000 -0.258301 0.964573 -0.053657
14840.00000000 16050.00000000 -1050.00000000 70 145 148 97.000000 1.000000 4.000000 1.000000 -60.708740 114.000000 226.000000 -0.408560 0.883974 0.227308
14850.00000000 16050.00000000 -1060.00000000 70 145 148 97.000000 1.000000 4.000000 1.000000 -60.708740 114.000000 226.000000 -0.443710 0.894246 -0.058706
14820.00000000 16040.00000000 -1080.00000000 70 145 148 97.000000 1.000000 4.000000 1.000000 -60.708740 114.000000 226.000000 -0.631792 0.774681 0.026617
14840.00000000 16050.00000000 -1110.00000000 70 145 148 97.000000 1.000000 4.000000 1.000000 -60.708740 114.000000 226.000000 -0.606705 0.793384 0.049498
14830.00000000 16030.00000000 -1090.00000000 70 145 148 97.000000 1.000000 4.000000 1.000000 -60.708740 114.000000 226.000000 -0.312368 0.947474 -0.068695
14840.00000000 16050.00000000 -1100.00000000 70 145 148 97.000000 1.000000 4.000000 1.000000 -60.708740 114.000000 226.000000 -0.332088 0.942411 0.039748
14820.00000000 16040.00000000 -1080.00000000 70 145 148 97.000000 1.000000 4.000000 1.000000 -60.708740 114.000000 226.000000 -0.631792 0.774681 0.026617
14840.00000000 16040.00000000 -1090.00000000 70 145 148 97.000000 1.000000 4.000000 1.000000 -60.708740 114.000000 226.000000 -0.691601 0.722215 -0.009741
14820.00000000 16030.00000000 -1090.00000000 70 145 148 97.000000 1.000000 4.000000 1.000000 -60.708740 114.000000 226.000000 -0.428936 0.902244 0.044373
14870.00000000 16050.00000000 -1130.00000000 70 145 148 97.000000 1.000000 4.000000 1.000000 -60.708740 114.000000 226.000000 -0.465419 0.882500 0.067672
14880.00000000 16050.00000000 -1140.00000000 70 145 148 97.000000 1.000000 4.000000 1.000000 -60.708740 114.000000 226.000000 -0.209798 0.937837 -0.276488
14860.00000000 16040.00000000 -1140.00000000 70 145 148 97.000000 1.000000 4.000000 1.000000 -60.708740 114.000000 226.000000 -0.553097 0.827479 0.096756
14870.00000000 16050.00000000 -1130.00000000 70 145 148 97.000000 1.000000 4.000000 1.000000 -60.708740 114.000000 226.000000 -0.465419 0.882500 0.067672
14860.00000000 16050.00000000 -1150.00000000 70 145 148 97.000000 1.000000 4.000000 1.000000 -60.708740 114.000000 226.000000 0.760872 -0.647941 -0.035291
14880.00000000 16050.00000000 -1190.00000000 70 145 148 97.000000 1.000000 4.000000 1.000000 -60.708740 114.000000 226.000000 -0.352087 0.916566 -0.189585
14820.00000000 16030.00000000 -1120.00000000 70 145 148 97.000000 1.000000 4.000000 1.000000 -60.708740 114.000000 226.000000 -0.515728 0.845910 -0.135872
14850.00000000 16040.00000000 -1130.00000000 70 145 148 97.000000 1.000000 4.000000 1.000000 -60.708740 114.000000 226.000000 -0.265169 0.957481 -0.113644
14850.00000000 16040.00000000 -1140.00000000 70 145 148 97.000000 1.000000 4.000000 1.000000 -60.708740 114.000000 226.000000 -0.358773 0.933319 0.014044
14850.00000000 16030.00000000 -1140.00000000 70 145 148 97.000000 1.000000 4.000000 1.000000 -60.708740 114.000000 226.000000 -0.280871 0.958488 0.049121
14820.00000000 16040.00000000 -1160.00000000 70 145 148 97.000000 1.000000 4.000000 1.000000 -60.708740 114.000000 226.000000 -0.613609 0.777835 -0.135860
14830.00000000 16040.00000000 -1180.00000000 70 145 148 97.000000 1.000000 4.000000 1.000000 -60.708740 114.000000 226.000000 -0.339042 0.938582 0.064143
14820.00000000 16030.00000000 -1160.00000000 70 145 148 97.000000 1.000000 4.000000 1.000000 -60.708740 114.000000 226.000000 -0.684529 0.700052 -0.203341
14820.00000000 16040.00000000 -1190.00000000 70 145 148 97.000000 1.000000 4.000000 1.000000 -60.708740 114.000000 226.000000 -0.472248 0.863073 0.179128
14830.00000000 16040.00000000 -1180.00000000 70 145 148 97.000000 1.000000 4.000000 1.000000 -60.708740 114.000000 226.000000 -0.339042 0.938582 0.064143
14830.00000000 16050.00000000 -1170.00000000 70 145 148 97.000000 1.000000 4.000000 1.000000 -60.708740 114.000000 226.000000 0.700260 -0.642039 0.312125
14850.00000000 16050.00000000 -1180.00000000 70 145 148 97.000000 1.000000 4.000000 1.000000 -60.708740 114.000000 226.000000 -0.428012 0.779536 -0.457306
14950.00000000 16130.00000000 -1200.00000000 70 145 148 97.000000 1.000000 4.000000 1.000000 -60.708740 114.000000 226.000000 -0.076431 0.968545 0.236811
14950.00000000 16080.00000000 -1200.00000000 70 145 148 97.000000 1.000000 4.000000 1.000000 -60.708740 114.000000 226.000000 -0.072810 0.973683 0.215963
14950.00000000 16130.00000000 -1200.00000000 70 145 148 97.000000 1.000000 4.000000 1.000000 -60.708740 114.000000 226.000000 -0.076431 0.968545 0.236811
14900.00000000 16130.00000000 -1210.00000000 70 145 148 97.000000 1.000000 4.000000 1.000000 -60.708740 114.000000 226.000000 -0.337342 0.861070 -0.380473
14900.00000000 16130.00000000 -1200.00000000 70 145 148 97.000000 1.000000 4.000000 1.000000 -60.708740 114.000000 226.000000 -0.425432 0.892405 0.150405
14870.00000000 16070.00000000 -1210.00000000 70 145 148 97.000000 1.000000 4.000000 1.000000 -60.708740 114.000000 226.000000 -0.345854 0.926443 -0.148620
14840.00000000 16070.00000000 -1200.00000000 70 145 148 97.000000 1.000000 4.000000 1.000000 -60.708740 114.000000 226.000000 -0.361855 0.932128 0.014065
14840.00000000 16070.00000000 -1210.00000000 70 145 148 97.000000 1.000000 4.000000 1.000000 -60.708740 114.000000 226.000000 -0.614677 0.788720 -0.009669
14840.00000000 16060.00000000 -1240.00000000 70 145 148 97.000000 1.000000 4.000000 1.000000 -60.708740 114.000000 226.000000 -0.641550 0.737860 -0.209707
14840.00000000 16060.00000000 -1250.00000000 70 145 148 97.000000 1.000000 4.000000 1.000000 -60.708740 114.000000 226.000000 -0.497166 0.789995 -0.358796
14870.00000000 16040.00000000 -1210.00000000 70 145 148 97.000000 1.000000 4.000000 1.000000 -60.708740 114.000000 226.000000 -0.374040 0.925116 0.065224
14830.00000000 16020.00000000 -1210.00000000 70 145 148 97.000000 1.000000 4.000000 1.000000 -60.708740 114.000000 226.000000 0.781029 -0.545607 0.303822
14850.00000000 16030.00000000 -1200.00000000 70 145 148 97.000000 1.000000 4.000000 1.000000 -60.708740 114.000000 226.000000 -0.311993 0.941381 -0.128309
14830.00000000 16050.00000000 -1210.00000000 70 145 148 97.000000 1.000000 4.000000 1.000000 -60.708740 114.000000 226.000000 -0.441257 0.881057 -0.170386
14840.00000000 16040.00000000 -1210.00000000 70 145 148 97.000000 1.000000 4.000000 1.000000 -60.708740 114.000000 226.000000 0.684528 -0.638784 0.351250
14830.00000000 16050.00000000 -1260.00000000 70 145 148 97.000000 1.000000 4.000000 1.000000 -60.708740 114.000000 226.000000 -0.514928 0.854472 0.068751
14920.00000000 15940.00000000 -1070.00000000 70 145 148 97.000000 1.000000 4.000000 1.000000 -60.708740 114.000000 226.000000 0.678043 -0.681234 0.276003
14930.00000000 15930.00000000 -1040.00000000 70 145 148 97.000000 1.000000 4.000000 1.000000 -60.708740 114.000000 226.000000 0.846377 -0.298630 0.440983
14900.00000000 15880.00000000 -1050.00000000 70 145 148 97.000000 1.000000 4.000000 1.000000 -60.708740 114.000000 226.000000 0.108825 0.992890 0.048242
14900.00000000 15870.00000000 -1060.00000000 70 145 148 97.000000 1.000000 4.000000 1.000000 -60.708740 114.000000 226.000000 -0.033575 0.958745 -0.282277
14910.00000000 15880.00000000 -1060.00000000 70 145 148 97.000000 1.000000 4.000000 1.000000 -60.708740 114.000000 226.000000 -0.099657 0.921482 -0.375419
14900.00000000 15880.00000000 -1040.00000000 70 145 148 97.000000 1.000000 4.000000 1.000000 -60.708740 114.000000 226.000000 0.360053 0.900868 -0.242485
14900.00000000 15870.00000000 -1080.00000000 70 145 148 97.000000 1.000000 4.000000 1.000000 -60.708740 114.000000 226.000000 0.088186 0.883256 -0.460525
14900.00000000 15850.00000000 -1080.00000000 70 145 148 97.000000 1.000000 4.000000 1.000000 -60.708740 114.000000 226.000000 0.179584 0.967688 -0.177000
14900.00000000 15850.00000000 -1090.00000000 70 145 148 97.000000 1.000000 4.000000 1.000000 -60.708740 114.000000 226.000000 0.457790 0.886710 0.064613
14960.00000000 15820.00000000 -1150.00000000 70 145 148 97.000000 1.000000 4.000000 1.000000 -60.708740 114.000000 226.000000 -0.233140 0.936746 0.261060
14970.00000000 15820.00000000 -1150.00000000 70 145 148 97.000000 1.000000 4.000000 1.000000 -60.708740 114.000000 226.000000 -0.269220 0.931697 0.243848
14970.00000000 15820.00000000 -1140.00000000 70 145 148 97.000000 1.000000 4.000000 1.000000 -60.708740 114.000000 226.000000 -0.408974 0.868119 0.281264
14900.00000000 15860.00000000 -1140.00000000 70 145 148 97.000000 1.000000 4.000000 1.000000 -60.708740 114.000000 226.000000 0.385472 0.910731 -0.148259
14900.00000000 15860.00000000 -1150.00000000 70 145 148 97.000000 1.000000 4.000000 1.000000 -60.708740 114.000000 226.000000 0.433203 0.867916 -0.243016
14900.00000000 15860.00000000 -1150.00000000 70 145 148 97.000000 1.000000 4.000000 1.000000 -60.708740 114.000000 226.000000 0.433203 0.867916 -0.243016
14910.00000000 15860.00000000 -1150.00000000 70 145 148 97.000000 1.000000 4.000000 1.000000 -60.708740 114.000000 226.000000 0.126541 0.949723 -0.286382
14900.00000000 15870.00000000 -1130.00000000 70 145 148 97.000000 1.000000 4.000000 1.000000 -60.708740 114.000000 226.000000 0.574853 0.804794 -0.147819
14830.00000000 15890.00000000 -1060.00000000 70 145 148 97.000000 1.000000 4.000000 1.000000 -60.708740 114.000000 226.000000 0.944115 0.241197 0.224658
14830.00000000 15910.00000000 -1040.00000000 70 145 148 97.000000 1.000000 4.000000 1.000000 -60.708740 114.000000 226.000000 0.883833 0.467756 -0.006625
14850.00000000 15900.00000000 -1050.00000000 70 145 148 97.000000 1.000000 4.000000 1.000000 -60.708740 114.000000 226.000000 0.597588 0.693599 0.402254
14840.00000000 15900.00000000 -1070.00000000 70 145 148 97.000000 1.000000 4.000000 1.000000 -60.708740 114.000000 226.000000 0.622889 0.781084 -0.043786
14850.00000000 15890.00000000 -1040.00000000 70 145 148 97.000000 1.000000 4.000000 1.000000 -60.708740 114.000000 226.000000 0.611668 0.765741 -0.198754
14850.00000000 15890.00000000 -1040.00000000 70 145 148 97.000000 1.000000 4.000000 1.000000 -60.708740 114.000000 226.000000 0.611668 0.765741 -0.198754
14820.00000000 15910.00000000 -1110.00000000 70 145 148 97.000000 1.000000 4.000000 1.000000 -60.708740 114.000000 226.000000 0.860770 0.500579 0.092175
14850.00000000 15890.00000000 -1090.00000000 70 145 148 97.000000 1.000000 4.000000 1.000000 -60.708740 114.000000 226.000000 0.682178 0.685344 0.254828
14820.00000000 15890.00000000 -1100.00000000 70 145 148 97.000000 1.000000 4.000000 1.000000 -60.708740 114.000000 226.000000 0.732727 0.589756 0.339557
14830.00000000 15920.00000000 -1090.00000000 70 145 148 97.000000 1.000000 4.000000 1.000000 -60.708740 114.000000 226.000000 0.877190 0.475318 -0.067903
14840.00000000 15910.00000000 -1090.00000000 70 145 148 97.000000 1.000000 4.000000 1.000000 -60.708740 114.000000 226.000000 0.681246 0.725387 0.098582
14840.00000000 15890.00000000 -1110.00000000 70 145 148 97.000000 1.000000 4.000000 1.000000 -60.708740 114.000000 226.000000 0.716296 0.530159 0.453709
14820.00000000 15920.00000000 -1100.00000000 70 145 148 97.000000 1.000000 4.000000 1.000000 -60.708740 114.000000 226.000000 0.800549 0.353137 0.484165
14840.00000000 15900.00000000 -1110.00000000 70 145 148 97.000000 1.000000 4.000000 1.000000 -60.708740 114.000000 226.000000 0.721807 0.556634 0.411282
14830.00000000 15910.00000000 -1090.00000000 70 145 148 97.000000 1.000000 4.000000 1.000000 -60.708740 114.000000 226.000000 0.830642 0.447510 0.331315
14820.00000000 15920.00000000 -1100.00000000 70 145 148 97.000000 1.000000 4.000000 1.000000 -60.708740 114.000000 226.000000 0.800549 0.353137 0.484165
14830.00000000 15910.00000000 -1100.00000000 70 145 148 97.000000 1.000000 4.000000 1.000000 -60.708740 114.000000 226.000000 0.719757 0.690909 0.067793
14870.00000000 15890.00000000 -1150.00000000 70 145 148 97.000000 1.000000 4.000000 1.000000 -60.708740 114.000000 226.000000 0.727650 0.685427 0.026741
14880.00000000 15890.00000000 -1130.00000000 70 145 148 97.000000 1.000000 4.000000 1.000000 -60.708740 114.000000 226.000000 0.338364 0.933559 -0.118224
14880.00000000 15890.00000000 -1140.00000000 70 145 148 97.000000 1.000000 4.000000 1.000000 -60.708740 114.000000 226.000000 0.312459 0.942740 -0.116669
14870.00000000 15890.00000000 -1150.00000000 70 145 148 97.000000 1.000000 4.000000 1.000000 -60.708740 114.000000 226.000000 0.727650 0.685427 0.026741
14880.00000000 15890.00000000 -1130.00000000 70 145 148 97.000000 1.000000 4.000000 1.000000 -60.708740 114.000000 226.000000 0.338364 0.933559 -0.118224
14860.00000000 15900.00000000 -1180.00000000 70 145 148 97.000000 1.000000 4.000000 1.000000 -60.708740 114.000000 226.000000 0.598464 0.801148 0.001369
14840.00000000 15900.00000000 -1120.00000000 70 145 148 97.000000 1.000000 4.000000 1.000000 -60.708740 114.000000 226.000000 0.821480 0.567850 0.052135
14850.00000000 15900.00000000 -1140.00000000 70 145 148 97.000000 1.000000 4.000000 1.000000 -60.708740 114.000000 226.000000 0.829699 0.552657 -0.078543
14850.00000000 15890.00000000 -1130.00000000 70 145 148 97.000000 1.000000 4.000000 1.000000 -60.708740 114.000000 226.000000 0.693282 0.716537 0.077031
14830.00000000 15920.00000000 -1140.00000000 70 145 148 97.000000 1.000000 4.000000 1.000000 -60.708740 114.000000 226.000000 0.868047 0.446723 0.216638
14850.00000000 15890.00000000 -1120.00000000 70 145 148 97.000000 1.000000 4.000000 1.000000 -60.708740 114.000000 226.000000 0.635886 0.768542 -0.070654
14820.00000000 15910.00000000 -1130.00000000 70 145 148 97.000000 1.000000 4.000000 1.000000 -60.708740 114.000000 226.000000 0.969988 0.162732 0.180671
14850.00000000 15890.00000000 -1120.00000000 70 145 148 97.000000 1.000000 4.000000 1.000000 -60.708740 114.000000 226.000000 0.635886 0.768542 -0.070654
14860.00000000 15860.00000000 -1060.00000000 70 145 148 97.000000 1.000000 4.000000 1.000000 -60.708740 114.000000 226.000000 0.190540 0.970602 0.147061
14890.00000000 15870.00000000 -1050.00000000 70 145 148 97.000000 1.000000 4.000000 1.000000 -60.708740 114.000000 226.000000 -0.063877 0.979855 -0.189222
14860.00000000 15870.00000000 -1060.00000000 70 145 148 97.000000 1.000000 4.000000 1.000000 -60.708740 114.000000 226.000000 0.295131 0.925314 0.238101
14880.00000000 15870.00000000 -1050.00000000 70 145 148 97.000000 1.000000 4.000000 1.000000 -60.708740 114.000000 226.000000 0.053244 0.967068 -0.248887
14880.00000000 15870.00000000 -1040.00000000 70 145 148 97.000000 1.000000 4.000000 1.000000 -60.708740 114.000000 226.000000 0.036307 0.998948 -0.028008
14880.00000000 15870.00000000 -1070.00000000 70 145 148 97.000000 1.000000 4.000000 1.000000 -60.708740 114.000000 226.000000 0.446565 0.894464 -0.022662
14880.00000000 15870.00000000 -1090.00000000 70 145 148 97.000000 1.000000 4.000000 1.000000 -60.708740 114.000000 226.000000 0.534260 0.837056 0.117916
14880.00000000 15870.00000000 -1100.00000000 70 145 148 97.000000 1.000000 4.000000 1.000000 -60.708740 114.000000 226.000000 0.529607 0.841310 0.108230
14860.00000000 15880.00000000 -1100.00000000 70 145 148 97.000000 1.000000 4.000000 1.000000 -60.708740 114.000000 226.000000 0.787519 0.574007 0.224342
14890.00000000 15870.00000000 -1110.00000000 70 145 148 97.000000 1.000000 4.000000 1.000000 -60.708740 114.000000 226.000000 0.533926 0.844574 0.040218
14860.00000000 15880.00000000 -1100.00000000 70 145 148 97.000000 1.000000 4.000000 1.000000 -60.708740 114.000000 226.000000 0.787519 0.574007 0.224342
14890.00000000 15860.00000000 -1110.00000000 70 145 148 97.000000 1.000000 4.000000 1.000000 -60.708740 114.000000 226.000000 0.576625 0.797589 0.177074
14890.00000000 15870.00000000 -1110.00000000 70 145 148 97.000000 1.000000 4.000000 1.000000 -60.708740 114.000000 226.000000 0.533926 0.844574 0.040218
14830.00000000 15880.00000000 -1050.00000000 70 145 148 97.000000 1.000000 4.000000 1.000000 -60.708740 114.000000 226.000000 0.571060 0.811815 -0.121846
14840.00000000 15880.00000000 -1060.00000000 70 145 148 97.000000 1.000000 4.000000 1.000000 -60.708740 114.000000 226.000000 0.385963 0.881557 0.271826
14840.00000000 15880.00000000 -1080.00000000 70 145 148 97.000000 1.000000 4.000000 1.000000 -60.708740 114.000000 226.000000 0.531882 0.821445 0.205742
14860.00000000 15880.00000000 -1130.00000000 70 145 148 97.000000 1.000000 4.000000 1.000000 -60.708740 114.000000 226.000000 0.397565 0.912062 0.100423
14880.00000000 15860.00000000 -1150.00000000 70 145 148 97.000000 1.000000 4.000000 1.000000 -60.708740 114.000000 226.000000 0.061010 0.995025 0.078759
14880.00000000 15880.00000000 -1140.00000000 70 145 148 97.000000 1.000000 4.000000 1.000000 -60.708740 114.000000 226.000000 0.403520 0.840013 -0.362697
14860.00000000 15880.00000000 -1120.00000000 70 145 148 97.000000 1.000000 4.000000 1.000000 -60.708740 114.000000 226.000000 0.595397 0.776939 0.204619
14880.00000000 15870.00000000 -1120.00000000 70 145 148 97.000000 1.000000 4.000000 1.000000 -60.708740 114.000000 226.000000 0.340947 0.924626 0.169772
14850.00000000 15880.00000000 -1140.00000000 70 145 148 97.000000 1.000000 4.000000 1.000000 -60.708740 114.000000 226.000000 0.599910 0.732505 -0.321785
14810.00000000 16060.00000000 -740.00000000 70 145 148 97.000000 1.000000 4.000000 1.000000 -60.708740 114.000000 226.000000 0.719389 -0.690323 0.077026
14800.00000000 16010.00000000 -700.00000000 70 145 148 97.000000 1.000000 4.000000 1.000000 -60.708740 114.000000 226.000000 0.838549 -0.528300 0.133173
14810.00000000 16050.00000000 -720.00000000 70 145 148 97.000000 1.000000 4.000000 1.000000 -60.708740 114.000000 226.000000 -0.439553 0.865512 0.240168
14800.00000000 16040.00000000 -720.00000000 70 145 148 97.000000 1.000000 4.000000 1.000000 -60.708740 114.000000 226.000000 -0.661943 0.749078 0.026703
14780.00000000 16020.00000000 -730.00000000 70 145 148 97.000000 1.000000 4.000000 1.000000 -60.708740 114.000000 226.000000 0.951537 -0.307228 0.013682
14810.00000000 16040.00000000 -760.00000000 70 145 148 97.000000 1.000000 4.000000 1.000000 -60.708740 114.000000 226.000000 0.569695 -0.650360 0.502474
14810.00000000 16020.00000000 -750.00000000 70 145 148 97.000000 1.000000 4.000000 1.000000 -60.708740 114.000000 226.000000 -0.580658 0.789021 0.200702
14810.00000000 16050.00000000 -750.00000000 70 145 148 97.000000 1.000000 4.000000 1.000000 -60.708740 114.000000 226.000000 -0.618388 0.703232 -0.350800
14810.00000000 16030.00000000 -770.00000000 70 145 148 97.000000 1.000000 4.000000 1.000000 -60.708740 114.000000 226.000000 -0.632187 0.774533 0.020933
14790.00000000 16040.00000000 -740.00000000 70 145 148 97.000000 1.000000 4.000000 1.000000 -60.708740 114.000000 226.000000 -0.531175 0.846861 0.026078
14810.00000000 16020.00000000 -750.00000000 70 145 148 97.000000 1.000000 4.000000 1.000000 -60.708740 114.000000 226.000000 -0.580658 0.789021 0.200702
14800.00000000 16040.00000000 -760.00000000 70 145 148 97.000000 1.000000 4.000000 1.000000 -60.708740 114.000000 226.000000 -0.603976 0.775230 -0.185016
14810.00000000 16050.00000000 -750.00000000 70 145 148 97.000000 1.000000 4.000000 1.000000 -60.708740 114.000000 226.000000 -0.618388 0.703232 -0.350800
14810.00000000 16010.00000000 -770.00000000 70 145 148 97.000000 1.000000 4.000000 1.000000 -60.708740 114.000000 226.000000 0.951152 -0.254990 0.174041
14810.00000000 16020.00000000 -750.00000000 70 145 148 97.000000 1.000000 4.000000 1.000000 -60.708740 114.000000 226.000000 -0.580658 0.789021 0.200702
14800.00000000 15980.00000000 -730.00000000 70 145 148 97.000000 1.000000 4.000000 1.000000 -60.708740 114.000000 226.000000 0.973868 0.137680 0.180627
14800.00000000 15980.00000000 -730.00000000 70 145 148 97.000000 1.000000 4.000000 1.000000 -60.708740 114.000000 226.000000 0.973868 0.137680 0.180627
14780.00000000 15980.00000000 -710.00000000 70 145 148 97.000000 1.000000 4.000000 1.000000 -60.708740 114.000000 226.000000 0.884868 -0.351234 0.306011
14800.00000000 15980.00000000 -720.00000000 70 145 148 97.000000 1.000000 4.000000 1.000000 -60.708740 114.000000 226.000000 0.963546 0.128386 0.234726
14780.00000000 15980.00000000 -710.00000000 70 145 148 97.000000 1.000000 4.000000 1.000000 -60.708740 114.000000 226.000000 0.884868 -0.351234 0.306011
14780.00000000 16000.00000000 -710.00000000 70 145 148 97.000000 1.000000 4.000000 1.000000 -60.708740 114.000000 226.000000 0.989561 0.035220 0.139743
14800.00000000 15970.00000000 -720.00000000 70 145 148 97.000000 1.000000 4.000000 1.000000 -60.708740 114.000000 226.000000 0.962069 -0.221814 0.158814
14800.00000000 15970.00000000 -720.00000000 70 145 148 97.000000 1.000000 4.000000 1.000000 -60.708740 114.000000 226.000000 0.962069 -0.221814 0.158814
14780.00000000 15990.00000000 -700.00000000 70 145 148 97.000000 1.000000 4.000000 1.000000 -60.708740 114.000000 226.000000 0.912014 -0.221138 0.345438
14780.00000000 15980.00000000 -720.00000000 70 145 148 97.000000 1.000000 4.000000 1.000000 -60.708740 114.000000 226.000000 0.955242 -0.293243 0.039015
14800.00000000 15990.00000000 -770.00000000 70 145 148 97.000000 1.000000 4.000000 1.000000 -60.708740 114.000000 226.000000 0.922564 -0.363770 0.128633
