//X Y Z R G B PointSourceId ScanDirectionFlag NumberOfReturns ReturnNumber GpsTime Intensity Classification Nx Ny Nz
-10440.00000000 -18000.00000000 -640.00000000 127 5 189 0.000000 0.000000 0.000000 0.000000 -60.708740 0.000000 44.000000 0.402690 0.460910 0.790824
-10310.00000000 -18080.00000000 -440.00000000 127 5 189 0.000000 0.000000 0.000000 0.000000 -60.708740 0.000000 44.000000 0.047064 0.683136 0.728773
-10290.00000000 -18110.00000000 -420.00000000 127 5 189 0.000000 0.000000 0.000000 0.000000 -60.708740 0.000000 44.000000 0.048749 0.536237 0.842658
-10290.00000000 -18140.00000000 -430.00000000 127 5 189 0.000000 0.000000 0.000000 0.000000 -60.708740 0.000000 44.000000 0.231901 0.297345 0.926179
-10350.00000000 -18070.00000000 -440.00000000 127 5 189 0.000000 0.000000 0.000000 0.000000 -60.708740 0.000000 44.000000 -0.036926 0.499184 0.865709
-10340.00000000 -18090.00000000 -430.00000000 127 5 189 0.000000 0.000000 0.000000 0.000000 -60.708740 0.000000 44.000000 0.252635 0.770457 0.585296
-10350.00000000 -18110.00000000 -450.00000000 127 5 189 0.000000 0.000000 0.000000 0.000000 -60.708740 0.000000 44.000000 0.156322 0.678405 0.717865
-10360.00000000 -18090.00000000 -500.00000000 127 5 189 0.000000 0.000000 0.000000 0.000000 -60.708740 0.000000 44.000000 -0.014492 0.436066 0.899798
-10390.00000000 -18090.00000000 -470.00000000 127 5 189 0.000000 0.000000 0.000000 0.000000 -60.708740 0.000000 44.000000 0.265097 0.413551 0.871033
-10310.00000000 -18130.00000000 -560.00000000 127 5 189 0.000000 0.000000 0.000000 0.000000 -60.708740 0.000000 44.000000 0.556177 0.330482 0.762527
-10310.00000000 -18130.00000000 -580.00000000 127 5 189 0.000000 0.000000 0.000000 0.000000 -60.708740 0.000000 44.000000 0.635568 0.413202 0.652163
-10310.00000000 -18070.00000000 -670.00000000 127 5 189 0.000000 0.000000 0.000000 0.000000 -60.708740 0.000000 44.000000 0.806807 0.576712 -0.128322
-10290.00000000 -18180.00000000 -560.00000000 127 5 189 0.000000 0.000000 0.000000 0.000000 -60.708740 0.000000 44.000000 0.562429 0.708428 0.426384
-10350.00000000 -18220.00000000 -530.00000000 127 5 189 0.000000 0.000000 0.000000 0.000000 -60.708740 0.000000 44.000000 0.282074 0.540510 0.792643
-10340.00000000 -18220.00000000 -550.00000000 127 5 189 0.000000 0.000000 0.000000 0.000000 -60.708740 0.000000 44.000000 0.555548 0.501840 0.662965
-10340.00000000 -18210.00000000 -680.00000000 127 5 189 0.000000 0.000000 0.000000 0.000000 -60.708740 0.000000 44.000000 0.754569 0.640559 -0.142513
-10380.00000000 -18210.00000000 -540.00000000 127 5 189 0.000000 0.000000 0.000000 0.000000 -60.708740 0.000000 44.000000 -0.140309 0.542035 0.828560
-10370.00000000 -18190.00000000 -560.00000000 127 5 189 0.000000 0.000000 0.000000 0.000000 -60.708740 0.000000 44.000000 0.525000 0.633039 0.568891
-10370.00000000 -18200.00000000 -550.00000000 127 5 189 0.000000 0.000000 0.000000 0.000000 -60.708740 0.000000 44.000000 0.228238 0.572924 0.787188
-10150.00000000 -18290.00000000 -270.00000000 127 5 189 0.000000 0.000000 0.000000 0.000000 -60.708740 0.000000 44.000000 0.441113 0.120561 0.889317
-10130.00000000 -18300.00000000 -270.00000000 127 5 189 0.000000 0.000000 0.000000 0.000000 -60.708740 0.000000 44.000000 0.126951 0.664624 0.736314
-10160.00000000 -18260.00000000 -310.00000000 127 5 189 0.000000 0.000000 0.000000 0.000000 -60.708740 0.000000 44.000000 0.535232 0.321139 0.781279
-10160.00000000 -18270.00000000 -300.00000000 127 5 189 0.000000 0.000000 0.000000 0.000000 -60.708740 0.000000 44.000000 0.738446 0.507165 0.444389
-10150.00000000 -18350.00000000 -210.00000000 127 5 189 0.000000 0.000000 0.000000 0.000000 -60.708740 0.000000 44.000000 0.263313 0.588118 0.764711
-10140.00000000 -18340.00000000 -230.00000000 127 5 189 0.000000 0.000000 0.000000 0.000000 -60.708740 0.000000 44.000000 0.632924 0.445886 0.632924
-10150.00000000 -18330.00000000 -240.00000000 127 5 189 0.000000 0.000000 0.000000 0.000000 -60.708740 0.000000 44.000000 0.489825 0.536634 0.687092
-10150.00000000 -18330.00000000 -240.00000000 127 5 189 0.000000 0.000000 0.000000 0.000000 -60.708740 0.000000 44.000000 0.489825 0.536634 0.687092
-10150.00000000 -18380.00000000 -230.00000000 127 5 189 0.000000 0.000000 0.000000 0.000000 -60.708740 0.000000 44.000000 0.301083 0.430780 0.850751
-10140.00000000 -18380.00000000 -220.00000000 127 5 189 0.000000 0.000000 0.000000 0.000000 -60.708740 0.000000 44.000000 0.073873 0.475296 0.876719
-10150.00000000 -18360.00000000 -220.00000000 127 5 189 0.000000 0.000000 0.000000 0.000000 -60.708740 0.000000 44.000000 0.545082 0.152980 0.824307
-10130.00000000 -18390.00000000 -200.00000000 127 5 189 0.000000 0.000000 0.000000 0.000000 -60.708740 0.000000 44.000000 0.401240 0.354403 0.844633
-10180.00000000 -18340.00000000 -240.00000000 127 5 189 0.000000 0.000000 0.000000 0.000000 -60.708740 0.000000 44.000000 0.279542 0.672497 0.685276
-10180.00000000 -18360.00000000 -210.00000000 127 5 189 0.000000 0.000000 0.000000 0.000000 -60.708740 0.000000 44.000000 0.528924 0.303377 0.792592
-10210.00000000 -18300.00000000 -260.00000000 127 5 189 0.000000 0.000000 0.000000 0.000000 -60.708740 0.000000 44.000000 0.442058 0.612209 0.655580
-10220.00000000 -18350.00000000 -210.00000000 127 5 189 0.000000 0.000000 0.000000 0.000000 -60.708740 0.000000 44.000000 0.126274 0.329943 0.935517
-10220.00000000 -18360.00000000 -230.00000000 127 5 189 0.000000 0.000000 0.000000 0.000000 -60.708740 0.000000 44.000000 0.497552 0.497552 0.710551
-10160.00000000 -18420.00000000 -200.00000000 127 5 189 0.000000 0.000000 0.000000 0.000000 -60.708740 0.000000 44.000000 -0.044040 0.683325 0.728785
-10120.00000000 -18400.00000000 -210.00000000 127 5 189 0.000000 0.000000 0.000000 0.000000 -60.708740 0.000000 44.000000 0.558559 0.528184 0.639558
-10170.00000000 -18430.00000000 -190.00000000 127 5 189 0.000000 0.000000 0.000000 0.000000 -60.708740 0.000000 44.000000 0.297035 0.640633 0.708068
-10180.00000000 -18300.00000000 -480.00000000 127 5 189 0.000000 0.000000 0.000000 0.000000 -60.708740 0.000000 44.000000 0.486466 0.611029 0.624495
-10220.00000000 -18290.00000000 -420.00000000 127 5 189 0.000000 0.000000 0.000000 0.000000 -60.708740 0.000000 44.000000 0.155540 0.519949 0.839917
-10200.00000000 -18280.00000000 -430.00000000 127 5 189 0.000000 0.000000 0.000000 0.000000 -60.708740 0.000000 44.000000 0.614967 0.598119 0.513877
-10200.00000000 -18240.00000000 -450.00000000 127 5 189 0.000000 0.000000 0.000000 0.000000 -60.708740 0.000000 44.000000 0.370950 0.480147 0.794893
-10200.00000000 -18240.00000000 -450.00000000 127 5 189 0.000000 0.000000 0.000000 0.000000 -60.708740 0.000000 44.000000 0.370950 0.480147 0.794893
-10200.00000000 -18290.00000000 -470.00000000 127 5 189 0.000000 0.000000 0.000000 0.000000 -60.708740 0.000000 44.000000 0.555964 0.439792 0.705327
-10260.00000000 -18290.00000000 -500.00000000 127 5 189 0.000000 0.000000 0.000000 0.000000 -60.708740 0.000000 44.000000 0.430171 0.582974 0.689271
-10270.00000000 -18330.00000000 -370.00000000 127 5 189 0.000000 0.000000 0.000000 0.000000 -60.708740 0.000000 44.000000 0.148713 0.306975 0.940027
-10270.00000000 -18330.00000000 -370.00000000 127 5 189 0.000000 0.000000 0.000000 0.000000 -60.708740 0.000000 44.000000 0.148713 0.306975 0.940027
-10280.00000000 -18340.00000000 -360.00000000 127 5 189 0.000000 0.000000 0.000000 0.000000 -60.708740 0.000000 44.000000 0.209412 0.273206 0.938885
-10260.00000000 -18310.00000000 -430.00000000 127 5 189 0.000000 0.000000 0.000000 0.000000 -60.708740 0.000000 44.000000 0.343744 0.627210 0.698891
-10270.00000000 -18380.00000000 -360.00000000 127 5 189 0.000000 0.000000 0.000000 0.000000 -60.708740 0.000000 44.000000 0.191281 0.079193 0.978335
-10130.00000000 -18300.00000000 -540.00000000 127 5 189 0.000000 0.000000 0.000000 0.000000 -60.708740 0.000000 44.000000 0.642801 0.531450 0.551695
-10170.00000000 -18290.00000000 -530.00000000 127 5 189 0.000000 0.000000 0.000000 0.000000 -60.708740 0.000000 44.000000 0.588628 0.780203 0.211659
-10190.00000000 -18290.00000000 -590.00000000 127 5 189 0.000000 0.000000 0.000000 0.000000 -60.708740 0.000000 44.000000 0.802739 0.596202 -0.012392
-10130.00000000 -18310.00000000 -590.00000000 127 5 189 0.000000 0.000000 0.000000 0.000000 -60.708740 0.000000 44.000000 0.801613 0.587654 -0.109910
-10230.00000000 -18290.00000000 -620.00000000 127 5 189 0.000000 0.000000 0.000000 0.000000 -60.708740 0.000000 44.000000 0.914485 0.226101 -0.335551
-10230.00000000 -18370.00000000 -620.00000000 127 5 189 0.000000 0.000000 0.000000 0.000000 -60.708740 0.000000 44.000000 0.845217 0.496921 -0.196667
-10250.00000000 -18310.00000000 -680.00000000 127 5 189 0.000000 0.000000 0.000000 0.000000 -60.708740 0.000000 44.000000 0.707764 0.537901 -0.457965
-10180.00000000 -18400.00000000 -580.00000000 127 5 189 0.000000 0.000000 0.000000 0.000000 -60.708740 0.000000 44.000000 0.834187 0.370574 -0.408420
-10120.00000000 -18400.00000000 -630.00000000 127 5 189 0.000000 0.000000 0.000000 0.000000 -60.708740 0.000000 44.000000 0.848795 0.365994 -0.381569
-10180.00000000 -18400.00000000 -620.00000000 127 5 189 0.000000 0.000000 0.000000 0.000000 -60.708740 0.000000 44.000000 0.806590 0.581970 -0.103559
-10180.00000000 -18460.00000000 -610.00000000 127 5 189 0.000000 0.000000 0.000000 0.000000 -60.708740 0.000000 44.000000 0.783180 0.397265 -0.478340
-10150.00000000 -18490.00000000 -550.00000000 127 5 189 0.000000 0.000000 0.000000 0.000000 -60.708740 0.000000 44.000000 0.720364 0.688218 -0.086210
-10140.00000000 -18520.00000000 -560.00000000 127 5 189 0.000000 0.000000 0.000000 0.000000 -60.708740 0.000000 44.000000 0.880906 0.397683 -0.256618
-10140.00000000 -18520.00000000 -580.00000000 127 5 189 0.000000 0.000000 0.000000 0.000000 -60.708740 0.000000 44.000000 0.925139 0.027325 -0.378643
-10140.00000000 -18540.00000000 -550.00000000 127 5 189 0.000000 0.000000 0.000000 0.000000 -60.708740 0.000000 44.000000 0.903871 0.290477 -0.314069
-10140.00000000 -18560.00000000 -530.00000000 127 5 189 0.000000 0.000000 0.000000 0.000000 -60.708740 0.000000 44.000000 0.893196 0.332525 -0.302702
-10180.00000000 -18530.00000000 -650.00000000 127 5 189 0.000000 0.000000 0.000000 0.000000 -60.708740 0.000000 44.000000 0.866560 -0.109926 -0.486816
-10180.00000000 -18530.00000000 -620.00000000 127 5 189 0.000000 0.000000 0.000000 0.000000 -60.708740 0.000000 44.000000 0.913605 -0.086035 -0.397398
-10170.00000000 -18560.00000000 -640.00000000 127 5 189 0.000000 0.000000 0.000000 0.000000 -60.708740 0.000000 44.000000 -0.606288 0.020811 0.794973
-10210.00000000 -18460.00000000 -590.00000000 127 5 189 0.000000 0.000000 0.000000 0.000000 -60.708740 0.000000 44.000000 0.824309 0.392301 -0.408184
-10220.00000000 -18410.00000000 -630.00000000 127 5 189 0.000000 0.000000 0.000000 0.000000 -60.708740 0.000000 44.000000 0.925133 -0.090487 -0.368703
-10220.00000000 -18410.00000000 -620.00000000 127 5 189 0.000000 0.000000 0.000000 0.000000 -60.708740 0.000000 44.000000 0.883019 0.076482 -0.463064
-10220.00000000 -18450.00000000 -610.00000000 127 5 189 0.000000 0.000000 0.000000 0.000000 -60.708740 0.000000 44.000000 0.808614 0.012398 -0.588208
-10220.00000000 -18440.00000000 -660.00000000 127 5 189 0.000000 0.000000 0.000000 0.000000 -60.708740 0.000000 44.000000 0.712954 0.354030 -0.605277
-10270.00000000 -18420.00000000 -650.00000000 127 5 189 0.000000 0.000000 0.000000 0.000000 -60.708740 0.000000 44.000000 0.933021 -0.147030 -0.328412
-10270.00000000 -18440.00000000 -630.00000000 127 5 189 0.000000 0.000000 0.000000 0.000000 -60.708740 0.000000 44.000000 -0.629880 0.052608 0.774909
-10200.00000000 -18500.00000000 -600.00000000 127 5 189 0.000000 0.000000 0.000000 0.000000 -60.708740 0.000000 44.000000 0.884454 0.423893 -0.195079
-10270.00000000 -18550.00000000 -570.00000000 127 5 189 0.000000 0.000000 0.000000 0.000000 -60.708740 0.000000 44.000000 -0.584442 0.299426 0.754170
-10280.00000000 -18550.00000000 -570.00000000 127 5 189 0.000000 0.000000 0.000000 0.000000 -60.708740 0.000000 44.000000 -0.342151 0.075300 0.936623
-10200.00000000 -18520.00000000 -650.00000000 127 5 189 0.000000 0.000000 0.000000 0.000000 -60.708740 0.000000 44.000000 0.724373 -0.149714 -0.672956
-10200.00000000 -18500.00000000 -680.00000000 127 5 189 0.000000 0.000000 0.000000 0.000000 -60.708740 0.000000 44.000000 0.690715 -0.369147 -0.621807
-10220.00000000 -18480.00000000 -680.00000000 127 5 189 0.000000 0.000000 0.000000 0.000000 -60.708740 0.000000 44.000000 -0.561909 0.378429 0.735561
-10200.00000000 -18530.00000000 -660.00000000 127 5 189 0.000000 0.000000 0.000000 0.000000 -60.708740 0.000000 44.000000 0.673509 -0.297373 -0.676724
-10260.00000000 -18490.00000000 -650.00000000 127 5 189 0.000000 0.000000 0.000000 0.000000 -60.708740 0.000000 44.000000 -0.345416 0.133487 0.928907
-10280.00000000 -18550.00000000 -690.00000000 127 5 189 0.000000 0.000000 0.000000 0.000000 -60.708740 0.000000 44.000000 -0.138882 0.382979 0.913257
-10300.00000000 -18320.00000000 -370.00000000 127 5 189 0.000000 0.000000 0.000000 0.000000 -60.708740 0.000000 44.000000 0.021033 0.688487 0.724944
-10320.00000000 -18350.00000000 -370.00000000 127 5 189 0.000000 0.000000 0.000000 0.000000 -60.708740 0.000000 44.000000 -0.241716 0.418874 0.875282
-10320.00000000 -18350.00000000 -370.00000000 127 5 189 0.000000 0.000000 0.000000 0.000000 -60.708740 0.000000 44.000000 -0.241716 0.418874 0.875282
-10290.00000000 -18370.00000000 -390.00000000 127 5 189 0.000000 0.000000 0.000000 0.000000 -60.708740 0.000000 44.000000 0.175865 0.065800 0.982213
-10310.00000000 -18360.00000000 -360.00000000 127 5 189 0.000000 0.000000 0.000000 0.000000 -60.708740 0.000000 44.000000 -0.234929 0.388593 0.890957
-10340.00000000 -18240.00000000 -580.00000000 127 5 189 0.000000 0.000000 0.000000 0.000000 -60.708740 0.000000 44.000000 0.701960 0.511881 0.495207
-10310.00000000 -18250.00000000 -590.00000000 127 5 189 0.000000 0.000000 0.000000 0.000000 -60.708740 0.000000 44.000000 0.507964 0.521376 0.685668
-10350.00000000 -18270.00000000 -580.00000000 127 5 189 0.000000 0.000000 0.000000 0.000000 -60.708740 0.000000 44.000000 0.544127 0.719439 0.431663
-10320.00000000 -18250.00000000 -660.00000000 127 5 189 0.000000 0.000000 0.000000 0.000000 -60.708740 0.000000 44.000000 0.874245 0.343290 -0.343290
-10320.00000000 -18250.00000000 -660.00000000 127 5 189 0.000000 0.000000 0.000000 0.000000 -60.708740 0.000000 44.000000 0.874245 0.343290 -0.343290
-10360.00000000 -18280.00000000 -660.00000000 127 5 189 0.000000 0.000000 0.000000 0.000000 -60.708740 0.000000 44.000000 0.739413 0.515448 -0.433108
-10330.00000000 -18300.00000000 -660.00000000 127 5 189 0.000000 0.000000 0.000000 0.000000 -60.708740 0.000000 44.000000 0.837662 0.048945 -0.543991
-10310.00000000 -18390.00000000 -620.00000000 127 5 189 0.000000 0.000000 0.000000 0.000000 -60.708740 0.000000 44.000000 0.644510 0.272126 -0.714531
-10330.00000000 -18310.00000000 -630.00000000 127 5 189 0.000000 0.000000 0.000000 0.000000 -60.708740 0.000000 44.000000 0.745004 0.626303 -0.229593
-10330.00000000 -18330.00000000 -660.00000000 127 5 189 0.000000 0.000000 0.000000 0.000000 -60.708740 0.000000 44.000000 -0.541826 -0.254518 0.801028
-10340.00000000 -18320.00000000 -680.00000000 127 5 189 0.000000 0.000000 0.000000 0.000000 -60.708740 0.000000 44.000000 -0.588865 0.125447 0.798436
-10330.00000000 -18330.00000000 -660.00000000 127 5 189 0.000000 0.000000 0.000000 0.000000 -60.708740 0.000000 44.000000 -0.541826 -0.254518 0.801028
-10350.00000000 -18310.00000000 -680.00000000 127 5 189 0.000000 0.000000 0.000000 0.000000 -60.708740 0.000000 44.000000 -0.561624 -0.183171 0.806862
-10360.00000000 -18310.00000000 -680.00000000 127 5 189 0.000000 0.000000 0.000000 0.000000 -60.708740 0.000000 44.000000 0.789635 -0.355416 -0.500156
-10370.00000000 -18290.00000000 -690.00000000 127 5 189 0.000000 0.000000 0.000000 0.000000 -60.708740 0.000000 44.000000 0.594710 -0.198237 -0.779116
-10370.00000000 -18330.00000000 -590.00000000 127 5 189 0.000000 0.000000 0.000000 0.000000 -60.708740 0.000000 44.000000 0.459305 0.161850 0.873409
-10380.00000000 -18350.00000000 -640.00000000 127 5 189 0.000000 0.000000 0.000000 0.000000 -60.708740 0.000000 44.000000 0.085086 0.461699 0.882946
-10370.00000000 -18350.00000000 -640.00000000 127 5 189 0.000000 0.000000 0.000000 0.000000 -60.708740 0.000000 44.000000 0.692714 -0.189764 -0.695800
-10390.00000000 -18320.00000000 -690.00000000 127 5 189 0.000000 0.000000 0.000000 0.000000 -60.708740 0.000000 44.000000 -0.164262 0.349583 0.922394
-10370.00000000 -18370.00000000 -690.00000000 127 5 189 0.000000 0.000000 0.000000 0.000000 -60.708740 0.000000 44.000000 -0.095314 0.505023 0.857827
-10310.00000000 -18430.00000000 -670.00000000 127 5 189 0.000000 0.000000 0.000000 0.000000 -60.708740 0.000000 44.000000 -0.647303 0.020971 0.761944
-10300.00000000 -18430.00000000 -660.00000000 127 5 189 0.000000 0.000000 0.000000 0.000000 -60.708740 0.000000 44.000000 -0.355365 0.134126 0.925055
-10300.00000000 -18440.00000000 -660.00000000 127 5 189 0.000000 0.000000 0.000000 0.000000 -60.708740 0.000000 44.000000 -0.286284 0.129161 0.949399
-10360.00000000 -18400.00000000 -630.00000000 127 5 189 0.000000 0.000000 0.000000 0.000000 -60.708740 0.000000 44.000000 -0.532946 0.261003 0.804889
-10340.00000000 -18400.00000000 -630.00000000 127 5 189 0.000000 0.000000 0.000000 0.000000 -60.708740 0.000000 44.000000 0.724938 -0.364924 -0.584205
-10300.00000000 -18560.00000000 -550.00000000 127 5 189 0.000000 0.000000 0.000000 0.000000 -60.708740 0.000000 44.000000 0.167386 0.396289 0.902739
-10300.00000000 -18550.00000000 -590.00000000 127 5 189 0.000000 0.000000 0.000000 0.000000 -60.708740 0.000000 44.000000 0.085762 0.485047 0.870273
-10310.00000000 -18480.00000000 -650.00000000 127 5 189 0.000000 0.000000 0.000000 0.000000 -60.708740 0.000000 44.000000 -0.045807 0.523315 0.850907
-10310.00000000 -18500.00000000 -620.00000000 127 5 189 0.000000 0.000000 0.000000 0.000000 -60.708740 0.000000 44.000000 0.080116 0.319149 0.944312
-10310.00000000 -18560.00000000 -690.00000000 127 5 189 0.000000 0.000000 0.000000 0.000000 -60.708740 0.000000 44.000000 -0.278332 0.216791 0.935699
-10360.00000000 -18520.00000000 -680.00000000 127 5 189 0.000000 0.000000 0.000000 0.000000 -60.708740 0.000000 44.000000 -0.149647 0.469281 0.870277
-10360.00000000 -18510.00000000 -680.00000000 127 5 189 0.000000 0.000000 0.000000 0.000000 -60.708740 0.000000 44.000000 0.293380 0.129945 0.947123
-10330.00000000 -18550.00000000 -610.00000000 127 5 189 0.000000 0.000000 0.000000 0.000000 -60.708740 0.000000 44.000000 0.139177 0.773707 0.618068
-10380.00000000 -18540.00000000 -690.00000000 127 5 189 0.000000 0.000000 0.000000 0.000000 -60.708740 0.000000 44.000000 0.374167 0.159551 0.913533
-10380.00000000 -18540.00000000 -690.00000000 127 5 189 0.000000 0.000000 0.000000 0.000000 -60.708740 0.000000 44.000000 0.374167 0.159551 0.913533
-10390.00000000 -18510.00000000 -680.00000000 127 5 189 0.000000 0.000000 0.000000 0.000000 -60.708740 0.000000 44.000000 0.667572 0.189634 0.719991
-10380.00000000 -18500.00000000 -650.00000000 127 5 189 0.000000 0.000000 0.000000 0.000000 -60.708740 0.000000 44.000000 0.434845 0.340655 0.833585
-10380.00000000 -18510.00000000 -680.00000000 127 5 189 0.000000 0.000000 0.000000 0.000000 -60.708740 0.000000 44.000000 0.187031 0.495259 0.848374
-10060.00000000 -18040.00000000 -730.00000000 127 5 189 0.000000 0.000000 0.000000 0.000000 -60.708740 0.000000 44.000000 0.899897 0.309849 0.306884
-10040.00000000 -18130.00000000 -730.00000000 127 5 189 0.000000 0.000000 0.000000 0.000000 -60.708740 0.000000 44.000000 0.946228 0.223206 0.234161
-10040.00000000 -18130.00000000 -740.00000000 127 5 189 0.000000 0.000000 0.000000 0.000000 -60.708740 0.000000 44.000000 0.969574 0.139608 -0.201087
-10040.00000000 -18130.00000000 -740.00000000 127 5 189 0.000000 0.000000 0.000000 0.000000 -60.708740 0.000000 44.000000 0.969574 0.139608 -0.201087
-10050.00000000 -18180.00000000 -720.00000000 127 5 189 0.000000 0.000000 0.000000 0.000000 -60.708740 0.000000 44.000000 0.980379 0.196541 0.015119
-10060.00000000 -18200.00000000 -750.00000000 127 5 189 0.000000 0.000000 0.000000 0.000000 -60.708740 0.000000 44.000000 0.843799 -0.051604 -0.534173
-10050.00000000 -18180.00000000 -700.00000000 127 5 189 0.000000 0.000000 0.000000 0.000000 -60.708740 0.000000 44.000000 0.993517 -0.041257 0.105931
-10060.00000000 -18190.00000000 -740.00000000 127 5 189 0.000000 0.000000 0.000000 0.000000 -60.708740 0.000000 44.000000 0.899327 0.196137 -0.390822
-9990.00000000 -18240.00000000 -740.00000000 127 5 189 0.000000 0.000000 0.000000 0.000000 -60.708740 0.000000 44.000000 0.978335 -0.079193 -0.191281
-10000.00000000 -18270.00000000 -770.00000000 127 5 189 0.000000 0.000000 0.000000 0.000000 -60.708740 0.000000 44.000000 0.963009 0.218212 -0.158106
-10000.00000000 -18290.00000000 -780.00000000 127 5 189 0.000000 0.000000 0.000000 0.000000 -60.708740 0.000000 44.000000 0.989576 -0.092081 -0.110730
-10190.00000000 -18140.00000000 -710.00000000 127 5 189 0.000000 0.000000 0.000000 0.000000 -60.708740 0.000000 44.000000 0.776735 0.599021 -0.194567
-10360.00000000 -17920.00000000 -790.00000000 127 5 189 0.000000 0.000000 0.000000 0.000000 -60.708740 0.000000 44.000000 0.850884 0.484719 0.202592
-10360.00000000 -17920.00000000 -800.00000000 127 5 189 0.000000 0.000000 0.000000 0.000000 -60.708740 0.000000 44.000000 0.984427 0.012606 0.175340
-10340.00000000 -17980.00000000 -710.00000000 127 5 189 0.000000 0.000000 0.000000 0.000000 -60.708740 0.000000 44.000000 0.811543 0.507018 0.290397
-10350.00000000 -17980.00000000 -790.00000000 127 5 189 0.000000 0.000000 0.000000 0.000000 -60.708740 0.000000 44.000000 0.878109 0.477616 0.028413
-10300.00000000 -18050.00000000 -800.00000000 127 5 189 0.000000 0.000000 0.000000 0.000000 -60.708740 0.000000 44.000000 0.743578 0.436914 -0.506160
-10400.00000000 -17950.00000000 -730.00000000 127 5 189 0.000000 0.000000 0.000000 0.000000 -60.708740 0.000000 44.000000 0.858408 0.511187 0.042714
-10440.00000000 -17970.00000000 -760.00000000 127 5 189 0.000000 0.000000 0.000000 0.000000 -60.708740 0.000000 44.000000 0.688214 0.691335 0.220041
-10380.00000000 -17930.00000000 -840.00000000 127 5 189 0.000000 0.000000 0.000000 0.000000 -60.708740 0.000000 44.000000 0.954378 0.293557 -0.054645
-10440.00000000 -17900.00000000 -800.00000000 127 5 189 0.000000 0.000000 0.000000 0.000000 -60.708740 0.000000 44.000000 0.798651 0.505334 -0.326793
-10370.00000000 -18040.00000000 -700.00000000 127 5 189 0.000000 0.000000 0.000000 0.000000 -60.708740 0.000000 44.000000 0.799678 0.594336 -0.085318
-10400.00000000 -18040.00000000 -770.00000000 127 5 189 0.000000 0.000000 0.000000 0.000000 -60.708740 0.000000 44.000000 0.707044 0.585083 -0.397197
-10440.00000000 -18040.00000000 -890.00000000 127 5 189 0.000000 0.000000 0.000000 0.000000 -60.708740 0.000000 44.000000 -0.299787 0.445797 0.843441
-10360.00000000 -18170.00000000 -770.00000000 127 5 189 0.000000 0.000000 0.000000 0.000000 -60.708740 0.000000 44.000000 -0.593629 -0.148033 0.791006
-10360.00000000 -18170.00000000 -770.00000000 127 5 189 0.000000 0.000000 0.000000 0.000000 -60.708740 0.000000 44.000000 -0.593629 -0.148033 0.791006
-10310.00000000 -18160.00000000 -820.00000000 127 5 189 0.000000 0.000000 0.000000 0.000000 -60.708740 0.000000 44.000000 -0.547760 0.237414 0.802243
-10410.00000000 -18060.00000000 -730.00000000 127 5 189 0.000000 0.000000 0.000000 0.000000 -60.708740 0.000000 44.000000 0.871978 0.488362 0.034009
-10370.00000000 -18140.00000000 -780.00000000 127 5 189 0.000000 0.000000 0.000000 0.000000 -60.708740 0.000000 44.000000 -0.611151 -0.018016 0.791309
-10440.00000000 -18090.00000000 -790.00000000 127 5 189 0.000000 0.000000 0.000000 0.000000 -60.708740 0.000000 44.000000 -0.460986 -0.070601 0.884595
-10420.00000000 -18190.00000000 -870.00000000 127 5 189 0.000000 0.000000 0.000000 0.000000 -60.708740 0.000000 44.000000 -0.125145 0.198462 0.972086
-10250.00000000 -18260.00000000 -750.00000000 127 5 189 0.000000 0.000000 0.000000 0.000000 -60.708740 0.000000 44.000000 -0.716664 0.073838 0.693499
-10260.00000000 -18370.00000000 -700.00000000 127 5 189 0.000000 0.000000 0.000000 0.000000 -60.708740 0.000000 44.000000 0.862324 -0.138146 -0.487148
-10280.00000000 -18380.00000000 -710.00000000 127 5 189 0.000000 0.000000 0.000000 0.000000 -60.708740 0.000000 44.000000 -0.481664 0.426150 0.765765
-10280.00000000 -18350.00000000 -770.00000000 127 5 189 0.000000 0.000000 0.000000 0.000000 -60.708740 0.000000 44.000000 -0.579482 -0.270004 0.768959
-10260.00000000 -18450.00000000 -720.00000000 127 5 189 0.000000 0.000000 0.000000 0.000000 -60.708740 0.000000 44.000000 -0.291723 -0.013540 0.956407
-10230.00000000 -18480.00000000 -700.00000000 127 5 189 0.000000 0.000000 0.000000 0.000000 -60.708740 0.000000 44.000000 0.672449 0.189270 -0.715535
-10220.00000000 -18510.00000000 -700.00000000 127 5 189 0.000000 0.000000 0.000000 0.000000 -60.708740 0.000000 44.000000 0.821108 -0.182301 -0.540877
-10240.00000000 -18470.00000000 -700.00000000 127 5 189 0.000000 0.000000 0.000000 0.000000 -60.708740 0.000000 44.000000 -0.497468 -0.265006 0.826013
-10350.00000000 -18260.00000000 -730.00000000 127 5 189 0.000000 0.000000 0.000000 0.000000 -60.708740 0.000000 44.000000 0.743572 0.295830 -0.599655
-10350.00000000 -18300.00000000 -710.00000000 127 5 189 0.000000 0.000000 0.000000 0.000000 -60.708740 0.000000 44.000000 0.758719 -0.249765 -0.601634
-10330.00000000 -18290.00000000 -810.00000000 127 5 189 0.000000 0.000000 0.000000 0.000000 -60.708740 0.000000 44.000000 -0.526650 0.530015 0.664623
-10310.00000000 -18320.00000000 -760.00000000 127 5 189 0.000000 0.000000 0.000000 0.000000 -60.708740 0.000000 44.000000 0.618459 -0.275047 -0.736110
-10340.00000000 -18350.00000000 -710.00000000 127 5 189 0.000000 0.000000 0.000000 0.000000 -60.708740 0.000000 44.000000 -0.245686 0.471535 0.846932
-10380.00000000 -18300.00000000 -710.00000000 127 5 189 0.000000 0.000000 0.000000 0.000000 -60.708740 0.000000 44.000000 -0.196558 -0.001149 0.980491
-10390.00000000 -18280.00000000 -700.00000000 127 5 189 0.000000 0.000000 0.000000 0.000000 -60.708740 0.000000 44.000000 -0.366354 -0.196825 0.909420
-10390.00000000 -18280.00000000 -710.00000000 127 5 189 0.000000 0.000000 0.000000 0.000000 -60.708740 0.000000 44.000000 -0.139293 0.389739 0.910330
-10440.00000000 -18240.00000000 -710.00000000 127 5 189 0.000000 0.000000 0.000000 0.000000 -60.708740 0.000000 44.000000 0.211625 0.770808 0.600891
-10410.00000000 -18260.00000000 -700.00000000 127 5 189 0.000000 0.000000 0.000000 0.000000 -60.708740 0.000000 44.000000 -0.464351 0.245116 0.851056
-10410.00000000 -18260.00000000 -700.00000000 127 5 189 0.000000 0.000000 0.000000 0.000000 -60.708740 0.000000 44.000000 -0.464351 0.245116 0.851056
-10410.00000000 -18290.00000000 -710.00000000 127 5 189 0.000000 0.000000 0.000000 0.000000 -60.708740 0.000000 44.000000 0.119697 0.604398 0.787639
-10440.00000000 -18280.00000000 -700.00000000 127 5 189 0.000000 0.000000 0.000000 0.000000 -60.708740 0.000000 44.000000 0.357771 0.539084 0.762488
-10420.00000000 -18290.00000000 -700.00000000 127 5 189 0.000000 0.000000 0.000000 0.000000 -60.708740 0.000000 44.000000 0.325771 0.550441 0.768692
-10410.00000000 -18230.00000000 -810.00000000 127 5 189 0.000000 0.000000 0.000000 0.000000 -60.708740 0.000000 44.000000 -0.241738 0.424918 0.872358
-10410.00000000 -18240.00000000 -800.00000000 127 5 189 0.000000 0.000000 0.000000 0.000000 -60.708740 0.000000 44.000000 -0.329049 0.534504 0.778481
-10440.00000000 -18360.00000000 -790.00000000 127 5 189 0.000000 0.000000 0.000000 0.000000 -60.708740 0.000000 44.000000 -0.138734 0.500904 0.854311
-10370.00000000 -18240.00000000 -880.00000000 127 5 189 0.000000 0.000000 0.000000 0.000000 -60.708740 0.000000 44.000000 -0.337190 -0.091961 0.936934
-10390.00000000 -18260.00000000 -880.00000000 127 5 189 0.000000 0.000000 0.000000 0.000000 -60.708740 0.000000 44.000000 -0.374785 0.304987 0.875511
-10360.00000000 -18470.00000000 -730.00000000 127 5 189 0.000000 0.000000 0.000000 0.000000 -60.708740 0.000000 44.000000 -0.145296 0.305530 0.941032
-10340.00000000 -18470.00000000 -730.00000000 127 5 189 0.000000 0.000000 0.000000 0.000000 -60.708740 0.000000 44.000000 -0.383265 0.211306 0.899143
-10310.00000000 -18490.00000000 -700.00000000 127 5 189 0.000000 0.000000 0.000000 0.000000 -60.708740 0.000000 44.000000 -0.435774 -0.030651 0.899534
-10340.00000000 -18510.00000000 -710.00000000 127 5 189 0.000000 0.000000 0.000000 0.000000 -60.708740 0.000000 44.000000 -0.005849 0.214077 0.976799
-10330.00000000 -18500.00000000 -710.00000000 127 5 189 0.000000 0.000000 0.000000 0.000000 -60.708740 0.000000 44.000000 0.001012 0.037461 0.999298
-10340.00000000 -18500.00000000 -710.00000000 127 5 189 0.000000 0.000000 0.000000 0.000000 -60.708740 0.000000 44.000000 -0.139899 0.056653 0.988544
-10350.00000000 -18530.00000000 -700.00000000 127 5 189 0.000000 0.000000 0.000000 0.000000 -60.708740 0.000000 44.000000 0.029956 0.114278 0.992997
-10380.00000000 -18430.00000000 -730.00000000 127 5 189 0.000000 0.000000 0.000000 0.000000 -60.708740 0.000000 44.000000 -0.018120 0.656519 0.754091
-10380.00000000 -18420.00000000 -740.00000000 127 5 189 0.000000 0.000000 0.000000 0.000000 -60.708740 0.000000 44.000000 -0.081624 0.294106 0.952281
-10370.00000000 -18420.00000000 -770.00000000 127 5 189 0.000000 0.000000 0.000000 0.000000 -60.708740 0.000000 44.000000 -0.150913 0.021559 0.988312
-10380.00000000 -18440.00000000 -770.00000000 127 5 189 0.000000 0.000000 0.000000 0.000000 -60.708740 0.000000 44.000000 -0.122749 0.365489 0.922687
-10420.00000000 -18470.00000000 -750.00000000 127 5 189 0.000000 0.000000 0.000000 0.000000 -60.708740 0.000000 44.000000 0.398112 0.057639 0.915524
-10430.00000000 -18470.00000000 -820.00000000 127 5 189 0.000000 0.000000 0.000000 0.000000 -60.708740 0.000000 44.000000 0.009814 0.114494 0.993375
-10370.00000000 -18480.00000000 -730.00000000 127 5 189 0.000000 0.000000 0.000000 0.000000 -60.708740 0.000000 44.000000 0.248793 0.514584 0.820552
-10370.00000000 -18480.00000000 -730.00000000 127 5 189 0.000000 0.000000 0.000000 0.000000 -60.708740 0.000000 44.000000 0.248793 0.514584 0.820552
-10370.00000000 -18500.00000000 -720.00000000 127 5 189 0.000000 0.000000 0.000000 0.000000 -60.708740 0.000000 44.000000 0.234485 0.413710 0.879694
-10370.00000000 -18510.00000000 -710.00000000 127 5 189 0.000000 0.000000 0.000000 0.000000 -60.708740 0.000000 44.000000 0.112491 0.176771 0.977803
-10390.00000000 -18490.00000000 -730.00000000 127 5 189 0.000000 0.000000 0.000000 0.000000 -60.708740 0.000000 44.000000 0.351776 0.145994 0.924629
-10430.00000000 -18500.00000000 -730.00000000 127 5 189 0.000000 0.000000 0.000000 0.000000 -60.708740 0.000000 44.000000 0.034741 0.557248 0.829619
-10410.00000000 -18520.00000000 -730.00000000 127 5 189 0.000000 0.000000 0.000000 0.000000 -60.708740 0.000000 44.000000 0.457395 0.155369 0.875585
-10420.00000000 -18500.00000000 -750.00000000 127 5 189 0.000000 0.000000 0.000000 0.000000 -60.708740 0.000000 44.000000 0.277496 0.588291 0.759546
-10410.00000000 -18500.00000000 -750.00000000 127 5 189 0.000000 0.000000 0.000000 0.000000 -60.708740 0.000000 44.000000 0.239746 0.763114 0.600149
-10420.00000000 -18530.00000000 -730.00000000 127 5 189 0.000000 0.000000 0.000000 0.000000 -60.708740 0.000000 44.000000 0.334257 0.203399 0.920273
-9730.00000000 -18870.00000000 -280.00000000 127 5 189 0.000000 0.000000 0.000000 0.000000 -60.708740 0.000000 44.000000 0.963404 0.155556 -0.218302
-9770.00000000 -19320.00000000 -130.00000000 127 5 189 0.000000 0.000000 0.000000 0.000000 -60.708740 0.000000 44.000000 0.723554 0.682292 -0.104628
-9640.00000000 -19320.00000000 -340.00000000 127 5 189 0.000000 0.000000 0.000000 0.000000 -60.708740 0.000000 44.000000 0.926322 0.355433 -0.124882
-9640.00000000 -19320.00000000 -390.00000000 127 5 189 0.000000 0.000000 0.000000 0.000000 -60.708740 0.000000 44.000000 0.831331 0.405412 -0.380172
-9660.00000000 -19270.00000000 -410.00000000 127 5 189 0.000000 0.000000 0.000000 0.000000 -60.708740 0.000000 44.000000 0.829391 0.105664 -0.548585
-9690.00000000 -19330.00000000 -410.00000000 127 5 189 0.000000 0.000000 0.000000 0.000000 -60.708740 0.000000 44.000000 -0.580303 0.094064 0.808950
-9650.00000000 -19330.00000000 -390.00000000 127 5 189 0.000000 0.000000 0.000000 0.000000 -60.708740 0.000000 44.000000 0.748025 0.264102 -0.608858
-9690.00000000 -19340.00000000 -440.00000000 127 5 189 0.000000 0.000000 0.000000 0.000000 -60.708740 0.000000 44.000000 0.948714 0.031582 -0.314554
-9640.00000000 -19330.00000000 -390.00000000 127 5 189 0.000000 0.000000 0.000000 0.000000 -60.708740 0.000000 44.000000 0.823106 0.417104 -0.385385
-9700.00000000 -19320.00000000 -450.00000000 127 5 189 0.000000 0.000000 0.000000 0.000000 -60.708740 0.000000 44.000000 -0.642242 0.363006 0.675093
-9760.00000000 -19260.00000000 -460.00000000 127 5 189 0.000000 0.000000 0.000000 0.000000 -60.708740 0.000000 44.000000 0.873420 -0.028437 -0.486136
-9760.00000000 -19330.00000000 -530.00000000 127 5 189 0.000000 0.000000 0.000000 0.000000 -60.708740 0.000000 44.000000 0.864609 -0.153611 -0.478388
-9860.00000000 -18700.00000000 -340.00000000 127 5 189 0.000000 0.000000 0.000000 0.000000 -60.708740 0.000000 44.000000 0.987044 0.031025 0.157421
-9850.00000000 -18690.00000000 -330.00000000 127 5 189 0.000000 0.000000 0.000000 0.000000 -60.708740 0.000000 44.000000 0.914455 0.393476 -0.094599
-9880.00000000 -18730.00000000 -350.00000000 127 5 189 0.000000 0.000000 0.000000 0.000000 -60.708740 0.000000 44.000000 0.907026 0.191180 0.375172
-9860.00000000 -18770.00000000 -350.00000000 127 5 189 0.000000 0.000000 0.000000 0.000000 -60.708740 0.000000 44.000000 0.947102 0.319091 0.034325
-9790.00000000 -18820.00000000 -340.00000000 127 5 189 0.000000 0.000000 0.000000 0.000000 -60.708740 0.000000 44.000000 0.922690 0.194176 0.333075
-9860.00000000 -18830.00000000 -310.00000000 127 5 189 0.000000 0.000000 0.000000 0.000000 -60.708740 0.000000 44.000000 0.988083 0.136488 0.071161
-10020.00000000 -18810.00000000 -310.00000000 127 5 189 0.000000 0.000000 0.000000 0.000000 -60.708740 0.000000 44.000000 0.663730 0.402210 0.630626
-9850.00000000 -18720.00000000 -360.00000000 127 5 189 0.000000 0.000000 0.000000 0.000000 -60.708740 0.000000 44.000000 0.932768 0.243392 -0.265902
-9900.00000000 -18730.00000000 -380.00000000 127 5 189 0.000000 0.000000 0.000000 0.000000 -60.708740 0.000000 44.000000 0.978503 0.117519 0.169475
-9880.00000000 -18710.00000000 -410.00000000 127 5 189 0.000000 0.000000 0.000000 0.000000 -60.708740 0.000000 44.000000 0.974582 -0.003518 0.224001
-9910.00000000 -18680.00000000 -390.00000000 127 5 189 0.000000 0.000000 0.000000 0.000000 -60.708740 0.000000 44.000000 0.966482 0.218071 -0.135488
-9860.00000000 -18770.00000000 -370.00000000 127 5 189 0.000000 0.000000 0.000000 0.000000 -60.708740 0.000000 44.000000 0.742335 0.669912 0.012535
-9840.00000000 -18810.00000000 -360.00000000 127 5 189 0.000000 0.000000 0.000000 0.000000 -60.708740 0.000000 44.000000 0.783695 0.618106 0.061382
-9980.00000000 -18600.00000000 -430.00000000 127 5 189 0.000000 0.000000 0.000000 0.000000 -60.708740 0.000000 44.000000 0.835619 0.495239 -0.237653
-9950.00000000 -18610.00000000 -450.00000000 127 5 189 0.000000 0.000000 0.000000 0.000000 -60.708740 0.000000 44.000000 0.793869 0.590543 -0.145019
-9960.00000000 -18660.00000000 -410.00000000 127 5 189 0.000000 0.000000 0.000000 0.000000 -60.708740 0.000000 44.000000 0.999917 0.012857 -0.000989
-9960.00000000 -18650.00000000 -420.00000000 127 5 189 0.000000 0.000000 0.000000 0.000000 -60.708740 0.000000 44.000000 0.970543 0.238698 0.032715
-9960.00000000 -18660.00000000 -420.00000000 127 5 189 0.000000 0.000000 0.000000 0.000000 -60.708740 0.000000 44.000000 0.899005 0.318428 -0.300656
-10040.00000000 -18600.00000000 -480.00000000 127 5 189 0.000000 0.000000 0.000000 0.000000 -60.708740 0.000000 44.000000 0.881902 0.237263 -0.407376
-10030.00000000 -18570.00000000 -500.00000000 127 5 189 0.000000 0.000000 0.000000 0.000000 -60.708740 0.000000 44.000000 0.985802 0.050284 -0.160207
-10090.00000000 -18600.00000000 -510.00000000 127 5 189 0.000000 0.000000 0.000000 0.000000 -60.708740 0.000000 44.000000 0.864159 0.355830 -0.355830
-10090.00000000 -18600.00000000 -510.00000000 127 5 189 0.000000 0.000000 0.000000 0.000000 -60.708740 0.000000 44.000000 0.864159 0.355830 -0.355830
-10110.00000000 -18640.00000000 -520.00000000 127 5 189 0.000000 0.000000 0.000000 0.000000 -60.708740 0.000000 44.000000 0.893085 -0.006596 -0.449840
-10110.00000000 -18680.00000000 -410.00000000 127 5 189 0.000000 0.000000 0.000000 0.000000 -60.708740 0.000000 44.000000 0.767250 0.631766 0.110449
-10100.00000000 -18710.00000000 -420.00000000 127 5 189 0.000000 0.000000 0.000000 0.000000 -60.708740 0.000000 44.000000 0.673985 0.708229 0.210134
-10070.00000000 -18630.00000000 -550.00000000 127 5 189 0.000000 0.000000 0.000000 0.000000 -60.708740 0.000000 44.000000 0.915944 -0.106057 -0.387038
-10090.00000000 -18590.00000000 -560.00000000 127 5 189 0.000000 0.000000 0.000000 0.000000 -60.708740 0.000000 44.000000 0.686184 0.430319 -0.586496
-10080.00000000 -18590.00000000 -560.00000000 127 5 189 0.000000 0.000000 0.000000 0.000000 -60.708740 0.000000 44.000000 0.778245 0.164716 -0.605973
-10080.00000000 -18600.00000000 -540.00000000 127 5 189 0.000000 0.000000 0.000000 0.000000 -60.708740 0.000000 44.000000 0.830752 0.345227 -0.436657
-10090.00000000 -18570.00000000 -600.00000000 127 5 189 0.000000 0.000000 0.000000 0.000000 -60.708740 0.000000 44.000000 0.765333 0.091840 -0.637049
-10110.00000000 -18620.00000000 -600.00000000 127 5 189 0.000000 0.000000 0.000000 0.000000 -60.708740 0.000000 44.000000 0.599854 -0.052469 -0.798387
-9950.00000000 -18780.00000000 -360.00000000 127 5 189 0.000000 0.000000 0.000000 0.000000 -60.708740 0.000000 44.000000 0.753185 0.650412 -0.098369
-9980.00000000 -18820.00000000 -360.00000000 127 5 189 0.000000 0.000000 0.000000 0.000000 -60.708740 0.000000 44.000000 0.865817 0.426085 0.262323
-9980.00000000 -18830.00000000 -370.00000000 127 5 189 0.000000 0.000000 0.000000 0.000000 -60.708740 0.000000 44.000000 0.838472 0.510309 0.191178
-9980.00000000 -18820.00000000 -360.00000000 127 5 189 0.000000 0.000000 0.000000 0.000000 -60.708740 0.000000 44.000000 0.865817 0.426085 0.262323
-10040.00000000 -18740.00000000 -440.00000000 127 5 189 0.000000 0.000000 0.000000 0.000000 -60.708740 0.000000 44.000000 0.926290 0.181322 -0.330316
-10050.00000000 -18780.00000000 -410.00000000 127 5 189 0.000000 0.000000 0.000000 0.000000 -60.708740 0.000000 44.000000 0.904112 0.336653 0.263148
-9850.00000000 -18930.00000000 -350.00000000 127 5 189 0.000000 0.000000 0.000000 0.000000 -60.708740 0.000000 44.000000 0.937505 0.163823 0.306995
-9910.00000000 -18940.00000000 -260.00000000 127 5 189 0.000000 0.000000 0.000000 0.000000 -60.708740 0.000000 44.000000 0.754198 0.654020 0.058676
-9880.00000000 -19150.00000000 -20.00000000 127 5 189 0.000000 0.000000 0.000000 0.000000 -60.708740 0.000000 44.000000 0.483599 0.281451 0.828805
-9910.00000000 -19090.00000000 -80.00000000 127 5 189 0.000000 0.000000 0.000000 0.000000 -60.708740 0.000000 44.000000 0.393534 0.310846 0.865162
-9940.00000000 -19150.00000000 -150.00000000 127 5 189 0.000000 0.000000 0.000000 0.000000 -60.708740 0.000000 44.000000 0.822984 0.232282 0.518403
-9940.00000000 -19100.00000000 -130.00000000 127 5 189 0.000000 0.000000 0.000000 0.000000 -60.708740 0.000000 44.000000 0.654317 0.202637 0.728566
-9900.00000000 -19230.00000000 -60.00000000 127 5 189 0.000000 0.000000 0.000000 0.000000 -60.708740 0.000000 44.000000 0.449196 0.532073 0.717719
-9890.00000000 -19230.00000000 -70.00000000 127 5 189 0.000000 0.000000 0.000000 0.000000 -60.708740 0.000000 44.000000 0.748145 0.345672 0.566383
-9890.00000000 -19230.00000000 -70.00000000 127 5 189 0.000000 0.000000 0.000000 0.000000 -60.708740 0.000000 44.000000 0.748145 0.345672 0.566383
-9930.00000000 -19170.00000000 -100.00000000 127 5 189 0.000000 0.000000 0.000000 0.000000 -60.708740 0.000000 44.000000 0.692409 0.213168 0.689297
-10000.00000000 -19040.00000000 -180.00000000 127 5 189 0.000000 0.000000 0.000000 0.000000 -60.708740 0.000000 44.000000 0.450763 0.343212 0.824026
-10040.00000000 -18980.00000000 -50.00000000 127 5 189 0.000000 0.000000 0.000000 0.000000 -60.708740 0.000000 44.000000 0.355443 0.331035 0.874115
-10090.00000000 -18980.00000000 -70.00000000 127 5 189 0.000000 0.000000 0.000000 0.000000 -60.708740 0.000000 44.000000 -0.128304 0.090636 0.987585
-10100.00000000 -18910.00000000 -140.00000000 127 5 189 0.000000 0.000000 0.000000 0.000000 -60.708740 0.000000 44.000000 -0.280675 0.373733 0.884051
-10100.00000000 -18980.00000000 -140.00000000 127 5 189 0.000000 0.000000 0.000000 0.000000 -60.708740 0.000000 44.000000 -0.113973 0.273796 0.955011
-10060.00000000 -19000.00000000 -20.00000000 127 5 189 0.000000 0.000000 0.000000 0.000000 -60.708740 0.000000 44.000000 -0.150804 0.432306 0.889027
-10090.00000000 -18990.00000000 -90.00000000 127 5 189 0.000000 0.000000 0.000000 0.000000 -60.708740 0.000000 44.000000 0.036309 0.025935 0.999004
-10090.00000000 -18990.00000000 -90.00000000 127 5 189 0.000000 0.000000 0.000000 0.000000 -60.708740 0.000000 44.000000 0.036309 0.025935 0.999004
-10070.00000000 -19040.00000000 -120.00000000 127 5 189 0.000000 0.000000 0.000000 0.000000 -60.708740 0.000000 44.000000 -0.254437 0.271495 0.928199
-10100.00000000 -18990.00000000 -110.00000000 127 5 189 0.000000 0.000000 0.000000 0.000000 -60.708740 0.000000 44.000000 0.308905 0.372816 0.874977
-10110.00000000 -18990.00000000 -140.00000000 127 5 189 0.000000 0.000000 0.000000 0.000000 -60.708740 0.000000 44.000000 -0.298704 0.583032 0.755546
-10100.00000000 -19030.00000000 -120.00000000 127 5 189 0.000000 0.000000 0.000000 0.000000 -60.708740 0.000000 44.000000 -0.451341 0.264685 0.852193
-9950.00000000 -19100.00000000 -30.00000000 127 5 189 0.000000 0.000000 0.000000 0.000000 -60.708740 0.000000 44.000000 0.209363 0.536397 0.817585
-9990.00000000 -19100.00000000 -30.00000000 127 5 189 0.000000 0.000000 0.000000 0.000000 -60.708740 0.000000 44.000000 0.536634 0.489825 0.687092
-10020.00000000 -19100.00000000 -60.00000000 127 5 189 0.000000 0.000000 0.000000 0.000000 -60.708740 0.000000 44.000000 0.449710 0.257631 0.855212
-10010.00000000 -19100.00000000 -60.00000000 127 5 189 0.000000 0.000000 0.000000 0.000000 -60.708740 0.000000 44.000000 0.037221 0.125198 0.991433
-10020.00000000 -19080.00000000 -170.00000000 127 5 189 0.000000 0.000000 0.000000 0.000000 -60.708740 0.000000 44.000000 0.001313 0.447738 0.894164
-9990.00000000 -19110.00000000 -110.00000000 127 5 189 0.000000 0.000000 0.000000 0.000000 -60.708740 0.000000 44.000000 0.058915 0.259477 0.963951
-9990.00000000 -19160.00000000 -80.00000000 127 5 189 0.000000 0.000000 0.000000 0.000000 -60.708740 0.000000 44.000000 0.196873 0.130825 0.971662
-9950.00000000 -19190.00000000 -150.00000000 127 5 189 0.000000 0.000000 0.000000 0.000000 -60.708740 0.000000 44.000000 0.422947 0.745507 0.515107
-9950.00000000 -19170.00000000 -160.00000000 127 5 189 0.000000 0.000000 0.000000 0.000000 -60.708740 0.000000 44.000000 0.695240 0.369808 0.616347
-9960.00000000 -19170.00000000 -150.00000000 127 5 189 0.000000 0.000000 0.000000 0.000000 -60.708740 0.000000 44.000000 0.733032 0.555924 0.391934
-9990.00000000 -19170.00000000 -140.00000000 127 5 189 0.000000 0.000000 0.000000 0.000000 -60.708740 0.000000 44.000000 -0.044595 0.441897 0.895957
-10000.00000000 -19190.00000000 -130.00000000 127 5 189 0.000000 0.000000 0.000000 0.000000 -60.708740 0.000000 44.000000 0.202104 0.234657 0.950837
-10020.00000000 -19170.00000000 -110.00000000 127 5 189 0.000000 0.000000 0.000000 0.000000 -60.708740 0.000000 44.000000 -0.260924 0.319231 0.911049
-10090.00000000 -19120.00000000 -20.00000000 127 5 189 0.000000 0.000000 0.000000 0.000000 -60.708740 0.000000 44.000000 0.117486 0.520711 0.845611
-10060.00000000 -19070.00000000 -110.00000000 127 5 189 0.000000 0.000000 0.000000 0.000000 -60.708740 0.000000 44.000000 -0.252200 0.141285 0.957305
-10030.00000000 -19120.00000000 -140.00000000 127 5 189 0.000000 0.000000 0.000000 0.000000 -60.708740 0.000000 44.000000 0.509168 0.392043 0.766192
-10030.00000000 -19130.00000000 -130.00000000 127 5 189 0.000000 0.000000 0.000000 0.000000 -60.708740 0.000000 44.000000 0.076414 0.296592 0.951942
-10030.00000000 -19140.00000000 -150.00000000 127 5 189 0.000000 0.000000 0.000000 0.000000 -60.708740 0.000000 44.000000 -0.234512 0.507342 0.829221
-10070.00000000 -19120.00000000 -160.00000000 127 5 189 0.000000 0.000000 0.000000 0.000000 -60.708740 0.000000 44.000000 -0.105352 0.445287 0.889169
-10110.00000000 -19080.00000000 -170.00000000 127 5 189 0.000000 0.000000 0.000000 0.000000 -60.708740 0.000000 44.000000 -0.112287 0.291947 0.949820
-10110.00000000 -19080.00000000 -170.00000000 127 5 189 0.000000 0.000000 0.000000 0.000000 -60.708740 0.000000 44.000000 -0.112287 0.291947 0.949820
-10080.00000000 -19130.00000000 -160.00000000 127 5 189 0.000000 0.000000 0.000000 0.000000 -60.708740 0.000000 44.000000 -0.478319 0.375247 0.793978
-10110.00000000 -19110.00000000 -170.00000000 127 5 189 0.000000 0.000000 0.000000 0.000000 -60.708740 0.000000 44.000000 -0.031838 0.196924 0.979902
-10080.00000000 -19130.00000000 -160.00000000 127 5 189 0.000000 0.000000 0.000000 0.000000 -60.708740 0.000000 44.000000 -0.478319 0.375247 0.793978
-10090.00000000 -19150.00000000 -150.00000000 127 5 189 0.000000 0.000000 0.000000 0.000000 -60.708740 0.000000 44.000000 -0.078268 0.424292 0.902136
-10040.00000000 -19180.00000000 -40.00000000 127 5 189 0.000000 0.000000 0.000000 0.000000 -60.708740 0.000000 44.000000 0.343432 0.399375 0.850032
-10030.00000000 -19170.00000000 -50.00000000 127 5 189 0.000000 0.000000 0.000000 0.000000 -60.708740 0.000000 44.000000 0.262963 0.309453 0.913832
-10090.00000000 -19170.00000000 -30.00000000 127 5 189 0.000000 0.000000 0.000000 0.000000 -60.708740 0.000000 44.000000 -0.203444 0.564443 0.800009
-10090.00000000 -19190.00000000 -100.00000000 127 5 189 0.000000 0.000000 0.000000 0.000000 -60.708740 0.000000 44.000000 -0.275753 -0.028441 0.960808
-10040.00000000 -19170.00000000 -130.00000000 127 5 189 0.000000 0.000000 0.000000 0.000000 -60.708740 0.000000 44.000000 0.398678 0.401855 0.824359
-10030.00000000 -19180.00000000 -150.00000000 127 5 189 0.000000 0.000000 0.000000 0.000000 -60.708740 0.000000 44.000000 -0.257001 0.369903 0.892817
-10060.00000000 -19200.00000000 -140.00000000 127 5 189 0.000000 0.000000 0.000000 0.000000 -60.708740 0.000000 44.000000 0.121185 0.538763 0.833696
-10040.00000000 -19210.00000000 -140.00000000 127 5 189 0.000000 0.000000 0.000000 0.000000 -60.708740 0.000000 44.000000 0.032309 0.639159 0.768396
-10030.00000000 -19230.00000000 -140.00000000 127 5 189 0.000000 0.000000 0.000000 0.000000 -60.708740 0.000000 44.000000 0.322697 0.225171 0.919328
-10090.00000000 -19170.00000000 -140.00000000 127 5 189 0.000000 0.000000 0.000000 0.000000 -60.708740 0.000000 44.000000 -0.409620 0.267538 0.872144
-10090.00000000 -19170.00000000 -120.00000000 127 5 189 0.000000 0.000000 0.000000 0.000000 -60.708740 0.000000 44.000000 -0.418846 0.055218 0.906377
-10110.00000000 -19190.00000000 -140.00000000 127 5 189 0.000000 0.000000 0.000000 0.000000 -60.708740 0.000000 44.000000 -0.677056 -0.127041 0.724883
-10090.00000000 -19170.00000000 -140.00000000 127 5 189 0.000000 0.000000 0.000000 0.000000 -60.708740 0.000000 44.000000 -0.409620 0.267538 0.872144
-10090.00000000 -19180.00000000 -140.00000000 127 5 189 0.000000 0.000000 0.000000 0.000000 -60.708740 0.000000 44.000000 -0.602324 0.212129 0.769550
