//X Y Z R G B PointSourceId ScanDirectionFlag NumberOfReturns ReturnNumber GpsTime Intensity Classification Nx Ny Nz
10990.00000000 -7560.00000000 -850.00000000 78 9 212 0.000000 0.000000 0.000000 0.000000 -60.708740 0.000000 96.000000 0.035738 0.964939 0.260028
10960.00000000 -7540.00000000 -850.00000000 78 9 212 0.000000 0.000000 0.000000 0.000000 -60.708740 0.000000 96.000000 0.637117 0.590048 0.495909
11090.00000000 -7520.00000000 -900.00000000 78 9 212 0.000000 0.000000 0.000000 0.000000 -60.708740 0.000000 96.000000 -0.220614 0.835289 0.503608
11110.00000000 -7510.00000000 -900.00000000 78 9 212 0.000000 0.000000 0.000000 0.000000 -60.708740 0.000000 96.000000 0.254143 0.859824 0.442847
11070.00000000 -7500.00000000 -940.00000000 78 9 212 0.000000 0.000000 0.000000 0.000000 -60.708740 0.000000 96.000000 -0.001347 0.844879 0.534955
11050.00000000 -7500.00000000 -880.00000000 78 9 212 0.000000 0.000000 0.000000 0.000000 -60.708740 0.000000 96.000000 0.094322 0.985004 -0.144467
11030.00000000 -7520.00000000 -930.00000000 78 9 212 0.000000 0.000000 0.000000 0.000000 -60.708740 0.000000 96.000000 0.512118 0.858906 0.004032
11090.00000000 -7520.00000000 -1020.00000000 78 9 212 0.000000 0.000000 0.000000 0.000000 -60.708740 0.000000 96.000000 0.108121 0.894456 0.433888
11100.00000000 -7520.00000000 -1010.00000000 78 9 212 0.000000 0.000000 0.000000 0.000000 -60.708740 0.000000 96.000000 0.052208 0.816986 0.574289
11110.00000000 -7520.00000000 -1010.00000000 78 9 212 0.000000 0.000000 0.000000 0.000000 -60.708740 0.000000 96.000000 0.202813 0.848809 0.488253
11080.00000000 -7510.00000000 -1030.00000000 78 9 212 0.000000 0.000000 0.000000 0.000000 -60.708740 0.000000 96.000000 -0.163073 0.986423 0.019386
11060.00000000 -7480.00000000 -1010.00000000 78 9 212 0.000000 0.000000 0.000000 0.000000 -60.708740 0.000000 96.000000 0.435465 0.897030 0.075554
11040.00000000 -7520.00000000 -1030.00000000 78 9 212 0.000000 0.000000 0.000000 0.000000 -60.708740 0.000000 96.000000 0.109068 0.992858 -0.048350
11080.00000000 -7530.00000000 -890.00000000 78 9 212 0.000000 0.000000 0.000000 0.000000 -60.708740 0.000000 96.000000 0.316014 0.948041 -0.036805
11090.00000000 -7570.00000000 -900.00000000 78 9 212 0.000000 0.000000 0.000000 0.000000 -60.708740 0.000000 96.000000 0.147254 0.978808 -0.142305
11090.00000000 -7570.00000000 -890.00000000 78 9 212 0.000000 0.000000 0.000000 0.000000 -60.708740 0.000000 96.000000 0.255941 0.966208 0.030615
11070.00000000 -7570.00000000 -890.00000000 78 9 212 0.000000 0.000000 0.000000 0.000000 -60.708740 0.000000 96.000000 -0.164178 0.903693 0.395455
11080.00000000 -7530.00000000 -900.00000000 78 9 212 0.000000 0.000000 0.000000 0.000000 -60.708740 0.000000 96.000000 -0.150482 0.983550 -0.099920
11090.00000000 -7540.00000000 -920.00000000 78 9 212 0.000000 0.000000 0.000000 0.000000 -60.708740 0.000000 96.000000 0.304040 0.917884 0.255048
11100.00000000 -7560.00000000 -940.00000000 78 9 212 0.000000 0.000000 0.000000 0.000000 -60.708740 0.000000 96.000000 -0.091527 0.979954 0.176953
11080.00000000 -7570.00000000 -930.00000000 78 9 212 0.000000 0.000000 0.000000 0.000000 -60.708740 0.000000 96.000000 0.335672 0.938023 -0.086240
11100.00000000 -7570.00000000 -940.00000000 78 9 212 0.000000 0.000000 0.000000 0.000000 -60.708740 0.000000 96.000000 0.153474 0.987917 -0.021600
11070.00000000 -7560.00000000 -920.00000000 78 9 212 0.000000 0.000000 0.000000 0.000000 -60.708740 0.000000 96.000000 0.424882 0.880853 0.208740
11070.00000000 -7540.00000000 -920.00000000 78 9 212 0.000000 0.000000 0.000000 0.000000 -60.708740 0.000000 96.000000 0.332733 0.942953 -0.011300
11050.00000000 -7530.00000000 -920.00000000 78 9 212 0.000000 0.000000 0.000000 0.000000 -60.708740 0.000000 96.000000 0.363818 0.930908 0.032368
11030.00000000 -7530.00000000 -930.00000000 78 9 212 0.000000 0.000000 0.000000 0.000000 -60.708740 0.000000 96.000000 0.105377 0.841570 0.529770
11070.00000000 -7560.00000000 -970.00000000 78 9 212 0.000000 0.000000 0.000000 0.000000 -60.708740 0.000000 96.000000 0.465990 0.802272 0.373112
11090.00000000 -7560.00000000 -980.00000000 78 9 212 0.000000 0.000000 0.000000 0.000000 -60.708740 0.000000 96.000000 -0.095624 0.965170 0.243524
11070.00000000 -7550.00000000 -960.00000000 78 9 212 0.000000 0.000000 0.000000 0.000000 -60.708740 0.000000 96.000000 -0.058166 0.991098 0.119753
11100.00000000 -7560.00000000 -980.00000000 78 9 212 0.000000 0.000000 0.000000 0.000000 -60.708740 0.000000 96.000000 0.145154 0.927600 0.344221
11080.00000000 -7570.00000000 -960.00000000 78 9 212 0.000000 0.000000 0.000000 0.000000 -60.708740 0.000000 96.000000 0.282806 0.860648 0.423445
11100.00000000 -7550.00000000 -990.00000000 78 9 212 0.000000 0.000000 0.000000 0.000000 -60.708740 0.000000 96.000000 0.324758 0.932816 0.156160
11110.00000000 -7540.00000000 -1030.00000000 78 9 212 0.000000 0.000000 0.000000 0.000000 -60.708740 0.000000 96.000000 -0.276991 0.954372 0.111584
11080.00000000 -7540.00000000 -1030.00000000 78 9 212 0.000000 0.000000 0.000000 0.000000 -60.708740 0.000000 96.000000 0.287964 0.866940 0.406807
11080.00000000 -7530.00000000 -1000.00000000 78 9 212 0.000000 0.000000 0.000000 0.000000 -60.708740 0.000000 96.000000 -0.233238 0.868249 0.437886
11090.00000000 -7530.00000000 -1010.00000000 78 9 212 0.000000 0.000000 0.000000 0.000000 -60.708740 0.000000 96.000000 -0.272984 0.917168 0.290316
11070.00000000 -7550.00000000 -990.00000000 78 9 212 0.000000 0.000000 0.000000 0.000000 -60.708740 0.000000 96.000000 0.295091 0.863867 0.408234
11110.00000000 -7560.00000000 -990.00000000 78 9 212 0.000000 0.000000 0.000000 0.000000 -60.708740 0.000000 96.000000 0.111459 0.890260 0.441603
11100.00000000 -7580.00000000 -950.00000000 78 9 212 0.000000 0.000000 0.000000 0.000000 -60.708740 0.000000 96.000000 -0.093062 0.991515 -0.090764
11110.00000000 -7580.00000000 -960.00000000 78 9 212 0.000000 0.000000 0.000000 0.000000 -60.708740 0.000000 96.000000 -0.038738 0.982544 -0.181953
11060.00000000 -7540.00000000 -970.00000000 78 9 212 0.000000 0.000000 0.000000 0.000000 -60.708740 0.000000 96.000000 -0.015961 0.997014 0.075548
11030.00000000 -7550.00000000 -1020.00000000 78 9 212 0.000000 0.000000 0.000000 0.000000 -60.708740 0.000000 96.000000 0.391780 0.826386 0.404469
10990.00000000 -7480.00000000 -930.00000000 78 9 212 0.000000 0.000000 0.000000 0.000000 -60.708740 0.000000 96.000000 0.722224 0.653291 0.227164
10980.00000000 -7480.00000000 -920.00000000 78 9 212 0.000000 0.000000 0.000000 0.000000 -60.708740 0.000000 96.000000 0.516800 0.817878 0.252968
10980.00000000 -7480.00000000 -940.00000000 78 9 212 0.000000 0.000000 0.000000 0.000000 -60.708740 0.000000 96.000000 0.733626 0.591111 0.335233
11010.00000000 -7450.00000000 -1020.00000000 78 9 212 0.000000 0.000000 0.000000 0.000000 -60.708740 0.000000 96.000000 0.153603 0.818718 0.553269
11000.00000000 -7510.00000000 -1020.00000000 78 9 212 0.000000 0.000000 0.000000 0.000000 -60.708740 0.000000 96.000000 0.456495 0.863599 0.214029
10990.00000000 -7510.00000000 -1020.00000000 78 9 212 0.000000 0.000000 0.000000 0.000000 -60.708740 0.000000 96.000000 0.169160 0.939319 0.298437
10950.00000000 -7510.00000000 -960.00000000 78 9 212 0.000000 0.000000 0.000000 0.000000 -60.708740 0.000000 96.000000 0.356290 0.901722 0.244858
10970.00000000 -7520.00000000 -970.00000000 78 9 212 0.000000 0.000000 0.000000 0.000000 -60.708740 0.000000 96.000000 0.364702 0.900770 0.235811
11000.00000000 -7560.00000000 -890.00000000 78 9 212 0.000000 0.000000 0.000000 0.000000 -60.708740 0.000000 96.000000 0.512398 0.857680 0.042815
11020.00000000 -7560.00000000 -880.00000000 78 9 212 0.000000 0.000000 0.000000 0.000000 -60.708740 0.000000 96.000000 -0.159913 0.927496 0.337903
11010.00000000 -7570.00000000 -900.00000000 78 9 212 0.000000 0.000000 0.000000 0.000000 -60.708740 0.000000 96.000000 0.258779 0.782610 0.566176
11000.00000000 -7560.00000000 -880.00000000 78 9 212 0.000000 0.000000 0.000000 0.000000 -60.708740 0.000000 96.000000 0.307133 0.897659 0.316035
10950.00000000 -7570.00000000 -940.00000000 78 9 212 0.000000 0.000000 0.000000 0.000000 -60.708740 0.000000 96.000000 0.444336 0.875387 0.190430
10950.00000000 -7560.00000000 -910.00000000 78 9 212 0.000000 0.000000 0.000000 0.000000 -60.708740 0.000000 96.000000 0.515585 0.855623 0.045615
10950.00000000 -7570.00000000 -940.00000000 78 9 212 0.000000 0.000000 0.000000 0.000000 -60.708740 0.000000 96.000000 0.444336 0.875387 0.190430
10990.00000000 -7550.00000000 -990.00000000 78 9 212 0.000000 0.000000 0.000000 0.000000 -60.708740 0.000000 96.000000 0.207022 0.968245 0.140158
11020.00000000 -7550.00000000 -1020.00000000 78 9 212 0.000000 0.000000 0.000000 0.000000 -60.708740 0.000000 96.000000 0.239735 0.883001 0.403530
10950.00000000 -7560.00000000 -950.00000000 78 9 212 0.000000 0.000000 0.000000 0.000000 -60.708740 0.000000 96.000000 0.676445 0.623520 0.391974
10950.00000000 -7560.00000000 -950.00000000 78 9 212 0.000000 0.000000 0.000000 0.000000 -60.708740 0.000000 96.000000 0.676445 0.623520 0.391974
10900.00000000 -7560.00000000 -850.00000000 78 9 212 0.000000 0.000000 0.000000 0.000000 -60.708740 0.000000 96.000000 0.459258 0.752261 0.472426
10900.00000000 -7560.00000000 -850.00000000 78 9 212 0.000000 0.000000 0.000000 0.000000 -60.708740 0.000000 96.000000 0.459258 0.752261 0.472426
10900.00000000 -7570.00000000 -840.00000000 78 9 212 0.000000 0.000000 0.000000 0.000000 -60.708740 0.000000 96.000000 0.502923 0.758479 0.414461
10880.00000000 -7520.00000000 -940.00000000 78 9 212 0.000000 0.000000 0.000000 0.000000 -60.708740 0.000000 96.000000 0.799480 0.580485 0.154496
10880.00000000 -7490.00000000 -910.00000000 78 9 212 0.000000 0.000000 0.000000 0.000000 -60.708740 0.000000 96.000000 0.502972 0.743740 0.440307
10920.00000000 -7490.00000000 -950.00000000 78 9 212 0.000000 0.000000 0.000000 0.000000 -60.708740 0.000000 96.000000 0.384332 0.868192 0.313897
10900.00000000 -7570.00000000 -870.00000000 78 9 212 0.000000 0.000000 0.000000 0.000000 -60.708740 0.000000 96.000000 0.739648 0.615578 0.272000
10910.00000000 -7560.00000000 -940.00000000 78 9 212 0.000000 0.000000 0.000000 0.000000 -60.708740 0.000000 96.000000 0.384430 0.922370 0.038049
10910.00000000 -7560.00000000 -940.00000000 78 9 212 0.000000 0.000000 0.000000 0.000000 -60.708740 0.000000 96.000000 0.384430 0.922370 0.038049
10940.00000000 -7560.00000000 -910.00000000 78 9 212 0.000000 0.000000 0.000000 0.000000 -60.708740 0.000000 96.000000 0.640404 0.749927 0.165805
10910.00000000 -7580.00000000 -880.00000000 78 9 212 0.000000 0.000000 0.000000 0.000000 -60.708740 0.000000 96.000000 0.353858 0.773964 0.525132
10880.00000000 -7540.00000000 -870.00000000 78 9 212 0.000000 0.000000 0.000000 0.000000 -60.708740 0.000000 96.000000 0.739501 0.673154 0.001382
10880.00000000 -7560.00000000 -880.00000000 78 9 212 0.000000 0.000000 0.000000 0.000000 -60.708740 0.000000 96.000000 0.623668 0.751201 0.216184
10910.00000000 -7560.00000000 -960.00000000 78 9 212 0.000000 0.000000 0.000000 0.000000 -60.708740 0.000000 96.000000 0.654430 0.744283 -0.133282
10910.00000000 -7540.00000000 -970.00000000 78 9 212 0.000000 0.000000 0.000000 0.000000 -60.708740 0.000000 96.000000 0.607388 0.556631 0.566782
10920.00000000 -7550.00000000 -980.00000000 78 9 212 0.000000 0.000000 0.000000 0.000000 -60.708740 0.000000 96.000000 0.700616 0.678771 0.220015
10890.00000000 -7540.00000000 -960.00000000 78 9 212 0.000000 0.000000 0.000000 0.000000 -60.708740 0.000000 96.000000 0.646807 0.762653 0.001379
10830.00000000 -7500.00000000 -890.00000000 78 9 212 0.000000 0.000000 0.000000 0.000000 -60.708740 0.000000 96.000000 0.812702 0.578461 -0.069987
10850.00000000 -7490.00000000 -940.00000000 78 9 212 0.000000 0.000000 0.000000 0.000000 -60.708740 0.000000 96.000000 0.786087 0.613004 0.079330
10820.00000000 -7490.00000000 -910.00000000 78 9 212 0.000000 0.000000 0.000000 0.000000 -60.708740 0.000000 96.000000 0.784972 0.467746 0.406243
10850.00000000 -7500.00000000 -930.00000000 78 9 212 0.000000 0.000000 0.000000 0.000000 -60.708740 0.000000 96.000000 0.911572 0.410535 0.022297
10820.00000000 -7500.00000000 -910.00000000 78 9 212 0.000000 0.000000 0.000000 0.000000 -60.708740 0.000000 96.000000 0.664627 0.746470 0.032455
10830.00000000 -7500.00000000 -910.00000000 78 9 212 0.000000 0.000000 0.000000 0.000000 -60.708740 0.000000 96.000000 0.620383 0.542624 0.566290
10850.00000000 -7490.00000000 -950.00000000 78 9 212 0.000000 0.000000 0.000000 0.000000 -60.708740 0.000000 96.000000 0.682438 0.458852 0.568976
11070.00000000 -7490.00000000 -1070.00000000 78 9 212 0.000000 0.000000 0.000000 0.000000 -60.708740 0.000000 96.000000 0.293781 0.941465 0.165337
11070.00000000 -7510.00000000 -1040.00000000 78 9 212 0.000000 0.000000 0.000000 0.000000 -60.708740 0.000000 96.000000 0.299101 0.923062 0.241857
11070.00000000 -7520.00000000 -1080.00000000 78 9 212 0.000000 0.000000 0.000000 0.000000 -60.708740 0.000000 96.000000 0.370993 0.740351 0.560575
11040.00000000 -7480.00000000 -1050.00000000 78 9 212 0.000000 0.000000 0.000000 0.000000 -60.708740 0.000000 96.000000 -0.041692 0.899750 0.434409
11110.00000000 -7560.00000000 -1060.00000000 78 9 212 0.000000 0.000000 0.000000 0.000000 -60.708740 0.000000 96.000000 -0.185889 0.961087 0.204346
11090.00000000 -7530.00000000 -1090.00000000 78 9 212 0.000000 0.000000 0.000000 0.000000 -60.708740 0.000000 96.000000 0.079981 0.963581 0.255177
11050.00000000 -7530.00000000 -1070.00000000 78 9 212 0.000000 0.000000 0.000000 0.000000 -60.708740 0.000000 96.000000 0.333733 0.820887 0.463430
10990.00000000 -7500.00000000 -1040.00000000 78 9 212 0.000000 0.000000 0.000000 0.000000 -60.708740 0.000000 96.000000 0.471583 0.861345 0.188931
10970.00000000 -7540.00000000 -1070.00000000 78 9 212 0.000000 0.000000 0.000000 0.000000 -60.708740 0.000000 96.000000 0.296815 0.717169 0.630531
10950.00000000 -7550.00000000 -1040.00000000 78 9 212 0.000000 0.000000 0.000000 0.000000 -60.708740 0.000000 96.000000 0.275970 0.725816 0.630104
11130.00000000 -7260.00000000 420.00000000 78 9 212 0.000000 0.000000 0.000000 0.000000 -60.708740 0.000000 96.000000 0.298130 0.935989 0.187198
11160.00000000 -7220.00000000 330.00000000 78 9 212 0.000000 0.000000 0.000000 0.000000 -60.708740 0.000000 96.000000 0.477501 0.878333 0.022866
11160.00000000 -7220.00000000 320.00000000 78 9 212 0.000000 0.000000 0.000000 0.000000 -60.708740 0.000000 96.000000 0.217876 0.951347 0.217876
11150.00000000 -7220.00000000 370.00000000 78 9 212 0.000000 0.000000 0.000000 0.000000 -60.708740 0.000000 96.000000 0.682163 0.728314 -0.064899
11140.00000000 -7230.00000000 380.00000000 78 9 212 0.000000 0.000000 0.000000 0.000000 -60.708740 0.000000 96.000000 0.504186 0.710520 0.490874
11130.00000000 -7400.00000000 520.00000000 78 9 212 0.000000 0.000000 0.000000 0.000000 -60.708740 0.000000 96.000000 0.810506 0.358279 0.463374
11130.00000000 -7420.00000000 530.00000000 78 9 212 0.000000 0.000000 0.000000 0.000000 -60.708740 0.000000 96.000000 0.566709 0.696337 0.440404
11130.00000000 -7430.00000000 550.00000000 78 9 212 0.000000 0.000000 0.000000 0.000000 -60.708740 0.000000 96.000000 0.445305 0.688805 0.572058
11170.00000000 -7400.00000000 490.00000000 78 9 212 0.000000 0.000000 0.000000 0.000000 -60.708740 0.000000 96.000000 0.563625 0.597476 0.570395
11220.00000000 -7380.00000000 350.00000000 78 9 212 0.000000 0.000000 0.000000 0.000000 -60.708740 0.000000 96.000000 0.879167 0.205385 0.429979
11220.00000000 -7380.00000000 340.00000000 78 9 212 0.000000 0.000000 0.000000 0.000000 -60.708740 0.000000 96.000000 0.894818 0.320110 0.311176
11120.00000000 -7330.00000000 470.00000000 78 9 212 0.000000 0.000000 0.000000 0.000000 -60.708740 0.000000 96.000000 0.317226 0.739121 0.594195
11160.00000000 -7300.00000000 390.00000000 78 9 212 0.000000 0.000000 0.000000 0.000000 -60.708740 0.000000 96.000000 0.333853 0.797093 0.503175
11180.00000000 -7370.00000000 390.00000000 78 9 212 0.000000 0.000000 0.000000 0.000000 -60.708740 0.000000 96.000000 0.650747 0.755099 0.079713
11340.00000000 -7410.00000000 100.00000000 78 9 212 0.000000 0.000000 0.000000 0.000000 -60.708740 0.000000 96.000000 0.940720 0.306312 -0.145669
11340.00000000 -7390.00000000 50.00000000 78 9 212 0.000000 0.000000 0.000000 0.000000 -60.708740 0.000000 96.000000 0.761875 0.527952 0.375252
11340.00000000 -7420.00000000 10.00000000 78 9 212 0.000000 0.000000 0.000000 0.000000 -60.708740 0.000000 96.000000 0.953234 -0.273675 0.128244
11300.00000000 -7430.00000000 30.00000000 78 9 212 0.000000 0.000000 0.000000 0.000000 -60.708740 0.000000 96.000000 0.963879 0.212601 -0.160429
11290.00000000 -7420.00000000 0.00000000 78 9 212 0.000000 0.000000 0.000000 0.000000 -60.708740 0.000000 96.000000 0.891760 0.405611 0.200609
11290.00000000 -7430.00000000 -10.00000000 78 9 212 0.000000 0.000000 0.000000 0.000000 -60.708740 0.000000 96.000000 0.894390 0.293169 0.337814
11260.00000000 -7390.00000000 20.00000000 78 9 212 0.000000 0.000000 0.000000 0.000000 -60.708740 0.000000 96.000000 0.911454 0.352774 -0.211665
11120.00000000 -7520.00000000 600.00000000 78 9 212 0.000000 0.000000 0.000000 0.000000 -60.708740 0.000000 96.000000 0.746297 0.658324 -0.098236
11130.00000000 -7470.00000000 570.00000000 78 9 212 0.000000 0.000000 0.000000 0.000000 -60.708740 0.000000 96.000000 0.958821 0.198148 0.203467
11120.00000000 -7450.00000000 550.00000000 78 9 212 0.000000 0.000000 0.000000 0.000000 -60.708740 0.000000 96.000000 0.914794 0.288501 0.282702
11130.00000000 -7470.00000000 510.00000000 78 9 212 0.000000 0.000000 0.000000 0.000000 -60.708740 0.000000 96.000000 0.728948 0.672069 0.130223
11120.00000000 -7450.00000000 540.00000000 78 9 212 0.000000 0.000000 0.000000 0.000000 -60.708740 0.000000 96.000000 0.632755 0.771125 -0.070626
11120.00000000 -7450.00000000 550.00000000 78 9 212 0.000000 0.000000 0.000000 0.000000 -60.708740 0.000000 96.000000 0.914794 0.288501 0.282702
11120.00000000 -7470.00000000 540.00000000 78 9 212 0.000000 0.000000 0.000000 0.000000 -60.708740 0.000000 96.000000 0.940822 0.279629 0.191470
11340.00000000 -7450.00000000 100.00000000 78 9 212 0.000000 0.000000 0.000000 0.000000 -60.708740 0.000000 96.000000 0.961917 -0.112331 0.249195
11340.00000000 -7520.00000000 90.00000000 78 9 212 0.000000 0.000000 0.000000 0.000000 -60.708740 0.000000 96.000000 0.912361 -0.362366 -0.190493
11330.00000000 -7480.00000000 50.00000000 78 9 212 0.000000 0.000000 0.000000 0.000000 -60.708740 0.000000 96.000000 0.994433 -0.085746 0.061247
11330.00000000 -7480.00000000 60.00000000 78 9 212 0.000000 0.000000 0.000000 0.000000 -60.708740 0.000000 96.000000 0.986526 -0.017068 0.162714
11340.00000000 -7510.00000000 60.00000000 78 9 212 0.000000 0.000000 0.000000 0.000000 -60.708740 0.000000 96.000000 0.983189 -0.065546 -0.170419
11340.00000000 -7510.00000000 60.00000000 78 9 212 0.000000 0.000000 0.000000 0.000000 -60.708740 0.000000 96.000000 0.983189 -0.065546 -0.170419
11300.00000000 -7470.00000000 60.00000000 78 9 212 0.000000 0.000000 0.000000 0.000000 -60.708740 0.000000 96.000000 0.981569 0.121015 -0.147908
11300.00000000 -7480.00000000 50.00000000 78 9 212 0.000000 0.000000 0.000000 0.000000 -60.708740 0.000000 96.000000 0.874641 0.006677 0.484725
11280.00000000 -7500.00000000 30.00000000 78 9 212 0.000000 0.000000 0.000000 0.000000 -60.708740 0.000000 96.000000 0.969099 -0.246178 -0.015611
11320.00000000 -7500.00000000 60.00000000 78 9 212 0.000000 0.000000 0.000000 0.000000 -60.708740 0.000000 96.000000 0.997310 0.065345 -0.033208
11320.00000000 -7520.00000000 60.00000000 78 9 212 0.000000 0.000000 0.000000 0.000000 -60.708740 0.000000 96.000000 0.898677 -0.417496 0.134448
11280.00000000 -7490.00000000 20.00000000 78 9 212 0.000000 0.000000 0.000000 0.000000 -60.708740 0.000000 96.000000 0.855991 -0.436417 0.277163
11310.00000000 -7540.00000000 60.00000000 78 9 212 0.000000 0.000000 0.000000 0.000000 -60.708740 0.000000 96.000000 0.974610 -0.172732 -0.142472
11260.00000000 -7490.00000000 60.00000000 78 9 212 0.000000 0.000000 0.000000 0.000000 -60.708740 0.000000 96.000000 0.937788 0.008835 0.347095
11260.00000000 -7510.00000000 60.00000000 78 9 212 0.000000 0.000000 0.000000 0.000000 -60.708740 0.000000 96.000000 0.994033 0.045639 0.099069
11270.00000000 -7540.00000000 30.00000000 78 9 212 0.000000 0.000000 0.000000 0.000000 -60.708740 0.000000 96.000000 0.925729 -0.122059 -0.357949
11240.00000000 -7550.00000000 0.00000000 78 9 212 0.000000 0.000000 0.000000 0.000000 -60.708740 0.000000 96.000000 0.867367 -0.410056 -0.282009
11240.00000000 -7550.00000000 0.00000000 78 9 212 0.000000 0.000000 0.000000 0.000000 -60.708740 0.000000 96.000000 0.867367 -0.410056 -0.282009
11230.00000000 -7530.00000000 -10.00000000 78 9 212 0.000000 0.000000 0.000000 0.000000 -60.708740 0.000000 96.000000 0.932807 -0.344234 -0.106645
11220.00000000 -7590.00000000 0.00000000 78 9 212 0.000000 0.000000 0.000000 0.000000 -60.708740 0.000000 96.000000 0.966927 -0.254709 0.013279
11150.00000000 -7450.00000000 80.00000000 78 9 212 0.000000 0.000000 0.000000 0.000000 -60.708740 0.000000 96.000000 0.825534 0.208284 0.524511
11120.00000000 -7460.00000000 70.00000000 78 9 212 0.000000 0.000000 0.000000 0.000000 -60.708740 0.000000 96.000000 0.850029 0.525947 0.028838
11140.00000000 -7450.00000000 0.00000000 78 9 212 0.000000 0.000000 0.000000 0.000000 -60.708740 0.000000 96.000000 0.974303 0.155434 0.163016
11150.00000000 -7450.00000000 -10.00000000 78 9 212 0.000000 0.000000 0.000000 0.000000 -60.708740 0.000000 96.000000 0.915826 0.011691 0.401405
10960.00000000 -7740.00000000 1120.00000000 78 9 212 0.000000 0.000000 0.000000 0.000000 -60.708740 0.000000 96.000000 0.984640 -0.163910 -0.060140
10960.00000000 -7750.00000000 1150.00000000 78 9 212 0.000000 0.000000 0.000000 0.000000 -60.708740 0.000000 96.000000 0.960446 0.273154 0.054127
10860.00000000 -7740.00000000 1210.00000000 78 9 212 0.000000 0.000000 0.000000 0.000000 -60.708740 0.000000 96.000000 -0.373797 0.862964 0.339955
10890.00000000 -7740.00000000 1180.00000000 78 9 212 0.000000 0.000000 0.000000 0.000000 -60.708740 0.000000 96.000000 0.506325 0.809173 0.298117
10890.00000000 -7750.00000000 1230.00000000 78 9 212 0.000000 0.000000 0.000000 0.000000 -60.708740 0.000000 96.000000 0.381144 0.917773 -0.111454
10880.00000000 -7760.00000000 1180.00000000 78 9 212 0.000000 0.000000 0.000000 0.000000 -60.708740 0.000000 96.000000 -0.012275 0.989830 0.141723
10850.00000000 -7750.00000000 1190.00000000 78 9 212 0.000000 0.000000 0.000000 0.000000 -60.708740 0.000000 96.000000 0.806037 -0.591826 0.006866
10840.00000000 -7750.00000000 1160.00000000 78 9 212 0.000000 0.000000 0.000000 0.000000 -60.708740 0.000000 96.000000 0.903966 -0.296406 -0.308204
10880.00000000 -7680.00000000 1090.00000000 78 9 212 0.000000 0.000000 0.000000 0.000000 -60.708740 0.000000 96.000000 0.007430 0.996627 -0.081726
10910.00000000 -7680.00000000 1150.00000000 78 9 212 0.000000 0.000000 0.000000 0.000000 -60.708740 0.000000 96.000000 0.526981 0.694276 0.490176
10880.00000000 -7680.00000000 1150.00000000 78 9 212 0.000000 0.000000 0.000000 0.000000 -60.708740 0.000000 96.000000 -0.223450 0.973166 0.054947
10900.00000000 -7650.00000000 1000.00000000 78 9 212 0.000000 0.000000 0.000000 0.000000 -60.708740 0.000000 96.000000 -0.258557 0.960905 0.099049
10900.00000000 -7670.00000000 1020.00000000 78 9 212 0.000000 0.000000 0.000000 0.000000 -60.708740 0.000000 96.000000 0.447263 0.833322 0.324854
10890.00000000 -7630.00000000 1000.00000000 78 9 212 0.000000 0.000000 0.000000 0.000000 -60.708740 0.000000 96.000000 0.097968 0.975959 0.194696
10880.00000000 -7640.00000000 1020.00000000 78 9 212 0.000000 0.000000 0.000000 0.000000 -60.708740 0.000000 96.000000 -0.053538 0.998322 -0.022045
10870.00000000 -7640.00000000 1030.00000000 78 9 212 0.000000 0.000000 0.000000 0.000000 -60.708740 0.000000 96.000000 -0.347408 0.916415 0.198723
10880.00000000 -7640.00000000 1020.00000000 78 9 212 0.000000 0.000000 0.000000 0.000000 -60.708740 0.000000 96.000000 -0.053538 0.998322 -0.022045
10870.00000000 -7640.00000000 1010.00000000 78 9 212 0.000000 0.000000 0.000000 0.000000 -60.708740 0.000000 96.000000 -0.374377 0.817257 0.438101
10880.00000000 -7640.00000000 1010.00000000 78 9 212 0.000000 0.000000 0.000000 0.000000 -60.708740 0.000000 96.000000 -0.033907 0.880226 0.473342
10880.00000000 -7670.00000000 1040.00000000 78 9 212 0.000000 0.000000 0.000000 0.000000 -60.708740 0.000000 96.000000 -0.512656 0.856290 0.062860
10890.00000000 -7680.00000000 1070.00000000 78 9 212 0.000000 0.000000 0.000000 0.000000 -60.708740 0.000000 96.000000 0.255750 0.963199 -0.082705
10870.00000000 -7680.00000000 1070.00000000 78 9 212 0.000000 0.000000 0.000000 0.000000 -60.708740 0.000000 96.000000 -0.195192 0.970857 0.139058
10910.00000000 -7730.00000000 1120.00000000 78 9 212 0.000000 0.000000 0.000000 0.000000 -60.708740 0.000000 96.000000 0.673398 0.610215 0.417340
10900.00000000 -7730.00000000 1090.00000000 78 9 212 0.000000 0.000000 0.000000 0.000000 -60.708740 0.000000 96.000000 0.416980 0.877302 0.237634
10940.00000000 -7760.00000000 1140.00000000 78 9 212 0.000000 0.000000 0.000000 0.000000 -60.708740 0.000000 96.000000 0.987979 -0.142798 -0.059209
10940.00000000 -7760.00000000 1140.00000000 78 9 212 0.000000 0.000000 0.000000 0.000000 -60.708740 0.000000 96.000000 0.987979 -0.142798 -0.059209
10880.00000000 -7740.00000000 1150.00000000 78 9 212 0.000000 0.000000 0.000000 0.000000 -60.708740 0.000000 96.000000 0.109926 0.866560 0.486816
10870.00000000 -7700.00000000 1120.00000000 78 9 212 0.000000 0.000000 0.000000 0.000000 -60.708740 0.000000 96.000000 -0.380537 0.922634 -0.062755
10860.00000000 -7730.00000000 1110.00000000 78 9 212 0.000000 0.000000 0.000000 0.000000 -60.708740 0.000000 96.000000 -0.697925 0.679105 -0.227414
10880.00000000 -7720.00000000 1090.00000000 78 9 212 0.000000 0.000000 0.000000 0.000000 -60.708740 0.000000 96.000000 -0.344547 0.920210 0.185743
10870.00000000 -7730.00000000 1110.00000000 78 9 212 0.000000 0.000000 0.000000 0.000000 -60.708740 0.000000 96.000000 -0.297487 0.852386 0.430046
10870.00000000 -7750.00000000 1130.00000000 78 9 212 0.000000 0.000000 0.000000 0.000000 -60.708740 0.000000 96.000000 0.950019 -0.242587 -0.196509
10900.00000000 -7700.00000000 1030.00000000 78 9 212 0.000000 0.000000 0.000000 0.000000 -60.708740 0.000000 96.000000 0.122857 0.952475 0.278741
10900.00000000 -7710.00000000 1010.00000000 78 9 212 0.000000 0.000000 0.000000 0.000000 -60.708740 0.000000 96.000000 -0.001197 0.966294 0.257439
10860.00000000 -7730.00000000 1050.00000000 78 9 212 0.000000 0.000000 0.000000 0.000000 -60.708740 0.000000 96.000000 0.925209 -0.280841 -0.255181
10860.00000000 -7710.00000000 1040.00000000 78 9 212 0.000000 0.000000 0.000000 0.000000 -60.708740 0.000000 96.000000 0.951635 -0.302735 -0.052372
10890.00000000 -7700.00000000 1070.00000000 78 9 212 0.000000 0.000000 0.000000 0.000000 -60.708740 0.000000 96.000000 -0.080212 0.989276 -0.122061
10880.00000000 -7720.00000000 1020.00000000 78 9 212 0.000000 0.000000 0.000000 0.000000 -60.708740 0.000000 96.000000 0.935629 -0.350699 0.040117
10870.00000000 -7730.00000000 1020.00000000 78 9 212 0.000000 0.000000 0.000000 0.000000 -60.708740 0.000000 96.000000 0.997905 0.043572 0.047823
10870.00000000 -7700.00000000 1000.00000000 78 9 212 0.000000 0.000000 0.000000 0.000000 -60.708740 0.000000 96.000000 0.886805 -0.393640 0.242126
10880.00000000 -7730.00000000 1000.00000000 78 9 212 0.000000 0.000000 0.000000 0.000000 -60.708740 0.000000 96.000000 0.848158 0.209403 0.486599
10860.00000000 -7700.00000000 1020.00000000 78 9 212 0.000000 0.000000 0.000000 0.000000 -60.708740 0.000000 96.000000 0.960458 -0.259130 -0.101847
10870.00000000 -7750.00000000 1070.00000000 78 9 212 0.000000 0.000000 0.000000 0.000000 -60.708740 0.000000 96.000000 0.808351 0.564491 -0.167089
10880.00000000 -7750.00000000 1060.00000000 78 9 212 0.000000 0.000000 0.000000 0.000000 -60.708740 0.000000 96.000000 0.474819 0.711395 0.518135
10880.00000000 -7750.00000000 1060.00000000 78 9 212 0.000000 0.000000 0.000000 0.000000 -60.708740 0.000000 96.000000 0.474819 0.711395 0.518135
10850.00000000 -7690.00000000 1060.00000000 78 9 212 0.000000 0.000000 0.000000 0.000000 -60.708740 0.000000 96.000000 0.760982 -0.631389 0.149183
10830.00000000 -7740.00000000 1120.00000000 78 9 212 0.000000 0.000000 0.000000 0.000000 -60.708740 0.000000 96.000000 0.905004 -0.268421 -0.330026
10850.00000000 -7710.00000000 1140.00000000 78 9 212 0.000000 0.000000 0.000000 0.000000 -60.708740 0.000000 96.000000 -0.677452 0.727633 0.107743
10840.00000000 -7720.00000000 1100.00000000 78 9 212 0.000000 0.000000 0.000000 0.000000 -60.708740 0.000000 96.000000 0.838476 -0.463409 0.286725
10850.00000000 -7710.00000000 1100.00000000 78 9 212 0.000000 0.000000 0.000000 0.000000 -60.708740 0.000000 96.000000 -0.488822 0.863730 0.122566
10830.00000000 -7720.00000000 1050.00000000 78 9 212 0.000000 0.000000 0.000000 0.000000 -60.708740 0.000000 96.000000 0.897457 -0.413660 0.153155
10840.00000000 -7750.00000000 1010.00000000 78 9 212 0.000000 0.000000 0.000000 0.000000 -60.708740 0.000000 96.000000 0.694085 0.621888 0.362631
10890.00000000 -7610.00000000 850.00000000 78 9 212 0.000000 0.000000 0.000000 0.000000 -60.708740 0.000000 96.000000 -0.502845 0.861420 0.071435
10810.00000000 -7590.00000000 860.00000000 78 9 212 0.000000 0.000000 0.000000 0.000000 -60.708740 0.000000 96.000000 -0.409578 0.911212 0.044026
10810.00000000 -7600.00000000 860.00000000 78 9 212 0.000000 0.000000 0.000000 0.000000 -60.708740 0.000000 96.000000 -0.516740 0.854768 0.048488
10930.00000000 -7570.00000000 760.00000000 78 9 212 0.000000 0.000000 0.000000 0.000000 -60.708740 0.000000 96.000000 -0.032329 0.777297 0.628303
10920.00000000 -7540.00000000 750.00000000 78 9 212 0.000000 0.000000 0.000000 0.000000 -60.708740 0.000000 96.000000 0.163837 0.922811 0.348680
10940.00000000 -7560.00000000 740.00000000 78 9 212 0.000000 0.000000 0.000000 0.000000 -60.708740 0.000000 96.000000 0.186016 0.980486 0.063606
10870.00000000 -7530.00000000 740.00000000 78 9 212 0.000000 0.000000 0.000000 0.000000 -60.708740 0.000000 96.000000 -0.296364 0.931228 0.212090
10880.00000000 -7530.00000000 750.00000000 78 9 212 0.000000 0.000000 0.000000 0.000000 -60.708740 0.000000 96.000000 -0.492556 0.816730 0.300569
10880.00000000 -7600.00000000 820.00000000 78 9 212 0.000000 0.000000 0.000000 0.000000 -60.708740 0.000000 96.000000 -0.179060 0.886566 0.426542
10890.00000000 -7590.00000000 810.00000000 78 9 212 0.000000 0.000000 0.000000 0.000000 -60.708740 0.000000 96.000000 -0.136430 0.983987 -0.114698
10860.00000000 -7600.00000000 770.00000000 78 9 212 0.000000 0.000000 0.000000 0.000000 -60.708740 0.000000 96.000000 0.921912 -0.381342 -0.068240
10900.00000000 -7550.00000000 730.00000000 78 9 212 0.000000 0.000000 0.000000 0.000000 -60.708740 0.000000 96.000000 -0.049016 0.979125 0.197260
10900.00000000 -7530.00000000 710.00000000 78 9 212 0.000000 0.000000 0.000000 0.000000 -60.708740 0.000000 96.000000 -0.361406 0.929519 -0.073348
10910.00000000 -7560.00000000 730.00000000 78 9 212 0.000000 0.000000 0.000000 0.000000 -60.708740 0.000000 96.000000 0.189547 0.901431 0.389222
10920.00000000 -7570.00000000 700.00000000 78 9 212 0.000000 0.000000 0.000000 0.000000 -60.708740 0.000000 96.000000 -0.123903 0.987680 0.095582
10920.00000000 -7570.00000000 710.00000000 78 9 212 0.000000 0.000000 0.000000 0.000000 -60.708740 0.000000 96.000000 -0.068436 0.867323 0.493019
10930.00000000 -7550.00000000 720.00000000 78 9 212 0.000000 0.000000 0.000000 0.000000 -60.708740 0.000000 96.000000 0.041995 0.990852 0.128255
10920.00000000 -7540.00000000 680.00000000 78 9 212 0.000000 0.000000 0.000000 0.000000 -60.708740 0.000000 96.000000 -0.291258 0.956644 -0.001219
10900.00000000 -7530.00000000 680.00000000 78 9 212 0.000000 0.000000 0.000000 0.000000 -60.708740 0.000000 96.000000 -0.406977 0.913437 -0.001292
10900.00000000 -7550.00000000 660.00000000 78 9 212 0.000000 0.000000 0.000000 0.000000 -60.708740 0.000000 96.000000 -0.438140 0.824083 0.359054
10910.00000000 -7580.00000000 670.00000000 78 9 212 0.000000 0.000000 0.000000 0.000000 -60.708740 0.000000 96.000000 -0.483880 0.865207 -0.131442
10900.00000000 -7580.00000000 670.00000000 78 9 212 0.000000 0.000000 0.000000 0.000000 -60.708740 0.000000 96.000000 -0.258851 0.964127 0.058773
10880.00000000 -7530.00000000 730.00000000 78 9 212 0.000000 0.000000 0.000000 0.000000 -60.708740 0.000000 96.000000 -0.250103 0.967146 0.045585
10870.00000000 -7540.00000000 730.00000000 78 9 212 0.000000 0.000000 0.000000 0.000000 -60.708740 0.000000 96.000000 0.741946 -0.667031 -0.067712
10880.00000000 -7530.00000000 730.00000000 78 9 212 0.000000 0.000000 0.000000 0.000000 -60.708740 0.000000 96.000000 -0.250103 0.967146 0.045585
10860.00000000 -7570.00000000 700.00000000 78 9 212 0.000000 0.000000 0.000000 0.000000 -60.708740 0.000000 96.000000 -0.574113 0.667845 0.473685
10880.00000000 -7530.00000000 660.00000000 78 9 212 0.000000 0.000000 0.000000 0.000000 -60.708740 0.000000 96.000000 -0.245040 0.969296 0.020521
10860.00000000 -7560.00000000 690.00000000 78 9 212 0.000000 0.000000 0.000000 0.000000 -60.708740 0.000000 96.000000 -0.616005 0.725374 0.307198
10890.00000000 -7550.00000000 660.00000000 78 9 212 0.000000 0.000000 0.000000 0.000000 -60.708740 0.000000 96.000000 0.551383 -0.775133 -0.308455
10820.00000000 -7550.00000000 680.00000000 78 9 212 0.000000 0.000000 0.000000 0.000000 -60.708740 0.000000 96.000000 0.897516 -0.324886 -0.298183
10790.00000000 -7580.00000000 730.00000000 78 9 212 0.000000 0.000000 0.000000 0.000000 -60.708740 0.000000 96.000000 0.833876 -0.545939 0.081249
10910.00000000 -7660.00000000 910.00000000 78 9 212 0.000000 0.000000 0.000000 0.000000 -60.708740 0.000000 96.000000 0.270039 0.901605 0.337917
10870.00000000 -7640.00000000 950.00000000 78 9 212 0.000000 0.000000 0.000000 0.000000 -60.708740 0.000000 96.000000 -0.556401 0.798179 0.230929
10860.00000000 -7630.00000000 940.00000000 78 9 212 0.000000 0.000000 0.000000 0.000000 -60.708740 0.000000 96.000000 -0.277424 0.897548 0.342700
10870.00000000 -7630.00000000 910.00000000 78 9 212 0.000000 0.000000 0.000000 0.000000 -60.708740 0.000000 96.000000 -0.154670 0.987857 0.014677
10870.00000000 -7630.00000000 930.00000000 78 9 212 0.000000 0.000000 0.000000 0.000000 -60.708740 0.000000 96.000000 -0.269363 0.955254 0.122199
10890.00000000 -7630.00000000 940.00000000 78 9 212 0.000000 0.000000 0.000000 0.000000 -60.708740 0.000000 96.000000 0.142650 0.978704 0.147612
10890.00000000 -7630.00000000 920.00000000 78 9 212 0.000000 0.000000 0.000000 0.000000 -60.708740 0.000000 96.000000 0.045810 0.993295 -0.106145
10880.00000000 -7630.00000000 930.00000000 78 9 212 0.000000 0.000000 0.000000 0.000000 -60.708740 0.000000 96.000000 0.074411 0.986238 0.147640
10890.00000000 -7670.00000000 960.00000000 78 9 212 0.000000 0.000000 0.000000 0.000000 -60.708740 0.000000 96.000000 -0.217764 0.974465 0.054745
10860.00000000 -7680.00000000 960.00000000 78 9 212 0.000000 0.000000 0.000000 0.000000 -60.708740 0.000000 96.000000 0.814564 -0.578214 -0.046426
10880.00000000 -7660.00000000 920.00000000 78 9 212 0.000000 0.000000 0.000000 0.000000 -60.708740 0.000000 96.000000 -0.468262 0.835404 0.287802
10880.00000000 -7660.00000000 910.00000000 78 9 212 0.000000 0.000000 0.000000 0.000000 -60.708740 0.000000 96.000000 -0.421232 0.899841 -0.113355
10870.00000000 -7630.00000000 890.00000000 78 9 212 0.000000 0.000000 0.000000 0.000000 -60.708740 0.000000 96.000000 -0.185358 0.978349 0.092065
10890.00000000 -7630.00000000 880.00000000 78 9 212 0.000000 0.000000 0.000000 0.000000 -60.708740 0.000000 96.000000 -0.086663 0.955880 0.280685
10870.00000000 -7680.00000000 850.00000000 78 9 212 0.000000 0.000000 0.000000 0.000000 -60.708740 0.000000 96.000000 0.914351 -0.399945 -0.063291
10880.00000000 -7700.00000000 980.00000000 78 9 212 0.000000 0.000000 0.000000 0.000000 -60.708740 0.000000 96.000000 0.756275 -0.464265 -0.460984
10880.00000000 -7720.00000000 970.00000000 78 9 212 0.000000 0.000000 0.000000 0.000000 -60.708740 0.000000 96.000000 0.971032 -0.088959 0.221771
10880.00000000 -7710.00000000 980.00000000 78 9 212 0.000000 0.000000 0.000000 0.000000 -60.708740 0.000000 96.000000 0.991551 -0.129333 0.009949
10880.00000000 -7730.00000000 990.00000000 78 9 212 0.000000 0.000000 0.000000 0.000000 -60.708740 0.000000 96.000000 0.816304 0.323679 0.478414
10870.00000000 -7710.00000000 910.00000000 78 9 212 0.000000 0.000000 0.000000 0.000000 -60.708740 0.000000 96.000000 0.903829 -0.083917 0.419586
10860.00000000 -7760.00000000 880.00000000 78 9 212 0.000000 0.000000 0.000000 0.000000 -60.708740 0.000000 96.000000 0.785517 0.515646 0.342158
10880.00000000 -7720.00000000 890.00000000 78 9 212 0.000000 0.000000 0.000000 0.000000 -60.708740 0.000000 96.000000 0.886054 0.461401 0.044915
10820.00000000 -7640.00000000 940.00000000 78 9 212 0.000000 0.000000 0.000000 0.000000 -60.708740 0.000000 96.000000 -0.675703 0.697754 -0.237835
10830.00000000 -7670.00000000 990.00000000 78 9 212 0.000000 0.000000 0.000000 0.000000 -60.708740 0.000000 96.000000 0.956372 -0.257231 -0.138509
10820.00000000 -7690.00000000 950.00000000 78 9 212 0.000000 0.000000 0.000000 0.000000 -60.708740 0.000000 96.000000 0.993325 0.073287 -0.089072
10840.00000000 -7660.00000000 980.00000000 78 9 212 0.000000 0.000000 0.000000 0.000000 -60.708740 0.000000 96.000000 0.894688 -0.446689 0.001310
10840.00000000 -7690.00000000 920.00000000 78 9 212 0.000000 0.000000 0.000000 0.000000 -60.708740 0.000000 96.000000 0.975722 0.054543 0.212113
10830.00000000 -7740.00000000 940.00000000 78 9 212 0.000000 0.000000 0.000000 0.000000 -60.708740 0.000000 96.000000 0.979792 0.191150 0.058908
10830.00000000 -7780.00000000 970.00000000 78 9 212 0.000000 0.000000 0.000000 0.000000 -60.708740 0.000000 96.000000 0.948387 0.308323 0.074154
10830.00000000 -7760.00000000 940.00000000 78 9 212 0.000000 0.000000 0.000000 0.000000 -60.708740 0.000000 96.000000 0.895430 0.424300 0.134811
10820.00000000 -7720.00000000 890.00000000 78 9 212 0.000000 0.000000 0.000000 0.000000 -60.708740 0.000000 96.000000 0.969230 0.243224 0.037889
10820.00000000 -7760.00000000 860.00000000 78 9 212 0.000000 0.000000 0.000000 0.000000 -60.708740 0.000000 96.000000 0.843023 0.509977 0.170984
10810.00000000 -7730.00000000 830.00000000 78 9 212 0.000000 0.000000 0.000000 0.000000 -60.708740 0.000000 96.000000 0.957110 -0.003667 0.289700
10810.00000000 -7710.00000000 860.00000000 78 9 212 0.000000 0.000000 0.000000 0.000000 -60.708740 0.000000 96.000000 0.937621 0.296890 -0.180896
10880.00000000 -7630.00000000 670.00000000 78 9 212 0.000000 0.000000 0.000000 0.000000 -60.708740 0.000000 96.000000 0.872855 -0.487890 0.009357
10840.00000000 -7780.00000000 820.00000000 78 9 212 0.000000 0.000000 0.000000 0.000000 -60.708740 0.000000 96.000000 0.709784 0.704184 -0.018200
10850.00000000 -7770.00000000 800.00000000 78 9 212 0.000000 0.000000 0.000000 0.000000 -60.708740 0.000000 96.000000 0.632348 0.612220 0.474681
10830.00000000 -7770.00000000 770.00000000 78 9 212 0.000000 0.000000 0.000000 0.000000 -60.708740 0.000000 96.000000 0.765781 0.632986 -0.113613
10820.00000000 -7770.00000000 760.00000000 78 9 212 0.000000 0.000000 0.000000 0.000000 -60.708740 0.000000 96.000000 0.393407 0.873393 0.287081
10740.00000000 -7580.00000000 690.00000000 78 9 212 0.000000 0.000000 0.000000 0.000000 -60.708740 0.000000 96.000000 0.965467 -0.038224 0.257705
11100.00000000 -7230.00000000 490.00000000 78 9 212 0.000000 0.000000 0.000000 0.000000 -60.708740 0.000000 96.000000 0.442304 0.864984 0.237003
11070.00000000 -7250.00000000 420.00000000 78 9 212 0.000000 0.000000 0.000000 0.000000 -60.708740 0.000000 96.000000 0.316993 0.754668 0.574449
11110.00000000 -7220.00000000 360.00000000 78 9 212 0.000000 0.000000 0.000000 0.000000 -60.708740 0.000000 96.000000 -0.049252 0.956001 0.289200
11100.00000000 -7410.00000000 540.00000000 78 9 212 0.000000 0.000000 0.000000 0.000000 -60.708740 0.000000 96.000000 0.491139 0.732574 0.471295
10910.00000000 -7430.00000000 600.00000000 78 9 212 0.000000 0.000000 0.000000 0.000000 -60.708740 0.000000 96.000000 -0.553855 0.798978 0.234263
10900.00000000 -7440.00000000 420.00000000 78 9 212 0.000000 0.000000 0.000000 0.000000 -60.708740 0.000000 96.000000 -0.198856 0.977199 0.074418
10940.00000000 -7440.00000000 410.00000000 78 9 212 0.000000 0.000000 0.000000 0.000000 -60.708740 0.000000 96.000000 0.082143 0.993592 0.077642
10920.00000000 -7430.00000000 410.00000000 78 9 212 0.000000 0.000000 0.000000 0.000000 -60.708740 0.000000 96.000000 -0.207396 0.960362 -0.186260
10910.00000000 -7440.00000000 420.00000000 78 9 212 0.000000 0.000000 0.000000 0.000000 -60.708740 0.000000 96.000000 -0.371960 0.923814 0.090623
10910.00000000 -7430.00000000 390.00000000 78 9 212 0.000000 0.000000 0.000000 0.000000 -60.708740 0.000000 96.000000 0.003735 0.944876 0.327408
10940.00000000 -7420.00000000 360.00000000 78 9 212 0.000000 0.000000 0.000000 0.000000 -60.708740 0.000000 96.000000 -0.158353 0.982754 0.095495
10900.00000000 -7440.00000000 400.00000000 78 9 212 0.000000 0.000000 0.000000 0.000000 -60.708740 0.000000 96.000000 -0.131332 0.899557 0.416592
10940.00000000 -7430.00000000 320.00000000 78 9 212 0.000000 0.000000 0.000000 0.000000 -60.708740 0.000000 96.000000 -0.417601 0.794894 0.440174
11050.00000000 -7440.00000000 180.00000000 78 9 212 0.000000 0.000000 0.000000 0.000000 -60.708740 0.000000 96.000000 0.711158 0.467999 0.524625
10950.00000000 -7300.00000000 190.00000000 78 9 212 0.000000 0.000000 0.000000 0.000000 -60.708740 0.000000 96.000000 -0.168344 0.973356 0.155686
10950.00000000 -7400.00000000 220.00000000 78 9 212 0.000000 0.000000 0.000000 0.000000 -60.708740 0.000000 96.000000 -0.477650 0.862710 0.166075
10950.00000000 -7370.00000000 160.00000000 78 9 212 0.000000 0.000000 0.000000 0.000000 -60.708740 0.000000 96.000000 -0.118697 0.988357 -0.095193
10950.00000000 -7370.00000000 160.00000000 78 9 212 0.000000 0.000000 0.000000 0.000000 -60.708740 0.000000 96.000000 -0.118697 0.988357 -0.095193
10950.00000000 -7440.00000000 230.00000000 78 9 212 0.000000 0.000000 0.000000 0.000000 -60.708740 0.000000 96.000000 0.594852 -0.678165 -0.431559
10980.00000000 -7430.00000000 170.00000000 78 9 212 0.000000 0.000000 0.000000 0.000000 -60.708740 0.000000 96.000000 -0.095050 0.976425 -0.193804
11030.00000000 -7410.00000000 70.00000000 78 9 212 0.000000 0.000000 0.000000 0.000000 -60.708740 0.000000 96.000000 0.497635 0.717327 0.487649
11050.00000000 -7420.00000000 60.00000000 78 9 212 0.000000 0.000000 0.000000 0.000000 -60.708740 0.000000 96.000000 0.657372 0.673684 0.337657
11040.00000000 -7410.00000000 60.00000000 78 9 212 0.000000 0.000000 0.000000 0.000000 -60.708740 0.000000 96.000000 0.584375 0.641633 0.496803
11040.00000000 -7420.00000000 0.00000000 78 9 212 0.000000 0.000000 0.000000 0.000000 -60.708740 0.000000 96.000000 0.168316 0.915133 0.366336
10980.00000000 -7330.00000000 40.00000000 78 9 212 0.000000 0.000000 0.000000 0.000000 -60.708740 0.000000 96.000000 -0.067339 0.991821 0.108427
10950.00000000 -7340.00000000 0.00000000 78 9 212 0.000000 0.000000 0.000000 0.000000 -60.708740 0.000000 96.000000 -0.256416 0.955250 0.147473
10950.00000000 -7370.00000000 90.00000000 78 9 212 0.000000 0.000000 0.000000 0.000000 -60.708740 0.000000 96.000000 -0.311891 0.775728 0.548608
10950.00000000 -7370.00000000 90.00000000 78 9 212 0.000000 0.000000 0.000000 0.000000 -60.708740 0.000000 96.000000 -0.311891 0.775728 0.548608
10960.00000000 -7430.00000000 120.00000000 78 9 212 0.000000 0.000000 0.000000 0.000000 -60.708740 0.000000 96.000000 -0.615730 0.668839 0.416572
10960.00000000 -7420.00000000 110.00000000 78 9 212 0.000000 0.000000 0.000000 0.000000 -60.708740 0.000000 96.000000 0.717039 -0.654002 -0.241114
10950.00000000 -7420.00000000 110.00000000 78 9 212 0.000000 0.000000 0.000000 0.000000 -60.708740 0.000000 96.000000 0.778830 -0.624493 0.058591
10960.00000000 -7440.00000000 140.00000000 78 9 212 0.000000 0.000000 0.000000 0.000000 -60.708740 0.000000 96.000000 -0.340686 0.850937 0.399800
10980.00000000 -7430.00000000 100.00000000 78 9 212 0.000000 0.000000 0.000000 0.000000 -60.708740 0.000000 96.000000 -0.109105 0.963972 0.242598
10970.00000000 -7430.00000000 80.00000000 78 9 212 0.000000 0.000000 0.000000 0.000000 -60.708740 0.000000 96.000000 -0.197873 0.886762 0.417731
11020.00000000 -7370.00000000 30.00000000 78 9 212 0.000000 0.000000 0.000000 0.000000 -60.708740 0.000000 96.000000 0.299316 0.951902 -0.065516
10950.00000000 -7370.00000000 50.00000000 78 9 212 0.000000 0.000000 0.000000 0.000000 -60.708740 0.000000 96.000000 -0.464278 0.864773 0.191348
10960.00000000 -7440.00000000 30.00000000 78 9 212 0.000000 0.000000 0.000000 0.000000 -60.708740 0.000000 96.000000 0.819413 -0.475228 0.320502
10940.00000000 -7400.00000000 240.00000000 78 9 212 0.000000 0.000000 0.000000 0.000000 -60.708740 0.000000 96.000000 -0.155392 0.842074 0.516492
10900.00000000 -7440.00000000 260.00000000 78 9 212 0.000000 0.000000 0.000000 0.000000 -60.708740 0.000000 96.000000 0.735303 -0.666972 0.120322
10930.00000000 -7400.00000000 170.00000000 78 9 212 0.000000 0.000000 0.000000 0.000000 -60.708740 0.000000 96.000000 -0.627763 0.743609 -0.230128
10920.00000000 -7400.00000000 160.00000000 78 9 212 0.000000 0.000000 0.000000 0.000000 -60.708740 0.000000 96.000000 -0.387341 0.900895 -0.195847
10930.00000000 -7400.00000000 160.00000000 78 9 212 0.000000 0.000000 0.000000 0.000000 -60.708740 0.000000 96.000000 -0.291636 0.907150 0.303360
10930.00000000 -7400.00000000 170.00000000 78 9 212 0.000000 0.000000 0.000000 0.000000 -60.708740 0.000000 96.000000 -0.627763 0.743609 -0.230128
10930.00000000 -7310.00000000 130.00000000 78 9 212 0.000000 0.000000 0.000000 0.000000 -60.708740 0.000000 96.000000 -0.245632 0.920761 0.303090
10920.00000000 -7430.00000000 70.00000000 78 9 212 0.000000 0.000000 0.000000 0.000000 -60.708740 0.000000 96.000000 0.897817 -0.367088 0.243251
10930.00000000 -7390.00000000 60.00000000 78 9 212 0.000000 0.000000 0.000000 0.000000 -60.708740 0.000000 96.000000 -0.269725 0.947427 0.172136
10930.00000000 -7370.00000000 0.00000000 78 9 212 0.000000 0.000000 0.000000 0.000000 -60.708740 0.000000 96.000000 -0.604596 0.796531 -0.001371
10920.00000000 -7430.00000000 50.00000000 78 9 212 0.000000 0.000000 0.000000 0.000000 -60.708740 0.000000 96.000000 0.905657 -0.337976 0.256042
11110.00000000 -7450.00000000 580.00000000 78 9 212 0.000000 0.000000 0.000000 0.000000 -60.708740 0.000000 96.000000 0.633328 0.542128 0.552262
11100.00000000 -7500.00000000 600.00000000 78 9 212 0.000000 0.000000 0.000000 0.000000 -60.708740 0.000000 96.000000 0.769965 0.523576 0.364720
11100.00000000 -7500.00000000 610.00000000 78 9 212 0.000000 0.000000 0.000000 0.000000 -60.708740 0.000000 96.000000 0.731846 0.447698 0.513779
11100.00000000 -7500.00000000 610.00000000 78 9 212 0.000000 0.000000 0.000000 0.000000 -60.708740 0.000000 96.000000 0.731846 0.447698 0.513779
11060.00000000 -7510.00000000 610.00000000 78 9 212 0.000000 0.000000 0.000000 0.000000 -60.708740 0.000000 96.000000 0.779849 0.572726 0.252627
11060.00000000 -7510.00000000 600.00000000 78 9 212 0.000000 0.000000 0.000000 0.000000 -60.708740 0.000000 96.000000 0.663360 0.695329 0.276533
11100.00000000 -7450.00000000 550.00000000 78 9 212 0.000000 0.000000 0.000000 0.000000 -60.708740 0.000000 96.000000 0.516401 0.803817 0.295312
11100.00000000 -7450.00000000 530.00000000 78 9 212 0.000000 0.000000 0.000000 0.000000 -60.708740 0.000000 96.000000 0.696568 0.705556 0.130326
11100.00000000 -7450.00000000 550.00000000 78 9 212 0.000000 0.000000 0.000000 0.000000 -60.708740 0.000000 96.000000 0.516401 0.803817 0.295312
