//X Y Z R G B PointSourceId ScanDirectionFlag NumberOfReturns ReturnNumber GpsTime Intensity Classification Nx Ny Nz
-10220.00000000 -18100.00000000 -810.00000000 111 5 197 0.000000 0.000000 0.000000 0.000000 -60.708740 0.000000 44.000000 0.524463 -0.397023 0.753201
-10260.00000000 -18110.00000000 -790.00000000 111 5 197 0.000000 0.000000 0.000000 0.000000 -60.708740 0.000000 44.000000 -0.233871 0.880366 -0.412625
-10280.00000000 -18120.00000000 -780.00000000 111 5 197 0.000000 0.000000 0.000000 0.000000 -60.708740 0.000000 44.000000 -0.351373 0.674964 -0.648815
-10220.00000000 -18170.00000000 -730.00000000 111 5 197 0.000000 0.000000 0.000000 0.000000 -60.708740 0.000000 44.000000 0.631464 -0.399430 0.664612
-10200.00000000 -18190.00000000 -700.00000000 111 5 197 0.000000 0.000000 0.000000 0.000000 -60.708740 0.000000 44.000000 0.362624 -0.544749 0.756144
-10260.00000000 -18150.00000000 -700.00000000 111 5 197 0.000000 0.000000 0.000000 0.000000 -60.708740 0.000000 44.000000 -0.428449 0.726213 -0.537629
-10250.00000000 -18150.00000000 -760.00000000 111 5 197 0.000000 0.000000 0.000000 0.000000 -60.708740 0.000000 44.000000 0.603197 -0.361264 0.711085
-10260.00000000 -18210.00000000 -730.00000000 111 5 197 0.000000 0.000000 0.000000 0.000000 -60.708740 0.000000 44.000000 -0.317963 0.864797 -0.388621
-10250.00000000 -18200.00000000 -720.00000000 111 5 197 0.000000 0.000000 0.000000 0.000000 -60.708740 0.000000 44.000000 0.759916 -0.451354 0.467767
-10320.00000000 -17920.00000000 -740.00000000 111 5 197 0.000000 0.000000 0.000000 0.000000 -60.708740 0.000000 44.000000 0.661190 -0.553515 0.506408
-10350.00000000 -17950.00000000 -700.00000000 111 5 197 0.000000 0.000000 0.000000 0.000000 -60.708740 0.000000 44.000000 -0.380774 0.900145 -0.211541
-10340.00000000 -17950.00000000 -700.00000000 111 5 197 0.000000 0.000000 0.000000 0.000000 -60.708740 0.000000 44.000000 -0.357257 0.915205 -0.186457
-10360.00000000 -18040.00000000 -840.00000000 111 5 197 0.000000 0.000000 0.000000 0.000000 -60.708740 0.000000 44.000000 0.760211 -0.274565 0.588807
-10400.00000000 -18010.00000000 -790.00000000 111 5 197 0.000000 0.000000 0.000000 0.000000 -60.708740 0.000000 44.000000 0.530606 -0.438039 0.725658
-10310.00000000 -18110.00000000 -700.00000000 111 5 197 0.000000 0.000000 0.000000 0.000000 -60.708740 0.000000 44.000000 0.626787 -0.565966 0.535556
-10310.00000000 -18110.00000000 -710.00000000 111 5 197 0.000000 0.000000 0.000000 0.000000 -60.708740 0.000000 44.000000 0.803184 -0.553441 0.220452
-10320.00000000 -18120.00000000 -710.00000000 111 5 197 0.000000 0.000000 0.000000 0.000000 -60.708740 0.000000 44.000000 0.618963 -0.531262 0.578486
-10320.00000000 -18120.00000000 -730.00000000 111 5 197 0.000000 0.000000 0.000000 0.000000 -60.708740 0.000000 44.000000 -0.611407 0.755268 -0.236119
-10320.00000000 -18140.00000000 -700.00000000 111 5 197 0.000000 0.000000 0.000000 0.000000 -60.708740 0.000000 44.000000 0.726247 -0.687365 -0.009720
-10310.00000000 -18140.00000000 -760.00000000 111 5 197 0.000000 0.000000 0.000000 0.000000 -60.708740 0.000000 44.000000 -0.708428 0.562429 -0.426384
-10350.00000000 -18100.00000000 -710.00000000 111 5 197 0.000000 0.000000 0.000000 0.000000 -60.708740 0.000000 44.000000 0.791404 -0.594671 0.141588
-10360.00000000 -18110.00000000 -700.00000000 111 5 197 0.000000 0.000000 0.000000 0.000000 -60.708740 0.000000 44.000000 -0.533063 0.844828 0.045930
-10350.00000000 -18120.00000000 -760.00000000 111 5 197 0.000000 0.000000 0.000000 0.000000 -60.708740 0.000000 44.000000 -0.505178 0.859787 -0.074581
-10350.00000000 -18120.00000000 -760.00000000 111 5 197 0.000000 0.000000 0.000000 0.000000 -60.708740 0.000000 44.000000 -0.505178 0.859787 -0.074581
-10360.00000000 -18120.00000000 -750.00000000 111 5 197 0.000000 0.000000 0.000000 0.000000 -60.708740 0.000000 44.000000 -0.425878 0.888094 -0.172967
-10300.00000000 -18180.00000000 -750.00000000 111 5 197 0.000000 0.000000 0.000000 0.000000 -60.708740 0.000000 44.000000 0.265476 -0.637460 0.723303
-10290.00000000 -18220.00000000 -700.00000000 111 5 197 0.000000 0.000000 0.000000 0.000000 -60.708740 0.000000 44.000000 0.735002 -0.641371 0.220033
-10300.00000000 -18200.00000000 -760.00000000 111 5 197 0.000000 0.000000 0.000000 0.000000 -60.708740 0.000000 44.000000 0.710196 -0.642864 0.286964
-10300.00000000 -18200.00000000 -760.00000000 111 5 197 0.000000 0.000000 0.000000 0.000000 -60.708740 0.000000 44.000000 0.710196 -0.642864 0.286964
-10360.00000000 -18210.00000000 -700.00000000 111 5 197 0.000000 0.000000 0.000000 0.000000 -60.708740 0.000000 44.000000 0.868538 -0.389239 0.306812
-10370.00000000 -18060.00000000 -730.00000000 111 5 197 0.000000 0.000000 0.000000 0.000000 -60.708740 0.000000 44.000000 -0.363898 0.844930 -0.392010
-10390.00000000 -18090.00000000 -720.00000000 111 5 197 0.000000 0.000000 0.000000 0.000000 -60.708740 0.000000 44.000000 0.825365 -0.519107 0.222037
-10400.00000000 -18090.00000000 -770.00000000 111 5 197 0.000000 0.000000 0.000000 0.000000 -60.708740 0.000000 44.000000 0.458954 -0.748474 0.478694
-10370.00000000 -18140.00000000 -710.00000000 111 5 197 0.000000 0.000000 0.000000 0.000000 -60.708740 0.000000 44.000000 0.871761 -0.412462 0.264399
-10380.00000000 -18110.00000000 -750.00000000 111 5 197 0.000000 0.000000 0.000000 0.000000 -60.708740 0.000000 44.000000 0.862436 -0.445567 0.240153
-10420.00000000 -18060.00000000 -710.00000000 111 5 197 0.000000 0.000000 0.000000 0.000000 -60.708740 0.000000 44.000000 -0.366895 0.832994 -0.414135
-10410.00000000 -18130.00000000 -720.00000000 111 5 197 0.000000 0.000000 0.000000 0.000000 -60.708740 0.000000 44.000000 -0.705176 0.705176 0.073848
-10420.00000000 -18080.00000000 -840.00000000 111 5 197 0.000000 0.000000 0.000000 0.000000 -60.708740 0.000000 44.000000 0.628317 -0.434989 0.644983
-10440.00000000 -18080.00000000 -840.00000000 111 5 197 0.000000 0.000000 0.000000 0.000000 -60.708740 0.000000 44.000000 -0.244528 0.720965 -0.648395
-10410.00000000 -18070.00000000 -850.00000000 111 5 197 0.000000 0.000000 0.000000 0.000000 -60.708740 0.000000 44.000000 -0.301238 0.906652 -0.295360
-10430.00000000 -18070.00000000 -830.00000000 111 5 197 0.000000 0.000000 0.000000 0.000000 -60.708740 0.000000 44.000000 0.678915 -0.678915 0.279553
-10430.00000000 -18090.00000000 -860.00000000 111 5 197 0.000000 0.000000 0.000000 0.000000 -60.708740 0.000000 44.000000 -0.741988 0.590693 -0.317075
-10430.00000000 -18140.00000000 -850.00000000 111 5 197 0.000000 0.000000 0.000000 0.000000 -60.708740 0.000000 44.000000 0.488623 -0.472059 0.733763
-10370.00000000 -18150.00000000 -730.00000000 111 5 197 0.000000 0.000000 0.000000 0.000000 -60.708740 0.000000 44.000000 0.874196 -0.445234 0.193773
-10390.00000000 -18150.00000000 -700.00000000 111 5 197 0.000000 0.000000 0.000000 0.000000 -60.708740 0.000000 44.000000 0.548325 -0.701656 0.454993
-10390.00000000 -18150.00000000 -700.00000000 111 5 197 0.000000 0.000000 0.000000 0.000000 -60.708740 0.000000 44.000000 0.548325 -0.701656 0.454993
-10380.00000000 -18180.00000000 -750.00000000 111 5 197 0.000000 0.000000 0.000000 0.000000 -60.708740 0.000000 44.000000 0.827479 -0.553097 0.096756
-10400.00000000 -18220.00000000 -710.00000000 111 5 197 0.000000 0.000000 0.000000 0.000000 -60.708740 0.000000 44.000000 0.875387 -0.444336 0.190430
-10390.00000000 -18210.00000000 -720.00000000 111 5 197 0.000000 0.000000 0.000000 0.000000 -60.708740 0.000000 44.000000 -0.609841 0.792378 0.015211
-10400.00000000 -18220.00000000 -740.00000000 111 5 197 0.000000 0.000000 0.000000 0.000000 -60.708740 0.000000 44.000000 -0.520064 0.823818 -0.225515
-10380.00000000 -18210.00000000 -740.00000000 111 5 197 0.000000 0.000000 0.000000 0.000000 -60.708740 0.000000 44.000000 0.575630 -0.545245 0.609391
-10430.00000000 -18200.00000000 -740.00000000 111 5 197 0.000000 0.000000 0.000000 0.000000 -60.708740 0.000000 44.000000 0.645485 -0.428656 0.632142
-10370.00000000 -18170.00000000 -790.00000000 111 5 197 0.000000 0.000000 0.000000 0.000000 -60.708740 0.000000 44.000000 -0.336277 0.874929 -0.348450
-10400.00000000 -18200.00000000 -830.00000000 111 5 197 0.000000 0.000000 0.000000 0.000000 -60.708740 0.000000 44.000000 0.440220 -0.411195 0.798201
-10410.00000000 -18150.00000000 -800.00000000 111 5 197 0.000000 0.000000 0.000000 0.000000 -60.708740 0.000000 44.000000 -0.545217 0.825952 -0.143323
-10420.00000000 -18180.00000000 -800.00000000 111 5 197 0.000000 0.000000 0.000000 0.000000 -60.708740 0.000000 44.000000 0.809907 -0.311017 0.497311
-10420.00000000 -18210.00000000 -820.00000000 111 5 197 0.000000 0.000000 0.000000 0.000000 -60.708740 0.000000 44.000000 -0.555242 0.665955 -0.498208
-10430.00000000 -18200.00000000 -790.00000000 111 5 197 0.000000 0.000000 0.000000 0.000000 -60.708740 0.000000 44.000000 0.546455 -0.600593 0.583674
-10440.00000000 -18200.00000000 -780.00000000 111 5 197 0.000000 0.000000 0.000000 0.000000 -60.708740 0.000000 44.000000 0.521541 -0.632938 0.572176
-10430.00000000 -18200.00000000 -780.00000000 111 5 197 0.000000 0.000000 0.000000 0.000000 -60.708740 0.000000 44.000000 0.443644 -0.509613 0.737207
-10440.00000000 -18200.00000000 -780.00000000 111 5 197 0.000000 0.000000 0.000000 0.000000 -60.708740 0.000000 44.000000 0.521541 -0.632938 0.572176
-10360.00000000 -18220.00000000 -870.00000000 111 5 197 0.000000 0.000000 0.000000 0.000000 -60.708740 0.000000 44.000000 -0.585344 0.481357 -0.652432
-10430.00000000 -18140.00000000 -870.00000000 111 5 197 0.000000 0.000000 0.000000 0.000000 -60.708740 0.000000 44.000000 0.303077 -0.856924 0.416924
-10160.00000000 -18240.00000000 -700.00000000 111 5 197 0.000000 0.000000 0.000000 0.000000 -60.708740 0.000000 44.000000 -0.646117 0.748532 -0.149104
-10240.00000000 -18280.00000000 -700.00000000 111 5 197 0.000000 0.000000 0.000000 0.000000 -60.708740 0.000000 44.000000 -0.353058 0.880373 -0.316692
-10270.00000000 -18380.00000000 -740.00000000 111 5 197 0.000000 0.000000 0.000000 0.000000 -60.708740 0.000000 44.000000 0.744251 -0.593150 0.307024
-10280.00000000 -18390.00000000 -750.00000000 111 5 197 0.000000 0.000000 0.000000 0.000000 -60.708740 0.000000 44.000000 -0.464233 0.735174 -0.493971
-10280.00000000 -18330.00000000 -710.00000000 111 5 197 0.000000 0.000000 0.000000 0.000000 -60.708740 0.000000 44.000000 0.289902 -0.642270 0.709540
-10280.00000000 -18330.00000000 -710.00000000 111 5 197 0.000000 0.000000 0.000000 0.000000 -60.708740 0.000000 44.000000 0.289902 -0.642270 0.709540
-10270.00000000 -18400.00000000 -700.00000000 111 5 197 0.000000 0.000000 0.000000 0.000000 -60.708740 0.000000 44.000000 0.773112 -0.276676 0.570743
-10260.00000000 -18500.00000000 -700.00000000 111 5 197 0.000000 0.000000 0.000000 0.000000 -60.708740 0.000000 44.000000 0.494934 -0.300103 0.815462
-10230.00000000 -18500.00000000 -720.00000000 111 5 197 0.000000 0.000000 0.000000 0.000000 -60.708740 0.000000 44.000000 0.160063 -0.335436 0.928365
-10240.00000000 -18500.00000000 -700.00000000 111 5 197 0.000000 0.000000 0.000000 0.000000 -60.708740 0.000000 44.000000 0.638922 -0.289837 0.712582
-10320.00000000 -18250.00000000 -760.00000000 111 5 197 0.000000 0.000000 0.000000 0.000000 -60.708740 0.000000 44.000000 -0.622883 0.725363 -0.293027
-10320.00000000 -18250.00000000 -740.00000000 111 5 197 0.000000 0.000000 0.000000 0.000000 -60.708740 0.000000 44.000000 -0.511054 0.762499 -0.396761
-10320.00000000 -18240.00000000 -740.00000000 111 5 197 0.000000 0.000000 0.000000 0.000000 -60.708740 0.000000 44.000000 0.452869 -0.606611 0.653401
-10300.00000000 -18240.00000000 -770.00000000 111 5 197 0.000000 0.000000 0.000000 0.000000 -60.708740 0.000000 44.000000 -0.361861 0.896530 -0.255519
-10360.00000000 -18240.00000000 -700.00000000 111 5 197 0.000000 0.000000 0.000000 0.000000 -60.708740 0.000000 44.000000 0.861683 -0.386910 0.328334
-10350.00000000 -18230.00000000 -700.00000000 111 5 197 0.000000 0.000000 0.000000 0.000000 -60.708740 0.000000 44.000000 -0.410393 0.780233 -0.472033
-10360.00000000 -18240.00000000 -700.00000000 111 5 197 0.000000 0.000000 0.000000 0.000000 -60.708740 0.000000 44.000000 0.861683 -0.386910 0.328334
-10360.00000000 -18280.00000000 -740.00000000 111 5 197 0.000000 0.000000 0.000000 0.000000 -60.708740 0.000000 44.000000 -0.470926 0.874983 -0.112396
-10310.00000000 -18300.00000000 -830.00000000 111 5 197 0.000000 0.000000 0.000000 0.000000 -60.708740 0.000000 44.000000 -0.488561 0.559075 -0.669883
-10360.00000000 -18230.00000000 -820.00000000 111 5 197 0.000000 0.000000 0.000000 0.000000 -60.708740 0.000000 44.000000 0.461973 -0.558704 0.688790
-10330.00000000 -18260.00000000 -830.00000000 111 5 197 0.000000 0.000000 0.000000 0.000000 -60.708740 0.000000 44.000000 0.271969 -0.539221 0.797041
-10330.00000000 -18270.00000000 -780.00000000 111 5 197 0.000000 0.000000 0.000000 0.000000 -60.708740 0.000000 44.000000 0.752213 -0.640214 0.155891
-10300.00000000 -18350.00000000 -710.00000000 111 5 197 0.000000 0.000000 0.000000 0.000000 -60.708740 0.000000 44.000000 -0.365008 0.767329 -0.527234
-10290.00000000 -18340.00000000 -710.00000000 111 5 197 0.000000 0.000000 0.000000 0.000000 -60.708740 0.000000 44.000000 0.425690 -0.504583 0.751122
-10290.00000000 -18390.00000000 -720.00000000 111 5 197 0.000000 0.000000 0.000000 0.000000 -60.708740 0.000000 44.000000 0.689557 -0.545969 0.475845
-10290.00000000 -18390.00000000 -740.00000000 111 5 197 0.000000 0.000000 0.000000 0.000000 -60.708740 0.000000 44.000000 -0.353198 0.869999 -0.344024
-10290.00000000 -18390.00000000 -760.00000000 111 5 197 0.000000 0.000000 0.000000 0.000000 -60.708740 0.000000 44.000000 0.240291 -0.491295 0.837191
-10340.00000000 -18320.00000000 -700.00000000 111 5 197 0.000000 0.000000 0.000000 0.000000 -60.708740 0.000000 44.000000 -0.304391 0.879856 -0.364966
-10340.00000000 -18340.00000000 -750.00000000 111 5 197 0.000000 0.000000 0.000000 0.000000 -60.708740 0.000000 44.000000 0.569655 -0.411143 0.711656
-10350.00000000 -18380.00000000 -720.00000000 111 5 197 0.000000 0.000000 0.000000 0.000000 -60.708740 0.000000 44.000000 0.356493 -0.577876 0.734147
-10350.00000000 -18380.00000000 -720.00000000 111 5 197 0.000000 0.000000 0.000000 0.000000 -60.708740 0.000000 44.000000 0.356493 -0.577876 0.734147
-10370.00000000 -18230.00000000 -750.00000000 111 5 197 0.000000 0.000000 0.000000 0.000000 -60.708740 0.000000 44.000000 0.637710 -0.617624 0.460289
-10370.00000000 -18240.00000000 -760.00000000 111 5 197 0.000000 0.000000 0.000000 0.000000 -60.708740 0.000000 44.000000 0.729698 -0.501357 0.464955
-10400.00000000 -18240.00000000 -770.00000000 111 5 197 0.000000 0.000000 0.000000 0.000000 -60.708740 0.000000 44.000000 -0.380336 0.869122 -0.316183
-10400.00000000 -18260.00000000 -770.00000000 111 5 197 0.000000 0.000000 0.000000 0.000000 -60.708740 0.000000 44.000000 0.700961 -0.666150 0.254751
-10400.00000000 -18240.00000000 -770.00000000 111 5 197 0.000000 0.000000 0.000000 0.000000 -60.708740 0.000000 44.000000 -0.380336 0.869122 -0.316183
-10380.00000000 -18300.00000000 -760.00000000 111 5 197 0.000000 0.000000 0.000000 0.000000 -60.708740 0.000000 44.000000 0.816244 -0.538569 0.209020
-10440.00000000 -18260.00000000 -710.00000000 111 5 197 0.000000 0.000000 0.000000 0.000000 -60.708740 0.000000 44.000000 -0.478536 0.659876 -0.579281
-10420.00000000 -18230.00000000 -700.00000000 111 5 197 0.000000 0.000000 0.000000 0.000000 -60.708740 0.000000 44.000000 -0.485406 0.799397 -0.354042
-10400.00000000 -18280.00000000 -850.00000000 111 5 197 0.000000 0.000000 0.000000 0.000000 -60.708740 0.000000 44.000000 -0.483473 0.817337 -0.313391
-10380.00000000 -18320.00000000 -730.00000000 111 5 197 0.000000 0.000000 0.000000 0.000000 -60.708740 0.000000 44.000000 0.524410 -0.678550 0.514358
-10400.00000000 -18340.00000000 -740.00000000 111 5 197 0.000000 0.000000 0.000000 0.000000 -60.708740 0.000000 44.000000 0.607142 -0.695992 0.383372
-10390.00000000 -18320.00000000 -760.00000000 111 5 197 0.000000 0.000000 0.000000 0.000000 -60.708740 0.000000 44.000000 -0.746965 0.456753 -0.483136
-10420.00000000 -18310.00000000 -710.00000000 111 5 197 0.000000 0.000000 0.000000 0.000000 -60.708740 0.000000 44.000000 0.645040 -0.425027 0.635040
-10430.00000000 -18350.00000000 -710.00000000 111 5 197 0.000000 0.000000 0.000000 0.000000 -60.708740 0.000000 44.000000 0.695131 -0.633269 0.340240
-10410.00000000 -18340.00000000 -720.00000000 111 5 197 0.000000 0.000000 0.000000 0.000000 -60.708740 0.000000 44.000000 0.444904 -0.524292 0.726070
-10440.00000000 -18360.00000000 -700.00000000 111 5 197 0.000000 0.000000 0.000000 0.000000 -60.708740 0.000000 44.000000 0.849179 -0.437737 0.295434
-10420.00000000 -18370.00000000 -730.00000000 111 5 197 0.000000 0.000000 0.000000 0.000000 -60.708740 0.000000 44.000000 -0.264991 0.906239 -0.329408
-10370.00000000 -18320.00000000 -790.00000000 111 5 197 0.000000 0.000000 0.000000 0.000000 -60.708740 0.000000 44.000000 0.823702 -0.515776 0.235563
-10390.00000000 -18360.00000000 -780.00000000 111 5 197 0.000000 0.000000 0.000000 0.000000 -60.708740 0.000000 44.000000 0.344127 -0.676838 0.650743
-10420.00000000 -18330.00000000 -800.00000000 111 5 197 0.000000 0.000000 0.000000 0.000000 -60.708740 0.000000 44.000000 -0.631236 0.644561 -0.431373
-10430.00000000 -18340.00000000 -790.00000000 111 5 197 0.000000 0.000000 0.000000 0.000000 -60.708740 0.000000 44.000000 0.619203 -0.745250 0.247366
-10420.00000000 -18350.00000000 -820.00000000 111 5 197 0.000000 0.000000 0.000000 0.000000 -60.708740 0.000000 44.000000 0.692007 -0.636647 0.340305
-10410.00000000 -18230.00000000 -890.00000000 111 5 197 0.000000 0.000000 0.000000 0.000000 -60.708740 0.000000 44.000000 0.219696 -0.489392 0.843937
-10410.00000000 -18300.00000000 -880.00000000 111 5 197 0.000000 0.000000 0.000000 0.000000 -60.708740 0.000000 44.000000 -0.521259 0.792251 -0.317219
-10360.00000000 -18450.00000000 -750.00000000 111 5 197 0.000000 0.000000 0.000000 0.000000 -60.708740 0.000000 44.000000 -0.632031 0.500569 -0.591581
-10320.00000000 -18480.00000000 -730.00000000 111 5 197 0.000000 0.000000 0.000000 0.000000 -60.708740 0.000000 44.000000 -0.247936 0.724856 -0.642737
-10320.00000000 -18480.00000000 -750.00000000 111 5 197 0.000000 0.000000 0.000000 0.000000 -60.708740 0.000000 44.000000 0.586295 -0.492219 0.643412
-10360.00000000 -18480.00000000 -710.00000000 111 5 197 0.000000 0.000000 0.000000 0.000000 -60.708740 0.000000 44.000000 0.734147 -0.546915 0.402385
-10360.00000000 -18480.00000000 -710.00000000 111 5 197 0.000000 0.000000 0.000000 0.000000 -60.708740 0.000000 44.000000 0.734147 -0.546915 0.402385
-10360.00000000 -18490.00000000 -710.00000000 111 5 197 0.000000 0.000000 0.000000 0.000000 -60.708740 0.000000 44.000000 -0.605765 0.665841 -0.435550
-10370.00000000 -18400.00000000 -760.00000000 111 5 197 0.000000 0.000000 0.000000 0.000000 -60.708740 0.000000 44.000000 0.829813 -0.422019 0.365118
-10370.00000000 -18450.00000000 -720.00000000 111 5 197 0.000000 0.000000 0.000000 0.000000 -60.708740 0.000000 44.000000 0.703778 -0.422267 0.571302
-10370.00000000 -18450.00000000 -750.00000000 111 5 197 0.000000 0.000000 0.000000 0.000000 -60.708740 0.000000 44.000000 0.480199 -0.434310 0.762091
-10370.00000000 -18450.00000000 -740.00000000 111 5 197 0.000000 0.000000 0.000000 0.000000 -60.708740 0.000000 44.000000 0.777862 -0.502942 0.376802
-10400.00000000 -18400.00000000 -790.00000000 111 5 197 0.000000 0.000000 0.000000 0.000000 -60.708740 0.000000 44.000000 0.249917 -0.532432 0.808738
-10400.00000000 -18430.00000000 -830.00000000 111 5 197 0.000000 0.000000 0.000000 0.000000 -60.708740 0.000000 44.000000 0.400511 -0.253507 0.880525
-10400.00000000 -18420.00000000 -830.00000000 111 5 197 0.000000 0.000000 0.000000 0.000000 -60.708740 0.000000 44.000000 0.287559 -0.403191 0.868762
-10370.00000000 -18460.00000000 -800.00000000 111 5 197 0.000000 0.000000 0.000000 0.000000 -60.708740 0.000000 44.000000 0.706887 -0.550540 0.444091
-10380.00000000 -18450.00000000 -790.00000000 111 5 197 0.000000 0.000000 0.000000 0.000000 -60.708740 0.000000 44.000000 0.574325 -0.703424 0.418744
-10440.00000000 -18410.00000000 -800.00000000 111 5 197 0.000000 0.000000 0.000000 0.000000 -60.708740 0.000000 44.000000 0.743191 -0.395384 0.539757
-10400.00000000 -18500.00000000 -730.00000000 111 5 197 0.000000 0.000000 0.000000 0.000000 -60.708740 0.000000 44.000000 0.620847 -0.604022 0.499706
-10400.00000000 -18510.00000000 -730.00000000 111 5 197 0.000000 0.000000 0.000000 0.000000 -60.708740 0.000000 44.000000 -0.592576 0.782445 -0.191400
-10380.00000000 -18500.00000000 -700.00000000 111 5 197 0.000000 0.000000 0.000000 0.000000 -60.708740 0.000000 44.000000 0.708890 -0.495389 0.502061
-10410.00000000 -18510.00000000 -730.00000000 111 5 197 0.000000 0.000000 0.000000 0.000000 -60.708740 0.000000 44.000000 0.576436 -0.349109 0.738813
-10410.00000000 -18510.00000000 -730.00000000 111 5 197 0.000000 0.000000 0.000000 0.000000 -60.708740 0.000000 44.000000 0.576436 -0.349109 0.738813
-10410.00000000 -18500.00000000 -720.00000000 111 5 197 0.000000 0.000000 0.000000 0.000000 -60.708740 0.000000 44.000000 -0.243539 0.740044 -0.626916
-10440.00000000 -18480.00000000 -730.00000000 111 5 197 0.000000 0.000000 0.000000 0.000000 -60.708740 0.000000 44.000000 0.448565 -0.484713 0.750895
-10430.00000000 -18500.00000000 -740.00000000 111 5 197 0.000000 0.000000 0.000000 0.000000 -60.708740 0.000000 44.000000 -0.646880 0.710769 -0.276322
-9680.00000000 -18880.00000000 -250.00000000 111 5 197 0.000000 0.000000 0.000000 0.000000 -60.708740 0.000000 44.000000 -0.325161 0.736062 -0.593703
-9690.00000000 -18860.00000000 -270.00000000 111 5 197 0.000000 0.000000 0.000000 0.000000 -60.708740 0.000000 44.000000 -0.322555 0.902859 -0.284261
-9680.00000000 -18880.00000000 -250.00000000 111 5 197 0.000000 0.000000 0.000000 0.000000 -60.708740 0.000000 44.000000 -0.325161 0.736062 -0.593703
-9730.00000000 -18830.00000000 -320.00000000 111 5 197 0.000000 0.000000 0.000000 0.000000 -60.708740 0.000000 44.000000 0.629668 -0.435924 0.643030
-9730.00000000 -18830.00000000 -320.00000000 111 5 197 0.000000 0.000000 0.000000 0.000000 -60.708740 0.000000 44.000000 0.629668 -0.435924 0.643030
-9770.00000000 -18850.00000000 -330.00000000 111 5 197 0.000000 0.000000 0.000000 0.000000 -60.708740 0.000000 44.000000 -0.247213 0.806941 -0.536406
-9770.00000000 -18850.00000000 -320.00000000 111 5 197 0.000000 0.000000 0.000000 0.000000 -60.708740 0.000000 44.000000 -0.651073 0.756961 -0.055806
-9810.00000000 -18700.00000000 -310.00000000 111 5 197 0.000000 0.000000 0.000000 0.000000 -60.708740 0.000000 44.000000 -0.493646 0.823781 -0.278746
-9860.00000000 -18680.00000000 -340.00000000 111 5 197 0.000000 0.000000 0.000000 0.000000 -60.708740 0.000000 44.000000 0.146137 -0.724658 0.673435
-9820.00000000 -18700.00000000 -330.00000000 111 5 197 0.000000 0.000000 0.000000 0.000000 -60.708740 0.000000 44.000000 0.356493 -0.577876 0.734147
-9880.00000000 -18710.00000000 -350.00000000 111 5 197 0.000000 0.000000 0.000000 0.000000 -60.708740 0.000000 44.000000 0.359394 -0.551288 0.752939
-9880.00000000 -18700.00000000 -350.00000000 111 5 197 0.000000 0.000000 0.000000 0.000000 -60.708740 0.000000 44.000000 -0.223848 0.712244 -0.665283
-9870.00000000 -18690.00000000 -340.00000000 111 5 197 0.000000 0.000000 0.000000 0.000000 -60.708740 0.000000 44.000000 -0.317348 0.749070 -0.581536
-9870.00000000 -18710.00000000 -320.00000000 111 5 197 0.000000 0.000000 0.000000 0.000000 -60.708740 0.000000 44.000000 0.231147 -0.500563 0.834271
-9880.00000000 -18710.00000000 -350.00000000 111 5 197 0.000000 0.000000 0.000000 0.000000 -60.708740 0.000000 44.000000 0.359394 -0.551288 0.752939
-9930.00000000 -18730.00000000 -350.00000000 111 5 197 0.000000 0.000000 0.000000 0.000000 -60.708740 0.000000 44.000000 0.687573 -0.671620 0.275987
-9860.00000000 -18810.00000000 -310.00000000 111 5 197 0.000000 0.000000 0.000000 0.000000 -60.708740 0.000000 44.000000 0.683080 -0.430457 0.590008
-9780.00000000 -18850.00000000 -240.00000000 111 5 197 0.000000 0.000000 0.000000 0.000000 -60.708740 0.000000 44.000000 -0.686700 0.673954 -0.272450
-9820.00000000 -18870.00000000 -250.00000000 111 5 197 0.000000 0.000000 0.000000 0.000000 -60.708740 0.000000 44.000000 0.662755 -0.366735 0.652887
-9810.00000000 -18880.00000000 -310.00000000 111 5 197 0.000000 0.000000 0.000000 0.000000 -60.708740 0.000000 44.000000 0.484495 -0.375041 0.790322
-9910.00000000 -18800.00000000 -320.00000000 111 5 197 0.000000 0.000000 0.000000 0.000000 -60.708740 0.000000 44.000000 -0.475920 0.828569 -0.294914
-9940.00000000 -18790.00000000 -320.00000000 111 5 197 0.000000 0.000000 0.000000 0.000000 -60.708740 0.000000 44.000000 0.641331 -0.463834 0.611190
-9940.00000000 -18830.00000000 -340.00000000 111 5 197 0.000000 0.000000 0.000000 0.000000 -60.708740 0.000000 44.000000 0.464199 -0.290318 0.836800
-9950.00000000 -18830.00000000 -330.00000000 111 5 197 0.000000 0.000000 0.000000 0.000000 -60.708740 0.000000 44.000000 0.406604 -0.359507 0.839897
-9820.00000000 -18730.00000000 -370.00000000 111 5 197 0.000000 0.000000 0.000000 0.000000 -60.708740 0.000000 44.000000 0.317510 -0.601173 0.733334
-9920.00000000 -18670.00000000 -410.00000000 111 5 197 0.000000 0.000000 0.000000 0.000000 -60.708740 0.000000 44.000000 0.488841 -0.401142 0.774674
-9910.00000000 -18730.00000000 -370.00000000 111 5 197 0.000000 0.000000 0.000000 0.000000 -60.708740 0.000000 44.000000 -0.547228 0.687800 -0.476941
-9920.00000000 -18730.00000000 -360.00000000 111 5 197 0.000000 0.000000 0.000000 0.000000 -60.708740 0.000000 44.000000 -0.168423 0.839134 -0.517193
-9910.00000000 -18730.00000000 -370.00000000 111 5 197 0.000000 0.000000 0.000000 0.000000 -60.708740 0.000000 44.000000 -0.547228 0.687800 -0.476941
-9920.00000000 -18730.00000000 -360.00000000 111 5 197 0.000000 0.000000 0.000000 0.000000 -60.708740 0.000000 44.000000 -0.168423 0.839134 -0.517193
-9930.00000000 -18690.00000000 -420.00000000 111 5 197 0.000000 0.000000 0.000000 0.000000 -60.708740 0.000000 44.000000 0.343955 -0.760577 0.550651
-9930.00000000 -18700.00000000 -430.00000000 111 5 197 0.000000 0.000000 0.000000 0.000000 -60.708740 0.000000 44.000000 0.804823 -0.376011 0.459213
-9930.00000000 -18700.00000000 -430.00000000 111 5 197 0.000000 0.000000 0.000000 0.000000 -60.708740 0.000000 44.000000 0.804823 -0.376011 0.459213
-9940.00000000 -18710.00000000 -430.00000000 111 5 197 0.000000 0.000000 0.000000 0.000000 -60.708740 0.000000 44.000000 -0.259587 0.778761 -0.571092
-9820.00000000 -18750.00000000 -360.00000000 111 5 197 0.000000 0.000000 0.000000 0.000000 -60.708740 0.000000 44.000000 0.754745 -0.592674 0.281242
-9810.00000000 -18750.00000000 -370.00000000 111 5 197 0.000000 0.000000 0.000000 0.000000 -60.708740 0.000000 44.000000 0.561078 -0.530749 0.635214
-9930.00000000 -18780.00000000 -370.00000000 111 5 197 0.000000 0.000000 0.000000 0.000000 -60.708740 0.000000 44.000000 -0.376806 0.643368 -0.666404
-9960.00000000 -18630.00000000 -420.00000000 111 5 197 0.000000 0.000000 0.000000 0.000000 -60.708740 0.000000 44.000000 0.366956 -0.436852 0.821282
-9960.00000000 -18630.00000000 -420.00000000 111 5 197 0.000000 0.000000 0.000000 0.000000 -60.708740 0.000000 44.000000 0.366956 -0.436852 0.821282
-10010.00000000 -18630.00000000 -410.00000000 111 5 197 0.000000 0.000000 0.000000 0.000000 -60.708740 0.000000 44.000000 0.371553 -0.444907 0.814866
-9970.00000000 -18570.00000000 -450.00000000 111 5 197 0.000000 0.000000 0.000000 0.000000 -60.708740 0.000000 44.000000 0.627147 -0.640526 0.443184
-9990.00000000 -18590.00000000 -460.00000000 111 5 197 0.000000 0.000000 0.000000 0.000000 -60.708740 0.000000 44.000000 0.403563 -0.514665 0.756476
-9980.00000000 -18650.00000000 -430.00000000 111 5 197 0.000000 0.000000 0.000000 0.000000 -60.708740 0.000000 44.000000 0.308288 -0.631103 0.711806
-9980.00000000 -18650.00000000 -430.00000000 111 5 197 0.000000 0.000000 0.000000 0.000000 -60.708740 0.000000 44.000000 0.308288 -0.631103 0.711806
-9970.00000000 -18710.00000000 -420.00000000 111 5 197 0.000000 0.000000 0.000000 0.000000 -60.708740 0.000000 44.000000 -0.545818 0.786295 -0.289521
-9980.00000000 -18710.00000000 -410.00000000 111 5 197 0.000000 0.000000 0.000000 0.000000 -60.708740 0.000000 44.000000 0.676140 -0.609689 0.413658
-10020.00000000 -18700.00000000 -390.00000000 111 5 197 0.000000 0.000000 0.000000 0.000000 -60.708740 0.000000 44.000000 0.344052 -0.325864 0.880591
-10020.00000000 -18720.00000000 -410.00000000 111 5 197 0.000000 0.000000 0.000000 0.000000 -60.708740 0.000000 44.000000 0.445601 -0.491641 0.748150
-10010.00000000 -18720.00000000 -420.00000000 111 5 197 0.000000 0.000000 0.000000 0.000000 -60.708740 0.000000 44.000000 0.312390 -0.671719 0.671719
-10020.00000000 -18720.00000000 -410.00000000 111 5 197 0.000000 0.000000 0.000000 0.000000 -60.708740 0.000000 44.000000 0.445601 -0.491641 0.748150
-10020.00000000 -18730.00000000 -420.00000000 111 5 197 0.000000 0.000000 0.000000 0.000000 -60.708740 0.000000 44.000000 0.399635 -0.383839 0.832442
-9990.00000000 -18710.00000000 -400.00000000 111 5 197 0.000000 0.000000 0.000000 0.000000 -60.708740 0.000000 44.000000 -0.383887 0.598073 -0.703519
-10010.00000000 -18720.00000000 -420.00000000 111 5 197 0.000000 0.000000 0.000000 0.000000 -60.708740 0.000000 44.000000 0.312390 -0.671719 0.671719
-10010.00000000 -18690.00000000 -450.00000000 111 5 197 0.000000 0.000000 0.000000 0.000000 -60.708740 0.000000 44.000000 -0.510368 0.651856 -0.560899
-10010.00000000 -18690.00000000 -450.00000000 111 5 197 0.000000 0.000000 0.000000 0.000000 -60.708740 0.000000 44.000000 -0.510368 0.651856 -0.560899
-10000.00000000 -18690.00000000 -460.00000000 111 5 197 0.000000 0.000000 0.000000 0.000000 -60.708740 0.000000 44.000000 -0.418853 0.804006 -0.422063
-10040.00000000 -18630.00000000 -370.00000000 111 5 197 0.000000 0.000000 0.000000 0.000000 -60.708740 0.000000 44.000000 0.556803 -0.577112 0.597421
-10030.00000000 -18610.00000000 -430.00000000 111 5 197 0.000000 0.000000 0.000000 0.000000 -60.708740 0.000000 44.000000 0.187021 -0.189637 0.963878
-10030.00000000 -18590.00000000 -520.00000000 111 5 197 0.000000 0.000000 0.000000 0.000000 -60.708740 0.000000 44.000000 -0.462726 0.882116 -0.088072
-10080.00000000 -18580.00000000 -510.00000000 111 5 197 0.000000 0.000000 0.000000 0.000000 -60.708740 0.000000 44.000000 -0.226597 0.726673 -0.648536
-10080.00000000 -18630.00000000 -460.00000000 111 5 197 0.000000 0.000000 0.000000 0.000000 -60.708740 0.000000 44.000000 0.584103 -0.573944 0.573944
-10040.00000000 -18650.00000000 -420.00000000 111 5 197 0.000000 0.000000 0.000000 0.000000 -60.708740 0.000000 44.000000 0.727321 -0.275331 0.628647
-10030.00000000 -18730.00000000 -360.00000000 111 5 197 0.000000 0.000000 0.000000 0.000000 -60.708740 0.000000 44.000000 0.453017 -0.482669 0.749537
-10030.00000000 -18730.00000000 -410.00000000 111 5 197 0.000000 0.000000 0.000000 0.000000 -60.708740 0.000000 44.000000 0.324691 -0.489413 0.809352
-10030.00000000 -18720.00000000 -400.00000000 111 5 197 0.000000 0.000000 0.000000 0.000000 -60.708740 0.000000 44.000000 0.414344 -0.466340 0.781566
-10030.00000000 -18730.00000000 -410.00000000 111 5 197 0.000000 0.000000 0.000000 0.000000 -60.708740 0.000000 44.000000 0.324691 -0.489413 0.809352
-10050.00000000 -18730.00000000 -410.00000000 111 5 197 0.000000 0.000000 0.000000 0.000000 -60.708740 0.000000 44.000000 0.408282 -0.230123 0.883374
-10100.00000000 -18680.00000000 -430.00000000 111 5 197 0.000000 0.000000 0.000000 0.000000 -60.708740 0.000000 44.000000 -0.365559 0.624564 -0.690135
-10110.00000000 -18680.00000000 -420.00000000 111 5 197 0.000000 0.000000 0.000000 0.000000 -60.708740 0.000000 44.000000 -0.365810 0.677487 -0.638117
-10060.00000000 -18660.00000000 -510.00000000 111 5 197 0.000000 0.000000 0.000000 0.000000 -60.708740 0.000000 44.000000 -0.319414 0.879525 -0.352718
-10030.00000000 -18730.00000000 -480.00000000 111 5 197 0.000000 0.000000 0.000000 0.000000 -60.708740 0.000000 44.000000 -0.683338 0.607227 -0.405370
-10090.00000000 -18690.00000000 -450.00000000 111 5 197 0.000000 0.000000 0.000000 0.000000 -60.708740 0.000000 44.000000 -0.322504 0.672558 -0.666076
-10070.00000000 -18570.00000000 -530.00000000 111 5 197 0.000000 0.000000 0.000000 0.000000 -60.708740 0.000000 44.000000 0.760808 -0.604585 0.235897
-10110.00000000 -18620.00000000 -530.00000000 111 5 197 0.000000 0.000000 0.000000 0.000000 -60.708740 0.000000 44.000000 0.721224 -0.439367 0.535530
-10100.00000000 -18670.00000000 -560.00000000 111 5 197 0.000000 0.000000 0.000000 0.000000 -60.708740 0.000000 44.000000 0.711484 -0.690514 0.130314
-10000.00000000 -18750.00000000 -390.00000000 111 5 197 0.000000 0.000000 0.000000 0.000000 -60.708740 0.000000 44.000000 0.691522 -0.682071 0.237858
-10030.00000000 -18750.00000000 -410.00000000 111 5 197 0.000000 0.000000 0.000000 0.000000 -60.708740 0.000000 44.000000 -0.329489 0.719032 -0.611907
-9830.00000000 -18930.00000000 -270.00000000 111 5 197 0.000000 0.000000 0.000000 0.000000 -60.708740 0.000000 44.000000 0.644929 -0.359388 0.674468
-9830.00000000 -18900.00000000 -320.00000000 111 5 197 0.000000 0.000000 0.000000 0.000000 -60.708740 0.000000 44.000000 0.667842 -0.728418 0.152953
-9880.00000000 -18960.00000000 -250.00000000 111 5 197 0.000000 0.000000 0.000000 0.000000 -60.708740 0.000000 44.000000 -0.538895 0.730063 -0.420239
-10050.00000000 -18960.00000000 -50.00000000 111 5 197 0.000000 0.000000 0.000000 0.000000 -60.708740 0.000000 44.000000 0.179643 -0.704755 0.686330
-10050.00000000 -18970.00000000 -50.00000000 111 5 197 0.000000 0.000000 0.000000 0.000000 -60.708740 0.000000 44.000000 0.573778 -0.415038 0.706061
-10060.00000000 -18970.00000000 -80.00000000 111 5 197 0.000000 0.000000 0.000000 0.000000 -60.708740 0.000000 44.000000 -0.405823 0.627784 -0.664225
-10030.00000000 -18970.00000000 -90.00000000 111 5 197 0.000000 0.000000 0.000000 0.000000 -60.708740 0.000000 44.000000 0.330506 -0.569116 0.752910
-10060.00000000 -18970.00000000 -80.00000000 111 5 197 0.000000 0.000000 0.000000 0.000000 -60.708740 0.000000 44.000000 -0.405823 0.627784 -0.664225
-10080.00000000 -18980.00000000 -90.00000000 111 5 197 0.000000 0.000000 0.000000 0.000000 -60.708740 0.000000 44.000000 0.379471 -0.370102 0.847954
-10080.00000000 -18960.00000000 -110.00000000 111 5 197 0.000000 0.000000 0.000000 0.000000 -60.708740 0.000000 44.000000 0.089297 -0.718769 0.689491
-10040.00000000 -19020.00000000 -90.00000000 111 5 197 0.000000 0.000000 0.000000 0.000000 -60.708740 0.000000 44.000000 0.269814 -0.470248 0.840278
-10080.00000000 -18990.00000000 -50.00000000 111 5 197 0.000000 0.000000 0.000000 0.000000 -60.708740 0.000000 44.000000 0.626931 -0.392039 0.673248
-10080.00000000 -19020.00000000 -70.00000000 111 5 197 0.000000 0.000000 0.000000 0.000000 -60.708740 0.000000 44.000000 0.447569 -0.244266 0.860242
-10080.00000000 -19020.00000000 -70.00000000 111 5 197 0.000000 0.000000 0.000000 0.000000 -60.708740 0.000000 44.000000 0.447569 -0.244266 0.860242
-10030.00000000 -19020.00000000 -140.00000000 111 5 197 0.000000 0.000000 0.000000 0.000000 -60.708740 0.000000 44.000000 0.144930 -0.587191 0.796368
-10040.00000000 -19010.00000000 -120.00000000 111 5 197 0.000000 0.000000 0.000000 0.000000 -60.708740 0.000000 44.000000 0.049746 -0.307405 0.950278
-10060.00000000 -19000.00000000 -180.00000000 111 5 197 0.000000 0.000000 0.000000 0.000000 -60.708740 0.000000 44.000000 0.251197 -0.661959 0.706195
-10040.00000000 -18990.00000000 -180.00000000 111 5 197 0.000000 0.000000 0.000000 0.000000 -60.708740 0.000000 44.000000 0.362237 -0.406144 0.838947
-10060.00000000 -19010.00000000 -150.00000000 111 5 197 0.000000 0.000000 0.000000 0.000000 -60.708740 0.000000 44.000000 0.037996 -0.381265 0.923684
-10040.00000000 -19030.00000000 -130.00000000 111 5 197 0.000000 0.000000 0.000000 0.000000 -60.708740 0.000000 44.000000 -0.541554 0.672332 -0.504668
-10040.00000000 -19030.00000000 -130.00000000 111 5 197 0.000000 0.000000 0.000000 0.000000 -60.708740 0.000000 44.000000 -0.541554 0.672332 -0.504668
-10070.00000000 -19040.00000000 -140.00000000 111 5 197 0.000000 0.000000 0.000000 0.000000 -60.708740 0.000000 44.000000 0.449345 -0.459148 0.766337
-10070.00000000 -19030.00000000 -140.00000000 111 5 197 0.000000 0.000000 0.000000 0.000000 -60.708740 0.000000 44.000000 0.272823 -0.222456 0.935992
-10030.00000000 -19060.00000000 -170.00000000 111 5 197 0.000000 0.000000 0.000000 0.000000 -60.708740 0.000000 44.000000 0.212609 -0.740252 0.637827
-10080.00000000 -19010.00000000 -170.00000000 111 5 197 0.000000 0.000000 0.000000 0.000000 -60.708740 0.000000 44.000000 0.462939 -0.336539 0.820018
-10090.00000000 -19050.00000000 -120.00000000 111 5 197 0.000000 0.000000 0.000000 0.000000 -60.708740 0.000000 44.000000 0.538349 -0.471680 0.698354
-10110.00000000 -18940.00000000 -220.00000000 111 5 197 0.000000 0.000000 0.000000 0.000000 -60.708740 0.000000 44.000000 -0.020990 0.726271 -0.687088
-10090.00000000 -18950.00000000 -240.00000000 111 5 197 0.000000 0.000000 0.000000 0.000000 -60.708740 0.000000 44.000000 0.682179 -0.455342 0.572097
-10050.00000000 -19000.00000000 -190.00000000 111 5 197 0.000000 0.000000 0.000000 0.000000 -60.708740 0.000000 44.000000 -0.225360 0.820187 -0.525839
-10050.00000000 -19050.00000000 -190.00000000 111 5 197 0.000000 0.000000 0.000000 0.000000 -60.708740 0.000000 44.000000 0.051038 -0.489688 0.870403
-10060.00000000 -19050.00000000 -260.00000000 111 5 197 0.000000 0.000000 0.000000 0.000000 -60.708740 0.000000 44.000000 -0.575668 0.763837 -0.291821
-10100.00000000 -19000.00000000 -260.00000000 111 5 197 0.000000 0.000000 0.000000 0.000000 -60.708740 0.000000 44.000000 0.441308 -0.331373 0.833930
-10030.00000000 -19070.00000000 -170.00000000 111 5 197 0.000000 0.000000 0.000000 0.000000 -60.708740 0.000000 44.000000 0.572517 -0.449000 0.686019
-10040.00000000 -19100.00000000 -160.00000000 111 5 197 0.000000 0.000000 0.000000 0.000000 -60.708740 0.000000 44.000000 0.280026 -0.502169 0.818176
-10070.00000000 -19080.00000000 -160.00000000 111 5 197 0.000000 0.000000 0.000000 0.000000 -60.708740 0.000000 44.000000 -0.507383 0.691581 -0.514081
-10030.00000000 -19070.00000000 -170.00000000 111 5 197 0.000000 0.000000 0.000000 0.000000 -60.708740 0.000000 44.000000 0.572517 -0.449000 0.686019
-10030.00000000 -19070.00000000 -170.00000000 111 5 197 0.000000 0.000000 0.000000 0.000000 -60.708740 0.000000 44.000000 0.572517 -0.449000 0.686019
-10080.00000000 -19090.00000000 -130.00000000 111 5 197 0.000000 0.000000 0.000000 0.000000 -60.708740 0.000000 44.000000 0.433192 -0.569291 0.698751
-10080.00000000 -19130.00000000 -130.00000000 111 5 197 0.000000 0.000000 0.000000 0.000000 -60.708740 0.000000 44.000000 -0.703078 0.433814 -0.563460
-10070.00000000 -19170.00000000 -160.00000000 111 5 197 0.000000 0.000000 0.000000 0.000000 -60.708740 0.000000 44.000000 0.120386 -0.726775 0.676243
-10090.00000000 -19180.00000000 -160.00000000 111 5 197 0.000000 0.000000 0.000000 0.000000 -60.708740 0.000000 44.000000 0.628344 -0.387561 0.674522
-10070.00000000 -19090.00000000 -200.00000000 111 5 197 0.000000 0.000000 0.000000 0.000000 -60.708740 0.000000 44.000000 -0.401441 0.752088 -0.522693
-10100.00000000 -19090.00000000 -260.00000000 111 5 197 0.000000 0.000000 0.000000 0.000000 -60.708740 0.000000 44.000000 -0.234279 0.831459 -0.503775
-10080.00000000 -19140.00000000 -270.00000000 111 5 197 0.000000 0.000000 0.000000 0.000000 -60.708740 0.000000 44.000000 0.421787 -0.328403 0.845131
-10100.00000000 -19120.00000000 -270.00000000 111 5 197 0.000000 0.000000 0.000000 0.000000 -60.708740 0.000000 44.000000 0.364924 -0.584205 0.724938
-10080.00000000 -19100.00000000 -290.00000000 111 5 197 0.000000 0.000000 0.000000 0.000000 -60.708740 0.000000 44.000000 0.471519 -0.338160 0.814443
-10080.00000000 -19090.00000000 -280.00000000 111 5 197 0.000000 0.000000 0.000000 0.000000 -60.708740 0.000000 44.000000 -0.711793 0.637882 -0.294036
-10080.00000000 -19090.00000000 -300.00000000 111 5 197 0.000000 0.000000 0.000000 0.000000 -60.708740 0.000000 44.000000 0.515528 -0.676736 0.525604
-10110.00000000 -19130.00000000 -280.00000000 111 5 197 0.000000 0.000000 0.000000 0.000000 -60.708740 0.000000 44.000000 0.368098 -0.530255 0.763762
-10110.00000000 -19130.00000000 -280.00000000 111 5 197 0.000000 0.000000 0.000000 0.000000 -60.708740 0.000000 44.000000 0.368098 -0.530255 0.763762
-10080.00000000 -19130.00000000 -310.00000000 111 5 197 0.000000 0.000000 0.000000 0.000000 -60.708740 0.000000 44.000000 0.357613 -0.373094 0.856104
-10080.00000000 -19110.00000000 -280.00000000 111 5 197 0.000000 0.000000 0.000000 0.000000 -60.708740 0.000000 44.000000 0.327500 -0.408210 0.852120
-10110.00000000 -19170.00000000 -330.00000000 111 5 197 0.000000 0.000000 0.000000 0.000000 -60.708740 0.000000 44.000000 0.788456 -0.587924 0.180783
-10110.00000000 -19160.00000000 -320.00000000 111 5 197 0.000000 0.000000 0.000000 0.000000 -60.708740 0.000000 44.000000 0.424612 -0.671053 0.607777
-10050.00000000 -19220.00000000 -390.00000000 111 5 197 0.000000 0.000000 0.000000 0.000000 -60.708740 0.000000 44.000000 -0.371453 0.721634 -0.584180
-10020.00000000 -19220.00000000 -620.00000000 111 5 197 0.000000 0.000000 0.000000 0.000000 -60.708740 0.000000 44.000000 0.878860 -0.441631 -0.180467
-10030.00000000 -19150.00000000 -590.00000000 111 5 197 0.000000 0.000000 0.000000 0.000000 -60.708740 0.000000 44.000000 -0.508211 0.782483 -0.359781
-10110.00000000 -19150.00000000 -610.00000000 111 5 197 0.000000 0.000000 0.000000 0.000000 -60.708740 0.000000 44.000000 0.815712 -0.510015 0.272944
-10050.00000000 -19170.00000000 -560.00000000 111 5 197 0.000000 0.000000 0.000000 0.000000 -60.708740 0.000000 44.000000 -0.515782 0.855002 -0.054220
-10040.00000000 -19190.00000000 -600.00000000 111 5 197 0.000000 0.000000 0.000000 0.000000 -60.708740 0.000000 44.000000 0.655806 -0.729873 0.192884
-10040.00000000 -19180.00000000 -570.00000000 111 5 197 0.000000 0.000000 0.000000 0.000000 -60.708740 0.000000 44.000000 -0.515834 0.751644 -0.411030
-10070.00000000 -19160.00000000 -600.00000000 111 5 197 0.000000 0.000000 0.000000 0.000000 -60.708740 0.000000 44.000000 -0.426474 0.889090 0.166253
-10110.00000000 -19230.00000000 -590.00000000 111 5 197 0.000000 0.000000 0.000000 0.000000 -60.708740 0.000000 44.000000 0.904749 -0.415770 0.092547
-10080.00000000 -19230.00000000 -590.00000000 111 5 197 0.000000 0.000000 0.000000 0.000000 -60.708740 0.000000 44.000000 0.900054 -0.425757 -0.092918
-10070.00000000 -19220.00000000 -630.00000000 111 5 197 0.000000 0.000000 0.000000 0.000000 -60.708740 0.000000 44.000000 -0.692288 0.715706 -0.092208
-10190.00000000 -18870.00000000 -210.00000000 111 5 197 0.000000 0.000000 0.000000 0.000000 -60.708740 0.000000 44.000000 0.340494 -0.026780 0.939865
-10150.00000000 -18580.00000000 -520.00000000 111 5 197 0.000000 0.000000 0.000000 0.000000 -60.708740 0.000000 44.000000 -0.222868 0.276132 0.934923
-10150.00000000 -18590.00000000 -520.00000000 111 5 197 0.000000 0.000000 0.000000 0.000000 -60.708740 0.000000 44.000000 0.324464 -0.011275 0.945831
-10140.00000000 -18700.00000000 -440.00000000 111 5 197 0.000000 0.000000 0.000000 0.000000 -60.708740 0.000000 44.000000 0.635398 -0.369417 0.678086
-10150.00000000 -18660.00000000 -500.00000000 111 5 197 0.000000 0.000000 0.000000 0.000000 -60.708740 0.000000 44.000000 -0.387742 0.741128 -0.548075
-10130.00000000 -18690.00000000 -520.00000000 111 5 197 0.000000 0.000000 0.000000 0.000000 -60.708740 0.000000 44.000000 -0.276805 0.857944 -0.432795
-10190.00000000 -18660.00000000 -520.00000000 111 5 197 0.000000 0.000000 0.000000 0.000000 -60.708740 0.000000 44.000000 0.107401 -0.622337 0.775346
-10190.00000000 -18660.00000000 -520.00000000 111 5 197 0.000000 0.000000 0.000000 0.000000 -60.708740 0.000000 44.000000 0.107401 -0.622337 0.775346
-10260.00000000 -18620.00000000 -520.00000000 111 5 197 0.000000 0.000000 0.000000 0.000000 -60.708740 0.000000 44.000000 -0.211401 0.581738 0.785424
-10220.00000000 -18720.00000000 -500.00000000 111 5 197 0.000000 0.000000 0.000000 0.000000 -60.708740 0.000000 44.000000 0.501230 -0.497900 0.707717
-10130.00000000 -18640.00000000 -530.00000000 111 5 197 0.000000 0.000000 0.000000 0.000000 -60.708740 0.000000 44.000000 0.714848 -0.624484 0.314662
-10190.00000000 -18580.00000000 -530.00000000 111 5 197 0.000000 0.000000 0.000000 0.000000 -60.708740 0.000000 44.000000 0.736490 -0.352800 -0.577161
-10160.00000000 -18640.00000000 -530.00000000 111 5 197 0.000000 0.000000 0.000000 0.000000 -60.708740 0.000000 44.000000 0.392063 -0.215855 0.894256
-10130.00000000 -18660.00000000 -570.00000000 111 5 197 0.000000 0.000000 0.000000 0.000000 -60.708740 0.000000 44.000000 0.776880 -0.602883 0.181628
-10190.00000000 -18690.00000000 -560.00000000 111 5 197 0.000000 0.000000 0.000000 0.000000 -60.708740 0.000000 44.000000 0.811487 -0.545576 0.209367
-10210.00000000 -18580.00000000 -580.00000000 111 5 197 0.000000 0.000000 0.000000 0.000000 -60.708740 0.000000 44.000000 -0.567546 0.823148 -0.017865
-10250.00000000 -18570.00000000 -600.00000000 111 5 197 0.000000 0.000000 0.000000 0.000000 -60.708740 0.000000 44.000000 0.796274 -0.390898 0.461678
-10280.00000000 -18600.00000000 -600.00000000 111 5 197 0.000000 0.000000 0.000000 0.000000 -60.708740 0.000000 44.000000 -0.561720 0.787034 -0.255043
-10260.00000000 -18590.00000000 -600.00000000 111 5 197 0.000000 0.000000 0.000000 0.000000 -60.708740 0.000000 44.000000 0.732294 -0.673357 0.101667
-10250.00000000 -18570.00000000 -580.00000000 111 5 197 0.000000 0.000000 0.000000 0.000000 -60.708740 0.000000 44.000000 -0.691766 0.694861 0.196542
-10250.00000000 -18570.00000000 -580.00000000 111 5 197 0.000000 0.000000 0.000000 0.000000 -60.708740 0.000000 44.000000 -0.691766 0.694861 0.196542
-10270.00000000 -18640.00000000 -560.00000000 111 5 197 0.000000 0.000000 0.000000 0.000000 -60.708740 0.000000 44.000000 0.719380 -0.626037 -0.300949
-10260.00000000 -18630.00000000 -560.00000000 111 5 197 0.000000 0.000000 0.000000 0.000000 -60.708740 0.000000 44.000000 -0.660307 0.750413 -0.029566
-10260.00000000 -18630.00000000 -570.00000000 111 5 197 0.000000 0.000000 0.000000 0.000000 -60.708740 0.000000 44.000000 -0.586197 0.669701 0.455931
-10270.00000000 -18600.00000000 -690.00000000 111 5 197 0.000000 0.000000 0.000000 0.000000 -60.708740 0.000000 44.000000 0.275883 -0.626716 0.728777
-10320.00000000 -18590.00000000 -550.00000000 111 5 197 0.000000 0.000000 0.000000 0.000000 -60.708740 0.000000 44.000000 -0.496162 0.866555 -0.053901
-10290.00000000 -18570.00000000 -580.00000000 111 5 197 0.000000 0.000000 0.000000 0.000000 -60.708740 0.000000 44.000000 -0.674358 0.735007 -0.070757
-10300.00000000 -18630.00000000 -550.00000000 111 5 197 0.000000 0.000000 0.000000 0.000000 -60.708740 0.000000 44.000000 0.860541 -0.347615 -0.372335
-10330.00000000 -18600.00000000 -550.00000000 111 5 197 0.000000 0.000000 0.000000 0.000000 -60.708740 0.000000 44.000000 -0.543228 0.828828 -0.133967
-10330.00000000 -18600.00000000 -560.00000000 111 5 197 0.000000 0.000000 0.000000 0.000000 -60.708740 0.000000 44.000000 0.778638 -0.594345 0.201187
-10350.00000000 -18570.00000000 -600.00000000 111 5 197 0.000000 0.000000 0.000000 0.000000 -60.708740 0.000000 44.000000 0.831408 -0.511049 -0.218149
-10340.00000000 -18610.00000000 -550.00000000 111 5 197 0.000000 0.000000 0.000000 0.000000 -60.708740 0.000000 44.000000 0.653292 -0.616534 -0.439427
-10340.00000000 -18610.00000000 -550.00000000 111 5 197 0.000000 0.000000 0.000000 0.000000 -60.708740 0.000000 44.000000 0.653292 -0.616534 -0.439427
-10340.00000000 -18620.00000000 -530.00000000 111 5 197 0.000000 0.000000 0.000000 0.000000 -60.708740 0.000000 44.000000 -0.463364 0.513188 0.722449
