//X Y Z R G B PointSourceId ScanDirectionFlag NumberOfReturns ReturnNumber GpsTime Intensity Classification Nx Ny Nz
-270.00000000 3060.00000000 -310.00000000 144 74 146 97.000000 1.000000 4.000000 1.000000 -60.708740 114.000000 149.000000 -0.068047 0.005234 0.997668
-270.00000000 3070.00000000 -310.00000000 144 74 146 97.000000 1.000000 4.000000 1.000000 -60.708740 114.000000 149.000000 -0.010796 -0.250698 0.968005
-260.00000000 3070.00000000 -310.00000000 144 74 146 97.000000 1.000000 4.000000 1.000000 -60.708740 114.000000 149.000000 -0.153045 0.196773 0.968431
-280.00000000 3050.00000000 -310.00000000 144 74 146 97.000000 1.000000 4.000000 1.000000 -60.708740 114.000000 149.000000 0.038772 0.034581 0.998650
-290.00000000 3050.00000000 -340.00000000 144 74 146 97.000000 1.000000 4.000000 1.000000 -60.708740 114.000000 149.000000 -0.055862 -0.024242 0.998144
-330.00000000 3070.00000000 -300.00000000 144 74 146 97.000000 1.000000 4.000000 1.000000 -60.708740 114.000000 149.000000 0.235104 -0.166034 0.957684
-310.00000000 3080.00000000 -290.00000000 144 74 146 97.000000 1.000000 4.000000 1.000000 -60.708740 114.000000 149.000000 0.160928 0.005627 0.986950
-330.00000000 3050.00000000 -320.00000000 144 74 146 97.000000 1.000000 4.000000 1.000000 -60.708740 114.000000 149.000000 0.184346 -0.333512 0.924546
-90.00000000 3320.00000000 -360.00000000 144 74 146 97.000000 1.000000 4.000000 1.000000 -60.708740 114.000000 149.000000 0.171073 0.226772 0.958806
-90.00000000 3260.00000000 -450.00000000 144 74 146 97.000000 1.000000 4.000000 1.000000 -60.708740 114.000000 149.000000 0.175986 0.003406 0.984387
-20.00000000 3210.00000000 -410.00000000 144 74 146 97.000000 1.000000 4.000000 1.000000 -60.708740 114.000000 149.000000 -0.555843 0.492030 0.670034
-70.00000000 3220.00000000 -360.00000000 144 74 146 97.000000 1.000000 4.000000 1.000000 -60.708740 114.000000 149.000000 -0.615717 0.067456 0.785075
-70.00000000 3200.00000000 -430.00000000 144 74 146 97.000000 1.000000 4.000000 1.000000 -60.708740 114.000000 149.000000 -0.398846 0.219292 0.890412
-80.00000000 3190.00000000 -410.00000000 144 74 146 97.000000 1.000000 4.000000 1.000000 -60.708740 114.000000 149.000000 -0.236469 -0.239235 0.941727
-80.00000000 3170.00000000 -440.00000000 144 74 146 97.000000 1.000000 4.000000 1.000000 -60.708740 114.000000 149.000000 -0.658884 0.149267 0.737287
-80.00000000 3190.00000000 -410.00000000 144 74 146 97.000000 1.000000 4.000000 1.000000 -60.708740 114.000000 149.000000 -0.236469 -0.239235 0.941727
-90.00000000 3240.00000000 -450.00000000 144 74 146 97.000000 1.000000 4.000000 1.000000 -60.708740 114.000000 149.000000 0.211206 0.062263 0.975456
-110.00000000 3320.00000000 -360.00000000 144 74 146 97.000000 1.000000 4.000000 1.000000 -60.708740 114.000000 149.000000 -0.171470 0.452858 0.874939
-100.00000000 3300.00000000 -440.00000000 144 74 146 97.000000 1.000000 4.000000 1.000000 -60.708740 114.000000 149.000000 0.139012 0.047103 0.989170
-110.00000000 3310.00000000 -420.00000000 144 74 146 97.000000 1.000000 4.000000 1.000000 -60.708740 114.000000 149.000000 -0.465777 0.127551 0.875661
-100.00000000 3310.00000000 -450.00000000 144 74 146 97.000000 1.000000 4.000000 1.000000 -60.708740 114.000000 149.000000 0.185287 -0.076295 0.979718
-100.00000000 3300.00000000 -450.00000000 144 74 146 97.000000 1.000000 4.000000 1.000000 -60.708740 114.000000 149.000000 0.119053 0.357159 0.926425
-110.00000000 3290.00000000 -450.00000000 144 74 146 97.000000 1.000000 4.000000 1.000000 -60.708740 114.000000 149.000000 0.147214 0.374344 0.915530
-110.00000000 3250.00000000 -380.00000000 144 74 146 97.000000 1.000000 4.000000 1.000000 -60.708740 114.000000 149.000000 0.065266 0.167319 0.983740
-120.00000000 3210.00000000 -440.00000000 144 74 146 97.000000 1.000000 4.000000 1.000000 -60.708740 114.000000 149.000000 -0.016146 -0.091494 0.995675
-110.00000000 3220.00000000 -400.00000000 144 74 146 97.000000 1.000000 4.000000 1.000000 -60.708740 114.000000 149.000000 -0.043063 0.091646 0.994860
-110.00000000 3230.00000000 -400.00000000 144 74 146 97.000000 1.000000 4.000000 1.000000 -60.708740 114.000000 149.000000 0.076484 0.302048 0.950220
-110.00000000 3210.00000000 -400.00000000 144 74 146 97.000000 1.000000 4.000000 1.000000 -60.708740 114.000000 149.000000 -0.073782 -0.299009 0.951394
-100.00000000 3230.00000000 -440.00000000 144 74 146 97.000000 1.000000 4.000000 1.000000 -60.708740 114.000000 149.000000 -0.115440 0.211852 0.970460
-120.00000000 3190.00000000 -420.00000000 144 74 146 97.000000 1.000000 4.000000 1.000000 -60.708740 114.000000 149.000000 0.159754 0.261782 0.951813
-140.00000000 3170.00000000 -400.00000000 144 74 146 97.000000 1.000000 4.000000 1.000000 -60.708740 114.000000 149.000000 -0.051739 -0.200941 0.978236
-100.00000000 3210.00000000 -450.00000000 144 74 146 97.000000 1.000000 4.000000 1.000000 -60.708740 114.000000 149.000000 -0.066181 -0.184102 0.980677
-100.00000000 3240.00000000 -450.00000000 144 74 146 97.000000 1.000000 4.000000 1.000000 -60.708740 114.000000 149.000000 -0.049957 0.222977 0.973543
-50.00000000 3160.00000000 -360.00000000 144 74 146 97.000000 1.000000 4.000000 1.000000 -60.708740 114.000000 149.000000 -0.292780 0.076097 0.953147
-80.00000000 3140.00000000 -390.00000000 144 74 146 97.000000 1.000000 4.000000 1.000000 -60.708740 114.000000 149.000000 -0.360857 0.446699 0.818683
-60.00000000 3140.00000000 -380.00000000 144 74 146 97.000000 1.000000 4.000000 1.000000 -60.708740 114.000000 149.000000 0.544130 -0.523914 -0.655314
-50.00000000 3160.00000000 -420.00000000 144 74 146 97.000000 1.000000 4.000000 1.000000 -60.708740 114.000000 149.000000 -0.488544 -0.179677 0.853839
-90.00000000 3160.00000000 -440.00000000 144 74 146 97.000000 1.000000 4.000000 1.000000 -60.708740 114.000000 149.000000 -0.327408 0.268680 0.905878
-110.00000000 3160.00000000 -380.00000000 144 74 146 97.000000 1.000000 4.000000 1.000000 -60.708740 114.000000 149.000000 -0.210150 0.303236 0.929454
-130.00000000 3120.00000000 -400.00000000 144 74 146 97.000000 1.000000 4.000000 1.000000 -60.708740 114.000000 149.000000 -0.535259 0.182440 0.824751
-150.00000000 3160.00000000 -370.00000000 144 74 146 97.000000 1.000000 4.000000 1.000000 -60.708740 114.000000 149.000000 -0.318389 0.345550 0.882737
-160.00000000 3160.00000000 -370.00000000 144 74 146 97.000000 1.000000 4.000000 1.000000 -60.708740 114.000000 149.000000 -0.161005 0.309624 0.937129
-160.00000000 3150.00000000 -370.00000000 144 74 146 97.000000 1.000000 4.000000 1.000000 -60.708740 114.000000 149.000000 -0.377545 0.073897 0.923038
-160.00000000 3130.00000000 -450.00000000 144 74 146 97.000000 1.000000 4.000000 1.000000 -60.708740 114.000000 149.000000 0.319188 -0.016272 0.947552
-160.00000000 3160.00000000 -450.00000000 144 74 146 97.000000 1.000000 4.000000 1.000000 -60.708740 114.000000 149.000000 0.287217 -0.041389 0.956971
-200.00000000 3270.00000000 -400.00000000 144 74 146 97.000000 1.000000 4.000000 1.000000 -60.708740 114.000000 149.000000 0.280319 -0.318478 0.905535
-230.00000000 3300.00000000 -400.00000000 144 74 146 97.000000 1.000000 4.000000 1.000000 -60.708740 114.000000 149.000000 0.375404 -0.284945 0.881974
-240.00000000 3290.00000000 -360.00000000 144 74 146 97.000000 1.000000 4.000000 1.000000 -60.708740 114.000000 149.000000 0.242871 0.338857 0.908950
-180.00000000 3250.00000000 -400.00000000 144 74 146 97.000000 1.000000 4.000000 1.000000 -60.708740 114.000000 149.000000 0.304277 0.219362 0.926982
-220.00000000 3170.00000000 -390.00000000 144 74 146 97.000000 1.000000 4.000000 1.000000 -60.708740 114.000000 149.000000 0.033137 0.065205 0.997321
-290.00000000 3300.00000000 -380.00000000 144 74 146 97.000000 1.000000 4.000000 1.000000 -60.708740 114.000000 149.000000 0.711146 -0.021040 0.702730
-290.00000000 3300.00000000 -380.00000000 144 74 146 97.000000 1.000000 4.000000 1.000000 -60.708740 114.000000 149.000000 0.711146 -0.021040 0.702730
-280.00000000 3320.00000000 -420.00000000 144 74 146 97.000000 1.000000 4.000000 1.000000 -60.708740 114.000000 149.000000 0.407378 -0.066317 0.910849
-310.00000000 3290.00000000 -390.00000000 144 74 146 97.000000 1.000000 4.000000 1.000000 -60.708740 114.000000 149.000000 0.183271 0.115947 0.976201
-280.00000000 3250.00000000 -380.00000000 144 74 146 97.000000 1.000000 4.000000 1.000000 -60.708740 114.000000 149.000000 0.495091 -0.329530 0.803925
-210.00000000 3150.00000000 -370.00000000 144 74 146 97.000000 1.000000 4.000000 1.000000 -60.708740 114.000000 149.000000 0.062781 0.164651 0.984352
-190.00000000 3120.00000000 -420.00000000 144 74 146 97.000000 1.000000 4.000000 1.000000 -60.708740 114.000000 149.000000 0.272953 -0.006066 0.962008
-250.00000000 3130.00000000 -420.00000000 144 74 146 97.000000 1.000000 4.000000 1.000000 -60.708740 114.000000 149.000000 -0.151972 -0.047564 0.987240
-230.00000000 3100.00000000 -380.00000000 144 74 146 97.000000 1.000000 4.000000 1.000000 -60.708740 114.000000 149.000000 0.018056 -0.071160 0.997301
-210.00000000 3050.00000000 -430.00000000 144 74 146 97.000000 1.000000 4.000000 1.000000 -60.708740 114.000000 149.000000 0.328801 0.209237 0.920929
-240.00000000 3070.00000000 -410.00000000 144 74 146 97.000000 1.000000 4.000000 1.000000 -60.708740 114.000000 149.000000 0.113953 0.434708 0.893333
-310.00000000 3110.00000000 -410.00000000 144 74 146 97.000000 1.000000 4.000000 1.000000 -60.708740 114.000000 149.000000 0.405107 -0.450298 0.795688
-320.00000000 3100.00000000 -410.00000000 144 74 146 97.000000 1.000000 4.000000 1.000000 -60.708740 114.000000 149.000000 0.634859 0.046869 0.771205
-320.00000000 3100.00000000 -410.00000000 144 74 146 97.000000 1.000000 4.000000 1.000000 -60.708740 114.000000 149.000000 0.634859 0.046869 0.771205
-290.00000000 3030.00000000 -380.00000000 144 74 146 97.000000 1.000000 4.000000 1.000000 -60.708740 114.000000 149.000000 0.558523 -0.206577 0.803355
-310.00000000 3020.00000000 -360.00000000 144 74 146 97.000000 1.000000 4.000000 1.000000 -60.708740 114.000000 149.000000 0.290080 -0.117886 0.949714
-320.00000000 3020.00000000 -360.00000000 144 74 146 97.000000 1.000000 4.000000 1.000000 -60.708740 114.000000 149.000000 -0.045042 -0.151295 0.987462
-360.00000000 3680.00000000 -200.00000000 144 74 146 97.000000 1.000000 4.000000 1.000000 -60.708740 114.000000 149.000000 0.909123 -0.402671 -0.106549
-390.00000000 3550.00000000 -60.00000000 144 74 146 97.000000 1.000000 4.000000 1.000000 -60.708740 114.000000 149.000000 0.840012 -0.168002 -0.515901
-360.00000000 3530.00000000 -180.00000000 144 74 146 97.000000 1.000000 4.000000 1.000000 -60.708740 114.000000 149.000000 0.991385 0.032560 0.126870
-380.00000000 3520.00000000 -160.00000000 144 74 146 97.000000 1.000000 4.000000 1.000000 -60.708740 114.000000 149.000000 0.795688 -0.450298 0.405107
-380.00000000 3520.00000000 -160.00000000 144 74 146 97.000000 1.000000 4.000000 1.000000 -60.708740 114.000000 149.000000 0.795688 -0.450298 0.405107
-400.00000000 3510.00000000 -180.00000000 144 74 146 97.000000 1.000000 4.000000 1.000000 -60.708740 114.000000 149.000000 0.808907 -0.585857 0.049410
-350.00000000 3640.00000000 -200.00000000 144 74 146 97.000000 1.000000 4.000000 1.000000 -60.708740 114.000000 149.000000 0.937402 -0.050706 0.344538
-360.00000000 3600.00000000 -240.00000000 144 74 146 97.000000 1.000000 4.000000 1.000000 -60.708740 114.000000 149.000000 0.936147 0.026967 0.350574
-350.00000000 3560.00000000 -220.00000000 144 74 146 97.000000 1.000000 4.000000 1.000000 -60.708740 114.000000 149.000000 0.859877 -0.429175 0.276444
-380.00000000 3550.00000000 -210.00000000 144 74 146 97.000000 1.000000 4.000000 1.000000 -60.708740 114.000000 149.000000 0.885613 -0.201209 0.418574
-360.00000000 3550.00000000 -260.00000000 144 74 146 97.000000 1.000000 4.000000 1.000000 -60.708740 114.000000 149.000000 0.615861 -0.394614 0.681905
-350.00000000 3560.00000000 -260.00000000 144 74 146 97.000000 1.000000 4.000000 1.000000 -60.708740 114.000000 149.000000 0.750273 -0.604343 0.268068
-360.00000000 3570.00000000 -270.00000000 144 74 146 97.000000 1.000000 4.000000 1.000000 -60.708740 114.000000 149.000000 0.769207 0.009702 0.638927
-360.00000000 3550.00000000 -260.00000000 144 74 146 97.000000 1.000000 4.000000 1.000000 -60.708740 114.000000 149.000000 0.615861 -0.394614 0.681905
-380.00000000 3530.00000000 -190.00000000 144 74 146 97.000000 1.000000 4.000000 1.000000 -60.708740 114.000000 149.000000 0.879886 -0.145925 0.452224
-380.00000000 3530.00000000 -190.00000000 144 74 146 97.000000 1.000000 4.000000 1.000000 -60.708740 114.000000 149.000000 0.879886 -0.145925 0.452224
-350.00000000 3510.00000000 -270.00000000 144 74 146 97.000000 1.000000 4.000000 1.000000 -60.708740 114.000000 149.000000 0.797582 -0.116039 0.591944
-360.00000000 3510.00000000 -240.00000000 144 74 146 97.000000 1.000000 4.000000 1.000000 -60.708740 114.000000 149.000000 0.801683 -0.100392 0.589259
-360.00000000 3540.00000000 -260.00000000 144 74 146 97.000000 1.000000 4.000000 1.000000 -60.708740 114.000000 149.000000 0.980892 0.031794 0.191939
-400.00000000 3540.00000000 -200.00000000 144 74 146 97.000000 1.000000 4.000000 1.000000 -60.708740 114.000000 149.000000 0.938198 -0.166211 0.303575
-350.00000000 3580.00000000 -290.00000000 144 74 146 97.000000 1.000000 4.000000 1.000000 -60.708740 114.000000 149.000000 0.665625 -0.009727 0.746223
-370.00000000 3520.00000000 -290.00000000 144 74 146 97.000000 1.000000 4.000000 1.000000 -60.708740 114.000000 149.000000 0.832469 -0.327657 0.446806
-380.00000000 3470.00000000 -50.00000000 144 74 146 97.000000 1.000000 4.000000 1.000000 -60.708740 114.000000 149.000000 0.764486 -0.185376 -0.617411
-350.00000000 3460.00000000 -40.00000000 144 74 146 97.000000 1.000000 4.000000 1.000000 -60.708740 114.000000 149.000000 0.649121 -0.531099 -0.544587
-360.00000000 3420.00000000 -30.00000000 144 74 146 97.000000 1.000000 4.000000 1.000000 -60.708740 114.000000 149.000000 0.699981 -0.482803 -0.526239
-360.00000000 3420.00000000 -40.00000000 144 74 146 97.000000 1.000000 4.000000 1.000000 -60.708740 114.000000 149.000000 0.770319 -0.615952 -0.164960
-440.00000000 3400.00000000 -50.00000000 144 74 146 97.000000 1.000000 4.000000 1.000000 -60.708740 114.000000 149.000000 0.686997 -0.627971 -0.365633
-350.00000000 3480.00000000 -210.00000000 144 74 146 97.000000 1.000000 4.000000 1.000000 -60.708740 114.000000 149.000000 0.874567 -0.479691 0.070911
-380.00000000 3500.00000000 -210.00000000 144 74 146 97.000000 1.000000 4.000000 1.000000 -60.708740 114.000000 149.000000 0.804520 -0.315778 0.503023
-360.00000000 3500.00000000 -300.00000000 144 74 146 97.000000 1.000000 4.000000 1.000000 -60.708740 114.000000 149.000000 0.636723 -0.146010 0.757143
-350.00000000 3280.00000000 -60.00000000 144 74 146 97.000000 1.000000 4.000000 1.000000 -60.708740 114.000000 149.000000 0.919130 0.060205 -0.389326
-350.00000000 3330.00000000 -180.00000000 144 74 146 97.000000 1.000000 4.000000 1.000000 -60.708740 114.000000 149.000000 0.940098 -0.275522 -0.200757
-390.00000000 3330.00000000 -140.00000000 144 74 146 97.000000 1.000000 4.000000 1.000000 -60.708740 114.000000 149.000000 0.990592 -0.126823 -0.051415
-380.00000000 3250.00000000 -100.00000000 144 74 146 97.000000 1.000000 4.000000 1.000000 -60.708740 114.000000 149.000000 0.927696 -0.076304 -0.365456
-370.00000000 3250.00000000 -100.00000000 144 74 146 97.000000 1.000000 4.000000 1.000000 -60.708740 114.000000 149.000000 0.897725 -0.107839 -0.427155
-380.00000000 3210.00000000 -70.00000000 144 74 146 97.000000 1.000000 4.000000 1.000000 -60.708740 114.000000 149.000000 0.717514 -0.535236 -0.445754
-370.00000000 3250.00000000 -120.00000000 144 74 146 97.000000 1.000000 4.000000 1.000000 -60.708740 114.000000 149.000000 0.927171 -0.263482 0.266330
-350.00000000 3150.00000000 -30.00000000 144 74 146 97.000000 1.000000 4.000000 1.000000 -60.708740 114.000000 149.000000 0.808477 -0.495212 -0.318011
-360.00000000 3160.00000000 -50.00000000 144 74 146 97.000000 1.000000 4.000000 1.000000 -60.708740 114.000000 149.000000 0.870580 -0.112932 -0.478891
-350.00000000 3140.00000000 -40.00000000 144 74 146 97.000000 1.000000 4.000000 1.000000 -60.708740 114.000000 149.000000 0.942304 -0.216606 -0.255236
-360.00000000 3110.00000000 -30.00000000 144 74 146 97.000000 1.000000 4.000000 1.000000 -60.708740 114.000000 149.000000 -0.793519 0.255115 0.552489
-350.00000000 3100.00000000 -70.00000000 144 74 146 97.000000 1.000000 4.000000 1.000000 -60.708740 114.000000 149.000000 0.923573 -0.059800 -0.378731
-360.00000000 3100.00000000 -100.00000000 144 74 146 97.000000 1.000000 4.000000 1.000000 -60.708740 114.000000 149.000000 0.911328 -0.313497 -0.266837
-350.00000000 3090.00000000 -70.00000000 144 74 146 97.000000 1.000000 4.000000 1.000000 -60.708740 114.000000 149.000000 0.770352 0.006915 -0.637581
-380.00000000 3120.00000000 -80.00000000 144 74 146 97.000000 1.000000 4.000000 1.000000 -60.708740 114.000000 149.000000 0.743951 -0.572146 -0.345232
-360.00000000 3110.00000000 -120.00000000 144 74 146 97.000000 1.000000 4.000000 1.000000 -60.708740 114.000000 149.000000 0.827669 -0.525047 -0.198217
-360.00000000 3130.00000000 -160.00000000 144 74 146 97.000000 1.000000 4.000000 1.000000 -60.708740 114.000000 149.000000 0.923789 -0.276421 0.264963
-350.00000000 3100.00000000 -180.00000000 144 74 146 97.000000 1.000000 4.000000 1.000000 -60.708740 114.000000 149.000000 0.971693 -0.008305 0.236101
-350.00000000 3140.00000000 -180.00000000 144 74 146 97.000000 1.000000 4.000000 1.000000 -60.708740 114.000000 149.000000 0.861761 -0.498317 0.095120
-360.00000000 3090.00000000 -150.00000000 144 74 146 97.000000 1.000000 4.000000 1.000000 -60.708740 114.000000 149.000000 0.753506 -0.400454 0.521407
-360.00000000 3090.00000000 -170.00000000 144 74 146 97.000000 1.000000 4.000000 1.000000 -60.708740 114.000000 149.000000 0.926745 -0.351144 0.133572
-360.00000000 3120.00000000 -160.00000000 144 74 146 97.000000 1.000000 4.000000 1.000000 -60.708740 114.000000 149.000000 0.933250 -0.279273 0.225945
-350.00000000 3130.00000000 -180.00000000 144 74 146 97.000000 1.000000 4.000000 1.000000 -60.708740 114.000000 149.000000 0.872862 -0.403907 0.273809
-360.00000000 3120.00000000 -130.00000000 144 74 146 97.000000 1.000000 4.000000 1.000000 -60.708740 114.000000 149.000000 0.835055 -0.478724 -0.271122
-360.00000000 3100.00000000 -120.00000000 144 74 146 97.000000 1.000000 4.000000 1.000000 -60.708740 114.000000 149.000000 0.971862 -0.143556 -0.186750
-380.00000000 3050.00000000 -40.00000000 144 74 146 97.000000 1.000000 4.000000 1.000000 -60.708740 114.000000 149.000000 0.729231 0.076838 -0.679939
-380.00000000 3010.00000000 -40.00000000 144 74 146 97.000000 1.000000 4.000000 1.000000 -60.708740 114.000000 149.000000 0.730157 -0.349630 -0.587052
-410.00000000 3030.00000000 -70.00000000 144 74 146 97.000000 1.000000 4.000000 1.000000 -60.708740 114.000000 149.000000 0.871935 -0.457288 -0.174975
-360.00000000 3150.00000000 -240.00000000 144 74 146 97.000000 1.000000 4.000000 1.000000 -60.708740 114.000000 149.000000 0.786315 -0.214731 0.579309
-350.00000000 3110.00000000 -310.00000000 144 74 146 97.000000 1.000000 4.000000 1.000000 -60.708740 114.000000 149.000000 0.433486 -0.449721 0.780923
-360.00000000 3060.00000000 -250.00000000 144 74 146 97.000000 1.000000 4.000000 1.000000 -60.708740 114.000000 149.000000 0.750247 -0.431761 0.500712
-360.00000000 3040.00000000 -270.00000000 144 74 146 97.000000 1.000000 4.000000 1.000000 -60.708740 114.000000 149.000000 0.643863 -0.282788 0.710965
-350.00000000 3080.00000000 -240.00000000 144 74 146 97.000000 1.000000 4.000000 1.000000 -60.708740 114.000000 149.000000 0.621362 -0.463928 0.631411
-380.00000000 3070.00000000 -240.00000000 144 74 146 97.000000 1.000000 4.000000 1.000000 -60.708740 114.000000 149.000000 0.890439 -0.156798 0.427238
-380.00000000 3070.00000000 -240.00000000 144 74 146 97.000000 1.000000 4.000000 1.000000 -60.708740 114.000000 149.000000 0.890439 -0.156798 0.427238
-370.00000000 3010.00000000 -250.00000000 144 74 146 97.000000 1.000000 4.000000 1.000000 -60.708740 114.000000 149.000000 0.503913 0.065606 0.861259
-350.00000000 3030.00000000 -240.00000000 144 74 146 97.000000 1.000000 4.000000 1.000000 -60.708740 114.000000 149.000000 0.844562 0.098938 0.526238
-350.00000000 3030.00000000 -240.00000000 144 74 146 97.000000 1.000000 4.000000 1.000000 -60.708740 114.000000 149.000000 0.844562 0.098938 0.526238
-370.00000000 3050.00000000 -280.00000000 144 74 146 97.000000 1.000000 4.000000 1.000000 -60.708740 114.000000 149.000000 0.717039 -0.241114 0.654002
-350.00000000 3070.00000000 -380.00000000 144 74 146 97.000000 1.000000 4.000000 1.000000 -60.708740 114.000000 149.000000 0.303481 0.079452 0.949519
-370.00000000 3100.00000000 -380.00000000 144 74 146 97.000000 1.000000 4.000000 1.000000 -60.708740 114.000000 149.000000 0.692939 0.120705 0.710821
-360.00000000 3100.00000000 -390.00000000 144 74 146 97.000000 1.000000 4.000000 1.000000 -60.708740 114.000000 149.000000 0.535582 0.028913 0.843988
50.00000000 2920.00000000 -170.00000000 144 74 146 97.000000 1.000000 4.000000 1.000000 -60.708740 114.000000 149.000000 0.977387 -0.209694 0.027248
20.00000000 2960.00000000 -130.00000000 144 74 146 97.000000 1.000000 4.000000 1.000000 -60.708740 114.000000 149.000000 0.997501 -0.070276 0.007342
40.00000000 2880.00000000 -160.00000000 144 74 146 97.000000 1.000000 4.000000 1.000000 -60.708740 114.000000 149.000000 0.995560 -0.080128 0.049394
40.00000000 2840.00000000 -120.00000000 144 74 146 97.000000 1.000000 4.000000 1.000000 -60.708740 114.000000 149.000000 0.998982 0.044148 0.009240
10.00000000 2880.00000000 -120.00000000 144 74 146 97.000000 1.000000 4.000000 1.000000 -60.708740 114.000000 149.000000 0.761468 -0.632304 -0.142681
30.00000000 2900.00000000 -150.00000000 144 74 146 97.000000 1.000000 4.000000 1.000000 -60.708740 114.000000 149.000000 0.958238 -0.282573 0.043956
30.00000000 2840.00000000 -150.00000000 144 74 146 97.000000 1.000000 4.000000 1.000000 -60.708740 114.000000 149.000000 0.897147 -0.441285 0.019878
30.00000000 2850.00000000 -170.00000000 144 74 146 97.000000 1.000000 4.000000 1.000000 -60.708740 114.000000 149.000000 0.991807 -0.120732 0.041748
30.00000000 2840.00000000 -170.00000000 144 74 146 97.000000 1.000000 4.000000 1.000000 -60.708740 114.000000 149.000000 0.960793 -0.175289 0.214828
40.00000000 2820.00000000 -120.00000000 144 74 146 97.000000 1.000000 4.000000 1.000000 -60.708740 114.000000 149.000000 0.994127 -0.011951 0.107561
-10.00000000 2990.00000000 -140.00000000 144 74 146 97.000000 1.000000 4.000000 1.000000 -60.708740 114.000000 149.000000 0.823973 -0.517093 -0.231695
-20.00000000 2970.00000000 -130.00000000 144 74 146 97.000000 1.000000 4.000000 1.000000 -60.708740 114.000000 149.000000 0.765729 -0.632430 0.117007
-200.00000000 2990.00000000 -80.00000000 144 74 146 97.000000 1.000000 4.000000 1.000000 -60.708740 114.000000 149.000000 0.407350 -0.348042 0.844353
-200.00000000 2990.00000000 -90.00000000 144 74 146 97.000000 1.000000 4.000000 1.000000 -60.708740 114.000000 149.000000 0.931534 -0.238168 0.274810
-200.00000000 2990.00000000 -100.00000000 144 74 146 97.000000 1.000000 4.000000 1.000000 -60.708740 114.000000 149.000000 0.988872 0.026113 0.146458
-210.00000000 2990.00000000 -80.00000000 144 74 146 97.000000 1.000000 4.000000 1.000000 -60.708740 114.000000 149.000000 0.373094 -0.357613 0.856104
-330.00000000 2990.00000000 -300.00000000 144 74 146 97.000000 1.000000 4.000000 1.000000 -60.708740 114.000000 149.000000 0.090989 0.168633 0.981470
-300.00000000 2990.00000000 -340.00000000 144 74 146 97.000000 1.000000 4.000000 1.000000 -60.708740 114.000000 149.000000 -0.164448 -0.146873 0.975390
490.00000000 5760.00000000 10.00000000 144 74 146 97.000000 1.000000 4.000000 1.000000 -60.708740 114.000000 149.000000 -0.465644 -0.171862 0.868124
670.00000000 5310.00000000 0.00000000 144 74 146 97.000000 1.000000 4.000000 1.000000 -60.708740 114.000000 149.000000 0.615967 0.184943 0.765755
640.00000000 5360.00000000 40.00000000 144 74 146 97.000000 1.000000 4.000000 1.000000 -60.708740 114.000000 149.000000 0.537015 -0.192115 0.821406
610.00000000 5660.00000000 0.00000000 144 74 146 97.000000 1.000000 4.000000 1.000000 -60.708740 114.000000 149.000000 0.279809 0.366594 0.887308
660.00000000 5320.00000000 0.00000000 144 74 146 97.000000 1.000000 4.000000 1.000000 -60.708740 114.000000 149.000000 0.412600 0.152762 0.898012
410.00000000 4280.00000000 -10.00000000 144 74 146 97.000000 1.000000 4.000000 1.000000 -60.708740 114.000000 149.000000 0.746217 -0.061825 0.662825
360.00000000 4020.00000000 0.00000000 144 74 146 97.000000 1.000000 4.000000 1.000000 -60.708740 114.000000 149.000000 0.843207 -0.120458 0.523920
1440.00000000 8670.00000000 -460.00000000 144 74 146 97.000000 1.000000 4.000000 1.000000 -60.708740 114.000000 149.000000 0.799678 -0.085318 0.594336
1430.00000000 8680.00000000 -460.00000000 144 74 146 97.000000 1.000000 4.000000 1.000000 -60.708740 114.000000 149.000000 0.755246 -0.622421 0.205415
1410.00000000 8570.00000000 -480.00000000 144 74 146 97.000000 1.000000 4.000000 1.000000 -60.708740 114.000000 149.000000 0.537892 0.012256 0.842925
1390.00000000 8580.00000000 -450.00000000 144 74 146 97.000000 1.000000 4.000000 1.000000 -60.708740 114.000000 149.000000 0.892368 -0.383289 0.238261
1430.00000000 8650.00000000 -530.00000000 144 74 146 97.000000 1.000000 4.000000 1.000000 -60.708740 114.000000 149.000000 0.396155 0.180071 0.900353
1460.00000000 8550.00000000 -510.00000000 144 74 146 97.000000 1.000000 4.000000 1.000000 -60.708740 114.000000 149.000000 0.615537 -0.020842 0.787832
1440.00000000 8520.00000000 -500.00000000 144 74 146 97.000000 1.000000 4.000000 1.000000 -60.708740 114.000000 149.000000 0.200132 -0.218937 0.954994
1430.00000000 8520.00000000 -490.00000000 144 74 146 97.000000 1.000000 4.000000 1.000000 -60.708740 114.000000 149.000000 0.206002 -0.298493 0.931915
1450.00000000 8490.00000000 -520.00000000 144 74 146 97.000000 1.000000 4.000000 1.000000 -60.708740 114.000000 149.000000 0.583998 -0.037813 0.810874
1430.00000000 8510.00000000 -490.00000000 144 74 146 97.000000 1.000000 4.000000 1.000000 -60.708740 114.000000 149.000000 0.366612 0.213011 0.905661
1430.00000000 8500.00000000 -500.00000000 144 74 146 97.000000 1.000000 4.000000 1.000000 -60.708740 114.000000 149.000000 0.408183 -0.424190 0.808362
1420.00000000 8490.00000000 -500.00000000 144 74 146 97.000000 1.000000 4.000000 1.000000 -60.708740 114.000000 149.000000 0.246022 -0.366823 0.897170
1410.00000000 8470.00000000 -490.00000000 144 74 146 97.000000 1.000000 4.000000 1.000000 -60.708740 114.000000 149.000000 0.389198 -0.094227 0.916322
1450.00000000 8390.00000000 -690.00000000 144 74 146 97.000000 1.000000 4.000000 1.000000 -60.708740 114.000000 149.000000 -0.142956 -0.209927 0.967209
1350.00000000 8450.00000000 -680.00000000 144 74 146 97.000000 1.000000 4.000000 1.000000 -60.708740 114.000000 149.000000 0.229069 -0.391634 0.891151
1360.00000000 8430.00000000 -690.00000000 144 74 146 97.000000 1.000000 4.000000 1.000000 -60.708740 114.000000 149.000000 0.364873 0.266581 0.892078
1450.00000000 8510.00000000 -530.00000000 144 74 146 97.000000 1.000000 4.000000 1.000000 -60.708740 114.000000 149.000000 0.146045 -0.105007 0.983689
1300.00000000 8600.00000000 -550.00000000 144 74 146 97.000000 1.000000 4.000000 1.000000 -60.708740 114.000000 149.000000 0.761625 -0.116832 0.637399
1290.00000000 8580.00000000 -580.00000000 144 74 146 97.000000 1.000000 4.000000 1.000000 -60.708740 114.000000 149.000000 0.534379 0.026101 0.844842
1300.00000000 8610.00000000 -560.00000000 144 74 146 97.000000 1.000000 4.000000 1.000000 -60.708740 114.000000 149.000000 0.683780 -0.308752 0.661149
1280.00000000 8640.00000000 -530.00000000 144 74 146 97.000000 1.000000 4.000000 1.000000 -60.708740 114.000000 149.000000 0.647470 -0.265669 0.714285
1310.00000000 8570.00000000 -630.00000000 144 74 146 97.000000 1.000000 4.000000 1.000000 -60.708740 114.000000 149.000000 0.716296 -0.453709 0.530159
1290.00000000 8580.00000000 -630.00000000 144 74 146 97.000000 1.000000 4.000000 1.000000 -60.708740 114.000000 149.000000 0.817590 -0.229418 0.528123
1220.00000000 8570.00000000 -570.00000000 144 74 146 97.000000 1.000000 4.000000 1.000000 -60.708740 114.000000 149.000000 0.753992 -0.277787 0.595257
1230.00000000 8570.00000000 -580.00000000 144 74 146 97.000000 1.000000 4.000000 1.000000 -60.708740 114.000000 149.000000 0.638903 -0.507414 0.578216
1220.00000000 8580.00000000 -540.00000000 144 74 146 97.000000 1.000000 4.000000 1.000000 -60.708740 114.000000 149.000000 0.787087 -0.568884 0.238464
1280.00000000 8460.00000000 -640.00000000 144 74 146 97.000000 1.000000 4.000000 1.000000 -60.708740 114.000000 149.000000 0.730964 -0.155878 0.664375
1330.00000000 8430.00000000 -680.00000000 144 74 146 97.000000 1.000000 4.000000 1.000000 -60.708740 114.000000 149.000000 0.331865 0.278766 0.901197
1290.00000000 8470.00000000 -660.00000000 144 74 146 97.000000 1.000000 4.000000 1.000000 -60.708740 114.000000 149.000000 0.354622 -0.271530 0.894715
1300.00000000 8420.00000000 -660.00000000 144 74 146 97.000000 1.000000 4.000000 1.000000 -60.708740 114.000000 149.000000 0.167527 -0.172642 0.970633
1260.00000000 8430.00000000 -670.00000000 144 74 146 97.000000 1.000000 4.000000 1.000000 -60.708740 114.000000 149.000000 0.302190 0.113155 0.946508
1370.00000000 8430.00000000 -700.00000000 144 74 146 97.000000 1.000000 4.000000 1.000000 -60.708740 114.000000 149.000000 0.158344 0.282853 0.946003
1390.00000000 8400.00000000 -700.00000000 144 74 146 97.000000 1.000000 4.000000 1.000000 -60.708740 114.000000 149.000000 -0.145390 -0.102134 0.984089
1380.00000000 8420.00000000 -710.00000000 144 74 146 97.000000 1.000000 4.000000 1.000000 -60.708740 114.000000 149.000000 0.015810 -0.263908 0.964418
1360.00000000 8390.00000000 -700.00000000 144 74 146 97.000000 1.000000 4.000000 1.000000 -60.708740 114.000000 149.000000 0.055506 0.318837 0.946183
1420.00000000 8390.00000000 -700.00000000 144 74 146 97.000000 1.000000 4.000000 1.000000 -60.708740 114.000000 149.000000 -0.224152 -0.088909 0.970490
1370.00000000 8390.00000000 -710.00000000 144 74 146 97.000000 1.000000 4.000000 1.000000 -60.708740 114.000000 149.000000 0.281358 0.200970 0.938322
1440.00000000 8430.00000000 -700.00000000 144 74 146 97.000000 1.000000 4.000000 1.000000 -60.708740 114.000000 149.000000 -0.290910 0.041559 0.955847
1410.00000000 8400.00000000 -700.00000000 144 74 146 97.000000 1.000000 4.000000 1.000000 -60.708740 114.000000 149.000000 -0.102243 0.081564 0.991410
1050.00000000 8080.00000000 -280.00000000 144 74 146 97.000000 1.000000 4.000000 1.000000 -60.708740 114.000000 149.000000 0.797739 -0.529193 -0.289081
1080.00000000 8270.00000000 -380.00000000 144 74 146 97.000000 1.000000 4.000000 1.000000 -60.708740 114.000000 149.000000 0.928783 -0.177377 -0.325423
1070.00000000 8050.00000000 -240.00000000 144 74 146 97.000000 1.000000 4.000000 1.000000 -60.708740 114.000000 149.000000 0.764843 -0.510439 -0.393022
1030.00000000 7950.00000000 -220.00000000 144 74 146 97.000000 1.000000 4.000000 1.000000 -60.708740 114.000000 149.000000 0.703398 -0.240760 -0.668779
1010.00000000 8050.00000000 -310.00000000 144 74 146 97.000000 1.000000 4.000000 1.000000 -60.708740 114.000000 149.000000 0.954632 -0.297786 0.001225
1500.00000000 8330.00000000 -700.00000000 144 74 146 97.000000 1.000000 4.000000 1.000000 -60.708740 114.000000 149.000000 -0.571964 -0.069891 0.817296
1430.00000000 8370.00000000 -710.00000000 144 74 146 97.000000 1.000000 4.000000 1.000000 -60.708740 114.000000 149.000000 0.053208 -0.017736 0.998426
1450.00000000 8340.00000000 -710.00000000 144 74 146 97.000000 1.000000 4.000000 1.000000 -60.708740 114.000000 149.000000 -0.268290 -0.199498 0.942455
1450.00000000 8350.00000000 -720.00000000 144 74 146 97.000000 1.000000 4.000000 1.000000 -60.708740 114.000000 149.000000 -0.022292 0.405186 0.913963
1420.00000000 8380.00000000 -710.00000000 144 74 146 97.000000 1.000000 4.000000 1.000000 -60.708740 114.000000 149.000000 0.131149 -0.360315 0.923565
1390.00000000 8370.00000000 -710.00000000 144 74 146 97.000000 1.000000 4.000000 1.000000 -60.708740 114.000000 149.000000 -0.212242 -0.154950 0.964854
1330.00000000 8330.00000000 -710.00000000 144 74 146 97.000000 1.000000 4.000000 1.000000 -60.708740 114.000000 149.000000 0.275898 -0.261603 0.924902
760.00000000 7080.00000000 -180.00000000 144 74 146 97.000000 1.000000 4.000000 1.000000 -60.708740 114.000000 149.000000 0.769227 -0.419727 -0.481788
1060.00000000 6750.00000000 -580.00000000 144 74 146 97.000000 1.000000 4.000000 1.000000 -60.708740 114.000000 149.000000 0.685731 -0.018156 -0.727629
1060.00000000 6750.00000000 -580.00000000 144 74 146 97.000000 1.000000 4.000000 1.000000 -60.708740 114.000000 149.000000 0.685731 -0.018156 -0.727629
1030.00000000 6750.00000000 -550.00000000 144 74 146 97.000000 1.000000 4.000000 1.000000 -60.708740 114.000000 149.000000 0.704956 -0.136782 -0.695937
1040.00000000 6750.00000000 -540.00000000 144 74 146 97.000000 1.000000 4.000000 1.000000 -60.708740 114.000000 149.000000 -0.614099 -0.175239 0.769528
1100.00000000 6500.00000000 -300.00000000 144 74 146 97.000000 1.000000 4.000000 1.000000 -60.708740 114.000000 149.000000 0.992212 0.009889 -0.124164
1150.00000000 6540.00000000 -380.00000000 144 74 146 97.000000 1.000000 4.000000 1.000000 -60.708740 114.000000 149.000000 0.986881 0.108070 -0.119946
1030.00000000 6640.00000000 -470.00000000 144 74 146 97.000000 1.000000 4.000000 1.000000 -60.708740 114.000000 149.000000 -0.705763 0.430100 0.562950
1010.00000000 6550.00000000 -380.00000000 144 74 146 97.000000 1.000000 4.000000 1.000000 -60.708740 114.000000 149.000000 0.748426 -0.313856 -0.584255
1010.00000000 6580.00000000 -590.00000000 144 74 146 97.000000 1.000000 4.000000 1.000000 -60.708740 114.000000 149.000000 -0.354611 0.285784 0.890269
1060.00000000 6490.00000000 -380.00000000 144 74 146 97.000000 1.000000 4.000000 1.000000 -60.708740 114.000000 149.000000 0.757664 -0.209171 -0.618217
1010.00000000 6210.00000000 -230.00000000 144 74 146 97.000000 1.000000 4.000000 1.000000 -60.708740 114.000000 149.000000 0.903935 -0.418156 0.089703
1010.00000000 6200.00000000 -260.00000000 144 74 146 97.000000 1.000000 4.000000 1.000000 -60.708740 114.000000 149.000000 0.799106 -0.580214 0.157422
1010.00000000 6210.00000000 -260.00000000 144 74 146 97.000000 1.000000 4.000000 1.000000 -60.708740 114.000000 149.000000 0.752288 -0.603414 0.264489
1020.00000000 6150.00000000 -260.00000000 144 74 146 97.000000 1.000000 4.000000 1.000000 -60.708740 114.000000 149.000000 0.912462 -0.408033 -0.030371
1030.00000000 6140.00000000 -320.00000000 144 74 146 97.000000 1.000000 4.000000 1.000000 -60.708740 114.000000 149.000000 0.978409 -0.010495 -0.206411
1020.00000000 6090.00000000 -380.00000000 144 74 146 97.000000 1.000000 4.000000 1.000000 -60.708740 114.000000 149.000000 0.865392 0.014851 -0.500875
780.00000000 6910.00000000 -70.00000000 144 74 146 97.000000 1.000000 4.000000 1.000000 -60.708740 114.000000 149.000000 -0.300873 0.496205 0.814406
800.00000000 6890.00000000 -80.00000000 144 74 146 97.000000 1.000000 4.000000 1.000000 -60.708740 114.000000 149.000000 0.452347 -0.445815 -0.772419
790.00000000 6710.00000000 -240.00000000 144 74 146 97.000000 1.000000 4.000000 1.000000 -60.708740 114.000000 149.000000 0.881573 0.112149 -0.458532
990.00000000 6760.00000000 -510.00000000 144 74 146 97.000000 1.000000 4.000000 1.000000 -60.708740 114.000000 149.000000 -0.547778 0.189674 0.814839
980.00000000 6710.00000000 -460.00000000 144 74 146 97.000000 1.000000 4.000000 1.000000 -60.708740 114.000000 149.000000 -0.533833 0.189034 0.824190
920.00000000 6710.00000000 -450.00000000 144 74 146 97.000000 1.000000 4.000000 1.000000 -60.708740 114.000000 149.000000 -0.048350 -0.109068 0.992858
880.00000000 6780.00000000 -600.00000000 144 74 146 97.000000 1.000000 4.000000 1.000000 -60.708740 114.000000 149.000000 0.001053 0.078950 0.996878
770.00000000 6900.00000000 -580.00000000 144 74 146 97.000000 1.000000 4.000000 1.000000 -60.708740 114.000000 149.000000 0.379457 0.141421 0.914337
810.00000000 6750.00000000 -460.00000000 144 74 146 97.000000 1.000000 4.000000 1.000000 -60.708740 114.000000 149.000000 -0.644249 0.509680 -0.570236
720.00000000 6860.00000000 -520.00000000 144 74 146 97.000000 1.000000 4.000000 1.000000 -60.708740 114.000000 149.000000 0.655302 -0.234149 0.718160
680.00000000 6760.00000000 -420.00000000 144 74 146 97.000000 1.000000 4.000000 1.000000 -60.708740 114.000000 149.000000 0.789109 -0.375997 0.485730
670.00000000 6780.00000000 -470.00000000 144 74 146 97.000000 1.000000 4.000000 1.000000 -60.708740 114.000000 149.000000 0.838876 -0.494800 0.226847
690.00000000 6760.00000000 -450.00000000 144 74 146 97.000000 1.000000 4.000000 1.000000 -60.708740 114.000000 149.000000 0.822382 -0.150200 0.548751
680.00000000 6750.00000000 -510.00000000 144 74 146 97.000000 1.000000 4.000000 1.000000 -60.708740 114.000000 149.000000 0.473868 -0.270120 0.838144
830.00000000 6780.00000000 -600.00000000 144 74 146 97.000000 1.000000 4.000000 1.000000 -60.708740 114.000000 149.000000 0.522081 -0.045699 0.851671
770.00000000 6760.00000000 -560.00000000 144 74 146 97.000000 1.000000 4.000000 1.000000 -60.708740 114.000000 149.000000 0.335769 -0.223365 0.915078
760.00000000 6770.00000000 -560.00000000 144 74 146 97.000000 1.000000 4.000000 1.000000 -60.708740 114.000000 149.000000 0.253630 -0.033082 0.966735
770.00000000 6730.00000000 -600.00000000 144 74 146 97.000000 1.000000 4.000000 1.000000 -60.708740 114.000000 149.000000 0.147777 0.099720 0.983981
810.00000000 6760.00000000 -620.00000000 144 74 146 97.000000 1.000000 4.000000 1.000000 -60.708740 114.000000 149.000000 0.037719 -0.145160 0.988689
800.00000000 6750.00000000 -610.00000000 144 74 146 97.000000 1.000000 4.000000 1.000000 -60.708740 114.000000 149.000000 0.662175 -0.023799 0.748971
700.00000000 6760.00000000 -530.00000000 144 74 146 97.000000 1.000000 4.000000 1.000000 -60.708740 114.000000 149.000000 0.757365 0.158729 0.633405
730.00000000 6750.00000000 -570.00000000 144 74 146 97.000000 1.000000 4.000000 1.000000 -60.708740 114.000000 149.000000 0.582000 0.081911 0.809053
730.00000000 6730.00000000 -570.00000000 144 74 146 97.000000 1.000000 4.000000 1.000000 -60.708740 114.000000 149.000000 0.632640 0.088715 0.769348
710.00000000 6760.00000000 -530.00000000 144 74 146 97.000000 1.000000 4.000000 1.000000 -60.708740 114.000000 149.000000 0.585546 -0.125369 0.800886
700.00000000 6720.00000000 -530.00000000 144 74 146 97.000000 1.000000 4.000000 1.000000 -60.708740 114.000000 149.000000 0.751727 -0.049925 0.657582
740.00000000 6770.00000000 -550.00000000 144 74 146 97.000000 1.000000 4.000000 1.000000 -60.708740 114.000000 149.000000 0.512859 -0.539763 0.667557
730.00000000 6770.00000000 -540.00000000 144 74 146 97.000000 1.000000 4.000000 1.000000 -60.708740 114.000000 149.000000 -0.542128 0.552262 -0.633328
850.00000000 6680.00000000 -270.00000000 144 74 146 97.000000 1.000000 4.000000 1.000000 -60.708740 114.000000 149.000000 -0.593969 0.064097 0.801930
850.00000000 6600.00000000 -260.00000000 144 74 146 97.000000 1.000000 4.000000 1.000000 -60.708740 114.000000 149.000000 -0.490909 -0.128882 0.861625
900.00000000 6530.00000000 -170.00000000 144 74 146 97.000000 1.000000 4.000000 1.000000 -60.708740 114.000000 149.000000 -0.045185 -0.087064 0.995177
850.00000000 6380.00000000 -90.00000000 144 74 146 97.000000 1.000000 4.000000 1.000000 -60.708740 114.000000 149.000000 0.373039 0.226749 0.899682
950.00000000 6470.00000000 -200.00000000 144 74 146 97.000000 1.000000 4.000000 1.000000 -60.708740 114.000000 149.000000 0.861790 -0.276078 0.425557
960.00000000 6490.00000000 -290.00000000 144 74 146 97.000000 1.000000 4.000000 1.000000 -60.708740 114.000000 149.000000 0.838741 -0.253931 0.481699
950.00000000 6450.00000000 -210.00000000 144 74 146 97.000000 1.000000 4.000000 1.000000 -60.708740 114.000000 149.000000 0.760507 -0.376182 0.529261
860.00000000 6460.00000000 -200.00000000 144 74 146 97.000000 1.000000 4.000000 1.000000 -60.708740 114.000000 149.000000 0.210896 -0.373795 0.903217
780.00000000 6550.00000000 -80.00000000 144 74 146 97.000000 1.000000 4.000000 1.000000 -60.708740 114.000000 149.000000 -0.359059 0.331557 0.872437
750.00000000 6540.00000000 -60.00000000 144 74 146 97.000000 1.000000 4.000000 1.000000 -60.708740 114.000000 149.000000 -0.461758 0.290736 0.838005
740.00000000 6540.00000000 -60.00000000 144 74 146 97.000000 1.000000 4.000000 1.000000 -60.708740 114.000000 149.000000 0.587774 -0.353316 -0.727798
730.00000000 6550.00000000 -90.00000000 144 74 146 97.000000 1.000000 4.000000 1.000000 -60.708740 114.000000 149.000000 -0.336017 0.259717 0.905340
760.00000000 6620.00000000 -230.00000000 144 74 146 97.000000 1.000000 4.000000 1.000000 -60.708740 114.000000 149.000000 -0.625588 0.534532 0.568256
790.00000000 6640.00000000 -240.00000000 144 74 146 97.000000 1.000000 4.000000 1.000000 -60.708740 114.000000 149.000000 0.655017 -0.510206 -0.557354
780.00000000 6620.00000000 -270.00000000 144 74 146 97.000000 1.000000 4.000000 1.000000 -60.708740 114.000000 149.000000 0.950920 -0.100994 -0.292490
800.00000000 6630.00000000 -330.00000000 144 74 146 97.000000 1.000000 4.000000 1.000000 -60.708740 114.000000 149.000000 0.790598 -0.611489 0.032184
760.00000000 6600.00000000 -300.00000000 144 74 146 97.000000 1.000000 4.000000 1.000000 -60.708740 114.000000 149.000000 0.909754 -0.121208 -0.397060
800.00000000 6590.00000000 -310.00000000 144 74 146 97.000000 1.000000 4.000000 1.000000 -60.708740 114.000000 149.000000 0.909484 -0.412425 0.052393
800.00000000 6590.00000000 -300.00000000 144 74 146 97.000000 1.000000 4.000000 1.000000 -60.708740 114.000000 149.000000 0.897659 -0.307133 -0.316035
790.00000000 6600.00000000 -340.00000000 144 74 146 97.000000 1.000000 4.000000 1.000000 -60.708740 114.000000 149.000000 0.974143 -0.221451 -0.044774
720.00000000 6650.00000000 -290.00000000 144 74 146 97.000000 1.000000 4.000000 1.000000 -60.708740 114.000000 149.000000 0.820301 -0.571891 -0.006824
810.00000000 6490.00000000 -70.00000000 144 74 146 97.000000 1.000000 4.000000 1.000000 -60.708740 114.000000 149.000000 0.160745 -0.093063 0.982599
780.00000000 6490.00000000 -60.00000000 144 74 146 97.000000 1.000000 4.000000 1.000000 -60.708740 114.000000 149.000000 -0.263417 -0.189715 0.945844
820.00000000 6440.00000000 -70.00000000 144 74 146 97.000000 1.000000 4.000000 1.000000 -60.708740 114.000000 149.000000 -0.046827 -0.131345 0.990230
820.00000000 6380.00000000 -100.00000000 144 74 146 97.000000 1.000000 4.000000 1.000000 -60.708740 114.000000 149.000000 0.203768 -0.203768 0.957579
820.00000000 6390.00000000 -120.00000000 144 74 146 97.000000 1.000000 4.000000 1.000000 -60.708740 114.000000 149.000000 0.122554 0.058414 0.990741
760.00000000 6370.00000000 -150.00000000 144 74 146 97.000000 1.000000 4.000000 1.000000 -60.708740 114.000000 149.000000 -0.466307 0.440129 0.767362
720.00000000 6530.00000000 -310.00000000 144 74 146 97.000000 1.000000 4.000000 1.000000 -60.708740 114.000000 149.000000 0.975573 -0.174075 -0.134000
770.00000000 6510.00000000 -240.00000000 144 74 146 97.000000 1.000000 4.000000 1.000000 -60.708740 114.000000 149.000000 -0.470067 0.414765 0.779107
1000.00000000 6540.00000000 -380.00000000 144 74 146 97.000000 1.000000 4.000000 1.000000 -60.708740 114.000000 149.000000 0.729026 -0.396603 -0.557877
970.00000000 6570.00000000 -420.00000000 144 74 146 97.000000 1.000000 4.000000 1.000000 -60.708740 114.000000 149.000000 0.741999 -0.198998 -0.640186
940.00000000 6590.00000000 -430.00000000 144 74 146 97.000000 1.000000 4.000000 1.000000 -60.708740 114.000000 149.000000 -0.635807 -0.152533 0.756626
940.00000000 6550.00000000 -390.00000000 144 74 146 97.000000 1.000000 4.000000 1.000000 -60.708740 114.000000 149.000000 -0.444542 0.011872 0.895679
950.00000000 6560.00000000 -420.00000000 144 74 146 97.000000 1.000000 4.000000 1.000000 -60.708740 114.000000 149.000000 -0.442605 0.498547 0.745353
940.00000000 6570.00000000 -400.00000000 144 74 146 97.000000 1.000000 4.000000 1.000000 -60.708740 114.000000 149.000000 -0.338746 0.528187 0.778634
960.00000000 6560.00000000 -410.00000000 144 74 146 97.000000 1.000000 4.000000 1.000000 -60.708740 114.000000 149.000000 -0.620912 0.222532 0.751630
920.00000000 6550.00000000 -420.00000000 144 74 146 97.000000 1.000000 4.000000 1.000000 -60.708740 114.000000 149.000000 -0.364399 -0.143805 0.920073
950.00000000 6540.00000000 -450.00000000 144 74 146 97.000000 1.000000 4.000000 1.000000 -60.708740 114.000000 149.000000 -0.314973 -0.113926 0.942238
870.00000000 6650.00000000 -410.00000000 144 74 146 97.000000 1.000000 4.000000 1.000000 -60.708740 114.000000 149.000000 -0.063727 0.188776 0.979950
890.00000000 6580.00000000 -370.00000000 144 74 146 97.000000 1.000000 4.000000 1.000000 -60.708740 114.000000 149.000000 -0.193092 -0.214399 0.957470
900.00000000 6580.00000000 -410.00000000 144 74 146 97.000000 1.000000 4.000000 1.000000 -60.708740 114.000000 149.000000 -0.398152 0.171047 0.901231
950.00000000 6620.00000000 -600.00000000 144 74 146 97.000000 1.000000 4.000000 1.000000 -60.708740 114.000000 149.000000 -0.411769 -0.103982 0.905337
940.00000000 6660.00000000 -570.00000000 144 74 146 97.000000 1.000000 4.000000 1.000000 -60.708740 114.000000 149.000000 -0.174693 0.261362 0.949301
1000.00000000 6620.00000000 -610.00000000 144 74 146 97.000000 1.000000 4.000000 1.000000 -60.708740 114.000000 149.000000 -0.323702 0.021412 0.945917
930.00000000 6690.00000000 -630.00000000 144 74 146 97.000000 1.000000 4.000000 1.000000 -60.708740 114.000000 149.000000 -0.172967 0.425878 0.888094
930.00000000 6640.00000000 -620.00000000 144 74 146 97.000000 1.000000 4.000000 1.000000 -60.708740 114.000000 149.000000 0.093632 0.013991 0.995509
990.00000000 6610.00000000 -530.00000000 144 74 146 97.000000 1.000000 4.000000 1.000000 -60.708740 114.000000 149.000000 -0.509442 0.114011 0.852919
980.00000000 6540.00000000 -530.00000000 144 74 146 97.000000 1.000000 4.000000 1.000000 -60.708740 114.000000 149.000000 -0.131511 0.419987 0.897951
920.00000000 6600.00000000 -590.00000000 144 74 146 97.000000 1.000000 4.000000 1.000000 -60.708740 114.000000 149.000000 0.194308 -0.196952 0.960965
920.00000000 6550.00000000 -590.00000000 144 74 146 97.000000 1.000000 4.000000 1.000000 -60.708740 114.000000 149.000000 0.224308 0.158721 0.961506
880.00000000 6660.00000000 -530.00000000 144 74 146 97.000000 1.000000 4.000000 1.000000 -60.708740 114.000000 149.000000 -0.085758 -0.059028 0.994566
870.00000000 6680.00000000 -600.00000000 144 74 146 97.000000 1.000000 4.000000 1.000000 -60.708740 114.000000 149.000000 0.024007 0.322195 0.946369
940.00000000 6510.00000000 -410.00000000 144 74 146 97.000000 1.000000 4.000000 1.000000 -60.708740 114.000000 149.000000 0.838443 -0.293999 -0.458888
940.00000000 6510.00000000 -410.00000000 144 74 146 97.000000 1.000000 4.000000 1.000000 -60.708740 114.000000 149.000000 0.838443 -0.293999 -0.458888
960.00000000 6530.00000000 -380.00000000 144 74 146 97.000000 1.000000 4.000000 1.000000 -60.708740 114.000000 149.000000 -0.550828 0.477161 0.684767
920.00000000 6430.00000000 -440.00000000 144 74 146 97.000000 1.000000 4.000000 1.000000 -60.708740 114.000000 149.000000 -0.275330 0.453756 0.847525
890.00000000 6520.00000000 -390.00000000 144 74 146 97.000000 1.000000 4.000000 1.000000 -60.708740 114.000000 149.000000 0.031392 -0.005063 0.999494
900.00000000 6420.00000000 -450.00000000 144 74 146 97.000000 1.000000 4.000000 1.000000 -60.708740 114.000000 149.000000 -0.187106 0.210991 0.959413
980.00000000 6530.00000000 -580.00000000 144 74 146 97.000000 1.000000 4.000000 1.000000 -60.708740 114.000000 149.000000 -0.420858 -0.101395 0.901442
