//X Y Z R G B PointSourceId ScanDirectionFlag NumberOfReturns ReturnNumber GpsTime Intensity Classification Nx Ny Nz
16830.00000000 -4830.00000000 -460.00000000 100 20 195 97.000000 1.000000 4.000000 1.000000 -60.708740 114.000000 118.000000 0.800594 0.417211 0.430098
16780.00000000 -4850.00000000 -510.00000000 100 20 195 97.000000 1.000000 4.000000 1.000000 -60.708740 114.000000 118.000000 0.682299 0.491188 0.541481
16730.00000000 -4890.00000000 -380.00000000 100 20 195 97.000000 1.000000 4.000000 1.000000 -60.708740 114.000000 118.000000 0.682976 0.710479 0.169598
16730.00000000 -4900.00000000 -440.00000000 100 20 195 97.000000 1.000000 4.000000 1.000000 -60.708740 114.000000 118.000000 0.624670 0.671064 0.399325
16830.00000000 -4910.00000000 -620.00000000 100 20 195 97.000000 1.000000 4.000000 1.000000 -60.708740 114.000000 118.000000 0.866499 0.181566 0.464987
16820.00000000 -4910.00000000 -660.00000000 100 20 195 97.000000 1.000000 4.000000 1.000000 -60.708740 114.000000 118.000000 0.842331 -0.075031 0.533712
16760.00000000 -4960.00000000 -400.00000000 100 20 195 97.000000 1.000000 4.000000 1.000000 -60.708740 114.000000 118.000000 0.640526 0.443184 0.627147
16740.00000000 -4980.00000000 -400.00000000 100 20 195 97.000000 1.000000 4.000000 1.000000 -60.708740 114.000000 118.000000 0.687818 0.628722 0.362787
16710.00000000 -4920.00000000 -380.00000000 100 20 195 97.000000 1.000000 4.000000 1.000000 -60.708740 114.000000 118.000000 0.739979 0.338415 0.581297
16770.00000000 -4930.00000000 -580.00000000 100 20 195 97.000000 1.000000 4.000000 1.000000 -60.708740 114.000000 118.000000 0.886120 0.064771 0.458908
16830.00000000 -4920.00000000 -620.00000000 100 20 195 97.000000 1.000000 4.000000 1.000000 -60.708740 114.000000 118.000000 0.816584 0.125062 0.563516
16810.00000000 -4940.00000000 -630.00000000 100 20 195 97.000000 1.000000 4.000000 1.000000 -60.708740 114.000000 118.000000 0.693809 0.110950 0.711561
16790.00000000 -4930.00000000 -620.00000000 100 20 195 97.000000 1.000000 4.000000 1.000000 -60.708740 114.000000 118.000000 0.892607 -0.047407 0.448335
16770.00000000 -4980.00000000 -620.00000000 100 20 195 97.000000 1.000000 4.000000 1.000000 -60.708740 114.000000 118.000000 0.792424 -0.079387 0.604783
16760.00000000 -5080.00000000 -650.00000000 100 20 195 97.000000 1.000000 4.000000 1.000000 -60.708740 114.000000 118.000000 0.922527 0.330182 0.199810
16700.00000000 -4960.00000000 -580.00000000 100 20 195 97.000000 1.000000 4.000000 1.000000 -60.708740 114.000000 118.000000 0.915038 0.199046 0.350836
16750.00000000 -5070.00000000 -650.00000000 100 20 195 97.000000 1.000000 4.000000 1.000000 -60.708740 114.000000 118.000000 0.856669 0.154289 0.492254
16700.00000000 -5050.00000000 -650.00000000 100 20 195 97.000000 1.000000 4.000000 1.000000 -60.708740 114.000000 118.000000 0.765776 0.333717 0.549746
17150.00000000 -4420.00000000 -890.00000000 100 20 195 97.000000 1.000000 4.000000 1.000000 -60.708740 114.000000 118.000000 -0.199391 0.743465 -0.638360
17150.00000000 -4660.00000000 -770.00000000 100 20 195 97.000000 1.000000 4.000000 1.000000 -60.708740 114.000000 118.000000 0.296031 -0.359144 0.885088
17140.00000000 -4660.00000000 -760.00000000 100 20 195 97.000000 1.000000 4.000000 1.000000 -60.708740 114.000000 118.000000 0.329346 -0.242294 0.912592
17120.00000000 -4630.00000000 -740.00000000 100 20 195 97.000000 1.000000 4.000000 1.000000 -60.708740 114.000000 118.000000 0.245847 -0.426839 0.870269
17160.00000000 -4680.00000000 -790.00000000 100 20 195 97.000000 1.000000 4.000000 1.000000 -60.708740 114.000000 118.000000 0.113665 -0.499263 0.858963
17130.00000000 -4670.00000000 -780.00000000 100 20 195 97.000000 1.000000 4.000000 1.000000 -60.708740 114.000000 118.000000 -0.388221 0.682278 -0.619501
17120.00000000 -4680.00000000 -780.00000000 100 20 195 97.000000 1.000000 4.000000 1.000000 -60.708740 114.000000 118.000000 0.381276 -0.441898 0.812007
17170.00000000 -4670.00000000 -780.00000000 100 20 195 97.000000 1.000000 4.000000 1.000000 -60.708740 114.000000 118.000000 0.068618 -0.508332 0.858423
17100.00000000 -4680.00000000 -780.00000000 100 20 195 97.000000 1.000000 4.000000 1.000000 -60.708740 114.000000 118.000000 -0.001350 -0.541234 0.840871
17040.00000000 -4630.00000000 -730.00000000 100 20 195 97.000000 1.000000 4.000000 1.000000 -60.708740 114.000000 118.000000 0.291879 -0.348757 0.890604
17050.00000000 -4680.00000000 -730.00000000 100 20 195 97.000000 1.000000 4.000000 1.000000 -60.708740 114.000000 118.000000 0.098320 -0.011885 0.995084
17050.00000000 -4750.00000000 -710.00000000 100 20 195 97.000000 1.000000 4.000000 1.000000 -60.708740 114.000000 118.000000 0.504628 -0.484643 0.714473
17030.00000000 -4680.00000000 -760.00000000 100 20 195 97.000000 1.000000 4.000000 1.000000 -60.708740 114.000000 118.000000 0.078895 -0.572349 0.816206
17010.00000000 -4700.00000000 -780.00000000 100 20 195 97.000000 1.000000 4.000000 1.000000 -60.708740 114.000000 118.000000 0.479784 -0.068143 0.874736
16990.00000000 -4610.00000000 -800.00000000 100 20 195 97.000000 1.000000 4.000000 1.000000 -60.708740 114.000000 118.000000 0.391281 -0.212493 0.895403
16970.00000000 -4740.00000000 -770.00000000 100 20 195 97.000000 1.000000 4.000000 1.000000 -60.708740 114.000000 118.000000 0.444886 -0.356225 0.821693
16930.00000000 -4680.00000000 -750.00000000 100 20 195 97.000000 1.000000 4.000000 1.000000 -60.708740 114.000000 118.000000 0.665076 -0.123493 0.736494
16950.00000000 -4740.00000000 -750.00000000 100 20 195 97.000000 1.000000 4.000000 1.000000 -60.708740 114.000000 118.000000 0.299706 -0.212467 0.930072
17010.00000000 -4910.00000000 -800.00000000 100 20 195 97.000000 1.000000 4.000000 1.000000 -60.708740 114.000000 118.000000 0.233140 -0.261060 0.936746
16990.00000000 -4810.00000000 -750.00000000 100 20 195 97.000000 1.000000 4.000000 1.000000 -60.708740 114.000000 118.000000 0.341103 -0.551261 0.761420
16930.00000000 -4770.00000000 -740.00000000 100 20 195 97.000000 1.000000 4.000000 1.000000 -60.708740 114.000000 118.000000 0.340719 -0.557099 0.757332
16950.00000000 -4790.00000000 -770.00000000 100 20 195 97.000000 1.000000 4.000000 1.000000 -60.708740 114.000000 118.000000 0.656815 -0.268769 0.704526
16970.00000000 -4840.00000000 -750.00000000 100 20 195 97.000000 1.000000 4.000000 1.000000 -60.708740 114.000000 118.000000 0.206168 -0.399176 0.893394
17000.00000000 -4890.00000000 -790.00000000 100 20 195 97.000000 1.000000 4.000000 1.000000 -60.708740 114.000000 118.000000 0.275294 -0.352674 0.894334
17000.00000000 -4900.00000000 -800.00000000 100 20 195 97.000000 1.000000 4.000000 1.000000 -60.708740 114.000000 118.000000 0.243995 -0.316183 0.916785
17000.00000000 -4910.00000000 -790.00000000 100 20 195 97.000000 1.000000 4.000000 1.000000 -60.708740 114.000000 118.000000 0.351070 -0.170600 0.920677
16970.00000000 -4890.00000000 -780.00000000 100 20 195 97.000000 1.000000 4.000000 1.000000 -60.708740 114.000000 118.000000 0.328257 0.026615 0.944214
16910.00000000 -4770.00000000 -730.00000000 100 20 195 97.000000 1.000000 4.000000 1.000000 -60.708740 114.000000 118.000000 0.450048 -0.161668 0.878249
16920.00000000 -4770.00000000 -730.00000000 100 20 195 97.000000 1.000000 4.000000 1.000000 -60.708740 114.000000 118.000000 0.700511 -0.230369 0.675437
16890.00000000 -4850.00000000 -730.00000000 100 20 195 97.000000 1.000000 4.000000 1.000000 -60.708740 114.000000 118.000000 0.790573 0.211128 0.574822
16900.00000000 -4840.00000000 -760.00000000 100 20 195 97.000000 1.000000 4.000000 1.000000 -60.708740 114.000000 118.000000 0.432665 -0.435906 0.789168
16900.00000000 -4840.00000000 -760.00000000 100 20 195 97.000000 1.000000 4.000000 1.000000 -60.708740 114.000000 118.000000 0.432665 -0.435906 0.789168
16900.00000000 -4840.00000000 -760.00000000 100 20 195 97.000000 1.000000 4.000000 1.000000 -60.708740 114.000000 118.000000 0.432665 -0.435906 0.789168
16860.00000000 -4870.00000000 -700.00000000 100 20 195 97.000000 1.000000 4.000000 1.000000 -60.708740 114.000000 118.000000 0.566049 0.220558 0.794319
16870.00000000 -4870.00000000 -710.00000000 100 20 195 97.000000 1.000000 4.000000 1.000000 -60.708740 114.000000 118.000000 0.573368 -0.128234 0.809200
16910.00000000 -4860.00000000 -820.00000000 100 20 195 97.000000 1.000000 4.000000 1.000000 -60.708740 114.000000 118.000000 0.394107 0.256245 0.882620
16890.00000000 -4860.00000000 -830.00000000 100 20 195 97.000000 1.000000 4.000000 1.000000 -60.708740 114.000000 118.000000 0.555026 0.230359 0.799300
16910.00000000 -4850.00000000 -830.00000000 100 20 195 97.000000 1.000000 4.000000 1.000000 -60.708740 114.000000 118.000000 0.418850 -0.346689 0.839269
16940.00000000 -4920.00000000 -800.00000000 100 20 195 97.000000 1.000000 4.000000 1.000000 -60.708740 114.000000 118.000000 0.481478 -0.100841 0.870638
16880.00000000 -4920.00000000 -740.00000000 100 20 195 97.000000 1.000000 4.000000 1.000000 -60.708740 114.000000 118.000000 0.760970 0.165560 0.627307
16840.00000000 -5190.00000000 -630.00000000 100 20 195 97.000000 1.000000 4.000000 1.000000 -60.708740 114.000000 118.000000 0.681155 0.651893 0.333262
16890.00000000 -5390.00000000 -680.00000000 100 20 195 97.000000 1.000000 4.000000 1.000000 -60.708740 114.000000 118.000000 0.616049 0.731258 0.292823
16860.00000000 -5440.00000000 -600.00000000 100 20 195 97.000000 1.000000 4.000000 1.000000 -60.708740 114.000000 118.000000 0.851360 0.521441 0.057317
16690.00000000 -5120.00000000 -280.00000000 100 20 195 97.000000 1.000000 4.000000 1.000000 -60.708740 114.000000 118.000000 0.775477 0.574136 -0.262687
16550.00000000 -5210.00000000 -100.00000000 100 20 195 97.000000 1.000000 4.000000 1.000000 -60.708740 114.000000 118.000000 0.885605 0.456052 -0.087863
16640.00000000 -5130.00000000 -260.00000000 100 20 195 97.000000 1.000000 4.000000 1.000000 -60.708740 114.000000 118.000000 0.739447 0.619109 0.264428
16620.00000000 -5110.00000000 -230.00000000 100 20 195 97.000000 1.000000 4.000000 1.000000 -60.708740 114.000000 118.000000 0.896318 0.420372 0.141074
16620.00000000 -5120.00000000 -240.00000000 100 20 195 97.000000 1.000000 4.000000 1.000000 -60.708740 114.000000 118.000000 0.767496 0.631969 -0.107538
16600.00000000 -5140.00000000 -220.00000000 100 20 195 97.000000 1.000000 4.000000 1.000000 -60.708740 114.000000 118.000000 0.529509 0.777365 -0.339594
16600.00000000 -5130.00000000 -210.00000000 100 20 195 97.000000 1.000000 4.000000 1.000000 -60.708740 114.000000 118.000000 0.655544 0.721254 -0.223730
16600.00000000 -5140.00000000 -220.00000000 100 20 195 97.000000 1.000000 4.000000 1.000000 -60.708740 114.000000 118.000000 0.529509 0.777365 -0.339594
16570.00000000 -5140.00000000 -210.00000000 100 20 195 97.000000 1.000000 4.000000 1.000000 -60.708740 114.000000 118.000000 0.424365 0.903965 -0.052540
16640.00000000 -5310.00000000 -200.00000000 100 20 195 97.000000 1.000000 4.000000 1.000000 -60.708740 114.000000 118.000000 0.639942 0.768209 0.018125
16630.00000000 -5340.00000000 -240.00000000 100 20 195 97.000000 1.000000 4.000000 1.000000 -60.708740 114.000000 118.000000 0.472082 0.783559 -0.403947
16600.00000000 -5360.00000000 -230.00000000 100 20 195 97.000000 1.000000 4.000000 1.000000 -60.708740 114.000000 118.000000 0.356370 0.927109 -0.116059
16600.00000000 -5370.00000000 -230.00000000 100 20 195 97.000000 1.000000 4.000000 1.000000 -60.708740 114.000000 118.000000 0.832735 0.533956 0.146431
16590.00000000 -5390.00000000 -250.00000000 100 20 195 97.000000 1.000000 4.000000 1.000000 -60.708740 114.000000 118.000000 0.469418 0.841874 0.266260
16580.00000000 -5380.00000000 -210.00000000 100 20 195 97.000000 1.000000 4.000000 1.000000 -60.708740 114.000000 118.000000 0.699507 0.711093 0.070965
16780.00000000 -5090.00000000 -630.00000000 100 20 195 97.000000 1.000000 4.000000 1.000000 -60.708740 114.000000 118.000000 0.467989 0.461421 0.753709
16780.00000000 -5090.00000000 -620.00000000 100 20 195 97.000000 1.000000 4.000000 1.000000 -60.708740 114.000000 118.000000 0.628310 0.493552 0.601359
16780.00000000 -5090.00000000 -620.00000000 100 20 195 97.000000 1.000000 4.000000 1.000000 -60.708740 114.000000 118.000000 0.628310 0.493552 0.601359
16770.00000000 -5170.00000000 -670.00000000 100 20 195 97.000000 1.000000 4.000000 1.000000 -60.708740 114.000000 118.000000 0.481617 0.736494 0.474997
16780.00000000 -5180.00000000 -670.00000000 100 20 195 97.000000 1.000000 4.000000 1.000000 -60.708740 114.000000 118.000000 0.614594 0.638039 0.463876
16730.00000000 -5120.00000000 -640.00000000 100 20 195 97.000000 1.000000 4.000000 1.000000 -60.708740 114.000000 118.000000 0.941495 0.298390 0.156689
16750.00000000 -5160.00000000 -640.00000000 100 20 195 97.000000 1.000000 4.000000 1.000000 -60.708740 114.000000 118.000000 0.790654 0.579609 0.197281
16720.00000000 -5250.00000000 -590.00000000 100 20 195 97.000000 1.000000 4.000000 1.000000 -60.708740 114.000000 118.000000 0.560967 0.694134 0.451104
16810.00000000 -5340.00000000 -540.00000000 100 20 195 97.000000 1.000000 4.000000 1.000000 -60.708740 114.000000 118.000000 0.494980 0.847896 0.189917
16830.00000000 -5290.00000000 -630.00000000 100 20 195 97.000000 1.000000 4.000000 1.000000 -60.708740 114.000000 118.000000 0.811019 0.573433 0.115860
16800.00000000 -5300.00000000 -690.00000000 100 20 195 97.000000 1.000000 4.000000 1.000000 -60.708740 114.000000 118.000000 0.711118 0.296968 0.637277
16770.00000000 -5270.00000000 -660.00000000 100 20 195 97.000000 1.000000 4.000000 1.000000 -60.708740 114.000000 118.000000 0.831357 0.194637 0.520541
16770.00000000 -5320.00000000 -690.00000000 100 20 195 97.000000 1.000000 4.000000 1.000000 -60.708740 114.000000 118.000000 0.489765 0.761674 0.424244
16790.00000000 -5300.00000000 -690.00000000 100 20 195 97.000000 1.000000 4.000000 1.000000 -60.708740 114.000000 118.000000 0.710563 0.369230 0.598973
16770.00000000 -5330.00000000 -680.00000000 100 20 195 97.000000 1.000000 4.000000 1.000000 -60.708740 114.000000 118.000000 0.654779 0.563884 0.503288
16800.00000000 -5350.00000000 -600.00000000 100 20 195 97.000000 1.000000 4.000000 1.000000 -60.708740 114.000000 118.000000 0.937190 0.330376 0.111923
16800.00000000 -5350.00000000 -600.00000000 100 20 195 97.000000 1.000000 4.000000 1.000000 -60.708740 114.000000 118.000000 0.937190 0.330376 0.111923
16830.00000000 -5360.00000000 -630.00000000 100 20 195 97.000000 1.000000 4.000000 1.000000 -60.708740 114.000000 118.000000 0.938322 0.281358 0.200970
16790.00000000 -5350.00000000 -680.00000000 100 20 195 97.000000 1.000000 4.000000 1.000000 -60.708740 114.000000 118.000000 0.566513 0.492547 0.660652
16780.00000000 -5410.00000000 -640.00000000 100 20 195 97.000000 1.000000 4.000000 1.000000 -60.708740 114.000000 118.000000 0.724213 0.332133 0.604321
16720.00000000 -5290.00000000 -570.00000000 100 20 195 97.000000 1.000000 4.000000 1.000000 -60.708740 114.000000 118.000000 0.584575 0.806858 0.085160
16720.00000000 -5340.00000000 -630.00000000 100 20 195 97.000000 1.000000 4.000000 1.000000 -60.708740 114.000000 118.000000 0.835651 0.243795 0.492191
16710.00000000 -5270.00000000 -630.00000000 100 20 195 97.000000 1.000000 4.000000 1.000000 -60.708740 114.000000 118.000000 0.590497 0.680320 0.434140
16670.00000000 -5360.00000000 -600.00000000 100 20 195 97.000000 1.000000 4.000000 1.000000 -60.708740 114.000000 118.000000 0.502286 0.780077 0.373080
16690.00000000 -5380.00000000 -580.00000000 100 20 195 97.000000 1.000000 4.000000 1.000000 -60.708740 114.000000 118.000000 0.944664 0.269318 0.187292
16700.00000000 -5380.00000000 -600.00000000 100 20 195 97.000000 1.000000 4.000000 1.000000 -60.708740 114.000000 118.000000 0.712942 0.685811 0.146206
16670.00000000 -5360.00000000 -600.00000000 100 20 195 97.000000 1.000000 4.000000 1.000000 -60.708740 114.000000 118.000000 0.502286 0.780077 0.373080
16720.00000000 -5420.00000000 -620.00000000 100 20 195 97.000000 1.000000 4.000000 1.000000 -60.708740 114.000000 118.000000 0.710683 0.432373 0.554962
16740.00000000 -5360.00000000 -630.00000000 100 20 195 97.000000 1.000000 4.000000 1.000000 -60.708740 114.000000 118.000000 0.925043 0.249434 0.286493
16620.00000000 -5420.00000000 -420.00000000 100 20 195 97.000000 1.000000 4.000000 1.000000 -60.708740 114.000000 118.000000 0.598455 0.742855 -0.300030
16620.00000000 -5420.00000000 -420.00000000 100 20 195 97.000000 1.000000 4.000000 1.000000 -60.708740 114.000000 118.000000 0.598455 0.742855 -0.300030
16810.00000000 -5470.00000000 -690.00000000 100 20 195 97.000000 1.000000 4.000000 1.000000 -60.708740 114.000000 118.000000 0.842083 0.365373 0.396735
16780.00000000 -5430.00000000 -630.00000000 100 20 195 97.000000 1.000000 4.000000 1.000000 -60.708740 114.000000 118.000000 0.464468 0.854803 0.231478
16770.00000000 -5480.00000000 -660.00000000 100 20 195 97.000000 1.000000 4.000000 1.000000 -60.708740 114.000000 118.000000 0.950901 0.239416 0.196132
16660.00000000 -5430.00000000 -560.00000000 100 20 195 97.000000 1.000000 4.000000 1.000000 -60.708740 114.000000 118.000000 0.669340 0.568687 0.478100
16660.00000000 -5430.00000000 -580.00000000 100 20 195 97.000000 1.000000 4.000000 1.000000 -60.708740 114.000000 118.000000 0.752490 0.658602 -0.001381
16950.00000000 -5410.00000000 -730.00000000 100 20 195 97.000000 1.000000 4.000000 1.000000 -60.708740 114.000000 118.000000 0.621026 0.749299 0.229952
16870.00000000 -5270.00000000 -700.00000000 100 20 195 97.000000 1.000000 4.000000 1.000000 -60.708740 114.000000 118.000000 0.441778 0.575145 0.688506
16850.00000000 -5320.00000000 -710.00000000 100 20 195 97.000000 1.000000 4.000000 1.000000 -60.708740 114.000000 118.000000 0.907628 0.325928 0.264542
16890.00000000 -5370.00000000 -720.00000000 100 20 195 97.000000 1.000000 4.000000 1.000000 -60.708740 114.000000 118.000000 0.833731 0.488526 0.257362
16890.00000000 -5360.00000000 -740.00000000 100 20 195 97.000000 1.000000 4.000000 1.000000 -60.708740 114.000000 118.000000 0.661823 0.712128 0.234232
16860.00000000 -5390.00000000 -720.00000000 100 20 195 97.000000 1.000000 4.000000 1.000000 -60.708740 114.000000 118.000000 0.541082 0.707568 0.454509
16880.00000000 -5370.00000000 -800.00000000 100 20 195 97.000000 1.000000 4.000000 1.000000 -60.708740 114.000000 118.000000 0.903494 0.080889 0.420899
16950.00000000 -5430.00000000 -720.00000000 100 20 195 97.000000 1.000000 4.000000 1.000000 -60.708740 114.000000 118.000000 0.919179 0.379452 0.105480
16880.00000000 -5450.00000000 -750.00000000 100 20 195 97.000000 1.000000 4.000000 1.000000 -60.708740 114.000000 118.000000 0.825274 0.388085 0.410261
16890.00000000 -5440.00000000 -770.00000000 100 20 195 97.000000 1.000000 4.000000 1.000000 -60.708740 114.000000 118.000000 0.468457 0.636362 0.612855
16880.00000000 -5470.00000000 -720.00000000 100 20 195 97.000000 1.000000 4.000000 1.000000 -60.708740 114.000000 118.000000 0.488699 0.589462 0.643202
16870.00000000 -5450.00000000 -750.00000000 100 20 195 97.000000 1.000000 4.000000 1.000000 -60.708740 114.000000 118.000000 0.768907 0.626131 0.129391
16850.00000000 -5510.00000000 -720.00000000 100 20 195 97.000000 1.000000 4.000000 1.000000 -60.708740 114.000000 118.000000 0.637810 0.577226 0.509911
16840.00000000 -5520.00000000 -770.00000000 100 20 195 97.000000 1.000000 4.000000 1.000000 -60.708740 114.000000 118.000000 0.567676 0.523879 0.635056
16840.00000000 -5560.00000000 -790.00000000 100 20 195 97.000000 1.000000 4.000000 1.000000 -60.708740 114.000000 118.000000 0.735722 0.676864 -0.023823
16870.00000000 -5540.00000000 -790.00000000 100 20 195 97.000000 1.000000 4.000000 1.000000 -60.708740 114.000000 118.000000 0.809170 0.290673 0.510641
16750.00000000 -5120.00000000 -730.00000000 100 20 195 97.000000 1.000000 4.000000 1.000000 -60.708740 114.000000 118.000000 0.867308 0.447884 0.217201
16780.00000000 -5330.00000000 -700.00000000 100 20 195 97.000000 1.000000 4.000000 1.000000 -60.708740 114.000000 118.000000 0.520487 0.684499 0.510445
16800.00000000 -5340.00000000 -720.00000000 100 20 195 97.000000 1.000000 4.000000 1.000000 -60.708740 114.000000 118.000000 0.708210 0.683736 0.175905
16800.00000000 -5270.00000000 -710.00000000 100 20 195 97.000000 1.000000 4.000000 1.000000 -60.708740 114.000000 118.000000 0.716413 0.307494 0.626258
16810.00000000 -5410.00000000 -700.00000000 100 20 195 97.000000 1.000000 4.000000 1.000000 -60.708740 114.000000 118.000000 0.640733 0.580191 0.502832
16790.00000000 -5490.00000000 -760.00000000 100 20 195 97.000000 1.000000 4.000000 1.000000 -60.708740 114.000000 118.000000 0.670073 0.732475 0.120346
16810.00000000 -5530.00000000 -730.00000000 100 20 195 97.000000 1.000000 4.000000 1.000000 -60.708740 114.000000 118.000000 0.868249 0.233238 0.437886
16810.00000000 -5540.00000000 -720.00000000 100 20 195 97.000000 1.000000 4.000000 1.000000 -60.708740 114.000000 118.000000 0.853585 0.274312 0.442883
16470.00000000 -5100.00000000 -50.00000000 100 20 195 97.000000 1.000000 4.000000 1.000000 -60.708740 114.000000 118.000000 0.764441 0.580085 -0.281302
16450.00000000 -5220.00000000 -80.00000000 100 20 195 97.000000 1.000000 4.000000 1.000000 -60.708740 114.000000 118.000000 0.388173 0.858312 -0.335592
16470.00000000 -5200.00000000 -70.00000000 100 20 195 97.000000 1.000000 4.000000 1.000000 -60.708740 114.000000 118.000000 0.735472 0.675492 -0.052840
17260.00000000 -4730.00000000 -10.00000000 100 20 195 97.000000 1.000000 4.000000 1.000000 -60.708740 114.000000 118.000000 0.266631 -0.064446 0.961642
17200.00000000 -4770.00000000 -10.00000000 100 20 195 97.000000 1.000000 4.000000 1.000000 -60.708740 114.000000 118.000000 0.277087 -0.191617 0.941544
17030.00000000 -4030.00000000 230.00000000 100 20 195 97.000000 1.000000 4.000000 1.000000 -60.708740 114.000000 118.000000 0.838366 0.539458 0.078285
17060.00000000 -4000.00000000 210.00000000 100 20 195 97.000000 1.000000 4.000000 1.000000 -60.708740 114.000000 118.000000 0.621872 0.715557 0.318205
17080.00000000 -4050.00000000 60.00000000 100 20 195 97.000000 1.000000 4.000000 1.000000 -60.708740 114.000000 118.000000 0.548356 0.834455 0.054695
17080.00000000 -4050.00000000 60.00000000 100 20 195 97.000000 1.000000 4.000000 1.000000 -60.708740 114.000000 118.000000 0.548356 0.834455 0.054695
17060.00000000 -4230.00000000 370.00000000 100 20 195 97.000000 1.000000 4.000000 1.000000 -60.708740 114.000000 118.000000 0.660331 0.539354 0.522552
17010.00000000 -4340.00000000 360.00000000 100 20 195 97.000000 1.000000 4.000000 1.000000 -60.708740 114.000000 118.000000 0.638876 0.073550 0.765786
16870.00000000 -4230.00000000 400.00000000 100 20 195 97.000000 1.000000 4.000000 1.000000 -60.708740 114.000000 118.000000 0.874184 -0.082788 0.478486
16850.00000000 -4240.00000000 320.00000000 100 20 195 97.000000 1.000000 4.000000 1.000000 -60.708740 114.000000 118.000000 0.552890 0.054867 0.831446
16980.00000000 -4300.00000000 380.00000000 100 20 195 97.000000 1.000000 4.000000 1.000000 -60.708740 114.000000 118.000000 0.671763 0.064731 0.737932
16940.00000000 -4270.00000000 360.00000000 100 20 195 97.000000 1.000000 4.000000 1.000000 -60.708740 114.000000 118.000000 0.737256 -0.086135 0.670100
16950.00000000 -4320.00000000 350.00000000 100 20 195 97.000000 1.000000 4.000000 1.000000 -60.708740 114.000000 118.000000 0.712012 -0.104664 0.694323
16880.00000000 -4280.00000000 360.00000000 100 20 195 97.000000 1.000000 4.000000 1.000000 -60.708740 114.000000 118.000000 0.845989 0.173956 0.504025
16880.00000000 -4280.00000000 400.00000000 100 20 195 97.000000 1.000000 4.000000 1.000000 -60.708740 114.000000 118.000000 0.669158 -0.032401 0.742413
16850.00000000 -4270.00000000 320.00000000 100 20 195 97.000000 1.000000 4.000000 1.000000 -60.708740 114.000000 118.000000 0.625173 -0.188934 0.757273
16840.00000000 -4300.00000000 320.00000000 100 20 195 97.000000 1.000000 4.000000 1.000000 -60.708740 114.000000 118.000000 0.390961 0.279258 0.877020
16850.00000000 -4300.00000000 320.00000000 100 20 195 97.000000 1.000000 4.000000 1.000000 -60.708740 114.000000 118.000000 0.678090 -0.117219 0.725571
16910.00000000 -4360.00000000 370.00000000 100 20 195 97.000000 1.000000 4.000000 1.000000 -60.708740 114.000000 118.000000 0.833696 0.121185 0.538763
16880.00000000 -4330.00000000 370.00000000 100 20 195 97.000000 1.000000 4.000000 1.000000 -60.708740 114.000000 118.000000 0.744597 0.223223 0.629083
17070.00000000 -4100.00000000 170.00000000 100 20 195 97.000000 1.000000 4.000000 1.000000 -60.708740 114.000000 118.000000 0.636623 0.761276 0.123169
17020.00000000 -4140.00000000 160.00000000 100 20 195 97.000000 1.000000 4.000000 1.000000 -60.708740 114.000000 118.000000 0.765729 0.632430 0.117007
17020.00000000 -4220.00000000 190.00000000 100 20 195 97.000000 1.000000 4.000000 1.000000 -60.708740 114.000000 118.000000 0.789930 0.518641 0.327143
17030.00000000 -4170.00000000 200.00000000 100 20 195 97.000000 1.000000 4.000000 1.000000 -60.708740 114.000000 118.000000 0.718809 0.130013 0.682943
17020.00000000 -4200.00000000 90.00000000 100 20 195 97.000000 1.000000 4.000000 1.000000 -60.708740 114.000000 118.000000 0.911011 0.251363 0.326918
17050.00000000 -4200.00000000 50.00000000 100 20 195 97.000000 1.000000 4.000000 1.000000 -60.708740 114.000000 118.000000 0.455890 0.766353 0.452622
17080.00000000 -4200.00000000 0.00000000 100 20 195 97.000000 1.000000 4.000000 1.000000 -60.708740 114.000000 118.000000 0.635270 0.718479 0.283231
17080.00000000 -4200.00000000 -10.00000000 100 20 195 97.000000 1.000000 4.000000 1.000000 -60.708740 114.000000 118.000000 0.760895 0.554112 0.337637
17070.00000000 -4190.00000000 -10.00000000 100 20 195 97.000000 1.000000 4.000000 1.000000 -60.708740 114.000000 118.000000 0.736711 0.532343 0.416975
17080.00000000 -4210.00000000 -10.00000000 100 20 195 97.000000 1.000000 4.000000 1.000000 -60.708740 114.000000 118.000000 0.883082 0.433513 -0.179536
17040.00000000 -4240.00000000 40.00000000 100 20 195 97.000000 1.000000 4.000000 1.000000 -60.708740 114.000000 118.000000 0.780252 0.615679 -0.110205
17010.00000000 -4250.00000000 280.00000000 100 20 195 97.000000 1.000000 4.000000 1.000000 -60.708740 114.000000 118.000000 0.830621 -0.084349 0.550412
17040.00000000 -4250.00000000 70.00000000 100 20 195 97.000000 1.000000 4.000000 1.000000 -60.708740 114.000000 118.000000 0.749700 0.469592 0.466297
16980.00000000 -4130.00000000 210.00000000 100 20 195 97.000000 1.000000 4.000000 1.000000 -60.708740 114.000000 118.000000 0.746697 0.446699 0.492853
16980.00000000 -4140.00000000 210.00000000 100 20 195 97.000000 1.000000 4.000000 1.000000 -60.708740 114.000000 118.000000 0.718565 0.240570 0.652526
16990.00000000 -4160.00000000 200.00000000 100 20 195 97.000000 1.000000 4.000000 1.000000 -60.708740 114.000000 118.000000 0.655160 0.474195 0.588136
17000.00000000 -4220.00000000 240.00000000 100 20 195 97.000000 1.000000 4.000000 1.000000 -60.708740 114.000000 118.000000 0.722896 0.486916 0.490240
16990.00000000 -4200.00000000 270.00000000 100 20 195 97.000000 1.000000 4.000000 1.000000 -60.708740 114.000000 118.000000 0.675703 0.237835 0.697754
16860.00000000 -4230.00000000 300.00000000 100 20 195 97.000000 1.000000 4.000000 1.000000 -60.708740 114.000000 118.000000 0.789691 0.038006 0.612327
17000.00000000 -4250.00000000 290.00000000 100 20 195 97.000000 1.000000 4.000000 1.000000 -60.708740 114.000000 118.000000 0.824026 0.343212 0.450763
16970.00000000 -4400.00000000 310.00000000 100 20 195 97.000000 1.000000 4.000000 1.000000 -60.708740 114.000000 118.000000 0.692371 0.379900 0.613431
16900.00000000 -4260.00000000 300.00000000 100 20 195 97.000000 1.000000 4.000000 1.000000 -60.708740 114.000000 118.000000 0.438338 0.281459 0.853605
16820.00000000 -4310.00000000 430.00000000 100 20 195 97.000000 1.000000 4.000000 1.000000 -60.708740 114.000000 118.000000 0.629766 0.237144 0.739701
16810.00000000 -4390.00000000 350.00000000 100 20 195 97.000000 1.000000 4.000000 1.000000 -60.708740 114.000000 118.000000 0.743143 -0.267785 0.613212
16790.00000000 -4340.00000000 360.00000000 100 20 195 97.000000 1.000000 4.000000 1.000000 -60.708740 114.000000 118.000000 0.799732 0.067240 0.596580
16680.00000000 -4250.00000000 380.00000000 100 20 195 97.000000 1.000000 4.000000 1.000000 -60.708740 114.000000 118.000000 0.520669 -0.168583 0.836949
16680.00000000 -4340.00000000 380.00000000 100 20 195 97.000000 1.000000 4.000000 1.000000 -60.708740 114.000000 118.000000 0.417251 -0.535995 0.733901
16650.00000000 -4250.00000000 360.00000000 100 20 195 97.000000 1.000000 4.000000 1.000000 -60.708740 114.000000 118.000000 0.250171 -0.264305 0.931428
16630.00000000 -4370.00000000 440.00000000 100 20 195 97.000000 1.000000 4.000000 1.000000 -60.708740 114.000000 118.000000 0.498257 -0.039806 0.866115
16650.00000000 -4410.00000000 410.00000000 100 20 195 97.000000 1.000000 4.000000 1.000000 -60.708740 114.000000 118.000000 0.287165 -0.697859 0.656148
16610.00000000 -4400.00000000 450.00000000 100 20 195 97.000000 1.000000 4.000000 1.000000 -60.708740 114.000000 118.000000 0.023108 -0.254186 0.966879
16640.00000000 -4360.00000000 370.00000000 100 20 195 97.000000 1.000000 4.000000 1.000000 -60.708740 114.000000 118.000000 0.457226 -0.011928 0.889271
16570.00000000 -4400.00000000 450.00000000 100 20 195 97.000000 1.000000 4.000000 1.000000 -60.708740 114.000000 118.000000 0.133579 -0.088658 0.987064
16540.00000000 -4390.00000000 440.00000000 100 20 195 97.000000 1.000000 4.000000 1.000000 -60.708740 114.000000 118.000000 0.255365 -0.198010 0.946351
16580.00000000 -4330.00000000 470.00000000 100 20 195 97.000000 1.000000 4.000000 1.000000 -60.708740 114.000000 118.000000 0.371742 -0.343977 0.862257
16580.00000000 -4410.00000000 430.00000000 100 20 195 97.000000 1.000000 4.000000 1.000000 -60.708740 114.000000 118.000000 0.366521 -0.632783 0.682091
16950.00000000 -4480.00000000 320.00000000 100 20 195 97.000000 1.000000 4.000000 1.000000 -60.708740 114.000000 118.000000 0.780067 -0.067520 0.622042
16920.00000000 -4430.00000000 320.00000000 100 20 195 97.000000 1.000000 4.000000 1.000000 -60.708740 114.000000 118.000000 0.721192 -0.067928 0.689396
16930.00000000 -4700.00000000 330.00000000 100 20 195 97.000000 1.000000 4.000000 1.000000 -60.708740 114.000000 118.000000 0.479150 -0.426820 0.766968
16990.00000000 -4730.00000000 340.00000000 100 20 195 97.000000 1.000000 4.000000 1.000000 -60.708740 114.000000 118.000000 0.251559 -0.551555 0.795302
16850.00000000 -4600.00000000 380.00000000 100 20 195 97.000000 1.000000 4.000000 1.000000 -60.708740 114.000000 118.000000 0.492813 -0.167231 0.853914
16890.00000000 -4590.00000000 340.00000000 100 20 195 97.000000 1.000000 4.000000 1.000000 -60.708740 114.000000 118.000000 0.616347 -0.369808 0.695240
17040.00000000 -4750.00000000 40.00000000 100 20 195 97.000000 1.000000 4.000000 1.000000 -60.708740 114.000000 118.000000 -0.090239 -0.201493 0.975324
16940.00000000 -4670.00000000 70.00000000 100 20 195 97.000000 1.000000 4.000000 1.000000 -60.708740 114.000000 118.000000 0.499469 -0.193488 0.844448
16930.00000000 -4680.00000000 0.00000000 100 20 195 97.000000 1.000000 4.000000 1.000000 -60.708740 114.000000 118.000000 -0.098568 0.728229 -0.678209
16960.00000000 -4670.00000000 20.00000000 100 20 195 97.000000 1.000000 4.000000 1.000000 -60.708740 114.000000 118.000000 0.097458 -0.597842 0.795668
16850.00000000 -4750.00000000 90.00000000 100 20 195 97.000000 1.000000 4.000000 1.000000 -60.708740 114.000000 118.000000 -0.061756 -0.676448 0.733896
16840.00000000 -4900.00000000 380.00000000 100 20 195 97.000000 1.000000 4.000000 1.000000 -60.708740 114.000000 118.000000 0.139140 -0.392122 0.909330
16850.00000000 -4890.00000000 390.00000000 100 20 195 97.000000 1.000000 4.000000 1.000000 -60.708740 114.000000 118.000000 0.194313 -0.338985 0.920506
16840.00000000 -4890.00000000 390.00000000 100 20 195 97.000000 1.000000 4.000000 1.000000 -60.708740 114.000000 118.000000 0.059713 -0.375527 0.924886
16880.00000000 -5040.00000000 320.00000000 100 20 195 97.000000 1.000000 4.000000 1.000000 -60.708740 114.000000 118.000000 0.019705 -0.419060 0.907745
17130.00000000 -4760.00000000 20.00000000 100 20 195 97.000000 1.000000 4.000000 1.000000 -60.708740 114.000000 118.000000 0.067320 -0.209305 0.975530
17110.00000000 -4830.00000000 -10.00000000 100 20 195 97.000000 1.000000 4.000000 1.000000 -60.708740 114.000000 118.000000 0.084209 -0.104973 0.990903
17110.00000000 -4830.00000000 -10.00000000 100 20 195 97.000000 1.000000 4.000000 1.000000 -60.708740 114.000000 118.000000 0.084209 -0.104973 0.990903
16870.00000000 -4790.00000000 70.00000000 100 20 195 97.000000 1.000000 4.000000 1.000000 -60.708740 114.000000 118.000000 0.369284 0.759717 -0.535218
16840.00000000 -4780.00000000 50.00000000 100 20 195 97.000000 1.000000 4.000000 1.000000 -60.708740 114.000000 118.000000 -0.296665 -0.604556 0.739258
16870.00000000 -4780.00000000 50.00000000 100 20 195 97.000000 1.000000 4.000000 1.000000 -60.708740 114.000000 118.000000 -0.020673 0.820027 -0.571952
16850.00000000 -4800.00000000 30.00000000 100 20 195 97.000000 1.000000 4.000000 1.000000 -60.708740 114.000000 118.000000 0.255221 0.784451 -0.565243
16890.00000000 -5010.00000000 300.00000000 100 20 195 97.000000 1.000000 4.000000 1.000000 -60.708740 114.000000 118.000000 -0.321870 -0.546057 0.773448
16840.00000000 -5070.00000000 280.00000000 100 20 195 97.000000 1.000000 4.000000 1.000000 -60.708740 114.000000 118.000000 -0.135476 0.781594 -0.608899
16800.00000000 -4510.00000000 330.00000000 100 20 195 97.000000 1.000000 4.000000 1.000000 -60.708740 114.000000 118.000000 -0.409523 0.631693 -0.658221
16670.00000000 -4470.00000000 370.00000000 100 20 195 97.000000 1.000000 4.000000 1.000000 -60.708740 114.000000 118.000000 0.509806 -0.287060 0.810984
16670.00000000 -4470.00000000 370.00000000 100 20 195 97.000000 1.000000 4.000000 1.000000 -60.708740 114.000000 118.000000 0.509806 -0.287060 0.810984
16700.00000000 -4480.00000000 350.00000000 100 20 195 97.000000 1.000000 4.000000 1.000000 -60.708740 114.000000 118.000000 0.207945 -0.580705 0.787109
16740.00000000 -4520.00000000 370.00000000 100 20 195 97.000000 1.000000 4.000000 1.000000 -60.708740 114.000000 118.000000 0.500086 -0.574173 0.648259
16800.00000000 -4680.00000000 350.00000000 100 20 195 97.000000 1.000000 4.000000 1.000000 -60.708740 114.000000 118.000000 -0.287023 0.707135 -0.646203
16710.00000000 -4660.00000000 370.00000000 100 20 195 97.000000 1.000000 4.000000 1.000000 -60.708740 114.000000 118.000000 -0.254805 -0.634637 0.729596
16710.00000000 -4680.00000000 350.00000000 100 20 195 97.000000 1.000000 4.000000 1.000000 -60.708740 114.000000 118.000000 -0.383515 -0.540184 0.749078
16590.00000000 -4460.00000000 450.00000000 100 20 195 97.000000 1.000000 4.000000 1.000000 -60.708740 114.000000 118.000000 0.242857 -0.530574 0.812103
16640.00000000 -4570.00000000 350.00000000 100 20 195 97.000000 1.000000 4.000000 1.000000 -60.708740 114.000000 118.000000 0.147717 -0.571469 0.807219
16560.00000000 -4430.00000000 450.00000000 100 20 195 97.000000 1.000000 4.000000 1.000000 -60.708740 114.000000 118.000000 -0.225691 -0.362561 0.904220
16570.00000000 -4460.00000000 460.00000000 100 20 195 97.000000 1.000000 4.000000 1.000000 -60.708740 114.000000 118.000000 -0.276122 -0.560133 0.781030
16550.00000000 -4490.00000000 430.00000000 100 20 195 97.000000 1.000000 4.000000 1.000000 -60.708740 114.000000 118.000000 0.190967 -0.412547 0.890694
16520.00000000 -4540.00000000 410.00000000 100 20 195 97.000000 1.000000 4.000000 1.000000 -60.708740 114.000000 118.000000 -0.204877 -0.379241 0.902331
16540.00000000 -4520.00000000 410.00000000 100 20 195 97.000000 1.000000 4.000000 1.000000 -60.708740 114.000000 118.000000 0.046596 -0.608571 0.792130
16530.00000000 -4540.00000000 400.00000000 100 20 195 97.000000 1.000000 4.000000 1.000000 -60.708740 114.000000 118.000000 0.259475 -0.471354 0.842910
16530.00000000 -4550.00000000 380.00000000 100 20 195 97.000000 1.000000 4.000000 1.000000 -60.708740 114.000000 118.000000 0.179093 -0.543298 0.820215
16640.00000000 -4590.00000000 340.00000000 100 20 195 97.000000 1.000000 4.000000 1.000000 -60.708740 114.000000 118.000000 0.302554 -0.574693 0.760387
16650.00000000 -4650.00000000 320.00000000 100 20 195 97.000000 1.000000 4.000000 1.000000 -60.708740 114.000000 118.000000 -0.117646 -0.328598 0.937114
16610.00000000 -4610.00000000 370.00000000 100 20 195 97.000000 1.000000 4.000000 1.000000 -60.708740 114.000000 118.000000 -0.229296 -0.360740 0.904041
16590.00000000 -4600.00000000 350.00000000 100 20 195 97.000000 1.000000 4.000000 1.000000 -60.708740 114.000000 118.000000 -0.180505 -0.568817 0.802412
16590.00000000 -4710.00000000 340.00000000 100 20 195 97.000000 1.000000 4.000000 1.000000 -60.708740 114.000000 118.000000 -0.138230 0.804110 -0.578186
16560.00000000 -4610.00000000 330.00000000 100 20 195 97.000000 1.000000 4.000000 1.000000 -60.708740 114.000000 118.000000 0.199263 -0.656487 0.727543
16570.00000000 -4610.00000000 340.00000000 100 20 195 97.000000 1.000000 4.000000 1.000000 -60.708740 114.000000 118.000000 0.191365 -0.604712 0.773113
16540.00000000 -4620.00000000 330.00000000 100 20 195 97.000000 1.000000 4.000000 1.000000 -60.708740 114.000000 118.000000 0.073744 0.741773 -0.666584
16520.00000000 -4610.00000000 350.00000000 100 20 195 97.000000 1.000000 4.000000 1.000000 -60.708740 114.000000 118.000000 0.266563 0.839751 -0.473034
16580.00000000 -4740.00000000 320.00000000 100 20 195 97.000000 1.000000 4.000000 1.000000 -60.708740 114.000000 118.000000 -0.206183 -0.717766 0.665057
16690.00000000 -4620.00000000 160.00000000 100 20 195 97.000000 1.000000 4.000000 1.000000 -60.708740 114.000000 118.000000 -0.074965 -0.530413 0.844418
16770.00000000 -4660.00000000 130.00000000 100 20 195 97.000000 1.000000 4.000000 1.000000 -60.708740 114.000000 118.000000 -0.271259 0.756671 -0.594867
16790.00000000 -4610.00000000 140.00000000 100 20 195 97.000000 1.000000 4.000000 1.000000 -60.708740 114.000000 118.000000 -0.219895 0.740783 -0.634734
16770.00000000 -4620.00000000 120.00000000 100 20 195 97.000000 1.000000 4.000000 1.000000 -60.708740 114.000000 118.000000 0.097567 -0.604336 0.790733
16810.00000000 -4680.00000000 80.00000000 100 20 195 97.000000 1.000000 4.000000 1.000000 -60.708740 114.000000 118.000000 0.220497 -0.680257 0.699022
16730.00000000 -4650.00000000 130.00000000 100 20 195 97.000000 1.000000 4.000000 1.000000 -60.708740 114.000000 118.000000 0.209614 0.666108 -0.715795
16710.00000000 -4660.00000000 110.00000000 100 20 195 97.000000 1.000000 4.000000 1.000000 -60.708740 114.000000 118.000000 0.375361 0.848845 -0.372246
16680.00000000 -4660.00000000 40.00000000 100 20 195 97.000000 1.000000 4.000000 1.000000 -60.708740 114.000000 118.000000 -0.095004 -0.627025 0.773184
16730.00000000 -4690.00000000 80.00000000 100 20 195 97.000000 1.000000 4.000000 1.000000 -60.708740 114.000000 118.000000 -0.128732 0.794585 -0.593349
16730.00000000 -4670.00000000 120.00000000 100 20 195 97.000000 1.000000 4.000000 1.000000 -60.708740 114.000000 118.000000 0.399184 0.677454 -0.617825
16680.00000000 -4730.00000000 -10.00000000 100 20 195 97.000000 1.000000 4.000000 1.000000 -60.708740 114.000000 118.000000 0.332817 0.925428 -0.181154
16610.00000000 -4650.00000000 160.00000000 100 20 195 97.000000 1.000000 4.000000 1.000000 -60.708740 114.000000 118.000000 0.064689 0.884998 -0.461080
16600.00000000 -4630.00000000 150.00000000 100 20 195 97.000000 1.000000 4.000000 1.000000 -60.708740 114.000000 118.000000 0.449499 0.834785 -0.317939
16610.00000000 -4650.00000000 160.00000000 100 20 195 97.000000 1.000000 4.000000 1.000000 -60.708740 114.000000 118.000000 0.064689 0.884998 -0.461080
16630.00000000 -4680.00000000 310.00000000 100 20 195 97.000000 1.000000 4.000000 1.000000 -60.708740 114.000000 118.000000 0.004052 -0.536172 0.844099
16640.00000000 -4740.00000000 290.00000000 100 20 195 97.000000 1.000000 4.000000 1.000000 -60.708740 114.000000 118.000000 0.097620 -0.607573 0.788242
16630.00000000 -4740.00000000 290.00000000 100 20 195 97.000000 1.000000 4.000000 1.000000 -60.708740 114.000000 118.000000 -0.318826 -0.496481 0.807376
16640.00000000 -4730.00000000 300.00000000 100 20 195 97.000000 1.000000 4.000000 1.000000 -60.708740 114.000000 118.000000 -0.105092 -0.315275 0.943164
16600.00000000 -4750.00000000 290.00000000 100 20 195 97.000000 1.000000 4.000000 1.000000 -60.708740 114.000000 118.000000 0.128404 0.898826 -0.419076
16600.00000000 -4710.00000000 300.00000000 100 20 195 97.000000 1.000000 4.000000 1.000000 -60.708740 114.000000 118.000000 0.049279 -0.573049 0.818038
16620.00000000 -4720.00000000 260.00000000 100 20 195 97.000000 1.000000 4.000000 1.000000 -60.708740 114.000000 118.000000 0.347083 0.848252 -0.400002
16560.00000000 -4590.00000000 200.00000000 100 20 195 97.000000 1.000000 4.000000 1.000000 -60.708740 114.000000 118.000000 0.586053 0.521874 -0.619831
16560.00000000 -4600.00000000 180.00000000 100 20 195 97.000000 1.000000 4.000000 1.000000 -60.708740 114.000000 118.000000 -0.043231 0.835326 -0.548052
16520.00000000 -4590.00000000 230.00000000 100 20 195 97.000000 1.000000 4.000000 1.000000 -60.708740 114.000000 118.000000 0.067904 -0.680486 0.729608
16530.00000000 -4650.00000000 170.00000000 100 20 195 97.000000 1.000000 4.000000 1.000000 -60.708740 114.000000 118.000000 0.198217 0.827669 -0.525047
16540.00000000 -4690.00000000 270.00000000 100 20 195 97.000000 1.000000 4.000000 1.000000 -60.708740 114.000000 118.000000 0.313868 0.818580 -0.481054
16530.00000000 -4710.00000000 280.00000000 100 20 195 97.000000 1.000000 4.000000 1.000000 -60.708740 114.000000 118.000000 0.433393 0.709037 -0.556270
16550.00000000 -4670.00000000 210.00000000 100 20 195 97.000000 1.000000 4.000000 1.000000 -60.708740 114.000000 118.000000 -0.252485 -0.581814 0.773139
16550.00000000 -4700.00000000 200.00000000 100 20 195 97.000000 1.000000 4.000000 1.000000 -60.708740 114.000000 118.000000 -0.137405 -0.559963 0.817044
16540.00000000 -4750.00000000 230.00000000 100 20 195 97.000000 1.000000 4.000000 1.000000 -60.708740 114.000000 118.000000 0.641037 0.509801 -0.573737
16620.00000000 -4680.00000000 140.00000000 100 20 195 97.000000 1.000000 4.000000 1.000000 -60.708740 114.000000 118.000000 -0.129720 -0.648602 0.749992
16650.00000000 -4700.00000000 70.00000000 100 20 195 97.000000 1.000000 4.000000 1.000000 -60.708740 114.000000 118.000000 0.088891 0.870564 -0.483960
16600.00000000 -4690.00000000 140.00000000 100 20 195 97.000000 1.000000 4.000000 1.000000 -60.708740 114.000000 118.000000 0.553057 0.613944 -0.563205
16510.00000000 -4650.00000000 120.00000000 100 20 195 97.000000 1.000000 4.000000 1.000000 -60.708740 114.000000 118.000000 0.408580 0.709640 -0.573998
16580.00000000 -4660.00000000 110.00000000 100 20 195 97.000000 1.000000 4.000000 1.000000 -60.708740 114.000000 118.000000 -0.196504 -0.679255 0.707106
16520.00000000 -4670.00000000 140.00000000 100 20 195 97.000000 1.000000 4.000000 1.000000 -60.708740 114.000000 118.000000 0.362545 0.895265 -0.258961
16830.00000000 -4820.00000000 380.00000000 100 20 195 97.000000 1.000000 4.000000 1.000000 -60.708740 114.000000 118.000000 -0.039682 -0.217651 0.975220
16810.00000000 -4840.00000000 350.00000000 100 20 195 97.000000 1.000000 4.000000 1.000000 -60.708740 114.000000 118.000000 0.064791 -0.718460 0.692544
16810.00000000 -4840.00000000 330.00000000 100 20 195 97.000000 1.000000 4.000000 1.000000 -60.708740 114.000000 118.000000 -0.187656 0.782664 -0.593482
16830.00000000 -4860.00000000 380.00000000 100 20 195 97.000000 1.000000 4.000000 1.000000 -60.708740 114.000000 118.000000 0.231608 -0.326553 0.916363
16780.00000000 -5050.00000000 330.00000000 100 20 195 97.000000 1.000000 4.000000 1.000000 -60.708740 114.000000 118.000000 0.442961 0.610116 -0.656920
16770.00000000 -4920.00000000 330.00000000 100 20 195 97.000000 1.000000 4.000000 1.000000 -60.708740 114.000000 118.000000 -0.289667 -0.609742 0.737772
16830.00000000 -4810.00000000 20.00000000 100 20 195 97.000000 1.000000 4.000000 1.000000 -60.708740 114.000000 118.000000 0.146809 0.820057 -0.553131
16830.00000000 -5070.00000000 280.00000000 100 20 195 97.000000 1.000000 4.000000 1.000000 -60.708740 114.000000 118.000000 0.056379 -0.468912 0.881444
16830.00000000 -5070.00000000 280.00000000 100 20 195 97.000000 1.000000 4.000000 1.000000 -60.708740 114.000000 118.000000 0.056379 -0.468912 0.881444
16630.00000000 -4770.00000000 300.00000000 100 20 195 97.000000 1.000000 4.000000 1.000000 -60.708740 114.000000 118.000000 -0.223879 0.709210 -0.668505
16550.00000000 -4760.00000000 250.00000000 100 20 195 97.000000 1.000000 4.000000 1.000000 -60.708740 114.000000 118.000000 0.044149 -0.713502 0.699261
16790.00000000 -5130.00000000 220.00000000 100 20 195 97.000000 1.000000 4.000000 1.000000 -60.708740 114.000000 118.000000 0.257869 0.801740 -0.539182
16790.00000000 -5130.00000000 220.00000000 100 20 195 97.000000 1.000000 4.000000 1.000000 -60.708740 114.000000 118.000000 0.257869 0.801740 -0.539182
16810.00000000 -5100.00000000 260.00000000 100 20 195 97.000000 1.000000 4.000000 1.000000 -60.708740 114.000000 118.000000 0.519720 0.650911 -0.553359
16490.00000000 -4700.00000000 270.00000000 100 20 195 97.000000 1.000000 4.000000 1.000000 -60.708740 114.000000 118.000000 -0.018072 -0.632529 0.774326
16460.00000000 -4680.00000000 250.00000000 100 20 195 97.000000 1.000000 4.000000 1.000000 -60.708740 114.000000 118.000000 -0.241993 -0.569854 0.785306
16460.00000000 -4680.00000000 260.00000000 100 20 195 97.000000 1.000000 4.000000 1.000000 -60.708740 114.000000 118.000000 0.526119 0.793152 -0.306770
16420.00000000 -4690.00000000 250.00000000 100 20 195 97.000000 1.000000 4.000000 1.000000 -60.708740 114.000000 118.000000 0.482673 0.597035 -0.640762
16420.00000000 -4700.00000000 230.00000000 100 20 195 97.000000 1.000000 4.000000 1.000000 -60.708740 114.000000 118.000000 -0.294377 -0.661142 0.690097
16390.00000000 -4820.00000000 250.00000000 100 20 195 97.000000 1.000000 4.000000 1.000000 -60.708740 114.000000 118.000000 0.506804 0.617930 -0.601093
16420.00000000 -4800.00000000 100.00000000 100 20 195 97.000000 1.000000 4.000000 1.000000 -60.708740 114.000000 118.000000 0.714608 0.589757 -0.376196
16430.00000000 -4800.00000000 120.00000000 100 20 195 97.000000 1.000000 4.000000 1.000000 -60.708740 114.000000 118.000000 0.588092 0.786669 -0.187884
16450.00000000 -4840.00000000 70.00000000 100 20 195 97.000000 1.000000 4.000000 1.000000 -60.708740 114.000000 118.000000 0.316958 0.788413 -0.527202
16130.00000000 -4850.00000000 250.00000000 100 20 195 97.000000 1.000000 4.000000 1.000000 -60.708740 114.000000 118.000000 0.638083 0.687041 -0.347600
17290.00000000 -3960.00000000 -50.00000000 100 20 195 97.000000 1.000000 4.000000 1.000000 -60.708740 114.000000 118.000000 0.804897 0.529825 0.267257
17280.00000000 -3930.00000000 -130.00000000 100 20 195 97.000000 1.000000 4.000000 1.000000 -60.708740 114.000000 118.000000 0.423932 0.887198 0.182101
17280.00000000 -4000.00000000 -40.00000000 100 20 195 97.000000 1.000000 4.000000 1.000000 -60.708740 114.000000 118.000000 0.579411 0.808853 -0.100199
17250.00000000 -4020.00000000 -40.00000000 100 20 195 97.000000 1.000000 4.000000 1.000000 -60.708740 114.000000 118.000000 0.787656 0.457714 0.412428
17340.00000000 -4070.00000000 -290.00000000 100 20 195 97.000000 1.000000 4.000000 1.000000 -60.708740 114.000000 118.000000 0.750631 0.626816 0.208939
17240.00000000 -4070.00000000 -240.00000000 100 20 195 97.000000 1.000000 4.000000 1.000000 -60.708740 114.000000 118.000000 0.707716 0.676744 -0.202868
17310.00000000 -4060.00000000 -390.00000000 100 20 195 97.000000 1.000000 4.000000 1.000000 -60.708740 114.000000 118.000000 0.520597 0.770354 -0.368148
17180.00000000 -4100.00000000 -60.00000000 100 20 195 97.000000 1.000000 4.000000 1.000000 -60.708740 114.000000 118.000000 0.780859 0.520036 -0.346154
