//X Y Z R G B PointSourceId ScanDirectionFlag NumberOfReturns ReturnNumber GpsTime Intensity Classification Nx Ny Nz
12060.00000000 -10390.00000000 20.00000000 44 5 231 97.000000 1.000000 4.000000 1.000000 -60.708740 114.000000 145.000000 0.164603 0.903167 0.396478
12040.00000000 -10390.00000000 20.00000000 44 5 231 97.000000 1.000000 4.000000 1.000000 -60.708740 114.000000 145.000000 -0.319079 0.891323 0.322075
12070.00000000 -10360.00000000 -10.00000000 44 5 231 97.000000 1.000000 4.000000 1.000000 -60.708740 114.000000 145.000000 0.112099 0.828370 0.548850
12090.00000000 -10430.00000000 90.00000000 44 5 231 97.000000 1.000000 4.000000 1.000000 -60.708740 114.000000 145.000000 -0.289268 0.914319 0.283453
12090.00000000 -10420.00000000 70.00000000 44 5 231 97.000000 1.000000 4.000000 1.000000 -60.708740 114.000000 145.000000 -0.158319 0.934773 0.318016
12110.00000000 -10460.00000000 130.00000000 44 5 231 97.000000 1.000000 4.000000 1.000000 -60.708740 114.000000 145.000000 -0.073348 0.929519 0.361406
12090.00000000 -10460.00000000 110.00000000 44 5 231 97.000000 1.000000 4.000000 1.000000 -60.708740 114.000000 145.000000 0.581932 -0.531329 -0.615667
12100.00000000 -10460.00000000 120.00000000 44 5 231 97.000000 1.000000 4.000000 1.000000 -60.708740 114.000000 145.000000 -0.551279 0.833199 0.043265
12110.00000000 -10440.00000000 120.00000000 44 5 231 97.000000 1.000000 4.000000 1.000000 -60.708740 114.000000 145.000000 -0.450510 0.850279 0.272151
12080.00000000 -10440.00000000 140.00000000 44 5 231 97.000000 1.000000 4.000000 1.000000 -60.708740 114.000000 145.000000 -0.178274 0.617101 0.766424
12090.00000000 -10460.00000000 120.00000000 44 5 231 97.000000 1.000000 4.000000 1.000000 -60.708740 114.000000 145.000000 -0.625487 0.738925 0.250510
12100.00000000 -10470.00000000 80.00000000 44 5 231 97.000000 1.000000 4.000000 1.000000 -60.708740 114.000000 145.000000 -0.074846 0.910405 0.406892
12050.00000000 -10450.00000000 90.00000000 44 5 231 97.000000 1.000000 4.000000 1.000000 -60.708740 114.000000 145.000000 -0.556981 0.715646 0.421454
12050.00000000 -10450.00000000 90.00000000 44 5 231 97.000000 1.000000 4.000000 1.000000 -60.708740 114.000000 145.000000 -0.556981 0.715646 0.421454
12040.00000000 -10460.00000000 90.00000000 44 5 231 97.000000 1.000000 4.000000 1.000000 -60.708740 114.000000 145.000000 -0.403107 0.544606 0.735465
12090.00000000 -10420.00000000 60.00000000 44 5 231 97.000000 1.000000 4.000000 1.000000 -60.708740 114.000000 145.000000 -0.360941 0.830636 0.423987
12090.00000000 -10410.00000000 60.00000000 44 5 231 97.000000 1.000000 4.000000 1.000000 -60.708740 114.000000 145.000000 0.197375 0.871120 0.449658
12090.00000000 -10410.00000000 50.00000000 44 5 231 97.000000 1.000000 4.000000 1.000000 -60.708740 114.000000 145.000000 -0.185583 0.862589 0.470638
12060.00000000 -10410.00000000 40.00000000 44 5 231 97.000000 1.000000 4.000000 1.000000 -60.708740 114.000000 145.000000 -0.060563 0.997689 0.030813
12010.00000000 -10380.00000000 0.00000000 44 5 231 97.000000 1.000000 4.000000 1.000000 -60.708740 114.000000 145.000000 0.051636 0.847102 0.528916
12020.00000000 -10380.00000000 0.00000000 44 5 231 97.000000 1.000000 4.000000 1.000000 -60.708740 114.000000 145.000000 -0.156365 0.708955 0.687701
12000.00000000 -10370.00000000 10.00000000 44 5 231 97.000000 1.000000 4.000000 1.000000 -60.708740 114.000000 145.000000 -0.249561 0.967509 -0.040569
12010.00000000 -10360.00000000 0.00000000 44 5 231 97.000000 1.000000 4.000000 1.000000 -60.708740 114.000000 145.000000 0.064301 0.896105 0.439160
12030.00000000 -10370.00000000 -10.00000000 44 5 231 97.000000 1.000000 4.000000 1.000000 -60.708740 114.000000 145.000000 -0.209939 0.847309 0.487845
12000.00000000 -10360.00000000 0.00000000 44 5 231 97.000000 1.000000 4.000000 1.000000 -60.708740 114.000000 145.000000 -0.094244 0.801800 0.590114
11960.00000000 -10380.00000000 60.00000000 44 5 231 97.000000 1.000000 4.000000 1.000000 -60.708740 114.000000 145.000000 -0.563615 0.696622 0.443909
11970.00000000 -10380.00000000 10.00000000 44 5 231 97.000000 1.000000 4.000000 1.000000 -60.708740 114.000000 145.000000 0.379489 -0.783201 -0.492528
12010.00000000 -10430.00000000 80.00000000 44 5 231 97.000000 1.000000 4.000000 1.000000 -60.708740 114.000000 145.000000 -0.207207 0.918854 0.335817
12020.00000000 -10420.00000000 70.00000000 44 5 231 97.000000 1.000000 4.000000 1.000000 -60.708740 114.000000 145.000000 0.498564 -0.508569 -0.701991
11960.00000000 -10460.00000000 130.00000000 44 5 231 97.000000 1.000000 4.000000 1.000000 -60.708740 114.000000 145.000000 -0.482432 0.731108 0.482432
12010.00000000 -10430.00000000 30.00000000 44 5 231 97.000000 1.000000 4.000000 1.000000 -60.708740 114.000000 145.000000 0.504157 -0.591837 -0.628932
11980.00000000 -10420.00000000 60.00000000 44 5 231 97.000000 1.000000 4.000000 1.000000 -60.708740 114.000000 145.000000 -0.565574 0.495087 0.659557
11950.00000000 -10300.00000000 80.00000000 44 5 231 97.000000 1.000000 4.000000 1.000000 -60.708740 114.000000 145.000000 -0.577468 0.513492 0.634710
11900.00000000 -10300.00000000 10.00000000 44 5 231 97.000000 1.000000 4.000000 1.000000 -60.708740 114.000000 145.000000 0.046748 -0.774875 -0.630383
11930.00000000 -10360.00000000 40.00000000 44 5 231 97.000000 1.000000 4.000000 1.000000 -60.708740 114.000000 145.000000 -0.369551 0.538860 0.757009
11930.00000000 -10370.00000000 10.00000000 44 5 231 97.000000 1.000000 4.000000 1.000000 -60.708740 114.000000 145.000000 -0.175767 0.664859 0.725995
11920.00000000 -10360.00000000 0.00000000 44 5 231 97.000000 1.000000 4.000000 1.000000 -60.708740 114.000000 145.000000 -0.348982 0.840374 0.414709
11900.00000000 -10350.00000000 20.00000000 44 5 231 97.000000 1.000000 4.000000 1.000000 -60.708740 114.000000 145.000000 -0.459875 0.427375 0.778374
11890.00000000 -10310.00000000 10.00000000 44 5 231 97.000000 1.000000 4.000000 1.000000 -60.708740 114.000000 145.000000 0.702355 -0.589978 -0.398276
11890.00000000 -10380.00000000 50.00000000 44 5 231 97.000000 1.000000 4.000000 1.000000 -60.708740 114.000000 145.000000 -0.233364 0.618649 0.750210
11910.00000000 -10390.00000000 50.00000000 44 5 231 97.000000 1.000000 4.000000 1.000000 -60.708740 114.000000 145.000000 -0.501148 0.329326 0.800247
11880.00000000 -10390.00000000 -10.00000000 44 5 231 97.000000 1.000000 4.000000 1.000000 -60.708740 114.000000 145.000000 -0.448769 0.836556 0.314295
11900.00000000 -10390.00000000 20.00000000 44 5 231 97.000000 1.000000 4.000000 1.000000 -60.708740 114.000000 145.000000 -0.549008 0.508714 0.663175
11900.00000000 -10390.00000000 20.00000000 44 5 231 97.000000 1.000000 4.000000 1.000000 -60.708740 114.000000 145.000000 -0.549008 0.508714 0.663175
11880.00000000 -10390.00000000 -10.00000000 44 5 231 97.000000 1.000000 4.000000 1.000000 -60.708740 114.000000 145.000000 -0.448769 0.836556 0.314295
11890.00000000 -10390.00000000 10.00000000 44 5 231 97.000000 1.000000 4.000000 1.000000 -60.708740 114.000000 145.000000 -0.431282 0.819595 0.377173
11920.00000000 -10410.00000000 70.00000000 44 5 231 97.000000 1.000000 4.000000 1.000000 -60.708740 114.000000 145.000000 0.473478 -0.687630 -0.550439
11950.00000000 -10470.00000000 120.00000000 44 5 231 97.000000 1.000000 4.000000 1.000000 -60.708740 114.000000 145.000000 0.713129 -0.477082 -0.513653
11940.00000000 -10450.00000000 100.00000000 44 5 231 97.000000 1.000000 4.000000 1.000000 -60.708740 114.000000 145.000000 -0.475427 0.426414 0.769506
11930.00000000 -10460.00000000 100.00000000 44 5 231 97.000000 1.000000 4.000000 1.000000 -60.708740 114.000000 145.000000 -0.584971 0.148113 0.797416
11900.00000000 -10430.00000000 90.00000000 44 5 231 97.000000 1.000000 4.000000 1.000000 -60.708740 114.000000 145.000000 0.710859 -0.461142 -0.531063
11880.00000000 -10420.00000000 50.00000000 44 5 231 97.000000 1.000000 4.000000 1.000000 -60.708740 114.000000 145.000000 -0.435083 0.322803 0.840536
11910.00000000 -10420.00000000 40.00000000 44 5 231 97.000000 1.000000 4.000000 1.000000 -60.708740 114.000000 145.000000 -0.349566 0.517100 0.781288
11880.00000000 -10400.00000000 0.00000000 44 5 231 97.000000 1.000000 4.000000 1.000000 -60.708740 114.000000 145.000000 0.538831 -0.666405 -0.515331
11840.00000000 -10310.00000000 -10.00000000 44 5 231 97.000000 1.000000 4.000000 1.000000 -60.708740 114.000000 145.000000 0.596336 -0.565928 -0.569306
11850.00000000 -10360.00000000 50.00000000 44 5 231 97.000000 1.000000 4.000000 1.000000 -60.708740 114.000000 145.000000 -0.297640 0.508665 0.807880
11840.00000000 -10370.00000000 50.00000000 44 5 231 97.000000 1.000000 4.000000 1.000000 -60.708740 114.000000 145.000000 -0.344153 0.654054 0.673626
12440.00000000 -10500.00000000 660.00000000 44 5 231 97.000000 1.000000 4.000000 1.000000 -60.708740 114.000000 145.000000 -0.349941 0.724296 0.594085
12420.00000000 -10530.00000000 680.00000000 44 5 231 97.000000 1.000000 4.000000 1.000000 -60.708740 114.000000 145.000000 -0.227428 0.555420 0.799866
12410.00000000 -10520.00000000 660.00000000 44 5 231 97.000000 1.000000 4.000000 1.000000 -60.708740 114.000000 145.000000 -0.481431 0.779691 0.400382
12360.00000000 -10500.00000000 670.00000000 44 5 231 97.000000 1.000000 4.000000 1.000000 -60.708740 114.000000 145.000000 -0.244762 0.565916 0.787293
12360.00000000 -10540.00000000 680.00000000 44 5 231 97.000000 1.000000 4.000000 1.000000 -60.708740 114.000000 145.000000 -0.628811 0.289605 0.721613
12320.00000000 -10950.00000000 660.00000000 44 5 231 97.000000 1.000000 4.000000 1.000000 -60.708740 114.000000 145.000000 0.831050 0.475554 -0.288451
12250.00000000 -10920.00000000 660.00000000 44 5 231 97.000000 1.000000 4.000000 1.000000 -60.708740 114.000000 145.000000 0.812189 0.559975 -0.163639
12250.00000000 -10920.00000000 660.00000000 44 5 231 97.000000 1.000000 4.000000 1.000000 -60.708740 114.000000 145.000000 0.812189 0.559975 -0.163639
12280.00000000 -10950.00000000 660.00000000 44 5 231 97.000000 1.000000 4.000000 1.000000 -60.708740 114.000000 145.000000 0.409215 0.744475 -0.527542
12280.00000000 -10950.00000000 660.00000000 44 5 231 97.000000 1.000000 4.000000 1.000000 -60.708740 114.000000 145.000000 0.409215 0.744475 -0.527542
12260.00000000 -10990.00000000 660.00000000 44 5 231 97.000000 1.000000 4.000000 1.000000 -60.708740 114.000000 145.000000 0.829217 0.538472 -0.149823
12210.00000000 -11010.00000000 660.00000000 44 5 231 97.000000 1.000000 4.000000 1.000000 -60.708740 114.000000 145.000000 0.619867 0.676068 -0.398368
12230.00000000 -10990.00000000 670.00000000 44 5 231 97.000000 1.000000 4.000000 1.000000 -60.708740 114.000000 145.000000 0.810408 0.580912 -0.076021
12440.00000000 -10490.00000000 620.00000000 44 5 231 97.000000 1.000000 4.000000 1.000000 -60.708740 114.000000 145.000000 -0.311293 0.863340 0.397167
12440.00000000 -10490.00000000 630.00000000 44 5 231 97.000000 1.000000 4.000000 1.000000 -60.708740 114.000000 145.000000 -0.172106 0.827604 0.534276
12300.00000000 -10490.00000000 630.00000000 44 5 231 97.000000 1.000000 4.000000 1.000000 -60.708740 114.000000 145.000000 -0.667406 0.506018 0.546365
12440.00000000 -10480.00000000 440.00000000 44 5 231 97.000000 1.000000 4.000000 1.000000 -60.708740 114.000000 145.000000 0.394540 0.900361 -0.183541
12430.00000000 -10480.00000000 450.00000000 44 5 231 97.000000 1.000000 4.000000 1.000000 -60.708740 114.000000 145.000000 0.447912 0.885870 0.120865
12440.00000000 -10480.00000000 440.00000000 44 5 231 97.000000 1.000000 4.000000 1.000000 -60.708740 114.000000 145.000000 0.394540 0.900361 -0.183541
12420.00000000 -10500.00000000 380.00000000 44 5 231 97.000000 1.000000 4.000000 1.000000 -60.708740 114.000000 145.000000 0.029399 0.939499 -0.341287
12440.00000000 -10490.00000000 330.00000000 44 5 231 97.000000 1.000000 4.000000 1.000000 -60.708740 114.000000 145.000000 0.498730 0.708898 -0.498730
12440.00000000 -10490.00000000 330.00000000 44 5 231 97.000000 1.000000 4.000000 1.000000 -60.708740 114.000000 145.000000 0.498730 0.708898 -0.498730
12420.00000000 -10520.00000000 340.00000000 44 5 231 97.000000 1.000000 4.000000 1.000000 -60.708740 114.000000 145.000000 0.529572 0.848133 0.014975
12350.00000000 -10780.00000000 590.00000000 44 5 231 97.000000 1.000000 4.000000 1.000000 -60.708740 114.000000 145.000000 0.757009 0.538860 -0.369551
12290.00000000 -10770.00000000 620.00000000 44 5 231 97.000000 1.000000 4.000000 1.000000 -60.708740 114.000000 145.000000 0.618986 0.474723 -0.625695
12290.00000000 -10740.00000000 620.00000000 44 5 231 97.000000 1.000000 4.000000 1.000000 -60.708740 114.000000 145.000000 0.788814 0.337606 -0.513609
12290.00000000 -10810.00000000 570.00000000 44 5 231 97.000000 1.000000 4.000000 1.000000 -60.708740 114.000000 145.000000 0.624942 0.434960 -0.648273
12280.00000000 -10750.00000000 620.00000000 44 5 231 97.000000 1.000000 4.000000 1.000000 -60.708740 114.000000 145.000000 0.719414 0.023840 -0.694172
12280.00000000 -10740.00000000 610.00000000 44 5 231 97.000000 1.000000 4.000000 1.000000 -60.708740 114.000000 145.000000 0.678298 0.362963 -0.638881
12230.00000000 -10810.00000000 570.00000000 44 5 231 97.000000 1.000000 4.000000 1.000000 -60.708740 114.000000 145.000000 0.818708 0.346803 -0.457653
12230.00000000 -10780.00000000 550.00000000 44 5 231 97.000000 1.000000 4.000000 1.000000 -60.708740 114.000000 145.000000 0.923326 0.170049 -0.344315
12230.00000000 -10810.00000000 540.00000000 44 5 231 97.000000 1.000000 4.000000 1.000000 -60.708740 114.000000 145.000000 0.523499 0.536965 -0.661527
12170.00000000 -10730.00000000 490.00000000 44 5 231 97.000000 1.000000 4.000000 1.000000 -60.708740 114.000000 145.000000 0.776794 0.018065 -0.629495
12240.00000000 -10760.00000000 400.00000000 44 5 231 97.000000 1.000000 4.000000 1.000000 -60.708740 114.000000 145.000000 0.703216 0.584083 -0.405383
12240.00000000 -10760.00000000 400.00000000 44 5 231 97.000000 1.000000 4.000000 1.000000 -60.708740 114.000000 145.000000 0.703216 0.584083 -0.405383
12230.00000000 -10740.00000000 400.00000000 44 5 231 97.000000 1.000000 4.000000 1.000000 -60.708740 114.000000 145.000000 0.644037 0.402316 -0.650660
12240.00000000 -10760.00000000 400.00000000 44 5 231 97.000000 1.000000 4.000000 1.000000 -60.708740 114.000000 145.000000 0.703216 0.584083 -0.405383
12150.00000000 -10720.00000000 420.00000000 44 5 231 97.000000 1.000000 4.000000 1.000000 -60.708740 114.000000 145.000000 0.897675 0.313073 -0.310106
12150.00000000 -10720.00000000 420.00000000 44 5 231 97.000000 1.000000 4.000000 1.000000 -60.708740 114.000000 145.000000 0.897675 0.313073 -0.310106
12150.00000000 -10720.00000000 420.00000000 44 5 231 97.000000 1.000000 4.000000 1.000000 -60.708740 114.000000 145.000000 0.897675 0.313073 -0.310106
12150.00000000 -10670.00000000 330.00000000 44 5 231 97.000000 1.000000 4.000000 1.000000 -60.708740 114.000000 145.000000 0.678566 0.684922 -0.265387
12140.00000000 -10690.00000000 400.00000000 44 5 231 97.000000 1.000000 4.000000 1.000000 -60.708740 114.000000 145.000000 0.777160 0.565064 -0.276992
12170.00000000 -10770.00000000 450.00000000 44 5 231 97.000000 1.000000 4.000000 1.000000 -60.708740 114.000000 145.000000 -0.588354 -0.338749 0.734227
12170.00000000 -10750.00000000 470.00000000 44 5 231 97.000000 1.000000 4.000000 1.000000 -60.708740 114.000000 145.000000 0.844304 0.167674 -0.508956
12190.00000000 -10800.00000000 460.00000000 44 5 231 97.000000 1.000000 4.000000 1.000000 -60.708740 114.000000 145.000000 0.684334 0.648573 -0.333227
12190.00000000 -10800.00000000 430.00000000 44 5 231 97.000000 1.000000 4.000000 1.000000 -60.708740 114.000000 145.000000 0.383829 0.680349 -0.624340
12150.00000000 -10810.00000000 470.00000000 44 5 231 97.000000 1.000000 4.000000 1.000000 -60.708740 114.000000 145.000000 0.644133 0.720100 -0.257970
12170.00000000 -10780.00000000 400.00000000 44 5 231 97.000000 1.000000 4.000000 1.000000 -60.708740 114.000000 145.000000 0.658884 0.737287 -0.149267
12190.00000000 -10760.00000000 400.00000000 44 5 231 97.000000 1.000000 4.000000 1.000000 -60.708740 114.000000 145.000000 0.626538 0.778596 -0.035199
12200.00000000 -10760.00000000 400.00000000 44 5 231 97.000000 1.000000 4.000000 1.000000 -60.708740 114.000000 145.000000 0.752759 0.380462 -0.537218
12190.00000000 -10760.00000000 390.00000000 44 5 231 97.000000 1.000000 4.000000 1.000000 -60.708740 114.000000 145.000000 0.660662 0.670450 -0.337672
12430.00000000 -10510.00000000 280.00000000 44 5 231 97.000000 1.000000 4.000000 1.000000 -60.708740 114.000000 145.000000 0.312751 0.918074 -0.243571
12440.00000000 -10480.00000000 260.00000000 44 5 231 97.000000 1.000000 4.000000 1.000000 -60.708740 114.000000 145.000000 0.555620 0.831382 -0.009556
12430.00000000 -10480.00000000 270.00000000 44 5 231 97.000000 1.000000 4.000000 1.000000 -60.708740 114.000000 145.000000 0.442489 0.868478 -0.223494
12430.00000000 -10480.00000000 270.00000000 44 5 231 97.000000 1.000000 4.000000 1.000000 -60.708740 114.000000 145.000000 0.442489 0.868478 -0.223494
12450.00000000 -10490.00000000 270.00000000 44 5 231 97.000000 1.000000 4.000000 1.000000 -60.708740 114.000000 145.000000 0.396282 0.916653 -0.052037
12420.00000000 -10490.00000000 240.00000000 44 5 231 97.000000 1.000000 4.000000 1.000000 -60.708740 114.000000 145.000000 0.753044 0.630348 -0.188644
12450.00000000 -10500.00000000 260.00000000 44 5 231 97.000000 1.000000 4.000000 1.000000 -60.708740 114.000000 145.000000 0.520218 0.761574 -0.386495
12450.00000000 -10550.00000000 310.00000000 44 5 231 97.000000 1.000000 4.000000 1.000000 -60.708740 114.000000 145.000000 0.545477 0.793850 -0.268808
12380.00000000 -10500.00000000 310.00000000 44 5 231 97.000000 1.000000 4.000000 1.000000 -60.708740 114.000000 145.000000 0.525741 0.805090 -0.274641
12410.00000000 -10490.00000000 280.00000000 44 5 231 97.000000 1.000000 4.000000 1.000000 -60.708740 114.000000 145.000000 0.142431 0.985045 -0.096949
12440.00000000 -10550.00000000 210.00000000 44 5 231 97.000000 1.000000 4.000000 1.000000 -60.708740 114.000000 145.000000 0.621463 0.712329 -0.326146
12370.00000000 -10480.00000000 250.00000000 44 5 231 97.000000 1.000000 4.000000 1.000000 -60.708740 114.000000 145.000000 0.621026 0.749299 -0.229952
12360.00000000 -10500.00000000 310.00000000 44 5 231 97.000000 1.000000 4.000000 1.000000 -60.708740 114.000000 145.000000 0.193230 0.980373 -0.039120
12340.00000000 -10540.00000000 170.00000000 44 5 231 97.000000 1.000000 4.000000 1.000000 -60.708740 114.000000 145.000000 0.676660 0.532261 -0.508754
12310.00000000 -10510.00000000 170.00000000 44 5 231 97.000000 1.000000 4.000000 1.000000 -60.708740 114.000000 145.000000 0.656911 0.579627 -0.482183
12290.00000000 -10490.00000000 170.00000000 44 5 231 97.000000 1.000000 4.000000 1.000000 -60.708740 114.000000 145.000000 0.089540 0.953800 -0.286789
12300.00000000 -10500.00000000 180.00000000 44 5 231 97.000000 1.000000 4.000000 1.000000 -60.708740 114.000000 145.000000 0.669484 0.734511 0.110842
12290.00000000 -10540.00000000 180.00000000 44 5 231 97.000000 1.000000 4.000000 1.000000 -60.708740 114.000000 145.000000 0.237774 0.829908 -0.504694
12180.00000000 -10480.00000000 110.00000000 44 5 231 97.000000 1.000000 4.000000 1.000000 -60.708740 114.000000 145.000000 -0.040757 0.964586 0.260599
12170.00000000 -10480.00000000 100.00000000 44 5 231 97.000000 1.000000 4.000000 1.000000 -60.708740 114.000000 145.000000 0.202954 0.933589 0.295333
12130.00000000 -10490.00000000 100.00000000 44 5 231 97.000000 1.000000 4.000000 1.000000 -60.708740 114.000000 145.000000 -0.189742 0.683379 0.704976
12190.00000000 -10580.00000000 140.00000000 44 5 231 97.000000 1.000000 4.000000 1.000000 -60.708740 114.000000 145.000000 -0.700124 -0.006932 0.713988
12300.00000000 -10830.00000000 570.00000000 44 5 231 97.000000 1.000000 4.000000 1.000000 -60.708740 114.000000 145.000000 0.575945 0.599591 -0.555677
12290.00000000 -10880.00000000 590.00000000 44 5 231 97.000000 1.000000 4.000000 1.000000 -60.708740 114.000000 145.000000 0.502332 0.653536 -0.566174
12290.00000000 -10830.00000000 560.00000000 44 5 231 97.000000 1.000000 4.000000 1.000000 -60.708740 114.000000 145.000000 0.700071 0.434011 -0.567041
12350.00000000 -10940.00000000 580.00000000 44 5 231 97.000000 1.000000 4.000000 1.000000 -60.708740 114.000000 145.000000 0.044360 0.990713 -0.128531
12310.00000000 -10910.00000000 640.00000000 44 5 231 97.000000 1.000000 4.000000 1.000000 -60.708740 114.000000 145.000000 0.663796 0.562966 -0.492386
12290.00000000 -10910.00000000 640.00000000 44 5 231 97.000000 1.000000 4.000000 1.000000 -60.708740 114.000000 145.000000 0.577101 0.801946 -0.154393
12320.00000000 -10940.00000000 650.00000000 44 5 231 97.000000 1.000000 4.000000 1.000000 -60.708740 114.000000 145.000000 0.772203 0.610756 -0.175155
12330.00000000 -10910.00000000 570.00000000 44 5 231 97.000000 1.000000 4.000000 1.000000 -60.708740 114.000000 145.000000 0.563587 0.825202 -0.037572
12300.00000000 -10930.00000000 590.00000000 44 5 231 97.000000 1.000000 4.000000 1.000000 -60.708740 114.000000 145.000000 0.630034 0.770367 -0.097940
12310.00000000 -10930.00000000 610.00000000 44 5 231 97.000000 1.000000 4.000000 1.000000 -60.708740 114.000000 145.000000 0.609742 0.787280 0.091680
12310.00000000 -10940.00000000 610.00000000 44 5 231 97.000000 1.000000 4.000000 1.000000 -60.708740 114.000000 145.000000 0.703463 0.709170 0.047088
12300.00000000 -10940.00000000 580.00000000 44 5 231 97.000000 1.000000 4.000000 1.000000 -60.708740 114.000000 145.000000 0.686096 0.727510 0.001380
12300.00000000 -10930.00000000 590.00000000 44 5 231 97.000000 1.000000 4.000000 1.000000 -60.708740 114.000000 145.000000 0.630034 0.770367 -0.097940
12310.00000000 -10940.00000000 600.00000000 44 5 231 97.000000 1.000000 4.000000 1.000000 -60.708740 114.000000 145.000000 0.618368 0.706473 -0.344263
12330.00000000 -10910.00000000 520.00000000 44 5 231 97.000000 1.000000 4.000000 1.000000 -60.708740 114.000000 145.000000 0.655947 0.712849 -0.248154
12320.00000000 -10900.00000000 500.00000000 44 5 231 97.000000 1.000000 4.000000 1.000000 -60.708740 114.000000 145.000000 0.314578 0.948787 -0.029057
12260.00000000 -10860.00000000 640.00000000 44 5 231 97.000000 1.000000 4.000000 1.000000 -60.708740 114.000000 145.000000 0.848721 0.519538 -0.098755
12240.00000000 -10830.00000000 570.00000000 44 5 231 97.000000 1.000000 4.000000 1.000000 -60.708740 114.000000 145.000000 0.911918 0.391220 -0.123909
12240.00000000 -10880.00000000 590.00000000 44 5 231 97.000000 1.000000 4.000000 1.000000 -60.708740 114.000000 145.000000 0.860672 0.360030 -0.360030
12230.00000000 -10890.00000000 570.00000000 44 5 231 97.000000 1.000000 4.000000 1.000000 -60.708740 114.000000 145.000000 0.385680 0.847872 -0.363820
12260.00000000 -10840.00000000 510.00000000 44 5 231 97.000000 1.000000 4.000000 1.000000 -60.708740 114.000000 145.000000 0.299426 0.754170 -0.584442
12260.00000000 -10880.00000000 540.00000000 44 5 231 97.000000 1.000000 4.000000 1.000000 -60.708740 114.000000 145.000000 0.592916 0.613187 -0.521969
12220.00000000 -10820.00000000 520.00000000 44 5 231 97.000000 1.000000 4.000000 1.000000 -60.708740 114.000000 145.000000 0.525522 0.818335 -0.232709
12230.00000000 -10830.00000000 500.00000000 44 5 231 97.000000 1.000000 4.000000 1.000000 -60.708740 114.000000 145.000000 0.341349 0.749027 -0.567837
12220.00000000 -10820.00000000 510.00000000 44 5 231 97.000000 1.000000 4.000000 1.000000 -60.708740 114.000000 145.000000 0.676324 0.495076 -0.545423
12240.00000000 -10860.00000000 500.00000000 44 5 231 97.000000 1.000000 4.000000 1.000000 -60.708740 114.000000 145.000000 0.687961 0.722575 0.067786
12270.00000000 -10920.00000000 620.00000000 44 5 231 97.000000 1.000000 4.000000 1.000000 -60.708740 114.000000 145.000000 0.597101 0.798533 0.076256
12280.00000000 -10950.00000000 630.00000000 44 5 231 97.000000 1.000000 4.000000 1.000000 -60.708740 114.000000 145.000000 0.239586 0.964748 -0.108903
12220.00000000 -11020.00000000 650.00000000 44 5 231 97.000000 1.000000 4.000000 1.000000 -60.708740 114.000000 145.000000 0.260784 0.801090 -0.538745
12050.00000000 -10480.00000000 330.00000000 44 5 231 97.000000 1.000000 4.000000 1.000000 -60.708740 114.000000 145.000000 -0.681391 0.668504 0.298008
12090.00000000 -10570.00000000 350.00000000 44 5 231 97.000000 1.000000 4.000000 1.000000 -60.708740 114.000000 145.000000 0.795787 -0.091320 -0.598652
12080.00000000 -10610.00000000 350.00000000 44 5 231 97.000000 1.000000 4.000000 1.000000 -60.708740 114.000000 145.000000 0.681189 0.159298 -0.714566
12050.00000000 -10590.00000000 350.00000000 44 5 231 97.000000 1.000000 4.000000 1.000000 -60.708740 114.000000 145.000000 -0.524460 -0.158972 0.836462
12070.00000000 -10600.00000000 340.00000000 44 5 231 97.000000 1.000000 4.000000 1.000000 -60.708740 114.000000 145.000000 0.881955 0.265939 -0.389142
12070.00000000 -10620.00000000 330.00000000 44 5 231 97.000000 1.000000 4.000000 1.000000 -60.708740 114.000000 145.000000 0.877810 0.269516 -0.395993
12010.00000000 -10490.00000000 410.00000000 44 5 231 97.000000 1.000000 4.000000 1.000000 -60.708740 114.000000 145.000000 0.910089 -0.239497 -0.338199
12020.00000000 -10500.00000000 380.00000000 44 5 231 97.000000 1.000000 4.000000 1.000000 -60.708740 114.000000 145.000000 -0.580357 0.549901 0.600661
12010.00000000 -10520.00000000 380.00000000 44 5 231 97.000000 1.000000 4.000000 1.000000 -60.708740 114.000000 145.000000 0.820542 -0.330430 -0.466397
12030.00000000 -10560.00000000 360.00000000 44 5 231 97.000000 1.000000 4.000000 1.000000 -60.708740 114.000000 145.000000 -0.552024 0.115066 0.825851
11970.00000000 -10530.00000000 360.00000000 44 5 231 97.000000 1.000000 4.000000 1.000000 -60.708740 114.000000 145.000000 0.832479 -0.181495 -0.523487
11980.00000000 -10550.00000000 380.00000000 44 5 231 97.000000 1.000000 4.000000 1.000000 -60.708740 114.000000 145.000000 0.729246 -0.104599 -0.676210
11980.00000000 -10520.00000000 370.00000000 44 5 231 97.000000 1.000000 4.000000 1.000000 -60.708740 114.000000 145.000000 0.500348 -0.517082 -0.694463
11980.00000000 -10560.00000000 380.00000000 44 5 231 97.000000 1.000000 4.000000 1.000000 -60.708740 114.000000 145.000000 -0.659839 0.502015 0.559100
11970.00000000 -10520.00000000 340.00000000 44 5 231 97.000000 1.000000 4.000000 1.000000 -60.708740 114.000000 145.000000 0.898474 -0.304442 -0.316322
11990.00000000 -10570.00000000 420.00000000 44 5 231 97.000000 1.000000 4.000000 1.000000 -60.708740 114.000000 145.000000 -0.629083 0.223223 0.744597
12030.00000000 -10600.00000000 340.00000000 44 5 231 97.000000 1.000000 4.000000 1.000000 -60.708740 114.000000 145.000000 -0.662255 -0.192965 0.724004
12030.00000000 -10610.00000000 380.00000000 44 5 231 97.000000 1.000000 4.000000 1.000000 -60.708740 114.000000 145.000000 0.897999 -0.286469 -0.333966
12030.00000000 -10610.00000000 380.00000000 44 5 231 97.000000 1.000000 4.000000 1.000000 -60.708740 114.000000 145.000000 0.897999 -0.286469 -0.333966
12030.00000000 -10630.00000000 320.00000000 44 5 231 97.000000 1.000000 4.000000 1.000000 -60.708740 114.000000 145.000000 -0.640922 0.026647 0.767143
11960.00000000 -10600.00000000 340.00000000 44 5 231 97.000000 1.000000 4.000000 1.000000 -60.708740 114.000000 145.000000 0.889646 0.307550 -0.337555
11960.00000000 -10600.00000000 340.00000000 44 5 231 97.000000 1.000000 4.000000 1.000000 -60.708740 114.000000 145.000000 0.889646 0.307550 -0.337555
11990.00000000 -10630.00000000 340.00000000 44 5 231 97.000000 1.000000 4.000000 1.000000 -60.708740 114.000000 145.000000 0.845141 -0.174394 -0.505296
11990.00000000 -10620.00000000 320.00000000 44 5 231 97.000000 1.000000 4.000000 1.000000 -60.708740 114.000000 145.000000 -0.654715 0.189482 0.731741
12120.00000000 -10680.00000000 390.00000000 44 5 231 97.000000 1.000000 4.000000 1.000000 -60.708740 114.000000 145.000000 0.909756 0.044085 -0.412797
12120.00000000 -10680.00000000 390.00000000 44 5 231 97.000000 1.000000 4.000000 1.000000 -60.708740 114.000000 145.000000 0.909756 0.044085 -0.412797
12080.00000000 -10700.00000000 360.00000000 44 5 231 97.000000 1.000000 4.000000 1.000000 -60.708740 114.000000 145.000000 0.688476 0.082966 -0.720498
11920.00000000 -10500.00000000 340.00000000 44 5 231 97.000000 1.000000 4.000000 1.000000 -60.708740 114.000000 145.000000 0.758419 -0.260165 -0.597590
11840.00000000 -10700.00000000 350.00000000 44 5 231 97.000000 1.000000 4.000000 1.000000 -60.708740 114.000000 145.000000 0.667208 0.101628 -0.737906
12060.00000000 -10600.00000000 310.00000000 44 5 231 97.000000 1.000000 4.000000 1.000000 -60.708740 114.000000 145.000000 0.845989 -0.173956 -0.504025
11990.00000000 -10540.00000000 240.00000000 44 5 231 97.000000 1.000000 4.000000 1.000000 -60.708740 114.000000 145.000000 0.798920 -0.295838 -0.523648
12010.00000000 -10510.00000000 180.00000000 44 5 231 97.000000 1.000000 4.000000 1.000000 -60.708740 114.000000 145.000000 0.765640 -0.316208 -0.560185
12010.00000000 -10500.00000000 190.00000000 44 5 231 97.000000 1.000000 4.000000 1.000000 -60.708740 114.000000 145.000000 0.692998 -0.437071 -0.573344
11980.00000000 -10510.00000000 190.00000000 44 5 231 97.000000 1.000000 4.000000 1.000000 -60.708740 114.000000 145.000000 0.937151 0.011413 -0.348737
11980.00000000 -10510.00000000 190.00000000 44 5 231 97.000000 1.000000 4.000000 1.000000 -60.708740 114.000000 145.000000 0.937151 0.011413 -0.348737
11960.00000000 -10490.00000000 160.00000000 44 5 231 97.000000 1.000000 4.000000 1.000000 -60.708740 114.000000 145.000000 -0.555689 0.272335 0.785521
11970.00000000 -10550.00000000 220.00000000 44 5 231 97.000000 1.000000 4.000000 1.000000 -60.708740 114.000000 145.000000 0.753390 -0.310030 -0.579901
11960.00000000 -10520.00000000 210.00000000 44 5 231 97.000000 1.000000 4.000000 1.000000 -60.708740 114.000000 145.000000 0.777862 -0.502942 -0.376802
12000.00000000 -10580.00000000 300.00000000 44 5 231 97.000000 1.000000 4.000000 1.000000 -60.708740 114.000000 145.000000 0.792493 -0.414808 -0.447089
12030.00000000 -10600.00000000 300.00000000 44 5 231 97.000000 1.000000 4.000000 1.000000 -60.708740 114.000000 145.000000 0.946143 0.217709 -0.239617
12000.00000000 -10580.00000000 300.00000000 44 5 231 97.000000 1.000000 4.000000 1.000000 -60.708740 114.000000 145.000000 0.792493 -0.414808 -0.447089
12020.00000000 -10620.00000000 310.00000000 44 5 231 97.000000 1.000000 4.000000 1.000000 -60.708740 114.000000 145.000000 0.713975 -0.015369 -0.700003
11960.00000000 -10480.00000000 130.00000000 44 5 231 97.000000 1.000000 4.000000 1.000000 -60.708740 114.000000 145.000000 -0.577996 0.317174 0.751878
12030.00000000 -10480.00000000 110.00000000 44 5 231 97.000000 1.000000 4.000000 1.000000 -60.708740 114.000000 145.000000 -0.536892 0.647973 0.540258
11930.00000000 -10560.00000000 260.00000000 44 5 231 97.000000 1.000000 4.000000 1.000000 -60.708740 114.000000 145.000000 0.734388 -0.202536 -0.647807
12490.00000000 -10330.00000000 -50.00000000 44 5 231 97.000000 1.000000 4.000000 1.000000 -60.708740 114.000000 145.000000 -0.511966 -0.426364 0.745725
12500.00000000 -10320.00000000 -30.00000000 44 5 231 97.000000 1.000000 4.000000 1.000000 -60.708740 114.000000 145.000000 0.492386 0.663796 -0.562966
11970.00000000 -10280.00000000 -50.00000000 44 5 231 97.000000 1.000000 4.000000 1.000000 -60.708740 114.000000 145.000000 -0.079736 0.752421 0.653838
11970.00000000 -10280.00000000 -50.00000000 44 5 231 97.000000 1.000000 4.000000 1.000000 -60.708740 114.000000 145.000000 -0.079736 0.752421 0.653838
12050.00000000 -10390.00000000 -50.00000000 44 5 231 97.000000 1.000000 4.000000 1.000000 -60.708740 114.000000 145.000000 0.190644 0.981291 0.026901
12050.00000000 -10390.00000000 -20.00000000 44 5 231 97.000000 1.000000 4.000000 1.000000 -60.708740 114.000000 145.000000 0.074337 0.991545 -0.106360
12110.00000000 -10390.00000000 -20.00000000 44 5 231 97.000000 1.000000 4.000000 1.000000 -60.708740 114.000000 145.000000 -0.245120 0.966652 0.074164
12040.00000000 -10350.00000000 -40.00000000 44 5 231 97.000000 1.000000 4.000000 1.000000 -60.708740 114.000000 145.000000 0.016780 0.990033 -0.139835
12000.00000000 -10350.00000000 -30.00000000 44 5 231 97.000000 1.000000 4.000000 1.000000 -60.708740 114.000000 145.000000 0.117430 0.963959 0.238732
12010.00000000 -10340.00000000 -40.00000000 44 5 231 97.000000 1.000000 4.000000 1.000000 -60.708740 114.000000 145.000000 -0.322405 0.845730 0.425201
12020.00000000 -10360.00000000 -20.00000000 44 5 231 97.000000 1.000000 4.000000 1.000000 -60.708740 114.000000 145.000000 0.168272 0.985591 0.017171
11980.00000000 -10350.00000000 -40.00000000 44 5 231 97.000000 1.000000 4.000000 1.000000 -60.708740 114.000000 145.000000 -0.327896 0.738170 0.589567
11960.00000000 -10310.00000000 -50.00000000 44 5 231 97.000000 1.000000 4.000000 1.000000 -60.708740 114.000000 145.000000 0.217016 0.941324 0.258484
12020.00000000 -10400.00000000 -80.00000000 44 5 231 97.000000 1.000000 4.000000 1.000000 -60.708740 114.000000 145.000000 -0.160848 0.882491 0.441970
11890.00000000 -10210.00000000 -70.00000000 44 5 231 97.000000 1.000000 4.000000 1.000000 -60.708740 114.000000 145.000000 0.152742 0.969075 0.193815
11920.00000000 -10210.00000000 -40.00000000 44 5 231 97.000000 1.000000 4.000000 1.000000 -60.708740 114.000000 145.000000 -0.422255 0.774406 0.471165
11920.00000000 -10290.00000000 -70.00000000 44 5 231 97.000000 1.000000 4.000000 1.000000 -60.708740 114.000000 145.000000 -0.240637 0.963835 0.114528
11910.00000000 -10260.00000000 -60.00000000 44 5 231 97.000000 1.000000 4.000000 1.000000 -60.708740 114.000000 145.000000 -0.413777 0.757229 0.505364
11910.00000000 -10260.00000000 -60.00000000 44 5 231 97.000000 1.000000 4.000000 1.000000 -60.708740 114.000000 145.000000 -0.413777 0.757229 0.505364
11880.00000000 -10300.00000000 -80.00000000 44 5 231 97.000000 1.000000 4.000000 1.000000 -60.708740 114.000000 145.000000 -0.512940 0.854899 0.077718
11910.00000000 -10290.00000000 -70.00000000 44 5 231 97.000000 1.000000 4.000000 1.000000 -60.708740 114.000000 145.000000 0.533225 -0.728025 -0.430872
11900.00000000 -10300.00000000 -90.00000000 44 5 231 97.000000 1.000000 4.000000 1.000000 -60.708740 114.000000 145.000000 -0.089167 0.744029 0.662171
11910.00000000 -10300.00000000 -90.00000000 44 5 231 97.000000 1.000000 4.000000 1.000000 -60.708740 114.000000 145.000000 0.111781 0.914948 0.387783
11910.00000000 -10300.00000000 -80.00000000 44 5 231 97.000000 1.000000 4.000000 1.000000 -60.708740 114.000000 145.000000 -0.313000 0.949137 -0.034215
11900.00000000 -10270.00000000 -180.00000000 44 5 231 97.000000 1.000000 4.000000 1.000000 -60.708740 114.000000 145.000000 0.199387 0.935587 0.291412
11910.00000000 -10290.00000000 -150.00000000 44 5 231 97.000000 1.000000 4.000000 1.000000 -60.708740 114.000000 145.000000 -0.025810 0.868038 0.495827
11790.00000000 -10210.00000000 -130.00000000 44 5 231 97.000000 1.000000 4.000000 1.000000 -60.708740 114.000000 145.000000 -0.124270 0.878461 0.461371
11850.00000000 -10300.00000000 -20.00000000 44 5 231 97.000000 1.000000 4.000000 1.000000 -60.708740 114.000000 145.000000 -0.156322 0.678405 0.717865
11860.00000000 -10300.00000000 -140.00000000 44 5 231 97.000000 1.000000 4.000000 1.000000 -60.708740 114.000000 145.000000 0.035021 -0.794268 -0.606557
11840.00000000 -10290.00000000 -150.00000000 44 5 231 97.000000 1.000000 4.000000 1.000000 -60.708740 114.000000 145.000000 -0.035243 0.925449 0.377228
11800.00000000 -10260.00000000 -130.00000000 44 5 231 97.000000 1.000000 4.000000 1.000000 -60.708740 114.000000 145.000000 -0.503014 0.587130 0.634235
11800.00000000 -10260.00000000 -130.00000000 44 5 231 97.000000 1.000000 4.000000 1.000000 -60.708740 114.000000 145.000000 -0.503014 0.587130 0.634235
11820.00000000 -10260.00000000 -180.00000000 44 5 231 97.000000 1.000000 4.000000 1.000000 -60.708740 114.000000 145.000000 0.620036 -0.737383 -0.267995
11820.00000000 -10290.00000000 -140.00000000 44 5 231 97.000000 1.000000 4.000000 1.000000 -60.708740 114.000000 145.000000 -0.177679 0.979070 0.099255
11820.00000000 -10290.00000000 -130.00000000 44 5 231 97.000000 1.000000 4.000000 1.000000 -60.708740 114.000000 145.000000 -0.055290 0.904866 0.422091
11810.00000000 -10280.00000000 -170.00000000 44 5 231 97.000000 1.000000 4.000000 1.000000 -60.708740 114.000000 145.000000 0.351433 -0.662002 -0.662002
11790.00000000 -10300.00000000 -180.00000000 44 5 231 97.000000 1.000000 4.000000 1.000000 -60.708740 114.000000 145.000000 -0.334438 0.941333 0.045194
11790.00000000 -10280.00000000 -200.00000000 44 5 231 97.000000 1.000000 4.000000 1.000000 -60.708740 114.000000 145.000000 0.009168 0.902362 0.430881
11800.00000000 -10270.00000000 -190.00000000 44 5 231 97.000000 1.000000 4.000000 1.000000 -60.708740 114.000000 145.000000 -0.500910 0.803046 0.322809
11790.00000000 -10280.00000000 -210.00000000 44 5 231 97.000000 1.000000 4.000000 1.000000 -60.708740 114.000000 145.000000 -0.265723 0.963706 0.025715
11950.00000000 -10330.00000000 -50.00000000 44 5 231 97.000000 1.000000 4.000000 1.000000 -60.708740 114.000000 145.000000 0.023518 0.991100 0.131027
11910.00000000 -10350.00000000 -50.00000000 44 5 231 97.000000 1.000000 4.000000 1.000000 -60.708740 114.000000 145.000000 -0.248526 0.901460 0.354408
11880.00000000 -10310.00000000 -60.00000000 44 5 231 97.000000 1.000000 4.000000 1.000000 -60.708740 114.000000 145.000000 -0.174545 0.972099 0.156708
11880.00000000 -10310.00000000 -60.00000000 44 5 231 97.000000 1.000000 4.000000 1.000000 -60.708740 114.000000 145.000000 -0.174545 0.972099 0.156708
11910.00000000 -10320.00000000 -60.00000000 44 5 231 97.000000 1.000000 4.000000 1.000000 -60.708740 114.000000 145.000000 -0.264542 0.907628 0.325928
11890.00000000 -10330.00000000 -50.00000000 44 5 231 97.000000 1.000000 4.000000 1.000000 -60.708740 114.000000 145.000000 -0.265089 0.957194 0.116221
11880.00000000 -10330.00000000 -30.00000000 44 5 231 97.000000 1.000000 4.000000 1.000000 -60.708740 114.000000 145.000000 -0.418389 0.882608 0.214369
11880.00000000 -10320.00000000 -40.00000000 44 5 231 97.000000 1.000000 4.000000 1.000000 -60.708740 114.000000 145.000000 -0.430666 0.778448 0.456668
11900.00000000 -10350.00000000 -60.00000000 44 5 231 97.000000 1.000000 4.000000 1.000000 -60.708740 114.000000 145.000000 -0.342560 0.741943 0.576345
11870.00000000 -10330.00000000 -80.00000000 44 5 231 97.000000 1.000000 4.000000 1.000000 -60.708740 114.000000 145.000000 -0.366220 0.619126 0.694669
11870.00000000 -10330.00000000 -100.00000000 44 5 231 97.000000 1.000000 4.000000 1.000000 -60.708740 114.000000 145.000000 -0.099616 0.827245 0.552940
11890.00000000 -10310.00000000 -80.00000000 44 5 231 97.000000 1.000000 4.000000 1.000000 -60.708740 114.000000 145.000000 -0.283182 0.815127 0.505347
11870.00000000 -10340.00000000 -70.00000000 44 5 231 97.000000 1.000000 4.000000 1.000000 -60.708740 114.000000 145.000000 -0.222867 0.755878 0.615612
11870.00000000 -10380.00000000 -30.00000000 44 5 231 97.000000 1.000000 4.000000 1.000000 -60.708740 114.000000 145.000000 0.625948 -0.348112 -0.697859
11890.00000000 -10370.00000000 -30.00000000 44 5 231 97.000000 1.000000 4.000000 1.000000 -60.708740 114.000000 145.000000 -0.345286 0.885078 0.312114
11900.00000000 -10360.00000000 -30.00000000 44 5 231 97.000000 1.000000 4.000000 1.000000 -60.708740 114.000000 145.000000 0.698943 -0.663916 -0.265885
11890.00000000 -10360.00000000 -20.00000000 44 5 231 97.000000 1.000000 4.000000 1.000000 -60.708740 114.000000 145.000000 -0.351058 0.693953 0.628640
11890.00000000 -10370.00000000 -20.00000000 44 5 231 97.000000 1.000000 4.000000 1.000000 -60.708740 114.000000 145.000000 -0.275113 0.800185 0.532933
11900.00000000 -10360.00000000 -30.00000000 44 5 231 97.000000 1.000000 4.000000 1.000000 -60.708740 114.000000 145.000000 0.698943 -0.663916 -0.265885
11870.00000000 -10360.00000000 -70.00000000 44 5 231 97.000000 1.000000 4.000000 1.000000 -60.708740 114.000000 145.000000 -0.566870 0.785497 0.248298
11920.00000000 -10320.00000000 -110.00000000 44 5 231 97.000000 1.000000 4.000000 1.000000 -60.708740 114.000000 145.000000 -0.018198 0.996606 0.080285
11880.00000000 -10400.00000000 -30.00000000 44 5 231 97.000000 1.000000 4.000000 1.000000 -60.708740 114.000000 145.000000 0.667159 -0.660634 -0.344182
11860.00000000 -10320.00000000 -100.00000000 44 5 231 97.000000 1.000000 4.000000 1.000000 -60.708740 114.000000 145.000000 -0.003789 0.935854 0.352366
11860.00000000 -10330.00000000 -80.00000000 44 5 231 97.000000 1.000000 4.000000 1.000000 -60.708740 114.000000 145.000000 -0.199515 0.691342 0.694435
11840.00000000 -10320.00000000 -100.00000000 44 5 231 97.000000 1.000000 4.000000 1.000000 -60.708740 114.000000 145.000000 -0.049200 0.816718 0.574936
11860.00000000 -10370.00000000 -50.00000000 44 5 231 97.000000 1.000000 4.000000 1.000000 -60.708740 114.000000 145.000000 -0.247137 0.862705 0.441207
11860.00000000 -10360.00000000 -70.00000000 44 5 231 97.000000 1.000000 4.000000 1.000000 -60.708740 114.000000 145.000000 -0.313963 0.915847 0.250303
11850.00000000 -10310.00000000 -120.00000000 44 5 231 97.000000 1.000000 4.000000 1.000000 -60.708740 114.000000 145.000000 -0.157575 0.974443 0.160096
11830.00000000 -10310.00000000 -130.00000000 44 5 231 97.000000 1.000000 4.000000 1.000000 -60.708740 114.000000 145.000000 0.003774 0.937301 0.348500
11770.00000000 -10270.00000000 -170.00000000 44 5 231 97.000000 1.000000 4.000000 1.000000 -60.708740 114.000000 145.000000 -0.085995 0.958781 0.270820
11730.00000000 -10240.00000000 -180.00000000 44 5 231 97.000000 1.000000 4.000000 1.000000 -60.708740 114.000000 145.000000 -0.373903 0.797553 0.473397
11730.00000000 -10300.00000000 -180.00000000 44 5 231 97.000000 1.000000 4.000000 1.000000 -60.708740 114.000000 145.000000 -0.605846 0.784474 0.132482
11650.00000000 -10300.00000000 -180.00000000 44 5 231 97.000000 1.000000 4.000000 1.000000 -60.708740 114.000000 145.000000 -0.417513 0.505928 0.754798
11700.00000000 -10210.00000000 -220.00000000 44 5 231 97.000000 1.000000 4.000000 1.000000 -60.708740 114.000000 145.000000 -0.112507 0.810930 0.574226
11740.00000000 -10220.00000000 -320.00000000 44 5 231 97.000000 1.000000 4.000000 1.000000 -60.708740 114.000000 145.000000 0.091563 0.783368 0.614777
11780.00000000 -10250.00000000 -210.00000000 44 5 231 97.000000 1.000000 4.000000 1.000000 -60.708740 114.000000 145.000000 -0.572541 0.814826 0.090857
11770.00000000 -10230.00000000 -190.00000000 44 5 231 97.000000 1.000000 4.000000 1.000000 -60.708740 114.000000 145.000000 -0.029900 0.974756 0.221264
11780.00000000 -10250.00000000 -210.00000000 44 5 231 97.000000 1.000000 4.000000 1.000000 -60.708740 114.000000 145.000000 -0.572541 0.814826 0.090857
11770.00000000 -10280.00000000 -220.00000000 44 5 231 97.000000 1.000000 4.000000 1.000000 -60.708740 114.000000 145.000000 -0.444283 0.690552 0.570746
11780.00000000 -10280.00000000 -250.00000000 44 5 231 97.000000 1.000000 4.000000 1.000000 -60.708740 114.000000 145.000000 -0.333617 0.936019 0.112106
11780.00000000 -10280.00000000 -260.00000000 44 5 231 97.000000 1.000000 4.000000 1.000000 -60.708740 114.000000 145.000000 -0.413313 0.828209 0.378474
11740.00000000 -10290.00000000 -270.00000000 44 5 231 97.000000 1.000000 4.000000 1.000000 -60.708740 114.000000 145.000000 -0.431388 0.890007 0.147618
11780.00000000 -10260.00000000 -310.00000000 44 5 231 97.000000 1.000000 4.000000 1.000000 -60.708740 114.000000 145.000000 -0.261877 0.923009 0.281911
11770.00000000 -10260.00000000 -310.00000000 44 5 231 97.000000 1.000000 4.000000 1.000000 -60.708740 114.000000 145.000000 0.204058 0.946335 0.250621
11760.00000000 -10250.00000000 -320.00000000 44 5 231 97.000000 1.000000 4.000000 1.000000 -60.708740 114.000000 145.000000 -0.050109 0.895192 0.442856
11770.00000000 -10300.00000000 -340.00000000 44 5 231 97.000000 1.000000 4.000000 1.000000 -60.708740 114.000000 145.000000 -0.328233 0.944455 -0.016349
11640.00000000 -10210.00000000 -260.00000000 44 5 231 97.000000 1.000000 4.000000 1.000000 -60.708740 114.000000 145.000000 -0.188004 0.866004 0.463349
11680.00000000 -10250.00000000 -230.00000000 44 5 231 97.000000 1.000000 4.000000 1.000000 -60.708740 114.000000 145.000000 -0.101723 0.685525 0.720907
11670.00000000 -10250.00000000 -190.00000000 44 5 231 97.000000 1.000000 4.000000 1.000000 -60.708740 114.000000 145.000000 -0.407556 0.556058 0.724360
11690.00000000 -10270.00000000 -210.00000000 44 5 231 97.000000 1.000000 4.000000 1.000000 -60.708740 114.000000 145.000000 -0.691702 0.656231 0.301511
11630.00000000 -10240.00000000 -230.00000000 44 5 231 97.000000 1.000000 4.000000 1.000000 -60.708740 114.000000 145.000000 -0.743400 0.433513 0.509336
11640.00000000 -10250.00000000 -210.00000000 44 5 231 97.000000 1.000000 4.000000 1.000000 -60.708740 114.000000 145.000000 -0.459150 0.794250 0.397930
11640.00000000 -10250.00000000 -210.00000000 44 5 231 97.000000 1.000000 4.000000 1.000000 -60.708740 114.000000 145.000000 -0.459150 0.794250 0.397930
11640.00000000 -10250.00000000 -260.00000000 44 5 231 97.000000 1.000000 4.000000 1.000000 -60.708740 114.000000 145.000000 -0.249974 0.592707 0.765645
11740.00000000 -10340.00000000 -110.00000000 44 5 231 97.000000 1.000000 4.000000 1.000000 -60.708740 114.000000 145.000000 -0.391095 0.426214 0.815712
11640.00000000 -10330.00000000 -170.00000000 44 5 231 97.000000 1.000000 4.000000 1.000000 -60.708740 114.000000 145.000000 -0.357731 0.420768 0.833656
11640.00000000 -10370.00000000 -140.00000000 44 5 231 97.000000 1.000000 4.000000 1.000000 -60.708740 114.000000 145.000000 0.836111 -0.366881 -0.407820
11650.00000000 -10360.00000000 -180.00000000 44 5 231 97.000000 1.000000 4.000000 1.000000 -60.708740 114.000000 145.000000 0.844304 -0.167674 -0.508956
11650.00000000 -10370.00000000 -180.00000000 44 5 231 97.000000 1.000000 4.000000 1.000000 -60.708740 114.000000 145.000000 -0.535178 0.260568 0.803548
11650.00000000 -10360.00000000 -190.00000000 44 5 231 97.000000 1.000000 4.000000 1.000000 -60.708740 114.000000 145.000000 0.655195 -0.517082 -0.550768
11770.00000000 -10310.00000000 -290.00000000 44 5 231 97.000000 1.000000 4.000000 1.000000 -60.708740 114.000000 145.000000 0.426628 -0.688914 -0.585992
11770.00000000 -10320.00000000 -240.00000000 44 5 231 97.000000 1.000000 4.000000 1.000000 -60.708740 114.000000 145.000000 -0.026589 0.768294 0.639545
11500.00000000 -10290.00000000 -180.00000000 44 5 231 0.000000 0.000000 0.000000 0.000000 -60.708740 0.000000 145.000000 -0.468538 0.341477 0.814780
11590.00000000 -10190.00000000 -180.00000000 44 5 231 97.000000 1.000000 4.000000 1.000000 -60.708740 114.000000 145.000000 -0.423563 0.760451 0.492249
11590.00000000 -10220.00000000 -260.00000000 44 5 231 97.000000 1.000000 4.000000 1.000000 -60.708740 114.000000 145.000000 -0.110079 0.867764 0.484633
11590.00000000 -10230.00000000 -230.00000000 44 5 231 97.000000 1.000000 4.000000 1.000000 -60.708740 114.000000 145.000000 -0.332101 0.454869 0.826319
11580.00000000 -10240.00000000 -230.00000000 44 5 231 97.000000 1.000000 4.000000 1.000000 -60.708740 114.000000 145.000000 0.623342 -0.646739 -0.439515
11550.00000000 -10240.00000000 -230.00000000 44 5 231 97.000000 1.000000 4.000000 1.000000 -60.708740 114.000000 145.000000 0.818141 -0.483948 -0.310547
11500.00000000 -10200.00000000 -270.00000000 44 5 231 0.000000 0.000000 0.000000 0.000000 -60.708740 0.000000 145.000000 0.721613 -0.628811 -0.289605
11510.00000000 -10200.00000000 -240.00000000 44 5 231 0.000000 0.000000 0.000000 0.000000 -60.708740 0.000000 145.000000 -0.656849 0.730687 0.186133
11510.00000000 -10160.00000000 -280.00000000 44 5 231 0.000000 0.000000 0.000000 0.000000 -60.708740 0.000000 145.000000 -0.154108 0.911924 0.380322
11510.00000000 -10150.00000000 -300.00000000 44 5 231 0.000000 0.000000 0.000000 0.000000 -60.708740 0.000000 145.000000 -0.480147 0.794893 0.370950
