//X Y Z R G B PointSourceId ScanDirectionFlag NumberOfReturns ReturnNumber GpsTime Intensity Classification Nx Ny Nz
2740.00000000 12850.00000000 -510.00000000 144 28 169 97.000000 1.000000 4.000000 1.000000 -60.708740 114.000000 201.000000 0.841786 0.457324 0.286796
2770.00000000 12770.00000000 -470.00000000 144 28 169 97.000000 1.000000 4.000000 1.000000 -60.708740 114.000000 201.000000 0.985538 0.165607 -0.035901
2770.00000000 12770.00000000 -450.00000000 144 28 169 97.000000 1.000000 4.000000 1.000000 -60.708740 114.000000 201.000000 0.993202 -0.016462 0.115233
2740.00000000 12860.00000000 -570.00000000 144 28 169 97.000000 1.000000 4.000000 1.000000 -60.708740 114.000000 201.000000 0.612460 0.790227 0.020832
2690.00000000 12890.00000000 -530.00000000 144 28 169 97.000000 1.000000 4.000000 1.000000 -60.708740 114.000000 201.000000 0.356514 0.934093 -0.019167
2720.00000000 12880.00000000 -540.00000000 144 28 169 97.000000 1.000000 4.000000 1.000000 -60.708740 114.000000 201.000000 0.610045 0.714159 0.343252
2710.00000000 12900.00000000 -620.00000000 144 28 169 97.000000 1.000000 4.000000 1.000000 -60.708740 114.000000 201.000000 0.711182 0.673996 0.199875
2710.00000000 12910.00000000 -660.00000000 144 28 169 97.000000 1.000000 4.000000 1.000000 -60.708740 114.000000 201.000000 0.206319 0.974764 -0.085246
2710.00000000 12910.00000000 -660.00000000 144 28 169 97.000000 1.000000 4.000000 1.000000 -60.708740 114.000000 201.000000 0.206319 0.974764 -0.085246
2690.00000000 12900.00000000 -670.00000000 144 28 169 97.000000 1.000000 4.000000 1.000000 -60.708740 114.000000 201.000000 -0.023061 0.993805 0.108715
2690.00000000 12900.00000000 -670.00000000 144 28 169 97.000000 1.000000 4.000000 1.000000 -60.708740 114.000000 201.000000 -0.023061 0.993805 0.108715
2730.00000000 12870.00000000 -630.00000000 144 28 169 97.000000 1.000000 4.000000 1.000000 -60.708740 114.000000 201.000000 0.476088 0.874935 0.088477
2720.00000000 12870.00000000 -640.00000000 144 28 169 97.000000 1.000000 4.000000 1.000000 -60.708740 114.000000 201.000000 0.484175 0.872073 0.071161
2710.00000000 12880.00000000 -650.00000000 144 28 169 97.000000 1.000000 4.000000 1.000000 -60.708740 114.000000 201.000000 0.371726 0.908505 -0.190887
2710.00000000 12890.00000000 -690.00000000 144 28 169 97.000000 1.000000 4.000000 1.000000 -60.708740 114.000000 201.000000 0.647903 0.759462 0.058640
2720.00000000 12890.00000000 -690.00000000 144 28 169 97.000000 1.000000 4.000000 1.000000 -60.708740 114.000000 201.000000 0.097661 0.937814 0.333118
2750.00000000 12850.00000000 -530.00000000 144 28 169 97.000000 1.000000 4.000000 1.000000 -60.708740 114.000000 201.000000 0.836908 0.535215 -0.114585
2740.00000000 12850.00000000 -550.00000000 144 28 169 97.000000 1.000000 4.000000 1.000000 -60.708740 114.000000 201.000000 0.776178 0.628063 0.055543
2770.00000000 12850.00000000 -540.00000000 144 28 169 97.000000 1.000000 4.000000 1.000000 -60.708740 114.000000 201.000000 0.717503 0.691199 0.086217
2750.00000000 12840.00000000 -560.00000000 144 28 169 97.000000 1.000000 4.000000 1.000000 -60.708740 114.000000 201.000000 0.898727 0.376791 0.224315
2770.00000000 12820.00000000 -530.00000000 144 28 169 97.000000 1.000000 4.000000 1.000000 -60.708740 114.000000 201.000000 0.970781 0.235674 0.045181
2760.00000000 12840.00000000 -580.00000000 144 28 169 97.000000 1.000000 4.000000 1.000000 -60.708740 114.000000 201.000000 0.965600 0.258227 -0.030596
2760.00000000 12830.00000000 -570.00000000 144 28 169 97.000000 1.000000 4.000000 1.000000 -60.708740 114.000000 201.000000 0.952852 0.225072 0.203509
2750.00000000 12850.00000000 -570.00000000 144 28 169 97.000000 1.000000 4.000000 1.000000 -60.708740 114.000000 201.000000 0.786892 0.597315 0.154971
2770.00000000 12800.00000000 -540.00000000 144 28 169 97.000000 1.000000 4.000000 1.000000 -60.708740 114.000000 201.000000 0.994199 0.077165 -0.074928
2770.00000000 12790.00000000 -530.00000000 144 28 169 97.000000 1.000000 4.000000 1.000000 -60.708740 114.000000 201.000000 0.927038 -0.087456 0.364626
2760.00000000 12790.00000000 -600.00000000 144 28 169 97.000000 1.000000 4.000000 1.000000 -60.708740 114.000000 201.000000 0.978295 -0.084273 -0.189308
2750.00000000 12850.00000000 -650.00000000 144 28 169 97.000000 1.000000 4.000000 1.000000 -60.708740 114.000000 201.000000 0.974374 0.106046 0.198368
2760.00000000 12820.00000000 -650.00000000 144 28 169 97.000000 1.000000 4.000000 1.000000 -60.708740 114.000000 201.000000 0.978125 -0.094499 0.185316
2740.00000000 12840.00000000 -630.00000000 144 28 169 97.000000 1.000000 4.000000 1.000000 -60.708740 114.000000 201.000000 0.893111 0.449834 0.001311
2750.00000000 12840.00000000 -690.00000000 144 28 169 97.000000 1.000000 4.000000 1.000000 -60.708740 114.000000 201.000000 0.980679 0.167314 -0.101365
2750.00000000 12790.00000000 -650.00000000 144 28 169 97.000000 1.000000 4.000000 1.000000 -60.708740 114.000000 201.000000 0.777741 -0.628547 0.006907
2750.00000000 12800.00000000 -690.00000000 144 28 169 97.000000 1.000000 4.000000 1.000000 -60.708740 114.000000 201.000000 0.946001 -0.245057 -0.212200
2830.00000000 12740.00000000 -40.00000000 144 28 169 97.000000 1.000000 4.000000 1.000000 -60.708740 114.000000 201.000000 0.967884 0.155944 0.197185
2830.00000000 12700.00000000 -30.00000000 144 28 169 97.000000 1.000000 4.000000 1.000000 -60.708740 114.000000 201.000000 0.965116 0.160201 0.207090
2830.00000000 12710.00000000 -30.00000000 144 28 169 97.000000 1.000000 4.000000 1.000000 -60.708740 114.000000 201.000000 0.993411 0.097879 0.059627
2830.00000000 12690.00000000 -70.00000000 144 28 169 97.000000 1.000000 4.000000 1.000000 -60.708740 114.000000 201.000000 0.981507 -0.152408 -0.115830
2830.00000000 12720.00000000 -90.00000000 144 28 169 97.000000 1.000000 4.000000 1.000000 -60.708740 114.000000 201.000000 0.960268 0.255294 0.112744
2820.00000000 12700.00000000 -100.00000000 144 28 169 97.000000 1.000000 4.000000 1.000000 -60.708740 114.000000 201.000000 0.949339 -0.263330 0.171502
2830.00000000 12700.00000000 -110.00000000 144 28 169 97.000000 1.000000 4.000000 1.000000 -60.708740 114.000000 201.000000 0.963266 0.051224 0.263618
2830.00000000 12710.00000000 -180.00000000 144 28 169 97.000000 1.000000 4.000000 1.000000 -60.708740 114.000000 201.000000 0.934864 -0.259295 -0.242476
2830.00000000 12720.00000000 -160.00000000 144 28 169 97.000000 1.000000 4.000000 1.000000 -60.708740 114.000000 201.000000 0.948149 -0.121012 0.293886
2820.00000000 12760.00000000 -110.00000000 144 28 169 97.000000 1.000000 4.000000 1.000000 -60.708740 114.000000 201.000000 0.884268 0.033751 0.465759
2810.00000000 12710.00000000 -150.00000000 144 28 169 97.000000 1.000000 4.000000 1.000000 -60.708740 114.000000 201.000000 0.996817 -0.053034 -0.059528
2820.00000000 12680.00000000 -60.00000000 144 28 169 97.000000 1.000000 4.000000 1.000000 -60.708740 114.000000 201.000000 0.850604 -0.510363 -0.126500
2820.00000000 12660.00000000 -90.00000000 144 28 169 97.000000 1.000000 4.000000 1.000000 -60.708740 114.000000 201.000000 0.956433 -0.238110 -0.168939
2810.00000000 12630.00000000 -50.00000000 144 28 169 97.000000 1.000000 4.000000 1.000000 -60.708740 114.000000 201.000000 -0.768170 0.481126 -0.422412
2810.00000000 12660.00000000 -160.00000000 144 28 169 97.000000 1.000000 4.000000 1.000000 -60.708740 114.000000 201.000000 -0.669743 0.713253 -0.206673
2690.00000000 12700.00000000 -70.00000000 144 28 169 97.000000 1.000000 4.000000 1.000000 -60.708740 114.000000 201.000000 0.868143 -0.464287 0.175397
2690.00000000 12700.00000000 -70.00000000 144 28 169 97.000000 1.000000 4.000000 1.000000 -60.708740 114.000000 201.000000 0.868143 -0.464287 0.175397
2690.00000000 12730.00000000 -110.00000000 144 28 169 97.000000 1.000000 4.000000 1.000000 -60.708740 114.000000 201.000000 0.939826 -0.237386 -0.245715
2760.00000000 12630.00000000 -60.00000000 144 28 169 97.000000 1.000000 4.000000 1.000000 -60.708740 114.000000 201.000000 0.959055 -0.260853 -0.110311
2800.00000000 12760.00000000 -230.00000000 144 28 169 97.000000 1.000000 4.000000 1.000000 -60.708740 114.000000 201.000000 0.954872 0.150070 0.256315
2810.00000000 12740.00000000 -220.00000000 144 28 169 97.000000 1.000000 4.000000 1.000000 -60.708740 114.000000 201.000000 0.871094 -0.472384 0.134348
2810.00000000 12750.00000000 -240.00000000 144 28 169 97.000000 1.000000 4.000000 1.000000 -60.708740 114.000000 201.000000 0.937467 -0.075368 0.339815
2810.00000000 12750.00000000 -240.00000000 144 28 169 97.000000 1.000000 4.000000 1.000000 -60.708740 114.000000 201.000000 0.937467 -0.075368 0.339815
2780.00000000 12720.00000000 -270.00000000 144 28 169 97.000000 1.000000 4.000000 1.000000 -60.708740 114.000000 201.000000 0.766973 -0.641240 0.023750
2780.00000000 12730.00000000 -340.00000000 144 28 169 97.000000 1.000000 4.000000 1.000000 -60.708740 114.000000 201.000000 0.905343 -0.424583 -0.009145
2810.00000000 12760.00000000 -330.00000000 144 28 169 97.000000 1.000000 4.000000 1.000000 -60.708740 114.000000 201.000000 0.980732 -0.177765 0.081022
2790.00000000 12760.00000000 -300.00000000 144 28 169 97.000000 1.000000 4.000000 1.000000 -60.708740 114.000000 201.000000 0.998730 0.038613 -0.032352
2800.00000000 12730.00000000 -310.00000000 144 28 169 97.000000 1.000000 4.000000 1.000000 -60.708740 114.000000 201.000000 0.975066 -0.108618 0.193515
2780.00000000 12740.00000000 -520.00000000 144 28 169 97.000000 1.000000 4.000000 1.000000 -60.708740 114.000000 201.000000 0.955518 -0.262999 0.133482
2690.00000000 12690.00000000 -430.00000000 144 28 169 97.000000 1.000000 4.000000 1.000000 -60.708740 114.000000 201.000000 -0.231620 0.933500 0.273733
2710.00000000 12710.00000000 -380.00000000 144 28 169 97.000000 1.000000 4.000000 1.000000 -60.708740 114.000000 201.000000 0.938288 -0.260713 0.227253
2770.00000000 12760.00000000 -520.00000000 144 28 169 97.000000 1.000000 4.000000 1.000000 -60.708740 114.000000 201.000000 0.847184 -0.513578 0.136076
2770.00000000 12720.00000000 -470.00000000 144 28 169 97.000000 1.000000 4.000000 1.000000 -60.708740 114.000000 201.000000 0.752148 -0.621339 0.219571
2770.00000000 12730.00000000 -520.00000000 144 28 169 97.000000 1.000000 4.000000 1.000000 -60.708740 114.000000 201.000000 0.864905 -0.210625 0.455606
2690.00000000 12730.00000000 -650.00000000 144 28 169 97.000000 1.000000 4.000000 1.000000 -60.708740 114.000000 201.000000 -0.143599 0.989605 -0.007792
2750.00000000 12750.00000000 -600.00000000 144 28 169 97.000000 1.000000 4.000000 1.000000 -60.708740 114.000000 201.000000 0.794631 -0.604826 -0.052409
2700.00000000 12730.00000000 -580.00000000 144 28 169 97.000000 1.000000 4.000000 1.000000 -60.708740 114.000000 201.000000 -0.268697 0.932702 -0.240561
2720.00000000 12750.00000000 -620.00000000 144 28 169 97.000000 1.000000 4.000000 1.000000 -60.708740 114.000000 201.000000 -0.393366 0.883951 -0.252771
2770.00000000 12740.00000000 -560.00000000 144 28 169 97.000000 1.000000 4.000000 1.000000 -60.708740 114.000000 201.000000 0.930654 -0.286681 0.227368
2660.00000000 13070.00000000 -40.00000000 144 28 169 97.000000 1.000000 4.000000 1.000000 -60.708740 114.000000 201.000000 0.194818 0.829109 0.524045
2570.00000000 12960.00000000 -130.00000000 144 28 169 97.000000 1.000000 4.000000 1.000000 -60.708740 114.000000 201.000000 0.145527 0.927213 0.345106
2610.00000000 12890.00000000 -90.00000000 144 28 169 97.000000 1.000000 4.000000 1.000000 -60.708740 114.000000 201.000000 0.675921 0.701014 0.227398
2630.00000000 12860.00000000 -150.00000000 144 28 169 97.000000 1.000000 4.000000 1.000000 -60.708740 114.000000 201.000000 0.536944 0.828470 -0.159150
2660.00000000 12850.00000000 -70.00000000 144 28 169 97.000000 1.000000 4.000000 1.000000 -60.708740 114.000000 201.000000 0.881987 0.349467 0.316184
2580.00000000 12870.00000000 -30.00000000 144 28 169 97.000000 1.000000 4.000000 1.000000 -60.708740 114.000000 201.000000 0.017324 0.982842 0.183633
2600.00000000 12890.00000000 -40.00000000 144 28 169 97.000000 1.000000 4.000000 1.000000 -60.708740 114.000000 201.000000 0.185890 0.882610 0.431791
2530.00000000 12890.00000000 -140.00000000 144 28 169 97.000000 1.000000 4.000000 1.000000 -60.708740 114.000000 201.000000 0.036206 0.957575 0.285899
2550.00000000 12770.00000000 -100.00000000 144 28 169 97.000000 1.000000 4.000000 1.000000 -60.708740 114.000000 201.000000 0.797029 -0.601665 0.052380
2550.00000000 12770.00000000 -100.00000000 144 28 169 97.000000 1.000000 4.000000 1.000000 -60.708740 114.000000 201.000000 0.797029 -0.601665 0.052380
2580.00000000 12850.00000000 -20.00000000 144 28 169 97.000000 1.000000 4.000000 1.000000 -60.708740 114.000000 201.000000 0.464493 0.858334 0.217966
2670.00000000 12860.00000000 -230.00000000 144 28 169 97.000000 1.000000 4.000000 1.000000 -60.708740 114.000000 201.000000 0.711560 0.696949 0.089128
2650.00000000 12890.00000000 -210.00000000 144 28 169 97.000000 1.000000 4.000000 1.000000 -60.708740 114.000000 201.000000 0.464984 0.835105 0.293920
2660.00000000 12880.00000000 -250.00000000 144 28 169 97.000000 1.000000 4.000000 1.000000 -60.708740 114.000000 201.000000 0.515261 0.679742 0.521975
2660.00000000 12860.00000000 -270.00000000 144 28 169 97.000000 1.000000 4.000000 1.000000 -60.708740 114.000000 201.000000 0.268977 0.960991 -0.064403
2620.00000000 12860.00000000 -210.00000000 144 28 169 97.000000 1.000000 4.000000 1.000000 -60.708740 114.000000 201.000000 0.366765 0.911917 -0.184096
2640.00000000 12870.00000000 -190.00000000 144 28 169 97.000000 1.000000 4.000000 1.000000 -60.708740 114.000000 201.000000 0.504752 0.862342 -0.039885
2620.00000000 12860.00000000 -240.00000000 144 28 169 97.000000 1.000000 4.000000 1.000000 -60.708740 114.000000 201.000000 0.216018 0.949663 0.226886
2620.00000000 12910.00000000 -290.00000000 144 28 169 97.000000 1.000000 4.000000 1.000000 -60.708740 114.000000 201.000000 0.080899 0.992440 0.092294
2630.00000000 12780.00000000 -230.00000000 144 28 169 97.000000 1.000000 4.000000 1.000000 -60.708740 114.000000 201.000000 0.883751 0.324797 0.336883
2660.00000000 12800.00000000 -290.00000000 144 28 169 97.000000 1.000000 4.000000 1.000000 -60.708740 114.000000 201.000000 0.812694 0.199743 0.547386
2570.00000000 12800.00000000 -190.00000000 144 28 169 97.000000 1.000000 4.000000 1.000000 -60.708740 114.000000 201.000000 -0.274272 0.932525 0.234889
2600.00000000 12810.00000000 -300.00000000 144 28 169 97.000000 1.000000 4.000000 1.000000 -60.708740 114.000000 201.000000 -0.094160 0.992651 -0.076009
2460.00000000 13060.00000000 -160.00000000 144 28 169 97.000000 1.000000 4.000000 1.000000 -60.708740 114.000000 201.000000 -0.343651 0.905192 0.250061
2440.00000000 12930.00000000 -90.00000000 144 28 169 97.000000 1.000000 4.000000 1.000000 -60.708740 114.000000 201.000000 -0.654145 0.748649 0.107794
2470.00000000 12930.00000000 -150.00000000 144 28 169 97.000000 1.000000 4.000000 1.000000 -60.708740 114.000000 201.000000 -0.521939 0.765835 -0.375601
2470.00000000 12930.00000000 -130.00000000 144 28 169 97.000000 1.000000 4.000000 1.000000 -60.708740 114.000000 201.000000 -0.358467 0.933535 -0.003800
2470.00000000 12770.00000000 -90.00000000 144 28 169 97.000000 1.000000 4.000000 1.000000 -60.708740 114.000000 201.000000 0.823073 -0.322619 0.467405
2460.00000000 12830.00000000 -150.00000000 144 28 169 97.000000 1.000000 4.000000 1.000000 -60.708740 114.000000 201.000000 0.702318 -0.710831 -0.038308
2480.00000000 12770.00000000 -140.00000000 144 28 169 97.000000 1.000000 4.000000 1.000000 -60.708740 114.000000 201.000000 0.834389 -0.197658 0.514515
2400.00000000 12870.00000000 -70.00000000 144 28 169 97.000000 1.000000 4.000000 1.000000 -60.708740 114.000000 201.000000 0.877435 -0.420033 0.231691
2360.00000000 12880.00000000 -80.00000000 144 28 169 97.000000 1.000000 4.000000 1.000000 -60.708740 114.000000 201.000000 -0.560002 0.825042 -0.075522
2370.00000000 12860.00000000 -120.00000000 144 28 169 97.000000 1.000000 4.000000 1.000000 -60.708740 114.000000 201.000000 0.707592 -0.653529 0.268726
2380.00000000 12870.00000000 -120.00000000 144 28 169 97.000000 1.000000 4.000000 1.000000 -60.708740 114.000000 201.000000 0.645437 -0.703381 0.297770
2380.00000000 12880.00000000 -120.00000000 144 28 169 97.000000 1.000000 4.000000 1.000000 -60.708740 114.000000 201.000000 0.607227 -0.683338 0.405370
2410.00000000 12840.00000000 -100.00000000 144 28 169 97.000000 1.000000 4.000000 1.000000 -60.708740 114.000000 201.000000 -0.608912 0.725203 -0.321415
2650.00000000 12870.00000000 -390.00000000 144 28 169 97.000000 1.000000 4.000000 1.000000 -60.708740 114.000000 201.000000 -0.023481 0.999494 -0.021440
2660.00000000 12880.00000000 -520.00000000 144 28 169 97.000000 1.000000 4.000000 1.000000 -60.708740 114.000000 201.000000 0.123124 0.919974 0.372140
2610.00000000 12860.00000000 -480.00000000 144 28 169 97.000000 1.000000 4.000000 1.000000 -60.708740 114.000000 201.000000 -0.533493 0.829380 0.165876
2670.00000000 12850.00000000 -370.00000000 144 28 169 97.000000 1.000000 4.000000 1.000000 -60.708740 114.000000 201.000000 0.589754 0.800486 0.106829
2620.00000000 12790.00000000 -370.00000000 144 28 169 97.000000 1.000000 4.000000 1.000000 -60.708740 114.000000 201.000000 0.592594 0.794581 -0.132183
2640.00000000 12770.00000000 -360.00000000 144 28 169 97.000000 1.000000 4.000000 1.000000 -60.708740 114.000000 201.000000 0.931534 -0.274810 -0.238168
2640.00000000 12790.00000000 -400.00000000 144 28 169 97.000000 1.000000 4.000000 1.000000 -60.708740 114.000000 201.000000 0.874935 0.088477 0.476088
2640.00000000 12790.00000000 -400.00000000 144 28 169 97.000000 1.000000 4.000000 1.000000 -60.708740 114.000000 201.000000 0.874935 0.088477 0.476088
2640.00000000 12780.00000000 -400.00000000 144 28 169 97.000000 1.000000 4.000000 1.000000 -60.708740 114.000000 201.000000 0.969924 -0.070970 0.232832
2610.00000000 12810.00000000 -510.00000000 144 28 169 97.000000 1.000000 4.000000 1.000000 -60.708740 114.000000 201.000000 0.990098 -0.037512 0.135272
2620.00000000 12840.00000000 -520.00000000 144 28 169 97.000000 1.000000 4.000000 1.000000 -60.708740 114.000000 201.000000 -0.626462 0.774720 0.085757
2620.00000000 12790.00000000 -500.00000000 144 28 169 97.000000 1.000000 4.000000 1.000000 -60.708740 114.000000 201.000000 0.877988 0.474252 0.064985
2670.00000000 12880.00000000 -560.00000000 144 28 169 97.000000 1.000000 4.000000 1.000000 -60.708740 114.000000 201.000000 0.062845 0.995603 -0.069461
2670.00000000 12900.00000000 -600.00000000 144 28 169 97.000000 1.000000 4.000000 1.000000 -60.708740 114.000000 201.000000 0.001172 0.974073 0.226229
2680.00000000 12900.00000000 -600.00000000 144 28 169 97.000000 1.000000 4.000000 1.000000 -60.708740 114.000000 201.000000 -0.090841 0.946588 0.309385
2640.00000000 12890.00000000 -560.00000000 144 28 169 97.000000 1.000000 4.000000 1.000000 -60.708740 114.000000 201.000000 -0.156162 0.961903 -0.224400
2670.00000000 12900.00000000 -690.00000000 144 28 169 97.000000 1.000000 4.000000 1.000000 -60.708740 114.000000 201.000000 -0.329338 0.916105 -0.228667
2630.00000000 12860.00000000 -610.00000000 144 28 169 97.000000 1.000000 4.000000 1.000000 -60.708740 114.000000 201.000000 0.646000 -0.715838 0.265066
2630.00000000 12840.00000000 -590.00000000 144 28 169 97.000000 1.000000 4.000000 1.000000 -60.708740 114.000000 201.000000 0.897454 -0.440033 0.030762
2640.00000000 12770.00000000 -590.00000000 144 28 169 97.000000 1.000000 4.000000 1.000000 -60.708740 114.000000 201.000000 0.699901 0.702886 0.126848
2630.00000000 12840.00000000 -590.00000000 144 28 169 97.000000 1.000000 4.000000 1.000000 -60.708740 114.000000 201.000000 0.897454 -0.440033 0.030762
2660.00000000 12850.00000000 -580.00000000 144 28 169 97.000000 1.000000 4.000000 1.000000 -60.708740 114.000000 201.000000 0.133378 0.879149 0.457502
2650.00000000 12770.00000000 -600.00000000 144 28 169 97.000000 1.000000 4.000000 1.000000 -60.708740 114.000000 201.000000 0.343893 0.833823 0.431829
2680.00000000 12780.00000000 -600.00000000 144 28 169 97.000000 1.000000 4.000000 1.000000 -60.708740 114.000000 201.000000 -0.589485 0.791508 -0.161317
2610.00000000 12850.00000000 -630.00000000 144 28 169 97.000000 1.000000 4.000000 1.000000 -60.708740 114.000000 201.000000 0.916370 -0.387643 -0.099993
2610.00000000 12850.00000000 -640.00000000 144 28 169 97.000000 1.000000 4.000000 1.000000 -60.708740 114.000000 201.000000 -0.788046 0.591413 0.170920
2630.00000000 12770.00000000 -650.00000000 144 28 169 97.000000 1.000000 4.000000 1.000000 -60.708740 114.000000 201.000000 0.717770 0.603838 0.346678
2620.00000000 12790.00000000 -650.00000000 144 28 169 97.000000 1.000000 4.000000 1.000000 -60.708740 114.000000 201.000000 0.906535 0.286506 0.310014
2610.00000000 12790.00000000 -610.00000000 144 28 169 97.000000 1.000000 4.000000 1.000000 -60.708740 114.000000 201.000000 0.966112 0.079355 0.245622
2630.00000000 12790.00000000 -690.00000000 144 28 169 97.000000 1.000000 4.000000 1.000000 -60.708740 114.000000 201.000000 0.931303 0.357376 -0.070412
2610.00000000 12800.00000000 -690.00000000 144 28 169 97.000000 1.000000 4.000000 1.000000 -60.708740 114.000000 201.000000 0.864636 0.490199 0.110045
2600.00000000 12800.00000000 -660.00000000 144 28 169 97.000000 1.000000 4.000000 1.000000 -60.708740 114.000000 201.000000 0.899021 0.435358 -0.047175
2480.00000000 13100.00000000 -510.00000000 144 28 169 97.000000 1.000000 4.000000 1.000000 -60.708740 114.000000 201.000000 -0.448533 0.893026 0.036368
2460.00000000 13090.00000000 -520.00000000 144 28 169 97.000000 1.000000 4.000000 1.000000 -60.708740 114.000000 201.000000 -0.570300 0.765192 -0.298728
2450.00000000 13090.00000000 -440.00000000 144 28 169 97.000000 1.000000 4.000000 1.000000 -60.708740 114.000000 201.000000 0.801413 -0.586722 0.116168
2440.00000000 12860.00000000 -690.00000000 144 28 169 97.000000 1.000000 4.000000 1.000000 -60.708740 114.000000 201.000000 0.983731 0.094890 0.152544
2440.00000000 12910.00000000 -690.00000000 144 28 169 97.000000 1.000000 4.000000 1.000000 -60.708740 114.000000 201.000000 0.982038 -0.184647 0.038811
2440.00000000 12790.00000000 -580.00000000 144 28 169 97.000000 1.000000 4.000000 1.000000 -60.708740 114.000000 201.000000 0.840831 0.200773 0.502687
2470.00000000 12780.00000000 -530.00000000 144 28 169 97.000000 1.000000 4.000000 1.000000 -60.708740 114.000000 201.000000 0.989969 -0.129625 -0.056209
2440.00000000 12840.00000000 -690.00000000 144 28 169 97.000000 1.000000 4.000000 1.000000 -60.708740 114.000000 201.000000 0.912310 -0.407685 0.038511
2440.00000000 12820.00000000 -690.00000000 144 28 169 97.000000 1.000000 4.000000 1.000000 -60.708740 114.000000 201.000000 0.993015 0.093980 0.071334
2440.00000000 12810.00000000 -630.00000000 144 28 169 97.000000 1.000000 4.000000 1.000000 -60.708740 114.000000 201.000000 0.950519 0.079318 0.300369
2430.00000000 12830.00000000 -680.00000000 144 28 169 97.000000 1.000000 4.000000 1.000000 -60.708740 114.000000 201.000000 0.849574 0.148199 0.506223
2430.00000000 12820.00000000 -650.00000000 144 28 169 97.000000 1.000000 4.000000 1.000000 -60.708740 114.000000 201.000000 0.997096 -0.073425 -0.020219
2430.00000000 12810.00000000 -640.00000000 144 28 169 97.000000 1.000000 4.000000 1.000000 -60.708740 114.000000 201.000000 0.966491 0.255872 -0.020615
2650.00000000 12700.00000000 -90.00000000 144 28 169 97.000000 1.000000 4.000000 1.000000 -60.708740 114.000000 201.000000 -0.604914 0.794746 -0.049583
2670.00000000 12700.00000000 -110.00000000 144 28 169 97.000000 1.000000 4.000000 1.000000 -60.708740 114.000000 201.000000 0.779512 -0.599507 -0.181530
2670.00000000 12750.00000000 -110.00000000 144 28 169 97.000000 1.000000 4.000000 1.000000 -60.708740 114.000000 201.000000 0.971517 -0.027758 0.235337
2680.00000000 12720.00000000 -150.00000000 144 28 169 97.000000 1.000000 4.000000 1.000000 -60.708740 114.000000 201.000000 0.996140 -0.013910 -0.086667
2530.00000000 12700.00000000 -100.00000000 144 28 169 97.000000 1.000000 4.000000 1.000000 -60.708740 114.000000 201.000000 0.133134 0.965543 0.223613
2540.00000000 12710.00000000 -110.00000000 144 28 169 97.000000 1.000000 4.000000 1.000000 -60.708740 114.000000 201.000000 0.358863 0.926494 -0.113253
2520.00000000 12700.00000000 -130.00000000 144 28 169 97.000000 1.000000 4.000000 1.000000 -60.708740 114.000000 201.000000 0.638915 0.648873 0.413221
2660.00000000 12750.00000000 -290.00000000 144 28 169 97.000000 1.000000 4.000000 1.000000 -60.708740 114.000000 201.000000 0.940955 -0.094228 0.325154
2650.00000000 12650.00000000 -220.00000000 144 28 169 97.000000 1.000000 4.000000 1.000000 -60.708740 114.000000 201.000000 -0.521119 0.804507 0.284962
2530.00000000 12640.00000000 -200.00000000 144 28 169 97.000000 1.000000 4.000000 1.000000 -60.708740 114.000000 201.000000 0.425086 0.896775 -0.122865
2530.00000000 12610.00000000 -330.00000000 144 28 169 97.000000 1.000000 4.000000 1.000000 -60.708740 114.000000 201.000000 0.207081 0.838906 0.503343
2490.00000000 12700.00000000 -70.00000000 144 28 169 97.000000 1.000000 4.000000 1.000000 -60.708740 114.000000 201.000000 0.916021 0.399019 0.041095
2500.00000000 12610.00000000 -240.00000000 144 28 169 97.000000 1.000000 4.000000 1.000000 -60.708740 114.000000 201.000000 0.690304 0.638083 0.341072
2490.00000000 12610.00000000 -250.00000000 144 28 169 97.000000 1.000000 4.000000 1.000000 -60.708740 114.000000 201.000000 0.734369 0.665569 -0.133114
2460.00000000 12630.00000000 -310.00000000 144 28 169 97.000000 1.000000 4.000000 1.000000 -60.708740 114.000000 201.000000 0.372491 0.907499 0.194156
2480.00000000 12650.00000000 -320.00000000 144 28 169 97.000000 1.000000 4.000000 1.000000 -60.708740 114.000000 201.000000 0.838776 0.507482 0.197271
2490.00000000 12490.00000000 -170.00000000 144 28 169 97.000000 1.000000 4.000000 1.000000 -60.708740 114.000000 201.000000 0.400744 0.883424 -0.242830
2450.00000000 12580.00000000 -160.00000000 144 28 169 97.000000 1.000000 4.000000 1.000000 -60.708740 114.000000 201.000000 0.366639 0.930106 0.021870
2620.00000000 12760.00000000 -440.00000000 144 28 169 97.000000 1.000000 4.000000 1.000000 -60.708740 114.000000 201.000000 0.069524 0.961961 0.264192
2640.00000000 12740.00000000 -390.00000000 144 28 169 97.000000 1.000000 4.000000 1.000000 -60.708740 114.000000 201.000000 -0.483843 0.792474 -0.371322
2630.00000000 12740.00000000 -370.00000000 144 28 169 97.000000 1.000000 4.000000 1.000000 -60.708740 114.000000 201.000000 -0.164074 0.985607 -0.040728
2680.00000000 12720.00000000 -500.00000000 144 28 169 97.000000 1.000000 4.000000 1.000000 -60.708740 114.000000 201.000000 -0.528459 0.809056 -0.257214
2670.00000000 12720.00000000 -500.00000000 144 28 169 97.000000 1.000000 4.000000 1.000000 -60.708740 114.000000 201.000000 -0.373153 0.880762 -0.291573
2680.00000000 12720.00000000 -500.00000000 144 28 169 97.000000 1.000000 4.000000 1.000000 -60.708740 114.000000 201.000000 -0.528459 0.809056 -0.257214
2620.00000000 12760.00000000 -470.00000000 144 28 169 97.000000 1.000000 4.000000 1.000000 -60.708740 114.000000 201.000000 0.647645 0.753865 -0.110646
2630.00000000 12750.00000000 -530.00000000 144 28 169 97.000000 1.000000 4.000000 1.000000 -60.708740 114.000000 201.000000 0.625978 0.739506 0.247553
2620.00000000 12760.00000000 -600.00000000 144 28 169 97.000000 1.000000 4.000000 1.000000 -60.708740 114.000000 201.000000 0.632243 0.773684 -0.041018
2620.00000000 12760.00000000 -610.00000000 144 28 169 97.000000 1.000000 4.000000 1.000000 -60.708740 114.000000 201.000000 0.840096 0.541149 0.037368
2650.00000000 12760.00000000 -640.00000000 144 28 169 97.000000 1.000000 4.000000 1.000000 -60.708740 114.000000 201.000000 0.578150 0.798541 -0.167558
2660.00000000 12750.00000000 -660.00000000 144 28 169 97.000000 1.000000 4.000000 1.000000 -60.708740 114.000000 201.000000 0.500206 0.833677 0.234042
2460.00000000 12720.00000000 -440.00000000 144 28 169 97.000000 1.000000 4.000000 1.000000 -60.708740 114.000000 201.000000 0.891663 0.442343 0.096283
2470.00000000 12670.00000000 -360.00000000 144 28 169 97.000000 1.000000 4.000000 1.000000 -60.708740 114.000000 201.000000 0.941033 0.337448 -0.024194
2730.00000000 12830.00000000 -770.00000000 144 28 169 97.000000 1.000000 4.000000 1.000000 -60.708740 114.000000 201.000000 0.972103 -0.135613 0.191379
2740.00000000 12830.00000000 -720.00000000 144 28 169 97.000000 1.000000 4.000000 1.000000 -60.708740 114.000000 201.000000 0.944896 0.295196 -0.141532
2730.00000000 12810.00000000 -700.00000000 144 28 169 97.000000 1.000000 4.000000 1.000000 -60.708740 114.000000 201.000000 0.798541 -0.167558 0.578150
2730.00000000 12820.00000000 -770.00000000 144 28 169 97.000000 1.000000 4.000000 1.000000 -60.708740 114.000000 201.000000 0.948730 -0.289556 0.126764
2750.00000000 12850.00000000 -700.00000000 144 28 169 97.000000 1.000000 4.000000 1.000000 -60.708740 114.000000 201.000000 0.981400 0.186312 -0.046281
2740.00000000 12810.00000000 -750.00000000 144 28 169 97.000000 1.000000 4.000000 1.000000 -60.708740 114.000000 201.000000 0.960683 -0.178394 -0.212751
2750.00000000 12800.00000000 -750.00000000 144 28 169 97.000000 1.000000 4.000000 1.000000 -60.708740 114.000000 201.000000 0.795266 -0.459738 0.395213
2630.00000000 12950.00000000 -850.00000000 144 28 169 97.000000 1.000000 4.000000 1.000000 -60.708740 114.000000 201.000000 -0.639889 0.643213 -0.420498
2680.00000000 12940.00000000 -770.00000000 144 28 169 97.000000 1.000000 4.000000 1.000000 -60.708740 114.000000 201.000000 -0.145143 0.989410 -0.001108
2630.00000000 12950.00000000 -940.00000000 144 28 169 97.000000 1.000000 4.000000 1.000000 -60.708740 114.000000 201.000000 -0.550935 0.811984 -0.192751
2570.00000000 12960.00000000 -910.00000000 144 28 169 97.000000 1.000000 4.000000 1.000000 -60.708740 114.000000 201.000000 -0.676907 0.735768 0.021022
2670.00000000 12910.00000000 -740.00000000 144 28 169 97.000000 1.000000 4.000000 1.000000 -60.708740 114.000000 201.000000 -0.027856 0.970121 -0.241016
2630.00000000 12910.00000000 -770.00000000 144 28 169 97.000000 1.000000 4.000000 1.000000 -60.708740 114.000000 201.000000 -0.464621 0.879815 0.100268
2610.00000000 12900.00000000 -750.00000000 144 28 169 97.000000 1.000000 4.000000 1.000000 -60.708740 114.000000 201.000000 0.542709 -0.759792 0.358026
2620.00000000 12910.00000000 -750.00000000 144 28 169 97.000000 1.000000 4.000000 1.000000 -60.708740 114.000000 201.000000 -0.616191 0.783587 -0.079369
2610.00000000 12870.00000000 -740.00000000 144 28 169 97.000000 1.000000 4.000000 1.000000 -60.708740 114.000000 201.000000 0.940741 -0.303596 -0.151118
2650.00000000 12930.00000000 -800.00000000 144 28 169 97.000000 1.000000 4.000000 1.000000 -60.708740 114.000000 201.000000 -0.198266 0.979457 0.036804
2650.00000000 12930.00000000 -810.00000000 144 28 169 97.000000 1.000000 4.000000 1.000000 -60.708740 114.000000 201.000000 -0.319720 0.946320 0.047509
2620.00000000 12900.00000000 -860.00000000 144 28 169 97.000000 1.000000 4.000000 1.000000 -60.708740 114.000000 201.000000 0.905368 -0.416277 -0.083805
2610.00000000 12890.00000000 -790.00000000 144 28 169 97.000000 1.000000 4.000000 1.000000 -60.708740 114.000000 201.000000 0.659668 -0.721755 -0.209542
2680.00000000 12810.00000000 -740.00000000 144 28 169 97.000000 1.000000 4.000000 1.000000 -60.708740 114.000000 201.000000 0.741773 0.666584 -0.073744
2610.00000000 12800.00000000 -700.00000000 144 28 169 97.000000 1.000000 4.000000 1.000000 -60.708740 114.000000 201.000000 0.993178 -0.112079 -0.032181
2620.00000000 12770.00000000 -700.00000000 144 28 169 97.000000 1.000000 4.000000 1.000000 -60.708740 114.000000 201.000000 0.604629 0.783778 0.141827
2610.00000000 12780.00000000 -770.00000000 144 28 169 97.000000 1.000000 4.000000 1.000000 -60.708740 114.000000 201.000000 0.797967 0.593734 -0.103575
2610.00000000 12820.00000000 -820.00000000 144 28 169 97.000000 1.000000 4.000000 1.000000 -60.708740 114.000000 201.000000 0.900203 -0.066935 0.430295
2580.00000000 12910.00000000 -770.00000000 144 28 169 97.000000 1.000000 4.000000 1.000000 -60.708740 114.000000 201.000000 0.753226 -0.597823 -0.274333
2590.00000000 12920.00000000 -790.00000000 144 28 169 97.000000 1.000000 4.000000 1.000000 -60.708740 114.000000 201.000000 -0.589862 0.803309 -0.082206
2580.00000000 12910.00000000 -780.00000000 144 28 169 97.000000 1.000000 4.000000 1.000000 -60.708740 114.000000 201.000000 0.897720 -0.428616 -0.101918
2600.00000000 12930.00000000 -810.00000000 144 28 169 97.000000 1.000000 4.000000 1.000000 -60.708740 114.000000 201.000000 -0.428466 0.887434 0.169934
2590.00000000 12860.00000000 -780.00000000 144 28 169 97.000000 1.000000 4.000000 1.000000 -60.708740 114.000000 201.000000 0.992443 -0.094356 -0.078441
2570.00000000 12890.00000000 -800.00000000 144 28 169 97.000000 1.000000 4.000000 1.000000 -60.708740 114.000000 201.000000 0.970411 -0.154703 0.185388
2570.00000000 12860.00000000 -780.00000000 144 28 169 97.000000 1.000000 4.000000 1.000000 -60.708740 114.000000 201.000000 0.998419 -0.030446 0.047244
2570.00000000 12870.00000000 -850.00000000 144 28 169 97.000000 1.000000 4.000000 1.000000 -60.708740 114.000000 201.000000 0.947041 -0.144144 0.286941
2560.00000000 12880.00000000 -840.00000000 144 28 169 97.000000 1.000000 4.000000 1.000000 -60.708740 114.000000 201.000000 0.927525 -0.070732 0.367006
2600.00000000 12850.00000000 -740.00000000 144 28 169 97.000000 1.000000 4.000000 1.000000 -60.708740 114.000000 201.000000 0.870767 -0.465284 -0.158984
2600.00000000 12850.00000000 -740.00000000 144 28 169 97.000000 1.000000 4.000000 1.000000 -60.708740 114.000000 201.000000 0.870767 -0.465284 -0.158984
2570.00000000 12850.00000000 -840.00000000 144 28 169 97.000000 1.000000 4.000000 1.000000 -60.708740 114.000000 201.000000 0.998575 0.038769 0.036674
2600.00000000 12790.00000000 -790.00000000 144 28 169 97.000000 1.000000 4.000000 1.000000 -60.708740 114.000000 201.000000 0.872397 0.444373 0.203609
2600.00000000 12800.00000000 -840.00000000 144 28 169 97.000000 1.000000 4.000000 1.000000 -60.708740 114.000000 201.000000 0.860780 0.498196 -0.104207
2570.00000000 12850.00000000 -790.00000000 144 28 169 97.000000 1.000000 4.000000 1.000000 -60.708740 114.000000 201.000000 0.953550 -0.178372 -0.242746
2590.00000000 12810.00000000 -790.00000000 144 28 169 97.000000 1.000000 4.000000 1.000000 -60.708740 114.000000 201.000000 0.868312 0.401346 0.291472
2600.00000000 12800.00000000 -810.00000000 144 28 169 97.000000 1.000000 4.000000 1.000000 -60.708740 114.000000 201.000000 0.947750 0.256994 -0.189006
2670.00000000 12860.00000000 -1000.00000000 144 28 169 97.000000 1.000000 4.000000 1.000000 -60.708740 114.000000 201.000000 0.979318 -0.124730 -0.159309
2550.00000000 12930.00000000 -920.00000000 144 28 169 97.000000 1.000000 4.000000 1.000000 -60.708740 114.000000 201.000000 -0.665216 0.744985 0.049856
2560.00000000 12890.00000000 -890.00000000 144 28 169 97.000000 1.000000 4.000000 1.000000 -60.708740 114.000000 201.000000 0.930231 -0.307271 0.200638
2550.00000000 12860.00000000 -930.00000000 144 28 169 97.000000 1.000000 4.000000 1.000000 -60.708740 114.000000 201.000000 0.974071 -0.126943 -0.187273
2530.00000000 12870.00000000 -1020.00000000 144 28 169 97.000000 1.000000 4.000000 1.000000 -60.708740 114.000000 201.000000 0.984828 0.119045 0.126260
2550.00000000 12910.00000000 -960.00000000 144 28 169 97.000000 1.000000 4.000000 1.000000 -60.708740 114.000000 201.000000 0.962899 -0.025759 0.268630
2530.00000000 12890.00000000 -950.00000000 144 28 169 97.000000 1.000000 4.000000 1.000000 -60.708740 114.000000 201.000000 0.999632 0.027126 0.001005
2530.00000000 12880.00000000 -1000.00000000 144 28 169 97.000000 1.000000 4.000000 1.000000 -60.708740 114.000000 201.000000 0.989922 0.107928 -0.091681
2530.00000000 12880.00000000 -970.00000000 144 28 169 97.000000 1.000000 4.000000 1.000000 -60.708740 114.000000 201.000000 0.997102 0.063462 0.041949
2530.00000000 12860.00000000 -1000.00000000 144 28 169 97.000000 1.000000 4.000000 1.000000 -60.708740 114.000000 201.000000 0.981571 0.157295 -0.108521
2550.00000000 12840.00000000 -910.00000000 144 28 169 97.000000 1.000000 4.000000 1.000000 -60.708740 114.000000 201.000000 0.985513 0.167134 -0.028816
2600.00000000 12780.00000000 -880.00000000 144 28 169 97.000000 1.000000 4.000000 1.000000 -60.708740 114.000000 201.000000 0.651473 0.731939 0.199620
2550.00000000 12820.00000000 -920.00000000 144 28 169 97.000000 1.000000 4.000000 1.000000 -60.708740 114.000000 201.000000 0.866812 0.456452 0.200720
2580.00000000 12790.00000000 -900.00000000 144 28 169 97.000000 1.000000 4.000000 1.000000 -60.708740 114.000000 201.000000 0.887631 -0.011941 0.460401
2560.00000000 12810.00000000 -1010.00000000 144 28 169 97.000000 1.000000 4.000000 1.000000 -60.708740 114.000000 201.000000 0.876970 0.472862 0.085592
2510.00000000 13090.00000000 -1020.00000000 144 28 169 97.000000 1.000000 4.000000 1.000000 -60.708740 114.000000 201.000000 -0.616632 0.754008 0.226358
2470.00000000 13100.00000000 -990.00000000 144 28 169 97.000000 1.000000 4.000000 1.000000 -60.708740 114.000000 201.000000 -0.488500 0.868602 0.083059
2460.00000000 12960.00000000 -970.00000000 144 28 169 97.000000 1.000000 4.000000 1.000000 -60.708740 114.000000 201.000000 0.888315 -0.455792 -0.056119
2440.00000000 12880.00000000 -750.00000000 144 28 169 97.000000 1.000000 4.000000 1.000000 -60.708740 114.000000 201.000000 0.929562 -0.348074 -0.121485
2470.00000000 12880.00000000 -830.00000000 144 28 169 97.000000 1.000000 4.000000 1.000000 -60.708740 114.000000 201.000000 0.977445 0.034526 0.208347
2440.00000000 12880.00000000 -820.00000000 144 28 169 97.000000 1.000000 4.000000 1.000000 -60.708740 114.000000 201.000000 0.929761 0.124607 0.346435
2420.00000000 12880.00000000 -780.00000000 144 28 169 97.000000 1.000000 4.000000 1.000000 -60.708740 114.000000 201.000000 0.852813 -0.512830 -0.098566
2410.00000000 12850.00000000 -790.00000000 144 28 169 97.000000 1.000000 4.000000 1.000000 -60.708740 114.000000 201.000000 0.921102 -0.381657 0.076871
2450.00000000 12910.00000000 -900.00000000 144 28 169 97.000000 1.000000 4.000000 1.000000 -60.708740 114.000000 201.000000 0.987570 -0.155693 0.021592
2450.00000000 12920.00000000 -890.00000000 144 28 169 97.000000 1.000000 4.000000 1.000000 -60.708740 114.000000 201.000000 0.983306 -0.139090 0.117319
2440.00000000 12900.00000000 -960.00000000 144 28 169 97.000000 1.000000 4.000000 1.000000 -60.708740 114.000000 201.000000 0.838526 -0.352651 0.415345
2480.00000000 12930.00000000 -1020.00000000 144 28 169 97.000000 1.000000 4.000000 1.000000 -60.708740 114.000000 201.000000 0.999505 -0.027509 -0.015283
2570.00000000 13000.00000000 -1100.00000000 144 28 169 97.000000 1.000000 4.000000 1.000000 -60.708740 114.000000 201.000000 0.804747 -0.592751 0.032078
2560.00000000 13000.00000000 -1110.00000000 144 28 169 97.000000 1.000000 4.000000 1.000000 -60.708740 114.000000 201.000000 -0.611864 0.770552 -0.178524
2560.00000000 12960.00000000 -1050.00000000 144 28 169 97.000000 1.000000 4.000000 1.000000 -60.708740 114.000000 201.000000 0.855252 -0.397468 0.332512
2560.00000000 12970.00000000 -1050.00000000 144 28 169 97.000000 1.000000 4.000000 1.000000 -60.708740 114.000000 201.000000 0.700029 -0.580875 0.415384
2540.00000000 12960.00000000 -1050.00000000 144 28 169 97.000000 1.000000 4.000000 1.000000 -60.708740 114.000000 201.000000 0.826751 -0.275584 0.490445
2520.00000000 12960.00000000 -1090.00000000 144 28 169 97.000000 1.000000 4.000000 1.000000 -60.708740 114.000000 201.000000 0.970221 -0.198135 -0.139333
2530.00000000 12940.00000000 -1090.00000000 144 28 169 97.000000 1.000000 4.000000 1.000000 -60.708740 114.000000 201.000000 0.937861 -0.292302 -0.187018
2520.00000000 12950.00000000 -1100.00000000 144 28 169 97.000000 1.000000 4.000000 1.000000 -60.708740 114.000000 201.000000 0.947937 -0.309025 -0.076930
2580.00000000 13030.00000000 -1260.00000000 144 28 169 97.000000 1.000000 4.000000 1.000000 -60.708740 114.000000 201.000000 0.580035 -0.795087 -0.177191
2530.00000000 13020.00000000 -1270.00000000 144 28 169 97.000000 1.000000 4.000000 1.000000 -60.708740 114.000000 201.000000 0.886908 -0.456558 0.070346
2520.00000000 13090.00000000 -1330.00000000 144 28 169 97.000000 1.000000 4.000000 1.000000 -60.708740 114.000000 201.000000 0.766710 -0.609357 0.202090
2560.00000000 13010.00000000 -1200.00000000 144 28 169 97.000000 1.000000 4.000000 1.000000 -60.708740 114.000000 201.000000 0.709210 -0.668505 -0.223879
2610.00000000 12930.00000000 -1080.00000000 144 28 169 97.000000 1.000000 4.000000 1.000000 -60.708740 114.000000 201.000000 0.840942 -0.503963 -0.197072
2650.00000000 12890.00000000 -1120.00000000 144 28 169 97.000000 1.000000 4.000000 1.000000 -60.708740 114.000000 201.000000 0.999342 0.033755 0.013297
2660.00000000 12880.00000000 -1150.00000000 144 28 169 97.000000 1.000000 4.000000 1.000000 -60.708740 114.000000 201.000000 0.950261 -0.303825 0.068522
2650.00000000 12890.00000000 -1120.00000000 144 28 169 97.000000 1.000000 4.000000 1.000000 -60.708740 114.000000 201.000000 0.999342 0.033755 0.013297
2650.00000000 12870.00000000 -1140.00000000 144 28 169 97.000000 1.000000 4.000000 1.000000 -60.708740 114.000000 201.000000 0.938252 -0.345672 0.013928
2630.00000000 12890.00000000 -1160.00000000 144 28 169 97.000000 1.000000 4.000000 1.000000 -60.708740 114.000000 201.000000 0.949627 -0.194273 -0.245898
2640.00000000 12900.00000000 -1170.00000000 144 28 169 97.000000 1.000000 4.000000 1.000000 -60.708740 114.000000 201.000000 0.979179 -0.190026 0.071411
2560.00000000 12910.00000000 -1040.00000000 144 28 169 97.000000 1.000000 4.000000 1.000000 -60.708740 114.000000 201.000000 0.859679 -0.393570 0.325660
2520.00000000 12920.00000000 -1070.00000000 144 28 169 97.000000 1.000000 4.000000 1.000000 -60.708740 114.000000 201.000000 0.970549 -0.240543 -0.013164
2530.00000000 12870.00000000 -1120.00000000 144 28 169 97.000000 1.000000 4.000000 1.000000 -60.708740 114.000000 201.000000 0.961031 0.272978 0.043627
2640.00000000 12920.00000000 -1200.00000000 144 28 169 97.000000 1.000000 4.000000 1.000000 -60.708740 114.000000 201.000000 0.975587 -0.199074 0.092736
2510.00000000 13030.00000000 -1050.00000000 144 28 169 97.000000 1.000000 4.000000 1.000000 -60.708740 114.000000 201.000000 -0.585538 0.802730 0.112999
2480.00000000 13030.00000000 -1090.00000000 144 28 169 97.000000 1.000000 4.000000 1.000000 -60.708740 114.000000 201.000000 0.827733 -0.489185 -0.274876
2510.00000000 13040.00000000 -1160.00000000 144 28 169 97.000000 1.000000 4.000000 1.000000 -60.708740 114.000000 201.000000 -0.788451 0.591716 0.167981
2450.00000000 12980.00000000 -1090.00000000 144 28 169 97.000000 1.000000 4.000000 1.000000 -60.708740 114.000000 201.000000 0.958110 -0.216605 -0.187370
2490.00000000 13000.00000000 -1150.00000000 144 28 169 97.000000 1.000000 4.000000 1.000000 -60.708740 114.000000 201.000000 0.984858 -0.172722 -0.014870
2500.00000000 13000.00000000 -1180.00000000 144 28 169 97.000000 1.000000 4.000000 1.000000 -60.708740 114.000000 201.000000 0.830715 -0.461509 0.311323
2500.00000000 13000.00000000 -1180.00000000 144 28 169 97.000000 1.000000 4.000000 1.000000 -60.708740 114.000000 201.000000 0.830715 -0.461509 0.311323
2500.00000000 12940.00000000 -1120.00000000 144 28 169 97.000000 1.000000 4.000000 1.000000 -60.708740 114.000000 201.000000 0.955312 -0.207676 0.210356
2500.00000000 12950.00000000 -1190.00000000 144 28 169 97.000000 1.000000 4.000000 1.000000 -60.708740 114.000000 201.000000 0.945350 -0.325940 0.008742
2490.00000000 12940.00000000 -1180.00000000 144 28 169 97.000000 1.000000 4.000000 1.000000 -60.708740 114.000000 201.000000 0.917835 -0.162137 0.362340
2500.00000000 13100.00000000 -1230.00000000 144 28 169 97.000000 1.000000 4.000000 1.000000 -60.708740 114.000000 201.000000 0.701867 -0.545155 0.458464
2510.00000000 13050.00000000 -1230.00000000 144 28 169 97.000000 1.000000 4.000000 1.000000 -60.708740 114.000000 201.000000 0.835847 -0.503944 0.217716
2480.00000000 13020.00000000 -1230.00000000 144 28 169 97.000000 1.000000 4.000000 1.000000 -60.708740 114.000000 201.000000 0.760636 -0.631102 -0.152127
2510.00000000 13060.00000000 -1280.00000000 144 28 169 97.000000 1.000000 4.000000 1.000000 -60.708740 114.000000 201.000000 0.866786 -0.490660 -0.089082
2460.00000000 13050.00000000 -1310.00000000 144 28 169 97.000000 1.000000 4.000000 1.000000 -60.708740 114.000000 201.000000 0.740413 -0.408787 0.533557
2500.00000000 13060.00000000 -1360.00000000 144 28 169 97.000000 1.000000 4.000000 1.000000 -60.708740 114.000000 201.000000 0.871833 -0.448498 0.196866
2500.00000000 13070.00000000 -1360.00000000 144 28 169 97.000000 1.000000 4.000000 1.000000 -60.708740 114.000000 201.000000 0.944203 -0.325898 0.047661
2510.00000000 13070.00000000 -1340.00000000 144 28 169 97.000000 1.000000 4.000000 1.000000 -60.708740 114.000000 201.000000 0.967759 -0.248992 -0.038023
2510.00000000 13080.00000000 -1330.00000000 144 28 169 97.000000 1.000000 4.000000 1.000000 -60.708740 114.000000 201.000000 0.888705 -0.424781 0.172522
2500.00000000 13030.00000000 -1320.00000000 144 28 169 97.000000 1.000000 4.000000 1.000000 -60.708740 114.000000 201.000000 0.904381 -0.420038 -0.075251
2500.00000000 12950.00000000 -1200.00000000 144 28 169 97.000000 1.000000 4.000000 1.000000 -60.708740 114.000000 201.000000 0.972831 -0.202621 -0.112008
2500.00000000 12990.00000000 -1240.00000000 144 28 169 97.000000 1.000000 4.000000 1.000000 -60.708740 114.000000 201.000000 0.899586 -0.380538 -0.214326
2500.00000000 12960.00000000 -1270.00000000 144 28 169 97.000000 1.000000 4.000000 1.000000 -60.708740 114.000000 201.000000 0.878157 -0.173878 0.445654
2500.00000000 12980.00000000 -1230.00000000 144 28 169 97.000000 1.000000 4.000000 1.000000 -60.708740 114.000000 201.000000 0.978785 0.031955 0.202385
2490.00000000 12990.00000000 -1210.00000000 144 28 169 97.000000 1.000000 4.000000 1.000000 -60.708740 114.000000 201.000000 0.994763 -0.091637 0.045267
2490.00000000 12990.00000000 -1330.00000000 144 28 169 97.000000 1.000000 4.000000 1.000000 -60.708740 114.000000 201.000000 0.984880 -0.146837 0.091922
2490.00000000 13000.00000000 -1330.00000000 144 28 169 97.000000 1.000000 4.000000 1.000000 -60.708740 114.000000 201.000000 0.941326 -0.228746 -0.248155
2490.00000000 12990.00000000 -1310.00000000 144 28 169 97.000000 1.000000 4.000000 1.000000 -60.708740 114.000000 201.000000 0.924864 -0.347347 -0.154842
2500.00000000 12940.00000000 -1290.00000000 144 28 169 97.000000 1.000000 4.000000 1.000000 -60.708740 114.000000 201.000000 0.990839 0.131587 -0.030366
2470.00000000 12970.00000000 -1310.00000000 144 28 169 97.000000 1.000000 4.000000 1.000000 -60.708740 114.000000 201.000000 0.983294 -0.082842 -0.162081
2490.00000000 13000.00000000 -1330.00000000 144 28 169 97.000000 1.000000 4.000000 1.000000 -60.708740 114.000000 201.000000 0.941326 -0.228746 -0.248155
2510.00000000 12880.00000000 -1080.00000000 144 28 169 97.000000 1.000000 4.000000 1.000000 -60.708740 114.000000 201.000000 0.946528 0.085332 0.311133
2510.00000000 12930.00000000 -1150.00000000 144 28 169 97.000000 1.000000 4.000000 1.000000 -60.708740 114.000000 201.000000 0.997849 -0.065552 -0.001041
2510.00000000 12920.00000000 -1150.00000000 144 28 169 97.000000 1.000000 4.000000 1.000000 -60.708740 114.000000 201.000000 0.913188 -0.165648 0.372354
2480.00000000 12920.00000000 -1230.00000000 144 28 169 97.000000 1.000000 4.000000 1.000000 -60.708740 114.000000 201.000000 0.952050 0.026341 0.304807
2480.00000000 12920.00000000 -1220.00000000 144 28 169 97.000000 1.000000 4.000000 1.000000 -60.708740 114.000000 201.000000 0.977307 -0.148531 0.151027
2480.00000000 12890.00000000 -1330.00000000 144 28 169 97.000000 1.000000 4.000000 1.000000 -60.708740 114.000000 201.000000 0.981044 -0.153097 -0.118803
