//X Y Z R G B PointSourceId ScanDirectionFlag NumberOfReturns ReturnNumber GpsTime Intensity Classification Nx Ny Nz
-8390.00000000 -19590.00000000 130.00000000 200 247 32 0.000000 0.000000 0.000000 0.000000 -60.708740 0.000000 44.000000 -0.315627 -0.636110 0.704091
-8350.00000000 -19580.00000000 60.00000000 200 247 32 0.000000 0.000000 0.000000 0.000000 -60.708740 0.000000 44.000000 0.405467 0.680192 -0.610684
-8340.00000000 -19830.00000000 70.00000000 200 247 32 0.000000 0.000000 0.000000 0.000000 -60.708740 0.000000 234.000000 -0.477740 -0.378009 0.793016
-8280.00000000 -19860.00000000 0.00000000 200 247 32 0.000000 0.000000 0.000000 0.000000 -60.708740 0.000000 234.000000 0.498760 0.801522 -0.329851
-8270.00000000 -19880.00000000 50.00000000 200 247 32 0.000000 0.000000 0.000000 0.000000 -60.708740 0.000000 234.000000 -0.095512 -0.697972 0.709727
-8320.00000000 -19840.00000000 40.00000000 200 247 32 0.000000 0.000000 0.000000 0.000000 -60.708740 0.000000 234.000000 0.829742 0.462710 -0.312134
-8320.00000000 -19830.00000000 -10.00000000 200 247 32 0.000000 0.000000 0.000000 0.000000 -60.708740 0.000000 234.000000 0.771540 0.263491 -0.579049
-8330.00000000 -19830.00000000 -10.00000000 200 247 32 0.000000 0.000000 0.000000 0.000000 -60.708740 0.000000 234.000000 0.735696 0.510854 -0.444724
-8370.00000000 -19860.00000000 10.00000000 200 247 32 0.000000 0.000000 0.000000 0.000000 -60.708740 0.000000 234.000000 -0.523821 -0.352975 0.775255
-8560.00000000 -18870.00000000 500.00000000 200 247 32 0.000000 0.000000 0.000000 0.000000 -60.708740 0.000000 44.000000 0.432658 0.129088 0.892269
-8590.00000000 -18890.00000000 510.00000000 200 247 32 0.000000 0.000000 0.000000 0.000000 -60.708740 0.000000 44.000000 -0.071078 -0.382214 0.921336
-8480.00000000 -18880.00000000 460.00000000 200 247 32 0.000000 0.000000 0.000000 0.000000 -60.708740 0.000000 44.000000 0.550020 0.307692 0.776405
-8500.00000000 -18860.00000000 380.00000000 200 247 32 0.000000 0.000000 0.000000 0.000000 -60.708740 0.000000 44.000000 0.549930 -0.220280 0.805639
-8530.00000000 -18880.00000000 330.00000000 200 247 32 0.000000 0.000000 0.000000 0.000000 -60.708740 0.000000 44.000000 0.396226 0.054698 0.916522
-8630.00000000 -18870.00000000 500.00000000 200 247 32 0.000000 0.000000 0.000000 0.000000 -60.708740 0.000000 44.000000 0.046162 0.056897 0.997312
-8630.00000000 -18880.00000000 520.00000000 200 247 32 0.000000 0.000000 0.000000 0.000000 -60.708740 0.000000 44.000000 0.184891 -0.465926 0.865291
-8610.00000000 -18870.00000000 490.00000000 200 247 32 0.000000 0.000000 0.000000 0.000000 -60.708740 0.000000 44.000000 0.601086 -0.006877 0.799155
-8640.00000000 -18890.00000000 520.00000000 200 247 32 0.000000 0.000000 0.000000 0.000000 -60.708740 0.000000 44.000000 -0.022442 -0.426389 0.904262
-8650.00000000 -18890.00000000 520.00000000 200 247 32 0.000000 0.000000 0.000000 0.000000 -60.708740 0.000000 44.000000 -0.045888 -0.048022 0.997792
-8710.00000000 -18820.00000000 500.00000000 200 247 32 0.000000 0.000000 0.000000 0.000000 -60.708740 0.000000 44.000000 -0.066159 0.046636 0.996719
-8710.00000000 -18890.00000000 500.00000000 200 247 32 0.000000 0.000000 0.000000 0.000000 -60.708740 0.000000 44.000000 0.015464 0.042269 0.998987
-8760.00000000 -18850.00000000 500.00000000 200 247 32 0.000000 0.000000 0.000000 0.000000 -60.708740 0.000000 44.000000 0.133527 0.538508 -0.831973
-8760.00000000 -18850.00000000 500.00000000 200 247 32 0.000000 0.000000 0.000000 0.000000 -60.708740 0.000000 44.000000 0.133527 0.538508 -0.831973
-8750.00000000 -18890.00000000 490.00000000 200 247 32 0.000000 0.000000 0.000000 0.000000 -60.708740 0.000000 44.000000 -0.131027 -0.023518 0.991100
-8750.00000000 -18860.00000000 490.00000000 200 247 32 0.000000 0.000000 0.000000 0.000000 -60.708740 0.000000 44.000000 -0.251602 -0.324319 0.911874
-8750.00000000 -18860.00000000 490.00000000 200 247 32 0.000000 0.000000 0.000000 0.000000 -60.708740 0.000000 44.000000 -0.251602 -0.324319 0.911874
-8750.00000000 -18880.00000000 490.00000000 200 247 32 0.000000 0.000000 0.000000 0.000000 -60.708740 0.000000 44.000000 -0.173707 -0.285864 0.942395
-8470.00000000 -18930.00000000 410.00000000 200 247 32 0.000000 0.000000 0.000000 0.000000 -60.708740 0.000000 44.000000 0.470048 -0.106506 0.876192
-8450.00000000 -18940.00000000 430.00000000 200 247 32 0.000000 0.000000 0.000000 0.000000 -60.708740 0.000000 44.000000 0.278718 0.222695 0.934197
-8430.00000000 -18910.00000000 410.00000000 200 247 32 0.000000 0.000000 0.000000 0.000000 -60.708740 0.000000 44.000000 0.765988 -0.049739 0.640928
-8470.00000000 -18930.00000000 410.00000000 200 247 32 0.000000 0.000000 0.000000 0.000000 -60.708740 0.000000 44.000000 0.470048 -0.106506 0.876192
-8440.00000000 -18940.00000000 430.00000000 200 247 32 0.000000 0.000000 0.000000 0.000000 -60.708740 0.000000 44.000000 0.766933 -0.085862 0.635957
-8430.00000000 -18920.00000000 410.00000000 200 247 32 0.000000 0.000000 0.000000 0.000000 -60.708740 0.000000 44.000000 0.663739 0.380456 0.643975
-8430.00000000 -18970.00000000 410.00000000 200 247 32 0.000000 0.000000 0.000000 0.000000 -60.708740 0.000000 44.000000 0.122176 -0.032505 0.991976
-8430.00000000 -18960.00000000 420.00000000 200 247 32 0.000000 0.000000 0.000000 0.000000 -60.708740 0.000000 44.000000 0.707727 -0.223411 0.670232
-8440.00000000 -18980.00000000 430.00000000 200 247 32 0.000000 0.000000 0.000000 0.000000 -60.708740 0.000000 44.000000 0.453013 -0.108667 0.884857
-8510.00000000 -18950.00000000 410.00000000 200 247 32 0.000000 0.000000 0.000000 0.000000 -60.708740 0.000000 44.000000 0.301485 -0.470191 0.829474
-8460.00000000 -18940.00000000 400.00000000 200 247 32 0.000000 0.000000 0.000000 0.000000 -60.708740 0.000000 44.000000 0.544174 -0.111737 0.831498
-8430.00000000 -18900.00000000 360.00000000 200 247 32 0.000000 0.000000 0.000000 0.000000 -60.708740 0.000000 44.000000 0.632980 -0.052630 0.772377
-8440.00000000 -18900.00000000 330.00000000 200 247 32 0.000000 0.000000 0.000000 0.000000 -60.708740 0.000000 44.000000 0.454172 0.493809 0.741539
-8450.00000000 -18900.00000000 330.00000000 200 247 32 0.000000 0.000000 0.000000 0.000000 -60.708740 0.000000 44.000000 0.807250 0.037774 0.588999
-8450.00000000 -18930.00000000 340.00000000 200 247 32 0.000000 0.000000 0.000000 0.000000 -60.708740 0.000000 44.000000 0.225063 0.225063 0.947994
-8450.00000000 -18910.00000000 340.00000000 200 247 32 0.000000 0.000000 0.000000 0.000000 -60.708740 0.000000 44.000000 0.857044 0.089542 0.507404
-8430.00000000 -18900.00000000 320.00000000 200 247 32 0.000000 0.000000 0.000000 0.000000 -60.708740 0.000000 44.000000 0.685845 0.370060 0.626635
-8450.00000000 -18980.00000000 350.00000000 200 247 32 0.000000 0.000000 0.000000 0.000000 -60.708740 0.000000 44.000000 0.770767 0.174829 0.612661
-8450.00000000 -18960.00000000 340.00000000 200 247 32 0.000000 0.000000 0.000000 0.000000 -60.708740 0.000000 44.000000 0.687566 -0.251317 0.681244
-8430.00000000 -18950.00000000 330.00000000 200 247 32 0.000000 0.000000 0.000000 0.000000 -60.708740 0.000000 44.000000 0.471455 0.153260 0.868471
-8440.00000000 -18950.00000000 340.00000000 200 247 32 0.000000 0.000000 0.000000 0.000000 -60.708740 0.000000 44.000000 0.392885 -0.238696 0.888068
-8510.00000000 -18910.00000000 400.00000000 200 247 32 0.000000 0.000000 0.000000 0.000000 -60.708740 0.000000 44.000000 0.587462 -0.112804 0.801351
-8500.00000000 -18960.00000000 390.00000000 200 247 32 0.000000 0.000000 0.000000 0.000000 -60.708740 0.000000 44.000000 0.448691 -0.426013 0.785614
-8500.00000000 -18960.00000000 400.00000000 200 247 32 0.000000 0.000000 0.000000 0.000000 -60.708740 0.000000 44.000000 0.442892 -0.345172 0.827468
-8450.00000000 -19020.00000000 420.00000000 200 247 32 0.000000 0.000000 0.000000 0.000000 -60.708740 0.000000 44.000000 -0.011813 -0.093434 0.995555
-8460.00000000 -19050.00000000 430.00000000 200 247 32 0.000000 0.000000 0.000000 0.000000 -60.708740 0.000000 44.000000 0.670082 0.009711 0.742223
-8470.00000000 -19050.00000000 430.00000000 200 247 32 0.000000 0.000000 0.000000 0.000000 -60.708740 0.000000 44.000000 0.344229 0.019053 0.938692
-8510.00000000 -18990.00000000 450.00000000 200 247 32 0.000000 0.000000 0.000000 0.000000 -60.708740 0.000000 44.000000 -0.021121 -0.294457 0.955431
-8490.00000000 -19020.00000000 430.00000000 200 247 32 0.000000 0.000000 0.000000 0.000000 -60.708740 0.000000 44.000000 0.489354 -0.028467 0.871620
-8480.00000000 -19050.00000000 430.00000000 200 247 32 0.000000 0.000000 0.000000 0.000000 -60.708740 0.000000 44.000000 -0.051400 -0.129071 0.990302
-8460.00000000 -19020.00000000 390.00000000 200 247 32 0.000000 0.000000 0.000000 0.000000 -60.708740 0.000000 44.000000 0.298120 -0.023700 0.954234
-8430.00000000 -19000.00000000 360.00000000 200 247 32 0.000000 0.000000 0.000000 0.000000 -60.708740 0.000000 44.000000 0.403037 -0.233494 0.884897
-8460.00000000 -19010.00000000 340.00000000 200 247 32 0.000000 0.000000 0.000000 0.000000 -60.708740 0.000000 44.000000 0.163520 -0.114341 0.979891
-8430.00000000 -19060.00000000 350.00000000 200 247 32 0.000000 0.000000 0.000000 0.000000 -60.708740 0.000000 44.000000 0.555620 0.009556 0.831382
-8470.00000000 -19050.00000000 340.00000000 200 247 32 0.000000 0.000000 0.000000 0.000000 -60.708740 0.000000 44.000000 0.090977 0.210617 0.973326
-8470.00000000 -19050.00000000 340.00000000 200 247 32 0.000000 0.000000 0.000000 0.000000 -60.708740 0.000000 44.000000 0.090977 0.210617 0.973326
-8460.00000000 -19050.00000000 330.00000000 200 247 32 0.000000 0.000000 0.000000 0.000000 -60.708740 0.000000 44.000000 0.442817 -0.243323 0.862964
-8500.00000000 -19020.00000000 400.00000000 200 247 32 0.000000 0.000000 0.000000 0.000000 -60.708740 0.000000 44.000000 0.382580 -0.366964 0.847921
-8500.00000000 -18990.00000000 350.00000000 200 247 32 0.000000 0.000000 0.000000 0.000000 -60.708740 0.000000 44.000000 0.461019 0.188262 0.867190
-8500.00000000 -19030.00000000 400.00000000 200 247 32 0.000000 0.000000 0.000000 0.000000 -60.708740 0.000000 44.000000 0.449086 -0.449086 0.772427
-8530.00000000 -18940.00000000 410.00000000 200 247 32 0.000000 0.000000 0.000000 0.000000 -60.708740 0.000000 44.000000 0.211794 -0.152024 0.965418
-8520.00000000 -18990.00000000 450.00000000 200 247 32 0.000000 0.000000 0.000000 0.000000 -60.708740 0.000000 44.000000 0.252634 -0.337332 0.906853
-8540.00000000 -18990.00000000 420.00000000 200 247 32 0.000000 0.000000 0.000000 0.000000 -60.708740 0.000000 44.000000 0.463251 0.067759 0.883633
-8540.00000000 -19030.00000000 420.00000000 200 247 32 0.000000 0.000000 0.000000 0.000000 -60.708740 0.000000 44.000000 0.343476 0.142081 0.928352
-8540.00000000 -19050.00000000 420.00000000 200 247 32 0.000000 0.000000 0.000000 0.000000 -60.708740 0.000000 44.000000 0.001067 -0.097074 0.995277
-8560.00000000 -19020.00000000 450.00000000 200 247 32 0.000000 0.000000 0.000000 0.000000 -60.708740 0.000000 44.000000 0.325212 -0.016323 0.945500
-8560.00000000 -19020.00000000 450.00000000 200 247 32 0.000000 0.000000 0.000000 0.000000 -60.708740 0.000000 44.000000 0.325212 -0.016323 0.945500
-8570.00000000 -19060.00000000 460.00000000 200 247 32 0.000000 0.000000 0.000000 0.000000 -60.708740 0.000000 44.000000 -0.012461 -0.161998 0.986712
-8570.00000000 -19060.00000000 460.00000000 200 247 32 0.000000 0.000000 0.000000 0.000000 -60.708740 0.000000 44.000000 -0.012461 -0.161998 0.986712
-8590.00000000 -19030.00000000 450.00000000 200 247 32 0.000000 0.000000 0.000000 0.000000 -60.708740 0.000000 44.000000 0.455661 -0.317867 0.831465
-8570.00000000 -19030.00000000 430.00000000 200 247 32 0.000000 0.000000 0.000000 0.000000 -60.708740 0.000000 44.000000 0.004142 -0.639228 0.769006
-8590.00000000 -19060.00000000 440.00000000 200 247 32 0.000000 0.000000 0.000000 0.000000 -60.708740 0.000000 44.000000 0.199215 0.001152 0.979955
-8530.00000000 -19020.00000000 360.00000000 200 247 32 0.000000 0.000000 0.000000 0.000000 -60.708740 0.000000 44.000000 0.599292 -0.012399 0.800434
-8540.00000000 -19020.00000000 320.00000000 200 247 32 0.000000 0.000000 0.000000 0.000000 -60.708740 0.000000 44.000000 0.341465 -0.058873 0.938049
-8520.00000000 -19060.00000000 360.00000000 200 247 32 0.000000 0.000000 0.000000 0.000000 -60.708740 0.000000 44.000000 0.283340 -0.226954 0.931778
-8520.00000000 -19060.00000000 360.00000000 200 247 32 0.000000 0.000000 0.000000 0.000000 -60.708740 0.000000 44.000000 0.283340 -0.226954 0.931778
-8530.00000000 -19040.00000000 390.00000000 200 247 32 0.000000 0.000000 0.000000 0.000000 -60.708740 0.000000 44.000000 0.243863 -0.548304 0.799933
-8550.00000000 -19050.00000000 400.00000000 200 247 32 0.000000 0.000000 0.000000 0.000000 -60.708740 0.000000 44.000000 -0.083805 -0.416277 0.905368
-8560.00000000 -18990.00000000 360.00000000 200 247 32 0.000000 0.000000 0.000000 0.000000 -60.708740 0.000000 44.000000 0.233369 -0.214263 0.948488
-8590.00000000 -19050.00000000 400.00000000 200 247 32 0.000000 0.000000 0.000000 0.000000 -60.708740 0.000000 44.000000 0.020066 -0.461513 0.886907
-8500.00000000 -19070.00000000 360.00000000 200 247 32 0.000000 0.000000 0.000000 0.000000 -60.708740 0.000000 44.000000 -0.159828 -0.152277 0.975329
-8600.00000000 -18900.00000000 510.00000000 200 247 32 0.000000 0.000000 0.000000 0.000000 -60.708740 0.000000 44.000000 0.219943 0.147062 0.964364
-8610.00000000 -18920.00000000 510.00000000 200 247 32 0.000000 0.000000 0.000000 0.000000 -60.708740 0.000000 44.000000 0.149349 -0.319250 0.935828
-8660.00000000 -18930.00000000 490.00000000 200 247 32 0.000000 0.000000 0.000000 0.000000 -60.708740 0.000000 44.000000 -0.129915 -0.443995 0.886561
-8650.00000000 -18930.00000000 490.00000000 200 247 32 0.000000 0.000000 0.000000 0.000000 -60.708740 0.000000 44.000000 0.122895 -0.605590 0.786230
-8640.00000000 -18940.00000000 500.00000000 200 247 32 0.000000 0.000000 0.000000 0.000000 -60.708740 0.000000 44.000000 0.395688 0.024812 0.918050
-8720.00000000 -18930.00000000 510.00000000 200 247 32 0.000000 0.000000 0.000000 0.000000 -60.708740 0.000000 44.000000 -0.120407 -0.437716 0.891014
-8650.00000000 -18940.00000000 470.00000000 200 247 32 0.000000 0.000000 0.000000 0.000000 -60.708740 0.000000 44.000000 -0.062161 -0.471040 0.879919
-8610.00000000 -19050.00000000 450.00000000 200 247 32 0.000000 0.000000 0.000000 0.000000 -60.708740 0.000000 44.000000 -0.082721 -0.645808 0.759006
-8600.00000000 -19060.00000000 450.00000000 200 247 32 0.000000 0.000000 0.000000 0.000000 -60.708740 0.000000 44.000000 -0.120322 -0.666972 0.735303
-8630.00000000 -19040.00000000 440.00000000 200 247 32 0.000000 0.000000 0.000000 0.000000 -60.708740 0.000000 44.000000 0.206148 -0.661842 0.720741
-8680.00000000 -19060.00000000 450.00000000 200 247 32 0.000000 0.000000 0.000000 0.000000 -60.708740 0.000000 44.000000 -0.099541 -0.444432 0.890265
-8640.00000000 -19030.00000000 450.00000000 200 247 32 0.000000 0.000000 0.000000 0.000000 -60.708740 0.000000 44.000000 0.182873 -0.281871 0.941863
-8730.00000000 -18930.00000000 480.00000000 200 247 32 0.000000 0.000000 0.000000 0.000000 -60.708740 0.000000 44.000000 0.078466 -0.175040 0.981430
-8690.00000000 -18920.00000000 480.00000000 200 247 32 0.000000 0.000000 0.000000 0.000000 -60.708740 0.000000 44.000000 0.282030 -0.326328 0.902202
-8710.00000000 -19010.00000000 470.00000000 200 247 32 0.000000 0.000000 0.000000 0.000000 -60.708740 0.000000 44.000000 -0.456092 -0.254740 0.852694
-8700.00000000 -19060.00000000 440.00000000 200 247 32 0.000000 0.000000 0.000000 0.000000 -60.708740 0.000000 44.000000 0.158727 -0.358190 0.920057
-8460.00000000 -18940.00000000 280.00000000 200 247 32 0.000000 0.000000 0.000000 0.000000 -60.708740 0.000000 44.000000 0.523303 0.456852 0.719334
-8460.00000000 -18960.00000000 300.00000000 200 247 32 0.000000 0.000000 0.000000 0.000000 -60.708740 0.000000 44.000000 0.843519 0.089918 0.529519
-8450.00000000 -18960.00000000 280.00000000 200 247 32 0.000000 0.000000 0.000000 0.000000 -60.708740 0.000000 44.000000 0.728951 -0.240885 0.640784
-8480.00000000 -18940.00000000 300.00000000 200 247 32 0.000000 0.000000 0.000000 0.000000 -60.708740 0.000000 44.000000 0.772829 0.006913 0.634577
-8480.00000000 -18950.00000000 310.00000000 200 247 32 0.000000 0.000000 0.000000 0.000000 -60.708740 0.000000 44.000000 0.831973 0.133527 0.538508
-8430.00000000 -18920.00000000 220.00000000 200 247 32 0.000000 0.000000 0.000000 0.000000 -60.708740 0.000000 44.000000 0.597343 0.164836 0.784863
-8430.00000000 -18910.00000000 220.00000000 200 247 32 0.000000 0.000000 0.000000 0.000000 -60.708740 0.000000 44.000000 0.607402 0.560028 0.563411
-8430.00000000 -18910.00000000 220.00000000 200 247 32 0.000000 0.000000 0.000000 0.000000 -60.708740 0.000000 44.000000 0.607402 0.560028 0.563411
-8430.00000000 -18910.00000000 220.00000000 200 247 32 0.000000 0.000000 0.000000 0.000000 -60.708740 0.000000 44.000000 0.607402 0.560028 0.563411
-8430.00000000 -18910.00000000 210.00000000 200 247 32 0.000000 0.000000 0.000000 0.000000 -60.708740 0.000000 44.000000 0.683780 0.399009 0.610931
-8440.00000000 -18900.00000000 220.00000000 200 247 32 0.000000 0.000000 0.000000 0.000000 -60.708740 0.000000 44.000000 0.745504 0.376830 0.549748
-8440.00000000 -18930.00000000 170.00000000 200 247 32 0.000000 0.000000 0.000000 0.000000 -60.708740 0.000000 44.000000 0.652124 0.601832 0.461013
-8450.00000000 -18950.00000000 180.00000000 200 247 32 0.000000 0.000000 0.000000 0.000000 -60.708740 0.000000 44.000000 0.946027 0.192482 0.260738
-8440.00000000 -18970.00000000 180.00000000 200 247 32 0.000000 0.000000 0.000000 0.000000 -60.708740 0.000000 44.000000 0.793512 -0.061259 0.605463
-8440.00000000 -18960.00000000 180.00000000 200 247 32 0.000000 0.000000 0.000000 0.000000 -60.708740 0.000000 44.000000 0.754059 0.191970 0.628126
-8450.00000000 -19000.00000000 250.00000000 200 247 32 0.000000 0.000000 0.000000 0.000000 -60.708740 0.000000 44.000000 0.831211 0.168630 0.529766
-8450.00000000 -18990.00000000 250.00000000 200 247 32 0.000000 0.000000 0.000000 0.000000 -60.708740 0.000000 44.000000 0.800910 0.064244 0.595329
-8430.00000000 -19040.00000000 280.00000000 200 247 32 0.000000 0.000000 0.000000 0.000000 -60.708740 0.000000 44.000000 0.477873 0.229075 0.848034
-8480.00000000 -19000.00000000 270.00000000 200 247 32 0.000000 0.000000 0.000000 0.000000 -60.708740 0.000000 44.000000 0.254242 0.104536 0.961474
-8500.00000000 -19020.00000000 260.00000000 200 247 32 0.000000 0.000000 0.000000 0.000000 -60.708740 0.000000 44.000000 0.443546 -0.001308 0.896251
-8490.00000000 -19050.00000000 280.00000000 200 247 32 0.000000 0.000000 0.000000 0.000000 -60.708740 0.000000 44.000000 0.453871 -0.304140 0.837556
-8490.00000000 -19050.00000000 280.00000000 200 247 32 0.000000 0.000000 0.000000 0.000000 -60.708740 0.000000 44.000000 0.453871 -0.304140 0.837556
-8480.00000000 -19040.00000000 310.00000000 200 247 32 0.000000 0.000000 0.000000 0.000000 -60.708740 0.000000 44.000000 0.537892 0.012256 0.842925
-8500.00000000 -19030.00000000 260.00000000 200 247 32 0.000000 0.000000 0.000000 0.000000 -60.708740 0.000000 44.000000 0.070198 -0.037799 0.996817
-8450.00000000 -19030.00000000 210.00000000 200 247 32 0.000000 0.000000 0.000000 0.000000 -60.708740 0.000000 44.000000 0.778821 0.064543 0.623917
-8430.00000000 -19050.00000000 150.00000000 200 247 32 0.000000 0.000000 0.000000 0.000000 -60.708740 0.000000 44.000000 0.939752 0.206220 0.272653
-8430.00000000 -19060.00000000 150.00000000 200 247 32 0.000000 0.000000 0.000000 0.000000 -60.708740 0.000000 44.000000 0.772302 0.266910 0.576462
-8450.00000000 -19030.00000000 180.00000000 200 247 32 0.000000 0.000000 0.000000 0.000000 -60.708740 0.000000 44.000000 0.478764 0.039556 0.877052
-8440.00000000 -19040.00000000 150.00000000 200 247 32 0.000000 0.000000 0.000000 0.000000 -60.708740 0.000000 44.000000 0.776106 -0.035214 0.629618
-8430.00000000 -19060.00000000 160.00000000 200 247 32 0.000000 0.000000 0.000000 0.000000 -60.708740 0.000000 44.000000 0.654312 0.492837 0.573574
-8430.00000000 -19030.00000000 190.00000000 200 247 32 0.000000 0.000000 0.000000 0.000000 -60.708740 0.000000 44.000000 0.795796 0.447131 0.408390
-8430.00000000 -19050.00000000 150.00000000 200 247 32 0.000000 0.000000 0.000000 0.000000 -60.708740 0.000000 44.000000 0.939752 0.206220 0.272653
-8500.00000000 -19040.00000000 170.00000000 200 247 32 0.000000 0.000000 0.000000 0.000000 -60.708740 0.000000 44.000000 0.446493 0.436751 0.780956
-8550.00000000 -19040.00000000 310.00000000 200 247 32 0.000000 0.000000 0.000000 0.000000 -60.708740 0.000000 44.000000 -0.057484 -0.539793 0.839833
-8520.00000000 -19050.00000000 160.00000000 200 247 32 0.000000 0.000000 0.000000 0.000000 -60.708740 0.000000 44.000000 0.334969 -0.236363 0.912101
-8470.00000000 -18970.00000000 80.00000000 200 247 32 0.000000 0.000000 0.000000 0.000000 -60.708740 0.000000 44.000000 0.592636 0.802139 0.073183
-8480.00000000 -18970.00000000 80.00000000 200 247 32 0.000000 0.000000 0.000000 0.000000 -60.708740 0.000000 44.000000 0.799303 0.599125 0.046520
-8490.00000000 -18960.00000000 60.00000000 200 247 32 0.000000 0.000000 0.000000 0.000000 -60.708740 0.000000 44.000000 0.837361 0.539632 -0.087315
-8490.00000000 -18960.00000000 0.00000000 200 247 32 0.000000 0.000000 0.000000 0.000000 -60.708740 0.000000 44.000000 0.676736 0.525604 -0.515528
-8480.00000000 -18970.00000000 10.00000000 200 247 32 0.000000 0.000000 0.000000 0.000000 -60.708740 0.000000 44.000000 0.258340 0.686266 -0.679926
-8430.00000000 -19000.00000000 120.00000000 200 247 32 0.000000 0.000000 0.000000 0.000000 -60.708740 0.000000 44.000000 0.759509 0.641527 0.107658
-8450.00000000 -19000.00000000 90.00000000 200 247 32 0.000000 0.000000 0.000000 0.000000 -60.708740 0.000000 44.000000 0.800612 0.574450 -0.170375
-8450.00000000 -19040.00000000 110.00000000 200 247 32 0.000000 0.000000 0.000000 0.000000 -60.708740 0.000000 44.000000 0.849530 0.485660 0.205992
-8470.00000000 -19040.00000000 130.00000000 200 247 32 0.000000 0.000000 0.000000 0.000000 -60.708740 0.000000 44.000000 0.877979 0.322987 0.353315
-8450.00000000 -19030.00000000 90.00000000 200 247 32 0.000000 0.000000 0.000000 0.000000 -60.708740 0.000000 44.000000 0.958069 0.116011 0.262003
-8480.00000000 -19030.00000000 130.00000000 200 247 32 0.000000 0.000000 0.000000 0.000000 -60.708740 0.000000 44.000000 0.796484 0.177502 0.578020
-8450.00000000 -19030.00000000 20.00000000 200 247 32 0.000000 0.000000 0.000000 0.000000 -60.708740 0.000000 44.000000 0.290931 0.767868 -0.570734
-8490.00000000 -18990.00000000 60.00000000 200 247 32 0.000000 0.000000 0.000000 0.000000 -60.708740 0.000000 44.000000 0.670465 0.373945 -0.640813
-8430.00000000 -19130.00000000 280.00000000 200 247 32 0.000000 0.000000 0.000000 0.000000 -60.708740 0.000000 44.000000 0.530574 0.242857 0.812103
-8470.00000000 -19140.00000000 240.00000000 200 247 32 0.000000 0.000000 0.000000 0.000000 -60.708740 0.000000 44.000000 0.302673 0.021175 0.952859
-8500.00000000 -19110.00000000 270.00000000 200 247 32 0.000000 0.000000 0.000000 0.000000 -60.708740 0.000000 44.000000 -0.205264 -0.388692 0.898212
-8510.00000000 -19120.00000000 240.00000000 200 247 32 0.000000 0.000000 0.000000 0.000000 -60.708740 0.000000 44.000000 -0.140811 -0.321268 0.936461
-8490.00000000 -19120.00000000 270.00000000 200 247 32 0.000000 0.000000 0.000000 0.000000 -60.708740 0.000000 44.000000 -0.122433 -0.485410 0.865672
-8510.00000000 -19120.00000000 240.00000000 200 247 32 0.000000 0.000000 0.000000 0.000000 -60.708740 0.000000 44.000000 -0.140811 -0.321268 0.936461
-8440.00000000 -19070.00000000 210.00000000 200 247 32 0.000000 0.000000 0.000000 0.000000 -60.708740 0.000000 44.000000 0.323076 0.308188 0.894786
-8460.00000000 -19070.00000000 220.00000000 200 247 32 0.000000 0.000000 0.000000 0.000000 -60.708740 0.000000 44.000000 0.281550 0.299055 0.911754
-8440.00000000 -19080.00000000 210.00000000 200 247 32 0.000000 0.000000 0.000000 0.000000 -60.708740 0.000000 44.000000 0.526613 -0.278240 0.803281
-8450.00000000 -19080.00000000 160.00000000 200 247 32 0.000000 0.000000 0.000000 0.000000 -60.708740 0.000000 44.000000 0.703840 0.329976 0.629067
-8460.00000000 -19100.00000000 190.00000000 200 247 32 0.000000 0.000000 0.000000 0.000000 -60.708740 0.000000 44.000000 0.650751 -0.258084 0.714084
-8450.00000000 -19130.00000000 230.00000000 200 247 32 0.000000 0.000000 0.000000 0.000000 -60.708740 0.000000 44.000000 0.528287 0.182116 0.829305
-8450.00000000 -19130.00000000 230.00000000 200 247 32 0.000000 0.000000 0.000000 0.000000 -60.708740 0.000000 44.000000 0.528287 0.182116 0.829305
-8460.00000000 -19150.00000000 210.00000000 200 247 32 0.000000 0.000000 0.000000 0.000000 -60.708740 0.000000 44.000000 0.132658 -0.256121 0.957499
-8470.00000000 -19150.00000000 210.00000000 200 247 32 0.000000 0.000000 0.000000 0.000000 -60.708740 0.000000 44.000000 -0.124583 -0.398944 0.908473
-8430.00000000 -19160.00000000 270.00000000 200 247 32 0.000000 0.000000 0.000000 0.000000 -60.708740 0.000000 44.000000 0.553013 -0.315779 0.771013
-8490.00000000 -19170.00000000 240.00000000 200 247 32 0.000000 0.000000 0.000000 0.000000 -60.708740 0.000000 44.000000 -0.228281 -0.425230 0.875824
-8510.00000000 -19210.00000000 230.00000000 200 247 32 0.000000 0.000000 0.000000 0.000000 -60.708740 0.000000 44.000000 -0.300985 -0.084693 0.949861
-8550.00000000 -19070.00000000 270.00000000 200 247 32 0.000000 0.000000 0.000000 0.000000 -60.708740 0.000000 44.000000 0.113182 -0.485682 0.866777
-8470.00000000 -19070.00000000 120.00000000 200 247 32 0.000000 0.000000 0.000000 0.000000 -60.708740 0.000000 44.000000 0.859852 0.328812 0.390561
-8460.00000000 -19080.00000000 120.00000000 200 247 32 0.000000 0.000000 0.000000 0.000000 -60.708740 0.000000 44.000000 0.473255 0.546836 0.690652
-8440.00000000 -19070.00000000 130.00000000 200 247 32 0.000000 0.000000 0.000000 0.000000 -60.708740 0.000000 44.000000 0.801779 0.422581 0.422581
-8510.00000000 -19100.00000000 140.00000000 200 247 32 0.000000 0.000000 0.000000 0.000000 -60.708740 0.000000 44.000000 0.009594 -0.582507 0.812769
-8490.00000000 -19070.00000000 130.00000000 200 247 32 0.000000 0.000000 0.000000 0.000000 -60.708740 0.000000 44.000000 0.432549 0.323241 0.841675
-8510.00000000 -19100.00000000 140.00000000 200 247 32 0.000000 0.000000 0.000000 0.000000 -60.708740 0.000000 44.000000 0.009594 -0.582507 0.812769
-8480.00000000 -19140.00000000 130.00000000 200 247 32 0.000000 0.000000 0.000000 0.000000 -60.708740 0.000000 44.000000 0.358184 -0.024392 0.933332
-8430.00000000 -19120.00000000 -10.00000000 200 247 32 0.000000 0.000000 0.000000 0.000000 -60.708740 0.000000 44.000000 -0.347196 -0.461343 0.816466
-8800.00000000 -18820.00000000 510.00000000 200 247 32 0.000000 0.000000 0.000000 0.000000 -60.708740 0.000000 44.000000 0.113305 -0.489078 0.864850
-8770.00000000 -18830.00000000 500.00000000 200 247 32 0.000000 0.000000 0.000000 0.000000 -60.708740 0.000000 44.000000 0.117436 0.673401 -0.729890
-8780.00000000 -18820.00000000 510.00000000 200 247 32 0.000000 0.000000 0.000000 0.000000 -60.708740 0.000000 44.000000 -0.268645 -0.420422 0.866646
-8800.00000000 -18840.00000000 490.00000000 200 247 32 0.000000 0.000000 0.000000 0.000000 -60.708740 0.000000 44.000000 0.025955 -0.141058 0.989661
-8770.00000000 -18820.00000000 520.00000000 200 247 32 0.000000 0.000000 0.000000 0.000000 -60.708740 0.000000 44.000000 -0.213517 -0.443458 0.870492
-8780.00000000 -18820.00000000 510.00000000 200 247 32 0.000000 0.000000 0.000000 0.000000 -60.708740 0.000000 44.000000 -0.268645 -0.420422 0.866646
-8790.00000000 -18840.00000000 510.00000000 200 247 32 0.000000 0.000000 0.000000 0.000000 -60.708740 0.000000 44.000000 -0.351144 -0.133572 0.926745
-8800.00000000 -18820.00000000 500.00000000 200 247 32 0.000000 0.000000 0.000000 0.000000 -60.708740 0.000000 44.000000 -0.362902 -0.511288 0.779029
-8800.00000000 -18880.00000000 490.00000000 200 247 32 0.000000 0.000000 0.000000 0.000000 -60.708740 0.000000 44.000000 -0.225072 -0.203509 0.952852
-8820.00000000 -18850.00000000 490.00000000 200 247 32 0.000000 0.000000 0.000000 0.000000 -60.708740 0.000000 44.000000 0.066307 -0.186867 0.980145
-8810.00000000 -18820.00000000 520.00000000 200 247 32 0.000000 0.000000 0.000000 0.000000 -60.708740 0.000000 44.000000 0.288696 -0.223915 0.930869
-8840.00000000 -18850.00000000 490.00000000 200 247 32 0.000000 0.000000 0.000000 0.000000 -60.708740 0.000000 44.000000 -0.297576 -0.635364 0.712573
-8850.00000000 -18840.00000000 490.00000000 200 247 32 0.000000 0.000000 0.000000 0.000000 -60.708740 0.000000 44.000000 0.226876 0.671241 -0.705664
-8770.00000000 -18860.00000000 470.00000000 200 247 32 0.000000 0.000000 0.000000 0.000000 -60.708740 0.000000 44.000000 -0.191535 -0.306176 0.932508
-8830.00000000 -18820.00000000 480.00000000 200 247 32 0.000000 0.000000 0.000000 0.000000 -60.708740 0.000000 44.000000 -0.206014 -0.198040 0.958300
-8840.00000000 -18850.00000000 480.00000000 200 247 32 0.000000 0.000000 0.000000 0.000000 -60.708740 0.000000 44.000000 -0.224631 -0.580942 0.782335
-8770.00000000 -18910.00000000 500.00000000 200 247 32 0.000000 0.000000 0.000000 0.000000 -60.708740 0.000000 44.000000 -0.173584 -0.394508 0.902348
-8440.00000000 -19620.00000000 120.00000000 200 247 32 0.000000 0.000000 0.000000 0.000000 -60.708740 0.000000 44.000000 -0.504909 -0.455246 0.733360
-8480.00000000 -19680.00000000 80.00000000 200 247 32 0.000000 0.000000 0.000000 0.000000 -60.708740 0.000000 44.000000 0.702062 0.562646 -0.436507
-8490.00000000 -19680.00000000 20.00000000 200 247 32 0.000000 0.000000 0.000000 0.000000 -60.708740 0.000000 44.000000 0.859871 0.401478 -0.315337
-8510.00000000 -19670.00000000 10.00000000 200 247 32 0.000000 0.000000 0.000000 0.000000 -60.708740 0.000000 44.000000 0.703654 0.688324 -0.176297
-8490.00000000 -19680.00000000 20.00000000 200 247 32 0.000000 0.000000 0.000000 0.000000 -60.708740 0.000000 44.000000 0.859871 0.401478 -0.315337
-8510.00000000 -19670.00000000 -10.00000000 200 247 32 0.000000 0.000000 0.000000 0.000000 -60.708740 0.000000 44.000000 0.655928 0.675460 -0.336916
-8520.00000000 -19640.00000000 90.00000000 200 247 32 0.000000 0.000000 0.000000 0.000000 -60.708740 0.000000 44.000000 0.907521 0.375377 -0.188408
-8520.00000000 -19650.00000000 90.00000000 200 247 32 0.000000 0.000000 0.000000 0.000000 -60.708740 0.000000 44.000000 0.449393 0.870607 -0.200225
-8550.00000000 -19630.00000000 40.00000000 200 247 32 0.000000 0.000000 0.000000 0.000000 -60.708740 0.000000 44.000000 0.840262 0.394216 -0.372228
-8550.00000000 -19630.00000000 40.00000000 200 247 32 0.000000 0.000000 0.000000 0.000000 -60.708740 0.000000 44.000000 0.840262 0.394216 -0.372228
-8540.00000000 -19640.00000000 0.00000000 200 247 32 0.000000 0.000000 0.000000 0.000000 -60.708740 0.000000 44.000000 0.788572 0.609810 0.079290
-8530.00000000 -19650.00000000 10.00000000 200 247 32 0.000000 0.000000 0.000000 0.000000 -60.708740 0.000000 44.000000 0.860128 0.509555 -0.023100
-8520.00000000 -19650.00000000 0.00000000 200 247 32 0.000000 0.000000 0.000000 0.000000 -60.708740 0.000000 44.000000 0.611291 0.765269 -0.201711
-8530.00000000 -19650.00000000 -10.00000000 200 247 32 0.000000 0.000000 0.000000 0.000000 -60.708740 0.000000 44.000000 0.957554 0.288125 0.008582
-8520.00000000 -19690.00000000 50.00000000 200 247 32 0.000000 0.000000 0.000000 0.000000 -60.708740 0.000000 44.000000 0.614967 0.513877 -0.598119
-8520.00000000 -19660.00000000 0.00000000 200 247 32 0.000000 0.000000 0.000000 0.000000 -60.708740 0.000000 44.000000 0.782218 0.561875 -0.269133
-8520.00000000 -19670.00000000 0.00000000 200 247 32 0.000000 0.000000 0.000000 0.000000 -60.708740 0.000000 44.000000 0.762483 0.497981 -0.413080
-8520.00000000 -19660.00000000 -10.00000000 200 247 32 0.000000 0.000000 0.000000 0.000000 -60.708740 0.000000 44.000000 0.834079 0.411521 -0.367373
-9900.00000000 -17370.00000000 840.00000000 200 247 32 0.000000 0.000000 0.000000 0.000000 -60.708740 0.000000 146.000000 0.772394 0.442535 -0.455598
-9840.00000000 -17340.00000000 810.00000000 200 247 32 0.000000 0.000000 0.000000 0.000000 -60.708740 0.000000 146.000000 0.896990 0.441164 -0.027989
-9840.00000000 -17340.00000000 810.00000000 200 247 32 0.000000 0.000000 0.000000 0.000000 -60.708740 0.000000 146.000000 0.896990 0.441164 -0.027989
-9860.00000000 -17440.00000000 850.00000000 200 247 32 0.000000 0.000000 0.000000 0.000000 -60.708740 0.000000 146.000000 0.462156 0.870026 -0.171658
-9860.00000000 -17480.00000000 840.00000000 200 247 32 0.000000 0.000000 0.000000 0.000000 -60.708740 0.000000 146.000000 0.613832 0.479294 -0.627286
-9860.00000000 -17480.00000000 830.00000000 200 247 32 0.000000 0.000000 0.000000 0.000000 -60.708740 0.000000 146.000000 0.948300 0.271909 -0.163687
-9880.00000000 -17400.00000000 840.00000000 200 247 32 0.000000 0.000000 0.000000 0.000000 -60.708740 0.000000 146.000000 0.676724 0.673509 -0.297373
-9870.00000000 -17490.00000000 850.00000000 200 247 32 0.000000 0.000000 0.000000 0.000000 -60.708740 0.000000 146.000000 0.726510 0.658641 -0.195896
-9850.00000000 -17420.00000000 820.00000000 200 247 32 0.000000 0.000000 0.000000 0.000000 -60.708740 0.000000 146.000000 0.681997 0.438546 -0.585284
-9890.00000000 -17390.00000000 810.00000000 200 247 32 0.000000 0.000000 0.000000 0.000000 -60.708740 0.000000 146.000000 0.559132 0.630079 -0.538861
-9890.00000000 -17390.00000000 810.00000000 200 247 32 0.000000 0.000000 0.000000 0.000000 -60.708740 0.000000 146.000000 0.559132 0.630079 -0.538861
-9890.00000000 -17440.00000000 810.00000000 200 247 32 0.000000 0.000000 0.000000 0.000000 -60.708740 0.000000 146.000000 0.790540 0.341552 -0.508319
-9920.00000000 -17410.00000000 820.00000000 200 247 32 0.000000 0.000000 0.000000 0.000000 -60.708740 0.000000 146.000000 0.904198 0.421413 -0.069554
-9920.00000000 -17410.00000000 790.00000000 200 247 32 0.000000 0.000000 0.000000 0.000000 -60.708740 0.000000 146.000000 0.946980 0.257524 -0.192121
-9980.00000000 -17330.00000000 800.00000000 200 247 32 0.000000 0.000000 0.000000 0.000000 -60.708740 0.000000 146.000000 0.931149 0.364584 0.006352
-9980.00000000 -17400.00000000 840.00000000 200 247 32 0.000000 0.000000 0.000000 0.000000 -60.708740 0.000000 146.000000 0.669170 0.652809 -0.355037
-9950.00000000 -17410.00000000 780.00000000 200 247 32 0.000000 0.000000 0.000000 0.000000 -60.708740 0.000000 146.000000 0.819139 0.405593 -0.405593
-9950.00000000 -17410.00000000 780.00000000 200 247 32 0.000000 0.000000 0.000000 0.000000 -60.708740 0.000000 146.000000 0.819139 0.405593 -0.405593
-7790.00000000 -19920.00000000 0.00000000 200 247 32 0.000000 0.000000 0.000000 0.000000 -60.708740 0.000000 44.000000 0.619315 -0.174991 0.765394
-7800.00000000 -19920.00000000 20.00000000 200 247 32 0.000000 0.000000 0.000000 0.000000 -60.708740 0.000000 44.000000 0.588092 -0.187884 0.786669
-7900.00000000 -20220.00000000 -10.00000000 200 247 32 0.000000 0.000000 0.000000 0.000000 -60.708740 0.000000 53.000000 -0.006904 -0.625522 0.780176
-7830.00000000 -20290.00000000 -10.00000000 200 247 32 0.000000 0.000000 0.000000 0.000000 -60.708740 0.000000 53.000000 -0.376293 -0.210666 0.902232
-7840.00000000 -20250.00000000 -10.00000000 200 247 32 0.000000 0.000000 0.000000 0.000000 -60.708740 0.000000 53.000000 -0.057166 -0.285829 0.956574
-10530.00000000 -16440.00000000 1030.00000000 200 247 32 0.000000 0.000000 1.000000 1.000000 1686050046.866456 257.000000 57.000000 0.828927 0.305559 0.468524
-10570.00000000 -16360.00000000 950.00000000 200 247 32 0.000000 0.000000 1.000000 1.000000 1686050041.282807 2313.000000 57.000000 0.810126 0.023542 0.585783
-10560.00000000 -16350.00000000 950.00000000 200 247 32 0.000000 0.000000 1.000000 1.000000 1686050044.167847 1285.000000 57.000000 0.853363 -0.057263 0.518163
-10570.00000000 -16360.00000000 950.00000000 200 247 32 0.000000 0.000000 1.000000 1.000000 1686050048.440369 771.000000 57.000000 0.810126 0.023542 0.585783
-10570.00000000 -16350.00000000 910.00000000 200 247 32 0.000000 0.000000 1.000000 1.000000 1686050031.293549 4112.000000 57.000000 0.353434 0.368868 0.859663
-10580.00000000 -16340.00000000 970.00000000 200 247 32 0.000000 0.000000 1.000000 1.000000 1686050365.788392 2313.000000 57.000000 0.706744 0.209693 0.675678
-10610.00000000 -16370.00000000 970.00000000 200 247 32 0.000000 0.000000 1.000000 1.000000 1686050358.408448 2313.000000 57.000000 0.845719 -0.111317 0.521888
-10580.00000000 -16360.00000000 990.00000000 200 247 32 0.000000 0.000000 1.000000 1.000000 1686050365.787965 20046.000000 57.000000 0.490073 0.173228 0.854296
-10550.00000000 -16370.00000000 900.00000000 200 247 32 0.000000 0.000000 1.000000 1.000000 1686050046.966492 6939.000000 57.000000 0.761102 0.476303 0.440294
-10560.00000000 -16350.00000000 870.00000000 200 247 32 0.000000 0.000000 1.000000 1.000000 1686049632.261224 1542.000000 57.000000 0.575531 -0.306202 0.758290
-10550.00000000 -16370.00000000 900.00000000 200 247 32 0.000000 0.000000 1.000000 1.000000 1686050041.479493 2056.000000 57.000000 0.761102 0.476303 0.440294
-10590.00000000 -16360.00000000 890.00000000 200 247 32 0.000000 0.000000 1.000000 1.000000 1686050942.674317 771.000000 57.000000 0.812863 0.334335 0.476943
-10480.00000000 -16430.00000000 910.00000000 200 247 32 0.000000 0.000000 1.000000 1.000000 1686050366.948914 5140.000000 57.000000 0.916895 0.161971 0.364786
-10500.00000000 -16390.00000000 930.00000000 200 247 32 0.000000 0.000000 1.000000 1.000000 1686050045.525941 6168.000000 57.000000 0.663215 -0.152585 0.732709
-10530.00000000 -16390.00000000 910.00000000 200 247 32 0.000000 0.000000 1.000000 1.000000 1686050035.122498 2570.000000 57.000000 0.578246 -0.034834 0.815118
-10530.00000000 -16380.00000000 910.00000000 200 247 32 0.000000 0.000000 1.000000 1.000000 1686050358.408814 3341.000000 57.000000 0.715705 0.199408 0.669331
-10510.00000000 -16400.00000000 940.00000000 200 247 32 0.000000 0.000000 1.000000 1.000000 1686050351.828492 2570.000000 57.000000 0.810916 0.338014 0.477663
-10510.00000000 -16420.00000000 950.00000000 200 247 32 0.000000 0.000000 1.000000 1.000000 1686050048.242371 1028.000000 57.000000 0.538340 0.416514 0.732603
-10500.00000000 -16420.00000000 950.00000000 200 247 32 0.000000 0.000000 1.000000 1.000000 1686050368.182557 3598.000000 57.000000 0.669883 0.559075 0.488561
-10500.00000000 -16430.00000000 950.00000000 200 247 32 0.000000 0.000000 1.000000 1.000000 1686050134.927430 1542.000000 57.000000 0.651856 0.560899 0.510368
-10490.00000000 -16420.00000000 830.00000000 200 247 32 0.000000 0.000000 1.000000 1.000000 1686050038.696229 257.000000 57.000000 0.656466 -0.101334 0.747519
-10520.00000000 -16380.00000000 870.00000000 200 247 32 0.000000 0.000000 1.000000 1.000000 1686050372.974366 2570.000000 57.000000 0.360784 0.285932 0.887737
-10510.00000000 -16450.00000000 830.00000000 200 247 32 0.000000 0.000000 1.000000 1.000000 1686050057.063905 771.000000 57.000000 0.439626 -0.126624 0.889211
-10480.00000000 -16470.00000000 960.00000000 200 247 32 0.000000 0.000000 1.000000 1.000000 1686050384.151856 4369.000000 57.000000 0.883424 0.062019 0.464452
-10480.00000000 -16480.00000000 970.00000000 200 247 32 0.000000 0.000000 1.000000 1.000000 1686050384.049622 4369.000000 57.000000 0.666982 0.380427 0.640632
-10480.00000000 -16520.00000000 990.00000000 200 247 32 0.000000 0.000000 1.000000 1.000000 1686050047.068116 771.000000 57.000000 0.827667 0.261450 0.496600
-10530.00000000 -16470.00000000 950.00000000 200 247 32 0.000000 0.000000 1.000000 1.000000 1686050362.142213 11565.000000 57.000000 0.666912 0.446279 0.596711
-10510.00000000 -16480.00000000 940.00000000 200 247 32 0.000000 0.000000 1.000000 1.000000 1686050944.012086 1028.000000 57.000000 0.625695 0.474723 0.618986
-10530.00000000 -16500.00000000 920.00000000 200 247 32 0.000000 0.000000 1.000000 1.000000 1686050374.360596 1028.000000 57.000000 0.940955 0.094228 0.325154
-10480.00000000 -16480.00000000 850.00000000 200 247 32 0.000000 0.000000 1.000000 1.000000 1686050349.326905 3598.000000 57.000000 0.790824 0.402690 0.460910
-10480.00000000 -16480.00000000 850.00000000 200 247 32 0.000000 0.000000 1.000000 1.000000 1686050368.182801 6168.000000 57.000000 0.790824 0.402690 0.460910
-10490.00000000 -16500.00000000 860.00000000 200 247 32 0.000000 0.000000 1.000000 1.000000 1686050941.506348 514.000000 57.000000 0.739793 0.253959 0.623066
-10480.00000000 -16500.00000000 860.00000000 200 247 32 0.000000 0.000000 1.000000 1.000000 1686050060.731690 771.000000 57.000000 0.856983 0.083574 0.508524
-10500.00000000 -16500.00000000 880.00000000 200 247 32 0.000000 0.000000 1.000000 1.000000 1686050357.031861 1542.000000 57.000000 0.835447 0.267158 0.480266
-10510.00000000 -16510.00000000 860.00000000 200 247 32 0.000000 0.000000 1.000000 1.000000 1686050369.343446 1028.000000 57.000000 0.907111 0.265246 0.326794
-10550.00000000 -16410.00000000 960.00000000 200 247 32 0.000000 0.000000 1.000000 1.000000 1686050047.165803 7710.000000 57.000000 0.931916 0.048360 0.359435
-10540.00000000 -16410.00000000 950.00000000 200 247 32 0.000000 0.000000 1.000000 1.000000 1686050045.328278 1799.000000 57.000000 0.666464 0.340565 0.663205
-10540.00000000 -16400.00000000 980.00000000 200 247 32 0.000000 0.000000 1.000000 1.000000 1686050940.281129 4626.000000 57.000000 0.925116 0.065224 0.374040
-10550.00000000 -16400.00000000 930.00000000 200 247 32 0.000000 0.000000 1.000000 1.000000 1686050065.830384 6168.000000 57.000000 0.866322 -0.006695 0.499441
-10550.00000000 -16380.00000000 910.00000000 200 247 32 0.000000 0.000000 1.000000 1.000000 1686050052.058320 2827.000000 57.000000 0.814289 0.043447 0.578832
-10550.00000000 -16400.00000000 930.00000000 200 247 32 0.000000 0.000000 1.000000 1.000000 1686050044.072724 4883.000000 57.000000 0.866322 -0.006695 0.499441
-10570.00000000 -16380.00000000 910.00000000 200 247 32 0.000000 0.000000 1.000000 1.000000 1686050057.063599 771.000000 57.000000 0.403077 0.083348 0.911363
-10550.00000000 -16450.00000000 970.00000000 200 247 32 0.000000 0.000000 1.000000 1.000000 1686050042.725281 6939.000000 57.000000 0.805527 0.072970 0.588049
-10570.00000000 -16430.00000000 950.00000000 200 247 32 0.000000 0.000000 1.000000 1.000000 1686050040.110108 1028.000000 57.000000 0.801335 0.268157 0.534746
-10560.00000000 -16430.00000000 910.00000000 200 247 32 0.000000 0.000000 1.000000 1.000000 1686050604.192933 1799.000000 57.000000 0.540755 0.102383 0.834926
-10540.00000000 -16430.00000000 940.00000000 200 247 32 0.000000 0.000000 1.000000 1.000000 1686050351.927979 6168.000000 57.000000 0.761651 -0.082694 0.642689
-10550.00000000 -16450.00000000 910.00000000 200 247 32 0.000000 0.000000 1.000000 1.000000 1686050038.794892 257.000000 57.000000 0.500409 0.584653 0.638569
-10570.00000000 -16430.00000000 940.00000000 200 247 32 0.000000 0.000000 1.000000 1.000000 1686050368.082154 3341.000000 57.000000 0.765776 0.333717 0.549746
-10600.00000000 -16400.00000000 980.00000000 200 247 32 0.000000 0.000000 1.000000 1.000000 1686050365.887879 3598.000000 57.000000 0.789479 0.398776 0.466584
-10600.00000000 -16400.00000000 980.00000000 200 247 32 0.000000 0.000000 1.000000 1.000000 1686050375.373841 3084.000000 57.000000 0.789479 0.398776 0.466584
-10580.00000000 -16380.00000000 910.00000000 200 247 32 0.000000 0.000000 1.000000 1.000000 1686050364.537415 2570.000000 57.000000 0.796079 0.357194 0.488539
-10580.00000000 -16390.00000000 920.00000000 200 247 32 0.000000 0.000000 1.000000 1.000000 1686050051.961304 3598.000000 57.000000 0.645040 0.425027 0.635040
-10580.00000000 -16400.00000000 920.00000000 200 247 32 0.000000 0.000000 1.000000 1.000000 1686050941.404053 257.000000 57.000000 0.660168 -0.095146 0.745068
-10600.00000000 -16430.00000000 950.00000000 200 247 32 0.000000 0.000000 1.000000 1.000000 1686050363.290528 3084.000000 57.000000 0.821282 0.436852 0.366956
-10600.00000000 -16430.00000000 950.00000000 200 247 32 0.000000 0.000000 1.000000 1.000000 1686050038.794739 2827.000000 57.000000 0.821282 0.436852 0.366956
-10610.00000000 -16450.00000000 970.00000000 200 247 32 0.000000 0.000000 1.000000 1.000000 1686050055.834046 4626.000000 57.000000 0.633434 0.679502 0.370189
-10600.00000000 -16450.00000000 930.00000000 200 247 32 0.000000 0.000000 1.000000 1.000000 1686050453.530946 514.000000 57.000000 0.817298 -0.094025 0.568492
-10590.00000000 -16450.00000000 920.00000000 200 247 32 0.000000 0.000000 1.000000 1.000000 1686050007.409150 5654.000000 57.000000 0.808053 0.196307 0.555441
-10540.00000000 -16400.00000000 860.00000000 200 247 32 0.000000 0.000000 1.000000 1.000000 1686050046.866944 1028.000000 57.000000 0.562392 -0.081568 0.822838
-10560.00000000 -16430.00000000 870.00000000 200 247 32 0.000000 0.000000 1.000000 1.000000 1686050357.130494 1799.000000 57.000000 0.581412 0.034857 0.812862
-10560.00000000 -16480.00000000 990.00000000 200 247 32 0.000000 0.000000 1.000000 1.000000 1686050359.728455 1285.000000 57.000000 0.966141 0.217994 0.138020
-10560.00000000 -16460.00000000 960.00000000 200 247 32 0.000000 0.000000 1.000000 1.000000 1686050041.378297 5140.000000 57.000000 0.882292 -0.061939 0.466610
-10560.00000000 -16480.00000000 940.00000000 200 247 32 0.000000 0.000000 1.000000 1.000000 1686050360.789857 4883.000000 57.000000 0.788934 0.320355 0.524362
-10560.00000000 -16470.00000000 930.00000000 200 247 32 0.000000 0.000000 1.000000 1.000000 1686050041.378358 3084.000000 57.000000 0.587453 0.328521 0.739576
-10550.00000000 -16500.00000000 950.00000000 200 247 32 0.000000 0.000000 1.000000 1.000000 1686050047.165925 5911.000000 57.000000 0.596860 0.346407 0.723713
-10540.00000000 -16530.00000000 940.00000000 200 247 32 0.000000 0.000000 1.000000 1.000000 1686050349.326966 3598.000000 57.000000 0.651403 0.179327 0.737235
-10540.00000000 -16500.00000000 920.00000000 200 247 32 0.000000 0.000000 1.000000 1.000000 1686050941.607056 257.000000 57.000000 0.852514 0.333863 0.402188
-10540.00000000 -16500.00000000 940.00000000 200 247 32 0.000000 0.000000 1.000000 1.000000 1686050047.165986 3855.000000 57.000000 0.864423 0.282043 0.416203
-10540.00000000 -16500.00000000 940.00000000 200 247 32 0.000000 0.000000 1.000000 1.000000 1686050049.473786 2570.000000 57.000000 0.864423 0.282043 0.416203
-10550.00000000 -16500.00000000 930.00000000 200 247 32 0.000000 0.000000 1.000000 1.000000 1686050051.858491 3341.000000 57.000000 0.805593 0.473784 0.355737
-10540.00000000 -16510.00000000 930.00000000 200 247 32 0.000000 0.000000 1.000000 1.000000 1686050051.961701 2313.000000 57.000000 0.805885 0.494339 0.325851
-10580.00000000 -16530.00000000 980.00000000 200 247 32 0.000000 0.000000 1.000000 1.000000 1686050023.879670 1028.000000 57.000000 0.845543 0.464972 0.262410
-10600.00000000 -16510.00000000 980.00000000 200 247 32 0.000000 0.000000 1.000000 1.000000 1686050063.335999 1799.000000 57.000000 0.761179 0.260030 0.594130
-10600.00000000 -16510.00000000 970.00000000 200 247 32 0.000000 0.000000 1.000000 1.000000 1686050365.786561 7967.000000 57.000000 0.602873 0.552211 0.575853
-10600.00000000 -16500.00000000 960.00000000 200 247 32 0.000000 0.000000 1.000000 1.000000 1686049989.719849 1799.000000 57.000000 0.690016 0.408715 0.597352
-10580.00000000 -16530.00000000 970.00000000 200 247 32 0.000000 0.000000 1.000000 1.000000 1686050044.168549 3598.000000 57.000000 0.910551 0.293773 0.290850
-10580.00000000 -16520.00000000 980.00000000 200 247 32 0.000000 0.000000 1.000000 1.000000 1686050033.879334 2313.000000 57.000000 0.748706 0.331500 0.574062
-10600.00000000 -16500.00000000 960.00000000 200 247 32 0.000000 0.000000 1.000000 1.000000 1686050353.090943 2827.000000 57.000000 0.690016 0.408715 0.597352
-10470.00000000 -16400.00000000 800.00000000 200 247 32 0.000000 0.000000 0.000000 0.000000 -60.708740 0.000000 57.000000 0.573283 0.327821 0.750920
