//X Y Z R G B PointSourceId ScanDirectionFlag NumberOfReturns ReturnNumber GpsTime Intensity Classification Nx Ny Nz
14870.00000000 15920.00000000 -810.00000000 224 39 124 97.000000 1.000000 4.000000 1.000000 -60.708740 114.000000 226.000000 0.712799 -0.466891 0.523384
14830.00000000 15950.00000000 -820.00000000 224 39 124 97.000000 1.000000 4.000000 1.000000 -60.708740 114.000000 226.000000 0.920761 -0.303090 0.245632
14830.00000000 15960.00000000 -810.00000000 224 39 124 97.000000 1.000000 4.000000 1.000000 -60.708740 114.000000 226.000000 0.908506 -0.408209 0.089339
14840.00000000 15950.00000000 -840.00000000 224 39 124 97.000000 1.000000 4.000000 1.000000 -60.708740 114.000000 226.000000 -0.789168 0.432665 -0.435906
14820.00000000 15910.00000000 -860.00000000 224 39 124 97.000000 1.000000 4.000000 1.000000 -60.708740 114.000000 226.000000 -0.677400 0.735582 0.006926
14840.00000000 15830.00000000 -710.00000000 224 39 124 97.000000 1.000000 4.000000 1.000000 -60.708740 114.000000 226.000000 0.968881 -0.236282 -0.073760
14850.00000000 15810.00000000 -720.00000000 224 39 124 97.000000 1.000000 4.000000 1.000000 -60.708740 114.000000 226.000000 0.956288 0.105674 0.272666
14960.00000000 15900.00000000 -870.00000000 224 39 124 97.000000 1.000000 4.000000 1.000000 -60.708740 114.000000 226.000000 0.153634 0.942200 -0.297751
14980.00000000 15910.00000000 -980.00000000 224 39 124 97.000000 1.000000 4.000000 1.000000 -60.708740 114.000000 226.000000 -0.027180 0.999618 0.005033
14980.00000000 15910.00000000 -970.00000000 224 39 124 97.000000 1.000000 4.000000 1.000000 -60.708740 114.000000 226.000000 0.176393 0.978179 -0.109783
14980.00000000 15910.00000000 -1010.00000000 224 39 124 97.000000 1.000000 4.000000 1.000000 -60.708740 114.000000 226.000000 -0.436985 0.850808 -0.291838
14980.00000000 15890.00000000 -990.00000000 224 39 124 97.000000 1.000000 4.000000 1.000000 -60.708740 114.000000 226.000000 -0.079657 0.774843 -0.627116
14970.00000000 15890.00000000 -1020.00000000 224 39 124 97.000000 1.000000 4.000000 1.000000 -60.708740 114.000000 226.000000 -0.313248 0.939743 -0.136961
14900.00000000 15900.00000000 -1020.00000000 224 39 124 97.000000 1.000000 4.000000 1.000000 -60.708740 114.000000 226.000000 0.813436 -0.528346 0.243256
14970.00000000 15850.00000000 -910.00000000 224 39 124 97.000000 1.000000 4.000000 1.000000 -60.708740 114.000000 226.000000 -0.375152 0.719178 -0.584844
14980.00000000 15850.00000000 -910.00000000 224 39 124 97.000000 1.000000 4.000000 1.000000 -60.708740 114.000000 226.000000 0.078819 0.812555 -0.577530
14970.00000000 15850.00000000 -910.00000000 224 39 124 97.000000 1.000000 4.000000 1.000000 -60.708740 114.000000 226.000000 -0.375152 0.719178 -0.584844
14980.00000000 15870.00000000 -1000.00000000 224 39 124 97.000000 1.000000 4.000000 1.000000 -60.708740 114.000000 226.000000 -0.245876 0.961390 -0.123589
14950.00000000 15880.00000000 -1030.00000000 224 39 124 97.000000 1.000000 4.000000 1.000000 -60.708740 114.000000 226.000000 -0.160511 0.907668 -0.387783
14980.00000000 15840.00000000 -990.00000000 224 39 124 97.000000 1.000000 4.000000 1.000000 -60.708740 114.000000 226.000000 0.279325 -0.784319 0.553915
14920.00000000 15880.00000000 -1010.00000000 224 39 124 97.000000 1.000000 4.000000 1.000000 -60.708740 114.000000 226.000000 -0.551986 0.666075 -0.501653
14820.00000000 15930.00000000 -870.00000000 224 39 124 97.000000 1.000000 4.000000 1.000000 -60.708740 114.000000 226.000000 0.641437 -0.587563 0.493283
14830.00000000 15940.00000000 -910.00000000 224 39 124 97.000000 1.000000 4.000000 1.000000 -60.708740 114.000000 226.000000 0.843451 -0.468584 0.262714
14820.00000000 15890.00000000 -900.00000000 224 39 124 97.000000 1.000000 4.000000 1.000000 -60.708740 114.000000 226.000000 0.762794 -0.635415 -0.119973
14890.00000000 15950.00000000 -970.00000000 224 39 124 97.000000 1.000000 4.000000 1.000000 -60.708740 114.000000 226.000000 0.671455 -0.604809 0.428198
14880.00000000 15900.00000000 -960.00000000 224 39 124 97.000000 1.000000 4.000000 1.000000 -60.708740 114.000000 226.000000 -0.256197 0.895948 -0.362822
15120.00000000 16130.00000000 -1070.00000000 224 39 124 97.000000 1.000000 4.000000 1.000000 -60.708740 114.000000 226.000000 0.100321 0.982662 -0.155921
15130.00000000 16100.00000000 -1050.00000000 224 39 124 97.000000 1.000000 4.000000 1.000000 -60.708740 114.000000 226.000000 0.402321 0.647355 -0.647355
15150.00000000 16120.00000000 -1080.00000000 224 39 124 97.000000 1.000000 4.000000 1.000000 -60.708740 114.000000 226.000000 0.105444 0.986909 -0.122031
15140.00000000 16070.00000000 -1080.00000000 224 39 124 97.000000 1.000000 4.000000 1.000000 -60.708740 114.000000 226.000000 0.251094 0.737490 -0.626945
15120.00000000 16090.00000000 -1110.00000000 224 39 124 97.000000 1.000000 4.000000 1.000000 -60.708740 114.000000 226.000000 0.209234 0.977608 -0.022460
15080.00000000 16120.00000000 -1100.00000000 224 39 124 97.000000 1.000000 4.000000 1.000000 -60.708740 114.000000 226.000000 0.290835 0.686113 -0.666831
15090.00000000 16130.00000000 -1090.00000000 224 39 124 97.000000 1.000000 4.000000 1.000000 -60.708740 114.000000 226.000000 0.286282 0.734097 -0.615746
15100.00000000 16120.00000000 -1090.00000000 224 39 124 97.000000 1.000000 4.000000 1.000000 -60.708740 114.000000 226.000000 0.410336 0.662850 -0.626302
15100.00000000 16090.00000000 -1100.00000000 224 39 124 97.000000 1.000000 4.000000 1.000000 -60.708740 114.000000 226.000000 0.439427 0.653292 -0.616534
15080.00000000 16020.00000000 -1140.00000000 224 39 124 97.000000 1.000000 4.000000 1.000000 -60.708740 114.000000 226.000000 -0.124607 0.929761 -0.346435
15050.00000000 16080.00000000 -1140.00000000 224 39 124 97.000000 1.000000 4.000000 1.000000 -60.708740 114.000000 226.000000 0.376008 0.890231 -0.257112
15050.00000000 16080.00000000 -1140.00000000 224 39 124 97.000000 1.000000 4.000000 1.000000 -60.708740 114.000000 226.000000 0.376008 0.890231 -0.257112
15000.00000000 16130.00000000 -1140.00000000 224 39 124 97.000000 1.000000 4.000000 1.000000 -60.708740 114.000000 226.000000 -0.142257 0.961866 -0.233615
14990.00000000 16070.00000000 -1140.00000000 224 39 124 97.000000 1.000000 4.000000 1.000000 -60.708740 114.000000 226.000000 0.003134 0.997543 0.069985
15000.00000000 16090.00000000 -1120.00000000 224 39 124 97.000000 1.000000 4.000000 1.000000 -60.708740 114.000000 226.000000 0.130654 0.826496 -0.547572
14990.00000000 16070.00000000 -1140.00000000 224 39 124 97.000000 1.000000 4.000000 1.000000 -60.708740 114.000000 226.000000 0.003134 0.997543 0.069985
15010.00000000 16090.00000000 -1140.00000000 224 39 124 97.000000 1.000000 4.000000 1.000000 -60.708740 114.000000 226.000000 0.207629 0.885000 -0.416731
15040.00000000 16050.00000000 -1120.00000000 224 39 124 97.000000 1.000000 4.000000 1.000000 -60.708740 114.000000 226.000000 0.074455 0.913770 -0.399351
15030.00000000 15990.00000000 -1120.00000000 224 39 124 97.000000 1.000000 4.000000 1.000000 -60.708740 114.000000 226.000000 0.421302 0.859456 -0.289550
15020.00000000 16050.00000000 -1120.00000000 224 39 124 97.000000 1.000000 4.000000 1.000000 -60.708740 114.000000 226.000000 0.049101 0.829099 -0.556941
15010.00000000 16050.00000000 -1120.00000000 224 39 124 97.000000 1.000000 4.000000 1.000000 -60.708740 114.000000 226.000000 -0.074531 0.985472 -0.152612
15040.00000000 15930.00000000 -1040.00000000 224 39 124 97.000000 1.000000 4.000000 1.000000 -60.708740 114.000000 226.000000 0.361982 0.930622 0.053968
14990.00000000 15920.00000000 -1100.00000000 224 39 124 97.000000 1.000000 4.000000 1.000000 -60.708740 114.000000 226.000000 0.369045 0.908970 -0.193856
15040.00000000 15860.00000000 -1040.00000000 224 39 124 97.000000 1.000000 4.000000 1.000000 -60.708740 114.000000 226.000000 0.482870 0.627563 -0.610738
15060.00000000 15860.00000000 -1110.00000000 224 39 124 97.000000 1.000000 4.000000 1.000000 -60.708740 114.000000 226.000000 0.411146 0.863560 -0.291929
15030.00000000 15880.00000000 -1090.00000000 224 39 124 97.000000 1.000000 4.000000 1.000000 -60.708740 114.000000 226.000000 0.311017 0.809907 -0.497311
15060.00000000 15860.00000000 -1110.00000000 224 39 124 97.000000 1.000000 4.000000 1.000000 -60.708740 114.000000 226.000000 0.411146 0.863560 -0.291929
15030.00000000 15810.00000000 -1080.00000000 224 39 124 97.000000 1.000000 4.000000 1.000000 -60.708740 114.000000 226.000000 0.289002 0.752044 -0.592374
15050.00000000 15800.00000000 -1080.00000000 224 39 124 97.000000 1.000000 4.000000 1.000000 -60.708740 114.000000 226.000000 0.259284 0.774710 -0.576711
14990.00000000 15820.00000000 -1070.00000000 224 39 124 97.000000 1.000000 4.000000 1.000000 -60.708740 114.000000 226.000000 0.294914 0.828569 -0.475920
15040.00000000 15850.00000000 -1130.00000000 224 39 124 97.000000 1.000000 4.000000 1.000000 -60.708740 114.000000 226.000000 0.165268 0.771755 -0.614069
15020.00000000 15860.00000000 -1130.00000000 224 39 124 97.000000 1.000000 4.000000 1.000000 -60.708740 114.000000 226.000000 -0.023713 -0.776961 0.629102
15000.00000000 15800.00000000 -1150.00000000 224 39 124 97.000000 1.000000 4.000000 1.000000 -60.708740 114.000000 226.000000 0.011178 0.950104 -0.311733
15020.00000000 15800.00000000 -1140.00000000 224 39 124 97.000000 1.000000 4.000000 1.000000 -60.708740 114.000000 226.000000 0.184536 0.977172 -0.105272
15020.00000000 15800.00000000 -1210.00000000 224 39 124 97.000000 1.000000 4.000000 1.000000 -60.708740 114.000000 226.000000 0.073787 0.756676 -0.649613
15010.00000000 15810.00000000 -1200.00000000 224 39 124 97.000000 1.000000 4.000000 1.000000 -60.708740 114.000000 226.000000 0.319675 0.820446 -0.474000
14990.00000000 15820.00000000 -1200.00000000 224 39 124 97.000000 1.000000 4.000000 1.000000 -60.708740 114.000000 226.000000 0.229955 0.960557 -0.156370
14990.00000000 15820.00000000 -1200.00000000 224 39 124 97.000000 1.000000 4.000000 1.000000 -60.708740 114.000000 226.000000 0.229955 0.960557 -0.156370
15000.00000000 15810.00000000 -1200.00000000 224 39 124 97.000000 1.000000 4.000000 1.000000 -60.708740 114.000000 226.000000 0.322761 0.929160 -0.180243
14910.00000000 16060.00000000 -1090.00000000 224 39 124 97.000000 1.000000 4.000000 1.000000 -60.708740 114.000000 226.000000 -0.432775 0.901283 -0.019852
14930.00000000 16080.00000000 -1090.00000000 224 39 124 97.000000 1.000000 4.000000 1.000000 -60.708740 114.000000 226.000000 -0.405967 0.911050 -0.071961
14980.00000000 16130.00000000 -1170.00000000 224 39 124 97.000000 1.000000 4.000000 1.000000 -60.708740 114.000000 226.000000 -0.140185 0.990125 -0.001104
14970.00000000 16120.00000000 -1180.00000000 224 39 124 97.000000 1.000000 4.000000 1.000000 -60.708740 114.000000 226.000000 0.119564 0.792664 -0.597819
14910.00000000 16120.00000000 -1140.00000000 224 39 124 97.000000 1.000000 4.000000 1.000000 -60.708740 114.000000 226.000000 -0.477621 0.877679 -0.039462
14940.00000000 16080.00000000 -1150.00000000 224 39 124 97.000000 1.000000 4.000000 1.000000 -60.708740 114.000000 226.000000 -0.196750 0.848579 -0.491124
14920.00000000 16060.00000000 -1140.00000000 224 39 124 97.000000 1.000000 4.000000 1.000000 -60.708740 114.000000 226.000000 -0.186858 0.878379 -0.439925
14920.00000000 16060.00000000 -1140.00000000 224 39 124 97.000000 1.000000 4.000000 1.000000 -60.708740 114.000000 226.000000 -0.186858 0.878379 -0.439925
14940.00000000 16080.00000000 -1160.00000000 224 39 124 97.000000 1.000000 4.000000 1.000000 -60.708740 114.000000 226.000000 -0.374475 0.877818 -0.298670
14950.00000000 15990.00000000 -1100.00000000 224 39 124 97.000000 1.000000 4.000000 1.000000 -60.708740 114.000000 226.000000 -0.061718 0.762149 -0.644453
14970.00000000 15980.00000000 -1110.00000000 224 39 124 97.000000 1.000000 4.000000 1.000000 -60.708740 114.000000 226.000000 0.244900 0.957097 -0.154883
14950.00000000 15980.00000000 -1100.00000000 224 39 124 97.000000 1.000000 4.000000 1.000000 -60.708740 114.000000 226.000000 0.070654 0.768542 -0.635886
14950.00000000 15970.00000000 -1110.00000000 224 39 124 97.000000 1.000000 4.000000 1.000000 -60.708740 114.000000 226.000000 0.196733 0.933438 -0.299984
14970.00000000 15970.00000000 -1110.00000000 224 39 124 97.000000 1.000000 4.000000 1.000000 -60.708740 114.000000 226.000000 0.130181 0.989608 -0.061058
14900.00000000 16050.00000000 -1110.00000000 224 39 124 97.000000 1.000000 4.000000 1.000000 -60.708740 114.000000 226.000000 -0.594195 0.739121 -0.317226
14960.00000000 16040.00000000 -1140.00000000 224 39 124 97.000000 1.000000 4.000000 1.000000 -60.708740 114.000000 226.000000 -0.060639 0.995584 0.071664
14960.00000000 16040.00000000 -1160.00000000 224 39 124 97.000000 1.000000 4.000000 1.000000 -60.708740 114.000000 226.000000 0.064514 0.781336 -0.620768
14980.00000000 15970.00000000 -1130.00000000 224 39 124 97.000000 1.000000 4.000000 1.000000 -60.708740 114.000000 226.000000 -0.213520 0.975919 0.044634
14970.00000000 15980.00000000 -1120.00000000 224 39 124 97.000000 1.000000 4.000000 1.000000 -60.708740 114.000000 226.000000 0.138624 0.990330 0.005545
14890.00000000 16070.00000000 -1180.00000000 224 39 124 97.000000 1.000000 4.000000 1.000000 -60.708740 114.000000 226.000000 0.508754 -0.676660 0.532261
14820.00000000 16040.00000000 -1060.00000000 224 39 124 97.000000 1.000000 4.000000 1.000000 -60.708740 114.000000 226.000000 -0.332181 0.829664 -0.448680
14840.00000000 16030.00000000 -1110.00000000 224 39 124 97.000000 1.000000 4.000000 1.000000 -60.708740 114.000000 226.000000 -0.319568 0.679691 -0.660225
14830.00000000 16050.00000000 -1090.00000000 224 39 124 97.000000 1.000000 4.000000 1.000000 -60.708740 114.000000 226.000000 0.209227 -0.739270 0.640081
14870.00000000 16040.00000000 -1150.00000000 224 39 124 97.000000 1.000000 4.000000 1.000000 -60.708740 114.000000 226.000000 -0.079398 0.924521 -0.372769
14840.00000000 16030.00000000 -1120.00000000 224 39 124 97.000000 1.000000 4.000000 1.000000 -60.708740 114.000000 226.000000 -0.133911 0.988609 -0.068702
14830.00000000 16060.00000000 -1250.00000000 224 39 124 97.000000 1.000000 4.000000 1.000000 -60.708740 114.000000 226.000000 -0.354570 0.759330 -0.545617
14820.00000000 16020.00000000 -1210.00000000 224 39 124 97.000000 1.000000 4.000000 1.000000 -60.708740 114.000000 226.000000 -0.200743 0.869886 -0.450556
14820.00000000 15990.00000000 -1210.00000000 224 39 124 97.000000 1.000000 4.000000 1.000000 -60.708740 114.000000 226.000000 -0.437565 0.890707 -0.123198
14940.00000000 15900.00000000 -1060.00000000 224 39 124 97.000000 1.000000 4.000000 1.000000 -60.708740 114.000000 226.000000 -0.135155 0.894865 -0.425381
14910.00000000 15900.00000000 -1040.00000000 224 39 124 97.000000 1.000000 4.000000 1.000000 -60.708740 114.000000 226.000000 -0.605912 0.675633 -0.419988
14970.00000000 15830.00000000 -1060.00000000 224 39 124 97.000000 1.000000 4.000000 1.000000 -60.708740 114.000000 226.000000 0.330052 -0.700752 0.632465
14980.00000000 15830.00000000 -1070.00000000 224 39 124 97.000000 1.000000 4.000000 1.000000 -60.708740 114.000000 226.000000 -0.149484 0.744401 -0.650785
14960.00000000 15830.00000000 -1050.00000000 224 39 124 97.000000 1.000000 4.000000 1.000000 -60.708740 114.000000 226.000000 -0.027847 0.905696 -0.423012
14900.00000000 15830.00000000 -1130.00000000 224 39 124 97.000000 1.000000 4.000000 1.000000 -60.708740 114.000000 226.000000 -0.550167 0.831648 -0.075346
14890.00000000 15900.00000000 -1070.00000000 224 39 124 97.000000 1.000000 4.000000 1.000000 -60.708740 114.000000 226.000000 -0.542259 0.840024 -0.017757
14870.00000000 15890.00000000 -1130.00000000 224 39 124 97.000000 1.000000 4.000000 1.000000 -60.708740 114.000000 226.000000 -0.375392 0.860467 -0.344496
14840.00000000 15900.00000000 -1160.00000000 224 39 124 97.000000 1.000000 4.000000 1.000000 -60.708740 114.000000 226.000000 0.858203 -0.460021 0.227748
14840.00000000 15890.00000000 -1170.00000000 224 39 124 97.000000 1.000000 4.000000 1.000000 -60.708740 114.000000 226.000000 0.758946 -0.651117 0.006912
14830.00000000 15880.00000000 -1150.00000000 224 39 124 97.000000 1.000000 4.000000 1.000000 -60.708740 114.000000 226.000000 -0.503557 0.863045 0.039791
14810.00000000 16040.00000000 -750.00000000 224 39 124 97.000000 1.000000 4.000000 1.000000 -60.708740 114.000000 226.000000 0.777972 -0.394670 0.488872
14790.00000000 16010.00000000 -760.00000000 224 39 124 97.000000 1.000000 4.000000 1.000000 -60.708740 114.000000 226.000000 -0.578850 0.815340 0.012374
14800.00000000 16010.00000000 -760.00000000 224 39 124 97.000000 1.000000 4.000000 1.000000 -60.708740 114.000000 226.000000 -0.440008 0.780973 -0.443255
14780.00000000 16010.00000000 -770.00000000 224 39 124 97.000000 1.000000 4.000000 1.000000 -60.708740 114.000000 226.000000 -0.626727 0.643439 -0.439544
14790.00000000 15990.00000000 -820.00000000 224 39 124 97.000000 1.000000 4.000000 1.000000 -60.708740 114.000000 226.000000 -0.641143 0.693084 -0.329499
14810.00000000 15990.00000000 -780.00000000 224 39 124 97.000000 1.000000 4.000000 1.000000 -60.708740 114.000000 226.000000 0.697383 -0.384138 0.605058
14810.00000000 15970.00000000 -850.00000000 224 39 124 97.000000 1.000000 4.000000 1.000000 -60.708740 114.000000 226.000000 0.719451 -0.694305 0.018161
14740.00000000 15980.00000000 -810.00000000 224 39 124 97.000000 1.000000 4.000000 1.000000 -60.708740 114.000000 226.000000 0.662932 -0.721653 0.199343
14790.00000000 15990.00000000 -880.00000000 224 39 124 97.000000 1.000000 4.000000 1.000000 -60.708740 114.000000 226.000000 0.485375 -0.763199 0.426542
14810.00000000 15970.00000000 -900.00000000 224 39 124 97.000000 1.000000 4.000000 1.000000 -60.708740 114.000000 226.000000 0.775597 -0.617798 0.129514
14810.00000000 15990.00000000 -930.00000000 224 39 124 97.000000 1.000000 4.000000 1.000000 -60.708740 114.000000 226.000000 -0.308075 0.865983 -0.393907
14790.00000000 16020.00000000 -1010.00000000 224 39 124 97.000000 1.000000 4.000000 1.000000 -60.708740 114.000000 226.000000 -0.434043 0.900868 -0.006557
14790.00000000 16000.00000000 -970.00000000 224 39 124 97.000000 1.000000 4.000000 1.000000 -60.708740 114.000000 226.000000 -0.485313 0.599504 -0.636448
14790.00000000 16000.00000000 -970.00000000 224 39 124 97.000000 1.000000 4.000000 1.000000 -60.708740 114.000000 226.000000 -0.485313 0.599504 -0.636448
14790.00000000 16000.00000000 -980.00000000 224 39 124 97.000000 1.000000 4.000000 1.000000 -60.708740 114.000000 226.000000 -0.563791 0.788682 -0.245194
14790.00000000 15970.00000000 -990.00000000 224 39 124 97.000000 1.000000 4.000000 1.000000 -60.708740 114.000000 226.000000 -0.511425 0.609322 -0.605946
14760.00000000 15970.00000000 -980.00000000 224 39 124 97.000000 1.000000 4.000000 1.000000 -60.708740 114.000000 226.000000 -0.620847 0.604022 -0.499706
14800.00000000 15950.00000000 -800.00000000 224 39 124 97.000000 1.000000 4.000000 1.000000 -60.708740 114.000000 226.000000 0.950645 -0.309367 -0.023797
14780.00000000 15940.00000000 -820.00000000 224 39 124 97.000000 1.000000 4.000000 1.000000 -60.708740 114.000000 226.000000 0.713811 -0.643547 0.276262
14800.00000000 15950.00000000 -800.00000000 224 39 124 97.000000 1.000000 4.000000 1.000000 -60.708740 114.000000 226.000000 0.950645 -0.309367 -0.023797
14800.00000000 15950.00000000 -800.00000000 224 39 124 97.000000 1.000000 4.000000 1.000000 -60.708740 114.000000 226.000000 0.950645 -0.309367 -0.023797
14800.00000000 15950.00000000 -780.00000000 224 39 124 97.000000 1.000000 4.000000 1.000000 -60.708740 114.000000 226.000000 -0.662216 0.749018 -0.021001
14790.00000000 15940.00000000 -840.00000000 224 39 124 97.000000 1.000000 4.000000 1.000000 -60.708740 114.000000 226.000000 0.871800 -0.216087 0.439626
14800.00000000 15920.00000000 -990.00000000 224 39 124 97.000000 1.000000 4.000000 1.000000 -60.708740 114.000000 226.000000 -0.578232 0.757629 -0.302731
14810.00000000 16080.00000000 -1050.00000000 224 39 124 97.000000 1.000000 4.000000 1.000000 -60.708740 114.000000 226.000000 -0.357886 0.791200 -0.495904
14800.00000000 16030.00000000 -1100.00000000 224 39 124 97.000000 1.000000 4.000000 1.000000 -60.708740 114.000000 226.000000 -0.385365 0.908666 -0.160687
14780.00000000 16000.00000000 -1070.00000000 224 39 124 97.000000 1.000000 4.000000 1.000000 -60.708740 114.000000 226.000000 -0.368750 0.703083 -0.608028
14810.00000000 15980.00000000 -1040.00000000 224 39 124 97.000000 1.000000 4.000000 1.000000 -60.708740 114.000000 226.000000 -0.291468 0.801931 -0.521491
14780.00000000 15980.00000000 -1090.00000000 224 39 124 97.000000 1.000000 4.000000 1.000000 -60.708740 114.000000 226.000000 -0.533080 0.840570 -0.096270
14800.00000000 15990.00000000 -1110.00000000 224 39 124 97.000000 1.000000 4.000000 1.000000 -60.708740 114.000000 226.000000 -0.589227 0.807966 -0.001367
14780.00000000 15990.00000000 -1080.00000000 224 39 124 97.000000 1.000000 4.000000 1.000000 -60.708740 114.000000 226.000000 -0.315996 0.768336 -0.556602
14780.00000000 15980.00000000 -1100.00000000 224 39 124 97.000000 1.000000 4.000000 1.000000 -60.708740 114.000000 226.000000 -0.659288 0.750421 0.046990
14780.00000000 15990.00000000 -1080.00000000 224 39 124 97.000000 1.000000 4.000000 1.000000 -60.708740 114.000000 226.000000 -0.315996 0.768336 -0.556602
14780.00000000 15980.00000000 -1090.00000000 224 39 124 97.000000 1.000000 4.000000 1.000000 -60.708740 114.000000 226.000000 -0.533080 0.840570 -0.096270
14770.00000000 15990.00000000 -1070.00000000 224 39 124 97.000000 1.000000 4.000000 1.000000 -60.708740 114.000000 226.000000 0.474083 -0.584647 0.658356
14770.00000000 15990.00000000 -1070.00000000 224 39 124 97.000000 1.000000 4.000000 1.000000 -60.708740 114.000000 226.000000 0.474083 -0.584647 0.658356
14800.00000000 16030.00000000 -1130.00000000 224 39 124 97.000000 1.000000 4.000000 1.000000 -60.708740 114.000000 226.000000 -0.492330 0.731036 -0.472438
14800.00000000 16020.00000000 -1140.00000000 224 39 124 97.000000 1.000000 4.000000 1.000000 -60.708740 114.000000 226.000000 -0.445133 0.877044 -0.180697
14800.00000000 16030.00000000 -1130.00000000 224 39 124 97.000000 1.000000 4.000000 1.000000 -60.708740 114.000000 226.000000 -0.492330 0.731036 -0.472438
14810.00000000 16030.00000000 -1130.00000000 224 39 124 97.000000 1.000000 4.000000 1.000000 -60.708740 114.000000 226.000000 -0.139596 0.974656 -0.174809
14780.00000000 16030.00000000 -1170.00000000 224 39 124 97.000000 1.000000 4.000000 1.000000 -60.708740 114.000000 226.000000 -0.469405 0.878559 -0.088276
14790.00000000 16020.00000000 -1190.00000000 224 39 124 97.000000 1.000000 4.000000 1.000000 -60.708740 114.000000 226.000000 -0.407942 0.833209 -0.373290
14810.00000000 15990.00000000 -1180.00000000 224 39 124 97.000000 1.000000 4.000000 1.000000 -60.708740 114.000000 226.000000 -0.404859 0.897606 -0.174334
14770.00000000 16000.00000000 -1120.00000000 224 39 124 97.000000 1.000000 4.000000 1.000000 -60.708740 114.000000 226.000000 -0.631551 0.775274 0.009674
14810.00000000 16060.00000000 -1200.00000000 224 39 124 97.000000 1.000000 4.000000 1.000000 -60.708740 114.000000 226.000000 -0.101588 0.971985 -0.211955
14750.00000000 15950.00000000 -1120.00000000 224 39 124 97.000000 1.000000 4.000000 1.000000 -60.708740 114.000000 226.000000 -0.441420 0.773707 -0.454451
15080.00000000 15640.00000000 -210.00000000 224 39 124 97.000000 1.000000 4.000000 1.000000 -60.708740 114.000000 226.000000 -0.555535 0.695670 -0.455439
15090.00000000 15640.00000000 -260.00000000 224 39 124 97.000000 1.000000 4.000000 1.000000 -60.708740 114.000000 226.000000 -0.461678 0.796274 -0.390898
15130.00000000 15690.00000000 -310.00000000 224 39 124 97.000000 1.000000 4.000000 1.000000 -60.708740 114.000000 226.000000 -0.351291 0.710751 -0.609449
15130.00000000 15690.00000000 -320.00000000 224 39 124 97.000000 1.000000 4.000000 1.000000 -60.708740 114.000000 226.000000 -0.215497 0.758116 -0.615485
15140.00000000 15650.00000000 -340.00000000 224 39 124 97.000000 1.000000 4.000000 1.000000 -60.708740 114.000000 226.000000 0.700717 -0.703692 0.117530
15090.00000000 15690.00000000 -280.00000000 224 39 124 97.000000 1.000000 4.000000 1.000000 -60.708740 114.000000 226.000000 0.385155 -0.729337 0.565441
15100.00000000 15690.00000000 -310.00000000 224 39 124 97.000000 1.000000 4.000000 1.000000 -60.708740 114.000000 226.000000 -0.485044 0.855873 -0.179481
15100.00000000 15680.00000000 -330.00000000 224 39 124 97.000000 1.000000 4.000000 1.000000 -60.708740 114.000000 226.000000 0.716210 -0.649807 0.254547
15070.00000000 15660.00000000 -310.00000000 224 39 124 97.000000 1.000000 4.000000 1.000000 -60.708740 114.000000 226.000000 -0.223056 0.965717 -0.132802
15070.00000000 15640.00000000 -340.00000000 224 39 124 97.000000 1.000000 4.000000 1.000000 -60.708740 114.000000 226.000000 0.009425 0.863105 -0.504937
15030.00000000 15640.00000000 -250.00000000 224 39 124 97.000000 1.000000 4.000000 1.000000 -60.708740 114.000000 226.000000 -0.397375 0.880224 -0.259419
15010.00000000 15700.00000000 -250.00000000 224 39 124 97.000000 1.000000 4.000000 1.000000 -60.708740 114.000000 226.000000 -0.035390 0.726204 -0.686567
15000.00000000 15660.00000000 -200.00000000 224 39 124 97.000000 1.000000 4.000000 1.000000 -60.708740 114.000000 226.000000 -0.306278 0.907111 -0.288693
15010.00000000 15660.00000000 -210.00000000 224 39 124 97.000000 1.000000 4.000000 1.000000 -60.708740 114.000000 226.000000 0.006749 0.854361 -0.519635
14990.00000000 15640.00000000 -220.00000000 224 39 124 97.000000 1.000000 4.000000 1.000000 -60.708740 114.000000 226.000000 0.146925 0.817732 -0.556532
15020.00000000 15670.00000000 -270.00000000 224 39 124 97.000000 1.000000 4.000000 1.000000 -60.708740 114.000000 226.000000 0.141262 0.976333 -0.163764
15040.00000000 15650.00000000 -300.00000000 224 39 124 97.000000 1.000000 4.000000 1.000000 -60.708740 114.000000 226.000000 -0.278860 0.955906 -0.092089
15060.00000000 15650.00000000 -330.00000000 224 39 124 97.000000 1.000000 4.000000 1.000000 -60.708740 114.000000 226.000000 -0.612222 0.758656 -0.222768
15060.00000000 15640.00000000 -350.00000000 224 39 124 97.000000 1.000000 4.000000 1.000000 -60.708740 114.000000 226.000000 -0.098372 0.856836 -0.506118
15060.00000000 15650.00000000 -330.00000000 224 39 124 97.000000 1.000000 4.000000 1.000000 -60.708740 114.000000 226.000000 -0.612222 0.758656 -0.222768
15010.00000000 15600.00000000 -160.00000000 224 39 124 97.000000 1.000000 4.000000 1.000000 -60.708740 114.000000 226.000000 -0.254822 0.688495 -0.678999
15000.00000000 15570.00000000 -180.00000000 224 39 124 97.000000 1.000000 4.000000 1.000000 -60.708740 114.000000 226.000000 -0.034575 0.842245 -0.537986
15070.00000000 15610.00000000 -210.00000000 224 39 124 97.000000 1.000000 4.000000 1.000000 -60.708740 114.000000 226.000000 -0.326049 0.843983 -0.425892
15120.00000000 15610.00000000 -260.00000000 224 39 124 97.000000 1.000000 4.000000 1.000000 -60.708740 114.000000 226.000000 -0.350361 0.936420 -0.019111
15120.00000000 15630.00000000 -350.00000000 224 39 124 97.000000 1.000000 4.000000 1.000000 -60.708740 114.000000 226.000000 -0.489710 0.869201 -0.068364
15080.00000000 15590.00000000 -310.00000000 224 39 124 97.000000 1.000000 4.000000 1.000000 -60.708740 114.000000 226.000000 -0.205093 0.978585 -0.017579
15110.00000000 15630.00000000 -340.00000000 224 39 124 97.000000 1.000000 4.000000 1.000000 -60.708740 114.000000 226.000000 -0.256520 0.816199 -0.517703
15030.00000000 15630.00000000 -210.00000000 224 39 124 97.000000 1.000000 4.000000 1.000000 -60.708740 114.000000 226.000000 -0.318359 0.944596 -0.079917
15040.00000000 15620.00000000 -220.00000000 224 39 124 97.000000 1.000000 4.000000 1.000000 -60.708740 114.000000 226.000000 -0.221781 0.974636 0.029970
15030.00000000 15620.00000000 -230.00000000 224 39 124 97.000000 1.000000 4.000000 1.000000 -60.708740 114.000000 226.000000 -0.289572 0.956466 0.036353
15040.00000000 15620.00000000 -230.00000000 224 39 124 97.000000 1.000000 4.000000 1.000000 -60.708740 114.000000 226.000000 -0.163346 0.957502 -0.237715
15030.00000000 15630.00000000 -250.00000000 224 39 124 97.000000 1.000000 4.000000 1.000000 -60.708740 114.000000 226.000000 -0.293055 0.952105 -0.087265
15060.00000000 15610.00000000 -270.00000000 224 39 124 97.000000 1.000000 4.000000 1.000000 -60.708740 114.000000 226.000000 -0.024769 0.921671 -0.387180
15050.00000000 15610.00000000 -240.00000000 224 39 124 97.000000 1.000000 4.000000 1.000000 -60.708740 114.000000 226.000000 0.036414 0.955552 -0.292567
15040.00000000 15630.00000000 -270.00000000 224 39 124 97.000000 1.000000 4.000000 1.000000 -60.708740 114.000000 226.000000 -0.242165 0.967407 0.074030
15030.00000000 15630.00000000 -260.00000000 224 39 124 97.000000 1.000000 4.000000 1.000000 -60.708740 114.000000 226.000000 -0.249336 0.865876 -0.433694
15020.00000000 15620.00000000 -220.00000000 224 39 124 97.000000 1.000000 4.000000 1.000000 -60.708740 114.000000 226.000000 -0.282400 0.865518 -0.413678
15020.00000000 15630.00000000 -250.00000000 224 39 124 97.000000 1.000000 4.000000 1.000000 -60.708740 114.000000 226.000000 -0.275753 0.960808 0.028441
14990.00000000 15560.00000000 -190.00000000 224 39 124 97.000000 1.000000 4.000000 1.000000 -60.708740 114.000000 226.000000 -0.387053 0.829398 -0.402851
15060.00000000 15630.00000000 -350.00000000 224 39 124 97.000000 1.000000 4.000000 1.000000 -60.708740 114.000000 226.000000 -0.411591 0.886617 -0.210959
15010.00000000 15590.00000000 -310.00000000 224 39 124 97.000000 1.000000 4.000000 1.000000 -60.708740 114.000000 226.000000 -0.061914 0.977274 -0.202739
15000.00000000 15600.00000000 -310.00000000 224 39 124 97.000000 1.000000 4.000000 1.000000 -60.708740 114.000000 226.000000 -0.033226 0.905071 -0.423961
15010.00000000 15590.00000000 -320.00000000 224 39 124 97.000000 1.000000 4.000000 1.000000 -60.708740 114.000000 226.000000 -0.229153 0.972999 0.027594
14970.00000000 15650.00000000 -220.00000000 224 39 124 97.000000 1.000000 4.000000 1.000000 -60.708740 114.000000 226.000000 0.222637 0.926001 -0.304885
14960.00000000 15660.00000000 -270.00000000 224 39 124 97.000000 1.000000 4.000000 1.000000 -60.708740 114.000000 226.000000 0.231692 0.904910 -0.357010
14940.00000000 15660.00000000 -270.00000000 224 39 124 97.000000 1.000000 4.000000 1.000000 -60.708740 114.000000 226.000000 0.322209 0.946568 -0.013791
14940.00000000 15660.00000000 -270.00000000 224 39 124 97.000000 1.000000 4.000000 1.000000 -60.708740 114.000000 226.000000 0.322209 0.946568 -0.013791
14950.00000000 15670.00000000 -290.00000000 224 39 124 97.000000 1.000000 4.000000 1.000000 -60.708740 114.000000 226.000000 -0.078314 0.956460 -0.281161
14960.00000000 15610.00000000 -210.00000000 224 39 124 97.000000 1.000000 4.000000 1.000000 -60.708740 114.000000 226.000000 -0.072571 -0.823898 0.562072
14950.00000000 15610.00000000 -220.00000000 224 39 124 97.000000 1.000000 4.000000 1.000000 -60.708740 114.000000 226.000000 0.125206 0.805735 -0.578892
14950.00000000 15590.00000000 -250.00000000 224 39 124 97.000000 1.000000 4.000000 1.000000 -60.708740 114.000000 226.000000 -0.075145 0.843603 -0.531683
14960.00000000 15630.00000000 -240.00000000 224 39 124 97.000000 1.000000 4.000000 1.000000 -60.708740 114.000000 226.000000 -0.306239 0.824491 -0.475849
14930.00000000 15630.00000000 -200.00000000 224 39 124 97.000000 1.000000 4.000000 1.000000 -60.708740 114.000000 226.000000 -0.257125 0.948234 -0.186382
14920.00000000 15590.00000000 -250.00000000 224 39 124 97.000000 1.000000 4.000000 1.000000 -60.708740 114.000000 226.000000 0.156689 0.941495 -0.298390
14940.00000000 15590.00000000 -240.00000000 224 39 124 97.000000 1.000000 4.000000 1.000000 -60.708740 114.000000 226.000000 -0.159021 0.984020 -0.080109
14930.00000000 15590.00000000 -240.00000000 224 39 124 97.000000 1.000000 4.000000 1.000000 -60.708740 114.000000 226.000000 0.374497 0.915904 -0.144469
14900.00000000 15590.00000000 -250.00000000 224 39 124 97.000000 1.000000 4.000000 1.000000 -60.708740 114.000000 226.000000 -0.106526 0.985068 -0.135252
14920.00000000 15600.00000000 -240.00000000 224 39 124 97.000000 1.000000 4.000000 1.000000 -60.708740 114.000000 226.000000 0.483469 0.802590 -0.349438
14980.00000000 15590.00000000 -280.00000000 224 39 124 97.000000 1.000000 4.000000 1.000000 -60.708740 114.000000 226.000000 -0.270004 0.768959 -0.579482
14970.00000000 15590.00000000 -290.00000000 224 39 124 97.000000 1.000000 4.000000 1.000000 -60.708740 114.000000 226.000000 0.387972 0.840345 -0.378548
15120.00000000 15760.00000000 -520.00000000 224 39 124 97.000000 1.000000 4.000000 1.000000 -60.708740 114.000000 226.000000 0.884868 -0.351234 0.306011
15090.00000000 15650.00000000 -360.00000000 224 39 124 97.000000 1.000000 4.000000 1.000000 -60.708740 114.000000 226.000000 0.572636 -0.702101 0.423252
15090.00000000 15640.00000000 -370.00000000 224 39 124 97.000000 1.000000 4.000000 1.000000 -60.708740 114.000000 226.000000 -0.237080 0.955017 -0.178145
15090.00000000 15640.00000000 -370.00000000 224 39 124 97.000000 1.000000 4.000000 1.000000 -60.708740 114.000000 226.000000 -0.237080 0.955017 -0.178145
15090.00000000 15670.00000000 -410.00000000 224 39 124 97.000000 1.000000 4.000000 1.000000 -60.708740 114.000000 226.000000 -0.292993 0.939504 -0.177447
15120.00000000 15690.00000000 -470.00000000 224 39 124 97.000000 1.000000 4.000000 1.000000 -60.708740 114.000000 226.000000 -0.228128 0.893379 -0.387082
15110.00000000 15690.00000000 -460.00000000 224 39 124 97.000000 1.000000 4.000000 1.000000 -60.708740 114.000000 226.000000 -0.380045 0.921035 -0.085206
15090.00000000 15680.00000000 -470.00000000 224 39 124 97.000000 1.000000 4.000000 1.000000 -60.708740 114.000000 226.000000 -0.641292 0.745368 -0.182133
15100.00000000 15690.00000000 -470.00000000 224 39 124 97.000000 1.000000 4.000000 1.000000 -60.708740 114.000000 226.000000 -0.332150 0.878149 -0.344283
15070.00000000 15690.00000000 -460.00000000 224 39 124 97.000000 1.000000 4.000000 1.000000 -60.708740 114.000000 226.000000 -0.278677 0.958190 0.064897
15100.00000000 15690.00000000 -520.00000000 224 39 124 97.000000 1.000000 4.000000 1.000000 -60.708740 114.000000 226.000000 -0.642327 0.746076 -0.175458
15080.00000000 15690.00000000 -500.00000000 224 39 124 97.000000 1.000000 4.000000 1.000000 -60.708740 114.000000 226.000000 -0.393154 0.715574 -0.577394
15080.00000000 15700.00000000 -500.00000000 224 39 124 97.000000 1.000000 4.000000 1.000000 -60.708740 114.000000 226.000000 -0.645523 0.748323 -0.152688
15090.00000000 15700.00000000 -490.00000000 224 39 124 97.000000 1.000000 4.000000 1.000000 -60.708740 114.000000 226.000000 -0.593405 0.778362 -0.204994
15090.00000000 15700.00000000 -500.00000000 224 39 124 97.000000 1.000000 4.000000 1.000000 -60.708740 114.000000 226.000000 -0.508090 0.744869 -0.432452
15090.00000000 15710.00000000 -490.00000000 224 39 124 97.000000 1.000000 4.000000 1.000000 -60.708740 114.000000 226.000000 0.684551 -0.615271 0.390936
15070.00000000 15650.00000000 -490.00000000 224 39 124 97.000000 1.000000 4.000000 1.000000 -60.708740 114.000000 226.000000 -0.143048 0.973487 -0.178494
15040.00000000 15670.00000000 -400.00000000 224 39 124 97.000000 1.000000 4.000000 1.000000 -60.708740 114.000000 226.000000 -0.472216 0.880473 -0.042186
14990.00000000 15690.00000000 -370.00000000 224 39 124 97.000000 1.000000 4.000000 1.000000 -60.708740 114.000000 226.000000 0.244303 0.930610 -0.272546
15000.00000000 15700.00000000 -410.00000000 224 39 124 97.000000 1.000000 4.000000 1.000000 -60.708740 114.000000 226.000000 -0.042472 0.872721 -0.486368
14990.00000000 15710.00000000 -410.00000000 224 39 124 97.000000 1.000000 4.000000 1.000000 -60.708740 114.000000 226.000000 0.137495 0.866945 -0.479063
15010.00000000 15700.00000000 -410.00000000 224 39 124 97.000000 1.000000 4.000000 1.000000 -60.708740 114.000000 226.000000 -0.085396 0.880560 -0.466179
15060.00000000 15700.00000000 -520.00000000 224 39 124 97.000000 1.000000 4.000000 1.000000 -60.708740 114.000000 226.000000 -0.418083 0.908249 -0.017038
15060.00000000 15670.00000000 -510.00000000 224 39 124 97.000000 1.000000 4.000000 1.000000 -60.708740 114.000000 226.000000 -0.071508 0.947803 -0.310734
15050.00000000 15670.00000000 -510.00000000 224 39 124 97.000000 1.000000 4.000000 1.000000 -60.708740 114.000000 226.000000 -0.567491 0.788268 -0.237880
15140.00000000 15760.00000000 -530.00000000 224 39 124 97.000000 1.000000 4.000000 1.000000 -60.708740 114.000000 226.000000 -0.514983 0.682729 -0.518337
15140.00000000 15780.00000000 -600.00000000 224 39 124 97.000000 1.000000 4.000000 1.000000 -60.708740 114.000000 226.000000 -0.694966 0.698021 -0.172596
15120.00000000 15740.00000000 -530.00000000 224 39 124 97.000000 1.000000 4.000000 1.000000 -60.708740 114.000000 226.000000 0.751149 -0.646615 -0.132907
15120.00000000 15730.00000000 -550.00000000 224 39 124 97.000000 1.000000 4.000000 1.000000 -60.708740 114.000000 226.000000 0.814841 -0.575098 0.072779
15120.00000000 15740.00000000 -590.00000000 224 39 124 97.000000 1.000000 4.000000 1.000000 -60.708740 114.000000 226.000000 -0.560064 0.820355 -0.115522
15110.00000000 15730.00000000 -600.00000000 224 39 124 97.000000 1.000000 4.000000 1.000000 -60.708740 114.000000 226.000000 -0.624449 0.777317 0.076434
15140.00000000 15760.00000000 -660.00000000 224 39 124 97.000000 1.000000 4.000000 1.000000 -60.708740 114.000000 226.000000 0.910357 -0.405362 -0.083256
15120.00000000 15750.00000000 -630.00000000 224 39 124 97.000000 1.000000 4.000000 1.000000 -60.708740 114.000000 226.000000 -0.602681 0.797544 0.026446
15120.00000000 15740.00000000 -690.00000000 224 39 124 97.000000 1.000000 4.000000 1.000000 -60.708740 114.000000 226.000000 0.805448 -0.572331 -0.153917
15140.00000000 15740.00000000 -670.00000000 224 39 124 97.000000 1.000000 4.000000 1.000000 -60.708740 114.000000 226.000000 0.854207 -0.212422 0.474560
15080.00000000 15740.00000000 -660.00000000 224 39 124 97.000000 1.000000 4.000000 1.000000 -60.708740 114.000000 226.000000 -0.381723 0.809765 -0.445610
15100.00000000 15680.00000000 -540.00000000 224 39 124 97.000000 1.000000 4.000000 1.000000 -60.708740 114.000000 226.000000 0.588841 -0.672247 0.448721
15090.00000000 15690.00000000 -530.00000000 224 39 124 97.000000 1.000000 4.000000 1.000000 -60.708740 114.000000 226.000000 -0.273120 0.890998 -0.362668
15090.00000000 15680.00000000 -550.00000000 224 39 124 97.000000 1.000000 4.000000 1.000000 -60.708740 114.000000 226.000000 -0.694015 0.719354 -0.029562
15100.00000000 15690.00000000 -540.00000000 224 39 124 97.000000 1.000000 4.000000 1.000000 -60.708740 114.000000 226.000000 0.694030 -0.671795 0.258871
15090.00000000 15680.00000000 -540.00000000 224 39 124 97.000000 1.000000 4.000000 1.000000 -60.708740 114.000000 226.000000 -0.449332 0.745595 -0.492126
15100.00000000 15690.00000000 -600.00000000 224 39 124 97.000000 1.000000 4.000000 1.000000 -60.708740 114.000000 226.000000 -0.512293 0.805482 -0.297918
15130.00000000 15700.00000000 -670.00000000 224 39 124 97.000000 1.000000 4.000000 1.000000 -60.708740 114.000000 226.000000 -0.399507 0.761509 -0.510390
15070.00000000 15690.00000000 -690.00000000 224 39 124 97.000000 1.000000 4.000000 1.000000 -60.708740 114.000000 226.000000 -0.429931 0.899696 0.075547
15070.00000000 15690.00000000 -680.00000000 224 39 124 97.000000 1.000000 4.000000 1.000000 -60.708740 114.000000 226.000000 -0.404190 0.800328 -0.442838
15070.00000000 15650.00000000 -690.00000000 224 39 124 97.000000 1.000000 4.000000 1.000000 -60.708740 114.000000 226.000000 -0.159373 0.981787 -0.103410
15050.00000000 15720.00000000 -690.00000000 224 39 124 97.000000 1.000000 4.000000 1.000000 -60.708740 114.000000 226.000000 -0.124061 0.833397 -0.538570
14990.00000000 15790.00000000 -690.00000000 224 39 124 97.000000 1.000000 4.000000 1.000000 -60.708740 114.000000 226.000000 0.035152 0.989919 -0.137205
14990.00000000 15720.00000000 -610.00000000 224 39 124 97.000000 1.000000 4.000000 1.000000 -60.708740 114.000000 226.000000 0.221461 0.944992 -0.240718
15060.00000000 15700.00000000 -540.00000000 224 39 124 97.000000 1.000000 4.000000 1.000000 -60.708740 114.000000 226.000000 -0.167968 0.958871 -0.228807
15000.00000000 15710.00000000 -650.00000000 224 39 124 97.000000 1.000000 4.000000 1.000000 -60.708740 114.000000 226.000000 0.194715 0.973573 -0.119341
15120.00000000 15620.00000000 -360.00000000 224 39 124 97.000000 1.000000 4.000000 1.000000 -60.708740 114.000000 226.000000 -0.658597 0.752485 -0.004142
15130.00000000 15620.00000000 -380.00000000 224 39 124 97.000000 1.000000 4.000000 1.000000 -60.708740 114.000000 226.000000 0.634110 -0.734812 0.240741
15120.00000000 15610.00000000 -400.00000000 224 39 124 97.000000 1.000000 4.000000 1.000000 -60.708740 114.000000 226.000000 -0.372688 0.924320 -0.082072
15070.00000000 15630.00000000 -370.00000000 224 39 124 97.000000 1.000000 4.000000 1.000000 -60.708740 114.000000 226.000000 0.010495 0.978409 -0.206411
15110.00000000 15600.00000000 -380.00000000 224 39 124 97.000000 1.000000 4.000000 1.000000 -60.708740 114.000000 226.000000 -0.462930 0.878854 -0.115376
15070.00000000 15630.00000000 -360.00000000 224 39 124 97.000000 1.000000 4.000000 1.000000 -60.708740 114.000000 226.000000 -0.155671 0.918601 -0.363233
15110.00000000 15610.00000000 -370.00000000 224 39 124 97.000000 1.000000 4.000000 1.000000 -60.708740 114.000000 226.000000 -0.647941 0.760872 -0.035291
15070.00000000 15630.00000000 -360.00000000 224 39 124 97.000000 1.000000 4.000000 1.000000 -60.708740 114.000000 226.000000 -0.155671 0.918601 -0.363233
15140.00000000 15620.00000000 -490.00000000 224 39 124 97.000000 1.000000 4.000000 1.000000 -60.708740 114.000000 226.000000 0.595846 -0.538456 0.595846
15140.00000000 15620.00000000 -490.00000000 224 39 124 97.000000 1.000000 4.000000 1.000000 -60.708740 114.000000 226.000000 0.595846 -0.538456 0.595846
15070.00000000 15590.00000000 -510.00000000 224 39 124 97.000000 1.000000 4.000000 1.000000 -60.708740 114.000000 226.000000 -0.227378 0.704088 -0.672725
15040.00000000 15630.00000000 -390.00000000 224 39 124 97.000000 1.000000 4.000000 1.000000 -60.708740 114.000000 226.000000 -0.085070 0.803115 -0.589720
15020.00000000 15620.00000000 -400.00000000 224 39 124 97.000000 1.000000 4.000000 1.000000 -60.708740 114.000000 226.000000 0.262432 -0.682323 0.682323
15040.00000000 15630.00000000 -460.00000000 224 39 124 97.000000 1.000000 4.000000 1.000000 -60.708740 114.000000 226.000000 -0.572424 0.810811 -0.122137
15140.00000000 15610.00000000 -620.00000000 224 39 124 97.000000 1.000000 4.000000 1.000000 -60.708740 114.000000 226.000000 0.708726 -0.614229 0.347031
15120.00000000 15620.00000000 -660.00000000 224 39 124 97.000000 1.000000 4.000000 1.000000 -60.708740 114.000000 226.000000 0.784319 -0.553915 0.279325
15090.00000000 15610.00000000 -640.00000000 224 39 124 97.000000 1.000000 4.000000 1.000000 -60.708740 114.000000 226.000000 -0.468298 0.602577 -0.646218
15090.00000000 15600.00000000 -640.00000000 224 39 124 97.000000 1.000000 4.000000 1.000000 -60.708740 114.000000 226.000000 -0.397654 0.780701 -0.482055
15110.00000000 15620.00000000 -660.00000000 224 39 124 97.000000 1.000000 4.000000 1.000000 -60.708740 114.000000 226.000000 -0.646547 0.762843 0.006922
15150.00000000 15530.00000000 -660.00000000 224 39 124 97.000000 1.000000 4.000000 1.000000 -60.708740 114.000000 226.000000 -0.495623 0.646830 -0.579627
15090.00000000 15500.00000000 -670.00000000 224 39 124 97.000000 1.000000 4.000000 1.000000 -60.708740 114.000000 226.000000 0.644937 -0.737734 0.199513
15030.00000000 15620.00000000 -690.00000000 224 39 124 97.000000 1.000000 4.000000 1.000000 -60.708740 114.000000 226.000000 -0.201684 0.926619 -0.317335
15010.00000000 15610.00000000 -680.00000000 224 39 124 97.000000 1.000000 4.000000 1.000000 -60.708740 114.000000 226.000000 -0.166169 0.818867 -0.549404
14980.00000000 15690.00000000 -370.00000000 224 39 124 97.000000 1.000000 4.000000 1.000000 -60.708740 114.000000 226.000000 0.207573 0.785701 -0.582741
14980.00000000 15690.00000000 -380.00000000 224 39 124 97.000000 1.000000 4.000000 1.000000 -60.708740 114.000000 226.000000 -0.020888 0.786775 -0.616887
14950.00000000 15770.00000000 -570.00000000 224 39 124 97.000000 1.000000 4.000000 1.000000 -60.708740 114.000000 226.000000 0.313000 0.949137 0.034215
14970.00000000 15760.00000000 -580.00000000 224 39 124 97.000000 1.000000 4.000000 1.000000 -60.708740 114.000000 226.000000 0.435651 0.866779 -0.242698
14950.00000000 15770.00000000 -590.00000000 224 39 124 97.000000 1.000000 4.000000 1.000000 -60.708740 114.000000 226.000000 0.446332 0.894013 -0.039105
14910.00000000 15760.00000000 -560.00000000 224 39 124 97.000000 1.000000 4.000000 1.000000 -60.708740 114.000000 226.000000 0.361891 0.922059 -0.137269
14930.00000000 15750.00000000 -690.00000000 224 39 124 97.000000 1.000000 4.000000 1.000000 -60.708740 114.000000 226.000000 0.573310 0.724441 -0.382754
14850.00000000 15770.00000000 -680.00000000 224 39 124 97.000000 1.000000 4.000000 1.000000 -60.708740 114.000000 226.000000 0.868266 0.359863 -0.341487
15140.00000000 15760.00000000 -750.00000000 224 39 124 97.000000 1.000000 4.000000 1.000000 -60.708740 114.000000 226.000000 0.932770 -0.112366 0.342512
15140.00000000 15760.00000000 -750.00000000 224 39 124 97.000000 1.000000 4.000000 1.000000 -60.708740 114.000000 226.000000 0.932770 -0.112366 0.342512
15130.00000000 15750.00000000 -730.00000000 224 39 124 97.000000 1.000000 4.000000 1.000000 -60.708740 114.000000 226.000000 0.972759 -0.173752 0.153460
15130.00000000 15730.00000000 -730.00000000 224 39 124 97.000000 1.000000 4.000000 1.000000 -60.708740 114.000000 226.000000 0.794201 -0.607653 -0.001372
15100.00000000 15750.00000000 -700.00000000 224 39 124 97.000000 1.000000 4.000000 1.000000 -60.708740 114.000000 226.000000 0.844189 -0.344854 0.410391
15120.00000000 15770.00000000 -860.00000000 224 39 124 97.000000 1.000000 4.000000 1.000000 -60.708740 114.000000 226.000000 0.952719 0.293443 0.078855
15090.00000000 15780.00000000 -820.00000000 224 39 124 97.000000 1.000000 4.000000 1.000000 -60.708740 114.000000 226.000000 0.996445 -0.042379 -0.072805
15090.00000000 15730.00000000 -810.00000000 224 39 124 97.000000 1.000000 4.000000 1.000000 -60.708740 114.000000 226.000000 0.951676 -0.305492 -0.031429
15090.00000000 15730.00000000 -800.00000000 224 39 124 97.000000 1.000000 4.000000 1.000000 -60.708740 114.000000 226.000000 0.878373 -0.221451 0.423581
15150.00000000 15680.00000000 -730.00000000 224 39 124 97.000000 1.000000 4.000000 1.000000 -60.708740 114.000000 226.000000 0.763709 -0.582705 0.277857
15110.00000000 15670.00000000 -770.00000000 224 39 124 97.000000 1.000000 4.000000 1.000000 -60.708740 114.000000 226.000000 -0.536683 0.826701 -0.168928
15140.00000000 15710.00000000 -830.00000000 224 39 124 97.000000 1.000000 4.000000 1.000000 -60.708740 114.000000 226.000000 0.961984 -0.061779 0.266027
15100.00000000 15650.00000000 -790.00000000 224 39 124 97.000000 1.000000 4.000000 1.000000 -60.708740 114.000000 226.000000 -0.624946 0.778691 0.055519
15090.00000000 15670.00000000 -850.00000000 224 39 124 97.000000 1.000000 4.000000 1.000000 -60.708740 114.000000 226.000000 -0.386280 0.868749 -0.309940
15090.00000000 15670.00000000 -850.00000000 224 39 124 97.000000 1.000000 4.000000 1.000000 -60.708740 114.000000 226.000000 -0.386280 0.868749 -0.309940
15090.00000000 15670.00000000 -850.00000000 224 39 124 97.000000 1.000000 4.000000 1.000000 -60.708740 114.000000 226.000000 -0.386280 0.868749 -0.309940
15050.00000000 15740.00000000 -710.00000000 224 39 124 97.000000 1.000000 4.000000 1.000000 -60.708740 114.000000 226.000000 -0.231197 0.955525 -0.183087
15000.00000000 15760.00000000 -700.00000000 224 39 124 97.000000 1.000000 4.000000 1.000000 -60.708740 114.000000 226.000000 0.156046 -0.692358 0.704478
15010.00000000 15680.00000000 -730.00000000 224 39 124 97.000000 1.000000 4.000000 1.000000 -60.708740 114.000000 226.000000 -0.385869 0.730688 -0.563205
