//X Y Z R G B PointSourceId ScanDirectionFlag NumberOfReturns ReturnNumber GpsTime Intensity Classification Nx Ny Nz
1570.00000000 1350.00000000 -410.00000000 3 144 182 97.000000 1.000000 4.000000 1.000000 -60.708740 114.000000 50.000000 -0.104582 0.732071 0.673152
1510.00000000 1370.00000000 -430.00000000 3 144 182 97.000000 1.000000 4.000000 1.000000 -60.708740 114.000000 50.000000 0.085897 0.942229 0.323767
1550.00000000 1370.00000000 -410.00000000 3 144 182 97.000000 1.000000 4.000000 1.000000 -60.708740 114.000000 50.000000 -0.051289 0.996315 0.068749
1530.00000000 1350.00000000 -380.00000000 3 144 182 97.000000 1.000000 4.000000 1.000000 -60.708740 114.000000 50.000000 0.148563 0.951608 0.269020
1540.00000000 1320.00000000 -400.00000000 3 144 182 97.000000 1.000000 4.000000 1.000000 -60.708740 114.000000 50.000000 -0.340781 0.872584 0.349950
1570.00000000 1360.00000000 -480.00000000 3 144 182 97.000000 1.000000 4.000000 1.000000 -60.708740 114.000000 50.000000 -0.070715 0.997402 -0.013721
1570.00000000 1360.00000000 -480.00000000 3 144 182 97.000000 1.000000 4.000000 1.000000 -60.708740 114.000000 50.000000 -0.070715 0.997402 -0.013721
1570.00000000 1360.00000000 -480.00000000 3 144 182 97.000000 1.000000 4.000000 1.000000 -60.708740 114.000000 50.000000 -0.070715 0.997402 -0.013721
1570.00000000 1360.00000000 -480.00000000 3 144 182 97.000000 1.000000 4.000000 1.000000 -60.708740 114.000000 50.000000 -0.070715 0.997402 -0.013721
1560.00000000 1340.00000000 -500.00000000 3 144 182 97.000000 1.000000 4.000000 1.000000 -60.708740 114.000000 50.000000 -0.187139 0.842872 0.504525
1550.00000000 1360.00000000 -480.00000000 3 144 182 97.000000 1.000000 4.000000 1.000000 -60.708740 114.000000 50.000000 -0.205497 0.948550 0.240880
1550.00000000 1360.00000000 -490.00000000 3 144 182 97.000000 1.000000 4.000000 1.000000 -60.708740 114.000000 50.000000 -0.131026 0.873988 0.467951
1520.00000000 1350.00000000 -490.00000000 3 144 182 97.000000 1.000000 4.000000 1.000000 -60.708740 114.000000 50.000000 -0.156466 0.864217 0.478171
1550.00000000 1340.00000000 -500.00000000 3 144 182 97.000000 1.000000 4.000000 1.000000 -60.708740 114.000000 50.000000 0.294833 0.907969 0.297767
1610.00000000 1390.00000000 -530.00000000 3 144 182 97.000000 1.000000 4.000000 1.000000 -60.708740 114.000000 50.000000 0.003604 0.964758 0.263116
1640.00000000 1380.00000000 -600.00000000 3 144 182 97.000000 1.000000 4.000000 1.000000 -60.708740 114.000000 50.000000 -0.009703 0.995128 0.098111
1640.00000000 1380.00000000 -680.00000000 3 144 182 97.000000 1.000000 4.000000 1.000000 -60.708740 114.000000 50.000000 -0.027938 0.968098 0.249009
1670.00000000 1340.00000000 -650.00000000 3 144 182 97.000000 1.000000 4.000000 1.000000 -60.708740 114.000000 50.000000 -0.116172 0.928009 0.353983
1670.00000000 1350.00000000 -640.00000000 3 144 182 97.000000 1.000000 4.000000 1.000000 -60.708740 114.000000 50.000000 -0.076792 0.920152 0.383958
1620.00000000 1370.00000000 -680.00000000 3 144 182 97.000000 1.000000 4.000000 1.000000 -60.708740 114.000000 50.000000 -0.566909 0.823725 0.009562
1630.00000000 1340.00000000 -610.00000000 3 144 182 97.000000 1.000000 4.000000 1.000000 -60.708740 114.000000 50.000000 -0.226366 0.955024 0.191541
1580.00000000 1360.00000000 -530.00000000 3 144 182 97.000000 1.000000 4.000000 1.000000 -60.708740 114.000000 50.000000 0.077168 0.868489 0.489665
1560.00000000 1360.00000000 -570.00000000 3 144 182 97.000000 1.000000 4.000000 1.000000 -60.708740 114.000000 50.000000 -0.521967 0.826321 0.211526
1570.00000000 1330.00000000 -560.00000000 3 144 182 97.000000 1.000000 4.000000 1.000000 -60.708740 114.000000 50.000000 -0.064255 0.987191 -0.146034
1580.00000000 1340.00000000 -550.00000000 3 144 182 97.000000 1.000000 4.000000 1.000000 -60.708740 114.000000 50.000000 -0.312775 0.935568 0.163966
1530.00000000 1360.00000000 -590.00000000 3 144 182 97.000000 1.000000 4.000000 1.000000 -60.708740 114.000000 50.000000 -0.514589 0.816191 0.262736
1510.00000000 1330.00000000 -580.00000000 3 144 182 97.000000 1.000000 4.000000 1.000000 -60.708740 114.000000 50.000000 -0.446042 0.875892 -0.184011
1590.00000000 1390.00000000 -690.00000000 3 144 182 97.000000 1.000000 4.000000 1.000000 -60.708740 114.000000 50.000000 -0.470048 0.876192 0.106506
1570.00000000 1340.00000000 -610.00000000 3 144 182 97.000000 1.000000 4.000000 1.000000 -60.708740 114.000000 50.000000 -0.371566 0.901958 -0.220025
1590.00000000 1330.00000000 -680.00000000 3 144 182 97.000000 1.000000 4.000000 1.000000 -60.708740 114.000000 50.000000 -0.064815 0.974678 0.214013
1590.00000000 1330.00000000 -690.00000000 3 144 182 97.000000 1.000000 4.000000 1.000000 -60.708740 114.000000 50.000000 -0.585341 0.775772 -0.235697
1490.00000000 1370.00000000 -440.00000000 3 144 182 97.000000 1.000000 4.000000 1.000000 -60.708740 114.000000 50.000000 -0.225802 0.940610 0.253508
1480.00000000 1360.00000000 -430.00000000 3 144 182 97.000000 1.000000 4.000000 1.000000 -60.708740 114.000000 50.000000 -0.359104 0.827363 0.431874
1480.00000000 1370.00000000 -450.00000000 3 144 182 97.000000 1.000000 4.000000 1.000000 -60.708740 114.000000 50.000000 -0.408947 0.911858 0.035733
1380.00000000 1330.00000000 -360.00000000 3 144 182 97.000000 1.000000 4.000000 1.000000 -60.708740 114.000000 50.000000 -0.072555 0.994557 -0.074787
1360.00000000 1340.00000000 -450.00000000 3 144 182 97.000000 1.000000 4.000000 1.000000 -60.708740 114.000000 50.000000 -0.405021 0.912969 -0.049458
1450.00000000 1370.00000000 -560.00000000 3 144 182 97.000000 1.000000 4.000000 1.000000 -60.708740 114.000000 50.000000 0.699779 -0.713859 0.026752
1630.00000000 1310.00000000 -320.00000000 3 144 182 97.000000 1.000000 4.000000 1.000000 -60.708740 114.000000 50.000000 0.055649 0.763393 0.643533
1670.00000000 1210.00000000 -330.00000000 3 144 182 97.000000 1.000000 4.000000 1.000000 -60.708740 114.000000 50.000000 0.532535 0.212099 0.819402
1640.00000000 1030.00000000 -150.00000000 3 144 182 97.000000 1.000000 4.000000 1.000000 -60.708740 114.000000 50.000000 0.828209 0.413313 0.378474
1640.00000000 1000.00000000 -140.00000000 3 144 182 97.000000 1.000000 4.000000 1.000000 -60.708740 114.000000 50.000000 0.874333 -0.094637 0.476010
1670.00000000 980.00000000 -140.00000000 3 144 182 97.000000 1.000000 4.000000 1.000000 -60.708740 114.000000 50.000000 0.570233 -0.163998 0.804946
1650.00000000 990.00000000 -160.00000000 3 144 182 97.000000 1.000000 4.000000 1.000000 -60.708740 114.000000 50.000000 0.699092 -0.462168 0.545592
1670.00000000 1010.00000000 -180.00000000 3 144 182 97.000000 1.000000 4.000000 1.000000 -60.708740 114.000000 50.000000 0.873310 -0.349019 0.339875
1650.00000000 980.00000000 -160.00000000 3 144 182 97.000000 1.000000 4.000000 1.000000 -60.708740 114.000000 50.000000 0.670031 0.233805 0.704552
1640.00000000 990.00000000 -150.00000000 3 144 182 97.000000 1.000000 4.000000 1.000000 -60.708740 114.000000 50.000000 0.798316 -0.343964 0.494348
1620.00000000 980.00000000 -120.00000000 3 144 182 97.000000 1.000000 4.000000 1.000000 -60.708740 114.000000 50.000000 0.626293 -0.435900 0.646334
1650.00000000 1000.00000000 -230.00000000 3 144 182 97.000000 1.000000 4.000000 1.000000 -60.708740 114.000000 50.000000 0.926351 -0.307838 0.217047
1640.00000000 1010.00000000 -260.00000000 3 144 182 97.000000 1.000000 4.000000 1.000000 -60.708740 114.000000 50.000000 0.684712 -0.304496 0.662157
1610.00000000 990.00000000 -200.00000000 3 144 182 97.000000 1.000000 4.000000 1.000000 -60.708740 114.000000 50.000000 0.601528 -0.004111 0.798841
1610.00000000 980.00000000 -240.00000000 3 144 182 97.000000 1.000000 4.000000 1.000000 -60.708740 114.000000 50.000000 0.771279 -0.536192 0.342969
1610.00000000 980.00000000 -240.00000000 3 144 182 97.000000 1.000000 4.000000 1.000000 -60.708740 114.000000 50.000000 0.771279 -0.536192 0.342969
1620.00000000 980.00000000 -250.00000000 3 144 182 97.000000 1.000000 4.000000 1.000000 -60.708740 114.000000 50.000000 0.805885 -0.325851 0.494339
1650.00000000 1010.00000000 -290.00000000 3 144 182 97.000000 1.000000 4.000000 1.000000 -60.708740 114.000000 50.000000 0.878626 -0.314120 0.359645
1660.00000000 980.00000000 -320.00000000 3 144 182 97.000000 1.000000 4.000000 1.000000 -60.708740 114.000000 50.000000 0.740196 -0.349763 0.574262
1620.00000000 1020.00000000 -300.00000000 3 144 182 97.000000 1.000000 4.000000 1.000000 -60.708740 114.000000 50.000000 0.751041 -0.478234 0.455226
1610.00000000 1050.00000000 -340.00000000 3 144 182 97.000000 1.000000 4.000000 1.000000 -60.708740 114.000000 50.000000 0.922468 -0.030010 0.384905
1610.00000000 980.00000000 -320.00000000 3 144 182 97.000000 1.000000 4.000000 1.000000 -60.708740 114.000000 50.000000 0.972284 -0.130567 0.193950
1620.00000000 1010.00000000 -340.00000000 3 144 182 97.000000 1.000000 4.000000 1.000000 -60.708740 114.000000 50.000000 0.895412 0.075649 0.438765
1630.00000000 980.00000000 -340.00000000 3 144 182 97.000000 1.000000 4.000000 1.000000 -60.708740 114.000000 50.000000 0.704235 -0.307801 0.639774
1350.00000000 1230.00000000 -30.00000000 3 144 182 97.000000 1.000000 4.000000 1.000000 -60.708740 114.000000 50.000000 0.341247 0.677595 0.651471
1360.00000000 1250.00000000 -160.00000000 3 144 182 97.000000 1.000000 4.000000 1.000000 -60.708740 114.000000 50.000000 0.363820 0.847872 0.385680
1360.00000000 1240.00000000 -160.00000000 3 144 182 97.000000 1.000000 4.000000 1.000000 -60.708740 114.000000 50.000000 0.255934 0.965060 0.056181
1360.00000000 1230.00000000 -160.00000000 3 144 182 97.000000 1.000000 4.000000 1.000000 -60.708740 114.000000 50.000000 -0.241047 0.878850 0.411727
1400.00000000 1200.00000000 -60.00000000 3 144 182 97.000000 1.000000 4.000000 1.000000 -60.708740 114.000000 50.000000 0.043629 0.806442 0.589702
1390.00000000 1190.00000000 -40.00000000 3 144 182 97.000000 1.000000 4.000000 1.000000 -60.708740 114.000000 50.000000 0.184136 0.795893 0.576756
1400.00000000 1150.00000000 -80.00000000 3 144 182 97.000000 1.000000 4.000000 1.000000 -60.708740 114.000000 50.000000 0.161464 0.919644 0.358029
1350.00000000 1210.00000000 -60.00000000 3 144 182 97.000000 1.000000 4.000000 1.000000 -60.708740 114.000000 50.000000 -0.076568 0.922851 0.377469
1350.00000000 1210.00000000 -60.00000000 3 144 182 97.000000 1.000000 4.000000 1.000000 -60.708740 114.000000 50.000000 -0.076568 0.922851 0.377469
1350.00000000 1190.00000000 -20.00000000 3 144 182 97.000000 1.000000 4.000000 1.000000 -60.708740 114.000000 50.000000 -0.062388 0.927853 0.367690
1350.00000000 1170.00000000 -80.00000000 3 144 182 97.000000 1.000000 4.000000 1.000000 -60.708740 114.000000 50.000000 0.192965 0.724004 0.662255
1350.00000000 1220.00000000 -140.00000000 3 144 182 97.000000 1.000000 4.000000 1.000000 -60.708740 114.000000 50.000000 0.020878 0.789180 0.613807
1420.00000000 1240.00000000 -230.00000000 3 144 182 97.000000 1.000000 4.000000 1.000000 -60.708740 114.000000 50.000000 -0.250789 0.921469 0.296647
1350.00000000 1230.00000000 -190.00000000 3 144 182 97.000000 1.000000 4.000000 1.000000 -60.708740 114.000000 50.000000 -0.147062 0.989020 -0.014594
1350.00000000 1240.00000000 -310.00000000 3 144 182 97.000000 1.000000 4.000000 1.000000 -60.708740 114.000000 50.000000 0.107611 0.983007 0.148721
1370.00000000 1240.00000000 -290.00000000 3 144 182 97.000000 1.000000 4.000000 1.000000 -60.708740 114.000000 50.000000 -0.161268 0.955614 0.246567
1360.00000000 1240.00000000 -300.00000000 3 144 182 97.000000 1.000000 4.000000 1.000000 -60.708740 114.000000 50.000000 0.095566 0.995395 0.007516
1390.00000000 1150.00000000 -220.00000000 3 144 182 97.000000 1.000000 4.000000 1.000000 -60.708740 114.000000 50.000000 0.191264 0.922319 0.335775
1350.00000000 1210.00000000 -200.00000000 3 144 182 97.000000 1.000000 4.000000 1.000000 -60.708740 114.000000 50.000000 0.165566 0.915565 0.366509
1370.00000000 1200.00000000 -190.00000000 3 144 182 97.000000 1.000000 4.000000 1.000000 -60.708740 114.000000 50.000000 0.316724 0.903031 0.290207
1350.00000000 1210.00000000 -200.00000000 3 144 182 97.000000 1.000000 4.000000 1.000000 -60.708740 114.000000 50.000000 0.165566 0.915565 0.366509
1350.00000000 1200.00000000 -220.00000000 3 144 182 97.000000 1.000000 4.000000 1.000000 -60.708740 114.000000 50.000000 -0.403300 0.909834 0.097728
1370.00000000 1210.00000000 -190.00000000 3 144 182 97.000000 1.000000 4.000000 1.000000 -60.708740 114.000000 50.000000 0.201071 0.781260 0.590934
1370.00000000 1200.00000000 -210.00000000 3 144 182 97.000000 1.000000 4.000000 1.000000 -60.708740 114.000000 50.000000 -0.097231 0.991753 0.083504
1380.00000000 1200.00000000 -230.00000000 3 144 182 97.000000 1.000000 4.000000 1.000000 -60.708740 114.000000 50.000000 0.013937 0.995936 0.088980
1350.00000000 1210.00000000 -190.00000000 3 144 182 97.000000 1.000000 4.000000 1.000000 -60.708740 114.000000 50.000000 -0.147142 0.917887 0.368556
1360.00000000 1210.00000000 -190.00000000 3 144 182 97.000000 1.000000 4.000000 1.000000 -60.708740 114.000000 50.000000 -0.169550 0.859546 0.482113
1360.00000000 1200.00000000 -260.00000000 3 144 182 97.000000 1.000000 4.000000 1.000000 -60.708740 114.000000 50.000000 -0.507311 0.842525 0.181075
1360.00000000 1200.00000000 -260.00000000 3 144 182 97.000000 1.000000 4.000000 1.000000 -60.708740 114.000000 50.000000 -0.507311 0.842525 0.181075
1350.00000000 1190.00000000 -310.00000000 3 144 182 97.000000 1.000000 4.000000 1.000000 -60.708740 114.000000 50.000000 -0.687578 0.719831 0.095293
1350.00000000 1180.00000000 -320.00000000 3 144 182 97.000000 1.000000 4.000000 1.000000 -60.708740 114.000000 50.000000 -0.686330 0.704755 0.179643
1400.00000000 1130.00000000 -50.00000000 3 144 182 97.000000 1.000000 4.000000 1.000000 -60.708740 114.000000 50.000000 0.217676 0.898460 0.381297
1360.00000000 1130.00000000 -90.00000000 3 144 182 97.000000 1.000000 4.000000 1.000000 -60.708740 114.000000 50.000000 0.576057 0.623358 0.528756
1350.00000000 1120.00000000 -120.00000000 3 144 182 97.000000 1.000000 4.000000 1.000000 -60.708740 114.000000 50.000000 0.295808 0.847156 0.441389
1360.00000000 1080.00000000 -120.00000000 3 144 182 97.000000 1.000000 4.000000 1.000000 -60.708740 114.000000 50.000000 -0.072339 0.838283 0.540416
1440.00000000 1090.00000000 -240.00000000 3 144 182 97.000000 1.000000 4.000000 1.000000 -60.708740 114.000000 50.000000 0.571215 0.806860 0.150634
1450.00000000 1090.00000000 -260.00000000 3 144 182 97.000000 1.000000 4.000000 1.000000 -60.708740 114.000000 50.000000 0.654768 0.693379 0.300839
1440.00000000 1110.00000000 -350.00000000 3 144 182 97.000000 1.000000 4.000000 1.000000 -60.708740 114.000000 50.000000 -0.142096 0.851110 0.505392
1440.00000000 1110.00000000 -350.00000000 3 144 182 97.000000 1.000000 4.000000 1.000000 -60.708740 114.000000 50.000000 -0.142096 0.851110 0.505392
1400.00000000 1130.00000000 -200.00000000 3 144 182 97.000000 1.000000 4.000000 1.000000 -60.708740 114.000000 50.000000 0.095475 0.724140 0.683012
1350.00000000 1140.00000000 -230.00000000 3 144 182 97.000000 1.000000 4.000000 1.000000 -60.708740 114.000000 50.000000 0.176379 0.984306 -0.005690
1360.00000000 1120.00000000 -200.00000000 3 144 182 97.000000 1.000000 4.000000 1.000000 -60.708740 114.000000 50.000000 0.039462 0.877679 0.477621
1350.00000000 1140.00000000 -190.00000000 3 144 182 97.000000 1.000000 4.000000 1.000000 -60.708740 114.000000 50.000000 -0.173330 0.933209 0.314767
1360.00000000 1110.00000000 -270.00000000 3 144 182 97.000000 1.000000 4.000000 1.000000 -60.708740 114.000000 50.000000 -0.370074 0.836210 0.404719
1380.00000000 1110.00000000 -240.00000000 3 144 182 97.000000 1.000000 4.000000 1.000000 -60.708740 114.000000 50.000000 0.047013 0.745088 0.665308
1360.00000000 1090.00000000 -210.00000000 3 144 182 97.000000 1.000000 4.000000 1.000000 -60.708740 114.000000 50.000000 0.015357 0.735733 0.677098
1370.00000000 1080.00000000 -200.00000000 3 144 182 97.000000 1.000000 4.000000 1.000000 -60.708740 114.000000 50.000000 0.070957 0.693644 0.716814
1380.00000000 1090.00000000 -260.00000000 3 144 182 97.000000 1.000000 4.000000 1.000000 -60.708740 114.000000 50.000000 -0.335874 0.941715 -0.019012
1360.00000000 1080.00000000 -260.00000000 3 144 182 97.000000 1.000000 4.000000 1.000000 -60.708740 114.000000 50.000000 -0.166723 0.923282 0.346055
1400.00000000 1110.00000000 -280.00000000 3 144 182 97.000000 1.000000 4.000000 1.000000 -60.708740 114.000000 50.000000 -0.409220 0.838823 0.359048
1390.00000000 1100.00000000 -340.00000000 3 144 182 97.000000 1.000000 4.000000 1.000000 -60.708740 114.000000 50.000000 -0.609086 0.742672 -0.278303
1380.00000000 1090.00000000 -310.00000000 3 144 182 97.000000 1.000000 4.000000 1.000000 -60.708740 114.000000 50.000000 -0.507782 0.839271 0.194373
1380.00000000 1090.00000000 -310.00000000 3 144 182 97.000000 1.000000 4.000000 1.000000 -60.708740 114.000000 50.000000 -0.507782 0.839271 0.194373
1380.00000000 1090.00000000 -290.00000000 3 144 182 97.000000 1.000000 4.000000 1.000000 -60.708740 114.000000 50.000000 -0.393482 0.918997 -0.024838
1360.00000000 1090.00000000 -280.00000000 3 144 182 97.000000 1.000000 4.000000 1.000000 -60.708740 114.000000 50.000000 -0.318796 0.943159 0.093919
1370.00000000 1090.00000000 -320.00000000 3 144 182 97.000000 1.000000 4.000000 1.000000 -60.708740 114.000000 50.000000 -0.596125 0.772639 0.218321
1380.00000000 1100.00000000 -330.00000000 3 144 182 97.000000 1.000000 4.000000 1.000000 -60.708740 114.000000 50.000000 -0.523040 0.851493 -0.037261
1370.00000000 1090.00000000 -330.00000000 3 144 182 97.000000 1.000000 4.000000 1.000000 -60.708740 114.000000 50.000000 -0.541511 0.840370 0.023306
1380.00000000 1100.00000000 -330.00000000 3 144 182 97.000000 1.000000 4.000000 1.000000 -60.708740 114.000000 50.000000 -0.523040 0.851493 -0.037261
1380.00000000 1090.00000000 -330.00000000 3 144 182 97.000000 1.000000 4.000000 1.000000 -60.708740 114.000000 50.000000 -0.510112 0.860057 0.009422
1360.00000000 1060.00000000 -340.00000000 3 144 182 97.000000 1.000000 4.000000 1.000000 -60.708740 114.000000 50.000000 -0.618309 0.611570 -0.493636
1370.00000000 1060.00000000 -350.00000000 3 144 182 97.000000 1.000000 4.000000 1.000000 -60.708740 114.000000 50.000000 0.815363 -0.381354 0.435605
1360.00000000 1060.00000000 -340.00000000 3 144 182 97.000000 1.000000 4.000000 1.000000 -60.708740 114.000000 50.000000 -0.618309 0.611570 -0.493636
1620.00000000 1160.00000000 -410.00000000 3 144 182 97.000000 1.000000 4.000000 1.000000 -60.708740 114.000000 50.000000 0.558202 0.764109 0.323339
1660.00000000 1200.00000000 -410.00000000 3 144 182 97.000000 1.000000 4.000000 1.000000 -60.708740 114.000000 50.000000 0.390720 0.830477 0.397047
1670.00000000 1190.00000000 -510.00000000 3 144 182 97.000000 1.000000 4.000000 1.000000 -60.708740 114.000000 50.000000 0.343678 0.601029 0.721561
1670.00000000 1150.00000000 -520.00000000 3 144 182 97.000000 1.000000 4.000000 1.000000 -60.708740 114.000000 50.000000 0.233249 0.634000 0.737319
1630.00000000 1260.00000000 -600.00000000 3 144 182 97.000000 1.000000 4.000000 1.000000 -60.708740 114.000000 50.000000 -0.105486 0.957185 0.269574
1610.00000000 1260.00000000 -600.00000000 3 144 182 97.000000 1.000000 4.000000 1.000000 -60.708740 114.000000 50.000000 0.020651 0.965726 0.258742
1650.00000000 1260.00000000 -630.00000000 3 144 182 97.000000 1.000000 4.000000 1.000000 -60.708740 114.000000 50.000000 -0.012106 0.864933 0.501742
1640.00000000 1250.00000000 -630.00000000 3 144 182 97.000000 1.000000 4.000000 1.000000 -60.708740 114.000000 50.000000 -0.506922 0.823167 0.255786
1660.00000000 1270.00000000 -680.00000000 3 144 182 97.000000 1.000000 4.000000 1.000000 -60.708740 114.000000 50.000000 0.058148 0.968719 0.241252
1610.00000000 1300.00000000 -690.00000000 3 144 182 97.000000 1.000000 4.000000 1.000000 -60.708740 114.000000 50.000000 -0.008919 0.999936 0.006937
1600.00000000 1250.00000000 -620.00000000 3 144 182 97.000000 1.000000 4.000000 1.000000 -60.708740 114.000000 50.000000 -0.084963 0.976463 -0.198248
1600.00000000 1260.00000000 -640.00000000 3 144 182 97.000000 1.000000 4.000000 1.000000 -60.708740 114.000000 50.000000 -0.465780 0.783873 0.410600
1620.00000000 1260.00000000 -610.00000000 3 144 182 97.000000 1.000000 4.000000 1.000000 -60.708740 114.000000 50.000000 -0.229343 0.973223 0.015448
1650.00000000 1220.00000000 -570.00000000 3 144 182 97.000000 1.000000 4.000000 1.000000 -60.708740 114.000000 50.000000 0.174075 0.975573 0.134000
1620.00000000 1220.00000000 -540.00000000 3 144 182 97.000000 1.000000 4.000000 1.000000 -60.708740 114.000000 50.000000 0.430007 0.846042 0.315131
1670.00000000 1190.00000000 -650.00000000 3 144 182 97.000000 1.000000 4.000000 1.000000 -60.708740 114.000000 50.000000 0.371243 0.766804 0.523632
1670.00000000 1190.00000000 -630.00000000 3 144 182 97.000000 1.000000 4.000000 1.000000 -60.708740 114.000000 50.000000 0.299009 0.951394 0.073782
1650.00000000 1200.00000000 -630.00000000 3 144 182 97.000000 1.000000 4.000000 1.000000 -60.708740 114.000000 50.000000 0.165396 0.959294 0.228907
1670.00000000 1190.00000000 -650.00000000 3 144 182 97.000000 1.000000 4.000000 1.000000 -60.708740 114.000000 50.000000 0.371243 0.766804 0.523632
1660.00000000 1210.00000000 -620.00000000 3 144 182 97.000000 1.000000 4.000000 1.000000 -60.708740 114.000000 50.000000 0.362561 0.904220 0.225691
1670.00000000 1210.00000000 -630.00000000 3 144 182 97.000000 1.000000 4.000000 1.000000 -60.708740 114.000000 50.000000 -0.020957 0.767021 0.641280
1640.00000000 1210.00000000 -680.00000000 3 144 182 97.000000 1.000000 4.000000 1.000000 -60.708740 114.000000 50.000000 -0.163433 0.986315 0.021715
1640.00000000 1210.00000000 -670.00000000 3 144 182 97.000000 1.000000 4.000000 1.000000 -60.708740 114.000000 50.000000 -0.449306 0.873569 -0.187088
1650.00000000 1160.00000000 -650.00000000 3 144 182 97.000000 1.000000 4.000000 1.000000 -60.708740 114.000000 50.000000 -0.160655 0.984159 0.074972
1660.00000000 1150.00000000 -620.00000000 3 144 182 97.000000 1.000000 4.000000 1.000000 -60.708740 114.000000 50.000000 0.208285 0.898685 0.385983
1650.00000000 1160.00000000 -650.00000000 3 144 182 97.000000 1.000000 4.000000 1.000000 -60.708740 114.000000 50.000000 -0.160655 0.984159 0.074972
1660.00000000 1180.00000000 -610.00000000 3 144 182 97.000000 1.000000 4.000000 1.000000 -60.708740 114.000000 50.000000 0.322725 0.826491 0.461261
1650.00000000 1180.00000000 -610.00000000 3 144 182 97.000000 1.000000 4.000000 1.000000 -60.708740 114.000000 50.000000 -0.032850 0.969690 0.242118
1650.00000000 1180.00000000 -610.00000000 3 144 182 97.000000 1.000000 4.000000 1.000000 -60.708740 114.000000 50.000000 -0.032850 0.969690 0.242118
1640.00000000 1180.00000000 -610.00000000 3 144 182 97.000000 1.000000 4.000000 1.000000 -60.708740 114.000000 50.000000 -0.291573 0.880762 0.373153
1660.00000000 1160.00000000 -660.00000000 3 144 182 97.000000 1.000000 4.000000 1.000000 -60.708740 114.000000 50.000000 -0.382161 0.924088 -0.003834
1640.00000000 1170.00000000 -680.00000000 3 144 182 97.000000 1.000000 4.000000 1.000000 -60.708740 114.000000 50.000000 0.778811 -0.625042 -0.052680
1600.00000000 1210.00000000 -630.00000000 3 144 182 97.000000 1.000000 4.000000 1.000000 -60.708740 114.000000 50.000000 -0.535491 0.748377 0.391383
1630.00000000 1210.00000000 -690.00000000 3 144 182 97.000000 1.000000 4.000000 1.000000 -60.708740 114.000000 50.000000 -0.398491 0.874255 -0.277277
1630.00000000 1150.00000000 -610.00000000 3 144 182 97.000000 1.000000 4.000000 1.000000 -60.708740 114.000000 50.000000 -0.272188 0.961896 0.025864
1600.00000000 1180.00000000 -650.00000000 3 144 182 97.000000 1.000000 4.000000 1.000000 -60.708740 114.000000 50.000000 0.773342 -0.601147 0.201407
1590.00000000 1310.00000000 -680.00000000 3 144 182 97.000000 1.000000 4.000000 1.000000 -60.708740 114.000000 50.000000 -0.300306 0.950320 -0.081902
1590.00000000 1250.00000000 -630.00000000 3 144 182 97.000000 1.000000 4.000000 1.000000 -60.708740 114.000000 50.000000 -0.438805 0.897739 -0.038915
1550.00000000 1300.00000000 -670.00000000 3 144 182 97.000000 1.000000 4.000000 1.000000 -60.708740 114.000000 50.000000 -0.653017 0.719106 -0.237604
1520.00000000 1290.00000000 -690.00000000 3 144 182 97.000000 1.000000 4.000000 1.000000 -60.708740 114.000000 50.000000 -0.355725 0.930253 0.089938
1550.00000000 1300.00000000 -670.00000000 3 144 182 97.000000 1.000000 4.000000 1.000000 -60.708740 114.000000 50.000000 -0.653017 0.719106 -0.237604
1560.00000000 1170.00000000 -590.00000000 3 144 182 97.000000 1.000000 4.000000 1.000000 -60.708740 114.000000 50.000000 -0.310144 0.935945 -0.166788
1550.00000000 1220.00000000 -600.00000000 3 144 182 97.000000 1.000000 4.000000 1.000000 -60.708740 114.000000 50.000000 -0.541905 0.829746 0.133641
1590.00000000 1200.00000000 -690.00000000 3 144 182 97.000000 1.000000 4.000000 1.000000 -60.708740 114.000000 50.000000 -0.383112 0.886971 -0.257892
1590.00000000 1160.00000000 -620.00000000 3 144 182 97.000000 1.000000 4.000000 1.000000 -60.708740 114.000000 50.000000 -0.589695 0.666539 -0.456053
1520.00000000 1210.00000000 -620.00000000 3 144 182 97.000000 1.000000 4.000000 1.000000 -60.708740 114.000000 50.000000 -0.488583 0.841703 -0.229832
1530.00000000 1210.00000000 -630.00000000 3 144 182 97.000000 1.000000 4.000000 1.000000 -60.708740 114.000000 50.000000 -0.353743 0.935342 0.001259
1670.00000000 1090.00000000 -440.00000000 3 144 182 97.000000 1.000000 4.000000 1.000000 -60.708740 114.000000 50.000000 0.571482 0.400202 0.716412
1650.00000000 1120.00000000 -500.00000000 3 144 182 97.000000 1.000000 4.000000 1.000000 -60.708740 114.000000 50.000000 0.410336 0.626302 0.662850
1640.00000000 1020.00000000 -510.00000000 3 144 182 97.000000 1.000000 4.000000 1.000000 -60.708740 114.000000 50.000000 0.895124 -0.445579 -0.014544
1590.00000000 980.00000000 -390.00000000 3 144 182 97.000000 1.000000 4.000000 1.000000 -60.708740 114.000000 50.000000 0.558275 -0.458286 0.691595
1580.00000000 990.00000000 -500.00000000 3 144 182 97.000000 1.000000 4.000000 1.000000 -60.708740 114.000000 50.000000 -0.649796 0.741102 0.168917
1520.00000000 1010.00000000 -520.00000000 3 144 182 97.000000 1.000000 4.000000 1.000000 -60.708740 114.000000 50.000000 0.468316 0.782686 0.409979
1600.00000000 1020.00000000 -600.00000000 3 144 182 97.000000 1.000000 4.000000 1.000000 -60.708740 114.000000 50.000000 0.283189 0.957807 0.049086
1640.00000000 1020.00000000 -630.00000000 3 144 182 97.000000 1.000000 4.000000 1.000000 -60.708740 114.000000 50.000000 0.114006 0.988444 0.099902
1620.00000000 1030.00000000 -650.00000000 3 144 182 97.000000 1.000000 4.000000 1.000000 -60.708740 114.000000 50.000000 0.205838 0.940777 0.269386
1620.00000000 1020.00000000 -650.00000000 3 144 182 97.000000 1.000000 4.000000 1.000000 -60.708740 114.000000 50.000000 -0.150077 0.824678 0.545328
1600.00000000 1010.00000000 -690.00000000 3 144 182 97.000000 1.000000 4.000000 1.000000 -60.708740 114.000000 50.000000 0.340613 0.931557 0.127217
1590.00000000 1010.00000000 -590.00000000 3 144 182 97.000000 1.000000 4.000000 1.000000 -60.708740 114.000000 50.000000 -0.135417 0.958438 0.251114
1560.00000000 1000.00000000 -570.00000000 3 144 182 97.000000 1.000000 4.000000 1.000000 -60.708740 114.000000 50.000000 0.070864 0.997391 0.013750
1560.00000000 1000.00000000 -570.00000000 3 144 182 97.000000 1.000000 4.000000 1.000000 -60.708740 114.000000 50.000000 0.070864 0.997391 0.013750
1590.00000000 1010.00000000 -590.00000000 3 144 182 97.000000 1.000000 4.000000 1.000000 -60.708740 114.000000 50.000000 -0.135417 0.958438 0.251114
1530.00000000 980.00000000 -540.00000000 3 144 182 97.000000 1.000000 4.000000 1.000000 -60.708740 114.000000 50.000000 0.365041 0.864085 0.346558
1520.00000000 990.00000000 -600.00000000 3 144 182 97.000000 1.000000 4.000000 1.000000 -60.708740 114.000000 50.000000 -0.015348 0.743692 0.668346
1580.00000000 1020.00000000 -650.00000000 3 144 182 97.000000 1.000000 4.000000 1.000000 -60.708740 114.000000 50.000000 0.368964 0.696932 0.614940
1580.00000000 1010.00000000 -640.00000000 3 144 182 97.000000 1.000000 4.000000 1.000000 -60.708740 114.000000 50.000000 -0.033097 0.909505 0.414374
1580.00000000 1010.00000000 -640.00000000 3 144 182 97.000000 1.000000 4.000000 1.000000 -60.708740 114.000000 50.000000 -0.033097 0.909505 0.414374
1520.00000000 1020.00000000 -660.00000000 3 144 182 97.000000 1.000000 4.000000 1.000000 -60.708740 114.000000 50.000000 0.538261 0.767790 0.347526
1510.00000000 980.00000000 -630.00000000 3 144 182 97.000000 1.000000 4.000000 1.000000 -60.708740 114.000000 50.000000 0.335378 0.805860 0.487967
1550.00000000 1000.00000000 -650.00000000 3 144 182 97.000000 1.000000 4.000000 1.000000 -60.708740 114.000000 50.000000 0.245854 0.867276 0.432884
1520.00000000 990.00000000 -640.00000000 3 144 182 97.000000 1.000000 4.000000 1.000000 -60.708740 114.000000 50.000000 0.626454 0.656364 0.420406
1510.00000000 1000.00000000 -640.00000000 3 144 182 97.000000 1.000000 4.000000 1.000000 -60.708740 114.000000 50.000000 0.242165 0.585884 0.773367
1510.00000000 1000.00000000 -640.00000000 3 144 182 97.000000 1.000000 4.000000 1.000000 -60.708740 114.000000 50.000000 0.242165 0.585884 0.773367
1550.00000000 1010.00000000 -650.00000000 3 144 182 97.000000 1.000000 4.000000 1.000000 -60.708740 114.000000 50.000000 0.185255 0.629254 0.754798
1550.00000000 1000.00000000 -650.00000000 3 144 182 97.000000 1.000000 4.000000 1.000000 -60.708740 114.000000 50.000000 0.245854 0.867276 0.432884
1530.00000000 1000.00000000 -670.00000000 3 144 182 97.000000 1.000000 4.000000 1.000000 -60.708740 114.000000 50.000000 0.630137 0.545668 0.552426
1510.00000000 1010.00000000 -660.00000000 3 144 182 97.000000 1.000000 4.000000 1.000000 -60.708740 114.000000 50.000000 0.473998 0.710166 0.520567
1550.00000000 1010.00000000 -660.00000000 3 144 182 97.000000 1.000000 4.000000 1.000000 -60.708740 114.000000 50.000000 0.414130 0.472595 0.777914
1390.00000000 1230.00000000 -460.00000000 3 144 182 97.000000 1.000000 4.000000 1.000000 -60.708740 114.000000 50.000000 -0.684271 0.722532 0.098594
1400.00000000 1240.00000000 -450.00000000 3 144 182 97.000000 1.000000 4.000000 1.000000 -60.708740 114.000000 50.000000 0.718090 -0.695781 -0.015338
1360.00000000 1280.00000000 -480.00000000 3 144 182 97.000000 1.000000 4.000000 1.000000 -60.708740 114.000000 50.000000 -0.481274 0.714418 -0.507919
1380.00000000 1230.00000000 -470.00000000 3 144 182 97.000000 1.000000 4.000000 1.000000 -60.708740 114.000000 50.000000 -0.627343 0.771323 0.107251
1350.00000000 1260.00000000 -480.00000000 3 144 182 97.000000 1.000000 4.000000 1.000000 -60.708740 114.000000 50.000000 -0.415328 0.770392 -0.483735
1380.00000000 1230.00000000 -510.00000000 3 144 182 97.000000 1.000000 4.000000 1.000000 -60.708740 114.000000 50.000000 0.601825 -0.671843 0.431780
1350.00000000 1210.00000000 -370.00000000 3 144 182 97.000000 1.000000 4.000000 1.000000 -60.708740 114.000000 50.000000 -0.170970 0.958226 -0.229285
1350.00000000 1210.00000000 -400.00000000 3 144 182 97.000000 1.000000 4.000000 1.000000 -60.708740 114.000000 50.000000 -0.463590 0.886001 0.009298
1380.00000000 1220.00000000 -450.00000000 3 144 182 97.000000 1.000000 4.000000 1.000000 -60.708740 114.000000 50.000000 -0.513297 0.839532 0.178082
1350.00000000 1220.00000000 -450.00000000 3 144 182 97.000000 1.000000 4.000000 1.000000 -60.708740 114.000000 50.000000 -0.608321 0.677938 -0.412730
1350.00000000 1220.00000000 -450.00000000 3 144 182 97.000000 1.000000 4.000000 1.000000 -60.708740 114.000000 50.000000 -0.608321 0.677938 -0.412730
1350.00000000 1220.00000000 -450.00000000 3 144 182 97.000000 1.000000 4.000000 1.000000 -60.708740 114.000000 50.000000 -0.608321 0.677938 -0.412730
1370.00000000 1220.00000000 -490.00000000 3 144 182 97.000000 1.000000 4.000000 1.000000 -60.708740 114.000000 50.000000 -0.323421 0.944284 0.061047
1430.00000000 1220.00000000 -590.00000000 3 144 182 97.000000 1.000000 4.000000 1.000000 -60.708740 114.000000 50.000000 0.626274 -0.481878 0.612842
1440.00000000 1170.00000000 -610.00000000 3 144 182 97.000000 1.000000 4.000000 1.000000 -60.708740 114.000000 50.000000 -0.610513 0.576689 -0.542866
1410.00000000 1230.00000000 -560.00000000 3 144 182 97.000000 1.000000 4.000000 1.000000 -60.708740 114.000000 50.000000 -0.424844 0.869343 -0.252487
1380.00000000 1260.00000000 -560.00000000 3 144 182 97.000000 1.000000 4.000000 1.000000 -60.708740 114.000000 50.000000 -0.436212 0.748968 -0.498764
1380.00000000 1270.00000000 -540.00000000 3 144 182 97.000000 1.000000 4.000000 1.000000 -60.708740 114.000000 50.000000 -0.480797 0.792753 -0.374668
1380.00000000 1270.00000000 -540.00000000 3 144 182 97.000000 1.000000 4.000000 1.000000 -60.708740 114.000000 50.000000 -0.480797 0.792753 -0.374668
1360.00000000 1260.00000000 -670.00000000 3 144 182 97.000000 1.000000 4.000000 1.000000 -60.708740 114.000000 50.000000 0.675382 -0.384753 0.629146
1360.00000000 1260.00000000 -670.00000000 3 144 182 97.000000 1.000000 4.000000 1.000000 -60.708740 114.000000 50.000000 0.675382 -0.384753 0.629146
1390.00000000 1210.00000000 -580.00000000 3 144 182 97.000000 1.000000 4.000000 1.000000 -60.708740 114.000000 50.000000 0.653928 -0.579961 0.485823
1390.00000000 1200.00000000 -590.00000000 3 144 182 97.000000 1.000000 4.000000 1.000000 -60.708740 114.000000 50.000000 0.789207 -0.527732 0.314088
1380.00000000 1190.00000000 -560.00000000 3 144 182 97.000000 1.000000 4.000000 1.000000 -60.708740 114.000000 50.000000 0.445934 -0.752000 0.485427
1360.00000000 1200.00000000 -570.00000000 3 144 182 97.000000 1.000000 4.000000 1.000000 -60.708740 114.000000 50.000000 -0.671715 0.706162 -0.223905
1350.00000000 1190.00000000 -600.00000000 3 144 182 97.000000 1.000000 4.000000 1.000000 -60.708740 114.000000 50.000000 0.819539 -0.515891 0.249425
1360.00000000 1200.00000000 -570.00000000 3 144 182 97.000000 1.000000 4.000000 1.000000 -60.708740 114.000000 50.000000 -0.671715 0.706162 -0.223905
1370.00000000 1180.00000000 -550.00000000 3 144 182 97.000000 1.000000 4.000000 1.000000 -60.708740 114.000000 50.000000 -0.609786 0.636664 -0.472038
1360.00000000 1180.00000000 -540.00000000 3 144 182 97.000000 1.000000 4.000000 1.000000 -60.708740 114.000000 50.000000 0.938524 -0.278646 0.203786
1370.00000000 1180.00000000 -550.00000000 3 144 182 97.000000 1.000000 4.000000 1.000000 -60.708740 114.000000 50.000000 -0.609786 0.636664 -0.472038
1380.00000000 1180.00000000 -570.00000000 3 144 182 97.000000 1.000000 4.000000 1.000000 -60.708740 114.000000 50.000000 0.885538 -0.210702 0.414037
1380.00000000 1180.00000000 -600.00000000 3 144 182 97.000000 1.000000 4.000000 1.000000 -60.708740 114.000000 50.000000 0.838213 -0.369569 0.401021
1370.00000000 1160.00000000 -580.00000000 3 144 182 97.000000 1.000000 4.000000 1.000000 -60.708740 114.000000 50.000000 0.942600 -0.107992 0.315978
1360.00000000 1190.00000000 -610.00000000 3 144 182 97.000000 1.000000 4.000000 1.000000 -60.708740 114.000000 50.000000 0.755174 -0.152241 0.637602
1360.00000000 1170.00000000 -630.00000000 3 144 182 97.000000 1.000000 4.000000 1.000000 -60.708740 114.000000 50.000000 0.934922 -0.078242 0.346120
1360.00000000 1180.00000000 -620.00000000 3 144 182 97.000000 1.000000 4.000000 1.000000 -60.708740 114.000000 50.000000 -0.557942 0.632110 -0.537715
1360.00000000 1180.00000000 -620.00000000 3 144 182 97.000000 1.000000 4.000000 1.000000 -60.708740 114.000000 50.000000 -0.557942 0.632110 -0.537715
1360.00000000 1150.00000000 -670.00000000 3 144 182 97.000000 1.000000 4.000000 1.000000 -60.708740 114.000000 50.000000 0.862943 -0.463515 0.201204
1390.00000000 1090.00000000 -420.00000000 3 144 182 97.000000 1.000000 4.000000 1.000000 -60.708740 114.000000 50.000000 0.723237 -0.527947 0.445196
1390.00000000 1080.00000000 -410.00000000 3 144 182 97.000000 1.000000 4.000000 1.000000 -60.708740 114.000000 50.000000 0.729602 -0.504600 0.461585
1390.00000000 1100.00000000 -410.00000000 3 144 182 97.000000 1.000000 4.000000 1.000000 -60.708740 114.000000 50.000000 -0.747382 0.507563 -0.428718
1370.00000000 1110.00000000 -370.00000000 3 144 182 97.000000 1.000000 4.000000 1.000000 -60.708740 114.000000 50.000000 -0.390866 0.892355 -0.225670
1380.00000000 1110.00000000 -360.00000000 3 144 182 97.000000 1.000000 4.000000 1.000000 -60.708740 114.000000 50.000000 -0.273212 0.917934 0.287667
1360.00000000 1110.00000000 -360.00000000 3 144 182 97.000000 1.000000 4.000000 1.000000 -60.708740 114.000000 50.000000 -0.507034 0.842065 -0.183968
1380.00000000 1110.00000000 -370.00000000 3 144 182 97.000000 1.000000 4.000000 1.000000 -60.708740 114.000000 50.000000 -0.253293 0.929686 -0.267444
1380.00000000 1110.00000000 -430.00000000 3 144 182 97.000000 1.000000 4.000000 1.000000 -60.708740 114.000000 50.000000 0.579327 -0.492008 0.649853
1370.00000000 1120.00000000 -410.00000000 3 144 182 97.000000 1.000000 4.000000 1.000000 -60.708740 114.000000 50.000000 -0.564128 0.822746 0.069628
1370.00000000 1080.00000000 -430.00000000 3 144 182 97.000000 1.000000 4.000000 1.000000 -60.708740 114.000000 50.000000 0.877452 -0.333036 0.345202
1390.00000000 1110.00000000 -480.00000000 3 144 182 97.000000 1.000000 4.000000 1.000000 -60.708740 114.000000 50.000000 -0.438451 0.757026 -0.484431
1410.00000000 1120.00000000 -470.00000000 3 144 182 97.000000 1.000000 4.000000 1.000000 -60.708740 114.000000 50.000000 -0.555643 0.822468 -0.121684
1410.00000000 1130.00000000 -450.00000000 3 144 182 97.000000 1.000000 4.000000 1.000000 -60.708740 114.000000 50.000000 -0.565671 0.820581 -0.081628
1410.00000000 1130.00000000 -520.00000000 3 144 182 97.000000 1.000000 4.000000 1.000000 -60.708740 114.000000 50.000000 0.569306 -0.565928 0.596336
1400.00000000 1110.00000000 -490.00000000 3 144 182 97.000000 1.000000 4.000000 1.000000 -60.708740 114.000000 50.000000 0.720347 -0.596206 0.354456
1390.00000000 1100.00000000 -480.00000000 3 144 182 97.000000 1.000000 4.000000 1.000000 -60.708740 114.000000 50.000000 -0.516527 0.752654 -0.408303
1380.00000000 1090.00000000 -490.00000000 3 144 182 97.000000 1.000000 4.000000 1.000000 -60.708740 114.000000 50.000000 -0.631142 0.604214 -0.486400
1370.00000000 1080.00000000 -500.00000000 3 144 182 97.000000 1.000000 4.000000 1.000000 -60.708740 114.000000 50.000000 0.895472 -0.283640 0.343042
1370.00000000 1050.00000000 -430.00000000 3 144 182 97.000000 1.000000 4.000000 1.000000 -60.708740 114.000000 50.000000 0.879886 -0.145925 0.452224
1350.00000000 1060.00000000 -420.00000000 3 144 182 97.000000 1.000000 4.000000 1.000000 -60.708740 114.000000 50.000000 0.957575 -0.036206 0.285899
1390.00000000 980.00000000 -520.00000000 3 144 182 97.000000 1.000000 4.000000 1.000000 -60.708740 114.000000 50.000000 0.347114 0.497477 0.795003
1370.00000000 1060.00000000 -500.00000000 3 144 182 97.000000 1.000000 4.000000 1.000000 -60.708740 114.000000 50.000000 0.882132 -0.343472 0.322288
1460.00000000 1120.00000000 -560.00000000 3 144 182 97.000000 1.000000 4.000000 1.000000 -60.708740 114.000000 50.000000 0.821670 -0.471553 0.320151
1460.00000000 1080.00000000 -610.00000000 3 144 182 97.000000 1.000000 4.000000 1.000000 -60.708740 114.000000 50.000000 0.779109 0.279721 0.561022
1470.00000000 1080.00000000 -630.00000000 3 144 182 97.000000 1.000000 4.000000 1.000000 -60.708740 114.000000 50.000000 0.703222 -0.104673 0.703222
1440.00000000 980.00000000 -550.00000000 3 144 182 97.000000 1.000000 4.000000 1.000000 -60.708740 114.000000 50.000000 0.321180 0.744041 0.585872
1440.00000000 1050.00000000 -640.00000000 3 144 182 97.000000 1.000000 4.000000 1.000000 -60.708740 114.000000 50.000000 0.834616 -0.060520 0.547497
1450.00000000 1030.00000000 -690.00000000 3 144 182 97.000000 1.000000 4.000000 1.000000 -60.708740 114.000000 50.000000 0.778284 0.346441 0.523690
1460.00000000 1010.00000000 -690.00000000 3 144 182 97.000000 1.000000 4.000000 1.000000 -60.708740 114.000000 50.000000 0.557225 0.684399 0.470211
1390.00000000 1100.00000000 -570.00000000 3 144 182 97.000000 1.000000 4.000000 1.000000 -60.708740 114.000000 50.000000 0.952774 -0.272411 0.134212
1370.00000000 1120.00000000 -580.00000000 3 144 182 97.000000 1.000000 4.000000 1.000000 -60.708740 114.000000 50.000000 0.755099 -0.536561 0.376734
1380.00000000 1130.00000000 -590.00000000 3 144 182 97.000000 1.000000 4.000000 1.000000 -60.708740 114.000000 50.000000 0.968463 -0.158616 0.192145
1370.00000000 1100.00000000 -540.00000000 3 144 182 97.000000 1.000000 4.000000 1.000000 -60.708740 114.000000 50.000000 0.959464 -0.143066 0.242819
1390.00000000 1130.00000000 -610.00000000 3 144 182 97.000000 1.000000 4.000000 1.000000 -60.708740 114.000000 50.000000 0.801126 -0.467190 0.374073
1420.00000000 1070.00000000 -610.00000000 3 144 182 97.000000 1.000000 4.000000 1.000000 -60.708740 114.000000 50.000000 0.927154 0.178137 0.329624
1390.00000000 1080.00000000 -670.00000000 3 144 182 97.000000 1.000000 4.000000 1.000000 -60.708740 114.000000 50.000000 0.970566 0.052895 0.234953
1390.00000000 1080.00000000 -680.00000000 3 144 182 97.000000 1.000000 4.000000 1.000000 -60.708740 114.000000 50.000000 0.960123 -0.118229 0.253348
1360.00000000 1140.00000000 -610.00000000 3 144 182 97.000000 1.000000 4.000000 1.000000 -60.708740 114.000000 50.000000 0.956016 0.026107 0.292151
1360.00000000 1140.00000000 -610.00000000 3 144 182 97.000000 1.000000 4.000000 1.000000 -60.708740 114.000000 50.000000 0.956016 0.026107 0.292151
1360.00000000 1140.00000000 -680.00000000 3 144 182 97.000000 1.000000 4.000000 1.000000 -60.708740 114.000000 50.000000 0.907320 -0.166651 0.386003
1410.00000000 1050.00000000 -670.00000000 3 144 182 97.000000 1.000000 4.000000 1.000000 -60.708740 114.000000 50.000000 0.904526 0.298567 0.304450
1400.00000000 1040.00000000 -660.00000000 3 144 182 97.000000 1.000000 4.000000 1.000000 -60.708740 114.000000 50.000000 0.954983 0.161162 0.249068
1420.00000000 1020.00000000 -670.00000000 3 144 182 97.000000 1.000000 4.000000 1.000000 -60.708740 114.000000 50.000000 0.834990 -0.040291 0.548787
1400.00000000 1000.00000000 -670.00000000 3 144 182 97.000000 1.000000 4.000000 1.000000 -60.708740 114.000000 50.000000 0.865887 0.421530 0.269353
1380.00000000 1040.00000000 -680.00000000 3 144 182 97.000000 1.000000 4.000000 1.000000 -60.708740 114.000000 50.000000 0.905009 0.191972 0.379613
1370.00000000 1020.00000000 -680.00000000 3 144 182 97.000000 1.000000 4.000000 1.000000 -60.708740 114.000000 50.000000 0.923326 0.170049 0.344315
1330.00000000 1320.00000000 -430.00000000 3 144 182 97.000000 1.000000 4.000000 1.000000 -60.708740 114.000000 50.000000 -0.556711 0.822647 -0.115434
1340.00000000 1330.00000000 -460.00000000 3 144 182 97.000000 1.000000 4.000000 1.000000 -60.708740 114.000000 50.000000 -0.432045 0.891183 0.138312
1320.00000000 1240.00000000 -40.00000000 3 144 182 97.000000 1.000000 4.000000 1.000000 -60.708740 114.000000 50.000000 0.117615 0.885654 0.449204
1310.00000000 1240.00000000 -30.00000000 3 144 182 97.000000 1.000000 4.000000 1.000000 -60.708740 114.000000 50.000000 0.157211 0.859518 0.486326
1310.00000000 1240.00000000 -40.00000000 3 144 182 97.000000 1.000000 4.000000 1.000000 -60.708740 114.000000 50.000000 0.067515 0.885958 0.458824
1300.00000000 1240.00000000 -80.00000000 3 144 182 97.000000 1.000000 4.000000 1.000000 -60.708740 114.000000 50.000000 -0.211170 0.864149 0.456786
1290.00000000 1250.00000000 -90.00000000 3 144 182 97.000000 1.000000 4.000000 1.000000 -60.708740 114.000000 50.000000 0.014511 0.990111 0.139531
1320.00000000 1260.00000000 -110.00000000 3 144 182 97.000000 1.000000 4.000000 1.000000 -60.708740 114.000000 50.000000 -0.165195 0.974778 0.150063
1320.00000000 1260.00000000 -110.00000000 3 144 182 97.000000 1.000000 4.000000 1.000000 -60.708740 114.000000 50.000000 -0.165195 0.974778 0.150063
1340.00000000 1210.00000000 -60.00000000 3 144 182 97.000000 1.000000 4.000000 1.000000 -60.708740 114.000000 50.000000 0.350900 0.920231 0.173336
1340.00000000 1190.00000000 -20.00000000 3 144 182 97.000000 1.000000 4.000000 1.000000 -60.708740 114.000000 50.000000 0.038188 0.739720 0.671830
1320.00000000 1210.00000000 -60.00000000 3 144 182 97.000000 1.000000 4.000000 1.000000 -60.708740 114.000000 50.000000 0.193524 0.925242 0.326307
1320.00000000 1210.00000000 -60.00000000 3 144 182 97.000000 1.000000 4.000000 1.000000 -60.708740 114.000000 50.000000 0.193524 0.925242 0.326307
1310.00000000 1200.00000000 -30.00000000 3 144 182 97.000000 1.000000 4.000000 1.000000 -60.708740 114.000000 50.000000 0.273778 0.960116 0.056774
1320.00000000 1200.00000000 -30.00000000 3 144 182 97.000000 1.000000 4.000000 1.000000 -60.708740 114.000000 50.000000 0.113792 0.897696 0.425668
1340.00000000 1210.00000000 -60.00000000 3 144 182 97.000000 1.000000 4.000000 1.000000 -60.708740 114.000000 50.000000 0.350900 0.920231 0.173336
1340.00000000 1190.00000000 -20.00000000 3 144 182 97.000000 1.000000 4.000000 1.000000 -60.708740 114.000000 50.000000 0.038188 0.739720 0.671830
1300.00000000 1210.00000000 -40.00000000 3 144 182 97.000000 1.000000 4.000000 1.000000 -60.708740 114.000000 50.000000 0.466924 0.811140 0.352185
1300.00000000 1210.00000000 -70.00000000 3 144 182 97.000000 1.000000 4.000000 1.000000 -60.708740 114.000000 50.000000 -0.323420 0.925065 0.199136
1300.00000000 1210.00000000 -70.00000000 3 144 182 97.000000 1.000000 4.000000 1.000000 -60.708740 114.000000 50.000000 -0.323420 0.925065 0.199136
1300.00000000 1170.00000000 -40.00000000 3 144 182 97.000000 1.000000 4.000000 1.000000 -60.708740 114.000000 50.000000 0.324839 0.785695 0.526463
1340.00000000 1180.00000000 -100.00000000 3 144 182 97.000000 1.000000 4.000000 1.000000 -60.708740 114.000000 50.000000 0.301702 0.951325 0.062908
1290.00000000 1180.00000000 -30.00000000 3 144 182 97.000000 1.000000 4.000000 1.000000 -60.708740 114.000000 50.000000 -0.116109 0.988683 0.094998
1340.00000000 1210.00000000 -140.00000000 3 144 182 97.000000 1.000000 4.000000 1.000000 -60.708740 114.000000 50.000000 0.092110 0.758808 0.644768
1320.00000000 1200.00000000 -140.00000000 3 144 182 97.000000 1.000000 4.000000 1.000000 -60.708740 114.000000 50.000000 -0.172020 0.984141 -0.043298
1340.00000000 1200.00000000 -130.00000000 3 144 182 97.000000 1.000000 4.000000 1.000000 -60.708740 114.000000 50.000000 0.173006 0.907926 0.381758
1320.00000000 1200.00000000 -140.00000000 3 144 182 97.000000 1.000000 4.000000 1.000000 -60.708740 114.000000 50.000000 -0.172020 0.984141 -0.043298
1340.00000000 1200.00000000 -120.00000000 3 144 182 97.000000 1.000000 4.000000 1.000000 -60.708740 114.000000 50.000000 -0.109063 0.935789 0.335268
1340.00000000 1150.00000000 -140.00000000 3 144 182 97.000000 1.000000 4.000000 1.000000 -60.708740 114.000000 50.000000 0.074825 0.984606 0.157964
1330.00000000 1150.00000000 -170.00000000 3 144 182 97.000000 1.000000 4.000000 1.000000 -60.708740 114.000000 50.000000 0.284542 0.941600 0.180072
1200.00000000 1230.00000000 -80.00000000 3 144 182 97.000000 1.000000 4.000000 1.000000 -60.708740 114.000000 50.000000 -0.115982 0.993030 -0.020987
1250.00000000 1240.00000000 -60.00000000 3 144 182 97.000000 1.000000 4.000000 1.000000 -60.708740 114.000000 50.000000 0.158205 0.905044 0.394799
1240.00000000 1240.00000000 -80.00000000 3 144 182 97.000000 1.000000 4.000000 1.000000 -60.708740 114.000000 50.000000 0.016689 0.991350 0.130177
1250.00000000 1170.00000000 -20.00000000 3 144 182 97.000000 1.000000 4.000000 1.000000 -60.708740 114.000000 50.000000 -0.155058 0.784323 0.600662
1230.00000000 1220.00000000 -50.00000000 3 144 182 97.000000 1.000000 4.000000 1.000000 -60.708740 114.000000 50.000000 0.227753 0.952789 0.200800
1310.00000000 1230.00000000 -190.00000000 3 144 182 97.000000 1.000000 4.000000 1.000000 -60.708740 114.000000 50.000000 -0.114698 0.983987 0.136430
1340.00000000 1250.00000000 -250.00000000 3 144 182 97.000000 1.000000 4.000000 1.000000 -60.708740 114.000000 50.000000 -0.127759 0.972739 -0.193536
