//X Y Z R G B PointSourceId ScanDirectionFlag NumberOfReturns ReturnNumber GpsTime Intensity Classification Nx Ny Nz
-90.00000000 -8510.00000000 300.00000000 88 43 190 0.000000 0.000000 0.000000 0.000000 -60.708740 0.000000 56.000000 0.868751 0.146975 0.472938
-90.00000000 -8510.00000000 300.00000000 88 43 190 0.000000 0.000000 0.000000 0.000000 -60.708740 0.000000 56.000000 0.868751 0.146975 0.472938
-90.00000000 -8520.00000000 300.00000000 88 43 190 0.000000 0.000000 0.000000 0.000000 -60.708740 0.000000 56.000000 0.991340 -0.069910 -0.111168
-90.00000000 -8520.00000000 300.00000000 88 43 190 0.000000 0.000000 0.000000 0.000000 -60.708740 0.000000 56.000000 0.991340 -0.069910 -0.111168
-80.00000000 -8540.00000000 240.00000000 88 43 190 0.000000 0.000000 0.000000 0.000000 -60.708740 0.000000 56.000000 0.896224 -0.280906 0.343329
-80.00000000 -8510.00000000 270.00000000 88 43 190 0.000000 0.000000 0.000000 0.000000 -60.708740 0.000000 56.000000 0.993356 0.086820 -0.075545
-70.00000000 -8490.00000000 230.00000000 88 43 190 0.000000 0.000000 0.000000 0.000000 -60.708740 0.000000 56.000000 0.867021 -0.278848 0.412939
-80.00000000 -8470.00000000 220.00000000 88 43 190 0.000000 0.000000 0.000000 0.000000 -60.708740 0.000000 56.000000 0.927836 -0.081907 0.363884
-80.00000000 -8460.00000000 210.00000000 88 43 190 0.000000 0.000000 0.000000 0.000000 -60.708740 0.000000 56.000000 0.989518 -0.138099 0.042229
-80.00000000 -8470.00000000 220.00000000 88 43 190 0.000000 0.000000 0.000000 0.000000 -60.708740 0.000000 56.000000 0.927836 -0.081907 0.363884
-90.00000000 -8480.00000000 230.00000000 88 43 190 0.000000 0.000000 0.000000 0.000000 -60.708740 0.000000 56.000000 0.891965 0.011928 0.451947
-80.00000000 -8470.00000000 180.00000000 88 43 190 0.000000 0.000000 0.000000 0.000000 -60.708740 0.000000 56.000000 0.943055 -0.257447 0.210639
-70.00000000 -8490.00000000 180.00000000 88 43 190 0.000000 0.000000 0.000000 0.000000 -60.708740 0.000000 56.000000 0.952753 -0.303543 -0.011151
-70.00000000 -8490.00000000 190.00000000 88 43 190 0.000000 0.000000 0.000000 0.000000 -60.708740 0.000000 56.000000 0.984572 -0.173883 -0.019576
-80.00000000 -8470.00000000 180.00000000 88 43 190 0.000000 0.000000 0.000000 0.000000 -60.708740 0.000000 56.000000 0.943055 -0.257447 0.210639
-70.00000000 -8510.00000000 230.00000000 88 43 190 0.000000 0.000000 0.000000 0.000000 -60.708740 0.000000 56.000000 0.885729 -0.462532 0.039336
-70.00000000 -8500.00000000 220.00000000 88 43 190 0.000000 0.000000 0.000000 0.000000 -60.708740 0.000000 56.000000 0.954983 -0.249068 -0.161162
-70.00000000 -8500.00000000 180.00000000 88 43 190 0.000000 0.000000 0.000000 0.000000 -60.708740 0.000000 56.000000 0.978894 -0.182547 0.091886
-80.00000000 -8530.00000000 180.00000000 88 43 190 0.000000 0.000000 0.000000 0.000000 -60.708740 0.000000 56.000000 -0.671356 0.717444 -0.185890
-70.00000000 -8530.00000000 170.00000000 88 43 190 0.000000 0.000000 0.000000 0.000000 -60.708740 0.000000 56.000000 0.800220 -0.445998 0.400915
-80.00000000 -8500.00000000 180.00000000 88 43 190 0.000000 0.000000 0.000000 0.000000 -60.708740 0.000000 56.000000 0.971663 -0.050111 0.230999
-80.00000000 -8500.00000000 170.00000000 88 43 190 0.000000 0.000000 0.000000 0.000000 -60.708740 0.000000 56.000000 0.940298 -0.338302 -0.037303
-80.00000000 -8500.00000000 170.00000000 88 43 190 0.000000 0.000000 0.000000 0.000000 -60.708740 0.000000 56.000000 0.940298 -0.338302 -0.037303
-50.00000000 -8560.00000000 240.00000000 88 43 190 0.000000 0.000000 0.000000 0.000000 -60.708740 0.000000 56.000000 0.870015 -0.347089 0.350147
-40.00000000 -8560.00000000 150.00000000 88 43 190 0.000000 0.000000 0.000000 0.000000 -60.708740 0.000000 56.000000 0.853526 -0.477192 -0.209242
-70.00000000 -8550.00000000 230.00000000 88 43 190 0.000000 0.000000 0.000000 0.000000 -60.708740 0.000000 56.000000 0.859704 -0.450321 -0.241081
-70.00000000 -8570.00000000 180.00000000 88 43 190 0.000000 0.000000 0.000000 0.000000 -60.708740 0.000000 56.000000 0.920407 -0.380905 0.088110
-90.00000000 -8550.00000000 180.00000000 88 43 190 0.000000 0.000000 0.000000 0.000000 -60.708740 0.000000 56.000000 0.933174 -0.323923 0.155759
-90.00000000 -8590.00000000 150.00000000 88 43 190 0.000000 0.000000 0.000000 0.000000 -60.708740 0.000000 56.000000 0.780379 -0.544191 -0.308002
-80.00000000 -8590.00000000 150.00000000 88 43 190 0.000000 0.000000 0.000000 0.000000 -60.708740 0.000000 56.000000 -0.273446 0.961390 -0.030933
-110.00000000 -8480.00000000 300.00000000 88 43 190 0.000000 0.000000 0.000000 0.000000 -60.708740 0.000000 56.000000 0.704168 0.551016 0.447804
-130.00000000 -8460.00000000 310.00000000 88 43 190 0.000000 0.000000 0.000000 0.000000 -60.708740 0.000000 56.000000 0.764441 0.580085 0.281302
-120.00000000 -8460.00000000 290.00000000 88 43 190 0.000000 0.000000 0.000000 0.000000 -60.708740 0.000000 56.000000 0.575802 0.714390 0.397617
-120.00000000 -8460.00000000 290.00000000 88 43 190 0.000000 0.000000 0.000000 0.000000 -60.708740 0.000000 56.000000 0.575802 0.714390 0.397617
-110.00000000 -8480.00000000 270.00000000 88 43 190 0.000000 0.000000 0.000000 0.000000 -60.708740 0.000000 56.000000 0.948832 0.227338 -0.219171
-120.00000000 -8460.00000000 260.00000000 88 43 190 0.000000 0.000000 0.000000 0.000000 -60.708740 0.000000 56.000000 0.861520 0.325189 0.389918
-110.00000000 -8500.00000000 240.00000000 88 43 190 0.000000 0.000000 0.000000 0.000000 -60.708740 0.000000 56.000000 0.964538 0.233710 -0.122665
-100.00000000 -8540.00000000 150.00000000 88 43 190 0.000000 0.000000 0.000000 0.000000 -60.708740 0.000000 56.000000 0.710331 -0.695563 0.107805
-100.00000000 -8560.00000000 290.00000000 88 43 190 0.000000 0.000000 0.000000 0.000000 -60.708740 0.000000 56.000000 0.692683 -0.704808 0.153087
-130.00000000 -8560.00000000 270.00000000 88 43 190 0.000000 0.000000 0.000000 0.000000 -60.708740 0.000000 56.000000 -0.651660 0.751689 0.101500
-130.00000000 -8570.00000000 270.00000000 88 43 190 0.000000 0.000000 0.000000 0.000000 -60.708740 0.000000 56.000000 0.738366 -0.660485 -0.136291
-120.00000000 -8580.00000000 250.00000000 88 43 190 0.000000 0.000000 0.000000 0.000000 -60.708740 0.000000 56.000000 -0.566128 0.802900 -0.186686
-130.00000000 -8590.00000000 280.00000000 88 43 190 0.000000 0.000000 0.000000 0.000000 -60.708740 0.000000 56.000000 0.726247 -0.687365 -0.009720
-120.00000000 -8590.00000000 290.00000000 88 43 190 0.000000 0.000000 0.000000 0.000000 -60.708740 0.000000 56.000000 0.545422 -0.809682 0.216632
-110.00000000 -8590.00000000 250.00000000 88 43 190 0.000000 0.000000 0.000000 0.000000 -60.708740 0.000000 56.000000 -0.614524 0.776005 0.142043
-140.00000000 -8570.00000000 250.00000000 88 43 190 0.000000 0.000000 0.000000 0.000000 -60.708740 0.000000 56.000000 -0.618388 0.674756 0.402864
-150.00000000 -8580.00000000 260.00000000 88 43 190 0.000000 0.000000 0.000000 0.000000 -60.708740 0.000000 56.000000 -0.380679 0.875108 0.298780
-160.00000000 -8600.00000000 260.00000000 88 43 190 0.000000 0.000000 0.000000 0.000000 -60.708740 0.000000 56.000000 -0.381302 0.923773 -0.035379
-140.00000000 -8600.00000000 240.00000000 88 43 190 0.000000 0.000000 0.000000 0.000000 -60.708740 0.000000 56.000000 -0.398094 0.916542 0.038355
-140.00000000 -8590.00000000 270.00000000 88 43 190 0.000000 0.000000 0.000000 0.000000 -60.708740 0.000000 56.000000 0.815036 -0.572689 -0.087995
-170.00000000 -8600.00000000 240.00000000 88 43 190 0.000000 0.000000 0.000000 0.000000 -60.708740 0.000000 56.000000 -0.554839 0.830152 0.054782
-160.00000000 -8600.00000000 240.00000000 88 43 190 0.000000 0.000000 0.000000 0.000000 -60.708740 0.000000 56.000000 -0.448382 0.889822 -0.084679
-170.00000000 -8610.00000000 250.00000000 88 43 190 0.000000 0.000000 0.000000 0.000000 -60.708740 0.000000 56.000000 -0.328061 0.914813 0.235568
-100.00000000 -8560.00000000 210.00000000 88 43 190 0.000000 0.000000 0.000000 0.000000 -60.708740 0.000000 56.000000 0.800042 -0.518047 0.302590
-100.00000000 -8570.00000000 200.00000000 88 43 190 0.000000 0.000000 0.000000 0.000000 -60.708740 0.000000 56.000000 -0.480661 0.836133 -0.264286
-120.00000000 -8570.00000000 190.00000000 88 43 190 0.000000 0.000000 0.000000 0.000000 -60.708740 0.000000 56.000000 -0.341970 0.925412 0.163308
-110.00000000 -8570.00000000 160.00000000 88 43 190 0.000000 0.000000 0.000000 0.000000 -60.708740 0.000000 56.000000 -0.499995 0.737617 0.453791
-130.00000000 -8580.00000000 160.00000000 88 43 190 0.000000 0.000000 0.000000 0.000000 -60.708740 0.000000 56.000000 -0.522199 0.705719 0.478821
-120.00000000 -8560.00000000 180.00000000 88 43 190 0.000000 0.000000 0.000000 0.000000 -60.708740 0.000000 56.000000 -0.459905 0.881603 0.106132
-110.00000000 -8590.00000000 180.00000000 88 43 190 0.000000 0.000000 0.000000 0.000000 -60.708740 0.000000 56.000000 -0.199736 0.955786 0.215823
-130.00000000 -8600.00000000 160.00000000 88 43 190 0.000000 0.000000 0.000000 0.000000 -60.708740 0.000000 56.000000 -0.355742 0.932335 0.064801
-130.00000000 -8600.00000000 160.00000000 88 43 190 0.000000 0.000000 0.000000 0.000000 -60.708740 0.000000 56.000000 -0.355742 0.932335 0.064801
-140.00000000 -8570.00000000 230.00000000 88 43 190 0.000000 0.000000 0.000000 0.000000 -60.708740 0.000000 56.000000 -0.629214 0.768381 -0.116960
-160.00000000 -8610.00000000 220.00000000 88 43 190 0.000000 0.000000 0.000000 0.000000 -60.708740 0.000000 56.000000 -0.546673 0.784357 0.293143
-170.00000000 -8610.00000000 150.00000000 88 43 190 0.000000 0.000000 0.000000 0.000000 -60.708740 0.000000 56.000000 -0.224047 0.958496 0.176321
-140.00000000 -8600.00000000 170.00000000 88 43 190 0.000000 0.000000 0.000000 0.000000 -60.708740 0.000000 56.000000 -0.117155 0.938591 0.324534
-160.00000000 -8590.00000000 160.00000000 88 43 190 0.000000 0.000000 0.000000 0.000000 -60.708740 0.000000 56.000000 -0.507036 0.860718 0.045592
-170.00000000 -8600.00000000 190.00000000 88 43 190 0.000000 0.000000 0.000000 0.000000 -60.708740 0.000000 56.000000 -0.001182 0.970765 0.240031
-170.00000000 -8600.00000000 190.00000000 88 43 190 0.000000 0.000000 0.000000 0.000000 -60.708740 0.000000 56.000000 -0.001182 0.970765 0.240031
-140.00000000 -8610.00000000 180.00000000 88 43 190 0.000000 0.000000 0.000000 0.000000 -60.708740 0.000000 56.000000 -0.347521 0.921564 -0.173057
-150.00000000 -8600.00000000 150.00000000 88 43 190 0.000000 0.000000 0.000000 0.000000 -60.708740 0.000000 56.000000 -0.259476 0.964656 -0.045936
-150.00000000 -8590.00000000 160.00000000 88 43 190 0.000000 0.000000 0.000000 0.000000 -60.708740 0.000000 56.000000 -0.359858 0.932535 0.029666
-30.00000000 -8490.00000000 80.00000000 88 43 190 0.000000 0.000000 0.000000 0.000000 -60.708740 0.000000 56.000000 0.937960 -0.218811 -0.268984
-40.00000000 -8470.00000000 90.00000000 88 43 190 0.000000 0.000000 0.000000 0.000000 -60.708740 0.000000 56.000000 0.973560 0.057412 -0.221097
-40.00000000 -8470.00000000 90.00000000 88 43 190 0.000000 0.000000 0.000000 0.000000 -60.708740 0.000000 56.000000 0.973560 0.057412 -0.221097
-10.00000000 -8530.00000000 100.00000000 88 43 190 0.000000 0.000000 0.000000 0.000000 -60.708740 0.000000 56.000000 0.982581 -0.149391 0.110525
-60.00000000 -8490.00000000 110.00000000 88 43 190 0.000000 0.000000 0.000000 0.000000 -60.708740 0.000000 56.000000 0.811267 -0.321028 0.488658
-60.00000000 -8490.00000000 120.00000000 88 43 190 0.000000 0.000000 0.000000 0.000000 -60.708740 0.000000 56.000000 0.910058 -0.383555 -0.157102
-70.00000000 -8480.00000000 140.00000000 88 43 190 0.000000 0.000000 0.000000 0.000000 -60.708740 0.000000 56.000000 0.977023 0.003494 0.213105
-70.00000000 -8530.00000000 130.00000000 88 43 190 0.000000 0.000000 0.000000 0.000000 -60.708740 0.000000 56.000000 0.759051 -0.613139 0.218867
-60.00000000 -8500.00000000 130.00000000 88 43 190 0.000000 0.000000 0.000000 0.000000 -60.708740 0.000000 56.000000 0.908988 -0.311779 -0.276649
-60.00000000 -8510.00000000 130.00000000 88 43 190 0.000000 0.000000 0.000000 0.000000 -60.708740 0.000000 56.000000 0.962222 -0.161464 -0.219224
-60.00000000 -8510.00000000 140.00000000 88 43 190 0.000000 0.000000 0.000000 0.000000 -60.708740 0.000000 56.000000 0.983717 -0.169280 -0.060373
-70.00000000 -8530.00000000 110.00000000 88 43 190 0.000000 0.000000 0.000000 0.000000 -60.708740 0.000000 56.000000 0.810772 -0.527547 0.253658
-70.00000000 -8540.00000000 100.00000000 88 43 190 0.000000 0.000000 0.000000 0.000000 -60.708740 0.000000 56.000000 0.865851 -0.500299 0.001334
-30.00000000 -8500.00000000 40.00000000 88 43 190 0.000000 0.000000 0.000000 0.000000 -60.708740 0.000000 56.000000 0.979098 -0.061419 -0.193893
-20.00000000 -8530.00000000 0.00000000 88 43 190 0.000000 0.000000 0.000000 0.000000 -60.708740 0.000000 56.000000 -0.703373 0.560371 0.437322
-60.00000000 -8520.00000000 60.00000000 88 43 190 0.000000 0.000000 0.000000 0.000000 -60.708740 0.000000 56.000000 0.944131 -0.323368 -0.063635
-50.00000000 -8500.00000000 60.00000000 88 43 190 0.000000 0.000000 0.000000 0.000000 -60.708740 0.000000 56.000000 0.982514 -0.184875 0.022092
-50.00000000 -8500.00000000 30.00000000 88 43 190 0.000000 0.000000 0.000000 0.000000 -60.708740 0.000000 56.000000 0.886120 -0.458908 -0.064771
-50.00000000 -8510.00000000 50.00000000 88 43 190 0.000000 0.000000 0.000000 0.000000 -60.708740 0.000000 56.000000 -0.657202 0.686267 -0.311646
-50.00000000 -8500.00000000 10.00000000 88 43 190 0.000000 0.000000 0.000000 0.000000 -60.708740 0.000000 56.000000 0.990895 -0.134265 -0.009987
-50.00000000 -8530.00000000 20.00000000 88 43 190 0.000000 0.000000 0.000000 0.000000 -60.708740 0.000000 56.000000 0.851527 -0.473407 -0.225360
-50.00000000 -8540.00000000 -10.00000000 88 43 190 0.000000 0.000000 0.000000 0.000000 -60.708740 0.000000 56.000000 -0.454733 0.885680 -0.093745
-30.00000000 -8560.00000000 90.00000000 88 43 190 0.000000 0.000000 0.000000 0.000000 -60.708740 0.000000 56.000000 0.736104 -0.668247 0.107687
-90.00000000 -8580.00000000 140.00000000 88 43 190 0.000000 0.000000 0.000000 0.000000 -60.708740 0.000000 56.000000 -0.278304 0.959713 -0.038688
-90.00000000 -8580.00000000 140.00000000 88 43 190 0.000000 0.000000 0.000000 0.000000 -60.708740 0.000000 56.000000 -0.278304 0.959713 -0.038688
-80.00000000 -8580.00000000 130.00000000 88 43 190 0.000000 0.000000 0.000000 0.000000 -60.708740 0.000000 56.000000 -0.447129 0.892898 0.053003
-80.00000000 -8580.00000000 130.00000000 88 43 190 0.000000 0.000000 0.000000 0.000000 -60.708740 0.000000 56.000000 -0.447129 0.892898 0.053003
-80.00000000 -8560.00000000 100.00000000 88 43 190 0.000000 0.000000 0.000000 0.000000 -60.708740 0.000000 56.000000 0.728028 -0.643118 0.237435
-80.00000000 -8560.00000000 100.00000000 88 43 190 0.000000 0.000000 0.000000 0.000000 -60.708740 0.000000 56.000000 0.728028 -0.643118 0.237435
-60.00000000 -8590.00000000 70.00000000 88 43 190 0.000000 0.000000 0.000000 0.000000 -60.708740 0.000000 56.000000 -0.567913 0.805925 0.167211
-80.00000000 -8620.00000000 100.00000000 88 43 190 0.000000 0.000000 0.000000 0.000000 -60.708740 0.000000 56.000000 -0.435656 0.894975 -0.096039
-30.00000000 -8560.00000000 30.00000000 88 43 190 0.000000 0.000000 0.000000 0.000000 -60.708740 0.000000 56.000000 0.799441 -0.600616 -0.012427
-40.00000000 -8570.00000000 20.00000000 88 43 190 0.000000 0.000000 0.000000 0.000000 -60.708740 0.000000 56.000000 0.866770 -0.498561 0.012094
-40.00000000 -8590.00000000 60.00000000 88 43 190 0.000000 0.000000 0.000000 0.000000 -60.708740 0.000000 56.000000 -0.627998 0.769852 -0.113779
-40.00000000 -8590.00000000 40.00000000 88 43 190 0.000000 0.000000 0.000000 0.000000 -60.708740 0.000000 56.000000 0.877822 -0.471812 -0.082602
-70.00000000 -8560.00000000 50.00000000 88 43 190 0.000000 0.000000 0.000000 0.000000 -60.708740 0.000000 56.000000 -0.613401 0.761729 0.208587
-50.00000000 -8550.00000000 60.00000000 88 43 190 0.000000 0.000000 0.000000 0.000000 -60.708740 0.000000 56.000000 0.761969 -0.483399 -0.430963
-70.00000000 -8600.00000000 50.00000000 88 43 190 0.000000 0.000000 0.000000 0.000000 -60.708740 0.000000 56.000000 -0.431069 0.857536 0.280732
-100.00000000 -8460.00000000 140.00000000 88 43 190 0.000000 0.000000 0.000000 0.000000 -60.708740 0.000000 56.000000 0.931453 -0.288877 0.221238
-110.00000000 -8580.00000000 90.00000000 88 43 190 0.000000 0.000000 0.000000 0.000000 -60.708740 0.000000 56.000000 -0.026863 0.982239 0.185703
-110.00000000 -8580.00000000 80.00000000 88 43 190 0.000000 0.000000 0.000000 0.000000 -60.708740 0.000000 56.000000 -0.300720 0.953712 0.001227
-130.00000000 -8590.00000000 130.00000000 88 43 190 0.000000 0.000000 0.000000 0.000000 -60.708740 0.000000 56.000000 -0.387156 0.920982 0.043605
-120.00000000 -8600.00000000 110.00000000 88 43 190 0.000000 0.000000 0.000000 0.000000 -60.708740 0.000000 56.000000 -0.205363 0.964030 -0.168738
-120.00000000 -8590.00000000 80.00000000 88 43 190 0.000000 0.000000 0.000000 0.000000 -60.708740 0.000000 56.000000 -0.480913 0.875997 -0.036784
-110.00000000 -8600.00000000 90.00000000 88 43 190 0.000000 0.000000 0.000000 0.000000 -60.708740 0.000000 56.000000 -0.219224 0.907385 0.358599
-170.00000000 -8580.00000000 120.00000000 88 43 190 0.000000 0.000000 0.000000 0.000000 -60.708740 0.000000 56.000000 -0.027659 0.972871 0.229689
-160.00000000 -8600.00000000 140.00000000 88 43 190 0.000000 0.000000 0.000000 0.000000 -60.708740 0.000000 56.000000 -0.350625 0.918438 0.183120
-140.00000000 -8600.00000000 70.00000000 88 43 190 0.000000 0.000000 0.000000 0.000000 -60.708740 0.000000 56.000000 -0.160265 0.977741 -0.135418
-140.00000000 -8620.00000000 70.00000000 88 43 190 0.000000 0.000000 0.000000 0.000000 -60.708740 0.000000 56.000000 -0.288125 0.957554 0.008582
-100.00000000 -8580.00000000 60.00000000 88 43 190 0.000000 0.000000 0.000000 0.000000 -60.708740 0.000000 56.000000 -0.372050 0.924038 -0.087939
-120.00000000 -8580.00000000 60.00000000 88 43 190 0.000000 0.000000 0.000000 0.000000 -60.708740 0.000000 56.000000 -0.313373 0.947855 0.058032
-130.00000000 -8610.00000000 30.00000000 88 43 190 0.000000 0.000000 0.000000 0.000000 -60.708740 0.000000 56.000000 0.188776 0.979950 0.063727
-120.00000000 -8590.00000000 40.00000000 88 43 190 0.000000 0.000000 0.000000 0.000000 -60.708740 0.000000 56.000000 -0.333465 0.939764 -0.075128
-110.00000000 -8620.00000000 -10.00000000 88 43 190 0.000000 0.000000 0.000000 0.000000 -60.708740 0.000000 56.000000 -0.162004 0.975790 -0.146934
-120.00000000 -8590.00000000 -10.00000000 88 43 190 0.000000 0.000000 0.000000 0.000000 -60.708740 0.000000 56.000000 -0.462533 0.885961 0.033712
-170.00000000 -8610.00000000 60.00000000 88 43 190 0.000000 0.000000 0.000000 0.000000 -60.708740 0.000000 56.000000 0.110037 0.787865 0.605937
-170.00000000 -8590.00000000 0.00000000 88 43 190 0.000000 0.000000 0.000000 0.000000 -60.708740 0.000000 56.000000 -0.175077 0.983488 -0.045826
-140.00000000 -8620.00000000 10.00000000 88 43 190 0.000000 0.000000 0.000000 0.000000 -60.708740 0.000000 56.000000 -0.234015 0.958536 -0.162621
-140.00000000 -8590.00000000 20.00000000 88 43 190 0.000000 0.000000 0.000000 0.000000 -60.708740 0.000000 56.000000 -0.498298 0.854851 0.144667
-160.00000000 -8620.00000000 0.00000000 88 43 190 0.000000 0.000000 0.000000 0.000000 -60.708740 0.000000 56.000000 0.070758 0.982218 -0.173897
-170.00000000 -8640.00000000 300.00000000 88 43 190 0.000000 0.000000 0.000000 0.000000 -60.708740 0.000000 56.000000 -0.372162 0.921478 0.111237
-160.00000000 -8640.00000000 260.00000000 88 43 190 0.000000 0.000000 0.000000 0.000000 -60.708740 0.000000 56.000000 -0.353684 0.926183 -0.130739
-250.00000000 -8460.00000000 170.00000000 88 43 190 0.000000 0.000000 0.000000 0.000000 -60.708740 0.000000 56.000000 0.938269 -0.064301 0.339877
-190.00000000 -8620.00000000 280.00000000 88 43 190 0.000000 0.000000 0.000000 0.000000 -60.708740 0.000000 56.000000 -0.094391 0.989361 0.110706
-200.00000000 -8610.00000000 290.00000000 88 43 190 0.000000 0.000000 0.000000 0.000000 -60.708740 0.000000 56.000000 0.039642 0.997475 -0.058927
-180.00000000 -8620.00000000 300.00000000 88 43 190 0.000000 0.000000 0.000000 0.000000 -60.708740 0.000000 56.000000 -0.430623 0.900640 -0.058413
-180.00000000 -8620.00000000 240.00000000 88 43 190 0.000000 0.000000 0.000000 0.000000 -60.708740 0.000000 56.000000 -0.281379 0.800122 0.529747
-250.00000000 -8620.00000000 310.00000000 88 43 190 0.000000 0.000000 0.000000 0.000000 -60.708740 0.000000 56.000000 0.112226 0.913052 0.392100
-200.00000000 -8620.00000000 200.00000000 88 43 190 0.000000 0.000000 0.000000 0.000000 -60.708740 0.000000 56.000000 -0.047241 0.948641 0.312809
-240.00000000 -8580.00000000 170.00000000 88 43 190 0.000000 0.000000 0.000000 0.000000 -60.708740 0.000000 56.000000 0.531480 0.598970 0.598970
-240.00000000 -8620.00000000 220.00000000 88 43 190 0.000000 0.000000 0.000000 0.000000 -60.708740 0.000000 56.000000 0.379920 0.922279 -0.071151
-230.00000000 -8620.00000000 180.00000000 88 43 190 0.000000 0.000000 0.000000 0.000000 -60.708740 0.000000 56.000000 0.451170 0.841875 0.296129
-300.00000000 -8470.00000000 290.00000000 88 43 190 0.000000 0.000000 0.000000 0.000000 -60.708740 0.000000 56.000000 0.811287 -0.499375 0.304036
-300.00000000 -8470.00000000 240.00000000 88 43 190 0.000000 0.000000 0.000000 0.000000 -60.708740 0.000000 56.000000 0.803429 -0.595386 -0.004106
-300.00000000 -8470.00000000 270.00000000 88 43 190 0.000000 0.000000 0.000000 0.000000 -60.708740 0.000000 56.000000 0.971820 -0.227867 0.060354
-320.00000000 -8490.00000000 300.00000000 88 43 190 0.000000 0.000000 0.000000 0.000000 -60.708740 0.000000 56.000000 0.964214 -0.168313 -0.204847
-330.00000000 -8480.00000000 300.00000000 88 43 190 0.000000 0.000000 0.000000 0.000000 -60.708740 0.000000 56.000000 0.844619 -0.486755 -0.222907
-320.00000000 -8470.00000000 250.00000000 88 43 190 0.000000 0.000000 0.000000 0.000000 -60.708740 0.000000 56.000000 0.856776 -0.508401 -0.086386
-320.00000000 -8460.00000000 240.00000000 88 43 190 0.000000 0.000000 0.000000 0.000000 -60.708740 0.000000 56.000000 0.975189 -0.193045 -0.108354
-320.00000000 -8470.00000000 240.00000000 88 43 190 0.000000 0.000000 0.000000 0.000000 -60.708740 0.000000 56.000000 0.918131 -0.237076 0.317538
-320.00000000 -8460.00000000 250.00000000 88 43 190 0.000000 0.000000 0.000000 0.000000 -60.708740 0.000000 56.000000 0.923298 -0.382190 0.038088
-320.00000000 -8510.00000000 310.00000000 88 43 190 0.000000 0.000000 0.000000 0.000000 -60.708740 0.000000 56.000000 0.972219 0.020329 0.233189
-340.00000000 -8500.00000000 240.00000000 88 43 190 0.000000 0.000000 0.000000 0.000000 -60.708740 0.000000 56.000000 0.990892 -0.107030 0.081711
-340.00000000 -8510.00000000 250.00000000 88 43 190 0.000000 0.000000 0.000000 0.000000 -60.708740 0.000000 56.000000 0.909534 -0.357162 0.212562
-290.00000000 -8470.00000000 230.00000000 88 43 190 0.000000 0.000000 0.000000 0.000000 -60.708740 0.000000 56.000000 0.837592 -0.353580 0.416439
-280.00000000 -8460.00000000 150.00000000 88 43 190 0.000000 0.000000 0.000000 0.000000 -60.708740 0.000000 56.000000 0.971900 -0.122593 -0.200952
-270.00000000 -8480.00000000 160.00000000 88 43 190 0.000000 0.000000 0.000000 0.000000 -60.708740 0.000000 56.000000 0.981151 0.081057 -0.175422
-270.00000000 -8480.00000000 180.00000000 88 43 190 0.000000 0.000000 0.000000 0.000000 -60.708740 0.000000 56.000000 0.849275 0.135942 0.510149
-260.00000000 -8460.00000000 190.00000000 88 43 190 0.000000 0.000000 0.000000 0.000000 -60.708740 0.000000 56.000000 0.900696 -0.432172 0.044429
-300.00000000 -8500.00000000 160.00000000 88 43 190 0.000000 0.000000 0.000000 0.000000 -60.708740 0.000000 56.000000 0.913246 -0.169014 0.370696
-330.00000000 -8480.00000000 200.00000000 88 43 190 0.000000 0.000000 0.000000 0.000000 -60.708740 0.000000 56.000000 0.977705 -0.170198 0.122990
-330.00000000 -8480.00000000 210.00000000 88 43 190 0.000000 0.000000 0.000000 0.000000 -60.708740 0.000000 56.000000 0.898689 -0.288706 0.330161
-310.00000000 -8520.00000000 190.00000000 88 43 190 0.000000 0.000000 0.000000 0.000000 -60.708740 0.000000 56.000000 0.966356 -0.087390 0.241906
-290.00000000 -8560.00000000 290.00000000 88 43 190 0.000000 0.000000 0.000000 0.000000 -60.708740 0.000000 56.000000 0.701920 0.647309 0.297152
-260.00000000 -8560.00000000 250.00000000 88 43 190 0.000000 0.000000 0.000000 0.000000 -60.708740 0.000000 56.000000 0.886278 0.388771 0.251733
-290.00000000 -8570.00000000 240.00000000 88 43 190 0.000000 0.000000 0.000000 0.000000 -60.708740 0.000000 56.000000 0.881437 0.372162 0.290799
-290.00000000 -8620.00000000 300.00000000 88 43 190 0.000000 0.000000 0.000000 0.000000 -60.708740 0.000000 56.000000 0.592522 0.760008 0.267030
-300.00000000 -8610.00000000 290.00000000 88 43 190 0.000000 0.000000 0.000000 0.000000 -60.708740 0.000000 56.000000 0.381297 0.898460 0.217676
-290.00000000 -8610.00000000 300.00000000 88 43 190 0.000000 0.000000 0.000000 0.000000 -60.708740 0.000000 56.000000 0.469057 0.833707 0.291408
-290.00000000 -8600.00000000 260.00000000 88 43 190 0.000000 0.000000 0.000000 0.000000 -60.708740 0.000000 56.000000 0.544928 0.838455 -0.006795
-300.00000000 -8600.00000000 260.00000000 88 43 190 0.000000 0.000000 0.000000 0.000000 -60.708740 0.000000 56.000000 0.579380 0.813387 0.052158
-340.00000000 -8550.00000000 310.00000000 88 43 190 0.000000 0.000000 0.000000 0.000000 -60.708740 0.000000 56.000000 0.853887 0.117030 0.507131
-340.00000000 -8550.00000000 280.00000000 88 43 190 0.000000 0.000000 0.000000 0.000000 -60.708740 0.000000 56.000000 0.997818 -0.065825 -0.005224
-330.00000000 -8570.00000000 270.00000000 88 43 190 0.000000 0.000000 0.000000 0.000000 -60.708740 0.000000 56.000000 0.686002 0.416916 0.596307
-310.00000000 -8560.00000000 240.00000000 88 43 190 0.000000 0.000000 0.000000 0.000000 -60.708740 0.000000 56.000000 0.761898 0.389922 0.517177
-340.00000000 -8590.00000000 310.00000000 88 43 190 0.000000 0.000000 0.000000 0.000000 -60.708740 0.000000 56.000000 0.694319 0.437904 0.571106
-340.00000000 -8600.00000000 250.00000000 88 43 190 0.000000 0.000000 0.000000 0.000000 -60.708740 0.000000 56.000000 0.736235 0.614860 0.282676
-270.00000000 -8570.00000000 160.00000000 88 43 190 0.000000 0.000000 0.000000 0.000000 -60.708740 0.000000 56.000000 0.658594 0.428503 0.618578
-270.00000000 -8600.00000000 180.00000000 88 43 190 0.000000 0.000000 0.000000 0.000000 -60.708740 0.000000 56.000000 0.760926 0.516518 0.392684
-260.00000000 -8600.00000000 170.00000000 88 43 190 0.000000 0.000000 0.000000 0.000000 -60.708740 0.000000 56.000000 0.772308 0.551648 0.314999
-320.00000000 -8580.00000000 160.00000000 88 43 190 0.000000 0.000000 0.000000 0.000000 -60.708740 0.000000 56.000000 0.832184 0.492517 0.254750
-320.00000000 -8570.00000000 190.00000000 88 43 190 0.000000 0.000000 0.000000 0.000000 -60.708740 0.000000 56.000000 0.885470 0.425904 0.185875
-320.00000000 -8590.00000000 230.00000000 88 43 190 0.000000 0.000000 0.000000 0.000000 -60.708740 0.000000 56.000000 0.645201 0.601629 0.470913
-250.00000000 -8520.00000000 10.00000000 88 43 190 0.000000 0.000000 0.000000 0.000000 -60.708740 0.000000 56.000000 0.682177 0.544736 0.487748
-190.00000000 -8620.00000000 100.00000000 88 43 190 0.000000 0.000000 0.000000 0.000000 -60.708740 0.000000 56.000000 -0.160429 0.963879 0.212601
-210.00000000 -8600.00000000 70.00000000 88 43 190 0.000000 0.000000 0.000000 0.000000 -60.708740 0.000000 56.000000 0.175829 0.965103 0.194063
-190.00000000 -8610.00000000 70.00000000 88 43 190 0.000000 0.000000 0.000000 0.000000 -60.708740 0.000000 56.000000 0.055481 0.970293 0.235484
-250.00000000 -8590.00000000 110.00000000 88 43 190 0.000000 0.000000 0.000000 0.000000 -60.708740 0.000000 56.000000 0.442992 0.820884 0.360427
-180.00000000 -8600.00000000 50.00000000 88 43 190 0.000000 0.000000 0.000000 0.000000 -60.708740 0.000000 56.000000 -0.022001 0.998439 -0.051336
-210.00000000 -8620.00000000 50.00000000 88 43 190 0.000000 0.000000 0.000000 0.000000 -60.708740 0.000000 56.000000 0.201689 0.973367 0.108987
-180.00000000 -8600.00000000 40.00000000 88 43 190 0.000000 0.000000 0.000000 0.000000 -60.708740 0.000000 56.000000 -0.147812 0.984214 0.097340
-180.00000000 -8600.00000000 10.00000000 88 43 190 0.000000 0.000000 0.000000 0.000000 -60.708740 0.000000 56.000000 0.447475 0.776166 0.444221
-190.00000000 -8600.00000000 10.00000000 88 43 190 0.000000 0.000000 0.000000 0.000000 -60.708740 0.000000 56.000000 0.027986 0.967354 0.251877
-250.00000000 -8590.00000000 60.00000000 88 43 190 0.000000 0.000000 0.000000 0.000000 -60.708740 0.000000 56.000000 0.762981 0.646240 0.015287
-230.00000000 -8600.00000000 30.00000000 88 43 190 0.000000 0.000000 0.000000 0.000000 -60.708740 0.000000 56.000000 0.496828 0.767232 0.405607
-230.00000000 -8610.00000000 60.00000000 88 43 190 0.000000 0.000000 0.000000 0.000000 -60.708740 0.000000 56.000000 0.407252 0.911978 -0.049404
-230.00000000 -8610.00000000 0.00000000 88 43 190 0.000000 0.000000 0.000000 0.000000 -60.708740 0.000000 56.000000 0.475193 0.848667 0.232283
-240.00000000 -8590.00000000 20.00000000 88 43 190 0.000000 0.000000 0.000000 0.000000 -60.708740 0.000000 56.000000 0.549316 0.835560 -0.009541
-230.00000000 -8610.00000000 -10.00000000 88 43 190 0.000000 0.000000 0.000000 0.000000 -60.708740 0.000000 56.000000 0.230670 0.863882 0.447771
-250.00000000 -8590.00000000 -10.00000000 88 43 190 0.000000 0.000000 0.000000 0.000000 -60.708740 0.000000 56.000000 0.407052 0.912902 0.030298
-240.00000000 -8600.00000000 -10.00000000 88 43 190 0.000000 0.000000 0.000000 0.000000 -60.708740 0.000000 56.000000 0.547173 0.836610 0.026187
-260.00000000 -8460.00000000 110.00000000 88 43 190 0.000000 0.000000 0.000000 0.000000 -60.708740 0.000000 56.000000 0.958584 -0.184803 0.216712
-300.00000000 -8470.00000000 120.00000000 88 43 190 0.000000 0.000000 0.000000 0.000000 -60.708740 0.000000 56.000000 0.972415 -0.146180 0.181772
-300.00000000 -8480.00000000 120.00000000 88 43 190 0.000000 0.000000 0.000000 0.000000 -60.708740 0.000000 56.000000 0.978607 -0.117235 0.169066
-300.00000000 -8540.00000000 120.00000000 88 43 190 0.000000 0.000000 0.000000 0.000000 -60.708740 0.000000 56.000000 0.858603 0.150658 0.490003
-300.00000000 -8500.00000000 130.00000000 88 43 190 0.000000 0.000000 0.000000 0.000000 -60.708740 0.000000 56.000000 0.995813 0.081982 -0.040445
-310.00000000 -8530.00000000 120.00000000 88 43 190 0.000000 0.000000 0.000000 0.000000 -60.708740 0.000000 56.000000 0.987312 0.128575 0.093187
-290.00000000 -8510.00000000 30.00000000 88 43 190 0.000000 0.000000 0.000000 0.000000 -60.708740 0.000000 56.000000 0.974582 0.003518 0.224001
-260.00000000 -8520.00000000 0.00000000 88 43 190 0.000000 0.000000 0.000000 0.000000 -60.708740 0.000000 56.000000 0.702349 0.440006 0.559554
-290.00000000 -8580.00000000 100.00000000 88 43 190 0.000000 0.000000 0.000000 0.000000 -60.708740 0.000000 56.000000 0.674516 0.738228 0.006925
-280.00000000 -8570.00000000 70.00000000 88 43 190 0.000000 0.000000 0.000000 0.000000 -60.708740 0.000000 56.000000 0.795994 0.598808 0.088444
-270.00000000 -8610.00000000 110.00000000 88 43 190 0.000000 0.000000 0.000000 0.000000 -60.708740 0.000000 56.000000 0.805090 0.525741 0.274641
-260.00000000 -8620.00000000 100.00000000 88 43 190 0.000000 0.000000 0.000000 0.000000 -60.708740 0.000000 56.000000 0.423540 0.896659 0.128904
-280.00000000 -8570.00000000 50.00000000 88 43 190 0.000000 0.000000 0.000000 0.000000 -60.708740 0.000000 56.000000 0.579281 0.659876 0.478536
-290.00000000 -8580.00000000 20.00000000 88 43 190 0.000000 0.000000 0.000000 0.000000 -60.708740 0.000000 56.000000 0.791260 0.531206 0.302867
-260.00000000 -8620.00000000 20.00000000 88 43 190 0.000000 0.000000 0.000000 0.000000 -60.708740 0.000000 56.000000 0.133969 0.953703 0.269265
-290.00000000 -8550.00000000 -10.00000000 88 43 190 0.000000 0.000000 0.000000 0.000000 -60.708740 0.000000 56.000000 0.868403 0.494867 -0.031355
-260.00000000 -8620.00000000 60.00000000 88 43 190 0.000000 0.000000 0.000000 0.000000 -60.708740 0.000000 56.000000 0.719487 0.694437 0.009742
-280.00000000 -8580.00000000 20.00000000 88 43 190 0.000000 0.000000 0.000000 0.000000 -60.708740 0.000000 56.000000 0.674150 0.677368 0.294438
-190.00000000 -8650.00000000 250.00000000 88 43 190 0.000000 0.000000 0.000000 0.000000 -60.708740 0.000000 56.000000 0.254323 0.911203 0.324080
-240.00000000 -8630.00000000 280.00000000 88 43 190 0.000000 0.000000 0.000000 0.000000 -60.708740 0.000000 56.000000 0.261225 0.952468 0.156735
-240.00000000 -8650.00000000 250.00000000 88 43 190 0.000000 0.000000 0.000000 0.000000 -60.708740 0.000000 56.000000 0.192390 0.978892 -0.068970
-210.00000000 -8640.00000000 180.00000000 88 43 190 0.000000 0.000000 0.000000 0.000000 -60.708740 0.000000 56.000000 0.540473 0.802143 0.253882
-250.00000000 -8640.00000000 230.00000000 88 43 190 0.000000 0.000000 0.000000 0.000000 -60.708740 0.000000 56.000000 0.650794 0.751144 0.110679
-240.00000000 -8640.00000000 210.00000000 88 43 190 0.000000 0.000000 0.000000 0.000000 -60.708740 0.000000 56.000000 0.080674 0.906554 0.414308
-260.00000000 -8640.00000000 280.00000000 88 43 190 0.000000 0.000000 0.000000 0.000000 -60.708740 0.000000 56.000000 0.232788 0.972510 -0.005908
-270.00000000 -8630.00000000 310.00000000 88 43 190 0.000000 0.000000 0.000000 0.000000 -60.708740 0.000000 56.000000 0.702062 0.541972 0.461927
-260.00000000 -8640.00000000 290.00000000 88 43 190 0.000000 0.000000 0.000000 0.000000 -60.708740 0.000000 56.000000 0.379095 0.925096 0.021995
-290.00000000 -8630.00000000 170.00000000 88 43 190 0.000000 0.000000 0.000000 0.000000 -60.708740 0.000000 56.000000 0.311983 0.766359 0.561570
-220.00000000 -8630.00000000 130.00000000 88 43 190 0.000000 0.000000 0.000000 0.000000 -60.708740 0.000000 56.000000 0.238684 0.968481 0.071230
-200.00000000 -8630.00000000 100.00000000 88 43 190 0.000000 0.000000 0.000000 0.000000 -60.708740 0.000000 56.000000 0.146372 0.987131 0.064404
-180.00000000 -8630.00000000 130.00000000 88 43 190 0.000000 0.000000 0.000000 0.000000 -60.708740 0.000000 56.000000 0.106707 0.979989 0.168033
-210.00000000 -8630.00000000 110.00000000 88 43 190 0.000000 0.000000 0.000000 0.000000 -60.708740 0.000000 56.000000 0.374547 0.902119 0.214235
-180.00000000 -8630.00000000 130.00000000 88 43 190 0.000000 0.000000 0.000000 0.000000 -60.708740 0.000000 56.000000 0.106707 0.979989 0.168033
-200.00000000 -8640.00000000 -10.00000000 88 43 190 0.000000 0.000000 0.000000 0.000000 -60.708740 0.000000 56.000000 0.134968 0.990143 0.037428
-200.00000000 -8640.00000000 40.00000000 88 43 190 0.000000 0.000000 0.000000 0.000000 -60.708740 0.000000 56.000000 0.206547 0.961693 0.180235
-190.00000000 -8640.00000000 40.00000000 88 43 190 0.000000 0.000000 0.000000 0.000000 -60.708740 0.000000 56.000000 -0.119111 0.943523 0.309154
-180.00000000 -8630.00000000 40.00000000 88 43 190 0.000000 0.000000 0.000000 0.000000 -60.708740 0.000000 56.000000 0.033474 0.898432 0.437835
-370.00000000 -8370.00000000 570.00000000 88 43 190 0.000000 0.000000 0.000000 0.000000 -60.708740 0.000000 56.000000 -0.455094 0.876747 0.155575
-350.00000000 -8360.00000000 580.00000000 88 43 190 0.000000 0.000000 0.000000 0.000000 -60.708740 0.000000 56.000000 -0.346590 0.913214 -0.214282
-370.00000000 -8370.00000000 610.00000000 88 43 190 0.000000 0.000000 0.000000 0.000000 -60.708740 0.000000 56.000000 -0.396313 0.878519 0.266720
-350.00000000 -8370.00000000 580.00000000 88 43 190 0.000000 0.000000 0.000000 0.000000 -60.708740 0.000000 56.000000 -0.246909 0.907279 0.340412
-360.00000000 -8410.00000000 620.00000000 88 43 190 0.000000 0.000000 0.000000 0.000000 -60.708740 0.000000 56.000000 -0.648248 0.760742 0.032342
-360.00000000 -8380.00000000 620.00000000 88 43 190 0.000000 0.000000 0.000000 0.000000 -60.708740 0.000000 56.000000 -0.387220 0.873144 0.296110
-380.00000000 -8380.00000000 620.00000000 88 43 190 0.000000 0.000000 0.000000 0.000000 -60.708740 0.000000 56.000000 -0.471606 0.854316 0.218476
-380.00000000 -8390.00000000 580.00000000 88 43 190 0.000000 0.000000 0.000000 0.000000 -60.708740 0.000000 56.000000 -0.384606 0.865747 0.320250
-370.00000000 -8390.00000000 590.00000000 88 43 190 0.000000 0.000000 0.000000 0.000000 -60.708740 0.000000 56.000000 -0.571089 0.813546 0.109544
-350.00000000 -8410.00000000 570.00000000 88 43 190 0.000000 0.000000 0.000000 0.000000 -60.708740 0.000000 56.000000 0.858866 -0.506294 -0.077566
-380.00000000 -8380.00000000 600.00000000 88 43 190 0.000000 0.000000 0.000000 0.000000 -60.708740 0.000000 56.000000 0.667759 -0.686975 0.286640
-380.00000000 -8380.00000000 560.00000000 88 43 190 0.000000 0.000000 0.000000 0.000000 -60.708740 0.000000 56.000000 -0.573514 0.800499 -0.174021
-370.00000000 -8410.00000000 530.00000000 88 43 190 0.000000 0.000000 0.000000 0.000000 -60.708740 0.000000 56.000000 0.818447 -0.539051 0.198918
-350.00000000 -8400.00000000 520.00000000 88 43 190 0.000000 0.000000 0.000000 0.000000 -60.708740 0.000000 56.000000 -0.468369 0.853372 -0.228880
-370.00000000 -8430.00000000 500.00000000 88 43 190 0.000000 0.000000 0.000000 0.000000 -60.708740 0.000000 56.000000 0.783986 -0.483324 -0.389569
-360.00000000 -8430.00000000 490.00000000 88 43 190 0.000000 0.000000 0.000000 0.000000 -60.708740 0.000000 56.000000 0.790594 -0.588033 -0.170817
-350.00000000 -8430.00000000 450.00000000 88 43 190 0.000000 0.000000 0.000000 0.000000 -60.708740 0.000000 56.000000 0.787934 -0.595093 0.158189
-390.00000000 -8490.00000000 600.00000000 88 43 190 0.000000 0.000000 0.000000 0.000000 -60.708740 0.000000 56.000000 0.892881 -0.419755 0.162998
-400.00000000 -8500.00000000 600.00000000 88 43 190 0.000000 0.000000 0.000000 0.000000 -60.708740 0.000000 56.000000 0.808395 -0.411401 0.421006
-390.00000000 -8540.00000000 580.00000000 88 43 190 0.000000 0.000000 0.000000 0.000000 -60.708740 0.000000 56.000000 0.996146 0.051393 -0.071075
-420.00000000 -8510.00000000 590.00000000 88 43 190 0.000000 0.000000 0.000000 0.000000 -60.708740 0.000000 56.000000 0.953870 -0.158756 -0.254810
-360.00000000 -8490.00000000 530.00000000 88 43 190 0.000000 0.000000 0.000000 0.000000 -60.708740 0.000000 56.000000 0.852863 -0.437956 0.284288
-370.00000000 -8490.00000000 560.00000000 88 43 190 0.000000 0.000000 0.000000 0.000000 -60.708740 0.000000 56.000000 0.914819 -0.403862 0.001290
-360.00000000 -8470.00000000 550.00000000 88 43 190 0.000000 0.000000 0.000000 0.000000 -60.708740 0.000000 56.000000 0.806711 -0.582867 0.097387
-360.00000000 -8480.00000000 530.00000000 88 43 190 0.000000 0.000000 0.000000 0.000000 -60.708740 0.000000 56.000000 0.830587 -0.517788 0.204989
-350.00000000 -8470.00000000 540.00000000 88 43 190 0.000000 0.000000 0.000000 0.000000 -60.708740 0.000000 56.000000 0.801509 -0.558441 0.213838
-360.00000000 -8470.00000000 490.00000000 88 43 190 0.000000 0.000000 0.000000 0.000000 -60.708740 0.000000 56.000000 0.652173 -0.687775 -0.318804
-370.00000000 -8460.00000000 520.00000000 88 43 190 0.000000 0.000000 0.000000 0.000000 -60.708740 0.000000 56.000000 0.853848 -0.424608 -0.301086
-360.00000000 -8530.00000000 530.00000000 88 43 190 0.000000 0.000000 0.000000 0.000000 -60.708740 0.000000 56.000000 0.999892 0.006978 0.012960
-390.00000000 -8480.00000000 530.00000000 88 43 190 0.000000 0.000000 0.000000 0.000000 -60.708740 0.000000 56.000000 0.976443 -0.148779 0.156281
-400.00000000 -8490.00000000 540.00000000 88 43 190 0.000000 0.000000 0.000000 0.000000 -60.708740 0.000000 56.000000 0.959478 -0.281332 0.015971
-390.00000000 -8460.00000000 500.00000000 88 43 190 0.000000 0.000000 0.000000 0.000000 -60.708740 0.000000 56.000000 0.958071 -0.231898 -0.168292
-390.00000000 -8540.00000000 540.00000000 88 43 190 0.000000 0.000000 0.000000 0.000000 -60.708740 0.000000 56.000000 0.983096 -0.085226 -0.162049
-390.00000000 -8540.00000000 520.00000000 88 43 190 0.000000 0.000000 0.000000 0.000000 -60.708740 0.000000 56.000000 0.994369 0.092215 0.052218
-400.00000000 -8530.00000000 520.00000000 88 43 190 0.000000 0.000000 0.000000 0.000000 -60.708740 0.000000 56.000000 0.989709 0.014571 0.142348
-360.00000000 -8560.00000000 600.00000000 88 43 190 0.000000 0.000000 0.000000 0.000000 -60.708740 0.000000 56.000000 0.951514 -0.236863 -0.196258
-360.00000000 -8580.00000000 580.00000000 88 43 190 0.000000 0.000000 0.000000 0.000000 -60.708740 0.000000 56.000000 0.988111 0.061684 -0.140826
-360.00000000 -8570.00000000 610.00000000 88 43 190 0.000000 0.000000 0.000000 0.000000 -60.708740 0.000000 56.000000 0.994748 0.040850 0.093844
-350.00000000 -8560.00000000 580.00000000 88 43 190 0.000000 0.000000 0.000000 0.000000 -60.708740 0.000000 56.000000 0.994219 -0.007573 -0.107103
-360.00000000 -8550.00000000 530.00000000 88 43 190 0.000000 0.000000 0.000000 0.000000 -60.708740 0.000000 56.000000 0.974473 0.210664 -0.077613
-380.00000000 -8570.00000000 500.00000000 88 43 190 0.000000 0.000000 0.000000 0.000000 -60.708740 0.000000 56.000000 0.853363 0.057263 0.518163
-370.00000000 -8560.00000000 500.00000000 88 43 190 0.000000 0.000000 0.000000 0.000000 -60.708740 0.000000 56.000000 0.932462 0.014032 0.360994
-350.00000000 -8620.00000000 550.00000000 88 43 190 0.000000 0.000000 0.000000 0.000000 -60.708740 0.000000 56.000000 0.975699 0.082436 0.203014
-350.00000000 -8600.00000000 490.00000000 88 43 190 0.000000 0.000000 0.000000 0.000000 -60.708740 0.000000 56.000000 0.960236 0.192047 0.202643
-370.00000000 -8490.00000000 450.00000000 88 43 190 0.000000 0.000000 0.000000 0.000000 -60.708740 0.000000 56.000000 0.810385 -0.429968 0.398000
-370.00000000 -8490.00000000 430.00000000 88 43 190 0.000000 0.000000 0.000000 0.000000 -60.708740 0.000000 56.000000 0.986475 -0.040572 0.158810
-350.00000000 -8460.00000000 410.00000000 88 43 190 0.000000 0.000000 0.000000 0.000000 -60.708740 0.000000 56.000000 0.714151 -0.633910 -0.296894
-350.00000000 -8520.00000000 480.00000000 88 43 190 0.000000 0.000000 0.000000 0.000000 -60.708740 0.000000 56.000000 0.967682 -0.244716 0.060868
-350.00000000 -8500.00000000 460.00000000 88 43 190 0.000000 0.000000 0.000000 0.000000 -60.708740 0.000000 56.000000 0.958126 -0.268379 -0.099832
-380.00000000 -8530.00000000 460.00000000 88 43 190 0.000000 0.000000 0.000000 0.000000 -60.708740 0.000000 56.000000 0.992255 0.122787 0.018805
-360.00000000 -8520.00000000 410.00000000 88 43 190 0.000000 0.000000 0.000000 0.000000 -60.708740 0.000000 56.000000 0.970329 -0.187929 0.152133
-360.00000000 -8520.00000000 440.00000000 88 43 190 0.000000 0.000000 0.000000 0.000000 -60.708740 0.000000 56.000000 0.957346 -0.285568 -0.044030
-390.00000000 -8540.00000000 450.00000000 88 43 190 0.000000 0.000000 0.000000 0.000000 -60.708740 0.000000 56.000000 0.970509 -0.195122 -0.141559
-390.00000000 -8520.00000000 470.00000000 88 43 190 0.000000 0.000000 0.000000 0.000000 -60.708740 0.000000 56.000000 0.950220 0.076484 0.302048
-370.00000000 -8490.00000000 370.00000000 88 43 190 0.000000 0.000000 0.000000 0.000000 -60.708740 0.000000 56.000000 0.933177 -0.354054 -0.061861
-370.00000000 -8490.00000000 380.00000000 88 43 190 0.000000 0.000000 0.000000 0.000000 -60.708740 0.000000 56.000000 0.911147 0.006499 0.412031
-350.00000000 -8490.00000000 330.00000000 88 43 190 0.000000 0.000000 0.000000 0.000000 -60.708740 0.000000 56.000000 0.940324 0.006277 0.340224
-360.00000000 -8490.00000000 340.00000000 88 43 190 0.000000 0.000000 0.000000 0.000000 -60.708740 0.000000 56.000000 0.994189 0.072691 0.079401
-350.00000000 -8540.00000000 350.00000000 88 43 190 0.000000 0.000000 0.000000 0.000000 -60.708740 0.000000 56.000000 0.966167 0.061087 0.250580
-360.00000000 -8510.00000000 340.00000000 88 43 190 0.000000 0.000000 0.000000 0.000000 -60.708740 0.000000 56.000000 0.957237 -0.046541 0.285536
-360.00000000 -8510.00000000 340.00000000 88 43 190 0.000000 0.000000 0.000000 0.000000 -60.708740 0.000000 56.000000 0.957237 -0.046541 0.285536
-350.00000000 -8500.00000000 320.00000000 88 43 190 0.000000 0.000000 0.000000 0.000000 -60.708740 0.000000 56.000000 0.996873 -0.046542 -0.063860
-360.00000000 -8560.00000000 460.00000000 88 43 190 0.000000 0.000000 0.000000 0.000000 -60.708740 0.000000 56.000000 0.830840 0.211128 0.514908
-360.00000000 -8560.00000000 440.00000000 88 43 190 0.000000 0.000000 0.000000 0.000000 -60.708740 0.000000 56.000000 0.974515 0.223795 -0.015393
-370.00000000 -8570.00000000 440.00000000 88 43 190 0.000000 0.000000 0.000000 0.000000 -60.708740 0.000000 56.000000 0.975069 0.216817 -0.047239
-370.00000000 -8550.00000000 440.00000000 88 43 190 0.000000 0.000000 0.000000 0.000000 -60.708740 0.000000 56.000000 0.944971 0.307882 0.110624
-370.00000000 -8560.00000000 440.00000000 88 43 190 0.000000 0.000000 0.000000 0.000000 -60.708740 0.000000 56.000000 0.975974 0.210266 0.057124
-350.00000000 -8590.00000000 460.00000000 88 43 190 0.000000 0.000000 0.000000 0.000000 -60.708740 0.000000 56.000000 0.774820 0.526749 0.349555
-370.00000000 -8550.00000000 380.00000000 88 43 190 0.000000 0.000000 0.000000 0.000000 -60.708740 0.000000 56.000000 0.986081 0.026403 -0.164156
-360.00000000 -8590.00000000 400.00000000 88 43 190 0.000000 0.000000 0.000000 0.000000 -60.708740 0.000000 56.000000 0.920536 0.377761 0.099554
-350.00000000 -8590.00000000 320.00000000 88 43 190 0.000000 0.000000 0.000000 0.000000 -60.708740 0.000000 56.000000 0.781913 0.587592 0.208202
-370.00000000 -8610.00000000 390.00000000 88 43 190 0.000000 0.000000 0.000000 0.000000 -60.708740 0.000000 56.000000 0.970688 0.231234 -0.065537
-350.00000000 -8590.00000000 400.00000000 88 43 190 0.000000 0.000000 0.000000 0.000000 -60.708740 0.000000 56.000000 0.784369 0.542535 0.300701
-360.00000000 -8610.00000000 360.00000000 88 43 190 0.000000 0.000000 0.000000 0.000000 -60.708740 0.000000 56.000000 0.889197 0.349381 0.295399
-360.00000000 -8630.00000000 460.00000000 88 43 190 0.000000 0.000000 0.000000 0.000000 -60.708740 0.000000 56.000000 0.583561 0.603859 0.542965
-350.00000000 -8570.00000000 310.00000000 88 43 190 0.000000 0.000000 0.000000 0.000000 -60.708740 0.000000 56.000000 0.970860 -0.057833 0.232563
-360.00000000 -8510.00000000 290.00000000 88 43 190 0.000000 0.000000 0.000000 0.000000 -60.708740 0.000000 56.000000 0.977052 -0.165962 0.133518
-350.00000000 -8530.00000000 310.00000000 88 43 190 0.000000 0.000000 0.000000 0.000000 -60.708740 0.000000 56.000000 0.967252 0.251314 -0.035552
-360.00000000 -8530.00000000 310.00000000 88 43 190 0.000000 0.000000 0.000000 0.000000 -60.708740 0.000000 56.000000 0.993047 -0.071174 -0.093769
-350.00000000 -8550.00000000 230.00000000 88 43 190 0.000000 0.000000 0.000000 0.000000 -60.708740 0.000000 56.000000 0.913018 -0.014327 0.407667
-360.00000000 -8590.00000000 270.00000000 88 43 190 0.000000 0.000000 0.000000 0.000000 -60.708740 0.000000 56.000000 0.783681 0.608872 -0.122959
-350.00000000 -8530.00000000 290.00000000 88 43 190 0.000000 0.000000 0.000000 0.000000 -60.708740 0.000000 56.000000 0.962678 0.125679 0.239698
-350.00000000 -8540.00000000 280.00000000 88 43 190 0.000000 0.000000 0.000000 0.000000 -60.708740 0.000000 56.000000 0.979973 -0.196938 0.029482
-350.00000000 -8580.00000000 300.00000000 88 43 190 0.000000 0.000000 0.000000 0.000000 -60.708740 0.000000 56.000000 0.991276 0.121497 -0.051097
-90.00000000 -8410.00000000 -60.00000000 88 43 190 0.000000 0.000000 0.000000 0.000000 -60.708740 0.000000 56.000000 0.958368 0.127171 0.255652
-90.00000000 -8400.00000000 -80.00000000 88 43 190 0.000000 0.000000 0.000000 0.000000 -60.708740 0.000000 56.000000 0.791353 0.145106 0.593889
-90.00000000 -8430.00000000 -20.00000000 88 43 190 0.000000 0.000000 0.000000 0.000000 -60.708740 0.000000 56.000000 0.972510 0.232788 -0.005908
-70.00000000 -8420.00000000 -60.00000000 88 43 190 0.000000 0.000000 0.000000 0.000000 -60.708740 0.000000 56.000000 0.966087 0.200998 -0.162095
-70.00000000 -8430.00000000 -40.00000000 88 43 190 0.000000 0.000000 0.000000 0.000000 -60.708740 0.000000 56.000000 0.998083 -0.026404 0.055977
