//X Y Z R G B PointSourceId ScanDirectionFlag NumberOfReturns ReturnNumber GpsTime Intensity Classification Nx Ny Nz
10880.00000000 620.00000000 -510.00000000 203 177 65 97.000000 1.000000 4.000000 1.000000 -60.708740 114.000000 129.000000 0.167710 0.974734 -0.147534
10910.00000000 550.00000000 -460.00000000 203 177 65 97.000000 1.000000 4.000000 1.000000 -60.708740 114.000000 129.000000 0.003647 0.959049 -0.283217
10890.00000000 550.00000000 -460.00000000 203 177 65 97.000000 1.000000 4.000000 1.000000 -60.708740 114.000000 129.000000 -0.011464 0.933678 -0.357931
10840.00000000 580.00000000 -430.00000000 203 177 65 97.000000 1.000000 4.000000 1.000000 -60.708740 114.000000 129.000000 -0.104888 -0.707624 0.698761
10840.00000000 570.00000000 -460.00000000 203 177 65 97.000000 1.000000 4.000000 1.000000 -60.708740 114.000000 129.000000 -0.011096 0.999669 -0.023201
10850.00000000 620.00000000 -520.00000000 203 177 65 97.000000 1.000000 4.000000 1.000000 -60.708740 114.000000 129.000000 0.100968 0.785791 0.610195
10790.00000000 550.00000000 -420.00000000 203 177 65 97.000000 1.000000 4.000000 1.000000 -60.708740 114.000000 129.000000 0.032307 0.992609 -0.116974
10920.00000000 620.00000000 -590.00000000 203 177 65 97.000000 1.000000 4.000000 1.000000 -60.708740 114.000000 129.000000 0.539887 0.686977 0.486400
10920.00000000 560.00000000 -530.00000000 203 177 65 97.000000 1.000000 4.000000 1.000000 -60.708740 114.000000 129.000000 0.285018 0.902312 -0.323415
10930.00000000 560.00000000 -540.00000000 203 177 65 97.000000 1.000000 4.000000 1.000000 -60.708740 114.000000 129.000000 0.336633 0.875854 -0.345772
10880.00000000 600.00000000 -550.00000000 203 177 65 97.000000 1.000000 4.000000 1.000000 -60.708740 114.000000 129.000000 0.348918 0.936839 0.024284
10930.00000000 630.00000000 -610.00000000 203 177 65 97.000000 1.000000 4.000000 1.000000 -60.708740 114.000000 129.000000 0.816823 0.266051 0.511876
10920.00000000 560.00000000 -650.00000000 203 177 65 97.000000 1.000000 4.000000 1.000000 -60.708740 114.000000 129.000000 0.777862 0.376802 0.502942
10890.00000000 590.00000000 -650.00000000 203 177 65 97.000000 1.000000 4.000000 1.000000 -60.708740 114.000000 129.000000 0.757748 0.404241 0.512257
10900.00000000 540.00000000 -600.00000000 203 177 65 97.000000 1.000000 4.000000 1.000000 -60.708740 114.000000 129.000000 0.256608 0.843579 0.471728
10920.00000000 530.00000000 -660.00000000 203 177 65 97.000000 1.000000 4.000000 1.000000 -60.708740 114.000000 129.000000 0.285228 0.936383 0.204529
10920.00000000 530.00000000 -660.00000000 203 177 65 97.000000 1.000000 4.000000 1.000000 -60.708740 114.000000 129.000000 0.285228 0.936383 0.204529
10870.00000000 470.00000000 -640.00000000 203 177 65 97.000000 1.000000 4.000000 1.000000 -60.708740 114.000000 129.000000 0.401268 0.896696 0.186872
10870.00000000 470.00000000 -640.00000000 203 177 65 97.000000 1.000000 4.000000 1.000000 -60.708740 114.000000 129.000000 0.401268 0.896696 0.186872
10890.00000000 460.00000000 -690.00000000 203 177 65 97.000000 1.000000 4.000000 1.000000 -60.708740 114.000000 129.000000 0.587085 0.546480 0.597236
10840.00000000 440.00000000 -680.00000000 203 177 65 97.000000 1.000000 4.000000 1.000000 -60.708740 114.000000 129.000000 0.757229 0.505364 0.413777
10710.00000000 950.00000000 -150.00000000 203 177 65 97.000000 1.000000 4.000000 1.000000 -60.708740 114.000000 129.000000 0.756213 0.587458 0.288157
10720.00000000 950.00000000 -160.00000000 203 177 65 97.000000 1.000000 4.000000 1.000000 -60.708740 114.000000 129.000000 0.146086 0.667179 0.730432
10730.00000000 940.00000000 -180.00000000 203 177 65 97.000000 1.000000 4.000000 1.000000 -60.708740 114.000000 129.000000 0.474000 0.820446 0.319675
10710.00000000 930.00000000 -160.00000000 203 177 65 97.000000 1.000000 4.000000 1.000000 -60.708740 114.000000 129.000000 0.486852 0.457146 0.744307
10690.00000000 930.00000000 -150.00000000 203 177 65 97.000000 1.000000 4.000000 1.000000 -60.708740 114.000000 129.000000 0.714665 0.651280 0.255124
10720.00000000 870.00000000 -180.00000000 203 177 65 97.000000 1.000000 4.000000 1.000000 -60.708740 114.000000 129.000000 0.688549 0.659524 0.301543
10700.00000000 870.00000000 -160.00000000 203 177 65 97.000000 1.000000 4.000000 1.000000 -60.708740 114.000000 129.000000 0.200371 0.408054 0.890698
10770.00000000 830.00000000 -130.00000000 203 177 65 97.000000 1.000000 4.000000 1.000000 -60.708740 114.000000 129.000000 0.406648 0.413027 0.814891
10670.00000000 930.00000000 -170.00000000 203 177 65 97.000000 1.000000 4.000000 1.000000 -60.708740 114.000000 129.000000 0.694315 0.584948 0.419240
10670.00000000 930.00000000 -180.00000000 203 177 65 97.000000 1.000000 4.000000 1.000000 -60.708740 114.000000 129.000000 0.612394 0.777097 0.145238
10620.00000000 950.00000000 -130.00000000 203 177 65 97.000000 1.000000 4.000000 1.000000 -60.708740 114.000000 129.000000 0.354180 0.793299 0.495211
10620.00000000 960.00000000 -140.00000000 203 177 65 97.000000 1.000000 4.000000 1.000000 -60.708740 114.000000 129.000000 0.472033 0.410393 0.780233
10690.00000000 960.00000000 -190.00000000 203 177 65 97.000000 1.000000 4.000000 1.000000 -60.708740 114.000000 129.000000 0.327597 0.873083 0.361118
10690.00000000 950.00000000 -190.00000000 203 177 65 97.000000 1.000000 4.000000 1.000000 -60.708740 114.000000 129.000000 0.268570 0.824340 0.498330
10700.00000000 870.00000000 -350.00000000 203 177 65 97.000000 1.000000 4.000000 1.000000 -60.708740 114.000000 129.000000 0.364291 0.912869 -0.184288
10730.00000000 880.00000000 -350.00000000 203 177 65 97.000000 1.000000 4.000000 1.000000 -60.708740 114.000000 129.000000 0.603543 0.754823 0.256860
10680.00000000 960.00000000 -260.00000000 203 177 65 97.000000 1.000000 4.000000 1.000000 -60.708740 114.000000 129.000000 0.195213 0.978491 -0.066688
10670.00000000 960.00000000 -250.00000000 203 177 65 97.000000 1.000000 4.000000 1.000000 -60.708740 114.000000 129.000000 0.261745 0.936403 0.233751
10610.00000000 900.00000000 -230.00000000 203 177 65 97.000000 1.000000 4.000000 1.000000 -60.708740 114.000000 129.000000 0.066384 0.943688 0.324108
10640.00000000 910.00000000 -280.00000000 203 177 65 97.000000 1.000000 4.000000 1.000000 -60.708740 114.000000 129.000000 0.564945 0.710737 0.419153
10630.00000000 870.00000000 -220.00000000 203 177 65 97.000000 1.000000 4.000000 1.000000 -60.708740 114.000000 129.000000 0.171020 0.594787 0.785481
10770.00000000 730.00000000 -230.00000000 203 177 65 97.000000 1.000000 4.000000 1.000000 -60.708740 114.000000 129.000000 0.430028 -0.259840 0.864615
10770.00000000 700.00000000 -300.00000000 203 177 65 97.000000 1.000000 4.000000 1.000000 -60.708740 114.000000 129.000000 0.119341 -0.194715 0.973573
10740.00000000 650.00000000 -310.00000000 203 177 65 97.000000 1.000000 4.000000 1.000000 -60.708740 114.000000 129.000000 0.586086 -0.552306 0.592842
10750.00000000 660.00000000 -320.00000000 203 177 65 97.000000 1.000000 4.000000 1.000000 -60.708740 114.000000 129.000000 0.071684 -0.319322 0.944931
10690.00000000 670.00000000 -320.00000000 203 177 65 97.000000 1.000000 4.000000 1.000000 -60.708740 114.000000 129.000000 0.278753 -0.381213 0.881461
10620.00000000 670.00000000 -290.00000000 203 177 65 97.000000 1.000000 4.000000 1.000000 -60.708740 114.000000 129.000000 0.213628 -0.690783 0.690783
10650.00000000 650.00000000 -280.00000000 203 177 65 97.000000 1.000000 4.000000 1.000000 -60.708740 114.000000 129.000000 0.514081 -0.691581 0.507383
10580.00000000 900.00000000 -140.00000000 203 177 65 97.000000 1.000000 4.000000 1.000000 -60.708740 114.000000 129.000000 0.328514 0.447974 0.831503
10590.00000000 930.00000000 -180.00000000 203 177 65 97.000000 1.000000 4.000000 1.000000 -60.708740 114.000000 129.000000 0.279063 0.923055 0.264752
10530.00000000 970.00000000 -180.00000000 203 177 65 97.000000 1.000000 4.000000 1.000000 -60.708740 114.000000 129.000000 0.521676 0.797578 0.302858
10520.00000000 960.00000000 -170.00000000 203 177 65 97.000000 1.000000 4.000000 1.000000 -60.708740 114.000000 129.000000 0.640554 0.766097 0.052785
10590.00000000 940.00000000 -190.00000000 203 177 65 97.000000 1.000000 4.000000 1.000000 -60.708740 114.000000 129.000000 0.611069 0.762676 0.211941
10580.00000000 930.00000000 -270.00000000 203 177 65 97.000000 1.000000 4.000000 1.000000 -60.708740 114.000000 129.000000 0.417317 0.908738 0.006500
10530.00000000 940.00000000 -220.00000000 203 177 65 97.000000 1.000000 4.000000 1.000000 -60.708740 114.000000 129.000000 0.116178 0.944112 0.308472
10540.00000000 960.00000000 -190.00000000 203 177 65 97.000000 1.000000 4.000000 1.000000 -60.708740 114.000000 129.000000 0.366309 0.930450 -0.008934
10530.00000000 930.00000000 -210.00000000 203 177 65 97.000000 1.000000 4.000000 1.000000 -60.708740 114.000000 129.000000 0.486588 0.761829 0.427607
10530.00000000 930.00000000 -270.00000000 203 177 65 97.000000 1.000000 4.000000 1.000000 -60.708740 114.000000 129.000000 0.406893 0.911815 -0.055058
10540.00000000 910.00000000 -250.00000000 203 177 65 97.000000 1.000000 4.000000 1.000000 -60.708740 114.000000 129.000000 0.236863 0.951514 0.196258
10570.00000000 940.00000000 -350.00000000 203 177 65 97.000000 1.000000 4.000000 1.000000 -60.708740 114.000000 129.000000 -0.192287 0.953368 -0.232627
10530.00000000 920.00000000 -300.00000000 203 177 65 97.000000 1.000000 4.000000 1.000000 -60.708740 114.000000 129.000000 0.245499 0.953825 0.173057
10530.00000000 940.00000000 -340.00000000 203 177 65 97.000000 1.000000 4.000000 1.000000 -60.708740 114.000000 129.000000 -0.080057 0.993386 0.082312
10550.00000000 940.00000000 -340.00000000 203 177 65 97.000000 1.000000 4.000000 1.000000 -60.708740 114.000000 129.000000 -0.166262 0.860738 -0.481131
10490.00000000 940.00000000 -250.00000000 203 177 65 97.000000 1.000000 4.000000 1.000000 -60.708740 114.000000 129.000000 0.267489 0.875007 -0.403501
10500.00000000 910.00000000 -260.00000000 203 177 65 97.000000 1.000000 4.000000 1.000000 -60.708740 114.000000 129.000000 0.574289 0.816986 -0.052208
10500.00000000 970.00000000 -320.00000000 203 177 65 97.000000 1.000000 4.000000 1.000000 -60.708740 114.000000 129.000000 0.118242 0.992110 -0.041666
10500.00000000 970.00000000 -340.00000000 203 177 65 97.000000 1.000000 4.000000 1.000000 -60.708740 114.000000 129.000000 -0.154393 0.971015 -0.182464
10500.00000000 910.00000000 -340.00000000 203 177 65 97.000000 1.000000 4.000000 1.000000 -60.708740 114.000000 129.000000 0.032499 -0.724863 0.688126
10480.00000000 920.00000000 -330.00000000 203 177 65 97.000000 1.000000 4.000000 1.000000 -60.708740 114.000000 129.000000 0.066218 0.841113 -0.536791
10470.00000000 950.00000000 -300.00000000 203 177 65 97.000000 1.000000 4.000000 1.000000 -60.708740 114.000000 129.000000 0.147797 0.858978 -0.490217
10470.00000000 900.00000000 -330.00000000 203 177 65 97.000000 1.000000 4.000000 1.000000 -60.708740 114.000000 129.000000 -0.441748 0.788027 -0.428803
10500.00000000 890.00000000 -350.00000000 203 177 65 97.000000 1.000000 4.000000 1.000000 -60.708740 114.000000 129.000000 -0.150854 0.961533 -0.229561
10700.00000000 950.00000000 -490.00000000 203 177 65 97.000000 1.000000 4.000000 1.000000 -60.708740 114.000000 129.000000 -0.071782 0.851533 -0.519365
10700.00000000 840.00000000 -390.00000000 203 177 65 97.000000 1.000000 4.000000 1.000000 -60.708740 114.000000 129.000000 0.198483 0.969364 0.144700
10720.00000000 820.00000000 -370.00000000 203 177 65 97.000000 1.000000 4.000000 1.000000 -60.708740 114.000000 129.000000 0.328611 0.869674 0.368350
10700.00000000 840.00000000 -490.00000000 203 177 65 97.000000 1.000000 4.000000 1.000000 -60.708740 114.000000 129.000000 -0.054993 -0.824888 0.562616
10670.00000000 950.00000000 -430.00000000 203 177 65 97.000000 1.000000 4.000000 1.000000 -60.708740 114.000000 129.000000 0.118759 0.874240 -0.470745
10670.00000000 900.00000000 -370.00000000 203 177 65 97.000000 1.000000 4.000000 1.000000 -60.708740 114.000000 129.000000 0.370474 0.873586 -0.315589
10650.00000000 900.00000000 -470.00000000 203 177 65 97.000000 1.000000 4.000000 1.000000 -60.708740 114.000000 129.000000 -0.043326 0.964314 -0.261194
10660.00000000 920.00000000 -480.00000000 203 177 65 97.000000 1.000000 4.000000 1.000000 -60.708740 114.000000 129.000000 0.029502 -0.639215 0.768462
10640.00000000 950.00000000 -460.00000000 203 177 65 97.000000 1.000000 4.000000 1.000000 -60.708740 114.000000 129.000000 -0.039015 0.955242 -0.293243
10620.00000000 900.00000000 -460.00000000 203 177 65 97.000000 1.000000 4.000000 1.000000 -60.708740 114.000000 129.000000 0.302039 0.804909 -0.510777
10640.00000000 900.00000000 -500.00000000 203 177 65 97.000000 1.000000 4.000000 1.000000 -60.708740 114.000000 129.000000 -0.109361 0.812189 -0.573053
10680.00000000 880.00000000 -420.00000000 203 177 65 97.000000 1.000000 4.000000 1.000000 -60.708740 114.000000 129.000000 0.091589 0.872206 -0.480488
10640.00000000 820.00000000 -510.00000000 203 177 65 97.000000 1.000000 4.000000 1.000000 -60.708740 114.000000 129.000000 0.273951 -0.342068 0.898855
10680.00000000 810.00000000 -570.00000000 203 177 65 97.000000 1.000000 4.000000 1.000000 -60.708740 114.000000 129.000000 0.544471 -0.229819 0.806681
10740.00000000 770.00000000 -500.00000000 203 177 65 97.000000 1.000000 4.000000 1.000000 -60.708740 114.000000 129.000000 0.577350 -0.577350 0.577350
10690.00000000 770.00000000 -510.00000000 203 177 65 97.000000 1.000000 4.000000 1.000000 -60.708740 114.000000 129.000000 -0.192177 0.745647 -0.638028
10680.00000000 800.00000000 -510.00000000 203 177 65 97.000000 1.000000 4.000000 1.000000 -60.708740 114.000000 129.000000 -0.196623 0.876671 -0.439075
10670.00000000 800.00000000 -520.00000000 203 177 65 97.000000 1.000000 4.000000 1.000000 -60.708740 114.000000 129.000000 -0.361252 0.791542 -0.492908
10670.00000000 800.00000000 -520.00000000 203 177 65 97.000000 1.000000 4.000000 1.000000 -60.708740 114.000000 129.000000 -0.361252 0.791542 -0.492908
10740.00000000 740.00000000 -540.00000000 203 177 65 97.000000 1.000000 4.000000 1.000000 -60.708740 114.000000 129.000000 0.637350 -0.337421 0.692772
10770.00000000 740.00000000 -530.00000000 203 177 65 97.000000 1.000000 4.000000 1.000000 -60.708740 114.000000 129.000000 0.216806 -0.548935 0.807258
10740.00000000 730.00000000 -540.00000000 203 177 65 97.000000 1.000000 4.000000 1.000000 -60.708740 114.000000 129.000000 0.340868 -0.547650 0.764126
10760.00000000 740.00000000 -530.00000000 203 177 65 97.000000 1.000000 4.000000 1.000000 -60.708740 114.000000 129.000000 0.230159 -0.103000 0.967687
10730.00000000 730.00000000 -530.00000000 203 177 65 97.000000 1.000000 4.000000 1.000000 -60.708740 114.000000 129.000000 0.586127 -0.306713 0.749921
10710.00000000 730.00000000 -560.00000000 203 177 65 97.000000 1.000000 4.000000 1.000000 -60.708740 114.000000 129.000000 0.714219 -0.064929 0.696904
10660.00000000 740.00000000 -580.00000000 203 177 65 97.000000 1.000000 4.000000 1.000000 -60.708740 114.000000 129.000000 0.545525 -0.121390 0.829257
10670.00000000 760.00000000 -560.00000000 203 177 65 97.000000 1.000000 4.000000 1.000000 -60.708740 114.000000 129.000000 0.405013 -0.226985 0.885687
10600.00000000 910.00000000 -420.00000000 203 177 65 97.000000 1.000000 4.000000 1.000000 -60.708740 114.000000 129.000000 -0.282187 0.916023 -0.285082
10500.00000000 890.00000000 -370.00000000 203 177 65 97.000000 1.000000 4.000000 1.000000 -60.708740 114.000000 129.000000 -0.143073 0.902354 -0.406555
10510.00000000 890.00000000 -360.00000000 203 177 65 97.000000 1.000000 4.000000 1.000000 -60.708740 114.000000 129.000000 0.094327 0.957480 -0.272643
10490.00000000 890.00000000 -370.00000000 203 177 65 97.000000 1.000000 4.000000 1.000000 -60.708740 114.000000 129.000000 0.148928 -0.771720 0.618279
10650.00000000 610.00000000 -270.00000000 203 177 65 97.000000 1.000000 4.000000 1.000000 -60.708740 114.000000 129.000000 0.205628 -0.613793 0.762217
10670.00000000 590.00000000 -260.00000000 203 177 65 97.000000 1.000000 4.000000 1.000000 -60.708740 114.000000 129.000000 -0.390181 0.832492 -0.393340
10610.00000000 590.00000000 -270.00000000 203 177 65 97.000000 1.000000 4.000000 1.000000 -60.708740 114.000000 129.000000 -0.408982 0.767452 -0.493711
10640.00000000 590.00000000 -270.00000000 203 177 65 97.000000 1.000000 4.000000 1.000000 -60.708740 114.000000 129.000000 -0.099920 0.818182 -0.566211
10590.00000000 530.00000000 -300.00000000 203 177 65 97.000000 1.000000 4.000000 1.000000 -60.708740 114.000000 129.000000 -0.128202 0.903047 -0.409964
10590.00000000 540.00000000 -310.00000000 203 177 65 97.000000 1.000000 4.000000 1.000000 -60.708740 114.000000 129.000000 -0.032254 0.935364 -0.352213
10600.00000000 530.00000000 -320.00000000 203 177 65 97.000000 1.000000 4.000000 1.000000 -60.708740 114.000000 129.000000 -0.032189 0.993423 -0.109887
10590.00000000 540.00000000 -280.00000000 203 177 65 97.000000 1.000000 4.000000 1.000000 -60.708740 114.000000 129.000000 -0.240244 0.967263 -0.081758
10740.00000000 590.00000000 -430.00000000 203 177 65 97.000000 1.000000 4.000000 1.000000 -60.708740 114.000000 129.000000 0.461101 0.853721 0.241964
10930.00000000 720.00000000 -760.00000000 203 177 65 97.000000 1.000000 4.000000 1.000000 -60.708740 114.000000 129.000000 0.168287 -0.175995 0.969900
10910.00000000 680.00000000 -750.00000000 203 177 65 97.000000 1.000000 4.000000 1.000000 -60.708740 114.000000 129.000000 0.266067 -0.224276 0.937501
10900.00000000 670.00000000 -740.00000000 203 177 65 97.000000 1.000000 4.000000 1.000000 -60.708740 114.000000 129.000000 0.719814 0.117248 0.684194
10890.00000000 720.00000000 -750.00000000 203 177 65 97.000000 1.000000 4.000000 1.000000 -60.708740 114.000000 129.000000 0.536272 -0.099203 0.838195
10880.00000000 660.00000000 -710.00000000 203 177 65 97.000000 1.000000 4.000000 1.000000 -60.708740 114.000000 129.000000 0.438294 -0.001308 0.898831
10880.00000000 670.00000000 -760.00000000 203 177 65 97.000000 1.000000 4.000000 1.000000 -60.708740 114.000000 129.000000 0.348123 0.019128 0.937254
10860.00000000 720.00000000 -800.00000000 203 177 65 97.000000 1.000000 4.000000 1.000000 -60.708740 114.000000 129.000000 0.530422 -0.500303 0.684361
10860.00000000 720.00000000 -800.00000000 203 177 65 97.000000 1.000000 4.000000 1.000000 -60.708740 114.000000 129.000000 0.530422 -0.500303 0.684361
10790.00000000 780.00000000 -740.00000000 203 177 65 97.000000 1.000000 4.000000 1.000000 -60.708740 114.000000 129.000000 0.185486 -0.041350 0.981777
10780.00000000 750.00000000 -750.00000000 203 177 65 97.000000 1.000000 4.000000 1.000000 -60.708740 114.000000 129.000000 0.072033 -0.328734 0.941672
11070.00000000 520.00000000 -710.00000000 203 177 65 97.000000 1.000000 4.000000 1.000000 -60.708740 114.000000 129.000000 0.365105 0.929239 0.056677
11090.00000000 500.00000000 -700.00000000 203 177 65 97.000000 1.000000 4.000000 1.000000 -60.708740 114.000000 129.000000 0.214563 0.900582 0.378040
11050.00000000 520.00000000 -740.00000000 203 177 65 97.000000 1.000000 4.000000 1.000000 -60.708740 114.000000 129.000000 0.750417 0.601285 0.274465
11070.00000000 520.00000000 -800.00000000 203 177 65 97.000000 1.000000 4.000000 1.000000 -60.708740 114.000000 129.000000 0.242717 0.305910 0.920602
11100.00000000 520.00000000 -800.00000000 203 177 65 97.000000 1.000000 4.000000 1.000000 -60.708740 114.000000 129.000000 0.363617 0.446185 0.817742
11070.00000000 510.00000000 -840.00000000 203 177 65 97.000000 1.000000 4.000000 1.000000 -60.708740 114.000000 129.000000 0.768658 0.525924 0.364101
11070.00000000 500.00000000 -830.00000000 203 177 65 97.000000 1.000000 4.000000 1.000000 -60.708740 114.000000 129.000000 0.742832 0.542775 0.391913
11040.00000000 530.00000000 -830.00000000 203 177 65 97.000000 1.000000 4.000000 1.000000 -60.708740 114.000000 129.000000 0.793706 0.387998 0.468496
11050.00000000 510.00000000 -810.00000000 203 177 65 97.000000 1.000000 4.000000 1.000000 -60.708740 114.000000 129.000000 0.596295 0.559132 0.576024
10990.00000000 580.00000000 -750.00000000 203 177 65 97.000000 1.000000 4.000000 1.000000 -60.708740 114.000000 129.000000 0.459072 0.197594 0.866146
11010.00000000 550.00000000 -750.00000000 203 177 65 97.000000 1.000000 4.000000 1.000000 -60.708740 114.000000 129.000000 0.584647 0.658356 0.474083
10980.00000000 530.00000000 -770.00000000 203 177 65 97.000000 1.000000 4.000000 1.000000 -60.708740 114.000000 129.000000 0.517295 0.161562 0.840419
10750.00000000 820.00000000 -730.00000000 203 177 65 97.000000 1.000000 4.000000 1.000000 -60.708740 114.000000 129.000000 -0.404775 0.745638 -0.529321
10740.00000000 770.00000000 -750.00000000 203 177 65 97.000000 1.000000 4.000000 1.000000 -60.708740 114.000000 129.000000 0.645389 -0.312180 0.697149
10750.00000000 790.00000000 -750.00000000 203 177 65 97.000000 1.000000 4.000000 1.000000 -60.708740 114.000000 129.000000 0.619308 -0.555184 0.555184
10750.00000000 760.00000000 -720.00000000 203 177 65 97.000000 1.000000 4.000000 1.000000 -60.708740 114.000000 129.000000 0.471225 -0.578551 0.665752
10750.00000000 750.00000000 -730.00000000 203 177 65 97.000000 1.000000 4.000000 1.000000 -60.708740 114.000000 129.000000 0.194512 -0.410961 0.890660
10760.00000000 740.00000000 -740.00000000 203 177 65 97.000000 1.000000 4.000000 1.000000 -60.708740 114.000000 129.000000 0.548087 -0.409831 0.729136
10710.00000000 770.00000000 -720.00000000 203 177 65 97.000000 1.000000 4.000000 1.000000 -60.708740 114.000000 129.000000 0.418030 -0.546909 0.725356
10420.00000000 1070.00000000 -90.00000000 203 177 65 97.000000 1.000000 4.000000 1.000000 -60.708740 114.000000 129.000000 0.541244 0.838010 0.069245
10390.00000000 1080.00000000 -90.00000000 203 177 65 97.000000 1.000000 4.000000 1.000000 -60.708740 114.000000 129.000000 0.409167 0.894962 -0.177836
10390.00000000 1070.00000000 -70.00000000 203 177 65 97.000000 1.000000 4.000000 1.000000 -60.708740 114.000000 129.000000 0.483012 0.872221 0.077002
10390.00000000 1070.00000000 -130.00000000 203 177 65 97.000000 1.000000 4.000000 1.000000 -60.708740 114.000000 129.000000 0.356252 0.934369 0.006339
10380.00000000 1070.00000000 -140.00000000 203 177 65 97.000000 1.000000 4.000000 1.000000 -60.708740 114.000000 129.000000 0.295678 0.827586 0.477153
10370.00000000 1090.00000000 -110.00000000 203 177 65 97.000000 1.000000 4.000000 1.000000 -60.708740 114.000000 129.000000 0.542544 0.816095 0.199085
10390.00000000 1080.00000000 -150.00000000 203 177 65 97.000000 1.000000 4.000000 1.000000 -60.708740 114.000000 129.000000 0.338271 0.899594 0.276230
10370.00000000 1070.00000000 -180.00000000 203 177 65 97.000000 1.000000 4.000000 1.000000 -60.708740 114.000000 129.000000 0.408054 0.890698 -0.200371
10390.00000000 1090.00000000 -160.00000000 203 177 65 97.000000 1.000000 4.000000 1.000000 -60.708740 114.000000 129.000000 0.064641 0.932680 0.354867
10380.00000000 1080.00000000 -170.00000000 203 177 65 97.000000 1.000000 4.000000 1.000000 -60.708740 114.000000 129.000000 -0.033687 0.956973 -0.288215
10420.00000000 1050.00000000 -30.00000000 203 177 65 97.000000 1.000000 4.000000 1.000000 -60.708740 114.000000 129.000000 0.377551 0.841264 0.386950
10410.00000000 1060.00000000 -60.00000000 203 177 65 97.000000 1.000000 4.000000 1.000000 -60.708740 114.000000 129.000000 0.359740 0.927179 0.104528
10410.00000000 1010.00000000 -70.00000000 203 177 65 97.000000 1.000000 4.000000 1.000000 -60.708740 114.000000 129.000000 0.236459 0.759488 0.606024
10380.00000000 1010.00000000 -90.00000000 203 177 65 97.000000 1.000000 4.000000 1.000000 -60.708740 114.000000 129.000000 0.367051 0.893109 0.260057
10360.00000000 1010.00000000 -80.00000000 203 177 65 97.000000 1.000000 4.000000 1.000000 -60.708740 114.000000 129.000000 0.260148 0.842018 0.472577
10420.00000000 1010.00000000 -130.00000000 203 177 65 97.000000 1.000000 4.000000 1.000000 -60.708740 114.000000 129.000000 -0.019307 0.928037 0.371987
10360.00000000 1060.00000000 -120.00000000 203 177 65 97.000000 1.000000 4.000000 1.000000 -60.708740 114.000000 129.000000 0.179334 0.861102 0.475755
10430.00000000 1070.00000000 -230.00000000 203 177 65 97.000000 1.000000 4.000000 1.000000 -60.708740 114.000000 129.000000 0.483107 0.854038 -0.192944
10400.00000000 1080.00000000 -190.00000000 203 177 65 97.000000 1.000000 4.000000 1.000000 -60.708740 114.000000 129.000000 0.036474 0.954625 -0.295569
10390.00000000 1080.00000000 -230.00000000 203 177 65 97.000000 1.000000 4.000000 1.000000 -60.708740 114.000000 129.000000 0.343710 0.935580 -0.080951
10370.00000000 1090.00000000 -200.00000000 203 177 65 97.000000 1.000000 4.000000 1.000000 -60.708740 114.000000 129.000000 0.216478 0.926752 -0.307031
10370.00000000 1070.00000000 -290.00000000 203 177 65 97.000000 1.000000 4.000000 1.000000 -60.708740 114.000000 129.000000 0.254437 0.928199 -0.271495
10370.00000000 1070.00000000 -290.00000000 203 177 65 97.000000 1.000000 4.000000 1.000000 -60.708740 114.000000 129.000000 0.254437 0.928199 -0.271495
10400.00000000 1050.00000000 -260.00000000 203 177 65 97.000000 1.000000 4.000000 1.000000 -60.708740 114.000000 129.000000 -0.001273 0.927860 -0.372926
10400.00000000 1050.00000000 -270.00000000 203 177 65 97.000000 1.000000 4.000000 1.000000 -60.708740 114.000000 129.000000 -0.153232 0.987367 0.040324
10390.00000000 1040.00000000 -240.00000000 203 177 65 97.000000 1.000000 4.000000 1.000000 -60.708740 114.000000 129.000000 0.385946 0.886632 -0.254814
10410.00000000 1060.00000000 -340.00000000 203 177 65 97.000000 1.000000 4.000000 1.000000 -60.708740 114.000000 129.000000 0.056554 0.997701 0.037347
10340.00000000 1080.00000000 -190.00000000 203 177 65 97.000000 1.000000 4.000000 1.000000 -60.708740 114.000000 129.000000 -0.042325 0.875171 -0.481959
10350.00000000 1090.00000000 -250.00000000 203 177 65 97.000000 1.000000 4.000000 1.000000 -60.708740 114.000000 129.000000 -0.081908 0.966511 -0.243203
10200.00000000 1050.00000000 -290.00000000 203 177 65 97.000000 1.000000 4.000000 1.000000 -60.708740 114.000000 129.000000 0.089041 -0.646642 0.757579
10120.00000000 1020.00000000 -270.00000000 203 177 65 97.000000 1.000000 4.000000 1.000000 -60.708740 114.000000 129.000000 0.109696 0.808823 -0.577731
10410.00000000 990.00000000 -420.00000000 203 177 65 97.000000 1.000000 4.000000 1.000000 -60.708740 114.000000 129.000000 0.082382 -0.614252 0.784798
10020.00000000 1020.00000000 -270.00000000 203 177 65 97.000000 1.000000 4.000000 1.000000 -60.708740 114.000000 129.000000 -0.247802 0.677115 -0.692899
10070.00000000 1050.00000000 -260.00000000 203 177 65 97.000000 1.000000 4.000000 1.000000 -60.708740 114.000000 129.000000 -0.238350 0.780481 -0.577961
10070.00000000 1030.00000000 -290.00000000 203 177 65 97.000000 1.000000 4.000000 1.000000 -60.708740 114.000000 129.000000 0.465138 -0.439025 0.768702
9790.00000000 1020.00000000 -20.00000000 203 177 65 97.000000 1.000000 4.000000 1.000000 -60.708740 114.000000 158.000000 0.320502 -0.475228 0.819413
10410.00000000 940.00000000 -450.00000000 203 177 65 97.000000 1.000000 4.000000 1.000000 -60.708740 114.000000 129.000000 -0.410391 0.844189 -0.344854
9770.00000000 940.00000000 -50.00000000 203 177 65 97.000000 1.000000 4.000000 1.000000 -60.708740 114.000000 158.000000 0.299554 0.178076 0.937313
9800.00000000 840.00000000 -110.00000000 203 177 65 97.000000 1.000000 4.000000 1.000000 -60.708740 114.000000 158.000000 0.653241 0.475237 0.589428
9870.00000000 710.00000000 -60.00000000 203 177 65 97.000000 1.000000 4.000000 1.000000 -60.708740 114.000000 158.000000 0.489219 0.804741 0.336238
9870.00000000 710.00000000 -70.00000000 203 177 65 97.000000 1.000000 4.000000 1.000000 -60.708740 114.000000 158.000000 0.469410 0.809932 0.351660
9880.00000000 680.00000000 -90.00000000 203 177 65 97.000000 1.000000 4.000000 1.000000 -60.708740 114.000000 158.000000 0.375783 0.874799 0.305799
9890.00000000 650.00000000 -110.00000000 203 177 65 97.000000 1.000000 4.000000 1.000000 -60.708740 114.000000 158.000000 0.584169 0.510096 0.631307
9850.00000000 710.00000000 -130.00000000 203 177 65 97.000000 1.000000 4.000000 1.000000 -60.708740 114.000000 158.000000 0.378990 0.810750 0.446152
9860.00000000 680.00000000 -140.00000000 203 177 65 97.000000 1.000000 4.000000 1.000000 -60.708740 114.000000 158.000000 0.395265 0.873822 0.283197
9880.00000000 680.00000000 -110.00000000 203 177 65 97.000000 1.000000 4.000000 1.000000 -60.708740 114.000000 158.000000 0.700175 0.587617 0.405539
9830.00000000 780.00000000 -20.00000000 203 177 65 97.000000 1.000000 4.000000 1.000000 -60.708740 114.000000 158.000000 0.554694 0.716963 0.422230
9840.00000000 740.00000000 -100.00000000 203 177 65 97.000000 1.000000 4.000000 1.000000 -60.708740 114.000000 158.000000 0.697178 0.642180 0.318664
9770.00000000 770.00000000 -60.00000000 203 177 65 97.000000 1.000000 4.000000 1.000000 -60.708740 114.000000 158.000000 0.474884 0.578922 0.662823
9770.00000000 780.00000000 -70.00000000 203 177 65 97.000000 1.000000 4.000000 1.000000 -60.708740 114.000000 158.000000 0.718786 0.532865 0.446544
9770.00000000 750.00000000 -50.00000000 203 177 65 97.000000 1.000000 4.000000 1.000000 -60.708740 114.000000 158.000000 0.608970 0.753738 0.247050
9780.00000000 740.00000000 -70.00000000 203 177 65 97.000000 1.000000 4.000000 1.000000 -60.708740 114.000000 158.000000 0.190987 0.840645 0.506793
9800.00000000 730.00000000 -140.00000000 203 177 65 97.000000 1.000000 4.000000 1.000000 -60.708740 114.000000 158.000000 0.168928 0.536683 0.826701
9810.00000000 690.00000000 -70.00000000 203 177 65 97.000000 1.000000 4.000000 1.000000 -60.708740 114.000000 158.000000 0.651856 0.560899 0.510368
9830.00000000 650.00000000 -70.00000000 203 177 65 97.000000 1.000000 4.000000 1.000000 -60.708740 114.000000 158.000000 0.352012 0.747822 0.562894
9840.00000000 670.00000000 -80.00000000 203 177 65 97.000000 1.000000 4.000000 1.000000 -60.708740 114.000000 158.000000 0.555541 0.689004 0.465453
9810.00000000 670.00000000 -100.00000000 203 177 65 97.000000 1.000000 4.000000 1.000000 -60.708740 114.000000 158.000000 0.606250 0.562344 0.562344
9830.00000000 650.00000000 -70.00000000 203 177 65 97.000000 1.000000 4.000000 1.000000 -60.708740 114.000000 158.000000 0.352012 0.747822 0.562894
9800.00000000 680.00000000 -90.00000000 203 177 65 97.000000 1.000000 4.000000 1.000000 -60.708740 114.000000 158.000000 0.345912 0.476626 0.808191
9940.00000000 620.00000000 -140.00000000 203 177 65 97.000000 1.000000 4.000000 1.000000 -60.708740 114.000000 158.000000 0.697729 0.706655 0.117528
9940.00000000 610.00000000 -140.00000000 203 177 65 97.000000 1.000000 4.000000 1.000000 -60.708740 114.000000 158.000000 0.578218 0.810085 0.097094
9910.00000000 620.00000000 -50.00000000 203 177 65 97.000000 1.000000 4.000000 1.000000 -60.708740 114.000000 158.000000 0.180891 0.785889 0.591317
9860.00000000 620.00000000 -20.00000000 203 177 65 97.000000 1.000000 4.000000 1.000000 -60.708740 114.000000 158.000000 0.683495 0.724475 0.089279
9850.00000000 630.00000000 -20.00000000 203 177 65 97.000000 1.000000 4.000000 1.000000 -60.708740 114.000000 158.000000 0.619081 0.719298 0.315198
9710.00000000 980.00000000 -20.00000000 203 177 65 97.000000 1.000000 4.000000 1.000000 -60.708740 114.000000 158.000000 0.559869 -0.433608 0.706067
9730.00000000 900.00000000 -90.00000000 203 177 65 97.000000 1.000000 4.000000 1.000000 -60.708740 114.000000 158.000000 0.411419 -0.052265 0.909947
9700.00000000 840.00000000 -20.00000000 203 177 65 97.000000 1.000000 4.000000 1.000000 -60.708740 114.000000 158.000000 0.504067 0.014865 0.863536
9730.00000000 800.00000000 -50.00000000 203 177 65 97.000000 1.000000 4.000000 1.000000 -60.708740 114.000000 158.000000 0.713521 0.581692 0.390541
9740.00000000 780.00000000 -20.00000000 203 177 65 97.000000 1.000000 4.000000 1.000000 -60.708740 114.000000 158.000000 0.579327 0.649853 0.492008
9740.00000000 780.00000000 -20.00000000 203 177 65 97.000000 1.000000 4.000000 1.000000 -60.708740 114.000000 158.000000 0.579327 0.649853 0.492008
9730.00000000 780.00000000 -20.00000000 203 177 65 97.000000 1.000000 4.000000 1.000000 -60.708740 114.000000 158.000000 0.514872 0.478214 0.711490
9750.00000000 800.00000000 -80.00000000 203 177 65 97.000000 1.000000 4.000000 1.000000 -60.708740 114.000000 158.000000 0.482803 0.699981 0.526239
9730.00000000 780.00000000 -100.00000000 203 177 65 97.000000 1.000000 4.000000 1.000000 -60.708740 114.000000 158.000000 0.588330 0.291773 0.754146
9740.00000000 750.00000000 -70.00000000 203 177 65 97.000000 1.000000 4.000000 1.000000 -60.708740 114.000000 158.000000 0.438540 0.399987 0.804794
9720.00000000 760.00000000 -60.00000000 203 177 65 97.000000 1.000000 4.000000 1.000000 -60.708740 114.000000 158.000000 0.477716 0.256523 0.840228
9820.00000000 990.00000000 130.00000000 203 177 65 97.000000 1.000000 4.000000 1.000000 -60.708740 114.000000 158.000000 -0.036242 0.983205 0.178871
9990.00000000 810.00000000 360.00000000 203 177 65 97.000000 1.000000 4.000000 1.000000 -60.708740 114.000000 158.000000 0.240990 -0.292325 0.925457
9950.00000000 800.00000000 360.00000000 203 177 65 97.000000 1.000000 4.000000 1.000000 -60.708740 114.000000 158.000000 0.097214 -0.469163 0.877744
9920.00000000 790.00000000 380.00000000 203 177 65 97.000000 1.000000 4.000000 1.000000 -60.708740 114.000000 158.000000 -0.529530 0.536254 -0.657290
9990.00000000 760.00000000 200.00000000 203 177 65 97.000000 1.000000 4.000000 1.000000 -60.708740 114.000000 158.000000 0.022820 -0.465791 0.884600
9940.00000000 650.00000000 190.00000000 203 177 65 97.000000 1.000000 4.000000 1.000000 -60.708740 114.000000 158.000000 0.023497 0.816857 -0.576361
9890.00000000 840.00000000 260.00000000 203 177 65 97.000000 1.000000 4.000000 1.000000 -60.708740 114.000000 158.000000 0.113673 -0.228622 0.966856
9880.00000000 850.00000000 260.00000000 203 177 65 97.000000 1.000000 4.000000 1.000000 -60.708740 114.000000 158.000000 0.167344 -0.062902 0.983890
9880.00000000 820.00000000 280.00000000 203 177 65 97.000000 1.000000 4.000000 1.000000 -60.708740 114.000000 158.000000 0.373164 -0.260174 0.890538
9870.00000000 820.00000000 260.00000000 203 177 65 97.000000 1.000000 4.000000 1.000000 -60.708740 114.000000 158.000000 0.186435 -0.550210 0.813948
9880.00000000 810.00000000 250.00000000 203 177 65 97.000000 1.000000 4.000000 1.000000 -60.708740 114.000000 158.000000 0.429052 -0.744676 0.511246
9890.00000000 820.00000000 200.00000000 203 177 65 97.000000 1.000000 4.000000 1.000000 -60.708740 114.000000 158.000000 0.424075 -0.463071 0.778284
9800.00000000 940.00000000 80.00000000 203 177 65 97.000000 1.000000 4.000000 1.000000 -60.708740 114.000000 158.000000 0.341633 -0.407152 0.847062
9790.00000000 940.00000000 0.00000000 203 177 65 97.000000 1.000000 4.000000 1.000000 -60.708740 114.000000 158.000000 0.545400 -0.592680 0.592680
9880.00000000 800.00000000 240.00000000 203 177 65 97.000000 1.000000 4.000000 1.000000 -60.708740 114.000000 158.000000 0.412409 -0.428456 0.803956
9920.00000000 770.00000000 210.00000000 203 177 65 97.000000 1.000000 4.000000 1.000000 -60.708740 114.000000 158.000000 0.546365 -0.667406 0.506018
9900.00000000 750.00000000 150.00000000 203 177 65 97.000000 1.000000 4.000000 1.000000 -60.708740 114.000000 158.000000 -0.350619 0.886330 -0.302466
9880.00000000 780.00000000 220.00000000 203 177 65 97.000000 1.000000 4.000000 1.000000 -60.708740 114.000000 158.000000 -0.207973 0.900247 -0.382496
9880.00000000 800.00000000 160.00000000 203 177 65 97.000000 1.000000 4.000000 1.000000 -60.708740 114.000000 158.000000 0.015345 -0.746320 0.665410
9870.00000000 800.00000000 160.00000000 203 177 65 97.000000 1.000000 4.000000 1.000000 -60.708740 114.000000 158.000000 -0.243350 0.917244 -0.315348
9930.00000000 710.00000000 240.00000000 203 177 65 97.000000 1.000000 4.000000 1.000000 -60.708740 114.000000 158.000000 -0.089583 0.905475 -0.414837
9890.00000000 720.00000000 200.00000000 203 177 65 97.000000 1.000000 4.000000 1.000000 -60.708740 114.000000 158.000000 0.275998 -0.684411 0.674839
9900.00000000 710.00000000 230.00000000 203 177 65 97.000000 1.000000 4.000000 1.000000 -60.708740 114.000000 158.000000 -0.493183 0.773141 -0.398778
9900.00000000 660.00000000 150.00000000 203 177 65 97.000000 1.000000 4.000000 1.000000 -60.708740 114.000000 158.000000 0.279747 0.820486 -0.498543
9880.00000000 660.00000000 160.00000000 203 177 65 97.000000 1.000000 4.000000 1.000000 -60.708740 114.000000 158.000000 0.170514 0.973824 -0.150305
9900.00000000 680.00000000 140.00000000 203 177 65 97.000000 1.000000 4.000000 1.000000 -60.708740 114.000000 158.000000 0.029504 -0.751640 0.658914
9900.00000000 640.00000000 110.00000000 203 177 65 97.000000 1.000000 4.000000 1.000000 -60.708740 114.000000 158.000000 -0.171578 0.972277 -0.158869
9920.00000000 660.00000000 50.00000000 203 177 65 97.000000 1.000000 4.000000 1.000000 -60.708740 114.000000 158.000000 0.163346 0.957502 0.237715
9800.00000000 730.00000000 0.00000000 203 177 65 97.000000 1.000000 4.000000 1.000000 -60.708740 114.000000 158.000000 0.272458 0.677161 0.683535
9810.00000000 690.00000000 -10.00000000 203 177 65 97.000000 1.000000 4.000000 1.000000 -60.708740 114.000000 158.000000 -0.003598 0.965528 0.260273
9810.00000000 670.00000000 30.00000000 203 177 65 97.000000 1.000000 4.000000 1.000000 -60.708740 114.000000 158.000000 0.627779 0.778112 0.020880
9810.00000000 690.00000000 -10.00000000 203 177 65 97.000000 1.000000 4.000000 1.000000 -60.708740 114.000000 158.000000 -0.003598 0.965528 0.260273
9890.00000000 630.00000000 -10.00000000 203 177 65 97.000000 1.000000 4.000000 1.000000 -60.708740 114.000000 158.000000 0.101599 0.989133 -0.106270
9740.00000000 1000.00000000 20.00000000 203 177 65 97.000000 1.000000 4.000000 1.000000 -60.708740 114.000000 158.000000 0.031378 -0.302484 0.952638
9730.00000000 790.00000000 10.00000000 203 177 65 97.000000 1.000000 4.000000 1.000000 -60.708740 114.000000 158.000000 0.670975 0.570580 0.473531
11300.00000000 570.00000000 -580.00000000 203 177 65 97.000000 1.000000 4.000000 1.000000 -60.708740 114.000000 129.000000 0.399521 0.006465 0.916701
11310.00000000 580.00000000 -590.00000000 203 177 65 97.000000 1.000000 4.000000 1.000000 -60.708740 114.000000 129.000000 0.614446 0.212038 0.759932
11280.00000000 530.00000000 -540.00000000 203 177 65 97.000000 1.000000 4.000000 1.000000 -60.708740 114.000000 129.000000 0.335697 -0.423134 0.841585
11290.00000000 460.00000000 -630.00000000 203 177 65 97.000000 1.000000 4.000000 1.000000 -60.708740 114.000000 129.000000 0.520801 -0.755895 0.396723
11340.00000000 310.00000000 -650.00000000 203 177 65 97.000000 1.000000 4.000000 1.000000 -60.708740 114.000000 129.000000 0.216738 0.728179 -0.650215
11140.00000000 530.00000000 -430.00000000 203 177 65 97.000000 1.000000 4.000000 1.000000 -60.708740 114.000000 129.000000 0.245853 -0.391875 0.886561
11170.00000000 550.00000000 -420.00000000 203 177 65 97.000000 1.000000 4.000000 1.000000 -60.708740 114.000000 129.000000 0.297612 -0.459663 0.836742
11200.00000000 520.00000000 -450.00000000 203 177 65 97.000000 1.000000 4.000000 1.000000 -60.708740 114.000000 129.000000 0.485726 -0.404501 0.774887
11180.00000000 520.00000000 -440.00000000 203 177 65 97.000000 1.000000 4.000000 1.000000 -60.708740 114.000000 129.000000 -0.543015 0.590381 -0.597147
11260.00000000 530.00000000 -600.00000000 203 177 65 97.000000 1.000000 4.000000 1.000000 -60.708740 114.000000 129.000000 0.607227 -0.405370 0.683338
11190.00000000 500.00000000 -690.00000000 203 177 65 97.000000 1.000000 4.000000 1.000000 -60.708740 114.000000 129.000000 0.114209 0.939201 0.323816
11250.00000000 480.00000000 -680.00000000 203 177 65 97.000000 1.000000 4.000000 1.000000 -60.708740 114.000000 129.000000 0.386968 0.885992 -0.255488
11240.00000000 520.00000000 -610.00000000 203 177 65 97.000000 1.000000 4.000000 1.000000 -60.708740 114.000000 129.000000 0.081802 -0.575483 0.813713
11210.00000000 460.00000000 -430.00000000 203 177 65 97.000000 1.000000 4.000000 1.000000 -60.708740 114.000000 129.000000 0.559921 -0.304686 0.770490
11220.00000000 450.00000000 -440.00000000 203 177 65 97.000000 1.000000 4.000000 1.000000 -60.708740 114.000000 129.000000 0.507895 -0.378082 0.774013
11200.00000000 420.00000000 -460.00000000 203 177 65 97.000000 1.000000 4.000000 1.000000 -60.708740 114.000000 129.000000 -0.018092 -0.766839 0.641584
11170.00000000 470.00000000 -410.00000000 203 177 65 97.000000 1.000000 4.000000 1.000000 -60.708740 114.000000 129.000000 -0.582177 0.629426 -0.514678
11160.00000000 430.00000000 -440.00000000 203 177 65 97.000000 1.000000 4.000000 1.000000 -60.708740 114.000000 129.000000 -0.102469 -0.544097 0.832742
11140.00000000 390.00000000 -510.00000000 203 177 65 97.000000 1.000000 4.000000 1.000000 -60.708740 114.000000 129.000000 -0.159515 0.971129 -0.177381
11130.00000000 410.00000000 -500.00000000 203 177 65 97.000000 1.000000 4.000000 1.000000 -60.708740 114.000000 129.000000 0.167581 -0.789592 0.590307
11190.00000000 420.00000000 -470.00000000 203 177 65 97.000000 1.000000 4.000000 1.000000 -60.708740 114.000000 129.000000 -0.302249 0.860718 -0.409647
11130.00000000 430.00000000 -450.00000000 203 177 65 97.000000 1.000000 4.000000 1.000000 -60.708740 114.000000 129.000000 -0.062675 0.862131 -0.502794
11120.00000000 400.00000000 -490.00000000 203 177 65 97.000000 1.000000 4.000000 1.000000 -60.708740 114.000000 129.000000 -0.076767 0.743042 -0.664827
11200.00000000 420.00000000 -590.00000000 203 177 65 97.000000 1.000000 4.000000 1.000000 -60.708740 114.000000 129.000000 -0.314981 0.725263 -0.612193
11220.00000000 390.00000000 -540.00000000 203 177 65 97.000000 1.000000 4.000000 1.000000 -60.708740 114.000000 129.000000 -0.143440 0.823673 -0.548623
11240.00000000 430.00000000 -650.00000000 203 177 65 97.000000 1.000000 4.000000 1.000000 -60.708740 114.000000 129.000000 0.121015 0.884121 -0.451315
11260.00000000 470.00000000 -650.00000000 203 177 65 97.000000 1.000000 4.000000 1.000000 -60.708740 114.000000 129.000000 0.228841 0.818607 -0.526796
11230.00000000 400.00000000 -650.00000000 203 177 65 97.000000 1.000000 4.000000 1.000000 -60.708740 114.000000 129.000000 0.405761 0.898983 -0.164885
11260.00000000 360.00000000 -620.00000000 203 177 65 97.000000 1.000000 4.000000 1.000000 -60.708740 114.000000 129.000000 -0.061083 0.805441 -0.589520
11220.00000000 350.00000000 -660.00000000 203 177 65 97.000000 1.000000 4.000000 1.000000 -60.708740 114.000000 129.000000 0.108403 0.989613 -0.094415
11160.00000000 320.00000000 -680.00000000 203 177 65 97.000000 1.000000 4.000000 1.000000 -60.708740 114.000000 129.000000 0.324525 0.906026 0.271661
11190.00000000 380.00000000 -650.00000000 203 177 65 97.000000 1.000000 4.000000 1.000000 -60.708740 114.000000 129.000000 -0.022688 0.892858 -0.449766
11370.00000000 350.00000000 -890.00000000 203 177 65 97.000000 1.000000 4.000000 1.000000 -60.708740 114.000000 129.000000 0.171578 0.895379 0.410923
11370.00000000 360.00000000 -900.00000000 203 177 65 97.000000 1.000000 4.000000 1.000000 -60.708740 114.000000 129.000000 0.483399 0.761969 0.430963
11300.00000000 410.00000000 -930.00000000 203 177 65 97.000000 1.000000 4.000000 1.000000 -60.708740 114.000000 129.000000 0.590753 0.560284 0.580597
11320.00000000 390.00000000 -920.00000000 203 177 65 97.000000 1.000000 4.000000 1.000000 -60.708740 114.000000 129.000000 0.414042 0.656814 0.630209
11280.00000000 310.00000000 -870.00000000 203 177 65 97.000000 1.000000 4.000000 1.000000 -60.708740 114.000000 129.000000 0.345169 0.812818 0.469239
11310.00000000 380.00000000 -870.00000000 203 177 65 97.000000 1.000000 4.000000 1.000000 -60.708740 114.000000 129.000000 -0.011536 0.926726 0.375561
11350.00000000 380.00000000 -910.00000000 203 177 65 97.000000 1.000000 4.000000 1.000000 -60.708740 114.000000 129.000000 0.616741 0.782173 0.088520
11130.00000000 540.00000000 -760.00000000 203 177 65 97.000000 1.000000 4.000000 1.000000 -60.708740 114.000000 129.000000 0.273137 0.461401 0.844101
11220.00000000 410.00000000 -760.00000000 203 177 65 97.000000 1.000000 4.000000 1.000000 -60.708740 114.000000 129.000000 0.085232 0.962993 -0.255696
11250.00000000 410.00000000 -840.00000000 203 177 65 97.000000 1.000000 4.000000 1.000000 -60.708740 114.000000 129.000000 0.025887 0.862450 0.505480
11240.00000000 420.00000000 -840.00000000 203 177 65 97.000000 1.000000 4.000000 1.000000 -60.708740 114.000000 129.000000 0.566679 0.553146 0.610660
11260.00000000 380.00000000 -820.00000000 203 177 65 97.000000 1.000000 4.000000 1.000000 -60.708740 114.000000 129.000000 0.091003 0.986855 0.133550
11260.00000000 320.00000000 -820.00000000 203 177 65 97.000000 1.000000 4.000000 1.000000 -60.708740 114.000000 129.000000 0.172256 0.967484 0.185208
11220.00000000 380.00000000 -830.00000000 203 177 65 97.000000 1.000000 4.000000 1.000000 -60.708740 114.000000 129.000000 0.293513 0.855952 0.425671
11190.00000000 440.00000000 -760.00000000 203 177 65 97.000000 1.000000 4.000000 1.000000 -60.708740 114.000000 129.000000 0.435138 0.750408 0.497536
11170.00000000 450.00000000 -770.00000000 203 177 65 97.000000 1.000000 4.000000 1.000000 -60.708740 114.000000 129.000000 0.240827 0.691001 0.681557
11270.00000000 320.00000000 -870.00000000 203 177 65 97.000000 1.000000 4.000000 1.000000 -60.708740 114.000000 129.000000 0.318471 0.939149 0.128743
10620.00000000 980.00000000 -130.00000000 203 177 65 97.000000 1.000000 4.000000 1.000000 -60.708740 114.000000 129.000000 0.452336 0.810368 0.372418
10630.00000000 990.00000000 -200.00000000 203 177 65 97.000000 1.000000 4.000000 1.000000 -60.708740 114.000000 129.000000 0.668937 0.742478 0.035356
10700.00000000 990.00000000 -200.00000000 203 177 65 97.000000 1.000000 4.000000 1.000000 -60.708740 114.000000 129.000000 0.433868 0.818468 0.376654
10580.00000000 990.00000000 -170.00000000 203 177 65 97.000000 1.000000 4.000000 1.000000 -60.708740 114.000000 129.000000 0.080974 0.842409 0.532720
10570.00000000 1010.00000000 -160.00000000 203 177 65 97.000000 1.000000 4.000000 1.000000 -60.708740 114.000000 129.000000 0.253650 0.840887 0.478091
10530.00000000 1030.00000000 -110.00000000 203 177 65 97.000000 1.000000 4.000000 1.000000 -60.708740 114.000000 129.000000 0.731462 0.657856 0.179415
10540.00000000 1020.00000000 -180.00000000 203 177 65 97.000000 1.000000 4.000000 1.000000 -60.708740 114.000000 129.000000 0.367840 0.816893 0.444275
10470.00000000 1070.00000000 -180.00000000 203 177 65 97.000000 1.000000 4.000000 1.000000 -60.708740 114.000000 129.000000 0.452084 0.888961 0.073274
10510.00000000 1020.00000000 -80.00000000 203 177 65 97.000000 1.000000 4.000000 1.000000 -60.708740 114.000000 129.000000 0.398504 0.860091 0.318495
10510.00000000 990.00000000 -100.00000000 203 177 65 97.000000 1.000000 4.000000 1.000000 -60.708740 114.000000 129.000000 0.380858 0.507271 0.773061
10440.00000000 1050.00000000 -60.00000000 203 177 65 97.000000 1.000000 4.000000 1.000000 -60.708740 114.000000 129.000000 0.563702 0.590787 0.577244
10470.00000000 1030.00000000 -80.00000000 203 177 65 97.000000 1.000000 4.000000 1.000000 -60.708740 114.000000 129.000000 0.715892 0.682735 0.146193
10510.00000000 1030.00000000 -120.00000000 203 177 65 97.000000 1.000000 4.000000 1.000000 -60.708740 114.000000 129.000000 0.400452 0.916244 0.011664
10490.00000000 1010.00000000 -130.00000000 203 177 65 97.000000 1.000000 4.000000 1.000000 -60.708740 114.000000 129.000000 0.599254 0.751849 0.274989
10520.00000000 1010.00000000 -160.00000000 203 177 65 97.000000 1.000000 4.000000 1.000000 -60.708740 114.000000 129.000000 0.342195 0.937430 0.064243
10460.00000000 1060.00000000 -120.00000000 203 177 65 97.000000 1.000000 4.000000 1.000000 -60.708740 114.000000 129.000000 0.189722 0.977984 -0.086905
10500.00000000 1070.00000000 -190.00000000 203 177 65 97.000000 1.000000 4.000000 1.000000 -60.708740 114.000000 129.000000 -0.116475 0.992806 -0.027732
