//X Y Z R G B PointSourceId ScanDirectionFlag NumberOfReturns ReturnNumber GpsTime Intensity Classification Nx Ny Nz
-5960.00000000 18620.00000000 -120.00000000 187 72 126 0.000000 0.000000 0.000000 0.000000 -60.708740 0.000000 41.000000 0.308554 0.873982 0.375432
-6000.00000000 18640.00000000 -80.00000000 187 72 126 0.000000 0.000000 0.000000 0.000000 -60.708740 0.000000 41.000000 0.158727 0.920057 0.358190
-6010.00000000 18650.00000000 -90.00000000 187 72 126 0.000000 0.000000 0.000000 0.000000 -60.708740 0.000000 41.000000 0.406807 0.866940 0.287964
-6000.00000000 18640.00000000 -100.00000000 187 72 126 0.000000 0.000000 0.000000 0.000000 -60.708740 0.000000 41.000000 0.027220 0.926786 0.374603
-6020.00000000 18630.00000000 -90.00000000 187 72 126 0.000000 0.000000 0.000000 0.000000 -60.708740 0.000000 41.000000 0.380559 0.696868 0.607906
-6010.00000000 18580.00000000 -20.00000000 187 72 126 0.000000 0.000000 0.000000 0.000000 -60.708740 0.000000 41.000000 0.417274 0.724045 0.549219
-6000.00000000 18610.00000000 -20.00000000 187 72 126 0.000000 0.000000 0.000000 0.000000 -60.708740 0.000000 41.000000 0.126066 0.936687 0.326688
-6010.00000000 18580.00000000 -20.00000000 187 72 126 0.000000 0.000000 0.000000 0.000000 -60.708740 0.000000 41.000000 0.417274 0.724045 0.549219
-5990.00000000 18600.00000000 -20.00000000 187 72 126 0.000000 0.000000 0.000000 0.000000 -60.708740 0.000000 41.000000 0.478091 0.840887 0.253650
-6010.00000000 18620.00000000 -30.00000000 187 72 126 0.000000 0.000000 0.000000 0.000000 -60.708740 0.000000 41.000000 0.433491 0.767198 0.472751
-5990.00000000 18620.00000000 -90.00000000 187 72 126 0.000000 0.000000 0.000000 0.000000 -60.708740 0.000000 41.000000 0.258441 0.872048 0.415621
-6000.00000000 18620.00000000 -70.00000000 187 72 126 0.000000 0.000000 0.000000 0.000000 -60.708740 0.000000 41.000000 0.149191 0.742939 0.652521
-6000.00000000 18620.00000000 -90.00000000 187 72 126 0.000000 0.000000 0.000000 0.000000 -60.708740 0.000000 41.000000 -0.022438 0.906763 0.421044
-6050.00000000 18630.00000000 -60.00000000 187 72 126 0.000000 0.000000 0.000000 0.000000 -60.708740 0.000000 41.000000 0.538155 0.619132 0.571896
-6050.00000000 18630.00000000 -50.00000000 187 72 126 0.000000 0.000000 0.000000 0.000000 -60.708740 0.000000 41.000000 0.525852 0.702805 0.479109
-6030.00000000 18640.00000000 -90.00000000 187 72 126 0.000000 0.000000 0.000000 0.000000 -60.708740 0.000000 41.000000 0.549945 0.506218 0.664307
-6040.00000000 18660.00000000 -100.00000000 187 72 126 0.000000 0.000000 0.000000 0.000000 -60.708740 0.000000 41.000000 0.726084 0.657965 0.199712
-6040.00000000 18630.00000000 -70.00000000 187 72 126 0.000000 0.000000 0.000000 0.000000 -60.708740 0.000000 41.000000 0.620071 0.528835 0.579522
-6050.00000000 18660.00000000 -90.00000000 187 72 126 0.000000 0.000000 0.000000 0.000000 -60.708740 0.000000 41.000000 0.804794 0.438540 0.399987
-6050.00000000 18590.00000000 -20.00000000 187 72 126 0.000000 0.000000 0.000000 0.000000 -60.708740 0.000000 41.000000 0.582236 0.538358 0.609239
-6030.00000000 18620.00000000 -60.00000000 187 72 126 0.000000 0.000000 0.000000 0.000000 -60.708740 0.000000 41.000000 0.569259 0.761685 0.309484
-6050.00000000 18590.00000000 -30.00000000 187 72 126 0.000000 0.000000 0.000000 0.000000 -60.708740 0.000000 41.000000 0.651675 0.638409 0.409577
-5990.00000000 18640.00000000 -110.00000000 187 72 126 0.000000 0.000000 0.000000 0.000000 -60.708740 0.000000 41.000000 0.124333 0.983798 0.129161
-6040.00000000 18660.00000000 -110.00000000 187 72 126 0.000000 0.000000 0.000000 0.000000 -60.708740 0.000000 41.000000 0.418933 0.878120 0.231084
-6020.00000000 18630.00000000 -110.00000000 187 72 126 0.000000 0.000000 0.000000 0.000000 -60.708740 0.000000 41.000000 0.127422 0.930319 0.343903
-6020.00000000 18560.00000000 -20.00000000 187 72 126 0.000000 0.000000 0.000000 0.000000 -60.708740 0.000000 41.000000 0.466245 0.859030 0.211384
-5870.00000000 18830.00000000 -390.00000000 187 72 126 0.000000 0.000000 0.000000 0.000000 -60.708740 0.000000 41.000000 0.855209 -0.514800 0.059990
-5890.00000000 18810.00000000 -380.00000000 187 72 126 0.000000 0.000000 0.000000 0.000000 -60.708740 0.000000 41.000000 -0.674959 0.720462 -0.159260
-5890.00000000 18820.00000000 -370.00000000 187 72 126 0.000000 0.000000 0.000000 0.000000 -60.708740 0.000000 41.000000 0.959397 -0.270271 -0.080697
-5900.00000000 18810.00000000 -360.00000000 187 72 126 0.000000 0.000000 0.000000 0.000000 -60.708740 0.000000 41.000000 0.849368 -0.523660 -0.065984
-5890.00000000 18810.00000000 -370.00000000 187 72 126 0.000000 0.000000 0.000000 0.000000 -60.708740 0.000000 41.000000 -0.678651 0.730744 -0.073798
-5890.00000000 18820.00000000 -360.00000000 187 72 126 0.000000 0.000000 0.000000 0.000000 -60.708740 0.000000 41.000000 0.953101 -0.288147 0.092572
-5890.00000000 18820.00000000 -420.00000000 187 72 126 0.000000 0.000000 0.000000 0.000000 -60.708740 0.000000 41.000000 0.854349 -0.426405 -0.297098
-5900.00000000 18830.00000000 -430.00000000 187 72 126 0.000000 0.000000 0.000000 0.000000 -60.708740 0.000000 41.000000 0.826891 -0.422141 -0.371548
-5900.00000000 18810.00000000 -400.00000000 187 72 126 0.000000 0.000000 0.000000 0.000000 -60.708740 0.000000 41.000000 -0.646876 0.666628 0.370349
-5880.00000000 18830.00000000 -410.00000000 187 72 126 0.000000 0.000000 0.000000 0.000000 -60.708740 0.000000 41.000000 0.912381 -0.177921 -0.368653
-5880.00000000 18810.00000000 -400.00000000 187 72 126 0.000000 0.000000 0.000000 0.000000 -60.708740 0.000000 41.000000 0.827421 -0.397099 -0.397099
-5890.00000000 18820.00000000 -420.00000000 187 72 126 0.000000 0.000000 0.000000 0.000000 -60.708740 0.000000 41.000000 0.854349 -0.426405 -0.297098
-5890.00000000 18810.00000000 -400.00000000 187 72 126 0.000000 0.000000 0.000000 0.000000 -60.708740 0.000000 41.000000 0.822485 -0.432637 -0.369247
-5900.00000000 18830.00000000 -470.00000000 187 72 126 0.000000 0.000000 0.000000 0.000000 -60.708740 0.000000 41.000000 -0.396865 0.865747 0.304927
-5900.00000000 18830.00000000 -460.00000000 187 72 126 0.000000 0.000000 0.000000 0.000000 -60.708740 0.000000 41.000000 0.779922 -0.625863 -0.004127
-5910.00000000 18800.00000000 -380.00000000 187 72 126 0.000000 0.000000 0.000000 0.000000 -60.708740 0.000000 41.000000 -0.594336 0.799678 0.085318
-5940.00000000 18800.00000000 -400.00000000 187 72 126 0.000000 0.000000 0.000000 0.000000 -60.708740 0.000000 41.000000 -0.102116 0.945564 0.308999
-5920.00000000 18790.00000000 -440.00000000 187 72 126 0.000000 0.000000 0.000000 0.000000 -60.708740 0.000000 41.000000 -0.196871 0.843089 0.500443
-5910.00000000 18830.00000000 -410.00000000 187 72 126 0.000000 0.000000 0.000000 0.000000 -60.708740 0.000000 41.000000 -0.616242 0.763771 0.192095
-5910.00000000 18800.00000000 -400.00000000 187 72 126 0.000000 0.000000 0.000000 0.000000 -60.708740 0.000000 41.000000 -0.576989 0.816126 0.031978
-5910.00000000 18830.00000000 -420.00000000 187 72 126 0.000000 0.000000 0.000000 0.000000 -60.708740 0.000000 41.000000 0.745020 -0.664941 0.052909
-5910.00000000 18830.00000000 -410.00000000 187 72 126 0.000000 0.000000 0.000000 0.000000 -60.708740 0.000000 41.000000 -0.616242 0.763771 0.192095
-5910.00000000 18800.00000000 -400.00000000 187 72 126 0.000000 0.000000 0.000000 0.000000 -60.708740 0.000000 41.000000 -0.576989 0.816126 0.031978
-5920.00000000 18810.00000000 -430.00000000 187 72 126 0.000000 0.000000 0.000000 0.000000 -60.708740 0.000000 41.000000 -0.391703 0.735877 0.552317
-5910.00000000 18790.00000000 -430.00000000 187 72 126 0.000000 0.000000 0.000000 0.000000 -60.708740 0.000000 41.000000 -0.565725 0.815525 0.121961
-5920.00000000 18760.00000000 -390.00000000 187 72 126 0.000000 0.000000 0.000000 0.000000 -60.708740 0.000000 41.000000 0.160591 0.853048 0.496507
-5920.00000000 18780.00000000 -360.00000000 187 72 126 0.000000 0.000000 0.000000 0.000000 -60.708740 0.000000 41.000000 -0.265960 0.686401 0.676845
-5920.00000000 18780.00000000 -360.00000000 187 72 126 0.000000 0.000000 0.000000 0.000000 -60.708740 0.000000 41.000000 -0.265960 0.686401 0.676845
-5980.00000000 18790.00000000 -390.00000000 187 72 126 0.000000 0.000000 0.000000 0.000000 -60.708740 0.000000 41.000000 0.292331 0.861688 0.414773
-5970.00000000 18790.00000000 -390.00000000 187 72 126 0.000000 0.000000 0.000000 0.000000 -60.708740 0.000000 41.000000 0.344160 0.709525 0.614921
-5950.00000000 18790.00000000 -430.00000000 187 72 126 0.000000 0.000000 0.000000 0.000000 -60.708740 0.000000 41.000000 -0.036054 0.904019 0.425970
-5980.00000000 18800.00000000 -440.00000000 187 72 126 0.000000 0.000000 0.000000 0.000000 -60.708740 0.000000 41.000000 0.206541 0.958082 0.198545
-5970.00000000 18790.00000000 -400.00000000 187 72 126 0.000000 0.000000 0.000000 0.000000 -60.708740 0.000000 41.000000 0.610625 0.549731 0.570029
-5960.00000000 18750.00000000 -360.00000000 187 72 126 0.000000 0.000000 0.000000 0.000000 -60.708740 0.000000 41.000000 0.446765 0.808661 0.382713
-5970.00000000 18780.00000000 -370.00000000 187 72 126 0.000000 0.000000 0.000000 0.000000 -60.708740 0.000000 41.000000 0.540764 0.688093 0.483841
-5960.00000000 18780.00000000 -390.00000000 187 72 126 0.000000 0.000000 0.000000 0.000000 -60.708740 0.000000 41.000000 0.055648 0.968274 0.243614
-5950.00000000 18770.00000000 -380.00000000 187 72 126 0.000000 0.000000 0.000000 0.000000 -60.708740 0.000000 41.000000 0.386517 0.860808 0.331080
-5950.00000000 18750.00000000 -360.00000000 187 72 126 0.000000 0.000000 0.000000 0.000000 -60.708740 0.000000 41.000000 -0.015008 0.982460 0.185871
-5950.00000000 18750.00000000 -360.00000000 187 72 126 0.000000 0.000000 0.000000 0.000000 -60.708740 0.000000 41.000000 -0.015008 0.982460 0.185871
-5950.00000000 18770.00000000 -420.00000000 187 72 126 0.000000 0.000000 0.000000 0.000000 -60.708740 0.000000 41.000000 0.267122 0.935626 0.230760
-5950.00000000 18770.00000000 -410.00000000 187 72 126 0.000000 0.000000 0.000000 0.000000 -60.708740 0.000000 41.000000 0.112714 0.991652 -0.062619
-5950.00000000 18770.00000000 -420.00000000 187 72 126 0.000000 0.000000 0.000000 0.000000 -60.708740 0.000000 41.000000 0.267122 0.935626 0.230760
-5930.00000000 18790.00000000 -460.00000000 187 72 126 0.000000 0.000000 0.000000 0.000000 -60.708740 0.000000 41.000000 -0.213218 0.927712 0.306413
-5930.00000000 18810.00000000 -480.00000000 187 72 126 0.000000 0.000000 0.000000 0.000000 -60.708740 0.000000 41.000000 -0.202364 0.949347 0.240393
-5910.00000000 18830.00000000 -480.00000000 187 72 126 0.000000 0.000000 0.000000 0.000000 -60.708740 0.000000 41.000000 -0.507702 0.817009 0.273378
-5940.00000000 18790.00000000 -470.00000000 187 72 126 0.000000 0.000000 0.000000 0.000000 -60.708740 0.000000 41.000000 -0.273860 0.956563 0.099939
-5920.00000000 18810.00000000 -470.00000000 187 72 126 0.000000 0.000000 0.000000 0.000000 -60.708740 0.000000 41.000000 -0.427944 0.722052 0.543604
-5940.00000000 18810.00000000 -460.00000000 187 72 126 0.000000 0.000000 0.000000 0.000000 -60.708740 0.000000 41.000000 0.057484 0.839833 0.539793
-5940.00000000 18810.00000000 -460.00000000 187 72 126 0.000000 0.000000 0.000000 0.000000 -60.708740 0.000000 41.000000 0.057484 0.839833 0.539793
-5920.00000000 18800.00000000 -450.00000000 187 72 126 0.000000 0.000000 0.000000 0.000000 -60.708740 0.000000 41.000000 -0.120979 0.991572 0.046356
-5930.00000000 18800.00000000 -460.00000000 187 72 126 0.000000 0.000000 0.000000 0.000000 -60.708740 0.000000 41.000000 -0.158756 0.953870 0.254810
-5930.00000000 18820.00000000 -470.00000000 187 72 126 0.000000 0.000000 0.000000 0.000000 -60.708740 0.000000 41.000000 0.061718 0.762149 0.644453
-5940.00000000 18810.00000000 -500.00000000 187 72 126 0.000000 0.000000 0.000000 0.000000 -60.708740 0.000000 41.000000 0.067905 0.997687 0.003134
-5930.00000000 18810.00000000 -510.00000000 187 72 126 0.000000 0.000000 0.000000 0.000000 -60.708740 0.000000 41.000000 -0.164952 0.932879 0.320201
-5920.00000000 18810.00000000 -500.00000000 187 72 126 0.000000 0.000000 0.000000 0.000000 -60.708740 0.000000 41.000000 -0.199435 0.712708 0.672512
-5960.00000000 18800.00000000 -460.00000000 187 72 126 0.000000 0.000000 0.000000 0.000000 -60.708740 0.000000 41.000000 0.052181 0.913831 0.402728
-5960.00000000 18810.00000000 -470.00000000 187 72 126 0.000000 0.000000 0.000000 0.000000 -60.708740 0.000000 41.000000 0.468298 0.646218 0.602577
-5980.00000000 18790.00000000 -450.00000000 187 72 126 0.000000 0.000000 0.000000 0.000000 -60.708740 0.000000 41.000000 0.549027 0.786358 0.283215
-5970.00000000 18800.00000000 -460.00000000 187 72 126 0.000000 0.000000 0.000000 0.000000 -60.708740 0.000000 41.000000 0.079980 0.871357 0.484087
-5950.00000000 18800.00000000 -480.00000000 187 72 126 0.000000 0.000000 0.000000 0.000000 -60.708740 0.000000 41.000000 -0.151037 0.797059 0.584709
-5970.00000000 18800.00000000 -460.00000000 187 72 126 0.000000 0.000000 0.000000 0.000000 -60.708740 0.000000 41.000000 0.079980 0.871357 0.484087
-5970.00000000 18820.00000000 -470.00000000 187 72 126 0.000000 0.000000 0.000000 0.000000 -60.708740 0.000000 41.000000 0.261782 0.951813 0.159754
-5980.00000000 18820.00000000 -510.00000000 187 72 126 0.000000 0.000000 0.000000 0.000000 -60.708740 0.000000 41.000000 0.277114 0.960743 0.013428
-5950.00000000 18820.00000000 -500.00000000 187 72 126 0.000000 0.000000 0.000000 0.000000 -60.708740 0.000000 41.000000 0.022246 0.979976 0.197869
-5960.00000000 18820.00000000 -490.00000000 187 72 126 0.000000 0.000000 0.000000 0.000000 -60.708740 0.000000 41.000000 0.062760 0.991614 0.112969
-5970.00000000 18820.00000000 -520.00000000 187 72 126 0.000000 0.000000 0.000000 0.000000 -60.708740 0.000000 41.000000 0.011115 0.954619 0.297624
-5980.00000000 18820.00000000 -510.00000000 187 72 126 0.000000 0.000000 0.000000 0.000000 -60.708740 0.000000 41.000000 0.277114 0.960743 0.013428
-6010.00000000 18790.00000000 -390.00000000 187 72 126 0.000000 0.000000 0.000000 0.000000 -60.708740 0.000000 41.000000 0.539501 0.789475 0.292691
-6010.00000000 18790.00000000 -380.00000000 187 72 126 0.000000 0.000000 0.000000 0.000000 -60.708740 0.000000 41.000000 0.484290 0.768015 0.419066
-6020.00000000 18790.00000000 -370.00000000 187 72 126 0.000000 0.000000 0.000000 0.000000 -60.708740 0.000000 41.000000 0.872230 0.476667 0.109562
-6020.00000000 18800.00000000 -380.00000000 187 72 126 0.000000 0.000000 0.000000 0.000000 -60.708740 0.000000 41.000000 0.967251 0.195522 0.161856
-6020.00000000 18800.00000000 -360.00000000 187 72 126 0.000000 0.000000 0.000000 0.000000 -60.708740 0.000000 41.000000 0.881213 0.375080 0.287712
-6020.00000000 18830.00000000 -420.00000000 187 72 126 0.000000 0.000000 0.000000 0.000000 -60.708740 0.000000 41.000000 0.766964 0.315432 0.558811
-6020.00000000 18820.00000000 -400.00000000 187 72 126 0.000000 0.000000 0.000000 0.000000 -60.708740 0.000000 41.000000 0.938376 0.332369 0.094772
-6000.00000000 18770.00000000 -410.00000000 187 72 126 0.000000 0.000000 0.000000 0.000000 -60.708740 0.000000 41.000000 0.605139 0.780192 0.158453
-6000.00000000 18780.00000000 -430.00000000 187 72 126 0.000000 0.000000 0.000000 0.000000 -60.708740 0.000000 41.000000 0.474264 0.675366 0.564760
-5990.00000000 18760.00000000 -430.00000000 187 72 126 0.000000 0.000000 0.000000 0.000000 -60.708740 0.000000 41.000000 0.122566 0.863730 0.488822
-6010.00000000 18780.00000000 -430.00000000 187 72 126 0.000000 0.000000 0.000000 0.000000 -60.708740 0.000000 41.000000 0.705821 0.664767 0.244748
-6000.00000000 18780.00000000 -430.00000000 187 72 126 0.000000 0.000000 0.000000 0.000000 -60.708740 0.000000 41.000000 0.474264 0.675366 0.564760
-6030.00000000 18830.00000000 -360.00000000 187 72 126 0.000000 0.000000 0.000000 0.000000 -60.708740 0.000000 41.000000 0.998796 -0.038616 -0.030267
-6030.00000000 18790.00000000 -380.00000000 187 72 126 0.000000 0.000000 0.000000 0.000000 -60.708740 0.000000 41.000000 0.867525 0.380977 0.319776
-6040.00000000 18810.00000000 -370.00000000 187 72 126 0.000000 0.000000 0.000000 0.000000 -60.708740 0.000000 41.000000 0.998906 0.046198 0.007186
-6030.00000000 18830.00000000 -370.00000000 187 72 126 0.000000 0.000000 0.000000 0.000000 -60.708740 0.000000 41.000000 0.946207 -0.201292 0.253326
-6030.00000000 18830.00000000 -370.00000000 187 72 126 0.000000 0.000000 0.000000 0.000000 -60.708740 0.000000 41.000000 0.946207 -0.201292 0.253326
-6030.00000000 18790.00000000 -380.00000000 187 72 126 0.000000 0.000000 0.000000 0.000000 -60.708740 0.000000 41.000000 0.867525 0.380977 0.319776
-5990.00000000 18810.00000000 -450.00000000 187 72 126 0.000000 0.000000 0.000000 0.000000 -60.708740 0.000000 41.000000 0.321134 0.831815 0.452721
-6020.00000000 18830.00000000 -470.00000000 187 72 126 0.000000 0.000000 0.000000 0.000000 -60.708740 0.000000 41.000000 0.743771 0.613730 0.264840
-5990.00000000 18810.00000000 -480.00000000 187 72 126 0.000000 0.000000 0.000000 0.000000 -60.708740 0.000000 41.000000 0.372328 0.926184 0.059626
-6010.00000000 18830.00000000 -490.00000000 187 72 126 0.000000 0.000000 0.000000 0.000000 -60.708740 0.000000 41.000000 0.732198 0.658825 0.172731
-5990.00000000 18820.00000000 -510.00000000 187 72 126 0.000000 0.000000 0.000000 0.000000 -60.708740 0.000000 41.000000 0.259470 0.921765 0.288141
-6000.00000000 18830.00000000 -500.00000000 187 72 126 0.000000 0.000000 0.000000 0.000000 -60.708740 0.000000 41.000000 0.474643 0.608818 0.635653
-5990.00000000 18830.00000000 -510.00000000 187 72 126 0.000000 0.000000 0.000000 0.000000 -60.708740 0.000000 41.000000 0.485745 0.862089 0.144411
-6010.00000000 18810.00000000 -520.00000000 187 72 126 0.000000 0.000000 0.000000 0.000000 -60.708740 0.000000 41.000000 0.642083 0.761473 0.088814
-5920.00000000 18830.00000000 -550.00000000 187 72 126 0.000000 0.000000 0.000000 0.000000 -60.708740 0.000000 41.000000 -0.428195 0.857924 0.283928
-5940.00000000 18830.00000000 -540.00000000 187 72 126 0.000000 0.000000 0.000000 0.000000 -60.708740 0.000000 41.000000 -0.140067 0.833030 0.535203
-5930.00000000 18830.00000000 -530.00000000 187 72 126 0.000000 0.000000 0.000000 0.000000 -60.708740 0.000000 41.000000 -0.030571 0.998304 -0.049546
-5920.00000000 18830.00000000 -550.00000000 187 72 126 0.000000 0.000000 0.000000 0.000000 -60.708740 0.000000 41.000000 -0.428195 0.857924 0.283928
-5930.00000000 18820.00000000 -530.00000000 187 72 126 0.000000 0.000000 0.000000 0.000000 -60.708740 0.000000 41.000000 -0.196104 0.854772 0.480529
-5960.00000000 18830.00000000 -530.00000000 187 72 126 0.000000 0.000000 0.000000 0.000000 -60.708740 0.000000 41.000000 -0.088330 0.919991 0.381857
-6010.00000000 18830.00000000 -550.00000000 187 72 126 0.000000 0.000000 0.000000 0.000000 -60.708740 0.000000 41.000000 0.510390 0.761509 0.399507
-6100.00000000 19030.00000000 -680.00000000 187 72 126 0.000000 0.000000 0.000000 0.000000 -60.708740 0.000000 41.000000 0.993280 0.108135 -0.041247
-6080.00000000 18920.00000000 -680.00000000 187 72 126 0.000000 0.000000 0.000000 0.000000 -60.708740 0.000000 41.000000 0.761404 0.624077 0.175474
-6080.00000000 18940.00000000 -680.00000000 187 72 126 0.000000 0.000000 0.000000 0.000000 -60.708740 0.000000 41.000000 0.986447 -0.100900 0.129390
-6080.00000000 18950.00000000 -690.00000000 187 72 126 0.000000 0.000000 0.000000 0.000000 -60.708740 0.000000 41.000000 0.996231 -0.083109 0.024825
-6080.00000000 18670.00000000 -50.00000000 187 72 126 0.000000 0.000000 0.000000 0.000000 -60.708740 0.000000 41.000000 0.990221 -0.028228 0.136621
-6090.00000000 18690.00000000 -30.00000000 187 72 126 0.000000 0.000000 0.000000 0.000000 -60.708740 0.000000 41.000000 0.937621 0.180896 0.296890
-6080.00000000 18620.00000000 -40.00000000 187 72 126 0.000000 0.000000 0.000000 0.000000 -60.708740 0.000000 41.000000 0.833576 0.227895 0.503205
-5900.00000000 18990.00000000 -730.00000000 187 72 126 0.000000 0.000000 0.000000 0.000000 -60.708740 0.000000 41.000000 0.943366 0.303659 -0.133610
-5900.00000000 18950.00000000 -720.00000000 187 72 126 0.000000 0.000000 0.000000 0.000000 -60.708740 0.000000 41.000000 -0.500602 0.865652 -0.006710
-5890.00000000 18950.00000000 -700.00000000 187 72 126 0.000000 0.000000 0.000000 0.000000 -60.708740 0.000000 41.000000 0.829793 -0.534822 0.159404
-5940.00000000 19000.00000000 -740.00000000 187 72 126 0.000000 0.000000 0.000000 0.000000 -60.708740 0.000000 41.000000 0.985898 -0.115918 -0.120698
-5940.00000000 19000.00000000 -750.00000000 187 72 126 0.000000 0.000000 0.000000 0.000000 -60.708740 0.000000 41.000000 0.980726 -0.195221 -0.008086
-5970.00000000 19060.00000000 -730.00000000 187 72 126 0.000000 0.000000 0.000000 0.000000 -60.708740 0.000000 41.000000 -0.309860 0.855582 0.414688
-5920.00000000 18980.00000000 -710.00000000 187 72 126 0.000000 0.000000 0.000000 0.000000 -60.708740 0.000000 41.000000 0.994806 -0.029549 0.097401
-5930.00000000 18990.00000000 -720.00000000 187 72 126 0.000000 0.000000 0.000000 0.000000 -60.708740 0.000000 41.000000 0.895532 -0.359693 -0.261999
-5940.00000000 18990.00000000 -720.00000000 187 72 126 0.000000 0.000000 0.000000 0.000000 -60.708740 0.000000 41.000000 0.980555 -0.189439 -0.051232
-5940.00000000 18990.00000000 -720.00000000 187 72 126 0.000000 0.000000 0.000000 0.000000 -60.708740 0.000000 41.000000 0.980555 -0.189439 -0.051232
-5950.00000000 18930.00000000 -740.00000000 187 72 126 0.000000 0.000000 0.000000 0.000000 -60.708740 0.000000 41.000000 0.241114 0.717039 0.654002
-5950.00000000 18890.00000000 -710.00000000 187 72 126 0.000000 0.000000 0.000000 0.000000 -60.708740 0.000000 41.000000 0.200720 0.866812 0.456452
-6000.00000000 18930.00000000 -760.00000000 187 72 126 0.000000 0.000000 0.000000 0.000000 -60.708740 0.000000 41.000000 0.617930 0.506804 0.601093
-6000.00000000 18940.00000000 -750.00000000 187 72 126 0.000000 0.000000 0.000000 0.000000 -60.708740 0.000000 41.000000 0.552319 0.812590 0.186124
-6070.00000000 18970.00000000 -720.00000000 187 72 126 0.000000 0.000000 0.000000 0.000000 -60.708740 0.000000 41.000000 0.977778 -0.074277 -0.196043
-6070.00000000 18960.00000000 -700.00000000 187 72 126 0.000000 0.000000 0.000000 0.000000 -60.708740 0.000000 41.000000 0.947462 0.209180 -0.241992
-6070.00000000 18960.00000000 -700.00000000 187 72 126 0.000000 0.000000 0.000000 0.000000 -60.708740 0.000000 41.000000 0.947462 0.209180 -0.241992
-6070.00000000 18960.00000000 -770.00000000 187 72 126 0.000000 0.000000 0.000000 0.000000 -60.708740 0.000000 41.000000 0.957798 0.249001 0.143604
-6060.00000000 18930.00000000 -730.00000000 187 72 126 0.000000 0.000000 0.000000 0.000000 -60.708740 0.000000 41.000000 0.841689 0.539823 0.012238
-6050.00000000 18920.00000000 -700.00000000 187 72 126 0.000000 0.000000 0.000000 0.000000 -60.708740 0.000000 41.000000 0.728385 0.482825 0.486143
-6050.00000000 18930.00000000 -720.00000000 187 72 126 0.000000 0.000000 0.000000 0.000000 -60.708740 0.000000 41.000000 0.754403 0.648522 0.101469
-6060.00000000 18930.00000000 -740.00000000 187 72 126 0.000000 0.000000 0.000000 0.000000 -60.708740 0.000000 41.000000 0.820373 0.561919 -0.105995
-6060.00000000 18920.00000000 -770.00000000 187 72 126 0.000000 0.000000 0.000000 0.000000 -60.708740 0.000000 41.000000 0.715951 0.563832 0.411713
-6070.00000000 18940.00000000 -770.00000000 187 72 126 0.000000 0.000000 0.000000 0.000000 -60.708740 0.000000 41.000000 0.809240 0.582135 0.079055
-6070.00000000 18950.00000000 -770.00000000 187 72 126 0.000000 0.000000 0.000000 0.000000 -60.708740 0.000000 41.000000 0.836289 0.540790 -0.090371
-6040.00000000 18920.00000000 -780.00000000 187 72 126 0.000000 0.000000 0.000000 0.000000 -60.708740 0.000000 41.000000 0.611374 0.693769 0.380667
-6040.00000000 18920.00000000 -790.00000000 187 72 126 0.000000 0.000000 0.000000 0.000000 -60.708740 0.000000 41.000000 0.700566 0.608688 0.372432
-6070.00000000 18950.00000000 -780.00000000 187 72 126 0.000000 0.000000 0.000000 0.000000 -60.708740 0.000000 41.000000 0.807544 0.578911 -0.112851
-6000.00000000 18900.00000000 -720.00000000 187 72 126 0.000000 0.000000 0.000000 0.000000 -60.708740 0.000000 41.000000 0.856228 0.513737 -0.054297
-6000.00000000 18900.00000000 -710.00000000 187 72 126 0.000000 0.000000 0.000000 0.000000 -60.708740 0.000000 41.000000 0.361587 0.863192 0.352355
-6010.00000000 18890.00000000 -750.00000000 187 72 126 0.000000 0.000000 0.000000 0.000000 -60.708740 0.000000 41.000000 0.284862 0.893362 0.347502
-5990.00000000 18890.00000000 -760.00000000 187 72 126 0.000000 0.000000 0.000000 0.000000 -60.708740 0.000000 41.000000 0.723602 0.452044 0.521590
-6040.00000000 18890.00000000 -710.00000000 187 72 126 0.000000 0.000000 0.000000 0.000000 -60.708740 0.000000 41.000000 0.859777 0.499271 -0.107293
-6080.00000000 18960.00000000 -710.00000000 187 72 126 0.000000 0.000000 0.000000 0.000000 -60.708740 0.000000 41.000000 0.937605 0.347308 0.016538
-6080.00000000 18950.00000000 -730.00000000 187 72 126 0.000000 0.000000 0.000000 0.000000 -60.708740 0.000000 41.000000 0.924753 0.373381 0.073606
-6080.00000000 18950.00000000 -730.00000000 187 72 126 0.000000 0.000000 0.000000 0.000000 -60.708740 0.000000 41.000000 0.924753 0.373381 0.073606
-5900.00000000 18690.00000000 -10.00000000 187 72 126 0.000000 0.000000 0.000000 0.000000 -60.708740 0.000000 41.000000 0.817938 -0.564246 0.112266
-5950.00000000 18680.00000000 70.00000000 187 72 126 0.000000 0.000000 0.000000 0.000000 -60.708740 0.000000 41.000000 0.968634 0.244307 -0.045424
-5940.00000000 18730.00000000 40.00000000 187 72 126 0.000000 0.000000 0.000000 0.000000 -60.708740 0.000000 41.000000 0.692395 0.545574 0.472163
-5940.00000000 18740.00000000 10.00000000 187 72 126 0.000000 0.000000 0.000000 0.000000 -60.708740 0.000000 41.000000 0.552255 0.599543 0.579277
-5930.00000000 18710.00000000 10.00000000 187 72 126 0.000000 0.000000 0.000000 0.000000 -60.708740 0.000000 41.000000 0.992567 -0.113533 -0.043839
-5940.00000000 18700.00000000 10.00000000 187 72 126 0.000000 0.000000 0.000000 0.000000 -60.708740 0.000000 41.000000 0.933600 0.158588 0.321313
-6030.00000000 18680.00000000 80.00000000 187 72 126 0.000000 0.000000 0.000000 0.000000 -60.708740 0.000000 41.000000 0.945185 0.169997 -0.278795
-5970.00000000 18590.00000000 90.00000000 187 72 126 0.000000 0.000000 0.000000 0.000000 -60.708740 0.000000 41.000000 0.338749 0.734227 0.588354
-5950.00000000 18590.00000000 90.00000000 187 72 126 0.000000 0.000000 0.000000 0.000000 -60.708740 0.000000 41.000000 0.154203 0.886308 0.436669
-5950.00000000 18590.00000000 90.00000000 187 72 126 0.000000 0.000000 0.000000 0.000000 -60.708740 0.000000 41.000000 0.154203 0.886308 0.436669
-5950.00000000 18590.00000000 90.00000000 187 72 126 0.000000 0.000000 0.000000 0.000000 -60.708740 0.000000 41.000000 0.154203 0.886308 0.436669
-5930.00000000 18650.00000000 0.00000000 187 72 126 0.000000 0.000000 0.000000 0.000000 -60.708740 0.000000 41.000000 0.650164 -0.669816 -0.358655
-5950.00000000 18580.00000000 50.00000000 187 72 126 0.000000 0.000000 0.000000 0.000000 -60.708740 0.000000 41.000000 -0.182148 0.963156 0.197873
-5970.00000000 18540.00000000 100.00000000 187 72 126 0.000000 0.000000 0.000000 0.000000 -60.708740 0.000000 41.000000 -0.078165 0.837078 0.541471
-5970.00000000 18540.00000000 100.00000000 187 72 126 0.000000 0.000000 0.000000 0.000000 -60.708740 0.000000 41.000000 -0.078165 0.837078 0.541471
-5980.00000000 18520.00000000 60.00000000 187 72 126 0.000000 0.000000 0.000000 0.000000 -60.708740 0.000000 41.000000 0.420814 0.820984 0.385878
-6050.00000000 18590.00000000 80.00000000 187 72 126 0.000000 0.000000 0.000000 0.000000 -60.708740 0.000000 41.000000 0.520427 0.634955 0.570954
-5990.00000000 18640.00000000 10.00000000 187 72 126 0.000000 0.000000 0.000000 0.000000 -60.708740 0.000000 41.000000 0.394614 0.615861 0.681905
-6070.00000000 18660.00000000 -10.00000000 187 72 126 0.000000 0.000000 0.000000 0.000000 -60.708740 0.000000 41.000000 0.999444 -0.015313 0.029606
-6070.00000000 18590.00000000 10.00000000 187 72 126 0.000000 0.000000 0.000000 0.000000 -60.708740 0.000000 41.000000 0.853827 0.407543 0.323865
-6020.00000000 18520.00000000 70.00000000 187 72 126 0.000000 0.000000 0.000000 0.000000 -60.708740 0.000000 41.000000 0.176909 0.983982 0.021969
-5990.00000000 18560.00000000 10.00000000 187 72 126 0.000000 0.000000 0.000000 0.000000 -60.708740 0.000000 41.000000 -0.169884 0.922430 0.346789
-5990.00000000 18560.00000000 0.00000000 187 72 126 0.000000 0.000000 0.000000 0.000000 -60.708740 0.000000 41.000000 0.382259 0.877837 0.288583
-6010.00000000 18540.00000000 -10.00000000 187 72 126 0.000000 0.000000 0.000000 0.000000 -60.708740 0.000000 41.000000 0.653486 0.725230 0.216789
-6020.00000000 18550.00000000 0.00000000 187 72 126 0.000000 0.000000 0.000000 0.000000 -60.708740 0.000000 41.000000 0.156466 0.864217 0.478171
-6070.00000000 18540.00000000 20.00000000 187 72 126 0.000000 0.000000 0.000000 0.000000 -60.708740 0.000000 41.000000 0.350101 0.769576 0.534024
-6030.00000000 18560.00000000 0.00000000 187 72 126 0.000000 0.000000 0.000000 0.000000 -60.708740 0.000000 41.000000 0.189053 0.901972 0.388209
-6030.00000000 18550.00000000 20.00000000 187 72 126 0.000000 0.000000 0.000000 0.000000 -60.708740 0.000000 41.000000 0.445642 0.609211 0.655945
-6040.00000000 18570.00000000 10.00000000 187 72 126 0.000000 0.000000 0.000000 0.000000 -60.708740 0.000000 41.000000 0.314281 0.945474 0.085474
-6030.00000000 18530.00000000 60.00000000 187 72 126 0.000000 0.000000 0.000000 0.000000 -60.708740 0.000000 41.000000 0.316151 0.904338 0.286741
-6070.00000000 18520.00000000 50.00000000 187 72 126 0.000000 0.000000 0.000000 0.000000 -60.708740 0.000000 41.000000 0.671836 0.709247 0.213553
-6080.00000000 18680.00000000 0.00000000 187 72 126 0.000000 0.000000 0.000000 0.000000 -60.708740 0.000000 41.000000 0.957524 -0.001217 0.288352
-6100.00000000 18650.00000000 0.00000000 187 72 126 0.000000 0.000000 0.000000 0.000000 -60.708740 0.000000 41.000000 0.930544 0.016686 0.365800
-6090.00000000 18600.00000000 -10.00000000 187 72 126 0.000000 0.000000 0.000000 0.000000 -60.708740 0.000000 41.000000 0.812341 0.539001 0.222664
-6100.00000000 18620.00000000 20.00000000 187 72 126 0.000000 0.000000 0.000000 0.000000 -60.708740 0.000000 41.000000 0.966167 0.061087 0.250580
-6090.00000000 18600.00000000 10.00000000 187 72 126 0.000000 0.000000 0.000000 0.000000 -60.708740 0.000000 41.000000 0.872356 0.328470 0.362081
-6090.00000000 18600.00000000 -10.00000000 187 72 126 0.000000 0.000000 0.000000 0.000000 -60.708740 0.000000 41.000000 0.812341 0.539001 0.222664
-6100.00000000 18620.00000000 10.00000000 187 72 126 0.000000 0.000000 0.000000 0.000000 -60.708740 0.000000 41.000000 0.901451 0.107282 0.419377
-6120.00000000 18640.00000000 60.00000000 187 72 126 0.000000 0.000000 0.000000 0.000000 -60.708740 0.000000 41.000000 0.975352 -0.179044 0.128962
-6080.00000000 18520.00000000 60.00000000 187 72 126 0.000000 0.000000 0.000000 0.000000 -60.708740 0.000000 41.000000 0.706629 0.553664 0.440604
-6080.00000000 18540.00000000 30.00000000 187 72 126 0.000000 0.000000 0.000000 0.000000 -60.708740 0.000000 41.000000 0.342461 0.915617 0.210635
-5900.00000000 18840.00000000 -270.00000000 187 72 126 0.000000 0.000000 0.000000 0.000000 -60.708740 0.000000 41.000000 0.756608 0.354812 0.549229
-5890.00000000 18850.00000000 -240.00000000 187 72 126 0.000000 0.000000 0.000000 0.000000 -60.708740 0.000000 41.000000 0.514112 0.818541 0.256279
-5870.00000000 18880.00000000 -350.00000000 187 72 126 0.000000 0.000000 0.000000 0.000000 -60.708740 0.000000 41.000000 0.901546 0.423851 -0.086979
-5880.00000000 18860.00000000 -300.00000000 187 72 126 0.000000 0.000000 0.000000 0.000000 -60.708740 0.000000 41.000000 0.827205 0.341911 0.445903
-5890.00000000 18860.00000000 -280.00000000 187 72 126 0.000000 0.000000 0.000000 0.000000 -60.708740 0.000000 41.000000 0.903361 0.328629 0.275577
-5890.00000000 18860.00000000 -280.00000000 187 72 126 0.000000 0.000000 0.000000 0.000000 -60.708740 0.000000 41.000000 0.903361 0.328629 0.275577
-5890.00000000 18860.00000000 -340.00000000 187 72 126 0.000000 0.000000 0.000000 0.000000 -60.708740 0.000000 41.000000 0.840464 0.530895 -0.108494
-6010.00000000 18840.00000000 -170.00000000 187 72 126 0.000000 0.000000 0.000000 0.000000 -60.708740 0.000000 41.000000 0.858963 -0.461824 -0.221134
-5950.00000000 18840.00000000 -170.00000000 187 72 126 0.000000 0.000000 0.000000 0.000000 -60.708740 0.000000 41.000000 -0.349763 0.824554 0.444721
-5980.00000000 18840.00000000 -230.00000000 187 72 126 0.000000 0.000000 0.000000 0.000000 -60.708740 0.000000 41.000000 -0.727808 0.455916 0.512284
-5960.00000000 18840.00000000 -220.00000000 187 72 126 0.000000 0.000000 0.000000 0.000000 -60.708740 0.000000 41.000000 -0.111038 0.892521 0.437124
-5970.00000000 18870.00000000 -260.00000000 187 72 126 0.000000 0.000000 0.000000 0.000000 -60.708740 0.000000 41.000000 -0.243539 0.740044 0.626916
-5960.00000000 18880.00000000 -210.00000000 187 72 126 0.000000 0.000000 0.000000 0.000000 -60.708740 0.000000 41.000000 -0.001380 0.738126 0.674661
-5980.00000000 18870.00000000 -270.00000000 187 72 126 0.000000 0.000000 0.000000 0.000000 -60.708740 0.000000 41.000000 -0.602301 0.788763 0.122828
-5940.00000000 18880.00000000 -290.00000000 187 72 126 0.000000 0.000000 0.000000 0.000000 -60.708740 0.000000 41.000000 0.053558 0.877526 0.476528
-5930.00000000 18890.00000000 -290.00000000 187 72 126 0.000000 0.000000 0.000000 0.000000 -60.708740 0.000000 41.000000 -0.080526 0.854708 0.512825
-5930.00000000 18880.00000000 -320.00000000 187 72 126 0.000000 0.000000 0.000000 0.000000 -60.708740 0.000000 41.000000 0.453077 0.763852 0.459620
-5910.00000000 18850.00000000 -310.00000000 187 72 126 0.000000 0.000000 0.000000 0.000000 -60.708740 0.000000 41.000000 0.968374 0.249011 -0.015638
-5910.00000000 18840.00000000 -300.00000000 187 72 126 0.000000 0.000000 0.000000 0.000000 -60.708740 0.000000 41.000000 0.854001 0.293899 0.429309
-5920.00000000 18870.00000000 -280.00000000 187 72 126 0.000000 0.000000 0.000000 0.000000 -60.708740 0.000000 41.000000 0.076481 0.987191 0.140019
-5910.00000000 18840.00000000 -330.00000000 187 72 126 0.000000 0.000000 0.000000 0.000000 -60.708740 0.000000 41.000000 0.978231 -0.097208 0.183341
-5960.00000000 18890.00000000 -310.00000000 187 72 126 0.000000 0.000000 0.000000 0.000000 -60.708740 0.000000 41.000000 -0.045060 0.877993 0.476547
-5980.00000000 18890.00000000 -310.00000000 187 72 126 0.000000 0.000000 0.000000 0.000000 -60.708740 0.000000 41.000000 -0.227662 0.879399 0.418124
-5950.00000000 18880.00000000 -310.00000000 187 72 126 0.000000 0.000000 0.000000 0.000000 -60.708740 0.000000 41.000000 0.087093 0.899966 0.427173
-5950.00000000 18890.00000000 -320.00000000 187 72 126 0.000000 0.000000 0.000000 0.000000 -60.708740 0.000000 41.000000 0.033793 0.885379 0.463641
-5950.00000000 18890.00000000 -330.00000000 187 72 126 0.000000 0.000000 0.000000 0.000000 -60.708740 0.000000 41.000000 -0.042503 0.867880 0.494952
-5980.00000000 18850.00000000 -290.00000000 187 72 126 0.000000 0.000000 0.000000 0.000000 -60.708740 0.000000 41.000000 0.780487 -0.611010 -0.132311
-5990.00000000 18880.00000000 -260.00000000 187 72 126 0.000000 0.000000 0.000000 0.000000 -60.708740 0.000000 41.000000 -0.355496 0.748326 0.560027
-5990.00000000 18840.00000000 -220.00000000 187 72 126 0.000000 0.000000 0.000000 0.000000 -60.708740 0.000000 41.000000 -0.561020 0.818826 -0.121579
-5990.00000000 18880.00000000 -320.00000000 187 72 126 0.000000 0.000000 0.000000 0.000000 -60.708740 0.000000 41.000000 0.688876 -0.709979 -0.146217
-6010.00000000 18860.00000000 -320.00000000 187 72 126 0.000000 0.000000 0.000000 0.000000 -60.708740 0.000000 41.000000 0.919144 -0.272713 -0.284256
-6000.00000000 18840.00000000 -290.00000000 187 72 126 0.000000 0.000000 0.000000 0.000000 -60.708740 0.000000 41.000000 0.858822 -0.502760 -0.098273
-6020.00000000 18860.00000000 -330.00000000 187 72 126 0.000000 0.000000 0.000000 0.000000 -60.708740 0.000000 41.000000 0.933658 -0.161834 -0.319519
-6000.00000000 18870.00000000 -290.00000000 187 72 126 0.000000 0.000000 0.000000 0.000000 -60.708740 0.000000 41.000000 0.783901 -0.620761 -0.012443
-6020.00000000 18860.00000000 -350.00000000 187 72 126 0.000000 0.000000 0.000000 0.000000 -60.708740 0.000000 41.000000 0.853437 -0.377751 -0.359096
-6020.00000000 18840.00000000 -320.00000000 187 72 126 0.000000 0.000000 0.000000 0.000000 -60.708740 0.000000 41.000000 0.983359 -0.176981 -0.041022
-5990.00000000 18840.00000000 -290.00000000 187 72 126 0.000000 0.000000 0.000000 0.000000 -60.708740 0.000000 41.000000 0.798729 -0.589081 -0.122541
-6020.00000000 18860.00000000 -340.00000000 187 72 126 0.000000 0.000000 0.000000 0.000000 -60.708740 0.000000 41.000000 0.887065 -0.219921 -0.405895
-5900.00000000 18930.00000000 -420.00000000 187 72 126 0.000000 0.000000 0.000000 0.000000 -60.708740 0.000000 41.000000 0.696392 0.647919 0.308610
-5890.00000000 18920.00000000 -440.00000000 187 72 126 0.000000 0.000000 0.000000 0.000000 -60.708740 0.000000 41.000000 0.857594 0.462709 0.224572
-5890.00000000 18940.00000000 -490.00000000 187 72 126 0.000000 0.000000 0.000000 0.000000 -60.708740 0.000000 41.000000 0.940577 0.289725 0.177130
-5890.00000000 18920.00000000 -490.00000000 187 72 126 0.000000 0.000000 0.000000 0.000000 -60.708740 0.000000 41.000000 0.885873 0.338406 0.317350
-5900.00000000 18980.00000000 -520.00000000 187 72 126 0.000000 0.000000 0.000000 0.000000 -60.708740 0.000000 41.000000 0.524211 0.836064 0.161867
-5900.00000000 18960.00000000 -510.00000000 187 72 126 0.000000 0.000000 0.000000 0.000000 -60.708740 0.000000 41.000000 0.242609 0.774783 0.583826
-5890.00000000 18850.00000000 -410.00000000 187 72 126 0.000000 0.000000 0.000000 0.000000 -60.708740 0.000000 41.000000 0.913509 -0.380278 -0.144534
-5890.00000000 18870.00000000 -410.00000000 187 72 126 0.000000 0.000000 0.000000 0.000000 -60.708740 0.000000 41.000000 0.967083 0.254115 -0.013248
-5890.00000000 18880.00000000 -380.00000000 187 72 126 0.000000 0.000000 0.000000 0.000000 -60.708740 0.000000 41.000000 0.841506 0.534988 -0.075210
-5880.00000000 18840.00000000 -360.00000000 187 72 126 0.000000 0.000000 0.000000 0.000000 -60.708740 0.000000 41.000000 0.924655 -0.380437 -0.016765
-5890.00000000 18860.00000000 -370.00000000 187 72 126 0.000000 0.000000 0.000000 0.000000 -60.708740 0.000000 41.000000 0.834070 0.517335 0.191550
-5900.00000000 18840.00000000 -440.00000000 187 72 126 0.000000 0.000000 0.000000 0.000000 -60.708740 0.000000 41.000000 0.814180 -0.579562 0.034913
-5880.00000000 18870.00000000 -380.00000000 187 72 126 0.000000 0.000000 0.000000 0.000000 -60.708740 0.000000 41.000000 0.881573 0.458532 -0.112149
-5890.00000000 18890.00000000 -480.00000000 187 72 126 0.000000 0.000000 0.000000 0.000000 -60.708740 0.000000 41.000000 0.899046 -0.426595 -0.098659
-5890.00000000 18900.00000000 -460.00000000 187 72 126 0.000000 0.000000 0.000000 0.000000 -60.708740 0.000000 41.000000 0.981464 0.068474 0.178994
-5880.00000000 18900.00000000 -470.00000000 187 72 126 0.000000 0.000000 0.000000 0.000000 -60.708740 0.000000 41.000000 0.900036 0.430214 0.069654
-5880.00000000 18900.00000000 -450.00000000 187 72 126 0.000000 0.000000 0.000000 0.000000 -60.708740 0.000000 41.000000 0.962899 0.268630 0.025759
-5890.00000000 18900.00000000 -470.00000000 187 72 126 0.000000 0.000000 0.000000 0.000000 -60.708740 0.000000 41.000000 0.962696 0.267070 0.043477
-5880.00000000 18890.00000000 -450.00000000 187 72 126 0.000000 0.000000 0.000000 0.000000 -60.708740 0.000000 41.000000 0.913705 0.356045 0.195896
-5880.00000000 18900.00000000 -470.00000000 187 72 126 0.000000 0.000000 0.000000 0.000000 -60.708740 0.000000 41.000000 0.900036 0.430214 0.069654
-5890.00000000 18900.00000000 -500.00000000 187 72 126 0.000000 0.000000 0.000000 0.000000 -60.708740 0.000000 41.000000 0.956285 0.124962 0.264392
-5900.00000000 18880.00000000 -510.00000000 187 72 126 0.000000 0.000000 0.000000 0.000000 -60.708740 0.000000 41.000000 -0.700043 0.668438 0.251257
-5900.00000000 18900.00000000 -520.00000000 187 72 126 0.000000 0.000000 0.000000 0.000000 -60.708740 0.000000 41.000000 0.948410 -0.254451 -0.189138
-5890.00000000 18880.00000000 -490.00000000 187 72 126 0.000000 0.000000 0.000000 0.000000 -60.708740 0.000000 41.000000 0.853185 -0.441197 0.278246
-5900.00000000 18840.00000000 -480.00000000 187 72 126 0.000000 0.000000 0.000000 0.000000 -60.708740 0.000000 41.000000 -0.762493 0.457496 0.457496
-5890.00000000 18960.00000000 -600.00000000 187 72 126 0.000000 0.000000 0.000000 0.000000 -60.708740 0.000000 41.000000 0.795266 0.395213 0.459738
-5900.00000000 18950.00000000 -560.00000000 187 72 126 0.000000 0.000000 0.000000 0.000000 -60.708740 0.000000 41.000000 0.897753 0.356439 0.258825
-5890.00000000 18940.00000000 -550.00000000 187 72 126 0.000000 0.000000 0.000000 0.000000 -60.708740 0.000000 41.000000 0.945823 0.317869 0.066169
-5900.00000000 18950.00000000 -540.00000000 187 72 126 0.000000 0.000000 0.000000 0.000000 -60.708740 0.000000 41.000000 0.666464 0.663205 0.340565
-5900.00000000 18920.00000000 -580.00000000 187 72 126 0.000000 0.000000 0.000000 0.000000 -60.708740 0.000000 41.000000 0.986881 -0.119946 -0.108070
-5900.00000000 18920.00000000 -580.00000000 187 72 126 0.000000 0.000000 0.000000 0.000000 -60.708740 0.000000 41.000000 0.986881 -0.119946 -0.108070
-5880.00000000 18950.00000000 -590.00000000 187 72 126 0.000000 0.000000 0.000000 0.000000 -60.708740 0.000000 41.000000 0.844720 0.509208 0.164787
-5880.00000000 18960.00000000 -630.00000000 187 72 126 0.000000 0.000000 0.000000 0.000000 -60.708740 0.000000 41.000000 0.994314 0.083696 -0.065841
-5880.00000000 18960.00000000 -610.00000000 187 72 126 0.000000 0.000000 0.000000 0.000000 -60.708740 0.000000 41.000000 0.790286 0.596076 0.141923
-5890.00000000 18990.00000000 -630.00000000 187 72 126 0.000000 0.000000 0.000000 0.000000 -60.708740 0.000000 41.000000 0.923416 0.372892 0.090850
-5880.00000000 18960.00000000 -620.00000000 187 72 126 0.000000 0.000000 0.000000 0.000000 -60.708740 0.000000 41.000000 0.817863 0.573767 -0.043488
-5870.00000000 18970.00000000 -690.00000000 187 72 126 0.000000 0.000000 0.000000 0.000000 -60.708740 0.000000 41.000000 0.932836 0.170489 -0.317414
-5900.00000000 18920.00000000 -620.00000000 187 72 126 0.000000 0.000000 0.000000 0.000000 -60.708740 0.000000 41.000000 -0.577350 0.577350 0.577350
-5890.00000000 18940.00000000 -690.00000000 187 72 126 0.000000 0.000000 0.000000 0.000000 -60.708740 0.000000 41.000000 0.906621 -0.364099 -0.213237
-5890.00000000 18850.00000000 -550.00000000 187 72 126 0.000000 0.000000 0.000000 0.000000 -60.708740 0.000000 41.000000 -0.139293 0.910330 0.389739
-5900.00000000 18860.00000000 -590.00000000 187 72 126 0.000000 0.000000 0.000000 0.000000 -60.708740 0.000000 41.000000 -0.084037 0.991181 0.102457
-5890.00000000 18870.00000000 -600.00000000 187 72 126 0.000000 0.000000 0.000000 0.000000 -60.708740 0.000000 41.000000 0.816260 -0.530338 -0.229045
-5900.00000000 18910.00000000 -570.00000000 187 72 126 0.000000 0.000000 0.000000 0.000000 -60.708740 0.000000 41.000000 0.942167 -0.222744 -0.250414
-5900.00000000 18880.00000000 -530.00000000 187 72 126 0.000000 0.000000 0.000000 0.000000 -60.708740 0.000000 41.000000 0.447475 -0.776166 -0.444221
-5900.00000000 18890.00000000 -540.00000000 187 72 126 0.000000 0.000000 0.000000 0.000000 -60.708740 0.000000 41.000000 0.845114 -0.495620 0.200357
-5900.00000000 18870.00000000 -630.00000000 187 72 126 0.000000 0.000000 0.000000 0.000000 -60.708740 0.000000 41.000000 -0.488649 0.751894 0.442581
-5910.00000000 19000.00000000 -600.00000000 187 72 126 0.000000 0.000000 0.000000 0.000000 -60.708740 0.000000 41.000000 0.516705 0.737914 0.434164
-5930.00000000 19000.00000000 -600.00000000 187 72 126 0.000000 0.000000 0.000000 0.000000 -60.708740 0.000000 41.000000 0.201866 0.968187 0.147864
-5950.00000000 19000.00000000 -590.00000000 187 72 126 0.000000 0.000000 0.000000 0.000000 -60.708740 0.000000 41.000000 -0.362378 0.932010 0.006358
-5910.00000000 19010.00000000 -620.00000000 187 72 126 0.000000 0.000000 0.000000 0.000000 -60.708740 0.000000 41.000000 0.011981 0.882621 0.469932
-5960.00000000 19050.00000000 -650.00000000 187 72 126 0.000000 0.000000 0.000000 0.000000 -60.708740 0.000000 41.000000 -0.072228 0.836997 0.542419
-5960.00000000 19050.00000000 -660.00000000 187 72 126 0.000000 0.000000 0.000000 0.000000 -60.708740 0.000000 41.000000 -0.145669 0.940720 0.306312
-5950.00000000 19000.00000000 -610.00000000 187 72 126 0.000000 0.000000 0.000000 0.000000 -60.708740 0.000000 41.000000 -0.161784 0.766583 0.621431
-6000.00000000 19060.00000000 -680.00000000 187 72 126 0.000000 0.000000 0.000000 0.000000 -60.708740 0.000000 41.000000 0.540500 -0.722320 -0.431408
-5990.00000000 19040.00000000 -640.00000000 187 72 126 0.000000 0.000000 0.000000 0.000000 -60.708740 0.000000 41.000000 -0.493619 0.608180 0.621657
-6030.00000000 19000.00000000 -620.00000000 187 72 126 0.000000 0.000000 0.000000 0.000000 -60.708740 0.000000 41.000000 0.698013 -0.544750 -0.464786
-5930.00000000 18930.00000000 -380.00000000 187 72 126 0.000000 0.000000 0.000000 0.000000 -60.708740 0.000000 41.000000 0.360941 0.830636 0.423987
-5930.00000000 18920.00000000 -380.00000000 187 72 126 0.000000 0.000000 0.000000 0.000000 -60.708740 0.000000 41.000000 0.470330 0.865466 0.172504
-5930.00000000 18920.00000000 -370.00000000 187 72 126 0.000000 0.000000 0.000000 0.000000 -60.708740 0.000000 41.000000 0.384954 0.871853 0.302790
-5910.00000000 18930.00000000 -410.00000000 187 72 126 0.000000 0.000000 0.000000 0.000000 -60.708740 0.000000 41.000000 0.543127 0.686846 0.482965
-5920.00000000 18920.00000000 -400.00000000 187 72 126 0.000000 0.000000 0.000000 0.000000 -60.708740 0.000000 41.000000 0.579588 0.673124 0.459328
-5960.00000000 18920.00000000 -370.00000000 187 72 126 0.000000 0.000000 0.000000 0.000000 -60.708740 0.000000 41.000000 -0.504695 0.862244 -0.042631
-5960.00000000 18940.00000000 -420.00000000 187 72 126 0.000000 0.000000 0.000000 0.000000 -60.708740 0.000000 41.000000 -0.530255 0.763762 0.368098
-5970.00000000 18930.00000000 -430.00000000 187 72 126 0.000000 0.000000 0.000000 0.000000 -60.708740 0.000000 41.000000 -0.361183 0.845888 0.392454
-5930.00000000 18960.00000000 -470.00000000 187 72 126 0.000000 0.000000 0.000000 0.000000 -60.708740 0.000000 41.000000 0.235491 0.849286 0.472501
-5930.00000000 18960.00000000 -480.00000000 187 72 126 0.000000 0.000000 0.000000 0.000000 -60.708740 0.000000 41.000000 -0.078042 0.958253 0.275066
-5930.00000000 18970.00000000 -470.00000000 187 72 126 0.000000 0.000000 0.000000 0.000000 -60.708740 0.000000 41.000000 -0.131846 0.897401 0.421056
-5920.00000000 18960.00000000 -510.00000000 187 72 126 0.000000 0.000000 0.000000 0.000000 -60.708740 0.000000 41.000000 0.187006 0.804279 0.564060
-5940.00000000 18960.00000000 -510.00000000 187 72 126 0.000000 0.000000 0.000000 0.000000 -60.708740 0.000000 41.000000 0.207007 0.917969 0.338350
-5910.00000000 18960.00000000 -510.00000000 187 72 126 0.000000 0.000000 0.000000 0.000000 -60.708740 0.000000 41.000000 0.589070 0.656200 0.471591
-5940.00000000 18950.00000000 -450.00000000 187 72 126 0.000000 0.000000 0.000000 0.000000 -60.708740 0.000000 41.000000 -0.322047 0.726629 0.606873
-5920.00000000 18930.00000000 -490.00000000 187 72 126 0.000000 0.000000 0.000000 0.000000 -60.708740 0.000000 41.000000 0.623857 0.780873 0.032244
-5920.00000000 18910.00000000 -400.00000000 187 72 126 0.000000 0.000000 0.000000 0.000000 -60.708740 0.000000 41.000000 0.220136 0.974194 0.049865
-5910.00000000 18870.00000000 -510.00000000 187 72 126 0.000000 0.000000 0.000000 0.000000 -60.708740 0.000000 41.000000 0.797589 -0.576625 -0.177074
