//X Y Z R G B PointSourceId ScanDirectionFlag NumberOfReturns ReturnNumber GpsTime Intensity Classification Nx Ny Nz
3540.00000000 -16120.00000000 540.00000000 39 164 154 0.000000 0.000000 0.000000 0.000000 -60.708740 0.000000 156.000000 0.046383 0.279554 0.959009
3580.00000000 -16180.00000000 600.00000000 39 164 154 0.000000 0.000000 0.000000 0.000000 -60.708740 0.000000 156.000000 -0.166299 0.691131 0.703337
3580.00000000 -16180.00000000 600.00000000 39 164 154 0.000000 0.000000 0.000000 0.000000 -60.708740 0.000000 156.000000 -0.166299 0.691131 0.703337
3580.00000000 -16180.00000000 600.00000000 39 164 154 0.000000 0.000000 0.000000 0.000000 -60.708740 0.000000 156.000000 -0.166299 0.691131 0.703337
3550.00000000 -16160.00000000 610.00000000 39 164 154 0.000000 0.000000 0.000000 0.000000 -60.708740 0.000000 156.000000 0.279473 0.627617 0.726630
3550.00000000 -16140.00000000 610.00000000 39 164 154 0.000000 0.000000 0.000000 0.000000 -60.708740 0.000000 156.000000 0.074247 0.392832 0.916608
3540.00000000 -16160.00000000 580.00000000 39 164 154 0.000000 0.000000 0.000000 0.000000 -60.708740 0.000000 156.000000 0.064638 0.754109 0.653561
3550.00000000 -16160.00000000 610.00000000 39 164 154 0.000000 0.000000 0.000000 0.000000 -60.708740 0.000000 156.000000 0.279473 0.627617 0.726630
3540.00000000 -16180.00000000 620.00000000 39 164 154 0.000000 0.000000 0.000000 0.000000 -60.708740 0.000000 156.000000 0.106914 0.345103 0.932455
3550.00000000 -16180.00000000 620.00000000 39 164 154 0.000000 0.000000 0.000000 0.000000 -60.708740 0.000000 156.000000 -0.112902 0.484478 0.867487
3540.00000000 -16190.00000000 650.00000000 39 164 154 0.000000 0.000000 0.000000 0.000000 -60.708740 0.000000 156.000000 0.276604 -0.679518 -0.679518
3550.00000000 -16180.00000000 620.00000000 39 164 154 0.000000 0.000000 0.000000 0.000000 -60.708740 0.000000 156.000000 -0.112902 0.484478 0.867487
3570.00000000 -16180.00000000 650.00000000 39 164 154 0.000000 0.000000 0.000000 0.000000 -60.708740 0.000000 156.000000 0.089052 0.496145 0.863661
3570.00000000 -16190.00000000 600.00000000 39 164 154 0.000000 0.000000 0.000000 0.000000 -60.708740 0.000000 156.000000 0.165502 0.467212 0.868517
3570.00000000 -16170.00000000 590.00000000 39 164 154 0.000000 0.000000 0.000000 0.000000 -60.708740 0.000000 156.000000 -0.227204 0.561055 0.795987
3540.00000000 -16170.00000000 590.00000000 39 164 154 0.000000 0.000000 0.000000 0.000000 -60.708740 0.000000 156.000000 0.071861 0.320110 0.944651
3570.00000000 -16180.00000000 600.00000000 39 164 154 0.000000 0.000000 0.000000 0.000000 -60.708740 0.000000 156.000000 -0.315925 0.656152 0.685314
3540.00000000 -16130.00000000 540.00000000 39 164 154 0.000000 0.000000 0.000000 0.000000 -60.708740 0.000000 156.000000 0.020304 0.496765 0.867647
3680.00000000 -16060.00000000 330.00000000 39 164 154 0.000000 0.000000 0.000000 0.000000 -60.708740 0.000000 156.000000 -0.141644 0.292732 0.945645
3660.00000000 -16070.00000000 320.00000000 39 164 154 0.000000 0.000000 0.000000 0.000000 -60.708740 0.000000 156.000000 -0.159319 0.290042 0.943659
3650.00000000 -16050.00000000 340.00000000 39 164 154 0.000000 0.000000 0.000000 0.000000 -60.708740 0.000000 156.000000 -0.025703 0.482953 0.875269
3640.00000000 -16120.00000000 340.00000000 39 164 154 0.000000 0.000000 0.000000 0.000000 -60.708740 0.000000 156.000000 -0.419363 0.425790 0.801771
3630.00000000 -16120.00000000 340.00000000 39 164 154 0.000000 0.000000 0.000000 0.000000 -60.708740 0.000000 156.000000 -0.545634 0.442809 0.711480
3620.00000000 -16090.00000000 330.00000000 39 164 154 0.000000 0.000000 0.000000 0.000000 -60.708740 0.000000 156.000000 -0.569655 0.411143 0.711656
3660.00000000 -16190.00000000 410.00000000 39 164 154 0.000000 0.000000 0.000000 0.000000 -60.708740 0.000000 156.000000 0.145677 0.153148 0.977407
3670.00000000 -16200.00000000 410.00000000 39 164 154 0.000000 0.000000 0.000000 0.000000 -60.708740 0.000000 156.000000 0.330719 0.312761 0.890396
3680.00000000 -16150.00000000 360.00000000 39 164 154 0.000000 0.000000 0.000000 0.000000 -60.708740 0.000000 156.000000 -0.106516 0.397014 0.911611
3680.00000000 -16150.00000000 370.00000000 39 164 154 0.000000 0.000000 0.000000 0.000000 -60.708740 0.000000 156.000000 0.350297 0.584915 0.731551
3670.00000000 -16140.00000000 350.00000000 39 164 154 0.000000 0.000000 0.000000 0.000000 -60.708740 0.000000 156.000000 0.336859 0.649308 0.681854
3660.00000000 -16140.00000000 350.00000000 39 164 154 0.000000 0.000000 0.000000 0.000000 -60.708740 0.000000 156.000000 0.033384 0.160012 0.986550
3690.00000000 -16180.00000000 380.00000000 39 164 154 0.000000 0.000000 0.000000 0.000000 -60.708740 0.000000 156.000000 -0.064911 0.156967 0.985468
3690.00000000 -16170.00000000 370.00000000 39 164 154 0.000000 0.000000 0.000000 0.000000 -60.708740 0.000000 156.000000 0.008382 0.247877 0.968755
3670.00000000 -16180.00000000 370.00000000 39 164 154 0.000000 0.000000 0.000000 0.000000 -60.708740 0.000000 156.000000 0.104657 0.259704 0.960000
3690.00000000 -16190.00000000 370.00000000 39 164 154 0.000000 0.000000 0.000000 0.000000 -60.708740 0.000000 156.000000 0.064485 0.203190 0.977014
3680.00000000 -16190.00000000 380.00000000 39 164 154 0.000000 0.000000 0.000000 0.000000 -60.708740 0.000000 156.000000 -0.060461 0.535711 0.842234
3670.00000000 -16200.00000000 370.00000000 39 164 154 0.000000 0.000000 0.000000 0.000000 -60.708740 0.000000 156.000000 -0.026668 0.067203 0.997383
3680.00000000 -16190.00000000 370.00000000 39 164 154 0.000000 0.000000 0.000000 0.000000 -60.708740 0.000000 156.000000 -0.065128 0.370831 0.926414
3630.00000000 -16140.00000000 380.00000000 39 164 154 0.000000 0.000000 0.000000 0.000000 -60.708740 0.000000 156.000000 0.123923 0.526307 0.841216
3650.00000000 -16150.00000000 380.00000000 39 164 154 0.000000 0.000000 0.000000 0.000000 -60.708740 0.000000 156.000000 0.012431 0.614658 0.788696
3640.00000000 -16180.00000000 360.00000000 39 164 154 0.000000 0.000000 0.000000 0.000000 -60.708740 0.000000 156.000000 -0.062161 0.471040 0.879919
3640.00000000 -16180.00000000 390.00000000 39 164 154 0.000000 0.000000 0.000000 0.000000 -60.708740 0.000000 156.000000 0.166280 0.684952 0.709360
3630.00000000 -16170.00000000 360.00000000 39 164 154 0.000000 0.000000 0.000000 0.000000 -60.708740 0.000000 156.000000 -0.169200 0.745396 0.644791
3600.00000000 -16050.00000000 320.00000000 39 164 154 0.000000 0.000000 0.000000 0.000000 -60.708740 0.000000 156.000000 -0.267554 0.748835 0.606351
3610.00000000 -16050.00000000 340.00000000 39 164 154 0.000000 0.000000 0.000000 0.000000 -60.708740 0.000000 156.000000 -0.321180 0.585872 0.744041
3590.00000000 -16060.00000000 340.00000000 39 164 154 0.000000 0.000000 0.000000 0.000000 -60.708740 0.000000 156.000000 0.488738 -0.562636 -0.666766
3590.00000000 -16060.00000000 340.00000000 39 164 154 0.000000 0.000000 0.000000 0.000000 -60.708740 0.000000 156.000000 0.488738 -0.562636 -0.666766
3590.00000000 -16060.00000000 320.00000000 39 164 154 0.000000 0.000000 0.000000 0.000000 -60.708740 0.000000 156.000000 0.677477 -0.664542 -0.315293
3600.00000000 -16050.00000000 330.00000000 39 164 154 0.000000 0.000000 0.000000 0.000000 -60.708740 0.000000 156.000000 -0.390078 0.816777 0.425106
3590.00000000 -16050.00000000 340.00000000 39 164 154 0.000000 0.000000 0.000000 0.000000 -60.708740 0.000000 156.000000 0.589632 -0.562600 -0.579495
3600.00000000 -16050.00000000 320.00000000 39 164 154 0.000000 0.000000 0.000000 0.000000 -60.708740 0.000000 156.000000 -0.267554 0.748835 0.606351
3580.00000000 -16080.00000000 350.00000000 39 164 154 0.000000 0.000000 0.000000 0.000000 -60.708740 0.000000 156.000000 0.610897 -0.254146 -0.749810
3600.00000000 -16180.00000000 370.00000000 39 164 154 0.000000 0.000000 0.000000 0.000000 -60.708740 0.000000 156.000000 -0.476626 0.345912 0.808191
3610.00000000 -16200.00000000 370.00000000 39 164 154 0.000000 0.000000 0.000000 0.000000 -60.708740 0.000000 156.000000 -0.280936 0.470296 0.836599
3600.00000000 -16170.00000000 320.00000000 39 164 154 0.000000 0.000000 0.000000 0.000000 -60.708740 0.000000 156.000000 -0.160562 0.808814 0.565720
3560.00000000 -16140.00000000 350.00000000 39 164 154 0.000000 0.000000 0.000000 0.000000 -60.708740 0.000000 156.000000 0.659176 -0.265259 -0.703651
3550.00000000 -16170.00000000 330.00000000 39 164 154 0.000000 0.000000 0.000000 0.000000 -60.708740 0.000000 156.000000 -0.644560 0.405957 0.647874
3540.00000000 -16180.00000000 340.00000000 39 164 154 0.000000 0.000000 0.000000 0.000000 -60.708740 0.000000 156.000000 -0.627784 0.664225 0.405823
3510.00000000 -15950.00000000 610.00000000 39 164 154 0.000000 0.000000 0.000000 0.000000 -60.708740 0.000000 156.000000 -0.326793 0.505334 0.798651
3510.00000000 -15950.00000000 600.00000000 39 164 154 0.000000 0.000000 0.000000 0.000000 -60.708740 0.000000 156.000000 -0.188772 0.384749 0.903512
3490.00000000 -15930.00000000 580.00000000 39 164 154 0.000000 0.000000 0.000000 0.000000 -60.708740 0.000000 156.000000 -0.650926 0.580283 0.489456
3530.00000000 -15910.00000000 570.00000000 39 164 154 0.000000 0.000000 0.000000 0.000000 -60.708740 0.000000 156.000000 -0.283049 0.692430 0.663645
3480.00000000 -15950.00000000 570.00000000 39 164 154 0.000000 0.000000 0.000000 0.000000 -60.708740 0.000000 156.000000 -0.503128 0.657937 0.560340
3470.00000000 -15910.00000000 550.00000000 39 164 154 0.000000 0.000000 0.000000 0.000000 -60.708740 0.000000 156.000000 -0.343744 0.627210 0.698891
3460.00000000 -15940.00000000 540.00000000 39 164 154 0.000000 0.000000 0.000000 0.000000 -60.708740 0.000000 156.000000 0.508478 -0.410379 -0.756994
3480.00000000 -15950.00000000 520.00000000 39 164 154 0.000000 0.000000 0.000000 0.000000 -60.708740 0.000000 156.000000 -0.380390 0.637276 0.670211
3480.00000000 -15950.00000000 520.00000000 39 164 154 0.000000 0.000000 0.000000 0.000000 -60.708740 0.000000 156.000000 -0.380390 0.637276 0.670211
3520.00000000 -15970.00000000 630.00000000 39 164 154 0.000000 0.000000 0.000000 0.000000 -60.708740 0.000000 156.000000 -0.162642 0.369126 0.915037
3500.00000000 -15980.00000000 640.00000000 39 164 154 0.000000 0.000000 0.000000 0.000000 -60.708740 0.000000 156.000000 -0.083887 0.280054 0.956312
3520.00000000 -15960.00000000 620.00000000 39 164 154 0.000000 0.000000 0.000000 0.000000 -60.708740 0.000000 156.000000 -0.282783 0.733318 0.618287
3500.00000000 -15960.00000000 580.00000000 39 164 154 0.000000 0.000000 0.000000 0.000000 -60.708740 0.000000 156.000000 -0.270183 0.371689 0.888171
3500.00000000 -15970.00000000 590.00000000 39 164 154 0.000000 0.000000 0.000000 0.000000 -60.708740 0.000000 156.000000 -0.192902 0.809583 0.554405
3500.00000000 -15980.00000000 600.00000000 39 164 154 0.000000 0.000000 0.000000 0.000000 -60.708740 0.000000 156.000000 -0.505105 0.679627 0.531955
3500.00000000 -15960.00000000 580.00000000 39 164 154 0.000000 0.000000 0.000000 0.000000 -60.708740 0.000000 156.000000 -0.270183 0.371689 0.888171
3490.00000000 -15980.00000000 610.00000000 39 164 154 0.000000 0.000000 0.000000 0.000000 -60.708740 0.000000 156.000000 -0.121588 0.824748 0.552274
3490.00000000 -16030.00000000 630.00000000 39 164 154 0.000000 0.000000 0.000000 0.000000 -60.708740 0.000000 156.000000 -0.237535 0.832138 0.501122
3480.00000000 -15960.00000000 580.00000000 39 164 154 0.000000 0.000000 0.000000 0.000000 -60.708740 0.000000 156.000000 -0.076876 0.694788 0.715095
3470.00000000 -15990.00000000 590.00000000 39 164 154 0.000000 0.000000 0.000000 0.000000 -60.708740 0.000000 156.000000 0.643626 -0.643626 -0.414116
3460.00000000 -16000.00000000 620.00000000 39 164 154 0.000000 0.000000 0.000000 0.000000 -60.708740 0.000000 156.000000 0.656956 -0.456359 -0.600120
3480.00000000 -16020.00000000 580.00000000 39 164 154 0.000000 0.000000 0.000000 0.000000 -60.708740 0.000000 156.000000 -0.112096 0.822526 0.557571
3510.00000000 -15990.00000000 560.00000000 39 164 154 0.000000 0.000000 0.000000 0.000000 -60.708740 0.000000 156.000000 -0.332034 0.805461 0.490902
3500.00000000 -16020.00000000 530.00000000 39 164 154 0.000000 0.000000 0.000000 0.000000 -60.708740 0.000000 156.000000 0.654201 -0.533115 -0.536479
3500.00000000 -16010.00000000 530.00000000 39 164 154 0.000000 0.000000 0.000000 0.000000 -60.708740 0.000000 156.000000 -0.052088 0.572967 0.817921
3510.00000000 -16000.00000000 560.00000000 39 164 154 0.000000 0.000000 0.000000 0.000000 -60.708740 0.000000 156.000000 -0.289200 0.309752 0.905769
3470.00000000 -15970.00000000 540.00000000 39 164 154 0.000000 0.000000 0.000000 0.000000 -60.708740 0.000000 156.000000 0.661945 -0.413093 -0.625446
3470.00000000 -15970.00000000 550.00000000 39 164 154 0.000000 0.000000 0.000000 0.000000 -60.708740 0.000000 156.000000 -0.509049 0.414114 0.754572
3460.00000000 -15970.00000000 540.00000000 39 164 154 0.000000 0.000000 0.000000 0.000000 -60.708740 0.000000 156.000000 0.578566 -0.266424 -0.770896
3480.00000000 -15990.00000000 520.00000000 39 164 154 0.000000 0.000000 0.000000 0.000000 -60.708740 0.000000 156.000000 -0.588315 0.662063 0.464282
3460.00000000 -15980.00000000 520.00000000 39 164 154 0.000000 0.000000 0.000000 0.000000 -60.708740 0.000000 156.000000 -0.216789 0.725230 0.653486
3470.00000000 -15960.00000000 520.00000000 39 164 154 0.000000 0.000000 0.000000 0.000000 -60.708740 0.000000 156.000000 -0.614196 0.693235 0.377080
3480.00000000 -16000.00000000 550.00000000 39 164 154 0.000000 0.000000 0.000000 0.000000 -60.708740 0.000000 156.000000 -0.262217 0.710370 0.653159
3480.00000000 -16000.00000000 550.00000000 39 164 154 0.000000 0.000000 0.000000 0.000000 -60.708740 0.000000 156.000000 -0.262217 0.710370 0.653159
3460.00000000 -16020.00000000 500.00000000 39 164 154 0.000000 0.000000 0.000000 0.000000 -60.708740 0.000000 156.000000 -0.557225 0.470211 0.684399
3460.00000000 -16030.00000000 510.00000000 39 164 154 0.000000 0.000000 0.000000 0.000000 -60.708740 0.000000 156.000000 -0.582790 0.345778 0.735387
3440.00000000 -15910.00000000 490.00000000 39 164 154 0.000000 0.000000 0.000000 0.000000 -60.708740 0.000000 156.000000 -0.524965 0.521610 0.672558
3370.00000000 -15950.00000000 530.00000000 39 164 154 0.000000 0.000000 0.000000 0.000000 -60.708740 0.000000 156.000000 0.789109 -0.375997 -0.485730
3370.00000000 -15930.00000000 500.00000000 39 164 154 0.000000 0.000000 0.000000 0.000000 -60.708740 0.000000 156.000000 -0.819067 0.522907 0.236002
3370.00000000 -15940.00000000 510.00000000 39 164 154 0.000000 0.000000 0.000000 0.000000 -60.708740 0.000000 156.000000 -0.370589 0.815933 0.443753
3380.00000000 -15930.00000000 500.00000000 39 164 154 0.000000 0.000000 0.000000 0.000000 -60.708740 0.000000 156.000000 0.840361 -0.384838 -0.381697
3370.00000000 -15930.00000000 490.00000000 39 164 154 0.000000 0.000000 0.000000 0.000000 -60.708740 0.000000 156.000000 -0.391510 0.436254 0.810186
3370.00000000 -15930.00000000 490.00000000 39 164 154 0.000000 0.000000 0.000000 0.000000 -60.708740 0.000000 156.000000 -0.391510 0.436254 0.810186
3370.00000000 -15930.00000000 490.00000000 39 164 154 0.000000 0.000000 0.000000 0.000000 -60.708740 0.000000 156.000000 -0.391510 0.436254 0.810186
3420.00000000 -15980.00000000 600.00000000 39 164 154 0.000000 0.000000 0.000000 0.000000 -60.708740 0.000000 156.000000 -0.611999 0.691179 0.384355
3420.00000000 -15970.00000000 590.00000000 39 164 154 0.000000 0.000000 0.000000 0.000000 -60.708740 0.000000 156.000000 -0.622665 0.713235 0.321845
3430.00000000 -16010.00000000 610.00000000 39 164 154 0.000000 0.000000 0.000000 0.000000 -60.708740 0.000000 156.000000 0.026709 0.664912 0.746444
3410.00000000 -15970.00000000 560.00000000 39 164 154 0.000000 0.000000 0.000000 0.000000 -60.708740 0.000000 156.000000 -0.223312 0.660567 0.716786
3430.00000000 -15970.00000000 520.00000000 39 164 154 0.000000 0.000000 0.000000 0.000000 -60.708740 0.000000 156.000000 -0.162418 0.832950 0.528975
3430.00000000 -15970.00000000 520.00000000 39 164 154 0.000000 0.000000 0.000000 0.000000 -60.708740 0.000000 156.000000 -0.162418 0.832950 0.528975
3440.00000000 -16020.00000000 550.00000000 39 164 154 0.000000 0.000000 0.000000 0.000000 -60.708740 0.000000 156.000000 -0.447955 0.447955 0.773740
3420.00000000 -16020.00000000 520.00000000 39 164 154 0.000000 0.000000 0.000000 0.000000 -60.708740 0.000000 156.000000 -0.599318 0.541918 0.589188
3370.00000000 -15960.00000000 540.00000000 39 164 154 0.000000 0.000000 0.000000 0.000000 -60.708740 0.000000 156.000000 -0.586327 0.572809 0.572809
3400.00000000 -15980.00000000 560.00000000 39 164 154 0.000000 0.000000 0.000000 0.000000 -60.708740 0.000000 156.000000 -0.161317 0.791508 0.589485
3390.00000000 -15970.00000000 500.00000000 39 164 154 0.000000 0.000000 0.000000 0.000000 -60.708740 0.000000 156.000000 0.653050 -0.491886 -0.575825
3390.00000000 -15970.00000000 500.00000000 39 164 154 0.000000 0.000000 0.000000 0.000000 -60.708740 0.000000 156.000000 0.653050 -0.491886 -0.575825
3370.00000000 -15990.00000000 520.00000000 39 164 154 0.000000 0.000000 0.000000 0.000000 -60.708740 0.000000 156.000000 0.397431 -0.572234 -0.717354
3390.00000000 -15970.00000000 500.00000000 39 164 154 0.000000 0.000000 0.000000 0.000000 -60.708740 0.000000 156.000000 0.653050 -0.491886 -0.575825
3420.00000000 -16010.00000000 470.00000000 39 164 154 0.000000 0.000000 0.000000 0.000000 -60.708740 0.000000 156.000000 -0.289693 0.490129 0.822102
3370.00000000 -15970.00000000 480.00000000 39 164 154 0.000000 0.000000 0.000000 0.000000 -60.708740 0.000000 156.000000 -0.409833 0.362726 0.836939
3440.00000000 -15990.00000000 480.00000000 39 164 154 0.000000 0.000000 0.000000 0.000000 -60.708740 0.000000 156.000000 -0.498245 0.751479 0.432470
3500.00000000 -16070.00000000 630.00000000 39 164 154 0.000000 0.000000 0.000000 0.000000 -60.708740 0.000000 156.000000 -0.449871 0.379428 0.808487
3500.00000000 -16040.00000000 620.00000000 39 164 154 0.000000 0.000000 0.000000 0.000000 -60.708740 0.000000 156.000000 -0.619862 0.449441 0.643253
3490.00000000 -16070.00000000 630.00000000 39 164 154 0.000000 0.000000 0.000000 0.000000 -60.708740 0.000000 156.000000 0.632019 -0.369362 -0.681267
3510.00000000 -16040.00000000 630.00000000 39 164 154 0.000000 0.000000 0.000000 0.000000 -60.708740 0.000000 156.000000 -0.060354 0.227867 0.971820
3520.00000000 -16040.00000000 630.00000000 39 164 154 0.000000 0.000000 0.000000 0.000000 -60.708740 0.000000 156.000000 -0.297288 0.545292 0.783758
3510.00000000 -16060.00000000 640.00000000 39 164 154 0.000000 0.000000 0.000000 0.000000 -60.708740 0.000000 156.000000 -0.006415 0.386156 0.922411
3510.00000000 -16060.00000000 640.00000000 39 164 154 0.000000 0.000000 0.000000 0.000000 -60.708740 0.000000 156.000000 -0.006415 0.386156 0.922411
3510.00000000 -16060.00000000 640.00000000 39 164 154 0.000000 0.000000 0.000000 0.000000 -60.708740 0.000000 156.000000 -0.006415 0.386156 0.922411
3500.00000000 -16070.00000000 600.00000000 39 164 154 0.000000 0.000000 0.000000 0.000000 -60.708740 0.000000 156.000000 -0.107448 0.625556 0.772745
3500.00000000 -16070.00000000 600.00000000 39 164 154 0.000000 0.000000 0.000000 0.000000 -60.708740 0.000000 156.000000 -0.107448 0.625556 0.772745
3500.00000000 -16070.00000000 580.00000000 39 164 154 0.000000 0.000000 0.000000 0.000000 -60.708740 0.000000 156.000000 -0.270498 0.770366 0.577379
3510.00000000 -16120.00000000 650.00000000 39 164 154 0.000000 0.000000 0.000000 0.000000 -60.708740 0.000000 156.000000 -0.279587 0.388399 0.878053
3500.00000000 -16110.00000000 640.00000000 39 164 154 0.000000 0.000000 0.000000 0.000000 -60.708740 0.000000 156.000000 -0.380982 0.747248 0.544494
3500.00000000 -16080.00000000 610.00000000 39 164 154 0.000000 0.000000 0.000000 0.000000 -60.708740 0.000000 156.000000 -0.089540 0.286789 0.953800
3500.00000000 -16120.00000000 570.00000000 39 164 154 0.000000 0.000000 0.000000 0.000000 -60.708740 0.000000 156.000000 -0.472381 0.724317 0.502216
3490.00000000 -16110.00000000 610.00000000 39 164 154 0.000000 0.000000 0.000000 0.000000 -60.708740 0.000000 156.000000 -0.106057 0.387038 0.915944
3490.00000000 -16080.00000000 580.00000000 39 164 154 0.000000 0.000000 0.000000 0.000000 -60.708740 0.000000 156.000000 -0.021774 0.357349 0.933717
3460.00000000 -16040.00000000 590.00000000 39 164 154 0.000000 0.000000 0.000000 0.000000 -60.708740 0.000000 156.000000 -0.484709 0.350335 0.801450
3450.00000000 -16080.00000000 620.00000000 39 164 154 0.000000 0.000000 0.000000 0.000000 -60.708740 0.000000 156.000000 0.577390 -0.496589 -0.648090
3480.00000000 -16080.00000000 630.00000000 39 164 154 0.000000 0.000000 0.000000 0.000000 -60.708740 0.000000 156.000000 -0.606365 0.471990 0.639958
3480.00000000 -16080.00000000 630.00000000 39 164 154 0.000000 0.000000 0.000000 0.000000 -60.708740 0.000000 156.000000 -0.606365 0.471990 0.639958
3450.00000000 -16080.00000000 590.00000000 39 164 154 0.000000 0.000000 0.000000 0.000000 -60.708740 0.000000 156.000000 -0.398168 0.404514 0.823305
3500.00000000 -16060.00000000 560.00000000 39 164 154 0.000000 0.000000 0.000000 0.000000 -60.708740 0.000000 156.000000 0.567978 -0.415634 -0.710387
3450.00000000 -16110.00000000 500.00000000 39 164 154 0.000000 0.000000 0.000000 0.000000 -60.708740 0.000000 156.000000 -0.467548 0.480765 0.741798
3450.00000000 -16110.00000000 500.00000000 39 164 154 0.000000 0.000000 0.000000 0.000000 -60.708740 0.000000 156.000000 -0.467548 0.480765 0.741798
3530.00000000 -16160.00000000 610.00000000 39 164 154 0.000000 0.000000 0.000000 0.000000 -60.708740 0.000000 156.000000 -0.393303 0.421964 0.816859
3510.00000000 -16140.00000000 600.00000000 39 164 154 0.000000 0.000000 0.000000 0.000000 -60.708740 0.000000 156.000000 -0.018316 0.267410 0.963409
3530.00000000 -16160.00000000 610.00000000 39 164 154 0.000000 0.000000 0.000000 0.000000 -60.708740 0.000000 156.000000 -0.393303 0.421964 0.816859
3490.00000000 -16200.00000000 630.00000000 39 164 154 0.000000 0.000000 0.000000 0.000000 -60.708740 0.000000 156.000000 -0.056734 0.493998 0.867610
3490.00000000 -16200.00000000 630.00000000 39 164 154 0.000000 0.000000 0.000000 0.000000 -60.708740 0.000000 156.000000 -0.056734 0.493998 0.867610
3490.00000000 -16190.00000000 630.00000000 39 164 154 0.000000 0.000000 0.000000 0.000000 -60.708740 0.000000 156.000000 -0.476943 0.334335 0.812863
3510.00000000 -16190.00000000 650.00000000 39 164 154 0.000000 0.000000 0.000000 0.000000 -60.708740 0.000000 156.000000 -0.109408 0.207498 0.972098
3520.00000000 -16190.00000000 650.00000000 39 164 154 0.000000 0.000000 0.000000 0.000000 -60.708740 0.000000 156.000000 -0.020982 0.282639 0.958997
3520.00000000 -16190.00000000 650.00000000 39 164 154 0.000000 0.000000 0.000000 0.000000 -60.708740 0.000000 156.000000 -0.020982 0.282639 0.958997
3500.00000000 -16190.00000000 630.00000000 39 164 154 0.000000 0.000000 0.000000 0.000000 -60.708740 0.000000 156.000000 -0.460176 0.283543 0.841333
3530.00000000 -16180.00000000 600.00000000 39 164 154 0.000000 0.000000 0.000000 0.000000 -60.708740 0.000000 156.000000 0.156131 0.542740 0.825262
3520.00000000 -16180.00000000 600.00000000 39 164 154 0.000000 0.000000 0.000000 0.000000 -60.708740 0.000000 156.000000 0.466621 -0.336916 -0.817773
3470.00000000 -16160.00000000 640.00000000 39 164 154 0.000000 0.000000 0.000000 0.000000 -60.708740 0.000000 156.000000 -0.392190 0.303680 0.868312
3480.00000000 -16150.00000000 570.00000000 39 164 154 0.000000 0.000000 0.000000 0.000000 -60.708740 0.000000 156.000000 -0.087671 0.556207 0.826406
3450.00000000 -16190.00000000 640.00000000 39 164 154 0.000000 0.000000 0.000000 0.000000 -60.708740 0.000000 156.000000 -0.266417 0.246683 0.931756
3480.00000000 -16200.00000000 630.00000000 39 164 154 0.000000 0.000000 0.000000 0.000000 -60.708740 0.000000 156.000000 -0.012550 0.715368 0.698635
3480.00000000 -16170.00000000 610.00000000 39 164 154 0.000000 0.000000 0.000000 0.000000 -60.708740 0.000000 156.000000 -0.249445 0.367526 0.895936
3460.00000000 -16170.00000000 590.00000000 39 164 154 0.000000 0.000000 0.000000 0.000000 -60.708740 0.000000 156.000000 -0.101988 0.518557 0.848939
3510.00000000 -16130.00000000 550.00000000 39 164 154 0.000000 0.000000 0.000000 0.000000 -60.708740 0.000000 156.000000 -0.496472 0.355082 0.792106
3530.00000000 -16140.00000000 550.00000000 39 164 154 0.000000 0.000000 0.000000 0.000000 -60.708740 0.000000 156.000000 0.009347 0.484714 0.874622
3530.00000000 -16150.00000000 560.00000000 39 164 154 0.000000 0.000000 0.000000 0.000000 -60.708740 0.000000 156.000000 -0.245203 0.425721 0.870998
3530.00000000 -16130.00000000 550.00000000 39 164 154 0.000000 0.000000 0.000000 0.000000 -60.708740 0.000000 156.000000 -0.004052 0.536172 0.844099
3510.00000000 -16160.00000000 520.00000000 39 164 154 0.000000 0.000000 0.000000 0.000000 -60.708740 0.000000 156.000000 -0.307218 0.213778 0.927317
3490.00000000 -16180.00000000 530.00000000 39 164 154 0.000000 0.000000 0.000000 0.000000 -60.708740 0.000000 156.000000 -0.297231 0.724602 0.621776
3520.00000000 -16190.00000000 540.00000000 39 164 154 0.000000 0.000000 0.000000 0.000000 -60.708740 0.000000 156.000000 -0.222589 0.253005 0.941511
3500.00000000 -16200.00000000 510.00000000 39 164 154 0.000000 0.000000 0.000000 0.000000 -60.708740 0.000000 156.000000 -0.632726 0.619299 0.464894
3450.00000000 -16130.00000000 520.00000000 39 164 154 0.000000 0.000000 0.000000 0.000000 -60.708740 0.000000 156.000000 -0.424612 0.828704 0.364630
3480.00000000 -16130.00000000 510.00000000 39 164 154 0.000000 0.000000 0.000000 0.000000 -60.708740 0.000000 156.000000 0.593979 -0.463471 -0.657559
3480.00000000 -16130.00000000 510.00000000 39 164 154 0.000000 0.000000 0.000000 0.000000 -60.708740 0.000000 156.000000 0.593979 -0.463471 -0.657559
3460.00000000 -16140.00000000 500.00000000 39 164 154 0.000000 0.000000 0.000000 0.000000 -60.708740 0.000000 156.000000 -0.539721 0.233518 0.808808
3460.00000000 -16170.00000000 560.00000000 39 164 154 0.000000 0.000000 0.000000 0.000000 -60.708740 0.000000 156.000000 -0.379011 0.713722 0.589026
3420.00000000 -16060.00000000 590.00000000 39 164 154 0.000000 0.000000 0.000000 0.000000 -60.708740 0.000000 156.000000 -0.151969 0.349947 0.924361
3420.00000000 -16060.00000000 590.00000000 39 164 154 0.000000 0.000000 0.000000 0.000000 -60.708740 0.000000 156.000000 -0.151969 0.349947 0.924361
3410.00000000 -16080.00000000 600.00000000 39 164 154 0.000000 0.000000 0.000000 0.000000 -60.708740 0.000000 156.000000 -0.132550 0.383697 0.913897
3420.00000000 -16120.00000000 590.00000000 39 164 154 0.000000 0.000000 0.000000 0.000000 -60.708740 0.000000 156.000000 0.713722 -0.379011 -0.589026
3420.00000000 -16100.00000000 570.00000000 39 164 154 0.000000 0.000000 0.000000 0.000000 -60.708740 0.000000 156.000000 -0.514737 0.397083 0.759850
3410.00000000 -16100.00000000 570.00000000 39 164 154 0.000000 0.000000 0.000000 0.000000 -60.708740 0.000000 156.000000 -0.469534 0.436814 0.767288
3440.00000000 -16080.00000000 580.00000000 39 164 154 0.000000 0.000000 0.000000 0.000000 -60.708740 0.000000 156.000000 0.509149 -0.269366 -0.817441
3390.00000000 -16120.00000000 590.00000000 39 164 154 0.000000 0.000000 0.000000 0.000000 -60.708740 0.000000 156.000000 0.625226 -0.668345 -0.402997
3410.00000000 -16040.00000000 560.00000000 39 164 154 0.000000 0.000000 0.000000 0.000000 -60.708740 0.000000 156.000000 -0.546434 0.712523 0.440137
3430.00000000 -16110.00000000 530.00000000 39 164 154 0.000000 0.000000 0.000000 0.000000 -60.708740 0.000000 156.000000 -0.548075 0.741128 0.387742
3430.00000000 -16110.00000000 530.00000000 39 164 154 0.000000 0.000000 0.000000 0.000000 -60.708740 0.000000 156.000000 -0.548075 0.741128 0.387742
3440.00000000 -16100.00000000 530.00000000 39 164 154 0.000000 0.000000 0.000000 0.000000 -60.708740 0.000000 156.000000 -0.701428 0.589200 0.401052
3430.00000000 -16120.00000000 500.00000000 39 164 154 0.000000 0.000000 0.000000 0.000000 -60.708740 0.000000 156.000000 -0.627971 0.365633 0.686997
3440.00000000 -16130.00000000 640.00000000 39 164 154 0.000000 0.000000 0.000000 0.000000 -60.708740 0.000000 156.000000 -0.518595 0.429693 0.739204
3420.00000000 -16160.00000000 600.00000000 39 164 154 0.000000 0.000000 0.000000 0.000000 -60.708740 0.000000 156.000000 -0.129289 0.501177 0.855632
3430.00000000 -16140.00000000 600.00000000 39 164 154 0.000000 0.000000 0.000000 0.000000 -60.708740 0.000000 156.000000 -0.527456 0.441476 0.725872
3410.00000000 -16160.00000000 590.00000000 39 164 154 0.000000 0.000000 0.000000 0.000000 -60.708740 0.000000 156.000000 -0.211128 0.574822 0.790573
3430.00000000 -16180.00000000 620.00000000 39 164 154 0.000000 0.000000 0.000000 0.000000 -60.708740 0.000000 156.000000 0.348503 -0.756982 -0.552742
3420.00000000 -16180.00000000 620.00000000 39 164 154 0.000000 0.000000 0.000000 0.000000 -60.708740 0.000000 156.000000 -0.471304 0.356274 0.806809
3410.00000000 -16200.00000000 610.00000000 39 164 154 0.000000 0.000000 0.000000 0.000000 -60.708740 0.000000 156.000000 -0.407543 0.323865 0.853827
3410.00000000 -16170.00000000 610.00000000 39 164 154 0.000000 0.000000 0.000000 0.000000 -60.708740 0.000000 156.000000 -0.551903 0.227254 0.802346
3410.00000000 -16170.00000000 610.00000000 39 164 154 0.000000 0.000000 0.000000 0.000000 -60.708740 0.000000 156.000000 -0.551903 0.227254 0.802346
3410.00000000 -16200.00000000 580.00000000 39 164 154 0.000000 0.000000 0.000000 0.000000 -60.708740 0.000000 156.000000 -0.356653 0.475004 0.804468
3390.00000000 -16140.00000000 610.00000000 39 164 154 0.000000 0.000000 0.000000 0.000000 -60.708740 0.000000 156.000000 -0.535779 0.318269 0.782078
3370.00000000 -16170.00000000 580.00000000 39 164 154 0.000000 0.000000 0.000000 0.000000 -60.708740 0.000000 156.000000 0.775674 -0.356391 -0.520879
3380.00000000 -16180.00000000 590.00000000 39 164 154 0.000000 0.000000 0.000000 0.000000 -60.708740 0.000000 156.000000 -0.621173 0.212221 0.754392
3380.00000000 -16190.00000000 600.00000000 39 164 154 0.000000 0.000000 0.000000 0.000000 -60.708740 0.000000 156.000000 -0.399561 0.319340 0.859287
3430.00000000 -16140.00000000 540.00000000 39 164 154 0.000000 0.000000 0.000000 0.000000 -60.708740 0.000000 156.000000 0.661978 -0.687749 -0.297971
3420.00000000 -16150.00000000 500.00000000 39 164 154 0.000000 0.000000 0.000000 0.000000 -60.708740 0.000000 156.000000 0.689611 -0.455845 -0.562709
3420.00000000 -16150.00000000 500.00000000 39 164 154 0.000000 0.000000 0.000000 0.000000 -60.708740 0.000000 156.000000 0.689611 -0.455845 -0.562709
3480.00000000 -16110.00000000 480.00000000 39 164 154 0.000000 0.000000 0.000000 0.000000 -60.708740 0.000000 156.000000 -0.488738 0.666766 0.562636
3450.00000000 -16140.00000000 480.00000000 39 164 154 0.000000 0.000000 0.000000 0.000000 -60.708740 0.000000 156.000000 -0.482343 0.232803 0.844481
3530.00000000 -16140.00000000 320.00000000 39 164 154 0.000000 0.000000 0.000000 0.000000 -60.708740 0.000000 156.000000 0.896533 -0.390497 -0.209142
3530.00000000 -16180.00000000 330.00000000 39 164 154 0.000000 0.000000 0.000000 0.000000 -60.708740 0.000000 156.000000 0.833823 -0.343893 -0.431829
3530.00000000 -16180.00000000 330.00000000 39 164 154 0.000000 0.000000 0.000000 0.000000 -60.708740 0.000000 156.000000 0.833823 -0.343893 -0.431829
3410.00000000 -16100.00000000 480.00000000 39 164 154 0.000000 0.000000 0.000000 0.000000 -60.708740 0.000000 156.000000 -0.506597 0.587383 0.631142
3390.00000000 -16100.00000000 460.00000000 39 164 154 0.000000 0.000000 0.000000 0.000000 -60.708740 0.000000 156.000000 -0.487130 0.815037 0.313718
3400.00000000 -16100.00000000 450.00000000 39 164 154 0.000000 0.000000 0.000000 0.000000 -60.708740 0.000000 156.000000 -0.571302 0.422267 0.703778
3370.00000000 -16140.00000000 480.00000000 39 164 154 0.000000 0.000000 0.000000 0.000000 -60.708740 0.000000 156.000000 0.720385 -0.531595 -0.445480
3380.00000000 -16150.00000000 440.00000000 39 164 154 0.000000 0.000000 0.000000 0.000000 -60.708740 0.000000 156.000000 -0.670073 0.732475 0.120346
3680.00000000 -16010.00000000 290.00000000 39 164 154 0.000000 0.000000 0.000000 0.000000 -60.708740 0.000000 156.000000 0.046934 0.669876 0.740988
3690.00000000 -16000.00000000 280.00000000 39 164 154 0.000000 0.000000 0.000000 0.000000 -60.708740 0.000000 156.000000 0.029425 0.339026 0.940317
3680.00000000 -16020.00000000 300.00000000 39 164 154 0.000000 0.000000 0.000000 0.000000 -60.708740 0.000000 156.000000 -0.012539 0.675735 0.737038
3630.00000000 -16020.00000000 270.00000000 39 164 154 0.000000 0.000000 0.000000 0.000000 -60.708740 0.000000 156.000000 0.572726 -0.252627 -0.779849
3670.00000000 -16020.00000000 160.00000000 39 164 154 0.000000 0.000000 0.000000 0.000000 -60.708740 0.000000 156.000000 0.534714 -0.619054 -0.575198
3590.00000000 -16010.00000000 310.00000000 39 164 154 0.000000 0.000000 0.000000 0.000000 -60.708740 0.000000 156.000000 -0.548821 0.599482 0.582595
3580.00000000 -16020.00000000 300.00000000 39 164 154 0.000000 0.000000 0.000000 0.000000 -60.708740 0.000000 156.000000 -0.281874 0.481211 0.830050
3670.00000000 -15940.00000000 80.00000000 39 164 154 0.000000 0.000000 0.000000 0.000000 -60.708740 0.000000 156.000000 0.928009 -0.353983 0.116172
3620.00000000 -15870.00000000 70.00000000 39 164 154 0.000000 0.000000 0.000000 0.000000 -60.708740 0.000000 156.000000 0.709203 -0.621567 -0.332693
3660.00000000 -15890.00000000 40.00000000 39 164 154 0.000000 0.000000 0.000000 0.000000 -60.708740 0.000000 156.000000 0.896763 -0.292972 0.331639
3670.00000000 -15870.00000000 10.00000000 39 164 154 0.000000 0.000000 0.000000 0.000000 -60.708740 0.000000 156.000000 0.786484 -0.174269 0.592515
3670.00000000 -15870.00000000 10.00000000 39 164 154 0.000000 0.000000 0.000000 0.000000 -60.708740 0.000000 156.000000 0.786484 -0.174269 0.592515
3640.00000000 -15870.00000000 40.00000000 39 164 154 0.000000 0.000000 0.000000 0.000000 -60.708740 0.000000 156.000000 0.932664 -0.329256 -0.147408
3640.00000000 -15880.00000000 20.00000000 39 164 154 0.000000 0.000000 0.000000 0.000000 -60.708740 0.000000 156.000000 0.743213 -0.359409 0.564322
3640.00000000 -15880.00000000 20.00000000 39 164 154 0.000000 0.000000 0.000000 0.000000 -60.708740 0.000000 156.000000 0.743213 -0.359409 0.564322
3620.00000000 -15930.00000000 -10.00000000 39 164 154 0.000000 0.000000 0.000000 0.000000 -60.708740 0.000000 156.000000 0.973163 -0.222122 0.060132
3640.00000000 -15980.00000000 50.00000000 39 164 154 0.000000 0.000000 0.000000 0.000000 -60.708740 0.000000 156.000000 0.989133 0.106270 0.101599
3580.00000000 -15890.00000000 80.00000000 39 164 154 0.000000 0.000000 0.000000 0.000000 -60.708740 0.000000 156.000000 0.753466 -0.651449 0.088900
3610.00000000 -15890.00000000 80.00000000 39 164 154 0.000000 0.000000 0.000000 0.000000 -60.708740 0.000000 156.000000 0.904079 -0.238069 0.354913
3570.00000000 -15880.00000000 90.00000000 39 164 154 0.000000 0.000000 0.000000 0.000000 -60.708740 0.000000 156.000000 0.870313 -0.457982 -0.181131
3560.00000000 -15950.00000000 100.00000000 39 164 154 0.000000 0.000000 0.000000 0.000000 -60.708740 0.000000 156.000000 0.900780 -0.143274 0.409961
3560.00000000 -15950.00000000 100.00000000 39 164 154 0.000000 0.000000 0.000000 0.000000 -60.708740 0.000000 156.000000 0.900780 -0.143274 0.409961
3580.00000000 -15890.00000000 40.00000000 39 164 154 0.000000 0.000000 0.000000 0.000000 -60.708740 0.000000 156.000000 0.751545 -0.657065 0.058692
3580.00000000 -15900.00000000 40.00000000 39 164 154 0.000000 0.000000 0.000000 0.000000 -60.708740 0.000000 156.000000 0.860653 -0.389526 0.327941
3600.00000000 -15900.00000000 60.00000000 39 164 154 0.000000 0.000000 0.000000 0.000000 -60.708740 0.000000 156.000000 0.958132 -0.237214 -0.160351
3610.00000000 -15900.00000000 40.00000000 39 164 154 0.000000 0.000000 0.000000 0.000000 -60.708740 0.000000 156.000000 0.959696 -0.006082 0.280976
3580.00000000 -15930.00000000 60.00000000 39 164 154 0.000000 0.000000 0.000000 0.000000 -60.708740 0.000000 156.000000 0.717166 -0.674351 0.175851
3590.00000000 -15910.00000000 20.00000000 39 164 154 0.000000 0.000000 0.000000 0.000000 -60.708740 0.000000 156.000000 0.932493 0.011481 0.361006
3580.00000000 -15940.00000000 0.00000000 39 164 154 0.000000 0.000000 0.000000 0.000000 -60.708740 0.000000 156.000000 0.980147 -0.086233 0.178540
3590.00000000 -15920.00000000 20.00000000 39 164 154 0.000000 0.000000 0.000000 0.000000 -60.708740 0.000000 156.000000 0.961613 -0.219685 0.164435
3540.00000000 -15900.00000000 0.00000000 39 164 154 0.000000 0.000000 0.000000 0.000000 -60.708740 0.000000 156.000000 0.994073 -0.086295 -0.066122
3540.00000000 -15890.00000000 0.00000000 39 164 154 0.000000 0.000000 0.000000 0.000000 -60.708740 0.000000 156.000000 0.965887 -0.256506 -0.035592
3540.00000000 -15900.00000000 -10.00000000 39 164 154 0.000000 0.000000 0.000000 0.000000 -60.708740 0.000000 156.000000 0.954994 -0.200132 0.218937
3560.00000000 -15910.00000000 50.00000000 39 164 154 0.000000 0.000000 0.000000 0.000000 -60.708740 0.000000 156.000000 0.992817 -0.064527 0.100753
3570.00000000 -15950.00000000 50.00000000 39 164 154 0.000000 0.000000 0.000000 0.000000 -60.708740 0.000000 156.000000 0.979615 -0.151563 0.131848
3560.00000000 -15910.00000000 60.00000000 39 164 154 0.000000 0.000000 0.000000 0.000000 -60.708740 0.000000 156.000000 0.865491 -0.498313 0.051074
3560.00000000 -15940.00000000 -10.00000000 39 164 154 0.000000 0.000000 0.000000 0.000000 -60.708740 0.000000 156.000000 0.856562 0.122779 0.501226
3570.00000000 -15930.00000000 20.00000000 39 164 154 0.000000 0.000000 0.000000 0.000000 -60.708740 0.000000 156.000000 0.761432 -0.267530 0.590466
3540.00000000 -15950.00000000 -10.00000000 39 164 154 0.000000 0.000000 0.000000 0.000000 -60.708740 0.000000 156.000000 0.827735 0.127457 0.546452
3550.00000000 -15940.00000000 10.00000000 39 164 154 0.000000 0.000000 0.000000 0.000000 -60.708740 0.000000 156.000000 0.909646 -0.358957 0.209031
3590.00000000 -16010.00000000 100.00000000 39 164 154 0.000000 0.000000 0.000000 0.000000 -60.708740 0.000000 156.000000 0.849704 -0.337085 0.405434
3560.00000000 -15980.00000000 70.00000000 39 164 154 0.000000 0.000000 0.000000 0.000000 -60.708740 0.000000 156.000000 0.962341 -0.177239 0.206122
3560.00000000 -15970.00000000 70.00000000 39 164 154 0.000000 0.000000 0.000000 0.000000 -60.708740 0.000000 156.000000 0.894865 -0.425381 0.135155
3550.00000000 -16020.00000000 80.00000000 39 164 154 0.000000 0.000000 0.000000 0.000000 -60.708740 0.000000 156.000000 0.708740 -0.641241 0.294103
3550.00000000 -15990.00000000 50.00000000 39 164 154 0.000000 0.000000 0.000000 0.000000 -60.708740 0.000000 156.000000 0.948234 -0.186382 0.257125
3550.00000000 -15990.00000000 50.00000000 39 164 154 0.000000 0.000000 0.000000 0.000000 -60.708740 0.000000 156.000000 0.948234 -0.186382 0.257125
3560.00000000 -16000.00000000 40.00000000 39 164 154 0.000000 0.000000 0.000000 0.000000 -60.708740 0.000000 156.000000 0.956288 -0.272666 0.105674
3560.00000000 -16000.00000000 40.00000000 39 164 154 0.000000 0.000000 0.000000 0.000000 -60.708740 0.000000 156.000000 0.956288 -0.272666 0.105674
3560.00000000 -16000.00000000 40.00000000 39 164 154 0.000000 0.000000 0.000000 0.000000 -60.708740 0.000000 156.000000 0.956288 -0.272666 0.105674
3640.00000000 -16120.00000000 300.00000000 39 164 154 0.000000 0.000000 0.000000 0.000000 -60.708740 0.000000 156.000000 0.011470 0.363222 0.931632
3690.00000000 -16140.00000000 160.00000000 39 164 154 0.000000 0.000000 0.000000 0.000000 -60.708740 0.000000 156.000000 0.444998 0.378009 0.811841
3680.00000000 -16160.00000000 170.00000000 39 164 154 0.000000 0.000000 0.000000 0.000000 -60.708740 0.000000 156.000000 0.220708 0.191280 0.956400
3690.00000000 -16180.00000000 190.00000000 39 164 154 0.000000 0.000000 0.000000 0.000000 -60.708740 0.000000 156.000000 0.741804 -0.250418 -0.622107
3660.00000000 -16190.00000000 180.00000000 39 164 154 0.000000 0.000000 0.000000 0.000000 -60.708740 0.000000 156.000000 0.546923 0.443855 0.709836
3680.00000000 -16170.00000000 160.00000000 39 164 154 0.000000 0.000000 0.000000 0.000000 -60.708740 0.000000 156.000000 0.293523 0.293523 0.909774
3660.00000000 -16200.00000000 180.00000000 39 164 154 0.000000 0.000000 0.000000 0.000000 -60.708740 0.000000 156.000000 0.516401 0.295312 0.803817
3640.00000000 -16190.00000000 200.00000000 39 164 154 0.000000 0.000000 0.000000 0.000000 -60.708740 0.000000 156.000000 0.942347 -0.236625 0.236625
3650.00000000 -16200.00000000 200.00000000 39 164 154 0.000000 0.000000 0.000000 0.000000 -60.708740 0.000000 156.000000 0.881057 0.170386 0.441257
3650.00000000 -16200.00000000 180.00000000 39 164 154 0.000000 0.000000 0.000000 0.000000 -60.708740 0.000000 156.000000 0.231372 0.416470 0.879215
3650.00000000 -16190.00000000 190.00000000 39 164 154 0.000000 0.000000 0.000000 0.000000 -60.708740 0.000000 156.000000 0.913121 0.226477 0.338995
3610.00000000 -16120.00000000 310.00000000 39 164 154 0.000000 0.000000 0.000000 0.000000 -60.708740 0.000000 156.000000 -0.473062 0.298201 0.829029
3590.00000000 -16100.00000000 200.00000000 39 164 154 0.000000 0.000000 0.000000 0.000000 -60.708740 0.000000 156.000000 0.778123 -0.509581 -0.367222
3590.00000000 -16120.00000000 200.00000000 39 164 154 0.000000 0.000000 0.000000 0.000000 -60.708740 0.000000 156.000000 0.766359 -0.561570 -0.311983
3600.00000000 -16120.00000000 160.00000000 39 164 154 0.000000 0.000000 0.000000 0.000000 -60.708740 0.000000 156.000000 0.812445 -0.106478 0.573233
3610.00000000 -16070.00000000 160.00000000 39 164 154 0.000000 0.000000 0.000000 0.000000 -60.708740 0.000000 156.000000 0.774168 -0.624329 -0.104300
3570.00000000 -16140.00000000 310.00000000 39 164 154 0.000000 0.000000 0.000000 0.000000 -60.708740 0.000000 156.000000 0.402863 -0.728442 -0.554142
3580.00000000 -16150.00000000 180.00000000 39 164 154 0.000000 0.000000 0.000000 0.000000 -60.708740 0.000000 156.000000 0.755223 -0.629608 0.182295
3590.00000000 -16140.00000000 170.00000000 39 164 154 0.000000 0.000000 0.000000 0.000000 -60.708740 0.000000 156.000000 0.846051 -0.219459 0.485836
3580.00000000 -16150.00000000 180.00000000 39 164 154 0.000000 0.000000 0.000000 0.000000 -60.708740 0.000000 156.000000 0.755223 -0.629608 0.182295
3580.00000000 -16170.00000000 190.00000000 39 164 154 0.000000 0.000000 0.000000 0.000000 -60.708740 0.000000 156.000000 0.974208 -0.057306 0.218252
3560.00000000 -16140.00000000 190.00000000 39 164 154 0.000000 0.000000 0.000000 0.000000 -60.708740 0.000000 156.000000 0.884300 -0.264841 0.384543
3680.00000000 -16050.00000000 80.00000000 39 164 154 0.000000 0.000000 0.000000 0.000000 -60.708740 0.000000 156.000000 0.490495 -0.186358 0.851285
3660.00000000 -16060.00000000 70.00000000 39 164 154 0.000000 0.000000 0.000000 0.000000 -60.708740 0.000000 156.000000 0.844481 0.232803 0.482343
3680.00000000 -16050.00000000 80.00000000 39 164 154 0.000000 0.000000 0.000000 0.000000 -60.708740 0.000000 156.000000 0.490495 -0.186358 0.851285
3670.00000000 -16100.00000000 70.00000000 39 164 154 0.000000 0.000000 0.000000 0.000000 -60.708740 0.000000 156.000000 0.349070 0.298133 0.888407
3690.00000000 -16080.00000000 100.00000000 39 164 154 0.000000 0.000000 0.000000 0.000000 -60.708740 0.000000 156.000000 0.478901 0.320848 0.817135
3650.00000000 -16060.00000000 70.00000000 39 164 154 0.000000 0.000000 0.000000 0.000000 -60.708740 0.000000 156.000000 0.763819 0.358395 0.536781
3620.00000000 -16120.00000000 90.00000000 39 164 154 0.000000 0.000000 0.000000 0.000000 -60.708740 0.000000 156.000000 0.530882 -0.202313 0.822942
3630.00000000 -16130.00000000 120.00000000 39 164 154 0.000000 0.000000 0.000000 0.000000 -60.708740 0.000000 156.000000 0.826546 -0.020629 0.562491
3620.00000000 -16130.00000000 140.00000000 39 164 154 0.000000 0.000000 0.000000 0.000000 -60.708740 0.000000 156.000000 0.994621 0.034070 0.097814
3670.00000000 -16130.00000000 50.00000000 39 164 154 0.000000 0.000000 0.000000 0.000000 -60.708740 0.000000 156.000000 0.508265 0.238009 0.827658
3600.00000000 -16040.00000000 90.00000000 39 164 154 0.000000 0.000000 0.000000 0.000000 -60.708740 0.000000 156.000000 0.833928 -0.277976 0.476752
3600.00000000 -16040.00000000 100.00000000 39 164 154 0.000000 0.000000 0.000000 0.000000 -60.708740 0.000000 156.000000 0.822468 0.006820 0.568771
3580.00000000 -16050.00000000 90.00000000 39 164 154 0.000000 0.000000 0.000000 0.000000 -60.708740 0.000000 156.000000 0.853695 -0.147896 0.499331
3600.00000000 -16120.00000000 100.00000000 39 164 154 0.000000 0.000000 0.000000 0.000000 -60.708740 0.000000 156.000000 0.854666 -0.116742 0.505882
3610.00000000 -16120.00000000 100.00000000 39 164 154 0.000000 0.000000 0.000000 0.000000 -60.708740 0.000000 156.000000 0.658570 -0.283618 0.697027
3550.00000000 -16070.00000000 120.00000000 39 164 154 0.000000 0.000000 0.000000 0.000000 -60.708740 0.000000 156.000000 0.925021 -0.358738 0.125077
3540.00000000 -16080.00000000 80.00000000 39 164 154 0.000000 0.000000 0.000000 0.000000 -60.708740 0.000000 156.000000 0.773707 -0.454451 0.441420
3570.00000000 -16110.00000000 80.00000000 39 164 154 0.000000 0.000000 0.000000 0.000000 -60.708740 0.000000 156.000000 0.808255 -0.325525 0.490670
3590.00000000 -16070.00000000 60.00000000 39 164 154 0.000000 0.000000 0.000000 0.000000 -60.708740 0.000000 156.000000 0.827733 -0.274876 0.489185
3560.00000000 -16110.00000000 60.00000000 39 164 154 0.000000 0.000000 0.000000 0.000000 -60.708740 0.000000 156.000000 0.499971 -0.020324 0.865804
3590.00000000 -16070.00000000 60.00000000 39 164 154 0.000000 0.000000 0.000000 0.000000 -60.708740 0.000000 156.000000 0.827733 -0.274876 0.489185
3560.00000000 -16140.00000000 120.00000000 39 164 154 0.000000 0.000000 0.000000 0.000000 -60.708740 0.000000 156.000000 0.869425 0.022986 0.493530
3570.00000000 -16160.00000000 70.00000000 39 164 154 0.000000 0.000000 0.000000 0.000000 -60.708740 0.000000 156.000000 0.519147 0.142655 0.842695
3570.00000000 -16160.00000000 70.00000000 39 164 154 0.000000 0.000000 0.000000 0.000000 -60.708740 0.000000 156.000000 0.519147 0.142655 0.842695
3540.00000000 -16140.00000000 80.00000000 39 164 154 0.000000 0.000000 0.000000 0.000000 -60.708740 0.000000 156.000000 0.775292 -0.006910 0.631566
3540.00000000 -16140.00000000 80.00000000 39 164 154 0.000000 0.000000 0.000000 0.000000 -60.708740 0.000000 156.000000 0.775292 -0.006910 0.631566
3540.00000000 -16190.00000000 100.00000000 39 164 154 0.000000 0.000000 0.000000 0.000000 -60.708740 0.000000 156.000000 0.550759 0.090595 0.829733
3520.00000000 -15910.00000000 60.00000000 39 164 154 0.000000 0.000000 0.000000 0.000000 -60.708740 0.000000 156.000000 0.878893 -0.420858 0.224556
3510.00000000 -15910.00000000 20.00000000 39 164 154 0.000000 0.000000 0.000000 0.000000 -60.708740 0.000000 156.000000 0.997156 -0.067622 0.033274
3460.00000000 -15930.00000000 60.00000000 39 164 154 0.000000 0.000000 0.000000 0.000000 -60.708740 0.000000 156.000000 0.750919 -0.507733 0.422289
3530.00000000 -15990.00000000 100.00000000 39 164 154 0.000000 0.000000 0.000000 0.000000 -60.708740 0.000000 156.000000 0.961322 0.041040 0.272354
3500.00000000 -15990.00000000 80.00000000 39 164 154 0.000000 0.000000 0.000000 0.000000 -60.708740 0.000000 156.000000 0.748433 -0.508277 0.426031
3530.00000000 -16000.00000000 110.00000000 39 164 154 0.000000 0.000000 0.000000 0.000000 -60.708740 0.000000 156.000000 0.870051 -0.137529 0.473389
3520.00000000 -16020.00000000 110.00000000 39 164 154 0.000000 0.000000 0.000000 0.000000 -60.708740 0.000000 156.000000 0.945844 -0.263417 0.189715
3500.00000000 -16030.00000000 50.00000000 39 164 154 0.000000 0.000000 0.000000 0.000000 -60.708740 0.000000 156.000000 0.884451 -0.444383 0.142375
3460.00000000 -15970.00000000 20.00000000 39 164 154 0.000000 0.000000 0.000000 0.000000 -60.708740 0.000000 156.000000 0.969274 -0.123547 0.212705
