//X Y Z R G B PointSourceId ScanDirectionFlag NumberOfReturns ReturnNumber GpsTime Intensity Classification Nx Ny Nz
-12840.00000000 15820.00000000 -1300.00000000 108 119 142 97.000000 1.000000 4.000000 1.000000 195.291260 114.000000 54.000000 0.750410 0.649364 0.123335
-12840.00000000 15800.00000000 -1310.00000000 108 119 142 97.000000 1.000000 4.000000 1.000000 195.291260 114.000000 54.000000 0.788383 0.608347 -0.091470
-12850.00000000 15800.00000000 -1290.00000000 108 119 142 97.000000 1.000000 4.000000 1.000000 195.291260 114.000000 54.000000 0.731105 0.660895 -0.169421
-12850.00000000 15810.00000000 -1330.00000000 108 119 142 97.000000 1.000000 4.000000 1.000000 195.291260 114.000000 54.000000 0.436416 0.880179 -0.186616
-12860.00000000 15880.00000000 -1300.00000000 108 119 142 97.000000 1.000000 4.000000 1.000000 195.291260 114.000000 54.000000 0.974951 0.213537 -0.062231
-12860.00000000 15880.00000000 -1300.00000000 108 119 142 97.000000 1.000000 4.000000 1.000000 195.291260 114.000000 54.000000 0.974951 0.213537 -0.062231
-12860.00000000 15880.00000000 -1320.00000000 108 119 142 97.000000 1.000000 4.000000 1.000000 195.291260 114.000000 54.000000 0.988208 -0.151245 0.023881
-12890.00000000 15860.00000000 -1320.00000000 108 119 142 97.000000 1.000000 4.000000 1.000000 195.291260 114.000000 54.000000 0.977026 -0.207903 -0.046868
-12880.00000000 15850.00000000 -1330.00000000 108 119 142 97.000000 1.000000 4.000000 1.000000 195.291260 114.000000 54.000000 0.998482 0.005173 -0.054839
-12870.00000000 15840.00000000 -1300.00000000 108 119 142 97.000000 1.000000 4.000000 1.000000 195.291260 114.000000 54.000000 0.941424 0.219804 -0.255747
-12860.00000000 15810.00000000 -1320.00000000 108 119 142 97.000000 1.000000 4.000000 1.000000 195.291260 114.000000 54.000000 0.802243 0.547760 0.237414
-12870.00000000 15830.00000000 -1310.00000000 108 119 142 97.000000 1.000000 4.000000 1.000000 195.291260 114.000000 54.000000 0.916745 0.276617 0.288203
-12870.00000000 15830.00000000 -1300.00000000 108 119 142 97.000000 1.000000 4.000000 1.000000 195.291260 114.000000 54.000000 0.951748 0.305515 -0.028917
-12870.00000000 15830.00000000 -1300.00000000 108 119 142 97.000000 1.000000 4.000000 1.000000 195.291260 114.000000 54.000000 0.951748 0.305515 -0.028917
-12870.00000000 15810.00000000 -1320.00000000 108 119 142 97.000000 1.000000 4.000000 1.000000 195.291260 114.000000 54.000000 0.776794 0.629495 0.018065
-12860.00000000 15840.00000000 -1320.00000000 108 119 142 97.000000 1.000000 4.000000 1.000000 195.291260 114.000000 54.000000 0.707727 0.670232 0.223411
-12860.00000000 15810.00000000 -1350.00000000 108 119 142 97.000000 1.000000 4.000000 1.000000 195.291260 114.000000 54.000000 0.614955 0.786172 0.061353
-12870.00000000 15820.00000000 -1350.00000000 108 119 142 97.000000 1.000000 4.000000 1.000000 195.291260 114.000000 54.000000 0.853354 0.456445 0.251884
-12860.00000000 15810.00000000 -1350.00000000 108 119 142 97.000000 1.000000 4.000000 1.000000 195.291260 114.000000 54.000000 0.614955 0.786172 0.061353
-12870.00000000 15820.00000000 -1360.00000000 108 119 142 97.000000 1.000000 4.000000 1.000000 195.291260 114.000000 54.000000 0.805281 0.476790 -0.352410
-12890.00000000 15840.00000000 -1350.00000000 108 119 142 97.000000 1.000000 4.000000 1.000000 195.291260 114.000000 54.000000 0.990516 0.021313 0.135733
-12860.00000000 15810.00000000 -1360.00000000 108 119 142 97.000000 1.000000 4.000000 1.000000 195.291260 114.000000 54.000000 0.786661 0.576473 -0.221007
-12790.00000000 15790.00000000 -840.00000000 108 119 142 97.000000 1.000000 4.000000 1.000000 195.291260 114.000000 54.000000 -0.197793 0.939169 -0.280783
-12770.00000000 15780.00000000 -860.00000000 108 119 142 97.000000 1.000000 4.000000 1.000000 195.291260 114.000000 54.000000 -0.128850 0.980485 -0.148484
-12760.00000000 15790.00000000 -850.00000000 108 119 142 97.000000 1.000000 4.000000 1.000000 195.291260 114.000000 54.000000 -0.660397 0.743131 -0.107850
-12760.00000000 15790.00000000 -840.00000000 108 119 142 97.000000 1.000000 4.000000 1.000000 195.291260 114.000000 54.000000 0.753476 -0.630710 0.185684
-12790.00000000 15790.00000000 -850.00000000 108 119 142 97.000000 1.000000 4.000000 1.000000 195.291260 114.000000 54.000000 0.078663 0.987392 -0.137366
-12800.00000000 15790.00000000 -820.00000000 108 119 142 97.000000 1.000000 4.000000 1.000000 195.291260 114.000000 54.000000 -0.509480 0.806019 -0.301271
-12800.00000000 15790.00000000 -920.00000000 108 119 142 97.000000 1.000000 4.000000 1.000000 195.291260 114.000000 54.000000 0.131896 0.989797 -0.053906
-12730.00000000 15790.00000000 -900.00000000 108 119 142 97.000000 1.000000 4.000000 1.000000 195.291260 114.000000 54.000000 -0.492044 0.851786 -0.179871
-12750.00000000 15790.00000000 -920.00000000 108 119 142 97.000000 1.000000 4.000000 1.000000 195.291260 114.000000 54.000000 -0.518397 0.850740 -0.086636
-12770.00000000 15790.00000000 -910.00000000 108 119 142 97.000000 1.000000 4.000000 1.000000 195.291260 114.000000 54.000000 -0.324758 0.932816 0.156160
-12770.00000000 15790.00000000 -910.00000000 108 119 142 97.000000 1.000000 4.000000 1.000000 195.291260 114.000000 54.000000 -0.324758 0.932816 0.156160
-12740.00000000 15780.00000000 -950.00000000 108 119 142 97.000000 1.000000 4.000000 1.000000 195.291260 114.000000 54.000000 -0.547400 0.806451 -0.223586
-12740.00000000 15770.00000000 -980.00000000 108 119 142 97.000000 1.000000 4.000000 1.000000 195.291260 114.000000 54.000000 0.715327 -0.691825 0.098413
-12750.00000000 15780.00000000 -1030.00000000 108 119 142 97.000000 1.000000 4.000000 1.000000 195.291260 114.000000 54.000000 -0.428616 0.897720 -0.101918
-12760.00000000 15790.00000000 -1020.00000000 108 119 142 97.000000 1.000000 4.000000 1.000000 195.291260 114.000000 54.000000 -0.308265 0.804652 -0.507452
-12740.00000000 15790.00000000 -1020.00000000 108 119 142 97.000000 1.000000 4.000000 1.000000 195.291260 114.000000 54.000000 -0.220184 0.888126 -0.403425
-12730.00000000 15780.00000000 -1030.00000000 108 119 142 97.000000 1.000000 4.000000 1.000000 195.291260 114.000000 54.000000 -0.309796 0.911936 -0.269072
-12740.00000000 15780.00000000 -990.00000000 108 119 142 97.000000 1.000000 4.000000 1.000000 195.291260 114.000000 54.000000 -0.735860 0.646007 -0.202942
-12780.00000000 15760.00000000 -960.00000000 108 119 142 97.000000 1.000000 4.000000 1.000000 195.291260 114.000000 54.000000 -0.144415 0.970006 -0.195535
-12690.00000000 15770.00000000 -1090.00000000 108 119 142 97.000000 1.000000 4.000000 1.000000 195.291260 114.000000 54.000000 0.870391 -0.394801 0.294195
-12700.00000000 15790.00000000 -1080.00000000 108 119 142 97.000000 1.000000 4.000000 1.000000 195.291260 114.000000 54.000000 -0.481320 0.838082 -0.256807
-12690.00000000 15770.00000000 -1110.00000000 108 119 142 97.000000 1.000000 4.000000 1.000000 195.291260 114.000000 54.000000 -0.726673 0.648536 -0.226597
-12720.00000000 15790.00000000 -1160.00000000 108 119 142 97.000000 1.000000 4.000000 1.000000 195.291260 114.000000 54.000000 -0.247796 0.930297 -0.270452
-12690.00000000 15770.00000000 -1190.00000000 108 119 142 97.000000 1.000000 4.000000 1.000000 195.291260 114.000000 54.000000 -0.450465 0.872868 -0.187571
-12750.00000000 15780.00000000 -1040.00000000 108 119 142 97.000000 1.000000 4.000000 1.000000 195.291260 114.000000 54.000000 -0.261783 0.948117 0.180400
-12780.00000000 15770.00000000 -1040.00000000 108 119 142 97.000000 1.000000 4.000000 1.000000 195.291260 114.000000 54.000000 -0.167305 0.954305 0.247611
-12770.00000000 15770.00000000 -1060.00000000 108 119 142 97.000000 1.000000 4.000000 1.000000 195.291260 114.000000 54.000000 -0.241016 0.970121 -0.027856
-12790.00000000 15790.00000000 -1040.00000000 108 119 142 97.000000 1.000000 4.000000 1.000000 195.291260 114.000000 54.000000 0.039717 0.990653 0.130498
-12770.00000000 15780.00000000 -1060.00000000 108 119 142 97.000000 1.000000 4.000000 1.000000 195.291260 114.000000 54.000000 -0.443712 0.891597 -0.090412
-12770.00000000 15780.00000000 -1100.00000000 108 119 142 97.000000 1.000000 4.000000 1.000000 195.291260 114.000000 54.000000 -0.016221 0.949552 -0.313190
-12790.00000000 15790.00000000 -1090.00000000 108 119 142 97.000000 1.000000 4.000000 1.000000 195.291260 114.000000 54.000000 0.156071 0.973223 -0.168760
-12780.00000000 15790.00000000 -1090.00000000 108 119 142 97.000000 1.000000 4.000000 1.000000 195.291260 114.000000 54.000000 0.066097 0.997746 0.011541
-12730.00000000 15790.00000000 -1140.00000000 108 119 142 97.000000 1.000000 4.000000 1.000000 195.291260 114.000000 54.000000 -0.411769 0.905337 -0.103982
-12760.00000000 15780.00000000 -1140.00000000 108 119 142 97.000000 1.000000 4.000000 1.000000 195.291260 114.000000 54.000000 -0.065393 0.983268 -0.170021
-12750.00000000 15780.00000000 -1130.00000000 108 119 142 97.000000 1.000000 4.000000 1.000000 195.291260 114.000000 54.000000 -0.050669 0.997201 0.054981
-12760.00000000 15780.00000000 -1130.00000000 108 119 142 97.000000 1.000000 4.000000 1.000000 195.291260 114.000000 54.000000 0.026403 0.986081 -0.164156
-12740.00000000 15790.00000000 -1120.00000000 108 119 142 97.000000 1.000000 4.000000 1.000000 195.291260 114.000000 54.000000 -0.594704 0.783306 0.180997
-12730.00000000 15780.00000000 -1130.00000000 108 119 142 97.000000 1.000000 4.000000 1.000000 195.291260 114.000000 54.000000 0.676718 -0.704720 0.213127
-12730.00000000 15780.00000000 -1170.00000000 108 119 142 97.000000 1.000000 4.000000 1.000000 195.291260 114.000000 54.000000 0.780714 -0.616661 -0.101068
-12740.00000000 15770.00000000 -1170.00000000 108 119 142 97.000000 1.000000 4.000000 1.000000 195.291260 114.000000 54.000000 0.749054 -0.646979 0.142606
-12740.00000000 15790.00000000 -1160.00000000 108 119 142 97.000000 1.000000 4.000000 1.000000 195.291260 114.000000 54.000000 -0.158033 0.987428 0.003362
-12770.00000000 15780.00000000 -1120.00000000 108 119 142 97.000000 1.000000 4.000000 1.000000 195.291260 114.000000 54.000000 -0.397932 0.908960 -0.124266
-12770.00000000 15760.00000000 -1120.00000000 108 119 142 97.000000 1.000000 4.000000 1.000000 195.291260 114.000000 54.000000 -0.164129 0.967973 -0.189976
-12780.00000000 15780.00000000 -1160.00000000 108 119 142 97.000000 1.000000 4.000000 1.000000 195.291260 114.000000 54.000000 -0.076918 0.977956 -0.194126
-12780.00000000 15770.00000000 -1180.00000000 108 119 142 97.000000 1.000000 4.000000 1.000000 195.291260 114.000000 54.000000 -0.003694 0.951830 -0.306605
-12790.00000000 15780.00000000 -1160.00000000 108 119 142 97.000000 1.000000 4.000000 1.000000 195.291260 114.000000 54.000000 0.093048 0.895762 -0.434687
-12670.00000000 15790.00000000 -1200.00000000 108 119 142 97.000000 1.000000 4.000000 1.000000 195.291260 114.000000 54.000000 0.799490 -0.532470 0.278015
-12720.00000000 15790.00000000 -1280.00000000 108 119 142 97.000000 1.000000 4.000000 1.000000 195.291260 114.000000 54.000000 -0.359435 0.931916 -0.048360
-12710.00000000 15770.00000000 -1260.00000000 108 119 142 97.000000 1.000000 4.000000 1.000000 195.291260 114.000000 54.000000 -0.456452 0.866812 0.200720
-12680.00000000 15760.00000000 -1360.00000000 108 119 142 97.000000 1.000000 4.000000 1.000000 195.291260 114.000000 54.000000 -0.542866 0.805792 0.236634
-12680.00000000 15790.00000000 -1350.00000000 108 119 142 97.000000 1.000000 4.000000 1.000000 195.291260 114.000000 54.000000 0.786715 -0.607982 -0.106946
-12700.00000000 15790.00000000 -1290.00000000 108 119 142 97.000000 1.000000 4.000000 1.000000 195.291260 114.000000 54.000000 0.689578 -0.600281 0.405148
-12720.00000000 15760.00000000 -1310.00000000 108 119 142 97.000000 1.000000 4.000000 1.000000 195.291260 114.000000 54.000000 -0.506752 0.845578 0.167927
-12700.00000000 15780.00000000 -1310.00000000 108 119 142 97.000000 1.000000 4.000000 1.000000 195.291260 114.000000 54.000000 -0.749205 0.610405 0.257096
-12700.00000000 15790.00000000 -1290.00000000 108 119 142 97.000000 1.000000 4.000000 1.000000 195.291260 114.000000 54.000000 0.689578 -0.600281 0.405148
-12710.00000000 15780.00000000 -1350.00000000 108 119 142 97.000000 1.000000 4.000000 1.000000 195.291260 114.000000 54.000000 -0.675687 0.731383 0.092339
-12730.00000000 15790.00000000 -1220.00000000 108 119 142 97.000000 1.000000 4.000000 1.000000 195.291260 114.000000 54.000000 -0.277424 0.897548 -0.342700
-12750.00000000 15770.00000000 -1240.00000000 108 119 142 97.000000 1.000000 4.000000 1.000000 195.291260 114.000000 54.000000 -0.268760 0.945435 0.184176
-12730.00000000 15780.00000000 -1250.00000000 108 119 142 97.000000 1.000000 4.000000 1.000000 195.291260 114.000000 54.000000 -0.268336 0.951860 0.148186
-12800.00000000 15790.00000000 -1200.00000000 108 119 142 97.000000 1.000000 4.000000 1.000000 195.291260 114.000000 54.000000 -0.137961 0.984923 0.104371
-12770.00000000 15790.00000000 -1280.00000000 108 119 142 97.000000 1.000000 4.000000 1.000000 195.291260 114.000000 54.000000 0.186293 0.982379 -0.015042
-12780.00000000 15790.00000000 -1260.00000000 108 119 142 97.000000 1.000000 4.000000 1.000000 195.291260 114.000000 54.000000 -0.123728 0.948579 -0.291359
-12790.00000000 15780.00000000 -1270.00000000 108 119 142 97.000000 1.000000 4.000000 1.000000 195.291260 114.000000 54.000000 0.304322 0.942723 -0.136607
-12770.00000000 15790.00000000 -1250.00000000 108 119 142 97.000000 1.000000 4.000000 1.000000 195.291260 114.000000 54.000000 -0.210696 0.976423 -0.046955
-12800.00000000 15790.00000000 -1280.00000000 108 119 142 97.000000 1.000000 4.000000 1.000000 195.291260 114.000000 54.000000 0.103308 0.953311 0.283770
-12800.00000000 15790.00000000 -1260.00000000 108 119 142 97.000000 1.000000 4.000000 1.000000 195.291260 114.000000 54.000000 0.300437 0.907173 -0.294575
-12790.00000000 15790.00000000 -1250.00000000 108 119 142 97.000000 1.000000 4.000000 1.000000 195.291260 114.000000 54.000000 0.175095 0.982676 0.060747
-12730.00000000 15780.00000000 -1300.00000000 108 119 142 97.000000 1.000000 4.000000 1.000000 195.291260 114.000000 54.000000 -0.148667 0.972050 -0.181704
-12760.00000000 15780.00000000 -1350.00000000 108 119 142 97.000000 1.000000 4.000000 1.000000 195.291260 114.000000 54.000000 -0.214403 0.971710 0.099052
-12750.00000000 15780.00000000 -1350.00000000 108 119 142 97.000000 1.000000 4.000000 1.000000 195.291260 114.000000 54.000000 -0.033076 0.997601 0.060816
-12750.00000000 15780.00000000 -1350.00000000 108 119 142 97.000000 1.000000 4.000000 1.000000 195.291260 114.000000 54.000000 -0.033076 0.997601 0.060816
-12770.00000000 15770.00000000 -1320.00000000 108 119 142 97.000000 1.000000 4.000000 1.000000 195.291260 114.000000 54.000000 0.169213 0.927177 -0.334231
-12770.00000000 15780.00000000 -1340.00000000 108 119 142 97.000000 1.000000 4.000000 1.000000 195.291260 114.000000 54.000000 0.153630 0.984901 0.079792
-12780.00000000 15780.00000000 -1360.00000000 108 119 142 97.000000 1.000000 4.000000 1.000000 195.291260 114.000000 54.000000 0.029665 0.994324 -0.102179
-12780.00000000 15780.00000000 -1350.00000000 108 119 142 97.000000 1.000000 4.000000 1.000000 195.291260 114.000000 54.000000 0.066782 0.977446 0.200346
-12790.00000000 15790.00000000 -1360.00000000 108 119 142 97.000000 1.000000 4.000000 1.000000 195.291260 114.000000 54.000000 0.118184 0.949453 0.290812
-12800.00000000 15780.00000000 -1350.00000000 108 119 142 97.000000 1.000000 4.000000 1.000000 195.291260 114.000000 54.000000 0.058898 0.994590 -0.085568
-12880.00000000 15790.00000000 -770.00000000 108 119 142 97.000000 1.000000 4.000000 1.000000 195.291260 114.000000 54.000000 0.506050 0.860978 -0.051298
-12830.00000000 15770.00000000 -870.00000000 108 119 142 97.000000 1.000000 4.000000 1.000000 195.291260 114.000000 54.000000 -0.064807 0.997599 0.024435
-12870.00000000 15760.00000000 -970.00000000 108 119 142 97.000000 1.000000 4.000000 1.000000 195.291260 114.000000 54.000000 0.500853 0.865355 0.017550
-12820.00000000 15760.00000000 -980.00000000 108 119 142 97.000000 1.000000 4.000000 1.000000 195.291260 114.000000 54.000000 -0.248645 0.956020 -0.155569
-12820.00000000 15790.00000000 -1020.00000000 108 119 142 97.000000 1.000000 4.000000 1.000000 195.291260 114.000000 54.000000 0.444950 0.893982 -0.053067
-12810.00000000 15790.00000000 -1010.00000000 108 119 142 97.000000 1.000000 4.000000 1.000000 195.291260 114.000000 54.000000 -0.179176 0.972126 0.151220
-12810.00000000 15790.00000000 -1010.00000000 108 119 142 97.000000 1.000000 4.000000 1.000000 195.291260 114.000000 54.000000 -0.179176 0.972126 0.151220
-12820.00000000 15770.00000000 -1090.00000000 108 119 142 97.000000 1.000000 4.000000 1.000000 195.291260 114.000000 54.000000 0.282155 0.944606 0.167657
-12810.00000000 15780.00000000 -1160.00000000 108 119 142 97.000000 1.000000 4.000000 1.000000 195.291260 114.000000 54.000000 0.068177 0.953193 -0.294576
-12820.00000000 15780.00000000 -1120.00000000 108 119 142 97.000000 1.000000 4.000000 1.000000 195.291260 114.000000 54.000000 -0.045613 0.967739 -0.247791
-12830.00000000 15790.00000000 -1200.00000000 108 119 142 97.000000 1.000000 4.000000 1.000000 195.291260 114.000000 54.000000 -0.088902 0.993672 -0.068646
-12810.00000000 15790.00000000 -1270.00000000 108 119 142 97.000000 1.000000 4.000000 1.000000 195.291260 114.000000 54.000000 0.330668 0.934851 -0.129273
-12850.00000000 15790.00000000 -1270.00000000 108 119 142 97.000000 1.000000 4.000000 1.000000 195.291260 114.000000 54.000000 0.713468 0.679857 -0.169582
-12820.00000000 15790.00000000 -1280.00000000 108 119 142 97.000000 1.000000 4.000000 1.000000 195.291260 114.000000 54.000000 0.322801 0.897001 0.301975
-12820.00000000 15790.00000000 -1300.00000000 108 119 142 97.000000 1.000000 4.000000 1.000000 195.291260 114.000000 54.000000 0.115166 0.961440 -0.249741
-12820.00000000 15790.00000000 -1320.00000000 108 119 142 97.000000 1.000000 4.000000 1.000000 195.291260 114.000000 54.000000 0.358471 0.921981 0.146457
-12810.00000000 15790.00000000 -1360.00000000 108 119 142 97.000000 1.000000 4.000000 1.000000 195.291260 114.000000 54.000000 0.560752 0.821567 -0.102877
-12630.00000000 15890.00000000 -1390.00000000 108 119 142 97.000000 1.000000 4.000000 1.000000 195.291260 114.000000 54.000000 0.964116 0.111987 0.240707
-12630.00000000 15890.00000000 -1430.00000000 108 119 142 97.000000 1.000000 4.000000 1.000000 195.291260 114.000000 54.000000 0.959062 0.221526 0.176425
-12630.00000000 15900.00000000 -1440.00000000 108 119 142 97.000000 1.000000 4.000000 1.000000 195.291260 114.000000 54.000000 0.769682 0.633430 0.079722
-12630.00000000 15880.00000000 -1380.00000000 108 119 142 97.000000 1.000000 4.000000 1.000000 195.291260 114.000000 54.000000 0.886715 0.338728 0.314641
-12620.00000000 15850.00000000 -1390.00000000 108 119 142 97.000000 1.000000 4.000000 1.000000 195.291260 114.000000 54.000000 0.972209 -0.228683 -0.050139
-12620.00000000 15880.00000000 -1440.00000000 108 119 142 97.000000 1.000000 4.000000 1.000000 195.291260 114.000000 54.000000 0.888905 0.185371 0.418909
-12610.00000000 15840.00000000 -1400.00000000 108 119 142 97.000000 1.000000 4.000000 1.000000 195.291260 114.000000 54.000000 0.978476 -0.171511 -0.114752
-12620.00000000 15830.00000000 -1380.00000000 108 119 142 97.000000 1.000000 4.000000 1.000000 195.291260 114.000000 54.000000 0.920906 -0.300264 -0.248544
-12630.00000000 15840.00000000 -1420.00000000 108 119 142 97.000000 1.000000 4.000000 1.000000 195.291260 114.000000 54.000000 0.939831 -0.328343 -0.094382
-12620.00000000 15850.00000000 -1470.00000000 108 119 142 97.000000 1.000000 4.000000 1.000000 195.291260 114.000000 54.000000 0.949523 -0.308819 -0.055101
-12610.00000000 15860.00000000 -1460.00000000 108 119 142 97.000000 1.000000 4.000000 1.000000 195.291260 114.000000 54.000000 0.993801 -0.077483 0.079729
-12610.00000000 15870.00000000 -1490.00000000 108 119 142 97.000000 1.000000 4.000000 1.000000 195.291260 114.000000 54.000000 0.951799 -0.263719 -0.156625
-12610.00000000 15880.00000000 -1520.00000000 108 119 142 97.000000 1.000000 4.000000 1.000000 195.291260 114.000000 54.000000 0.999134 0.040048 0.011295
-12700.00000000 16000.00000000 -1400.00000000 108 119 142 97.000000 1.000000 4.000000 1.000000 195.291260 114.000000 54.000000 0.350160 0.921105 0.170158
-12700.00000000 15990.00000000 -1370.00000000 108 119 142 97.000000 1.000000 4.000000 1.000000 195.291260 114.000000 54.000000 0.630860 0.762726 0.142356
-12750.00000000 16020.00000000 -1400.00000000 108 119 142 97.000000 1.000000 4.000000 1.000000 195.291260 114.000000 54.000000 0.423598 0.875636 -0.232006
-12760.00000000 16010.00000000 -1430.00000000 108 119 142 97.000000 1.000000 4.000000 1.000000 195.291260 114.000000 54.000000 -0.048818 0.991112 0.123747
-12790.00000000 15990.00000000 -1500.00000000 108 119 142 97.000000 1.000000 4.000000 1.000000 195.291260 114.000000 54.000000 -0.229000 0.969809 0.083842
-12760.00000000 15990.00000000 -1460.00000000 108 119 142 97.000000 1.000000 4.000000 1.000000 195.291260 114.000000 54.000000 -0.194937 0.979467 -0.051425
-12770.00000000 16000.00000000 -1480.00000000 108 119 142 97.000000 1.000000 4.000000 1.000000 195.291260 114.000000 54.000000 0.034787 0.998268 0.047436
-12780.00000000 16010.00000000 -1460.00000000 108 119 142 97.000000 1.000000 4.000000 1.000000 195.291260 114.000000 54.000000 -0.112475 0.991828 -0.060214
-12790.00000000 15980.00000000 -1480.00000000 108 119 142 97.000000 1.000000 4.000000 1.000000 195.291260 114.000000 54.000000 -0.485331 0.872490 -0.056691
-12770.00000000 16000.00000000 -1460.00000000 108 119 142 97.000000 1.000000 4.000000 1.000000 195.291260 114.000000 54.000000 -0.103745 0.989656 -0.099082
-12640.00000000 15910.00000000 -1380.00000000 108 119 142 97.000000 1.000000 4.000000 1.000000 195.291260 114.000000 54.000000 0.999160 -0.036015 0.019551
-12670.00000000 15800.00000000 -1400.00000000 108 119 142 97.000000 1.000000 4.000000 1.000000 195.291260 114.000000 54.000000 0.700729 -0.706605 -0.098425
-12660.00000000 15820.00000000 -1390.00000000 108 119 142 97.000000 1.000000 4.000000 1.000000 195.291260 114.000000 54.000000 0.941268 -0.250912 0.225960
-12660.00000000 15820.00000000 -1410.00000000 108 119 142 97.000000 1.000000 4.000000 1.000000 195.291260 114.000000 54.000000 0.749114 -0.661646 0.032447
-12670.00000000 15800.00000000 -1420.00000000 108 119 142 97.000000 1.000000 4.000000 1.000000 195.291260 114.000000 54.000000 0.750549 -0.615795 0.239737
-12670.00000000 15800.00000000 -1410.00000000 108 119 142 97.000000 1.000000 4.000000 1.000000 195.291260 114.000000 54.000000 -0.654939 0.744452 -0.129794
-12670.00000000 15800.00000000 -1430.00000000 108 119 142 97.000000 1.000000 4.000000 1.000000 195.291260 114.000000 54.000000 -0.707401 0.663287 -0.244203
-12660.00000000 15810.00000000 -1430.00000000 108 119 142 97.000000 1.000000 4.000000 1.000000 195.291260 114.000000 54.000000 0.847624 -0.354347 0.394933
-12640.00000000 15860.00000000 -1470.00000000 108 119 142 97.000000 1.000000 4.000000 1.000000 195.291260 114.000000 54.000000 0.890586 0.129256 0.436061
-12650.00000000 15820.00000000 -1460.00000000 108 119 142 97.000000 1.000000 4.000000 1.000000 195.291260 114.000000 54.000000 0.833922 -0.551880 0.001356
-12680.00000000 15800.00000000 -1460.00000000 108 119 142 97.000000 1.000000 4.000000 1.000000 195.291260 114.000000 54.000000 0.756234 -0.654300 -0.001377
-12660.00000000 15800.00000000 -1520.00000000 108 119 142 97.000000 1.000000 4.000000 1.000000 195.291260 114.000000 54.000000 0.934855 -0.342020 -0.095229
-12640.00000000 15840.00000000 -1500.00000000 108 119 142 97.000000 1.000000 4.000000 1.000000 195.291260 114.000000 54.000000 0.982705 0.153889 0.102996
-12690.00000000 15810.00000000 -1520.00000000 108 119 142 97.000000 1.000000 4.000000 1.000000 195.291260 114.000000 54.000000 -0.684318 0.705847 -0.182997
-12800.00000000 15960.00000000 -1410.00000000 108 119 142 97.000000 1.000000 4.000000 1.000000 195.291260 114.000000 54.000000 -0.096501 0.961146 0.258622
-12660.00000000 15830.00000000 -1540.00000000 108 119 142 97.000000 1.000000 4.000000 1.000000 195.291260 114.000000 54.000000 0.951115 0.001230 0.308835
-12650.00000000 15820.00000000 -1550.00000000 108 119 142 97.000000 1.000000 4.000000 1.000000 195.291260 114.000000 54.000000 0.871459 -0.482892 0.085879
-12690.00000000 15800.00000000 -1590.00000000 108 119 142 97.000000 1.000000 4.000000 1.000000 195.291260 114.000000 54.000000 0.905156 -0.416179 -0.086532
-12680.00000000 15810.00000000 -1560.00000000 108 119 142 97.000000 1.000000 4.000000 1.000000 195.291260 114.000000 54.000000 0.869176 -0.488474 -0.076980
-12830.00000000 15970.00000000 -1480.00000000 108 119 142 97.000000 1.000000 4.000000 1.000000 195.291260 114.000000 54.000000 -0.391998 0.881621 0.262834
-12840.00000000 15970.00000000 -1490.00000000 108 119 142 97.000000 1.000000 4.000000 1.000000 195.291260 114.000000 54.000000 -0.374232 0.924178 -0.076456
-12810.00000000 15970.00000000 -1430.00000000 108 119 142 97.000000 1.000000 4.000000 1.000000 195.291260 114.000000 54.000000 -0.223170 0.941195 -0.253665
-12830.00000000 15970.00000000 -1480.00000000 108 119 142 97.000000 1.000000 4.000000 1.000000 195.291260 114.000000 54.000000 -0.391998 0.881621 0.262834
-12810.00000000 15970.00000000 -1430.00000000 108 119 142 97.000000 1.000000 4.000000 1.000000 195.291260 114.000000 54.000000 -0.223170 0.941195 -0.253665
-12810.00000000 16000.00000000 -1440.00000000 108 119 142 97.000000 1.000000 4.000000 1.000000 195.291260 114.000000 54.000000 -0.276152 0.822215 -0.497697
-12820.00000000 16000.00000000 -1510.00000000 108 119 142 97.000000 1.000000 4.000000 1.000000 195.291260 114.000000 54.000000 -0.442174 0.882899 0.158023
-12820.00000000 15970.00000000 -1450.00000000 108 119 142 97.000000 1.000000 4.000000 1.000000 195.291260 114.000000 54.000000 -0.524490 0.837707 0.152176
-12810.00000000 15980.00000000 -1470.00000000 108 119 142 97.000000 1.000000 4.000000 1.000000 195.291260 114.000000 54.000000 -0.240530 0.965937 0.095448
-12850.00000000 15970.00000000 -1520.00000000 108 119 142 97.000000 1.000000 4.000000 1.000000 195.291260 114.000000 54.000000 -0.433513 0.883082 0.179536
-12820.00000000 15970.00000000 -1430.00000000 108 119 142 97.000000 1.000000 4.000000 1.000000 195.291260 114.000000 54.000000 -0.490724 0.861300 0.131728
-12810.00000000 15980.00000000 -1470.00000000 108 119 142 97.000000 1.000000 4.000000 1.000000 195.291260 114.000000 54.000000 -0.240530 0.965937 0.095448
-12850.00000000 15970.00000000 -1550.00000000 108 119 142 97.000000 1.000000 4.000000 1.000000 195.291260 114.000000 54.000000 -0.544255 0.832985 0.099612
-12850.00000000 15940.00000000 -1400.00000000 108 119 142 97.000000 1.000000 4.000000 1.000000 195.291260 114.000000 54.000000 -0.344309 0.903994 -0.253470
-12840.00000000 15940.00000000 -1380.00000000 108 119 142 97.000000 1.000000 4.000000 1.000000 195.291260 114.000000 54.000000 0.734188 -0.672640 -0.092323
-12820.00000000 15910.00000000 -1400.00000000 108 119 142 97.000000 1.000000 4.000000 1.000000 195.291260 114.000000 54.000000 -0.512009 0.840412 -0.177636
-12850.00000000 15900.00000000 -1370.00000000 108 119 142 97.000000 1.000000 4.000000 1.000000 195.291260 114.000000 54.000000 0.904787 -0.402284 -0.139741
-12870.00000000 15940.00000000 -1390.00000000 108 119 142 97.000000 1.000000 4.000000 1.000000 195.291260 114.000000 54.000000 -0.754283 0.602478 -0.260916
-12870.00000000 15930.00000000 -1420.00000000 108 119 142 97.000000 1.000000 4.000000 1.000000 195.291260 114.000000 54.000000 -0.674266 0.736989 -0.047042
-12860.00000000 15940.00000000 -1450.00000000 108 119 142 97.000000 1.000000 4.000000 1.000000 195.291260 114.000000 54.000000 -0.612396 0.753357 0.239633
-12880.00000000 15920.00000000 -1400.00000000 108 119 142 97.000000 1.000000 4.000000 1.000000 195.291260 114.000000 54.000000 0.901874 -0.431902 0.009189
-12870.00000000 15910.00000000 -1400.00000000 108 119 142 97.000000 1.000000 4.000000 1.000000 195.291260 114.000000 54.000000 0.909782 -0.361894 -0.203295
-12870.00000000 15890.00000000 -1410.00000000 108 119 142 97.000000 1.000000 4.000000 1.000000 195.291260 114.000000 54.000000 0.981675 -0.125918 -0.143034
-12870.00000000 15910.00000000 -1440.00000000 108 119 142 97.000000 1.000000 4.000000 1.000000 195.291260 114.000000 54.000000 0.751109 -0.616255 -0.236780
-12870.00000000 15900.00000000 -1420.00000000 108 119 142 97.000000 1.000000 4.000000 1.000000 195.291260 114.000000 54.000000 0.947994 -0.291998 -0.126666
-12840.00000000 15930.00000000 -1520.00000000 108 119 142 97.000000 1.000000 4.000000 1.000000 195.291260 114.000000 54.000000 0.911072 -0.412244 0.001292
-12810.00000000 15950.00000000 -1500.00000000 108 119 142 97.000000 1.000000 4.000000 1.000000 195.291260 114.000000 54.000000 0.048947 0.980133 -0.192206
-12860.00000000 15930.00000000 -1510.00000000 108 119 142 97.000000 1.000000 4.000000 1.000000 195.291260 114.000000 54.000000 -0.753197 0.438134 -0.490645
-12890.00000000 15940.00000000 -1530.00000000 108 119 142 97.000000 1.000000 4.000000 1.000000 195.291260 114.000000 54.000000 -0.589498 0.807627 0.015186
-12890.00000000 15890.00000000 -1480.00000000 108 119 142 97.000000 1.000000 4.000000 1.000000 195.291260 114.000000 54.000000 0.880656 -0.331951 0.338014
-12850.00000000 15810.00000000 -1370.00000000 108 119 142 97.000000 1.000000 4.000000 1.000000 195.291260 114.000000 54.000000 0.783720 0.582766 -0.214866
-12880.00000000 15860.00000000 -1400.00000000 108 119 142 97.000000 1.000000 4.000000 1.000000 195.291260 114.000000 54.000000 0.976874 -0.125687 0.172975
-12890.00000000 15870.00000000 -1380.00000000 108 119 142 97.000000 1.000000 4.000000 1.000000 195.291260 114.000000 54.000000 0.989954 -0.105611 0.094005
-12890.00000000 15860.00000000 -1410.00000000 108 119 142 97.000000 1.000000 4.000000 1.000000 195.291260 114.000000 54.000000 0.913644 0.354270 0.199367
-12870.00000000 15880.00000000 -1410.00000000 108 119 142 97.000000 1.000000 4.000000 1.000000 195.291260 114.000000 54.000000 0.999189 0.037996 -0.013350
-12890.00000000 15860.00000000 -1410.00000000 108 119 142 97.000000 1.000000 4.000000 1.000000 195.291260 114.000000 54.000000 0.913644 0.354270 0.199367
-12890.00000000 15820.00000000 -1400.00000000 108 119 142 97.000000 1.000000 4.000000 1.000000 195.291260 114.000000 54.000000 0.908923 0.410174 0.074949
-12880.00000000 15810.00000000 -1390.00000000 108 119 142 97.000000 1.000000 4.000000 1.000000 195.291260 114.000000 54.000000 0.713765 0.683457 -0.153058
-12890.00000000 15810.00000000 -1420.00000000 108 119 142 97.000000 1.000000 4.000000 1.000000 195.291260 114.000000 54.000000 0.842257 0.387407 -0.374859
-12910.00000000 15890.00000000 -1450.00000000 108 119 142 97.000000 1.000000 4.000000 1.000000 195.291260 114.000000 54.000000 0.992116 -0.121643 -0.030132
-12900.00000000 15890.00000000 -1460.00000000 108 119 142 97.000000 1.000000 4.000000 1.000000 195.291260 114.000000 54.000000 0.948705 -0.235475 -0.210975
-12900.00000000 15890.00000000 -1460.00000000 108 119 142 97.000000 1.000000 4.000000 1.000000 195.291260 114.000000 54.000000 0.948705 -0.235475 -0.210975
-12900.00000000 15890.00000000 -1470.00000000 108 119 142 97.000000 1.000000 4.000000 1.000000 195.291260 114.000000 54.000000 0.988927 -0.142908 0.040014
-12910.00000000 15880.00000000 -1450.00000000 108 119 142 97.000000 1.000000 4.000000 1.000000 195.291260 114.000000 54.000000 0.945366 -0.290778 0.147418
-12900.00000000 15820.00000000 -1430.00000000 108 119 142 97.000000 1.000000 4.000000 1.000000 195.291260 114.000000 54.000000 0.976608 0.199733 -0.079648
-12920.00000000 15880.00000000 -1430.00000000 108 119 142 97.000000 1.000000 4.000000 1.000000 195.291260 114.000000 54.000000 0.892310 -0.445466 0.073095
-12920.00000000 15870.00000000 -1440.00000000 108 119 142 97.000000 1.000000 4.000000 1.000000 195.291260 114.000000 54.000000 0.875995 -0.314265 0.365883
-12900.00000000 15850.00000000 -1410.00000000 108 119 142 97.000000 1.000000 4.000000 1.000000 195.291260 114.000000 54.000000 0.920352 0.016875 0.390728
-12920.00000000 15840.00000000 -1490.00000000 108 119 142 97.000000 1.000000 4.000000 1.000000 195.291260 114.000000 54.000000 0.953563 0.052198 -0.296636
-12950.00000000 15810.00000000 -1510.00000000 108 119 142 97.000000 1.000000 4.000000 1.000000 195.291260 114.000000 54.000000 0.859467 0.344095 0.378042
-12930.00000000 15920.00000000 -1570.00000000 108 119 142 97.000000 1.000000 4.000000 1.000000 195.291260 114.000000 54.000000 0.772667 -0.580681 0.256507
-12940.00000000 15950.00000000 -1550.00000000 108 119 142 97.000000 1.000000 4.000000 1.000000 195.291260 114.000000 54.000000 0.771205 -0.634859 0.046869
-12950.00000000 15900.00000000 -1590.00000000 108 119 142 97.000000 1.000000 4.000000 1.000000 195.291260 114.000000 54.000000 0.899781 -0.419711 -0.119316
-12950.00000000 15910.00000000 -1590.00000000 108 119 142 97.000000 1.000000 4.000000 1.000000 195.291260 114.000000 54.000000 0.951967 -0.181776 -0.246407
-12940.00000000 15920.00000000 -1650.00000000 108 119 142 97.000000 1.000000 4.000000 1.000000 195.291260 114.000000 54.000000 0.948041 -0.316014 -0.036805
-12980.00000000 15880.00000000 -1530.00000000 108 119 142 97.000000 1.000000 4.000000 1.000000 195.291260 114.000000 54.000000 0.952627 -0.288794 -0.095393
-12990.00000000 15850.00000000 -1560.00000000 108 119 142 97.000000 1.000000 4.000000 1.000000 195.291260 114.000000 54.000000 0.988350 -0.042572 -0.146124
-13000.00000000 15840.00000000 -1550.00000000 108 119 142 97.000000 1.000000 4.000000 1.000000 195.291260 114.000000 54.000000 0.984707 0.144775 0.096915
-12990.00000000 15840.00000000 -1560.00000000 108 119 142 97.000000 1.000000 4.000000 1.000000 195.291260 114.000000 54.000000 0.970633 -0.167527 -0.172642
-12990.00000000 15820.00000000 -1560.00000000 108 119 142 97.000000 1.000000 4.000000 1.000000 195.291260 114.000000 54.000000 0.972213 -0.233853 -0.010684
-12990.00000000 15820.00000000 -1560.00000000 108 119 142 97.000000 1.000000 4.000000 1.000000 195.291260 114.000000 54.000000 0.972213 -0.233853 -0.010684
-12990.00000000 15830.00000000 -1560.00000000 108 119 142 97.000000 1.000000 4.000000 1.000000 195.291260 114.000000 54.000000 0.973683 -0.215963 -0.072810
-13020.00000000 15830.00000000 -1580.00000000 108 119 142 97.000000 1.000000 4.000000 1.000000 195.291260 114.000000 54.000000 0.988922 -0.026054 -0.146129
-13020.00000000 15820.00000000 -1580.00000000 108 119 142 97.000000 1.000000 4.000000 1.000000 195.291260 114.000000 54.000000 0.943146 -0.026657 -0.331307
-13050.00000000 15830.00000000 -1610.00000000 108 119 142 97.000000 1.000000 4.000000 1.000000 195.291260 114.000000 54.000000 0.927524 0.257093 0.271297
-13050.00000000 15830.00000000 -1620.00000000 108 119 142 97.000000 1.000000 4.000000 1.000000 195.291260 114.000000 54.000000 0.911706 0.357504 -0.202442
-12680.00000000 15780.00000000 -1390.00000000 108 119 142 97.000000 1.000000 4.000000 1.000000 195.291260 114.000000 54.000000 0.776405 -0.550020 0.307692
-12680.00000000 15790.00000000 -1400.00000000 108 119 142 97.000000 1.000000 4.000000 1.000000 195.291260 114.000000 54.000000 0.767253 -0.638663 -0.058580
-12640.00000000 15780.00000000 -1400.00000000 108 119 142 97.000000 1.000000 4.000000 1.000000 195.291260 114.000000 54.000000 -0.670021 0.670021 -0.319598
-12680.00000000 15790.00000000 -1410.00000000 108 119 142 97.000000 1.000000 4.000000 1.000000 195.291260 114.000000 54.000000 -0.650450 0.746591 -0.139704
-12680.00000000 15790.00000000 -1450.00000000 108 119 142 97.000000 1.000000 4.000000 1.000000 195.291260 114.000000 54.000000 -0.703222 0.703222 -0.104673
-12680.00000000 15750.00000000 -1390.00000000 108 119 142 97.000000 1.000000 4.000000 1.000000 195.291260 114.000000 54.000000 0.468237 -0.757393 0.455093
-12700.00000000 15780.00000000 -1390.00000000 108 119 142 97.000000 1.000000 4.000000 1.000000 195.291260 114.000000 54.000000 -0.414309 0.869593 -0.268618
-12700.00000000 15780.00000000 -1420.00000000 108 119 142 97.000000 1.000000 4.000000 1.000000 195.291260 114.000000 54.000000 -0.714098 0.683904 0.149462
-12700.00000000 15780.00000000 -1430.00000000 108 119 142 97.000000 1.000000 4.000000 1.000000 195.291260 114.000000 54.000000 -0.512307 0.848007 0.135740
-12680.00000000 15780.00000000 -1490.00000000 108 119 142 97.000000 1.000000 4.000000 1.000000 195.291260 114.000000 54.000000 0.847108 -0.530304 -0.034435
-12690.00000000 15790.00000000 -1460.00000000 108 119 142 97.000000 1.000000 4.000000 1.000000 195.291260 114.000000 54.000000 -0.546420 0.823352 -0.153355
-12690.00000000 15780.00000000 -1480.00000000 108 119 142 97.000000 1.000000 4.000000 1.000000 195.291260 114.000000 54.000000 0.861213 -0.412952 0.296282
-12710.00000000 15770.00000000 -1470.00000000 108 119 142 97.000000 1.000000 4.000000 1.000000 195.291260 114.000000 54.000000 -0.403965 0.825356 -0.394460
-12720.00000000 15780.00000000 -1530.00000000 108 119 142 97.000000 1.000000 4.000000 1.000000 195.291260 114.000000 54.000000 -0.587100 0.809171 0.023595
-12750.00000000 15770.00000000 -1390.00000000 108 119 142 97.000000 1.000000 4.000000 1.000000 195.291260 114.000000 54.000000 -0.358863 0.926494 -0.113253
-12760.00000000 15780.00000000 -1370.00000000 108 119 142 97.000000 1.000000 4.000000 1.000000 195.291260 114.000000 54.000000 0.114895 0.989954 -0.082399
-12750.00000000 15780.00000000 -1370.00000000 108 119 142 97.000000 1.000000 4.000000 1.000000 195.291260 114.000000 54.000000 -0.032030 0.978685 -0.202855
-12740.00000000 15780.00000000 -1380.00000000 108 119 142 97.000000 1.000000 4.000000 1.000000 195.291260 114.000000 54.000000 -0.287995 0.954386 0.078779
-12730.00000000 15770.00000000 -1370.00000000 108 119 142 97.000000 1.000000 4.000000 1.000000 195.291260 114.000000 54.000000 -0.084188 0.996404 0.009591
-12730.00000000 15770.00000000 -1440.00000000 108 119 142 97.000000 1.000000 4.000000 1.000000 195.291260 114.000000 54.000000 -0.228427 0.972930 0.035050
-12760.00000000 15760.00000000 -1430.00000000 108 119 142 97.000000 1.000000 4.000000 1.000000 195.291260 114.000000 54.000000 -0.175437 0.954859 -0.239719
-12730.00000000 15770.00000000 -1440.00000000 108 119 142 97.000000 1.000000 4.000000 1.000000 195.291260 114.000000 54.000000 -0.228427 0.972930 0.035050
-12750.00000000 15760.00000000 -1430.00000000 108 119 142 97.000000 1.000000 4.000000 1.000000 195.291260 114.000000 54.000000 -0.422452 0.873469 0.242046
-12740.00000000 15770.00000000 -1420.00000000 108 119 142 97.000000 1.000000 4.000000 1.000000 195.291260 114.000000 54.000000 -0.091324 0.993285 0.071029
-12760.00000000 15780.00000000 -1410.00000000 108 119 142 97.000000 1.000000 4.000000 1.000000 195.291260 114.000000 54.000000 -0.322729 0.938481 0.122880
-12750.00000000 15760.00000000 -1440.00000000 108 119 142 97.000000 1.000000 4.000000 1.000000 195.291260 114.000000 54.000000 -0.303431 0.951262 -0.055053
-12770.00000000 15780.00000000 -1370.00000000 108 119 142 97.000000 1.000000 4.000000 1.000000 195.291260 114.000000 54.000000 -0.147635 0.989041 0.001110
-12800.00000000 15770.00000000 -1370.00000000 108 119 142 97.000000 1.000000 4.000000 1.000000 195.291260 114.000000 54.000000 0.078967 0.890801 -0.447479
-12780.00000000 15760.00000000 -1380.00000000 108 119 142 97.000000 1.000000 4.000000 1.000000 195.291260 114.000000 54.000000 0.264305 0.955968 -0.127550
-12790.00000000 15760.00000000 -1450.00000000 108 119 142 97.000000 1.000000 4.000000 1.000000 195.291260 114.000000 54.000000 0.264098 0.941626 -0.208789
-12770.00000000 15770.00000000 -1420.00000000 108 119 142 97.000000 1.000000 4.000000 1.000000 195.291260 114.000000 54.000000 -0.093253 0.995061 0.034010
-12770.00000000 15760.00000000 -1440.00000000 108 119 142 97.000000 1.000000 4.000000 1.000000 195.291260 114.000000 54.000000 -0.047775 0.994384 -0.094439
-12800.00000000 15760.00000000 -1450.00000000 108 119 142 97.000000 1.000000 4.000000 1.000000 195.291260 114.000000 54.000000 0.074312 0.978242 -0.193699
-12800.00000000 15760.00000000 -1440.00000000 108 119 142 97.000000 1.000000 4.000000 1.000000 195.291260 114.000000 54.000000 0.066561 0.996229 0.055649
-12770.00000000 15760.00000000 -1440.00000000 108 119 142 97.000000 1.000000 4.000000 1.000000 195.291260 114.000000 54.000000 -0.047775 0.994384 -0.094439
-12770.00000000 15750.00000000 -1420.00000000 108 119 142 97.000000 1.000000 4.000000 1.000000 195.291260 114.000000 54.000000 -0.221592 0.973292 0.059989
-12770.00000000 15750.00000000 -1450.00000000 108 119 142 97.000000 1.000000 4.000000 1.000000 195.291260 114.000000 54.000000 -0.414651 0.908474 0.052335
-12780.00000000 15750.00000000 -1440.00000000 108 119 142 97.000000 1.000000 4.000000 1.000000 195.291260 114.000000 54.000000 0.219218 0.936914 -0.272278
-12730.00000000 15770.00000000 -1480.00000000 108 119 142 97.000000 1.000000 4.000000 1.000000 195.291260 114.000000 54.000000 -0.443437 0.876561 0.187098
-12730.00000000 15770.00000000 -1470.00000000 108 119 142 97.000000 1.000000 4.000000 1.000000 195.291260 114.000000 54.000000 -0.235086 0.944470 0.229587
-12740.00000000 15780.00000000 -1460.00000000 108 119 142 97.000000 1.000000 4.000000 1.000000 195.291260 114.000000 54.000000 -0.462921 0.802502 -0.376423
-12760.00000000 15760.00000000 -1460.00000000 108 119 142 97.000000 1.000000 4.000000 1.000000 195.291260 114.000000 54.000000 -0.169576 0.966972 0.190288
-12740.00000000 15760.00000000 -1470.00000000 108 119 142 97.000000 1.000000 4.000000 1.000000 195.291260 114.000000 54.000000 -0.047011 0.989531 0.136448
-12750.00000000 15760.00000000 -1510.00000000 108 119 142 97.000000 1.000000 4.000000 1.000000 195.291260 114.000000 54.000000 -0.479313 0.877635 0.003983
-12750.00000000 15760.00000000 -1500.00000000 108 119 142 97.000000 1.000000 4.000000 1.000000 195.291260 114.000000 54.000000 -0.173921 0.983188 -0.055608
-12740.00000000 15760.00000000 -1520.00000000 108 119 142 97.000000 1.000000 4.000000 1.000000 195.291260 114.000000 54.000000 0.102613 0.969119 -0.224228
-12760.00000000 15750.00000000 -1510.00000000 108 119 142 97.000000 1.000000 4.000000 1.000000 195.291260 114.000000 54.000000 -0.022179 0.917155 -0.397912
-12750.00000000 15740.00000000 -1500.00000000 108 119 142 97.000000 1.000000 4.000000 1.000000 195.291260 114.000000 54.000000 0.001115 0.988615 0.150466
-12790.00000000 15760.00000000 -1460.00000000 108 119 142 97.000000 1.000000 4.000000 1.000000 195.291260 114.000000 54.000000 0.086053 0.971528 -0.220745
-12800.00000000 15760.00000000 -1460.00000000 108 119 142 97.000000 1.000000 4.000000 1.000000 195.291260 114.000000 54.000000 0.352813 0.925614 -0.136974
-12770.00000000 15760.00000000 -1480.00000000 108 119 142 97.000000 1.000000 4.000000 1.000000 195.291260 114.000000 54.000000 -0.284220 0.955544 -0.078450
-12790.00000000 15750.00000000 -1460.00000000 108 119 142 97.000000 1.000000 4.000000 1.000000 195.291260 114.000000 54.000000 0.124023 0.967892 -0.218639
-12800.00000000 15730.00000000 -1490.00000000 108 119 142 97.000000 1.000000 4.000000 1.000000 195.291260 114.000000 54.000000 0.289441 0.874384 -0.389457
-12800.00000000 15730.00000000 -1490.00000000 108 119 142 97.000000 1.000000 4.000000 1.000000 195.291260 114.000000 54.000000 0.289441 0.874384 -0.389457
-12780.00000000 15750.00000000 -1530.00000000 108 119 142 97.000000 1.000000 4.000000 1.000000 195.291260 114.000000 54.000000 -0.094510 0.969044 -0.228084
-12800.00000000 15740.00000000 -1530.00000000 108 119 142 97.000000 1.000000 4.000000 1.000000 195.291260 114.000000 54.000000 0.111360 0.966397 -0.231679
-12720.00000000 15770.00000000 -1550.00000000 108 119 142 97.000000 1.000000 4.000000 1.000000 195.291260 114.000000 54.000000 -0.545718 0.663257 -0.512135
-12670.00000000 15780.00000000 -1550.00000000 108 119 142 97.000000 1.000000 4.000000 1.000000 195.291260 114.000000 54.000000 -0.745004 0.626303 0.229593
-12650.00000000 15790.00000000 -1540.00000000 108 119 142 97.000000 1.000000 4.000000 1.000000 195.291260 114.000000 54.000000 0.871331 -0.383020 0.306721
-12700.00000000 15780.00000000 -1590.00000000 108 119 142 97.000000 1.000000 4.000000 1.000000 195.291260 114.000000 54.000000 0.783552 -0.619783 -0.043766
-12710.00000000 15770.00000000 -1550.00000000 108 119 142 97.000000 1.000000 4.000000 1.000000 195.291260 114.000000 54.000000 -0.463475 0.740570 -0.486566
-12720.00000000 15770.00000000 -1610.00000000 108 119 142 97.000000 1.000000 4.000000 1.000000 195.291260 114.000000 54.000000 -0.221033 0.975145 0.015366
-12720.00000000 15770.00000000 -1610.00000000 108 119 142 97.000000 1.000000 4.000000 1.000000 195.291260 114.000000 54.000000 -0.221033 0.975145 0.015366
-12750.00000000 15760.00000000 -1590.00000000 108 119 142 97.000000 1.000000 4.000000 1.000000 195.291260 114.000000 54.000000 -0.303376 0.952576 -0.023721
-12740.00000000 15750.00000000 -1560.00000000 108 119 142 97.000000 1.000000 4.000000 1.000000 195.291260 114.000000 54.000000 -0.230931 0.936322 -0.264521
-12730.00000000 15750.00000000 -1610.00000000 108 119 142 97.000000 1.000000 4.000000 1.000000 195.291260 114.000000 54.000000 -0.449639 0.886592 0.108534
-12730.00000000 15750.00000000 -1590.00000000 108 119 142 97.000000 1.000000 4.000000 1.000000 195.291260 114.000000 54.000000 -0.632695 0.767748 0.101290
-12730.00000000 15750.00000000 -1590.00000000 108 119 142 97.000000 1.000000 4.000000 1.000000 195.291260 114.000000 54.000000 -0.632695 0.767748 0.101290
-12740.00000000 15750.00000000 -1590.00000000 108 119 142 97.000000 1.000000 4.000000 1.000000 195.291260 114.000000 54.000000 -0.031013 0.986685 0.159661
-12740.00000000 15750.00000000 -1580.00000000 108 119 142 97.000000 1.000000 4.000000 1.000000 195.291260 114.000000 54.000000 -0.010923 0.999928 0.004965
-12760.00000000 15750.00000000 -1610.00000000 108 119 142 97.000000 1.000000 4.000000 1.000000 195.291260 114.000000 54.000000 -0.206598 0.972891 0.103925
-12800.00000000 15740.00000000 -1540.00000000 108 119 142 97.000000 1.000000 4.000000 1.000000 195.291260 114.000000 54.000000 0.159960 0.984645 -0.069909
-12790.00000000 15710.00000000 -1620.00000000 108 119 142 97.000000 1.000000 4.000000 1.000000 195.291260 114.000000 54.000000 0.066055 0.968389 -0.240539
-12790.00000000 15710.00000000 -1540.00000000 108 119 142 97.000000 1.000000 4.000000 1.000000 195.291260 114.000000 54.000000 -0.184063 0.969226 -0.163468
-12820.00000000 15780.00000000 -1380.00000000 108 119 142 97.000000 1.000000 4.000000 1.000000 195.291260 114.000000 54.000000 0.429376 0.880885 -0.199195
-12820.00000000 15780.00000000 -1380.00000000 108 119 142 97.000000 1.000000 4.000000 1.000000 195.291260 114.000000 54.000000 0.429376 0.880885 -0.199195
-12830.00000000 15790.00000000 -1380.00000000 108 119 142 97.000000 1.000000 4.000000 1.000000 195.291260 114.000000 54.000000 0.624368 0.775730 0.091690
-12810.00000000 15790.00000000 -1390.00000000 108 119 142 97.000000 1.000000 4.000000 1.000000 195.291260 114.000000 54.000000 0.165207 0.980227 -0.108914
-12840.00000000 15770.00000000 -1430.00000000 108 119 142 97.000000 1.000000 4.000000 1.000000 195.291260 114.000000 54.000000 0.494587 0.818031 -0.293612
-12830.00000000 15770.00000000 -1420.00000000 108 119 142 97.000000 1.000000 4.000000 1.000000 195.291260 114.000000 54.000000 0.503946 0.784095 -0.362262
-12840.00000000 15780.00000000 -1420.00000000 108 119 142 97.000000 1.000000 4.000000 1.000000 195.291260 114.000000 54.000000 0.369269 0.860598 -0.350729
-12850.00000000 15760.00000000 -1460.00000000 108 119 142 97.000000 1.000000 4.000000 1.000000 195.291260 114.000000 54.000000 0.290191 0.948136 -0.129717
-12850.00000000 15760.00000000 -1460.00000000 108 119 142 97.000000 1.000000 4.000000 1.000000 195.291260 114.000000 54.000000 0.290191 0.948136 -0.129717
-12830.00000000 15760.00000000 -1530.00000000 108 119 142 97.000000 1.000000 4.000000 1.000000 195.291260 114.000000 54.000000 0.639537 0.675706 -0.366624
