//X Y Z R G B PointSourceId ScanDirectionFlag NumberOfReturns ReturnNumber GpsTime Intensity Classification Nx Ny Nz
-90.00000000 17550.00000000 -700.00000000 122 118 135 0.000000 0.000000 0.000000 0.000000 -60.708740 0.000000 38.000000 0.966207 0.236127 0.103385
-80.00000000 17540.00000000 -740.00000000 122 118 135 0.000000 0.000000 0.000000 0.000000 -60.708740 0.000000 38.000000 0.975939 0.218041 0.001166
-70.00000000 17530.00000000 -770.00000000 122 118 135 0.000000 0.000000 0.000000 0.000000 -60.708740 0.000000 38.000000 0.903047 0.269588 0.334407
-70.00000000 17530.00000000 -750.00000000 122 118 135 0.000000 0.000000 0.000000 0.000000 -60.708740 0.000000 38.000000 0.982616 0.178550 -0.050845
-60.00000000 17540.00000000 -770.00000000 122 118 135 0.000000 0.000000 0.000000 0.000000 -60.708740 0.000000 38.000000 0.971985 0.211955 0.101588
-70.00000000 17510.00000000 -730.00000000 122 118 135 0.000000 0.000000 0.000000 0.000000 -60.708740 0.000000 38.000000 0.997858 -0.065416 -0.001038
-70.00000000 17510.00000000 -700.00000000 122 118 135 0.000000 0.000000 0.000000 0.000000 -60.708740 0.000000 38.000000 0.983231 -0.102546 -0.150802
-70.00000000 17500.00000000 -720.00000000 122 118 135 0.000000 0.000000 0.000000 0.000000 -60.708740 0.000000 38.000000 0.979115 -0.166265 0.117001
-70.00000000 17500.00000000 -710.00000000 122 118 135 0.000000 0.000000 0.000000 0.000000 -60.708740 0.000000 38.000000 0.981653 -0.172665 -0.080899
-70.00000000 17490.00000000 -700.00000000 122 118 135 0.000000 0.000000 0.000000 0.000000 -60.708740 0.000000 38.000000 0.969420 0.076106 -0.233310
-70.00000000 17510.00000000 -700.00000000 122 118 135 0.000000 0.000000 0.000000 0.000000 -60.708740 0.000000 38.000000 0.983231 -0.102546 -0.150802
-60.00000000 17490.00000000 -760.00000000 122 118 135 0.000000 0.000000 0.000000 0.000000 -60.708740 0.000000 38.000000 0.984033 0.117118 -0.134022
-60.00000000 17510.00000000 -770.00000000 122 118 135 0.000000 0.000000 0.000000 0.000000 -60.708740 0.000000 38.000000 0.992760 0.115022 -0.034618
-60.00000000 17510.00000000 -770.00000000 122 118 135 0.000000 0.000000 0.000000 0.000000 -60.708740 0.000000 38.000000 0.992760 0.115022 -0.034618
-40.00000000 17500.00000000 -840.00000000 122 118 135 0.000000 0.000000 0.000000 0.000000 -60.708740 0.000000 38.000000 0.986948 0.017036 0.160138
-60.00000000 17530.00000000 -850.00000000 122 118 135 0.000000 0.000000 0.000000 0.000000 -60.708740 0.000000 38.000000 0.977674 0.162739 0.132924
-60.00000000 17510.00000000 -780.00000000 122 118 135 0.000000 0.000000 0.000000 0.000000 -60.708740 0.000000 38.000000 0.982149 0.130547 0.135427
-60.00000000 17510.00000000 -780.00000000 122 118 135 0.000000 0.000000 0.000000 0.000000 -60.708740 0.000000 38.000000 0.982149 0.130547 0.135427
-60.00000000 17490.00000000 -820.00000000 122 118 135 0.000000 0.000000 0.000000 0.000000 -60.708740 0.000000 38.000000 0.978855 0.001156 0.204554
-60.00000000 17510.00000000 -780.00000000 122 118 135 0.000000 0.000000 0.000000 0.000000 -60.708740 0.000000 38.000000 0.982149 0.130547 0.135427
-60.00000000 17490.00000000 -810.00000000 122 118 135 0.000000 0.000000 0.000000 0.000000 -60.708740 0.000000 38.000000 0.999633 -0.001003 0.027071
-50.00000000 17490.00000000 -860.00000000 122 118 135 0.000000 0.000000 0.000000 0.000000 -60.708740 0.000000 38.000000 0.982065 0.085765 0.167905
-120.00000000 17620.00000000 -710.00000000 122 118 135 0.000000 0.000000 0.000000 0.000000 -60.708740 0.000000 38.000000 0.931632 0.363222 -0.011470
-120.00000000 17630.00000000 -700.00000000 122 118 135 0.000000 0.000000 0.000000 0.000000 -60.708740 0.000000 38.000000 0.865793 0.499233 -0.034194
-110.00000000 17620.00000000 -710.00000000 122 118 135 0.000000 0.000000 0.000000 0.000000 -60.708740 0.000000 38.000000 0.951801 0.306512 0.011168
-110.00000000 17620.00000000 -700.00000000 122 118 135 0.000000 0.000000 0.000000 0.000000 -60.708740 0.000000 38.000000 0.926142 0.361455 -0.107754
-110.00000000 17620.00000000 -700.00000000 122 118 135 0.000000 0.000000 0.000000 0.000000 -60.708740 0.000000 38.000000 0.926142 0.361455 -0.107754
-120.00000000 17630.00000000 -700.00000000 122 118 135 0.000000 0.000000 0.000000 0.000000 -60.708740 0.000000 38.000000 0.865793 0.499233 -0.034194
-110.00000000 17620.00000000 -720.00000000 122 118 135 0.000000 0.000000 0.000000 0.000000 -60.708740 0.000000 38.000000 0.927798 0.350501 0.127830
-110.00000000 17630.00000000 -740.00000000 122 118 135 0.000000 0.000000 0.000000 0.000000 -60.708740 0.000000 38.000000 0.883345 0.455142 0.112013
-110.00000000 17630.00000000 -740.00000000 122 118 135 0.000000 0.000000 0.000000 0.000000 -60.708740 0.000000 38.000000 0.883345 0.455142 0.112013
-120.00000000 17640.00000000 -740.00000000 122 118 135 0.000000 0.000000 0.000000 0.000000 -60.708740 0.000000 38.000000 0.731298 0.668229 0.136649
-100.00000000 17600.00000000 -710.00000000 122 118 135 0.000000 0.000000 0.000000 0.000000 -60.708740 0.000000 38.000000 0.830152 0.554839 0.054782
-100.00000000 17590.00000000 -700.00000000 122 118 135 0.000000 0.000000 0.000000 0.000000 -60.708740 0.000000 38.000000 0.747540 0.640530 -0.175802
-70.00000000 17600.00000000 -900.00000000 122 118 135 0.000000 0.000000 0.000000 0.000000 -60.708740 0.000000 38.000000 0.914809 0.384525 -0.123548
-80.00000000 17590.00000000 -920.00000000 122 118 135 0.000000 0.000000 0.000000 0.000000 -60.708740 0.000000 38.000000 0.654002 0.717039 -0.241114
-80.00000000 17590.00000000 -920.00000000 122 118 135 0.000000 0.000000 0.000000 0.000000 -60.708740 0.000000 38.000000 0.654002 0.717039 -0.241114
-70.00000000 17590.00000000 -910.00000000 122 118 135 0.000000 0.000000 0.000000 0.000000 -60.708740 0.000000 38.000000 0.838449 0.488968 -0.240652
-40.00000000 17540.00000000 -930.00000000 122 118 135 0.000000 0.000000 0.000000 0.000000 -60.708740 0.000000 38.000000 0.977601 0.210073 -0.012909
-30.00000000 17550.00000000 -920.00000000 122 118 135 0.000000 0.000000 0.000000 0.000000 -60.708740 0.000000 38.000000 0.981769 0.189908 0.008057
-40.00000000 17500.00000000 -910.00000000 122 118 135 0.000000 0.000000 0.000000 0.000000 -60.708740 0.000000 38.000000 0.977346 0.140688 0.158118
-40.00000000 17490.00000000 -920.00000000 122 118 135 0.000000 0.000000 0.000000 0.000000 -60.708740 0.000000 38.000000 0.993441 0.068785 0.091338
-40.00000000 17500.00000000 -910.00000000 122 118 135 0.000000 0.000000 0.000000 0.000000 -60.708740 0.000000 38.000000 0.977346 0.140688 0.158118
-50.00000000 17520.00000000 -940.00000000 122 118 135 0.000000 0.000000 0.000000 0.000000 -60.708740 0.000000 38.000000 0.946979 0.126887 -0.295180
-210.00000000 17790.00000000 -720.00000000 122 118 135 0.000000 0.000000 0.000000 0.000000 -60.708740 0.000000 38.000000 0.512826 0.718620 -0.469675
-230.00000000 17780.00000000 -700.00000000 122 118 135 0.000000 0.000000 0.000000 0.000000 -60.708740 0.000000 38.000000 0.532037 0.806637 -0.257437
-240.00000000 17780.00000000 -700.00000000 122 118 135 0.000000 0.000000 0.000000 0.000000 -60.708740 0.000000 38.000000 0.421088 0.882068 -0.211283
-230.00000000 17800.00000000 -770.00000000 122 118 135 0.000000 0.000000 0.000000 0.000000 -60.708740 0.000000 38.000000 0.451994 0.833608 -0.317490
-230.00000000 17800.00000000 -770.00000000 122 118 135 0.000000 0.000000 0.000000 0.000000 -60.708740 0.000000 38.000000 0.451994 0.833608 -0.317490
-220.00000000 17770.00000000 -710.00000000 122 118 135 0.000000 0.000000 0.000000 0.000000 -60.708740 0.000000 38.000000 0.600668 0.760638 -0.246227
-40.00000000 17440.00000000 -770.00000000 122 118 135 0.000000 0.000000 0.000000 0.000000 -60.708740 0.000000 38.000000 0.910114 -0.145336 0.388033
-40.00000000 17440.00000000 -770.00000000 122 118 135 0.000000 0.000000 0.000000 0.000000 -60.708740 0.000000 38.000000 0.910114 -0.145336 0.388033
-60.00000000 17470.00000000 -760.00000000 122 118 135 0.000000 0.000000 0.000000 0.000000 -60.708740 0.000000 38.000000 0.999884 0.014924 0.002985
-60.00000000 17430.00000000 -700.00000000 122 118 135 0.000000 0.000000 0.000000 0.000000 -60.708740 0.000000 38.000000 0.979634 -0.094172 0.177337
-40.00000000 17470.00000000 -830.00000000 122 118 135 0.000000 0.000000 0.000000 0.000000 -60.708740 0.000000 38.000000 0.956971 0.041389 -0.287217
-40.00000000 17420.00000000 -780.00000000 122 118 135 0.000000 0.000000 0.000000 0.000000 -60.708740 0.000000 38.000000 0.897744 -0.014544 0.440278
-30.00000000 17430.00000000 -820.00000000 122 118 135 0.000000 0.000000 0.000000 0.000000 -60.708740 0.000000 38.000000 0.958573 -0.271488 -0.086207
-40.00000000 17430.00000000 -810.00000000 122 118 135 0.000000 0.000000 0.000000 0.000000 -60.708740 0.000000 38.000000 0.958095 -0.201213 0.203878
-50.00000000 17470.00000000 -810.00000000 122 118 135 0.000000 0.000000 0.000000 0.000000 -60.708740 0.000000 38.000000 0.993731 -0.061757 -0.093197
-50.00000000 17460.00000000 -820.00000000 122 118 135 0.000000 0.000000 0.000000 0.000000 -60.708740 0.000000 38.000000 0.998751 -0.048644 0.011385
-50.00000000 17460.00000000 -800.00000000 122 118 135 0.000000 0.000000 0.000000 0.000000 -60.708740 0.000000 38.000000 0.996630 -0.070338 0.042203
-50.00000000 17390.00000000 -720.00000000 122 118 135 0.000000 0.000000 0.000000 0.000000 -60.708740 0.000000 38.000000 0.952539 -0.265856 -0.148291
-60.00000000 17390.00000000 -750.00000000 122 118 135 0.000000 0.000000 0.000000 0.000000 -60.708740 0.000000 38.000000 0.963060 -0.225453 0.147261
-80.00000000 17330.00000000 -700.00000000 122 118 135 0.000000 0.000000 0.000000 0.000000 -60.708740 0.000000 38.000000 0.737882 -0.490271 0.463859
-70.00000000 17320.00000000 -720.00000000 122 118 135 0.000000 0.000000 0.000000 0.000000 -60.708740 0.000000 38.000000 0.877052 -0.478764 -0.039556
-70.00000000 17320.00000000 -720.00000000 122 118 135 0.000000 0.000000 0.000000 0.000000 -60.708740 0.000000 38.000000 0.877052 -0.478764 -0.039556
-70.00000000 17320.00000000 -730.00000000 122 118 135 0.000000 0.000000 0.000000 0.000000 -60.708740 0.000000 38.000000 0.758047 -0.651948 0.018148
-60.00000000 17320.00000000 -770.00000000 122 118 135 0.000000 0.000000 0.000000 0.000000 -60.708740 0.000000 38.000000 0.788820 -0.455151 0.413037
-70.00000000 17350.00000000 -770.00000000 122 118 135 0.000000 0.000000 0.000000 0.000000 -60.708740 0.000000 38.000000 0.843789 -0.213598 0.492337
-70.00000000 17320.00000000 -770.00000000 122 118 135 0.000000 0.000000 0.000000 0.000000 -60.708740 0.000000 38.000000 0.786829 -0.436406 0.436406
-30.00000000 17390.00000000 -810.00000000 122 118 135 0.000000 0.000000 0.000000 0.000000 -60.708740 0.000000 38.000000 0.892416 -0.262825 0.366766
-30.00000000 17380.00000000 -840.00000000 122 118 135 0.000000 0.000000 0.000000 0.000000 -60.708740 0.000000 38.000000 0.933978 -0.329559 0.138114
-30.00000000 17350.00000000 -850.00000000 122 118 135 0.000000 0.000000 0.000000 0.000000 -60.708740 0.000000 38.000000 0.800594 -0.417211 0.430098
-50.00000000 17380.00000000 -820.00000000 122 118 135 0.000000 0.000000 0.000000 0.000000 -60.708740 0.000000 38.000000 0.891515 -0.449171 -0.058706
-60.00000000 17370.00000000 -840.00000000 122 118 135 0.000000 0.000000 0.000000 0.000000 -60.708740 0.000000 38.000000 0.919797 -0.173787 0.351812
-50.00000000 17390.00000000 -830.00000000 122 118 135 0.000000 0.000000 0.000000 0.000000 -60.708740 0.000000 38.000000 0.921190 -0.388485 0.022088
-50.00000000 17380.00000000 -840.00000000 122 118 135 0.000000 0.000000 0.000000 0.000000 -60.708740 0.000000 38.000000 0.939967 -0.295026 0.171527
-50.00000000 17350.00000000 -810.00000000 122 118 135 0.000000 0.000000 0.000000 0.000000 -60.708740 0.000000 38.000000 0.823744 -0.566921 -0.006830
-60.00000000 17330.00000000 -850.00000000 122 118 135 0.000000 0.000000 0.000000 0.000000 -60.708740 0.000000 38.000000 0.829380 -0.533493 0.165876
-40.00000000 17450.00000000 -870.00000000 122 118 135 0.000000 0.000000 0.000000 0.000000 -60.708740 0.000000 38.000000 0.955094 -0.006146 0.296239
-40.00000000 17460.00000000 -920.00000000 122 118 135 0.000000 0.000000 0.000000 0.000000 -60.708740 0.000000 38.000000 0.968919 0.005974 -0.247307
-30.00000000 17400.00000000 -870.00000000 122 118 135 0.000000 0.000000 0.000000 0.000000 -60.708740 0.000000 38.000000 0.960027 -0.242299 0.140140
-30.00000000 17430.00000000 -890.00000000 122 118 135 0.000000 0.000000 0.000000 0.000000 -60.708740 0.000000 38.000000 0.995338 -0.094227 0.020578
-20.00000000 17420.00000000 -880.00000000 122 118 135 0.000000 0.000000 0.000000 0.000000 -60.708740 0.000000 38.000000 0.976067 -0.120918 -0.180753
-30.00000000 17430.00000000 -890.00000000 122 118 135 0.000000 0.000000 0.000000 0.000000 -60.708740 0.000000 38.000000 0.995338 -0.094227 0.020578
-30.00000000 17420.00000000 -910.00000000 122 118 135 0.000000 0.000000 0.000000 0.000000 -60.708740 0.000000 38.000000 0.985520 -0.125735 0.113760
-20.00000000 17410.00000000 -940.00000000 122 118 135 0.000000 0.000000 0.000000 0.000000 -60.708740 0.000000 38.000000 0.944000 -0.077248 0.320777
-40.00000000 17400.00000000 -940.00000000 122 118 135 0.000000 0.000000 0.000000 0.000000 -60.708740 0.000000 38.000000 0.958945 -0.160045 0.234115
-50.00000000 17400.00000000 -910.00000000 122 118 135 0.000000 0.000000 0.000000 0.000000 -60.708740 0.000000 38.000000 0.958349 -0.159945 0.236613
-40.00000000 17470.00000000 -950.00000000 122 118 135 0.000000 0.000000 0.000000 0.000000 -60.708740 0.000000 38.000000 0.999137 0.039965 -0.011272
-20.00000000 17360.00000000 -870.00000000 122 118 135 0.000000 0.000000 0.000000 0.000000 -60.708740 0.000000 38.000000 0.874740 -0.448396 0.183769
-20.00000000 17390.00000000 -890.00000000 122 118 135 0.000000 0.000000 0.000000 0.000000 -60.708740 0.000000 38.000000 0.880324 -0.192525 0.433548
-30.00000000 17390.00000000 -910.00000000 122 118 135 0.000000 0.000000 0.000000 0.000000 -60.708740 0.000000 38.000000 0.938282 -0.011396 -0.345683
-40.00000000 17330.00000000 -940.00000000 122 118 135 0.000000 0.000000 0.000000 0.000000 -60.708740 0.000000 38.000000 0.849827 -0.369558 0.375795
-20.00000000 17350.00000000 -930.00000000 122 118 135 0.000000 0.000000 0.000000 0.000000 -60.708740 0.000000 38.000000 0.929867 -0.348188 -0.118794
-50.00000000 17320.00000000 -870.00000000 122 118 135 0.000000 0.000000 0.000000 0.000000 -60.708740 0.000000 38.000000 0.819935 -0.538035 0.195511
-80.00000000 17310.00000000 -710.00000000 122 118 135 0.000000 0.000000 0.000000 0.000000 -60.708740 0.000000 38.000000 0.816566 -0.252562 0.519069
-60.00000000 17310.00000000 -770.00000000 122 118 135 0.000000 0.000000 0.000000 0.000000 -60.708740 0.000000 38.000000 0.708003 -0.304812 0.637041
-70.00000000 17270.00000000 -770.00000000 122 118 135 0.000000 0.000000 0.000000 0.000000 -60.708740 0.000000 38.000000 0.777220 -0.435048 0.454601
-70.00000000 17290.00000000 -790.00000000 122 118 135 0.000000 0.000000 0.000000 0.000000 -60.708740 0.000000 38.000000 0.674122 -0.722599 0.153003
-70.00000000 17290.00000000 -780.00000000 122 118 135 0.000000 0.000000 0.000000 0.000000 -60.708740 0.000000 38.000000 -0.645943 0.724525 -0.240461
-50.00000000 17300.00000000 -820.00000000 122 118 135 0.000000 0.000000 0.000000 0.000000 -60.708740 0.000000 38.000000 0.732357 -0.461236 0.500913
-70.00000000 17280.00000000 -810.00000000 122 118 135 0.000000 0.000000 0.000000 0.000000 -60.708740 0.000000 38.000000 0.801813 -0.555575 0.220075
-70.00000000 17280.00000000 -800.00000000 122 118 135 0.000000 0.000000 0.000000 0.000000 -60.708740 0.000000 38.000000 0.731846 -0.513779 0.447698
-70.00000000 17280.00000000 -800.00000000 122 118 135 0.000000 0.000000 0.000000 0.000000 -60.708740 0.000000 38.000000 0.731846 -0.513779 0.447698
-70.00000000 17280.00000000 -840.00000000 122 118 135 0.000000 0.000000 0.000000 0.000000 -60.708740 0.000000 38.000000 0.686521 -0.713562 0.139708
-70.00000000 17270.00000000 -850.00000000 122 118 135 0.000000 0.000000 0.000000 0.000000 -60.708740 0.000000 38.000000 0.717760 -0.226743 0.658337
-90.00000000 17190.00000000 -720.00000000 122 118 135 0.000000 0.000000 0.000000 0.000000 -60.708740 0.000000 38.000000 -0.536736 0.808971 -0.239752
-60.00000000 17230.00000000 -760.00000000 122 118 135 0.000000 0.000000 0.000000 0.000000 -60.708740 0.000000 38.000000 0.759639 -0.410041 0.504792
-90.00000000 17170.00000000 -810.00000000 122 118 135 0.000000 0.000000 0.000000 0.000000 -60.708740 0.000000 38.000000 0.436898 -0.440147 0.784468
-90.00000000 17180.00000000 -810.00000000 122 118 135 0.000000 0.000000 0.000000 0.000000 -60.708740 0.000000 38.000000 0.355448 -0.627357 0.692878
-100.00000000 17240.00000000 -720.00000000 122 118 135 0.000000 0.000000 0.000000 0.000000 -60.708740 0.000000 38.000000 -0.464121 0.773535 -0.431551
-100.00000000 17230.00000000 -720.00000000 122 118 135 0.000000 0.000000 0.000000 0.000000 -60.708740 0.000000 38.000000 -0.555389 0.806309 -0.203490
-120.00000000 17220.00000000 -710.00000000 122 118 135 0.000000 0.000000 0.000000 0.000000 -60.708740 0.000000 38.000000 0.658594 -0.618578 0.428503
-100.00000000 17200.00000000 -710.00000000 122 118 135 0.000000 0.000000 0.000000 0.000000 -60.708740 0.000000 38.000000 0.424444 -0.533446 0.731630
-110.00000000 17230.00000000 -700.00000000 122 118 135 0.000000 0.000000 0.000000 0.000000 -60.708740 0.000000 38.000000 -0.546737 0.816319 -0.186284
-120.00000000 17200.00000000 -760.00000000 122 118 135 0.000000 0.000000 0.000000 0.000000 -60.708740 0.000000 38.000000 -0.291102 0.891220 -0.347830
-110.00000000 17200.00000000 -750.00000000 122 118 135 0.000000 0.000000 0.000000 0.000000 -60.708740 0.000000 38.000000 -0.556224 0.620468 -0.552842
-110.00000000 17210.00000000 -740.00000000 122 118 135 0.000000 0.000000 0.000000 0.000000 -60.708740 0.000000 38.000000 -0.302340 0.873595 -0.381343
-100.00000000 17210.00000000 -750.00000000 122 118 135 0.000000 0.000000 0.000000 0.000000 -60.708740 0.000000 38.000000 0.623338 -0.472124 0.623338
-110.00000000 17210.00000000 -740.00000000 122 118 135 0.000000 0.000000 0.000000 0.000000 -60.708740 0.000000 38.000000 -0.302340 0.873595 -0.381343
-110.00000000 17230.00000000 -750.00000000 122 118 135 0.000000 0.000000 0.000000 0.000000 -60.708740 0.000000 38.000000 0.721526 -0.472724 0.505898
-100.00000000 17210.00000000 -750.00000000 122 118 135 0.000000 0.000000 0.000000 0.000000 -60.708740 0.000000 38.000000 0.623338 -0.472124 0.623338
-120.00000000 17190.00000000 -770.00000000 122 118 135 0.000000 0.000000 0.000000 0.000000 -60.708740 0.000000 38.000000 0.633404 -0.488914 0.599802
-130.00000000 17160.00000000 -750.00000000 122 118 135 0.000000 0.000000 0.000000 0.000000 -60.708740 0.000000 38.000000 0.172304 -0.736483 0.654144
-110.00000000 17170.00000000 -770.00000000 122 118 135 0.000000 0.000000 0.000000 0.000000 -60.708740 0.000000 38.000000 -0.399893 0.889800 -0.219868
-110.00000000 17180.00000000 -750.00000000 122 118 135 0.000000 0.000000 0.000000 0.000000 -60.708740 0.000000 38.000000 -0.712500 0.460052 -0.529808
-140.00000000 17190.00000000 -740.00000000 122 118 135 0.000000 0.000000 0.000000 0.000000 -60.708740 0.000000 38.000000 -0.469506 0.781426 -0.411020
-170.00000000 17170.00000000 -710.00000000 122 118 135 0.000000 0.000000 0.000000 0.000000 -60.708740 0.000000 38.000000 -0.346268 0.900296 -0.263753
-150.00000000 17160.00000000 -710.00000000 122 118 135 0.000000 0.000000 0.000000 0.000000 -60.708740 0.000000 38.000000 -0.571896 0.538155 -0.619132
-150.00000000 17160.00000000 -710.00000000 122 118 135 0.000000 0.000000 0.000000 0.000000 -60.708740 0.000000 38.000000 -0.571896 0.538155 -0.619132
-160.00000000 17180.00000000 -700.00000000 122 118 135 0.000000 0.000000 0.000000 0.000000 -60.708740 0.000000 38.000000 -0.318994 0.774242 -0.546618
-140.00000000 17160.00000000 -720.00000000 122 118 135 0.000000 0.000000 0.000000 0.000000 -60.708740 0.000000 38.000000 -0.409215 0.744475 -0.527542
-150.00000000 17150.00000000 -770.00000000 122 118 135 0.000000 0.000000 0.000000 0.000000 -60.708740 0.000000 38.000000 0.058535 -0.772376 0.632463
-170.00000000 17170.00000000 -770.00000000 122 118 135 0.000000 0.000000 0.000000 0.000000 -60.708740 0.000000 38.000000 -0.248940 0.775003 -0.580861
-150.00000000 17150.00000000 -770.00000000 122 118 135 0.000000 0.000000 0.000000 0.000000 -60.708740 0.000000 38.000000 0.058535 -0.772376 0.632463
-150.00000000 17170.00000000 -760.00000000 122 118 135 0.000000 0.000000 0.000000 0.000000 -60.708740 0.000000 38.000000 -0.290850 0.670080 -0.682935
-110.00000000 17230.00000000 -780.00000000 122 118 135 0.000000 0.000000 0.000000 0.000000 -60.708740 0.000000 38.000000 -0.621339 0.752148 -0.219571
-130.00000000 17210.00000000 -790.00000000 122 118 135 0.000000 0.000000 0.000000 0.000000 -60.708740 0.000000 38.000000 -0.219550 0.927778 -0.301705
-110.00000000 17210.00000000 -780.00000000 122 118 135 0.000000 0.000000 0.000000 0.000000 -60.708740 0.000000 38.000000 0.569258 -0.400956 0.717760
-130.00000000 17200.00000000 -810.00000000 122 118 135 0.000000 0.000000 0.000000 0.000000 -60.708740 0.000000 38.000000 0.714513 -0.501325 0.488001
-110.00000000 17210.00000000 -780.00000000 122 118 135 0.000000 0.000000 0.000000 0.000000 -60.708740 0.000000 38.000000 0.569258 -0.400956 0.717760
-120.00000000 17200.00000000 -860.00000000 122 118 135 0.000000 0.000000 0.000000 0.000000 -60.708740 0.000000 38.000000 0.466655 -0.667367 0.580392
-100.00000000 17180.00000000 -800.00000000 122 118 135 0.000000 0.000000 0.000000 0.000000 -60.708740 0.000000 38.000000 -0.582602 0.521808 -0.623130
-130.00000000 17180.00000000 -810.00000000 122 118 135 0.000000 0.000000 0.000000 0.000000 -60.708740 0.000000 38.000000 -0.412515 0.737925 -0.534133
-100.00000000 17160.00000000 -810.00000000 122 118 135 0.000000 0.000000 0.000000 0.000000 -60.708740 0.000000 38.000000 -0.423247 0.825887 -0.372521
-120.00000000 17150.00000000 -780.00000000 122 118 135 0.000000 0.000000 0.000000 0.000000 -60.708740 0.000000 38.000000 -0.361581 0.810770 -0.460339
-120.00000000 17170.00000000 -830.00000000 122 118 135 0.000000 0.000000 0.000000 0.000000 -60.708740 0.000000 38.000000 -0.412461 0.820144 -0.396536
-130.00000000 17160.00000000 -850.00000000 122 118 135 0.000000 0.000000 0.000000 0.000000 -60.708740 0.000000 38.000000 -0.221150 0.880149 -0.420037
-110.00000000 17160.00000000 -840.00000000 122 118 135 0.000000 0.000000 0.000000 0.000000 -60.708740 0.000000 38.000000 0.307443 -0.603619 0.735610
-120.00000000 17170.00000000 -830.00000000 122 118 135 0.000000 0.000000 0.000000 0.000000 -60.708740 0.000000 38.000000 -0.412461 0.820144 -0.396536
-110.00000000 17180.00000000 -830.00000000 122 118 135 0.000000 0.000000 0.000000 0.000000 -60.708740 0.000000 38.000000 0.687838 -0.406073 0.601651
-140.00000000 17160.00000000 -790.00000000 122 118 135 0.000000 0.000000 0.000000 0.000000 -60.708740 0.000000 38.000000 -0.442819 0.721447 -0.532378
-40.00000000 17260.00000000 -900.00000000 122 118 135 0.000000 0.000000 0.000000 0.000000 -60.708740 0.000000 38.000000 0.716395 -0.293289 0.633056
-50.00000000 17260.00000000 -890.00000000 122 118 135 0.000000 0.000000 0.000000 0.000000 -60.708740 0.000000 38.000000 0.763525 -0.319877 0.560990
-40.00000000 17240.00000000 -1030.00000000 122 118 135 0.000000 0.000000 0.000000 0.000000 -60.708740 0.000000 38.000000 0.957723 0.127085 0.258100
-90.00000000 17190.00000000 -900.00000000 122 118 135 0.000000 0.000000 0.000000 0.000000 -60.708740 0.000000 38.000000 -0.472390 0.689388 -0.549174
-80.00000000 17200.00000000 -930.00000000 122 118 135 0.000000 0.000000 0.000000 0.000000 -60.708740 0.000000 38.000000 -0.519885 0.647753 -0.556899
-80.00000000 17200.00000000 -930.00000000 122 118 135 0.000000 0.000000 0.000000 0.000000 -60.708740 0.000000 38.000000 -0.519885 0.647753 -0.556899
-70.00000000 17210.00000000 -920.00000000 122 118 135 0.000000 0.000000 0.000000 0.000000 -60.708740 0.000000 38.000000 0.850989 -0.160759 0.499974
-70.00000000 17210.00000000 -920.00000000 122 118 135 0.000000 0.000000 0.000000 0.000000 -60.708740 0.000000 38.000000 0.850989 -0.160759 0.499974
-70.00000000 17210.00000000 -920.00000000 122 118 135 0.000000 0.000000 0.000000 0.000000 -60.708740 0.000000 38.000000 0.850989 -0.160759 0.499974
-80.00000000 17220.00000000 -910.00000000 122 118 135 0.000000 0.000000 0.000000 0.000000 -60.708740 0.000000 38.000000 0.880403 -0.170824 0.442391
-70.00000000 17170.00000000 -890.00000000 122 118 135 0.000000 0.000000 0.000000 0.000000 -60.708740 0.000000 38.000000 0.584620 -0.517229 0.625055
-80.00000000 17160.00000000 -900.00000000 122 118 135 0.000000 0.000000 0.000000 0.000000 -60.708740 0.000000 38.000000 -0.279525 0.781723 -0.557471
-30.00000000 17210.00000000 -950.00000000 122 118 135 0.000000 0.000000 0.000000 0.000000 -60.708740 0.000000 38.000000 0.782614 -0.321688 0.532946
-40.00000000 17220.00000000 -1010.00000000 122 118 135 0.000000 0.000000 0.000000 0.000000 -60.708740 0.000000 38.000000 0.773949 -0.239221 0.586325
-30.00000000 17150.00000000 -970.00000000 122 118 135 0.000000 0.000000 0.000000 0.000000 -60.708740 0.000000 38.000000 0.851473 -0.209477 0.480743
-60.00000000 17210.00000000 -970.00000000 122 118 135 0.000000 0.000000 0.000000 0.000000 -60.708740 0.000000 38.000000 0.848809 -0.202813 0.488253
-60.00000000 17220.00000000 -980.00000000 122 118 135 0.000000 0.000000 0.000000 0.000000 -60.708740 0.000000 38.000000 0.799262 -0.258079 0.542748
-60.00000000 17200.00000000 -950.00000000 122 118 135 0.000000 0.000000 0.000000 0.000000 -60.708740 0.000000 38.000000 0.517450 -0.729059 0.448016
-60.00000000 17220.00000000 -1010.00000000 122 118 135 0.000000 0.000000 0.000000 0.000000 -60.708740 0.000000 38.000000 0.827194 -0.029097 0.561162
-80.00000000 17180.00000000 -950.00000000 122 118 135 0.000000 0.000000 0.000000 0.000000 -60.708740 0.000000 38.000000 0.716572 -0.368944 0.591950
-90.00000000 17150.00000000 -960.00000000 122 118 135 0.000000 0.000000 0.000000 0.000000 -60.708740 0.000000 38.000000 0.722320 -0.431408 0.540500
-90.00000000 17160.00000000 -1000.00000000 122 118 135 0.000000 0.000000 0.000000 0.000000 -60.708740 0.000000 38.000000 0.651605 -0.567418 0.503436
-80.00000000 17150.00000000 -1010.00000000 122 118 135 0.000000 0.000000 0.000000 0.000000 -60.708740 0.000000 38.000000 -0.521300 0.764898 -0.378389
-110.00000000 17200.00000000 -870.00000000 122 118 135 0.000000 0.000000 0.000000 0.000000 -60.708740 0.000000 38.000000 -0.608180 0.493619 -0.621657
-120.00000000 17190.00000000 -870.00000000 122 118 135 0.000000 0.000000 0.000000 0.000000 -60.708740 0.000000 38.000000 -0.514724 0.726571 -0.455141
-100.00000000 17160.00000000 -900.00000000 122 118 135 0.000000 0.000000 0.000000 0.000000 -60.708740 0.000000 38.000000 -0.376466 0.845095 -0.379590
-120.00000000 17180.00000000 -880.00000000 122 118 135 0.000000 0.000000 0.000000 0.000000 -60.708740 0.000000 38.000000 0.544352 -0.635358 0.547723
-100.00000000 17160.00000000 -900.00000000 122 118 135 0.000000 0.000000 0.000000 0.000000 -60.708740 0.000000 38.000000 -0.376466 0.845095 -0.379590
-120.00000000 17180.00000000 -880.00000000 122 118 135 0.000000 0.000000 0.000000 0.000000 -60.708740 0.000000 38.000000 0.544352 -0.635358 0.547723
-130.00000000 17170.00000000 -890.00000000 122 118 135 0.000000 0.000000 0.000000 0.000000 -60.708740 0.000000 38.000000 0.244658 -0.796307 0.553207
-130.00000000 17150.00000000 -870.00000000 122 118 135 0.000000 0.000000 0.000000 0.000000 -60.708740 0.000000 38.000000 -0.410381 0.629694 -0.659600
-100.00000000 17180.00000000 -880.00000000 122 118 135 0.000000 0.000000 0.000000 0.000000 -60.708740 0.000000 38.000000 0.322494 -0.620679 0.714672
-110.00000000 17180.00000000 -940.00000000 122 118 135 0.000000 0.000000 0.000000 0.000000 -60.708740 0.000000 38.000000 -0.444282 0.846767 -0.292576
-100.00000000 17180.00000000 -910.00000000 122 118 135 0.000000 0.000000 0.000000 0.000000 -60.708740 0.000000 38.000000 -0.639660 0.535019 -0.551897
-100.00000000 17150.00000000 -940.00000000 122 118 135 0.000000 0.000000 0.000000 0.000000 -60.708740 0.000000 38.000000 0.453117 -0.630351 0.630351
-160.00000000 17150.00000000 -870.00000000 122 118 135 0.000000 0.000000 0.000000 0.000000 -60.708740 0.000000 38.000000 -0.143489 0.936097 -0.321143
-140.00000000 17160.00000000 -900.00000000 122 118 135 0.000000 0.000000 0.000000 0.000000 -60.708740 0.000000 38.000000 -0.427897 0.731886 -0.530328
-140.00000000 17150.00000000 -960.00000000 122 118 135 0.000000 0.000000 0.000000 0.000000 -60.708740 0.000000 38.000000 -0.103348 0.813681 -0.572051
-120.00000000 17160.00000000 -950.00000000 122 118 135 0.000000 0.000000 0.000000 0.000000 -60.708740 0.000000 38.000000 0.463782 -0.644607 0.607773
-130.00000000 17150.00000000 -950.00000000 122 118 135 0.000000 0.000000 0.000000 0.000000 -60.708740 0.000000 38.000000 0.361264 -0.603197 0.711085
-100.00000000 17170.00000000 -990.00000000 122 118 135 0.000000 0.000000 0.000000 0.000000 -60.708740 0.000000 38.000000 0.453955 -0.776117 0.437684
-180.00000000 17150.00000000 -760.00000000 122 118 135 0.000000 0.000000 0.000000 0.000000 -60.708740 0.000000 38.000000 0.279473 -0.726630 0.627617
-240.00000000 17160.00000000 -780.00000000 122 118 135 0.000000 0.000000 0.000000 0.000000 -60.708740 0.000000 38.000000 0.350812 0.792932 -0.498186
-250.00000000 17150.00000000 -790.00000000 122 118 135 0.000000 0.000000 0.000000 0.000000 -60.708740 0.000000 38.000000 0.053226 0.941197 -0.333638
-290.00000000 17160.00000000 -720.00000000 122 118 135 0.000000 0.000000 0.000000 0.000000 -60.708740 0.000000 38.000000 0.389797 0.875148 -0.286660
-290.00000000 17160.00000000 -720.00000000 122 118 135 0.000000 0.000000 0.000000 0.000000 -60.708740 0.000000 38.000000 0.389797 0.875148 -0.286660
-300.00000000 17150.00000000 -750.00000000 122 118 135 0.000000 0.000000 0.000000 0.000000 -60.708740 0.000000 38.000000 -0.165309 -0.632420 0.756781
-290.00000000 17160.00000000 -740.00000000 122 118 135 0.000000 0.000000 0.000000 0.000000 -60.708740 0.000000 38.000000 0.242608 0.898387 -0.366118
-300.00000000 17160.00000000 -750.00000000 122 118 135 0.000000 0.000000 0.000000 0.000000 -60.708740 0.000000 38.000000 0.067456 0.785075 -0.615717
-270.00000000 17160.00000000 -790.00000000 122 118 135 0.000000 0.000000 0.000000 0.000000 -60.708740 0.000000 38.000000 0.235440 0.902275 -0.361203
-30.00000000 17280.00000000 -1110.00000000 122 118 135 0.000000 0.000000 0.000000 0.000000 -60.708740 0.000000 38.000000 0.940343 0.306190 0.148332
-30.00000000 17280.00000000 -1110.00000000 122 118 135 0.000000 0.000000 0.000000 0.000000 -60.708740 0.000000 38.000000 0.940343 0.306190 0.148332
-30.00000000 17270.00000000 -1110.00000000 122 118 135 0.000000 0.000000 0.000000 0.000000 -60.708740 0.000000 38.000000 0.935276 0.267823 0.231365
-20.00000000 17240.00000000 -1140.00000000 122 118 135 0.000000 0.000000 0.000000 0.000000 -60.708740 0.000000 38.000000 0.949270 -0.309573 -0.055235
-40.00000000 17240.00000000 -1190.00000000 122 118 135 0.000000 0.000000 0.000000 0.000000 -60.708740 0.000000 38.000000 0.947610 0.300850 -0.107352
-30.00000000 17250.00000000 -1160.00000000 122 118 135 0.000000 0.000000 0.000000 0.000000 -60.708740 0.000000 38.000000 0.974317 -0.216379 0.062346
-50.00000000 17250.00000000 -1140.00000000 122 118 135 0.000000 0.000000 0.000000 0.000000 -60.708740 0.000000 38.000000 0.904490 -0.118828 0.409607
-40.00000000 17220.00000000 -1100.00000000 122 118 135 0.000000 0.000000 0.000000 0.000000 -60.708740 0.000000 38.000000 0.890316 -0.014595 0.455109
-60.00000000 17210.00000000 -1080.00000000 122 118 135 0.000000 0.000000 0.000000 0.000000 -60.708740 0.000000 38.000000 0.755203 -0.424290 0.499646
-60.00000000 17160.00000000 -1040.00000000 122 118 135 0.000000 0.000000 0.000000 0.000000 -60.708740 0.000000 38.000000 0.901867 -0.201867 0.381950
-50.00000000 17160.00000000 -1080.00000000 122 118 135 0.000000 0.000000 0.000000 0.000000 -60.708740 0.000000 38.000000 -0.559592 0.620454 -0.549448
-70.00000000 17180.00000000 -1100.00000000 122 118 135 0.000000 0.000000 0.000000 0.000000 -60.708740 0.000000 38.000000 -0.707150 0.322020 -0.629477
-30.00000000 17220.00000000 -1150.00000000 122 118 135 0.000000 0.000000 0.000000 0.000000 -60.708740 0.000000 38.000000 0.962659 0.263001 -0.064177
-40.00000000 17230.00000000 -1130.00000000 122 118 135 0.000000 0.000000 0.000000 0.000000 -60.708740 0.000000 38.000000 0.965367 -0.260419 0.015746
-30.00000000 17230.00000000 -1130.00000000 122 118 135 0.000000 0.000000 0.000000 0.000000 -60.708740 0.000000 38.000000 0.910424 -0.365603 0.193555
-30.00000000 17210.00000000 -1150.00000000 122 118 135 0.000000 0.000000 0.000000 0.000000 -60.708740 0.000000 38.000000 0.873667 -0.290210 0.390491
-30.00000000 17230.00000000 -1190.00000000 122 118 135 0.000000 0.000000 0.000000 0.000000 -60.708740 0.000000 38.000000 0.906855 0.368816 -0.203934
-30.00000000 17220.00000000 -1170.00000000 122 118 135 0.000000 0.000000 0.000000 0.000000 -60.708740 0.000000 38.000000 0.890697 0.356577 0.281979
-30.00000000 17220.00000000 -1180.00000000 122 118 135 0.000000 0.000000 0.000000 0.000000 -60.708740 0.000000 38.000000 0.950233 -0.174367 0.258172
-50.00000000 17200.00000000 -1140.00000000 122 118 135 0.000000 0.000000 0.000000 0.000000 -60.708740 0.000000 38.000000 0.964884 -0.214274 0.151940
-60.00000000 17190.00000000 -1120.00000000 122 118 135 0.000000 0.000000 0.000000 0.000000 -60.708740 0.000000 38.000000 0.893792 -0.293952 0.338716
-50.00000000 17200.00000000 -1120.00000000 122 118 135 0.000000 0.000000 0.000000 0.000000 -60.708740 0.000000 38.000000 0.925595 -0.305688 0.223223
-50.00000000 17190.00000000 -1170.00000000 122 118 135 0.000000 0.000000 0.000000 0.000000 -60.708740 0.000000 38.000000 0.973610 -0.208186 -0.093497
-50.00000000 17190.00000000 -1170.00000000 122 118 135 0.000000 0.000000 0.000000 0.000000 -60.708740 0.000000 38.000000 0.973610 -0.208186 -0.093497
-60.00000000 17160.00000000 -1140.00000000 122 118 135 0.000000 0.000000 0.000000 0.000000 -60.708740 0.000000 38.000000 0.979716 -0.122002 0.158973
-60.00000000 17180.00000000 -1150.00000000 122 118 135 0.000000 0.000000 0.000000 0.000000 -60.708740 0.000000 38.000000 0.889719 -0.453716 0.050413
-60.00000000 17180.00000000 -1120.00000000 122 118 135 0.000000 0.000000 0.000000 0.000000 -60.708740 0.000000 38.000000 0.911002 -0.298809 0.284233
-50.00000000 17180.00000000 -1140.00000000 122 118 135 0.000000 0.000000 0.000000 0.000000 -60.708740 0.000000 38.000000 0.962222 -0.161464 0.219224
-60.00000000 17160.00000000 -1130.00000000 122 118 135 0.000000 0.000000 0.000000 0.000000 -60.708740 0.000000 38.000000 0.909414 -0.038613 0.414096
-70.00000000 17160.00000000 -1130.00000000 122 118 135 0.000000 0.000000 0.000000 0.000000 -60.708740 0.000000 38.000000 0.981938 -0.031675 0.186533
-70.00000000 17170.00000000 -1150.00000000 122 118 135 0.000000 0.000000 0.000000 0.000000 -60.708740 0.000000 38.000000 0.949923 -0.157201 0.270063
-60.00000000 17150.00000000 -1190.00000000 122 118 135 0.000000 0.000000 0.000000 0.000000 -60.708740 0.000000 38.000000 0.946257 -0.228690 0.228690
-50.00000000 17180.00000000 -1190.00000000 122 118 135 0.000000 0.000000 0.000000 0.000000 -60.708740 0.000000 38.000000 0.821989 -0.538441 0.185513
-70.00000000 17150.00000000 -1180.00000000 122 118 135 0.000000 0.000000 0.000000 0.000000 -60.708740 0.000000 38.000000 0.934849 -0.354861 0.011447
-60.00000000 17170.00000000 -1160.00000000 122 118 135 0.000000 0.000000 0.000000 0.000000 -60.708740 0.000000 38.000000 0.906671 -0.399048 -0.136776
-50.00000000 17170.00000000 -1160.00000000 122 118 135 0.000000 0.000000 0.000000 0.000000 -60.708740 0.000000 38.000000 0.986121 -0.162623 0.033447
-60.00000000 17160.00000000 -1190.00000000 122 118 135 0.000000 0.000000 0.000000 0.000000 -60.708740 0.000000 38.000000 0.973595 -0.224303 0.042436
-60.00000000 17150.00000000 -1190.00000000 122 118 135 0.000000 0.000000 0.000000 0.000000 -60.708740 0.000000 38.000000 0.946257 -0.228690 0.228690
-100.00000000 17150.00000000 -1070.00000000 122 118 135 0.000000 0.000000 0.000000 0.000000 -60.708740 0.000000 38.000000 0.595588 -0.602337 0.531474
-20.00000000 17210.00000000 -1210.00000000 122 118 135 0.000000 0.000000 0.000000 0.000000 -60.708740 0.000000 38.000000 0.921846 0.060033 0.382879
-30.00000000 17190.00000000 -1240.00000000 122 118 135 0.000000 0.000000 0.000000 0.000000 -60.708740 0.000000 38.000000 0.995287 0.071802 0.065174
-40.00000000 17190.00000000 -1230.00000000 122 118 135 0.000000 0.000000 0.000000 0.000000 -60.708740 0.000000 38.000000 0.964586 -0.040757 0.260599
-40.00000000 17210.00000000 -1240.00000000 122 118 135 0.000000 0.000000 0.000000 0.000000 -60.708740 0.000000 38.000000 0.984064 -0.170477 -0.050555
-40.00000000 17200.00000000 -1280.00000000 122 118 135 0.000000 0.000000 0.000000 0.000000 -60.708740 0.000000 38.000000 0.993369 -0.039021 -0.108145
-40.00000000 17150.00000000 -1240.00000000 122 118 135 0.000000 0.000000 0.000000 0.000000 -60.708740 0.000000 38.000000 0.881342 -0.364328 0.300835
-30.00000000 17170.00000000 -1230.00000000 122 118 135 0.000000 0.000000 0.000000 0.000000 -60.708740 0.000000 38.000000 0.974213 -0.184786 0.129476
-40.00000000 17170.00000000 -1230.00000000 122 118 135 0.000000 0.000000 0.000000 0.000000 -60.708740 0.000000 38.000000 0.952617 -0.276908 0.125867
-30.00000000 17150.00000000 -1200.00000000 122 118 135 0.000000 0.000000 0.000000 0.000000 -60.708740 0.000000 38.000000 0.885908 -0.248650 0.391586
-30.00000000 17160.00000000 -1260.00000000 122 118 135 0.000000 0.000000 0.000000 0.000000 -60.708740 0.000000 38.000000 0.982962 -0.183806 -0.001142
-40.00000000 17150.00000000 -1270.00000000 122 118 135 0.000000 0.000000 0.000000 0.000000 -60.708740 0.000000 38.000000 0.992565 -0.007660 -0.121472
-30.00000000 17170.00000000 -1250.00000000 122 118 135 0.000000 0.000000 0.000000 0.000000 -60.708740 0.000000 38.000000 0.996158 -0.075285 0.044734
-30.00000000 17180.00000000 -1250.00000000 122 118 135 0.000000 0.000000 0.000000 0.000000 -60.708740 0.000000 38.000000 0.996140 -0.013910 0.086667
-60.00000000 17150.00000000 -1210.00000000 122 118 135 0.000000 0.000000 0.000000 0.000000 -60.708740 0.000000 38.000000 0.997949 -0.062043 0.015774
-60.00000000 17160.00000000 -1200.00000000 122 118 135 0.000000 0.000000 0.000000 0.000000 -60.708740 0.000000 38.000000 0.999715 -0.011074 0.021142
-50.00000000 17170.00000000 -1250.00000000 122 118 135 0.000000 0.000000 0.000000 0.000000 -60.708740 0.000000 38.000000 0.975808 -0.090284 0.199119
-40.00000000 17170.00000000 -1290.00000000 122 118 135 0.000000 0.000000 0.000000 0.000000 -60.708740 0.000000 38.000000 0.992931 -0.059734 -0.102562
-40.00000000 17150.00000000 -1290.00000000 122 118 135 0.000000 0.000000 0.000000 0.000000 -60.708740 0.000000 38.000000 0.994633 -0.043149 -0.094042
-40.00000000 17150.00000000 -1290.00000000 122 118 135 0.000000 0.000000 0.000000 0.000000 -60.708740 0.000000 38.000000 0.994633 -0.043149 -0.094042
-200.00000000 17140.00000000 -690.00000000 122 118 135 0.000000 0.000000 0.000000 0.000000 -60.708740 0.000000 38.000000 0.153611 0.864609 -0.478388
-200.00000000 17140.00000000 -690.00000000 122 118 135 0.000000 0.000000 0.000000 0.000000 -60.708740 0.000000 38.000000 0.153611 0.864609 -0.478388
-250.00000000 17130.00000000 -690.00000000 122 118 135 0.000000 0.000000 0.000000 0.000000 -60.708740 0.000000 38.000000 -0.350126 0.734451 -0.581372
-250.00000000 17140.00000000 -670.00000000 122 118 135 0.000000 0.000000 0.000000 0.000000 -60.708740 0.000000 38.000000 0.154605 0.788033 -0.595903
-220.00000000 17130.00000000 -670.00000000 122 118 135 0.000000 0.000000 0.000000 0.000000 -60.708740 0.000000 38.000000 -0.365854 0.641474 -0.674286
-220.00000000 17130.00000000 -670.00000000 122 118 135 0.000000 0.000000 0.000000 0.000000 -60.708740 0.000000 38.000000 -0.365854 0.641474 -0.674286
-250.00000000 17140.00000000 -670.00000000 122 118 135 0.000000 0.000000 0.000000 0.000000 -60.708740 0.000000 38.000000 0.154605 0.788033 -0.595903
-260.00000000 17140.00000000 -670.00000000 122 118 135 0.000000 0.000000 0.000000 0.000000 -60.708740 0.000000 38.000000 0.189576 0.953258 -0.235289
-270.00000000 17140.00000000 -680.00000000 122 118 135 0.000000 0.000000 0.000000 0.000000 -60.708740 0.000000 38.000000 0.426928 0.780808 -0.456148
-260.00000000 17130.00000000 -680.00000000 122 118 135 0.000000 0.000000 0.000000 0.000000 -60.708740 0.000000 38.000000 -0.218816 0.818649 -0.530974
-260.00000000 17140.00000000 -680.00000000 122 118 135 0.000000 0.000000 0.000000 0.000000 -60.708740 0.000000 38.000000 0.279970 0.943705 -0.176176
-160.00000000 17140.00000000 -720.00000000 122 118 135 0.000000 0.000000 0.000000 0.000000 -60.708740 0.000000 38.000000 -0.222733 0.968570 -0.110730
-170.00000000 17140.00000000 -740.00000000 122 118 135 0.000000 0.000000 0.000000 0.000000 -60.708740 0.000000 38.000000 0.378137 -0.571297 0.728445
-130.00000000 17140.00000000 -820.00000000 122 118 135 0.000000 0.000000 0.000000 0.000000 -60.708740 0.000000 38.000000 -0.357574 0.844749 -0.398172
-120.00000000 17130.00000000 -850.00000000 122 118 135 0.000000 0.000000 0.000000 0.000000 -60.708740 0.000000 38.000000 0.708701 -0.481916 0.515267
-130.00000000 17130.00000000 -840.00000000 122 118 135 0.000000 0.000000 0.000000 0.000000 -60.708740 0.000000 38.000000 -0.489850 0.725642 -0.483208
-170.00000000 17130.00000000 -780.00000000 122 118 135 0.000000 0.000000 0.000000 0.000000 -60.708740 0.000000 38.000000 0.071065 0.870893 -0.486307
-150.00000000 17120.00000000 -790.00000000 122 118 135 0.000000 0.000000 0.000000 0.000000 -60.708740 0.000000 38.000000 -0.158000 0.793010 -0.588363
-150.00000000 17110.00000000 -850.00000000 122 118 135 0.000000 0.000000 0.000000 0.000000 -60.708740 0.000000 38.000000 0.082194 0.922994 -0.375935
-170.00000000 17140.00000000 -850.00000000 122 118 135 0.000000 0.000000 0.000000 0.000000 -60.708740 0.000000 38.000000 -0.295951 0.753475 -0.587102
-110.00000000 17140.00000000 -900.00000000 122 118 135 0.000000 0.000000 0.000000 0.000000 -60.708740 0.000000 38.000000 0.713753 -0.460861 0.527412
-130.00000000 17120.00000000 -930.00000000 122 118 135 0.000000 0.000000 0.000000 0.000000 -60.708740 0.000000 38.000000 0.627038 -0.492552 0.603503
-130.00000000 17100.00000000 -890.00000000 122 118 135 0.000000 0.000000 0.000000 0.000000 -60.708740 0.000000 38.000000 0.645201 -0.470913 0.601629
-140.00000000 17140.00000000 -870.00000000 122 118 135 0.000000 0.000000 0.000000 0.000000 -60.708740 0.000000 38.000000 -0.479521 0.546353 -0.686701
-160.00000000 17110.00000000 -870.00000000 122 118 135 0.000000 0.000000 0.000000 0.000000 -60.708740 0.000000 38.000000 -0.023721 0.952576 -0.303376
-150.00000000 17140.00000000 -900.00000000 122 118 135 0.000000 0.000000 0.000000 0.000000 -60.708740 0.000000 38.000000 -0.476761 0.715972 -0.509984
-170.00000000 17140.00000000 -920.00000000 122 118 135 0.000000 0.000000 0.000000 0.000000 -60.708740 0.000000 38.000000 0.063941 0.940844 -0.332753
-100.00000000 17140.00000000 -960.00000000 122 118 135 0.000000 0.000000 0.000000 0.000000 -60.708740 0.000000 38.000000 -0.406717 0.629166 -0.662368
-110.00000000 17110.00000000 -1010.00000000 122 118 135 0.000000 0.000000 0.000000 0.000000 -60.708740 0.000000 38.000000 0.466911 -0.681121 0.563975
-100.00000000 17140.00000000 -1010.00000000 122 118 135 0.000000 0.000000 0.000000 0.000000 -60.708740 0.000000 38.000000 -0.340345 0.863954 -0.371146
-100.00000000 17120.00000000 -990.00000000 122 118 135 0.000000 0.000000 0.000000 0.000000 -60.708740 0.000000 38.000000 -0.367319 0.815735 -0.446826
-100.00000000 17120.00000000 -990.00000000 122 118 135 0.000000 0.000000 0.000000 0.000000 -60.708740 0.000000 38.000000 -0.367319 0.815735 -0.446826
-120.00000000 17140.00000000 -1020.00000000 122 118 135 0.000000 0.000000 0.000000 0.000000 -60.708740 0.000000 38.000000 -0.436515 0.739605 -0.512288
-170.00000000 17120.00000000 -980.00000000 122 118 135 0.000000 0.000000 0.000000 0.000000 -60.708740 0.000000 38.000000 0.517258 -0.554326 0.652049
-160.00000000 17130.00000000 -980.00000000 122 118 135 0.000000 0.000000 0.000000 0.000000 -60.708740 0.000000 38.000000 -0.316419 0.793433 -0.519945
-160.00000000 17130.00000000 -970.00000000 122 118 135 0.000000 0.000000 0.000000 0.000000 -60.708740 0.000000 38.000000 -0.117764 0.886780 -0.446937
-170.00000000 17120.00000000 -980.00000000 122 118 135 0.000000 0.000000 0.000000 0.000000 -60.708740 0.000000 38.000000 0.517258 -0.554326 0.652049
-150.00000000 17130.00000000 -1010.00000000 122 118 135 0.000000 0.000000 0.000000 0.000000 -60.708740 0.000000 38.000000 -0.319675 0.820446 -0.474000
-140.00000000 17130.00000000 -1010.00000000 122 118 135 0.000000 0.000000 0.000000 0.000000 -60.708740 0.000000 38.000000 -0.230195 0.910647 -0.343121
-140.00000000 17130.00000000 -990.00000000 122 118 135 0.000000 0.000000 0.000000 0.000000 -60.708740 0.000000 38.000000 0.362262 -0.503946 0.784095
-140.00000000 17140.00000000 -1000.00000000 122 118 135 0.000000 0.000000 0.000000 0.000000 -60.708740 0.000000 38.000000 -0.122997 0.919025 -0.374520
-140.00000000 17140.00000000 -1030.00000000 122 118 135 0.000000 0.000000 0.000000 0.000000 -60.708740 0.000000 38.000000 -0.292506 0.886517 -0.358507
-150.00000000 17100.00000000 -950.00000000 122 118 135 0.000000 0.000000 0.000000 0.000000 -60.708740 0.000000 38.000000 -0.324006 0.834277 -0.446096
-150.00000000 17100.00000000 -950.00000000 122 118 135 0.000000 0.000000 0.000000 0.000000 -60.708740 0.000000 38.000000 -0.324006 0.834277 -0.446096
-170.00000000 17080.00000000 -1030.00000000 122 118 135 0.000000 0.000000 0.000000 0.000000 -60.708740 0.000000 38.000000 -0.266301 0.814477 -0.515472
-160.00000000 17080.00000000 -1030.00000000 122 118 135 0.000000 0.000000 0.000000 0.000000 -60.708740 0.000000 38.000000 -0.358655 0.705845 -0.610859
-140.00000000 17100.00000000 -1020.00000000 122 118 135 0.000000 0.000000 0.000000 0.000000 -60.708740 0.000000 38.000000 -0.035312 0.755684 -0.653984
-190.00000000 17130.00000000 -700.00000000 122 118 135 0.000000 0.000000 0.000000 0.000000 -60.708740 0.000000 38.000000 0.087030 0.840343 -0.535023
-200.00000000 17110.00000000 -730.00000000 122 118 135 0.000000 0.000000 0.000000 0.000000 -60.708740 0.000000 38.000000 -0.012676 0.982988 -0.183230
-200.00000000 17120.00000000 -720.00000000 122 118 135 0.000000 0.000000 0.000000 0.000000 -60.708740 0.000000 38.000000 -0.128379 0.901476 -0.413353
-210.00000000 17140.00000000 -760.00000000 122 118 135 0.000000 0.000000 0.000000 0.000000 -60.708740 0.000000 38.000000 -0.140535 0.818059 -0.557700
-200.00000000 17120.00000000 -760.00000000 122 118 135 0.000000 0.000000 0.000000 0.000000 -60.708740 0.000000 38.000000 -0.012061 0.875103 -0.483786
-210.00000000 17140.00000000 -760.00000000 122 118 135 0.000000 0.000000 0.000000 0.000000 -60.708740 0.000000 38.000000 -0.140535 0.818059 -0.557700
-180.00000000 17120.00000000 -760.00000000 122 118 135 0.000000 0.000000 0.000000 0.000000 -60.708740 0.000000 38.000000 -0.161110 0.923231 -0.348838
-190.00000000 17130.00000000 -750.00000000 122 118 135 0.000000 0.000000 0.000000 0.000000 -60.708740 0.000000 38.000000 -0.341698 0.808949 -0.478377
-250.00000000 17130.00000000 -700.00000000 122 118 135 0.000000 0.000000 0.000000 0.000000 -60.708740 0.000000 38.000000 0.363617 0.817742 -0.446185
-230.00000000 17140.00000000 -720.00000000 122 118 135 0.000000 0.000000 0.000000 0.000000 -60.708740 0.000000 38.000000 0.174496 0.968128 -0.179666
-250.00000000 17140.00000000 -730.00000000 122 118 135 0.000000 0.000000 0.000000 0.000000 -60.708740 0.000000 38.000000 0.383678 0.869771 -0.310305
-220.00000000 17140.00000000 -710.00000000 122 118 135 0.000000 0.000000 0.000000 0.000000 -60.708740 0.000000 38.000000 0.311191 0.813519 -0.491271
-250.00000000 17140.00000000 -730.00000000 122 118 135 0.000000 0.000000 0.000000 0.000000 -60.708740 0.000000 38.000000 0.383678 0.869771 -0.310305
