//X Y Z R G B PointSourceId ScanDirectionFlag NumberOfReturns ReturnNumber GpsTime Intensity Classification Nx Ny Nz
280.00000000 3100.00000000 -150.00000000 1 75 217 97.000000 1.000000 4.000000 1.000000 -60.708740 114.000000 149.000000 0.035779 -0.076979 0.996391
250.00000000 3070.00000000 -80.00000000 1 75 217 97.000000 1.000000 4.000000 1.000000 -60.708740 114.000000 149.000000 -0.295033 0.440233 0.848027
250.00000000 3030.00000000 -40.00000000 1 75 217 97.000000 1.000000 4.000000 1.000000 -60.708740 114.000000 149.000000 -0.423653 -0.069474 0.903157
250.00000000 3030.00000000 -40.00000000 1 75 217 97.000000 1.000000 4.000000 1.000000 -60.708740 114.000000 149.000000 -0.423653 -0.069474 0.903157
280.00000000 3080.00000000 -140.00000000 1 75 217 97.000000 1.000000 4.000000 1.000000 -60.708740 114.000000 149.000000 -0.016195 0.310200 0.950533
230.00000000 3090.00000000 -140.00000000 1 75 217 97.000000 1.000000 4.000000 1.000000 -60.708740 114.000000 149.000000 -0.362371 -0.275879 0.890269
240.00000000 3110.00000000 -160.00000000 1 75 217 97.000000 1.000000 4.000000 1.000000 -60.708740 114.000000 149.000000 -0.571313 0.026283 0.820311
230.00000000 3120.00000000 -150.00000000 1 75 217 97.000000 1.000000 4.000000 1.000000 -60.708740 114.000000 149.000000 -0.516100 0.123573 0.847567
210.00000000 3060.00000000 -70.00000000 1 75 217 97.000000 1.000000 4.000000 1.000000 -60.708740 114.000000 149.000000 -0.283902 0.230229 0.930803
230.00000000 3080.00000000 -110.00000000 1 75 217 97.000000 1.000000 4.000000 1.000000 -60.708740 114.000000 149.000000 -0.162417 0.203995 0.965405
220.00000000 3060.00000000 -120.00000000 1 75 217 97.000000 1.000000 4.000000 1.000000 -60.708740 114.000000 149.000000 -0.378040 -0.214563 0.900582
230.00000000 3080.00000000 -140.00000000 1 75 217 97.000000 1.000000 4.000000 1.000000 -60.708740 114.000000 149.000000 -0.384847 -0.262055 0.884997
230.00000000 3070.00000000 -140.00000000 1 75 217 97.000000 1.000000 4.000000 1.000000 -60.708740 114.000000 149.000000 -0.455094 0.155575 0.876747
220.00000000 3060.00000000 -140.00000000 1 75 217 97.000000 1.000000 4.000000 1.000000 -60.708740 114.000000 149.000000 -0.219548 0.396366 0.891455
180.00000000 3070.00000000 -180.00000000 1 75 217 97.000000 1.000000 4.000000 1.000000 -60.708740 114.000000 149.000000 -0.173385 0.248653 0.952948
190.00000000 3000.00000000 -150.00000000 1 75 217 97.000000 1.000000 4.000000 1.000000 -60.708740 114.000000 149.000000 -0.431791 0.157409 0.888132
250.00000000 3140.00000000 -300.00000000 1 75 217 97.000000 1.000000 4.000000 1.000000 -60.708740 114.000000 149.000000 -0.216606 0.255236 0.942304
260.00000000 3060.00000000 -200.00000000 1 75 217 97.000000 1.000000 4.000000 1.000000 -60.708740 114.000000 149.000000 -0.550216 0.179386 0.815526
210.00000000 3150.00000000 -250.00000000 1 75 217 97.000000 1.000000 4.000000 1.000000 -60.708740 114.000000 149.000000 -0.293798 0.212266 0.932001
210.00000000 3090.00000000 -200.00000000 1 75 217 97.000000 1.000000 4.000000 1.000000 -60.708740 114.000000 149.000000 -0.461252 -0.100150 0.881599
240.00000000 3120.00000000 -250.00000000 1 75 217 97.000000 1.000000 4.000000 1.000000 -60.708740 114.000000 149.000000 0.062509 0.107970 0.992187
240.00000000 3110.00000000 -250.00000000 1 75 217 97.000000 1.000000 4.000000 1.000000 -60.708740 114.000000 149.000000 -0.491919 -0.065496 0.868174
200.00000000 3090.00000000 -270.00000000 1 75 217 97.000000 1.000000 4.000000 1.000000 -60.708740 114.000000 149.000000 -0.025676 0.479735 0.877037
220.00000000 3120.00000000 -290.00000000 1 75 217 97.000000 1.000000 4.000000 1.000000 -60.708740 114.000000 149.000000 0.259664 0.186251 0.947568
190.00000000 3150.00000000 -300.00000000 1 75 217 97.000000 1.000000 4.000000 1.000000 -60.708740 114.000000 149.000000 -0.156132 0.411101 0.898120
200.00000000 3110.00000000 -290.00000000 1 75 217 97.000000 1.000000 4.000000 1.000000 -60.708740 114.000000 149.000000 -0.184472 0.453063 0.872183
210.00000000 3080.00000000 -200.00000000 1 75 217 97.000000 1.000000 4.000000 1.000000 -60.708740 114.000000 149.000000 -0.426710 0.095906 0.899289
220.00000000 3080.00000000 -240.00000000 1 75 217 97.000000 1.000000 4.000000 1.000000 -60.708740 114.000000 149.000000 -0.031291 0.488406 0.872056
230.00000000 3080.00000000 -260.00000000 1 75 217 97.000000 1.000000 4.000000 1.000000 -60.708740 114.000000 149.000000 0.189487 0.321425 0.927783
180.00000000 3070.00000000 -220.00000000 1 75 217 97.000000 1.000000 4.000000 1.000000 -60.708740 114.000000 149.000000 0.213475 -0.407810 -0.887761
180.00000000 3040.00000000 -240.00000000 1 75 217 97.000000 1.000000 4.000000 1.000000 -60.708740 114.000000 149.000000 -0.281614 0.406437 0.869197
180.00000000 3050.00000000 -240.00000000 1 75 217 97.000000 1.000000 4.000000 1.000000 -60.708740 114.000000 149.000000 -0.105018 0.184090 0.977283
180.00000000 3010.00000000 -230.00000000 1 75 217 97.000000 1.000000 4.000000 1.000000 -60.708740 114.000000 149.000000 -0.320005 0.435519 0.841380
170.00000000 3030.00000000 -200.00000000 1 75 217 97.000000 1.000000 4.000000 1.000000 -60.708740 114.000000 149.000000 -0.293795 0.106715 0.949893
170.00000000 3030.00000000 -200.00000000 1 75 217 97.000000 1.000000 4.000000 1.000000 -60.708740 114.000000 149.000000 -0.293795 0.106715 0.949893
100.00000000 3190.00000000 -250.00000000 1 75 217 97.000000 1.000000 4.000000 1.000000 -60.708740 114.000000 149.000000 0.059328 0.357286 0.932109
140.00000000 3070.00000000 -180.00000000 1 75 217 97.000000 1.000000 4.000000 1.000000 -60.708740 114.000000 149.000000 -0.159754 0.261782 0.951813
140.00000000 3070.00000000 -180.00000000 1 75 217 97.000000 1.000000 4.000000 1.000000 -60.708740 114.000000 149.000000 -0.159754 0.261782 0.951813
160.00000000 3020.00000000 -140.00000000 1 75 217 97.000000 1.000000 4.000000 1.000000 -60.708740 114.000000 149.000000 0.064911 0.156967 0.985468
150.00000000 3010.00000000 -140.00000000 1 75 217 97.000000 1.000000 4.000000 1.000000 -60.708740 114.000000 149.000000 -0.313987 0.006205 0.949407
140.00000000 3000.00000000 -160.00000000 1 75 217 97.000000 1.000000 4.000000 1.000000 -60.708740 114.000000 149.000000 -0.253491 0.435640 0.863690
150.00000000 3030.00000000 -150.00000000 1 75 217 97.000000 1.000000 4.000000 1.000000 -60.708740 114.000000 149.000000 0.060442 0.026510 0.997820
90.00000000 3060.00000000 -150.00000000 1 75 217 97.000000 1.000000 4.000000 1.000000 -60.708740 114.000000 149.000000 -0.023341 -0.015223 0.999612
90.00000000 3010.00000000 -130.00000000 1 75 217 97.000000 1.000000 4.000000 1.000000 -60.708740 114.000000 149.000000 0.238684 0.071230 0.968481
80.00000000 3010.00000000 -180.00000000 1 75 217 97.000000 1.000000 4.000000 1.000000 -60.708740 114.000000 149.000000 0.039407 0.120473 0.991934
80.00000000 3010.00000000 -180.00000000 1 75 217 97.000000 1.000000 4.000000 1.000000 -60.708740 114.000000 149.000000 0.039407 0.120473 0.991934
60.00000000 3060.00000000 -180.00000000 1 75 217 97.000000 1.000000 4.000000 1.000000 -60.708740 114.000000 149.000000 -0.169504 0.269850 0.947866
40.00000000 3050.00000000 -180.00000000 1 75 217 97.000000 1.000000 4.000000 1.000000 -60.708740 114.000000 149.000000 -0.018517 0.103476 0.994460
30.00000000 3040.00000000 -180.00000000 1 75 217 97.000000 1.000000 4.000000 1.000000 -60.708740 114.000000 149.000000 0.076018 -0.024626 0.996802
10.00000000 3050.00000000 -170.00000000 1 75 217 97.000000 1.000000 4.000000 1.000000 -60.708740 114.000000 149.000000 -0.152004 0.278451 0.948346
20.00000000 3010.00000000 -170.00000000 1 75 217 97.000000 1.000000 4.000000 1.000000 -60.708740 114.000000 149.000000 0.104277 0.253613 0.961669
140.00000000 3110.00000000 -210.00000000 1 75 217 97.000000 1.000000 4.000000 1.000000 -60.708740 114.000000 149.000000 0.087651 0.443822 0.891818
150.00000000 3120.00000000 -260.00000000 1 75 217 97.000000 1.000000 4.000000 1.000000 -60.708740 114.000000 149.000000 -0.377918 -0.054367 0.924241
150.00000000 3120.00000000 -260.00000000 1 75 217 97.000000 1.000000 4.000000 1.000000 -60.708740 114.000000 149.000000 -0.377918 -0.054367 0.924241
120.00000000 3110.00000000 -280.00000000 1 75 217 97.000000 1.000000 4.000000 1.000000 -60.708740 114.000000 149.000000 -0.384427 0.201643 0.900864
130.00000000 3100.00000000 -350.00000000 1 75 217 97.000000 1.000000 4.000000 1.000000 -60.708740 114.000000 149.000000 0.299669 0.387897 0.871627
110.00000000 3120.00000000 -280.00000000 1 75 217 97.000000 1.000000 4.000000 1.000000 -60.708740 114.000000 149.000000 0.153580 0.330680 0.931163
120.00000000 3060.00000000 -230.00000000 1 75 217 97.000000 1.000000 4.000000 1.000000 -60.708740 114.000000 149.000000 0.146604 0.471745 0.869462
160.00000000 3050.00000000 -240.00000000 1 75 217 97.000000 1.000000 4.000000 1.000000 -60.708740 114.000000 149.000000 -0.265734 0.199644 0.943148
120.00000000 3060.00000000 -250.00000000 1 75 217 97.000000 1.000000 4.000000 1.000000 -60.708740 114.000000 149.000000 -0.012217 0.533493 0.845716
150.00000000 3010.00000000 -210.00000000 1 75 217 97.000000 1.000000 4.000000 1.000000 -60.708740 114.000000 149.000000 -0.115666 0.253425 0.960415
120.00000000 3000.00000000 -190.00000000 1 75 217 97.000000 1.000000 4.000000 1.000000 -60.708740 114.000000 149.000000 0.009043 0.019091 0.999777
130.00000000 3030.00000000 -210.00000000 1 75 217 97.000000 1.000000 4.000000 1.000000 -60.708740 114.000000 149.000000 -0.009503 0.533509 0.845741
150.00000000 3020.00000000 -220.00000000 1 75 217 97.000000 1.000000 4.000000 1.000000 -60.708740 114.000000 149.000000 -0.057938 0.563837 0.823852
150.00000000 3010.00000000 -210.00000000 1 75 217 97.000000 1.000000 4.000000 1.000000 -60.708740 114.000000 149.000000 -0.115666 0.253425 0.960415
100.00000000 3030.00000000 -200.00000000 1 75 217 97.000000 1.000000 4.000000 1.000000 -60.708740 114.000000 149.000000 -0.267925 0.442460 0.855830
110.00000000 3000.00000000 -190.00000000 1 75 217 97.000000 1.000000 4.000000 1.000000 -60.708740 114.000000 149.000000 -0.198579 0.056565 0.978451
90.00000000 3030.00000000 -210.00000000 1 75 217 97.000000 1.000000 4.000000 1.000000 -60.708740 114.000000 149.000000 -0.128023 0.406578 0.904602
160.00000000 3080.00000000 -350.00000000 1 75 217 97.000000 1.000000 4.000000 1.000000 -60.708740 114.000000 149.000000 -0.201537 0.087786 0.975539
50.00000000 3160.00000000 -250.00000000 1 75 217 97.000000 1.000000 4.000000 1.000000 -60.708740 114.000000 149.000000 0.212283 0.536052 0.817059
70.00000000 3050.00000000 -210.00000000 1 75 217 97.000000 1.000000 4.000000 1.000000 -60.708740 114.000000 149.000000 -0.083070 -0.125190 0.988649
40.00000000 3050.00000000 -190.00000000 1 75 217 97.000000 1.000000 4.000000 1.000000 -60.708740 114.000000 149.000000 -0.147644 0.262034 0.953698
70.00000000 3030.00000000 -210.00000000 1 75 217 97.000000 1.000000 4.000000 1.000000 -60.708740 114.000000 149.000000 -0.042737 0.151311 0.987562
30.00000000 3040.00000000 -190.00000000 1 75 217 97.000000 1.000000 4.000000 1.000000 -60.708740 114.000000 149.000000 0.096224 -0.071319 0.992801
20.00000000 3060.00000000 -200.00000000 1 75 217 97.000000 1.000000 4.000000 1.000000 -60.708740 114.000000 149.000000 -0.237457 0.183794 0.953852
30.00000000 3060.00000000 -200.00000000 1 75 217 97.000000 1.000000 4.000000 1.000000 -60.708740 114.000000 149.000000 0.063808 0.571437 0.818162
0.00000000 3030.00000000 -190.00000000 1 75 217 97.000000 1.000000 4.000000 1.000000 -60.708740 114.000000 149.000000 0.061785 0.145719 0.987395
20.00000000 3020.00000000 -200.00000000 1 75 217 97.000000 1.000000 4.000000 1.000000 -60.708740 114.000000 149.000000 0.039331 0.467900 0.882906
190.00000000 3100.00000000 -380.00000000 1 75 217 97.000000 1.000000 4.000000 1.000000 -60.708740 114.000000 149.000000 -0.049407 0.206063 0.977291
130.00000000 3100.00000000 -370.00000000 1 75 217 97.000000 1.000000 4.000000 1.000000 -60.708740 114.000000 149.000000 0.309725 0.358072 0.880826
120.00000000 3090.00000000 -370.00000000 1 75 217 97.000000 1.000000 4.000000 1.000000 -60.708740 114.000000 149.000000 -0.016718 0.374219 0.927190
120.00000000 3090.00000000 -370.00000000 1 75 217 97.000000 1.000000 4.000000 1.000000 -60.708740 114.000000 149.000000 -0.016718 0.374219 0.927190
120.00000000 3100.00000000 -400.00000000 1 75 217 97.000000 1.000000 4.000000 1.000000 -60.708740 114.000000 149.000000 0.069303 0.544523 0.835878
-130.00000000 3600.00000000 -340.00000000 1 75 217 97.000000 1.000000 4.000000 1.000000 -60.708740 114.000000 149.000000 0.322085 0.177077 0.930003
-130.00000000 3620.00000000 -350.00000000 1 75 217 97.000000 1.000000 4.000000 1.000000 -60.708740 114.000000 149.000000 -0.000985 0.008867 0.999960
-130.00000000 3610.00000000 -320.00000000 1 75 217 97.000000 1.000000 4.000000 1.000000 -60.708740 114.000000 149.000000 -0.108406 -0.190645 0.975655
-130.00000000 3600.00000000 -340.00000000 1 75 217 97.000000 1.000000 4.000000 1.000000 -60.708740 114.000000 149.000000 0.322085 0.177077 0.930003
-130.00000000 3590.00000000 -350.00000000 1 75 217 97.000000 1.000000 4.000000 1.000000 -60.708740 114.000000 149.000000 0.262596 0.150626 0.953077
-150.00000000 3590.00000000 -310.00000000 1 75 217 97.000000 1.000000 4.000000 1.000000 -60.708740 114.000000 149.000000 -0.074661 0.405886 0.910869
-170.00000000 3600.00000000 -310.00000000 1 75 217 97.000000 1.000000 4.000000 1.000000 -60.708740 114.000000 149.000000 -0.136011 -0.224094 0.965030
-170.00000000 3610.00000000 -310.00000000 1 75 217 97.000000 1.000000 4.000000 1.000000 -60.708740 114.000000 149.000000 0.021969 -0.176909 0.983982
-160.00000000 3610.00000000 -310.00000000 1 75 217 97.000000 1.000000 4.000000 1.000000 -60.708740 114.000000 149.000000 0.295835 0.144540 0.944240
-120.00000000 3510.00000000 -340.00000000 1 75 217 97.000000 1.000000 4.000000 1.000000 -60.708740 114.000000 149.000000 0.156189 -0.007866 0.987696
-120.00000000 3520.00000000 -330.00000000 1 75 217 97.000000 1.000000 4.000000 1.000000 -60.708740 114.000000 149.000000 0.291580 -0.044179 0.955526
-130.00000000 3540.00000000 -330.00000000 1 75 217 97.000000 1.000000 4.000000 1.000000 -60.708740 114.000000 149.000000 0.229716 0.055279 0.971687
-110.00000000 3540.00000000 -340.00000000 1 75 217 97.000000 1.000000 4.000000 1.000000 -60.708740 114.000000 149.000000 0.281628 -0.008534 0.959486
-140.00000000 3580.00000000 -340.00000000 1 75 217 97.000000 1.000000 4.000000 1.000000 -60.708740 114.000000 149.000000 -0.050964 0.178966 0.982534
-140.00000000 3560.00000000 -350.00000000 1 75 217 97.000000 1.000000 4.000000 1.000000 -60.708740 114.000000 149.000000 0.262971 -0.077494 0.961686
-140.00000000 3580.00000000 -340.00000000 1 75 217 97.000000 1.000000 4.000000 1.000000 -60.708740 114.000000 149.000000 -0.050964 0.178966 0.982534
-140.00000000 3560.00000000 -340.00000000 1 75 217 97.000000 1.000000 4.000000 1.000000 -60.708740 114.000000 149.000000 -0.236674 -0.142527 0.961078
-150.00000000 3580.00000000 -340.00000000 1 75 217 97.000000 1.000000 4.000000 1.000000 -60.708740 114.000000 149.000000 0.132547 0.434696 0.890770
-140.00000000 3570.00000000 -320.00000000 1 75 217 97.000000 1.000000 4.000000 1.000000 -60.708740 114.000000 149.000000 0.253680 0.101730 0.961924
-70.00000000 3470.00000000 -60.00000000 1 75 217 97.000000 1.000000 4.000000 1.000000 -60.708740 114.000000 149.000000 0.313847 -0.026469 0.949104
-90.00000000 3360.00000000 -60.00000000 1 75 217 97.000000 1.000000 4.000000 1.000000 -60.708740 114.000000 149.000000 -0.191090 0.369249 0.909472
-90.00000000 3360.00000000 -60.00000000 1 75 217 97.000000 1.000000 4.000000 1.000000 -60.708740 114.000000 149.000000 -0.191090 0.369249 0.909472
-80.00000000 3360.00000000 -180.00000000 1 75 217 97.000000 1.000000 4.000000 1.000000 -60.708740 114.000000 149.000000 0.308396 0.468073 0.828130
-90.00000000 3370.00000000 -160.00000000 1 75 217 97.000000 1.000000 4.000000 1.000000 -60.708740 114.000000 149.000000 0.194818 0.524045 0.829109
-160.00000000 3480.00000000 -70.00000000 1 75 217 97.000000 1.000000 4.000000 1.000000 -60.708740 114.000000 149.000000 0.024918 -0.089922 0.995637
-160.00000000 3480.00000000 -70.00000000 1 75 217 97.000000 1.000000 4.000000 1.000000 -60.708740 114.000000 149.000000 0.024918 -0.089922 0.995637
-110.00000000 3470.00000000 -130.00000000 1 75 217 97.000000 1.000000 4.000000 1.000000 -60.708740 114.000000 149.000000 0.026851 -0.187957 0.981810
-140.00000000 3500.00000000 -130.00000000 1 75 217 97.000000 1.000000 4.000000 1.000000 -60.708740 114.000000 149.000000 0.053645 -0.026296 0.998214
-170.00000000 3440.00000000 -170.00000000 1 75 217 97.000000 1.000000 4.000000 1.000000 -60.708740 114.000000 149.000000 0.414096 0.038613 0.909414
-110.00000000 3410.00000000 -30.00000000 1 75 217 97.000000 1.000000 4.000000 1.000000 -60.708740 114.000000 149.000000 0.581197 0.305809 0.754116
-140.00000000 3410.00000000 -50.00000000 1 75 217 97.000000 1.000000 4.000000 1.000000 -60.708740 114.000000 149.000000 0.478627 0.169360 0.861529
-110.00000000 3340.00000000 -120.00000000 1 75 217 97.000000 1.000000 4.000000 1.000000 -60.708740 114.000000 149.000000 -0.126624 0.513775 0.848529
-150.00000000 3350.00000000 -130.00000000 1 75 217 97.000000 1.000000 4.000000 1.000000 -60.708740 114.000000 149.000000 0.576398 0.401332 0.711827
-90.00000000 3370.00000000 -240.00000000 1 75 217 97.000000 1.000000 4.000000 1.000000 -60.708740 114.000000 149.000000 -0.267489 0.403501 0.875007
-90.00000000 3370.00000000 -280.00000000 1 75 217 97.000000 1.000000 4.000000 1.000000 -60.708740 114.000000 149.000000 -0.098109 0.407638 0.907858
-140.00000000 3430.00000000 -210.00000000 1 75 217 97.000000 1.000000 4.000000 1.000000 -60.708740 114.000000 149.000000 0.276480 -0.008526 0.960982
-130.00000000 3420.00000000 -300.00000000 1 75 217 97.000000 1.000000 4.000000 1.000000 -60.708740 114.000000 149.000000 0.141742 0.504134 0.851914
-130.00000000 3420.00000000 -300.00000000 1 75 217 97.000000 1.000000 4.000000 1.000000 -60.708740 114.000000 149.000000 0.141742 0.504134 0.851914
-110.00000000 3420.00000000 -320.00000000 1 75 217 97.000000 1.000000 4.000000 1.000000 -60.708740 114.000000 149.000000 -0.032225 0.032225 0.998961
-170.00000000 3420.00000000 -290.00000000 1 75 217 97.000000 1.000000 4.000000 1.000000 -60.708740 114.000000 149.000000 0.146804 0.469483 0.870651
-170.00000000 3420.00000000 -290.00000000 1 75 217 97.000000 1.000000 4.000000 1.000000 -60.708740 114.000000 149.000000 0.146804 0.469483 0.870651
-130.00000000 3380.00000000 -260.00000000 1 75 217 97.000000 1.000000 4.000000 1.000000 -60.708740 114.000000 149.000000 0.507452 0.308265 0.804652
-130.00000000 3370.00000000 -260.00000000 1 75 217 97.000000 1.000000 4.000000 1.000000 -60.708740 114.000000 149.000000 0.464028 0.405822 0.787392
-150.00000000 3340.00000000 -210.00000000 1 75 217 97.000000 1.000000 4.000000 1.000000 -60.708740 114.000000 149.000000 -0.001371 0.604596 0.796531
-110.00000000 3390.00000000 -320.00000000 1 75 217 97.000000 1.000000 4.000000 1.000000 -60.708740 114.000000 149.000000 0.081215 0.178188 0.980639
-110.00000000 3400.00000000 -330.00000000 1 75 217 97.000000 1.000000 4.000000 1.000000 -60.708740 114.000000 149.000000 0.131164 0.564446 0.814983
-120.00000000 3380.00000000 -340.00000000 1 75 217 97.000000 1.000000 4.000000 1.000000 -60.708740 114.000000 149.000000 0.360585 0.363680 0.858904
-110.00000000 3350.00000000 -340.00000000 1 75 217 97.000000 1.000000 4.000000 1.000000 -60.708740 114.000000 149.000000 0.209299 0.431957 0.877273
-160.00000000 3400.00000000 -290.00000000 1 75 217 97.000000 1.000000 4.000000 1.000000 -60.708740 114.000000 149.000000 0.475520 0.277258 0.834871
-190.00000000 3590.00000000 -30.00000000 1 75 217 97.000000 1.000000 4.000000 1.000000 -60.708740 114.000000 149.000000 0.239437 0.010721 0.970853
-190.00000000 3570.00000000 -60.00000000 1 75 217 97.000000 1.000000 4.000000 1.000000 -60.708740 114.000000 149.000000 -0.159365 0.082678 0.983751
-210.00000000 3540.00000000 -70.00000000 1 75 217 97.000000 1.000000 4.000000 1.000000 -60.708740 114.000000 149.000000 -0.016562 0.120348 0.992594
-340.00000000 3640.00000000 -170.00000000 1 75 217 97.000000 1.000000 4.000000 1.000000 -60.708740 114.000000 149.000000 -0.081847 0.189346 0.978493
-320.00000000 3640.00000000 -160.00000000 1 75 217 97.000000 1.000000 4.000000 1.000000 -60.708740 114.000000 149.000000 0.011660 0.395143 0.918546
-340.00000000 3650.00000000 -170.00000000 1 75 217 97.000000 1.000000 4.000000 1.000000 -60.708740 114.000000 149.000000 -0.001176 0.231726 0.972780
-330.00000000 3560.00000000 -170.00000000 1 75 217 97.000000 1.000000 4.000000 1.000000 -60.708740 114.000000 149.000000 0.586134 0.004099 0.810204
-320.00000000 3570.00000000 -180.00000000 1 75 217 97.000000 1.000000 4.000000 1.000000 -60.708740 114.000000 149.000000 0.405057 0.146389 0.902496
-320.00000000 3580.00000000 -180.00000000 1 75 217 97.000000 1.000000 4.000000 1.000000 -60.708740 114.000000 149.000000 0.519107 0.222037 0.825365
-340.00000000 3530.00000000 -120.00000000 1 75 217 97.000000 1.000000 4.000000 1.000000 -60.708740 114.000000 149.000000 0.579191 0.277694 0.766436
-200.00000000 3600.00000000 -200.00000000 1 75 217 97.000000 1.000000 4.000000 1.000000 -60.708740 114.000000 149.000000 -0.037014 0.500369 0.865021
-190.00000000 3610.00000000 -200.00000000 1 75 217 97.000000 1.000000 4.000000 1.000000 -60.708740 114.000000 149.000000 -0.201530 0.259111 0.944588
-200.00000000 3600.00000000 -200.00000000 1 75 217 97.000000 1.000000 4.000000 1.000000 -60.708740 114.000000 149.000000 -0.037014 0.500369 0.865021
-180.00000000 3590.00000000 -310.00000000 1 75 217 97.000000 1.000000 4.000000 1.000000 -60.708740 114.000000 149.000000 -0.146665 0.110302 0.983017
-240.00000000 3640.00000000 -330.00000000 1 75 217 97.000000 1.000000 4.000000 1.000000 -60.708740 114.000000 149.000000 -0.092106 -0.149523 0.984459
-230.00000000 3660.00000000 -320.00000000 1 75 217 97.000000 1.000000 4.000000 1.000000 -60.708740 114.000000 149.000000 0.307135 0.364628 0.879042
-230.00000000 3600.00000000 -340.00000000 1 75 217 97.000000 1.000000 4.000000 1.000000 -60.708740 114.000000 149.000000 -0.120991 0.044100 0.991674
-190.00000000 3570.00000000 -310.00000000 1 75 217 97.000000 1.000000 4.000000 1.000000 -60.708740 114.000000 149.000000 0.287217 -0.041389 0.956971
-200.00000000 3580.00000000 -350.00000000 1 75 217 97.000000 1.000000 4.000000 1.000000 -60.708740 114.000000 149.000000 0.407305 0.046740 0.912096
-200.00000000 3570.00000000 -350.00000000 1 75 217 97.000000 1.000000 4.000000 1.000000 -60.708740 114.000000 149.000000 0.309747 0.482703 0.819179
-220.00000000 3550.00000000 -340.00000000 1 75 217 97.000000 1.000000 4.000000 1.000000 -60.708740 114.000000 149.000000 0.051965 0.393065 0.918041
-290.00000000 3650.00000000 -190.00000000 1 75 217 97.000000 1.000000 4.000000 1.000000 -60.708740 114.000000 149.000000 -0.060868 0.244716 0.967682
-290.00000000 3660.00000000 -190.00000000 1 75 217 97.000000 1.000000 4.000000 1.000000 -60.708740 114.000000 149.000000 0.268808 0.628278 0.730075
-300.00000000 3610.00000000 -200.00000000 1 75 217 97.000000 1.000000 4.000000 1.000000 -60.708740 114.000000 149.000000 -0.055178 0.011452 0.998411
-290.00000000 3620.00000000 -270.00000000 1 75 217 97.000000 1.000000 4.000000 1.000000 -60.708740 114.000000 149.000000 0.171630 0.235492 0.956602
-330.00000000 3660.00000000 -200.00000000 1 75 217 97.000000 1.000000 4.000000 1.000000 -60.708740 114.000000 149.000000 0.152151 0.616135 0.772805
-330.00000000 3660.00000000 -200.00000000 1 75 217 97.000000 1.000000 4.000000 1.000000 -60.708740 114.000000 149.000000 0.152151 0.616135 0.772805
-330.00000000 3670.00000000 -210.00000000 1 75 217 97.000000 1.000000 4.000000 1.000000 -60.708740 114.000000 149.000000 0.558897 0.388442 0.732630
-330.00000000 3670.00000000 -210.00000000 1 75 217 97.000000 1.000000 4.000000 1.000000 -60.708740 114.000000 149.000000 0.558897 0.388442 0.732630
-320.00000000 3660.00000000 -190.00000000 1 75 217 97.000000 1.000000 4.000000 1.000000 -60.708740 114.000000 149.000000 0.459331 0.009266 0.888217
-320.00000000 3660.00000000 -200.00000000 1 75 217 97.000000 1.000000 4.000000 1.000000 -60.708740 114.000000 149.000000 0.168393 0.109394 0.979631
-340.00000000 3610.00000000 -210.00000000 1 75 217 97.000000 1.000000 4.000000 1.000000 -60.708740 114.000000 149.000000 0.199134 -0.044120 0.978979
-280.00000000 3660.00000000 -300.00000000 1 75 217 97.000000 1.000000 4.000000 1.000000 -60.708740 114.000000 149.000000 0.090092 0.154958 0.983805
-290.00000000 3600.00000000 -350.00000000 1 75 217 97.000000 1.000000 4.000000 1.000000 -60.708740 114.000000 149.000000 0.281883 0.123076 0.951522
-330.00000000 3620.00000000 -300.00000000 1 75 217 97.000000 1.000000 4.000000 1.000000 -60.708740 114.000000 149.000000 0.282985 0.657101 0.698669
-330.00000000 3620.00000000 -310.00000000 1 75 217 97.000000 1.000000 4.000000 1.000000 -60.708740 114.000000 149.000000 0.105612 0.452020 0.885734
-300.00000000 3540.00000000 -230.00000000 1 75 217 97.000000 1.000000 4.000000 1.000000 -60.708740 114.000000 149.000000 0.013349 0.040046 0.999109
-320.00000000 3570.00000000 -250.00000000 1 75 217 97.000000 1.000000 4.000000 1.000000 -60.708740 114.000000 149.000000 0.428803 0.239227 0.871148
-340.00000000 3550.00000000 -310.00000000 1 75 217 97.000000 1.000000 4.000000 1.000000 -60.708740 114.000000 149.000000 0.250050 0.055981 0.966613
-340.00000000 3550.00000000 -280.00000000 1 75 217 97.000000 1.000000 4.000000 1.000000 -60.708740 114.000000 149.000000 0.286807 0.159035 0.944696
-310.00000000 3560.00000000 -350.00000000 1 75 217 97.000000 1.000000 4.000000 1.000000 -60.708740 114.000000 149.000000 0.544640 0.435381 0.716806
-330.00000000 3560.00000000 -330.00000000 1 75 217 97.000000 1.000000 4.000000 1.000000 -60.708740 114.000000 149.000000 0.060754 0.563742 0.823713
-340.00000000 3540.00000000 -310.00000000 1 75 217 97.000000 1.000000 4.000000 1.000000 -60.708740 114.000000 149.000000 0.389055 -0.079980 0.917736
-180.00000000 3460.00000000 -50.00000000 1 75 217 97.000000 1.000000 4.000000 1.000000 -60.708740 114.000000 149.000000 0.547782 0.347413 0.761078
-190.00000000 3420.00000000 -180.00000000 1 75 217 97.000000 1.000000 4.000000 1.000000 -60.708740 114.000000 149.000000 0.336250 0.618896 0.709862
-220.00000000 3500.00000000 -160.00000000 1 75 217 97.000000 1.000000 4.000000 1.000000 -60.708740 114.000000 149.000000 -0.071010 0.018017 0.997313
-190.00000000 3340.00000000 -180.00000000 1 75 217 97.000000 1.000000 4.000000 1.000000 -60.708740 114.000000 149.000000 -0.004001 0.486771 0.873520
-340.00000000 3490.00000000 -100.00000000 1 75 217 97.000000 1.000000 4.000000 1.000000 -60.708740 114.000000 149.000000 0.703271 0.179265 0.687949
-340.00000000 3470.00000000 -90.00000000 1 75 217 97.000000 1.000000 4.000000 1.000000 -60.708740 114.000000 149.000000 0.541856 0.606001 0.582369
-340.00000000 3440.00000000 -90.00000000 1 75 217 97.000000 1.000000 4.000000 1.000000 -60.708740 114.000000 149.000000 0.751187 0.253545 0.609453
-320.00000000 3470.00000000 -160.00000000 1 75 217 97.000000 1.000000 4.000000 1.000000 -60.708740 114.000000 149.000000 0.724887 0.386278 0.570376
-330.00000000 3460.00000000 -110.00000000 1 75 217 97.000000 1.000000 4.000000 1.000000 -60.708740 114.000000 149.000000 0.597212 0.184815 0.780500
-300.00000000 3390.00000000 -30.00000000 1 75 217 97.000000 1.000000 4.000000 1.000000 -60.708740 114.000000 149.000000 0.570558 0.580716 0.580716
-290.00000000 3360.00000000 -180.00000000 1 75 217 97.000000 1.000000 4.000000 1.000000 -60.708740 114.000000 149.000000 0.603503 0.492552 0.627038
-260.00000000 3350.00000000 -160.00000000 1 75 217 97.000000 1.000000 4.000000 1.000000 -60.708740 114.000000 149.000000 0.515448 0.433108 0.739413
-320.00000000 3340.00000000 -120.00000000 1 75 217 97.000000 1.000000 4.000000 1.000000 -60.708740 114.000000 149.000000 0.776641 0.151723 0.611399
-180.00000000 3420.00000000 -290.00000000 1 75 217 97.000000 1.000000 4.000000 1.000000 -60.708740 114.000000 149.000000 0.510015 0.272944 0.815712
-340.00000000 3500.00000000 -200.00000000 1 75 217 97.000000 1.000000 4.000000 1.000000 -60.708740 114.000000 149.000000 0.641389 0.315040 0.699550
-330.00000000 3460.00000000 -230.00000000 1 75 217 97.000000 1.000000 4.000000 1.000000 -60.708740 114.000000 149.000000 0.055609 0.637369 0.768550
-280.00000000 3480.00000000 -340.00000000 1 75 217 97.000000 1.000000 4.000000 1.000000 -60.708740 114.000000 149.000000 0.461426 0.006611 0.887154
-280.00000000 3460.00000000 -340.00000000 1 75 217 97.000000 1.000000 4.000000 1.000000 -60.708740 114.000000 149.000000 0.539501 0.292691 0.789475
-290.00000000 3450.00000000 -330.00000000 1 75 217 97.000000 1.000000 4.000000 1.000000 -60.708740 114.000000 149.000000 0.195859 0.434424 0.879156
-330.00000000 3470.00000000 -290.00000000 1 75 217 97.000000 1.000000 4.000000 1.000000 -60.708740 114.000000 149.000000 0.222446 0.182485 0.957715
-270.00000000 3350.00000000 -260.00000000 1 75 217 97.000000 1.000000 4.000000 1.000000 -60.708740 114.000000 149.000000 0.659396 0.355059 0.662669
-330.00000000 3370.00000000 -190.00000000 1 75 217 97.000000 1.000000 4.000000 1.000000 -60.708740 114.000000 149.000000 0.329629 0.350896 0.876480
-310.00000000 3360.00000000 -330.00000000 1 75 217 97.000000 1.000000 4.000000 1.000000 -60.708740 114.000000 149.000000 0.577828 0.187527 0.794323
-80.00000000 3390.00000000 -360.00000000 1 75 217 97.000000 1.000000 4.000000 1.000000 -60.708740 114.000000 149.000000 0.183343 0.556089 0.810648
-140.00000000 3380.00000000 -390.00000000 1 75 217 97.000000 1.000000 4.000000 1.000000 -60.708740 114.000000 149.000000 -0.183165 -0.046087 0.982001
-140.00000000 3380.00000000 -390.00000000 1 75 217 97.000000 1.000000 4.000000 1.000000 -60.708740 114.000000 149.000000 -0.183165 -0.046087 0.982001
-160.00000000 3340.00000000 -370.00000000 1 75 217 97.000000 1.000000 4.000000 1.000000 -60.708740 114.000000 149.000000 -0.083297 0.172630 0.981458
-120.00000000 3380.00000000 -460.00000000 1 75 217 97.000000 1.000000 4.000000 1.000000 -60.708740 114.000000 149.000000 -0.049372 0.289900 0.955783
-230.00000000 3590.00000000 -440.00000000 1 75 217 97.000000 1.000000 4.000000 1.000000 -60.708740 114.000000 149.000000 0.000978 0.000978 0.999999
-240.00000000 3560.00000000 -450.00000000 1 75 217 97.000000 1.000000 4.000000 1.000000 -60.708740 114.000000 149.000000 0.078977 -0.142630 0.986620
-290.00000000 3610.00000000 -380.00000000 1 75 217 97.000000 1.000000 4.000000 1.000000 -60.708740 114.000000 149.000000 0.542218 0.182753 0.820123
-260.00000000 3610.00000000 -410.00000000 1 75 217 97.000000 1.000000 4.000000 1.000000 -60.708740 114.000000 149.000000 -0.050867 -0.176259 0.983029
-260.00000000 3620.00000000 -420.00000000 1 75 217 97.000000 1.000000 4.000000 1.000000 -60.708740 114.000000 149.000000 0.132533 -0.188071 0.973172
-270.00000000 3630.00000000 -510.00000000 1 75 217 97.000000 1.000000 4.000000 1.000000 -60.708740 114.000000 149.000000 0.209581 0.359901 0.909147
-270.00000000 3590.00000000 -500.00000000 1 75 217 97.000000 1.000000 4.000000 1.000000 -60.708740 114.000000 149.000000 0.241231 0.169261 0.955593
-310.00000000 3660.00000000 -490.00000000 1 75 217 97.000000 1.000000 4.000000 1.000000 -60.708740 114.000000 149.000000 0.122391 0.420630 0.898939
-320.00000000 3660.00000000 -500.00000000 1 75 217 97.000000 1.000000 4.000000 1.000000 -60.708740 114.000000 149.000000 0.332472 -0.123490 0.934993
-340.00000000 3630.00000000 -510.00000000 1 75 217 97.000000 1.000000 4.000000 1.000000 -60.708740 114.000000 149.000000 0.161406 0.513834 0.842569
-310.00000000 3670.00000000 -510.00000000 1 75 217 97.000000 1.000000 4.000000 1.000000 -60.708740 114.000000 149.000000 0.345470 -0.003769 0.938422
-320.00000000 3620.00000000 -510.00000000 1 75 217 97.000000 1.000000 4.000000 1.000000 -60.708740 114.000000 149.000000 0.427862 -0.001300 0.903843
-300.00000000 3550.00000000 -360.00000000 1 75 217 97.000000 1.000000 4.000000 1.000000 -60.708740 114.000000 149.000000 0.421531 0.367853 0.828852
-280.00000000 3530.00000000 -420.00000000 1 75 217 97.000000 1.000000 4.000000 1.000000 -60.708740 114.000000 149.000000 0.361794 0.043102 0.931261
-280.00000000 3550.00000000 -480.00000000 1 75 217 97.000000 1.000000 4.000000 1.000000 -60.708740 114.000000 149.000000 0.105007 0.146045 0.983689
-270.00000000 3530.00000000 -490.00000000 1 75 217 97.000000 1.000000 4.000000 1.000000 -60.708740 114.000000 149.000000 0.165129 0.087989 0.982339
-270.00000000 3530.00000000 -490.00000000 1 75 217 97.000000 1.000000 4.000000 1.000000 -60.708740 114.000000 149.000000 0.165129 0.087989 0.982339
-270.00000000 3610.00000000 -530.00000000 1 75 217 97.000000 1.000000 4.000000 1.000000 -60.708740 114.000000 149.000000 0.028705 0.509855 0.859782
-210.00000000 3340.00000000 -380.00000000 1 75 217 97.000000 1.000000 4.000000 1.000000 -60.708740 114.000000 149.000000 0.218003 0.384798 0.896886
-220.00000000 3360.00000000 -460.00000000 1 75 217 97.000000 1.000000 4.000000 1.000000 -60.708740 114.000000 149.000000 -0.145426 0.099755 0.984327
-320.00000000 3450.00000000 -410.00000000 1 75 217 97.000000 1.000000 4.000000 1.000000 -60.708740 114.000000 149.000000 0.549395 0.289739 0.783720
-300.00000000 3440.00000000 -460.00000000 1 75 217 97.000000 1.000000 4.000000 1.000000 -60.708740 114.000000 149.000000 0.014361 0.408639 0.912583
-310.00000000 3480.00000000 -480.00000000 1 75 217 97.000000 1.000000 4.000000 1.000000 -60.708740 114.000000 149.000000 0.210126 0.181052 0.960764
-310.00000000 3480.00000000 -480.00000000 1 75 217 97.000000 1.000000 4.000000 1.000000 -60.708740 114.000000 149.000000 0.210126 0.181052 0.960764
-270.00000000 3350.00000000 -440.00000000 1 75 217 97.000000 1.000000 4.000000 1.000000 -60.708740 114.000000 149.000000 -0.065537 0.231234 0.970688
-300.00000000 3340.00000000 -450.00000000 1 75 217 97.000000 1.000000 4.000000 1.000000 -60.708740 114.000000 149.000000 -0.024484 0.067064 0.997448
-270.00000000 3370.00000000 -450.00000000 1 75 217 97.000000 1.000000 4.000000 1.000000 -60.708740 114.000000 149.000000 0.163538 0.303713 0.938623
-80.00000000 3260.00000000 -60.00000000 1 75 217 97.000000 1.000000 4.000000 1.000000 -60.708740 114.000000 149.000000 0.508695 0.262904 0.819824
-80.00000000 3280.00000000 -90.00000000 1 75 217 97.000000 1.000000 4.000000 1.000000 -60.708740 114.000000 149.000000 0.318770 0.324756 0.890460
-60.00000000 3260.00000000 -90.00000000 1 75 217 97.000000 1.000000 4.000000 1.000000 -60.708740 114.000000 149.000000 0.256666 0.432839 0.864160
-50.00000000 3320.00000000 -120.00000000 1 75 217 97.000000 1.000000 4.000000 1.000000 -60.708740 114.000000 149.000000 0.431638 0.409174 0.803906
-80.00000000 3250.00000000 -60.00000000 1 75 217 97.000000 1.000000 4.000000 1.000000 -60.708740 114.000000 149.000000 0.623841 0.402105 0.670174
-80.00000000 3210.00000000 -80.00000000 1 75 217 97.000000 1.000000 4.000000 1.000000 -60.708740 114.000000 149.000000 0.339278 0.535448 0.773425
-30.00000000 3180.00000000 -140.00000000 1 75 217 97.000000 1.000000 4.000000 1.000000 -60.708740 114.000000 149.000000 0.406046 0.534271 0.741404
-70.00000000 3170.00000000 -140.00000000 1 75 217 97.000000 1.000000 4.000000 1.000000 -60.708740 114.000000 149.000000 0.049388 0.594062 0.802901
-70.00000000 3170.00000000 -140.00000000 1 75 217 97.000000 1.000000 4.000000 1.000000 -60.708740 114.000000 149.000000 0.049388 0.594062 0.802901
-70.00000000 3200.00000000 -180.00000000 1 75 217 97.000000 1.000000 4.000000 1.000000 -60.708740 114.000000 149.000000 0.429693 0.518595 0.739204
-50.00000000 3190.00000000 -150.00000000 1 75 217 97.000000 1.000000 4.000000 1.000000 -60.708740 114.000000 149.000000 0.289298 0.542236 0.788851
-100.00000000 3300.00000000 -90.00000000 1 75 217 97.000000 1.000000 4.000000 1.000000 -60.708740 114.000000 149.000000 0.203086 0.437301 0.876085
-100.00000000 3290.00000000 -90.00000000 1 75 217 97.000000 1.000000 4.000000 1.000000 -60.708740 114.000000 149.000000 0.389637 0.389637 0.834486
-110.00000000 3270.00000000 -170.00000000 1 75 217 97.000000 1.000000 4.000000 1.000000 -60.708740 114.000000 149.000000 0.519222 0.360706 0.774790
-120.00000000 3260.00000000 -170.00000000 1 75 217 97.000000 1.000000 4.000000 1.000000 -60.708740 114.000000 149.000000 -0.112875 0.214335 0.970216
-100.00000000 3260.00000000 -170.00000000 1 75 217 97.000000 1.000000 4.000000 1.000000 -60.708740 114.000000 149.000000 0.573846 0.298912 0.762464
-160.00000000 3290.00000000 -110.00000000 1 75 217 97.000000 1.000000 4.000000 1.000000 -60.708740 114.000000 149.000000 0.465623 0.308848 0.829342
-170.00000000 3290.00000000 -180.00000000 1 75 217 97.000000 1.000000 4.000000 1.000000 -60.708740 114.000000 149.000000 0.006749 0.519635 0.854361
-130.00000000 3230.00000000 -30.00000000 1 75 217 97.000000 1.000000 4.000000 1.000000 -60.708740 114.000000 149.000000 0.548896 0.545519 0.633342
-110.00000000 3220.00000000 -40.00000000 1 75 217 97.000000 1.000000 4.000000 1.000000 -60.708740 114.000000 149.000000 0.098273 0.640973 0.761247
-160.00000000 3250.00000000 -20.00000000 1 75 217 97.000000 1.000000 4.000000 1.000000 -60.708740 114.000000 149.000000 0.673979 0.383954 0.631135
-140.00000000 3250.00000000 -50.00000000 1 75 217 97.000000 1.000000 4.000000 1.000000 -60.708740 114.000000 149.000000 0.694030 0.258871 0.671795
-130.00000000 3220.00000000 -140.00000000 1 75 217 97.000000 1.000000 4.000000 1.000000 -60.708740 114.000000 149.000000 0.510358 0.440989 0.738284
-120.00000000 3210.00000000 -140.00000000 1 75 217 97.000000 1.000000 4.000000 1.000000 -60.708740 114.000000 149.000000 0.237792 0.669283 0.703928
-150.00000000 3220.00000000 -140.00000000 1 75 217 97.000000 1.000000 4.000000 1.000000 -60.708740 114.000000 149.000000 0.037455 0.542410 0.839279
-160.00000000 3220.00000000 -180.00000000 1 75 217 97.000000 1.000000 4.000000 1.000000 -60.708740 114.000000 149.000000 0.594763 0.497040 0.631830
-60.00000000 3290.00000000 -250.00000000 1 75 217 97.000000 1.000000 4.000000 1.000000 -60.708740 114.000000 149.000000 -0.109544 0.571089 0.813546
-60.00000000 3230.00000000 -260.00000000 1 75 217 97.000000 1.000000 4.000000 1.000000 -60.708740 114.000000 149.000000 0.431088 0.405447 0.806087
-90.00000000 3180.00000000 -220.00000000 1 75 217 97.000000 1.000000 4.000000 1.000000 -60.708740 114.000000 149.000000 0.500340 0.421598 0.756251
-90.00000000 3180.00000000 -220.00000000 1 75 217 97.000000 1.000000 4.000000 1.000000 -60.708740 114.000000 149.000000 0.500340 0.421598 0.756251
-30.00000000 3200.00000000 -310.00000000 1 75 217 97.000000 1.000000 4.000000 1.000000 -60.708740 114.000000 149.000000 0.247003 0.532843 0.809362
-120.00000000 3330.00000000 -250.00000000 1 75 217 97.000000 1.000000 4.000000 1.000000 -60.708740 114.000000 149.000000 -0.069915 0.434567 0.897922
-150.00000000 3300.00000000 -250.00000000 1 75 217 97.000000 1.000000 4.000000 1.000000 -60.708740 114.000000 149.000000 0.067434 0.355680 0.932172
-120.00000000 3320.00000000 -280.00000000 1 75 217 97.000000 1.000000 4.000000 1.000000 -60.708740 114.000000 149.000000 -0.085667 0.387542 0.917863
-130.00000000 3310.00000000 -280.00000000 1 75 217 97.000000 1.000000 4.000000 1.000000 -60.708740 114.000000 149.000000 0.129256 0.436061 0.890586
-130.00000000 3320.00000000 -280.00000000 1 75 217 97.000000 1.000000 4.000000 1.000000 -60.708740 114.000000 149.000000 0.160012 0.428139 0.889434
-130.00000000 3310.00000000 -280.00000000 1 75 217 97.000000 1.000000 4.000000 1.000000 -60.708740 114.000000 149.000000 0.129256 0.436061 0.890586
-140.00000000 3320.00000000 -280.00000000 1 75 217 97.000000 1.000000 4.000000 1.000000 -60.708740 114.000000 149.000000 0.359984 0.471979 0.804765
-170.00000000 3290.00000000 -300.00000000 1 75 217 97.000000 1.000000 4.000000 1.000000 -60.708740 114.000000 149.000000 0.148759 0.446277 0.882444
-140.00000000 3260.00000000 -330.00000000 1 75 217 97.000000 1.000000 4.000000 1.000000 -60.708740 114.000000 149.000000 0.099268 0.530868 0.841620
-120.00000000 3230.00000000 -240.00000000 1 75 217 97.000000 1.000000 4.000000 1.000000 -60.708740 114.000000 149.000000 0.262055 0.550786 0.792441
-110.00000000 3230.00000000 -250.00000000 1 75 217 97.000000 1.000000 4.000000 1.000000 -60.708740 114.000000 149.000000 0.037306 0.534712 0.844210
-130.00000000 3180.00000000 -200.00000000 1 75 217 97.000000 1.000000 4.000000 1.000000 -60.708740 114.000000 149.000000 0.209499 0.656431 0.724712
-130.00000000 3180.00000000 -200.00000000 1 75 217 97.000000 1.000000 4.000000 1.000000 -60.708740 114.000000 149.000000 0.209499 0.656431 0.724712
-10.00000000 3150.00000000 -50.00000000 1 75 217 97.000000 1.000000 4.000000 1.000000 -60.708740 114.000000 149.000000 0.014859 0.509265 0.860482
-40.00000000 3150.00000000 -90.00000000 1 75 217 97.000000 1.000000 4.000000 1.000000 -60.708740 114.000000 149.000000 -0.015810 0.263908 0.964418
-50.00000000 3100.00000000 -20.00000000 1 75 217 97.000000 1.000000 4.000000 1.000000 -60.708740 114.000000 149.000000 0.282669 0.204691 0.937123
-20.00000000 3010.00000000 -180.00000000 1 75 217 97.000000 1.000000 4.000000 1.000000 -60.708740 114.000000 149.000000 0.506591 0.031406 0.861614
-160.00000000 3030.00000000 -60.00000000 1 75 217 97.000000 1.000000 4.000000 1.000000 -60.708740 114.000000 149.000000 0.746282 0.158944 0.646374
-40.00000000 3150.00000000 -210.00000000 1 75 217 97.000000 1.000000 4.000000 1.000000 -60.708740 114.000000 149.000000 0.100837 0.615253 0.781854
-40.00000000 3150.00000000 -210.00000000 1 75 217 97.000000 1.000000 4.000000 1.000000 -60.708740 114.000000 149.000000 0.100837 0.615253 0.781854
-40.00000000 3080.00000000 -190.00000000 1 75 217 97.000000 1.000000 4.000000 1.000000 -60.708740 114.000000 149.000000 0.033959 0.019552 0.999232
-30.00000000 3040.00000000 -200.00000000 1 75 217 97.000000 1.000000 4.000000 1.000000 -60.708740 114.000000 149.000000 0.014264 0.117402 0.992982
-30.00000000 3060.00000000 -190.00000000 1 75 217 97.000000 1.000000 4.000000 1.000000 -60.708740 114.000000 149.000000 -0.030206 0.036455 0.998879
-190.00000000 3270.00000000 -60.00000000 1 75 217 97.000000 1.000000 4.000000 1.000000 -60.708740 114.000000 149.000000 0.285803 0.745642 0.601942
-180.00000000 3270.00000000 -80.00000000 1 75 217 97.000000 1.000000 4.000000 1.000000 -60.708740 114.000000 149.000000 0.682177 0.487748 0.544736
-190.00000000 3330.00000000 -180.00000000 1 75 217 97.000000 1.000000 4.000000 1.000000 -60.708740 114.000000 149.000000 0.155481 0.635512 0.756274
-250.00000000 3310.00000000 -160.00000000 1 75 217 97.000000 1.000000 4.000000 1.000000 -60.708740 114.000000 149.000000 0.532177 0.666480 0.522104
-220.00000000 3310.00000000 -170.00000000 1 75 217 97.000000 1.000000 4.000000 1.000000 -60.708740 114.000000 149.000000 0.017550 0.500853 0.865355
-240.00000000 3260.00000000 -120.00000000 1 75 217 97.000000 1.000000 4.000000 1.000000 -60.708740 114.000000 149.000000 0.729246 0.104599 0.676210
-180.00000000 3210.00000000 -170.00000000 1 75 217 97.000000 1.000000 4.000000 1.000000 -60.708740 114.000000 149.000000 -0.006541 0.433019 0.901361
-180.00000000 3210.00000000 -170.00000000 1 75 217 97.000000 1.000000 4.000000 1.000000 -60.708740 114.000000 149.000000 -0.006541 0.433019 0.901361
-240.00000000 3220.00000000 -120.00000000 1 75 217 97.000000 1.000000 4.000000 1.000000 -60.708740 114.000000 149.000000 0.407024 0.720120 0.561924
-250.00000000 3250.00000000 -130.00000000 1 75 217 97.000000 1.000000 4.000000 1.000000 -60.708740 114.000000 149.000000 0.368944 0.716572 0.591950
-240.00000000 3240.00000000 -130.00000000 1 75 217 97.000000 1.000000 4.000000 1.000000 -60.708740 114.000000 149.000000 0.359615 0.740384 0.567899
-280.00000000 3310.00000000 -40.00000000 1 75 217 97.000000 1.000000 4.000000 1.000000 -60.708740 114.000000 149.000000 0.775522 0.318204 0.545264
-280.00000000 3300.00000000 -30.00000000 1 75 217 97.000000 1.000000 4.000000 1.000000 -60.708740 114.000000 149.000000 0.636258 0.662699 0.394975
-280.00000000 3320.00000000 -40.00000000 1 75 217 97.000000 1.000000 4.000000 1.000000 -60.708740 114.000000 149.000000 0.817077 0.140875 0.559053
-270.00000000 3330.00000000 -90.00000000 1 75 217 97.000000 1.000000 4.000000 1.000000 -60.708740 114.000000 149.000000 0.587327 0.587327 0.556861
-260.00000000 3290.00000000 -50.00000000 1 75 217 97.000000 1.000000 4.000000 1.000000 -60.708740 114.000000 149.000000 0.595381 0.668762 0.445285
-290.00000000 3290.00000000 -60.00000000 1 75 217 97.000000 1.000000 4.000000 1.000000 -60.708740 114.000000 149.000000 0.672462 0.609366 0.420081
-330.00000000 3320.00000000 -20.00000000 1 75 217 97.000000 1.000000 4.000000 1.000000 -60.708740 114.000000 149.000000 0.293709 0.723840 0.624332
-260.00000000 3310.00000000 -180.00000000 1 75 217 97.000000 1.000000 4.000000 1.000000 -60.708740 114.000000 149.000000 0.736867 0.169342 0.654485
-280.00000000 3290.00000000 -150.00000000 1 75 217 97.000000 1.000000 4.000000 1.000000 -60.708740 114.000000 149.000000 0.578802 0.538303 0.612551
-290.00000000 3280.00000000 -170.00000000 1 75 217 97.000000 1.000000 4.000000 1.000000 -60.708740 114.000000 149.000000 0.716000 0.396681 0.574446
-270.00000000 3290.00000000 -160.00000000 1 75 217 97.000000 1.000000 4.000000 1.000000 -60.708740 114.000000 149.000000 0.594263 0.624566 0.506723
-320.00000000 3310.00000000 -110.00000000 1 75 217 97.000000 1.000000 4.000000 1.000000 -60.708740 114.000000 149.000000 0.729501 0.236892 0.641647
-320.00000000 3270.00000000 -150.00000000 1 75 217 97.000000 1.000000 4.000000 1.000000 -60.708740 114.000000 149.000000 0.739451 0.373806 0.559893
-320.00000000 3270.00000000 -150.00000000 1 75 217 97.000000 1.000000 4.000000 1.000000 -60.708740 114.000000 149.000000 0.739451 0.373806 0.559893
-280.00000000 3230.00000000 -20.00000000 1 75 217 97.000000 1.000000 4.000000 1.000000 -60.708740 114.000000 149.000000 0.833995 0.143181 0.532871
-240.00000000 3310.00000000 -220.00000000 1 75 217 97.000000 1.000000 4.000000 1.000000 -60.708740 114.000000 149.000000 0.088891 0.483960 0.870564
-220.00000000 3320.00000000 -200.00000000 1 75 217 97.000000 1.000000 4.000000 1.000000 -60.708740 114.000000 149.000000 0.300949 0.671099 0.677537
-230.00000000 3260.00000000 -200.00000000 1 75 217 97.000000 1.000000 4.000000 1.000000 -60.708740 114.000000 149.000000 0.311017 0.497311 0.809907
-280.00000000 3310.00000000 -210.00000000 1 75 217 97.000000 1.000000 4.000000 1.000000 -60.708740 114.000000 149.000000 0.617279 0.496178 0.610552
-280.00000000 3310.00000000 -210.00000000 1 75 217 97.000000 1.000000 4.000000 1.000000 -60.708740 114.000000 149.000000 0.617279 0.496178 0.610552
-310.00000000 3300.00000000 -190.00000000 1 75 217 97.000000 1.000000 4.000000 1.000000 -60.708740 114.000000 149.000000 0.627784 0.405823 0.664225
-320.00000000 3330.00000000 -230.00000000 1 75 217 97.000000 1.000000 4.000000 1.000000 -60.708740 114.000000 149.000000 0.520036 0.346154 0.780859
-310.00000000 3300.00000000 -240.00000000 1 75 217 97.000000 1.000000 4.000000 1.000000 -60.708740 114.000000 149.000000 0.669536 0.525225 0.525225
-280.00000000 3290.00000000 -290.00000000 1 75 217 97.000000 1.000000 4.000000 1.000000 -60.708740 114.000000 149.000000 0.003975 0.467762 0.883845
-320.00000000 3320.00000000 -290.00000000 1 75 217 97.000000 1.000000 4.000000 1.000000 -60.708740 114.000000 149.000000 0.625895 0.264619 0.733644
-230.00000000 3120.00000000 -30.00000000 1 75 217 97.000000 1.000000 4.000000 1.000000 -60.708740 114.000000 149.000000 0.823135 0.261977 0.503802
-190.00000000 3040.00000000 -80.00000000 1 75 217 97.000000 1.000000 4.000000 1.000000 -60.708740 114.000000 149.000000 0.753226 0.274333 0.597823
-210.00000000 3060.00000000 -80.00000000 1 75 217 97.000000 1.000000 4.000000 1.000000 -60.708740 114.000000 149.000000 0.788456 0.180783 0.587924
