//X Y Z R G B PointSourceId ScanDirectionFlag NumberOfReturns ReturnNumber GpsTime Intensity Classification Nx Ny Nz
15260.00000000 15670.00000000 330.00000000 180 92 119 97.000000 1.000000 4.000000 1.000000 -60.708740 114.000000 224.000000 0.139840 0.990067 0.014543
15210.00000000 15760.00000000 320.00000000 180 92 119 97.000000 1.000000 4.000000 1.000000 -60.708740 114.000000 224.000000 -0.054400 0.852260 0.520283
15210.00000000 15760.00000000 320.00000000 180 92 119 97.000000 1.000000 4.000000 1.000000 -60.708740 114.000000 224.000000 -0.054400 0.852260 0.520283
15200.00000000 15730.00000000 340.00000000 180 92 119 97.000000 1.000000 4.000000 1.000000 -60.708740 114.000000 224.000000 0.021797 0.985437 0.168637
15180.00000000 15760.00000000 360.00000000 180 92 119 97.000000 1.000000 4.000000 1.000000 -60.708740 114.000000 224.000000 0.526607 0.777832 0.343019
15170.00000000 15730.00000000 400.00000000 180 92 119 97.000000 1.000000 4.000000 1.000000 -60.708740 114.000000 224.000000 0.073858 0.995424 -0.060629
15170.00000000 15730.00000000 380.00000000 180 92 119 97.000000 1.000000 4.000000 1.000000 -60.708740 114.000000 224.000000 0.333691 0.890341 0.309749
15180.00000000 15730.00000000 330.00000000 180 92 119 97.000000 1.000000 4.000000 1.000000 -60.708740 114.000000 224.000000 0.344380 0.789672 0.507761
15190.00000000 15730.00000000 350.00000000 180 92 119 97.000000 1.000000 4.000000 1.000000 -60.708740 114.000000 224.000000 0.090687 0.995375 0.031686
15190.00000000 15730.00000000 340.00000000 180 92 119 97.000000 1.000000 4.000000 1.000000 -60.708740 114.000000 224.000000 -0.114192 0.984458 0.133425
15180.00000000 15740.00000000 330.00000000 180 92 119 97.000000 1.000000 4.000000 1.000000 -60.708740 114.000000 224.000000 0.213278 0.649175 0.730127
15180.00000000 15730.00000000 350.00000000 180 92 119 97.000000 1.000000 4.000000 1.000000 -60.708740 114.000000 224.000000 -0.000978 0.999999 0.000978
15200.00000000 15700.00000000 460.00000000 180 92 119 97.000000 1.000000 4.000000 1.000000 -60.708740 114.000000 224.000000 -0.619249 0.783627 0.049597
15210.00000000 15680.00000000 420.00000000 180 92 119 97.000000 1.000000 4.000000 1.000000 -60.708740 114.000000 224.000000 -0.069798 0.985450 -0.154975
15200.00000000 15700.00000000 410.00000000 180 92 119 97.000000 1.000000 4.000000 1.000000 -60.708740 114.000000 224.000000 0.042407 0.989105 -0.140973
15220.00000000 15700.00000000 360.00000000 180 92 119 97.000000 1.000000 4.000000 1.000000 -60.708740 114.000000 224.000000 -0.075445 0.957764 -0.277483
15230.00000000 15680.00000000 390.00000000 180 92 119 97.000000 1.000000 4.000000 1.000000 -60.708740 114.000000 224.000000 -0.473987 0.872079 0.121719
15180.00000000 15710.00000000 400.00000000 180 92 119 97.000000 1.000000 4.000000 1.000000 -60.708740 114.000000 224.000000 -0.128568 0.952992 0.274366
15170.00000000 15700.00000000 400.00000000 180 92 119 97.000000 1.000000 4.000000 1.000000 -60.708740 114.000000 224.000000 -0.444843 0.888274 -0.114388
15390.00000000 15770.00000000 240.00000000 180 92 119 97.000000 1.000000 4.000000 1.000000 -60.708740 114.000000 224.000000 0.728312 -0.300650 0.615769
15340.00000000 15730.00000000 240.00000000 180 92 119 97.000000 1.000000 4.000000 1.000000 -60.708740 114.000000 224.000000 -0.532461 0.748723 -0.394841
15370.00000000 15760.00000000 280.00000000 180 92 119 97.000000 1.000000 4.000000 1.000000 -60.708740 114.000000 224.000000 0.910886 -0.257963 0.322089
15370.00000000 15720.00000000 260.00000000 180 92 119 97.000000 1.000000 4.000000 1.000000 -60.708740 114.000000 224.000000 -0.571636 0.771154 -0.280276
15340.00000000 15720.00000000 310.00000000 180 92 119 97.000000 1.000000 4.000000 1.000000 -60.708740 114.000000 224.000000 -0.780696 0.379842 -0.496219
15330.00000000 15720.00000000 240.00000000 180 92 119 97.000000 1.000000 4.000000 1.000000 -60.708740 114.000000 224.000000 -0.535132 0.839282 -0.096123
15400.00000000 15790.00000000 240.00000000 180 92 119 97.000000 1.000000 4.000000 1.000000 -60.708740 114.000000 224.000000 0.842093 0.004055 0.539318
15350.00000000 15730.00000000 280.00000000 180 92 119 97.000000 1.000000 4.000000 1.000000 -60.708740 114.000000 224.000000 0.788046 -0.591413 0.170920
15340.00000000 15740.00000000 240.00000000 180 92 119 97.000000 1.000000 4.000000 1.000000 -60.708740 114.000000 224.000000 -0.560185 0.765640 -0.316208
15360.00000000 15740.00000000 290.00000000 180 92 119 97.000000 1.000000 4.000000 1.000000 -60.708740 114.000000 224.000000 -0.746802 0.489625 -0.450060
15400.00000000 15770.00000000 230.00000000 180 92 119 97.000000 1.000000 4.000000 1.000000 -60.708740 114.000000 224.000000 0.839368 -0.270515 0.471468
15390.00000000 15770.00000000 190.00000000 180 92 119 97.000000 1.000000 4.000000 1.000000 -60.708740 114.000000 224.000000 0.754823 -0.603543 0.256860
15390.00000000 15760.00000000 170.00000000 180 92 119 97.000000 1.000000 4.000000 1.000000 -60.708740 114.000000 224.000000 -0.677459 0.725105 -0.123580
15400.00000000 15760.00000000 150.00000000 180 92 119 97.000000 1.000000 4.000000 1.000000 -60.708740 114.000000 224.000000 -0.638734 0.709525 -0.297647
15390.00000000 15750.00000000 200.00000000 180 92 119 97.000000 1.000000 4.000000 1.000000 -60.708740 114.000000 224.000000 -0.594918 0.803757 0.006870
15380.00000000 15750.00000000 160.00000000 180 92 119 97.000000 1.000000 4.000000 1.000000 -60.708740 114.000000 224.000000 -0.589862 0.803309 0.082206
15380.00000000 15750.00000000 160.00000000 180 92 119 97.000000 1.000000 4.000000 1.000000 -60.708740 114.000000 224.000000 -0.589862 0.803309 0.082206
15350.00000000 15750.00000000 210.00000000 180 92 119 97.000000 1.000000 4.000000 1.000000 -60.708740 114.000000 224.000000 0.708662 -0.699895 0.089131
15340.00000000 15720.00000000 200.00000000 180 92 119 97.000000 1.000000 4.000000 1.000000 -60.708740 114.000000 224.000000 -0.201139 0.917252 0.343791
15340.00000000 15730.00000000 220.00000000 180 92 119 97.000000 1.000000 4.000000 1.000000 -60.708740 114.000000 224.000000 -0.649472 0.756511 -0.076664
15330.00000000 15720.00000000 230.00000000 180 92 119 97.000000 1.000000 4.000000 1.000000 -60.708740 114.000000 224.000000 -0.196036 0.935687 -0.293358
15350.00000000 15730.00000000 200.00000000 180 92 119 97.000000 1.000000 4.000000 1.000000 -60.708740 114.000000 224.000000 -0.622964 0.781177 -0.040966
15360.00000000 15720.00000000 150.00000000 180 92 119 97.000000 1.000000 4.000000 1.000000 -60.708740 114.000000 224.000000 -0.172665 0.981653 0.080899
15330.00000000 15720.00000000 190.00000000 180 92 119 97.000000 1.000000 4.000000 1.000000 -60.708740 114.000000 224.000000 -0.286323 0.953102 -0.098056
15350.00000000 15730.00000000 190.00000000 180 92 119 97.000000 1.000000 4.000000 1.000000 -60.708740 114.000000 224.000000 -0.136149 0.970858 0.197225
15360.00000000 15740.00000000 190.00000000 180 92 119 97.000000 1.000000 4.000000 1.000000 -60.708740 114.000000 224.000000 -0.627839 0.763344 -0.152067
15340.00000000 15730.00000000 170.00000000 180 92 119 97.000000 1.000000 4.000000 1.000000 -60.708740 114.000000 224.000000 -0.108830 0.988833 0.101809
15340.00000000 15680.00000000 310.00000000 180 92 119 97.000000 1.000000 4.000000 1.000000 -60.708740 114.000000 224.000000 -0.399773 0.903401 0.155072
15390.00000000 15700.00000000 150.00000000 180 92 119 97.000000 1.000000 4.000000 1.000000 -60.708740 114.000000 224.000000 -0.099609 0.995021 0.003213
15350.00000000 15710.00000000 160.00000000 180 92 119 97.000000 1.000000 4.000000 1.000000 -60.708740 114.000000 224.000000 -0.016927 0.915337 0.402332
15420.00000000 15750.00000000 130.00000000 180 92 119 97.000000 1.000000 4.000000 1.000000 -60.708740 114.000000 224.000000 -0.083420 0.972402 -0.217888
15410.00000000 15760.00000000 110.00000000 180 92 119 97.000000 1.000000 4.000000 1.000000 -60.708740 114.000000 224.000000 -0.038331 0.995513 -0.086519
15410.00000000 15760.00000000 80.00000000 180 92 119 97.000000 1.000000 4.000000 1.000000 -60.708740 114.000000 224.000000 -0.418871 0.893879 -0.159775
15470.00000000 15780.00000000 50.00000000 180 92 119 97.000000 1.000000 4.000000 1.000000 -60.708740 114.000000 224.000000 -0.150135 0.988665 -0.001112
15450.00000000 15760.00000000 20.00000000 180 92 119 97.000000 1.000000 4.000000 1.000000 -60.708740 114.000000 224.000000 -0.154835 0.938604 -0.308300
15410.00000000 15770.00000000 40.00000000 180 92 119 97.000000 1.000000 4.000000 1.000000 -60.708740 114.000000 224.000000 0.277483 0.957764 0.075445
15440.00000000 15770.00000000 40.00000000 180 92 119 97.000000 1.000000 4.000000 1.000000 -60.708740 114.000000 224.000000 0.020502 0.995962 -0.087403
15410.00000000 15780.00000000 -10.00000000 180 92 119 97.000000 1.000000 4.000000 1.000000 -60.708740 114.000000 224.000000 0.185974 0.821007 0.539778
15440.00000000 15780.00000000 20.00000000 180 92 119 97.000000 1.000000 4.000000 1.000000 -60.708740 114.000000 224.000000 -0.104652 0.978801 0.176061
15400.00000000 15780.00000000 120.00000000 180 92 119 97.000000 1.000000 4.000000 1.000000 -60.708740 114.000000 224.000000 -0.540326 0.840353 0.043059
15400.00000000 15790.00000000 70.00000000 180 92 119 97.000000 1.000000 4.000000 1.000000 -60.708740 114.000000 224.000000 0.222749 0.960853 0.164755
15380.00000000 15790.00000000 70.00000000 180 92 119 97.000000 1.000000 4.000000 1.000000 -60.708740 114.000000 224.000000 0.260913 0.925314 0.275170
15400.00000000 15750.00000000 140.00000000 180 92 119 97.000000 1.000000 4.000000 1.000000 -60.708740 114.000000 224.000000 -0.279423 0.956735 -0.081123
15370.00000000 15720.00000000 130.00000000 180 92 119 97.000000 1.000000 4.000000 1.000000 -60.708740 114.000000 224.000000 -0.332742 0.942977 -0.008789
15360.00000000 15720.00000000 140.00000000 180 92 119 97.000000 1.000000 4.000000 1.000000 -60.708740 114.000000 224.000000 -0.099875 0.988177 -0.116325
15360.00000000 15720.00000000 110.00000000 180 92 119 97.000000 1.000000 4.000000 1.000000 -60.708740 114.000000 224.000000 -0.100644 0.952855 0.286249
15360.00000000 15720.00000000 110.00000000 180 92 119 97.000000 1.000000 4.000000 1.000000 -60.708740 114.000000 224.000000 -0.100644 0.952855 0.286249
15340.00000000 15740.00000000 130.00000000 180 92 119 97.000000 1.000000 4.000000 1.000000 -60.708740 114.000000 224.000000 0.037501 0.989791 -0.137503
15350.00000000 15720.00000000 140.00000000 180 92 119 97.000000 1.000000 4.000000 1.000000 -60.708740 114.000000 224.000000 0.173784 0.984778 -0.003408
15360.00000000 15720.00000000 130.00000000 180 92 119 97.000000 1.000000 4.000000 1.000000 -60.708740 114.000000 224.000000 -0.017527 0.999038 0.040209
15360.00000000 15720.00000000 100.00000000 180 92 119 97.000000 1.000000 4.000000 1.000000 -60.708740 114.000000 224.000000 -0.089695 0.952849 0.289885
15390.00000000 15730.00000000 50.00000000 180 92 119 97.000000 1.000000 4.000000 1.000000 -60.708740 114.000000 224.000000 -0.246772 0.965576 0.082257
15380.00000000 15740.00000000 40.00000000 180 92 119 97.000000 1.000000 4.000000 1.000000 -60.708740 114.000000 224.000000 0.533188 0.811373 0.239548
15380.00000000 15720.00000000 10.00000000 180 92 119 97.000000 1.000000 4.000000 1.000000 -60.708740 114.000000 224.000000 0.202364 0.949347 0.240393
15380.00000000 15720.00000000 0.00000000 180 92 119 97.000000 1.000000 4.000000 1.000000 -60.708740 114.000000 224.000000 0.234845 0.893592 0.382546
15360.00000000 15730.00000000 50.00000000 180 92 119 97.000000 1.000000 4.000000 1.000000 -60.708740 114.000000 224.000000 0.093745 0.885680 0.454733
15340.00000000 15740.00000000 50.00000000 180 92 119 97.000000 1.000000 4.000000 1.000000 -60.708740 114.000000 224.000000 0.390567 0.911322 0.130189
15350.00000000 15730.00000000 60.00000000 180 92 119 97.000000 1.000000 4.000000 1.000000 -60.708740 114.000000 224.000000 0.410126 0.901143 0.140493
15330.00000000 15740.00000000 50.00000000 180 92 119 97.000000 1.000000 4.000000 1.000000 -60.708740 114.000000 224.000000 0.565486 0.708101 0.422870
15330.00000000 15740.00000000 50.00000000 180 92 119 97.000000 1.000000 4.000000 1.000000 -60.708740 114.000000 224.000000 0.565486 0.708101 0.422870
15350.00000000 15740.00000000 -10.00000000 180 92 119 97.000000 1.000000 4.000000 1.000000 -60.708740 114.000000 224.000000 0.267484 0.802453 0.533405
15340.00000000 15750.00000000 20.00000000 180 92 119 97.000000 1.000000 4.000000 1.000000 -60.708740 114.000000 224.000000 0.457132 0.881510 0.118199
15340.00000000 15750.00000000 20.00000000 180 92 119 97.000000 1.000000 4.000000 1.000000 -60.708740 114.000000 224.000000 0.457132 0.881510 0.118199
15340.00000000 15740.00000000 0.00000000 180 92 119 97.000000 1.000000 4.000000 1.000000 -60.708740 114.000000 224.000000 0.326047 0.715356 0.618029
15350.00000000 15720.00000000 20.00000000 180 92 119 97.000000 1.000000 4.000000 1.000000 -60.708740 114.000000 224.000000 0.472622 0.864265 0.172264
15330.00000000 15710.00000000 90.00000000 180 92 119 97.000000 1.000000 4.000000 1.000000 -60.708740 114.000000 224.000000 0.467048 0.860980 0.201443
15360.00000000 15710.00000000 80.00000000 180 92 119 97.000000 1.000000 4.000000 1.000000 -60.708740 114.000000 224.000000 0.236149 0.963953 0.122591
15350.00000000 15710.00000000 130.00000000 180 92 119 97.000000 1.000000 4.000000 1.000000 -60.708740 114.000000 224.000000 -0.335647 0.925486 0.175547
15390.00000000 15710.00000000 30.00000000 180 92 119 97.000000 1.000000 4.000000 1.000000 -60.708740 114.000000 224.000000 0.286556 0.935151 0.208277
15320.00000000 15740.00000000 290.00000000 180 92 119 97.000000 1.000000 4.000000 1.000000 -60.708740 114.000000 224.000000 -0.269404 0.932334 -0.241194
15310.00000000 15730.00000000 270.00000000 180 92 119 97.000000 1.000000 4.000000 1.000000 -60.708740 114.000000 224.000000 -0.472718 0.856895 0.205595
15320.00000000 15720.00000000 250.00000000 180 92 119 97.000000 1.000000 4.000000 1.000000 -60.708740 114.000000 224.000000 -0.255011 0.958581 -0.126852
15320.00000000 15730.00000000 250.00000000 180 92 119 97.000000 1.000000 4.000000 1.000000 -60.708740 114.000000 224.000000 -0.446496 0.763787 -0.466123
15310.00000000 15720.00000000 270.00000000 180 92 119 97.000000 1.000000 4.000000 1.000000 -60.708740 114.000000 224.000000 -0.376455 0.926363 0.011563
15250.00000000 15720.00000000 260.00000000 180 92 119 97.000000 1.000000 4.000000 1.000000 -60.708740 114.000000 224.000000 0.331557 0.872437 0.359059
15250.00000000 15720.00000000 250.00000000 180 92 119 97.000000 1.000000 4.000000 1.000000 -60.708740 114.000000 224.000000 0.152612 0.985472 0.074531
15270.00000000 15720.00000000 260.00000000 180 92 119 97.000000 1.000000 4.000000 1.000000 -60.708740 114.000000 224.000000 0.000978 0.999999 0.000978
15310.00000000 15720.00000000 230.00000000 180 92 119 97.000000 1.000000 4.000000 1.000000 -60.708740 114.000000 224.000000 0.008086 0.980726 0.195221
15320.00000000 15720.00000000 230.00000000 180 92 119 97.000000 1.000000 4.000000 1.000000 -60.708740 114.000000 224.000000 -0.145543 0.961109 -0.234705
15310.00000000 15720.00000000 220.00000000 180 92 119 97.000000 1.000000 4.000000 1.000000 -60.708740 114.000000 224.000000 0.164217 0.979126 0.119767
15280.00000000 15720.00000000 210.00000000 180 92 119 97.000000 1.000000 4.000000 1.000000 -60.708740 114.000000 224.000000 0.247073 0.963970 -0.098573
15300.00000000 15720.00000000 230.00000000 180 92 119 97.000000 1.000000 4.000000 1.000000 -60.708740 114.000000 224.000000 -0.159650 0.928748 0.334572
15300.00000000 15720.00000000 200.00000000 180 92 119 97.000000 1.000000 4.000000 1.000000 -60.708740 114.000000 224.000000 0.138166 0.972234 0.188869
15280.00000000 15720.00000000 210.00000000 180 92 119 97.000000 1.000000 4.000000 1.000000 -60.708740 114.000000 224.000000 0.247073 0.963970 -0.098573
15300.00000000 15750.00000000 150.00000000 180 92 119 97.000000 1.000000 4.000000 1.000000 -60.708740 114.000000 224.000000 0.327500 0.852120 0.408210
15280.00000000 15740.00000000 190.00000000 180 92 119 97.000000 1.000000 4.000000 1.000000 -60.708740 114.000000 224.000000 0.198980 0.854267 0.480245
15280.00000000 15740.00000000 160.00000000 180 92 119 97.000000 1.000000 4.000000 1.000000 -60.708740 114.000000 224.000000 0.258049 0.949782 0.176986
15300.00000000 15730.00000000 180.00000000 180 92 119 97.000000 1.000000 4.000000 1.000000 -60.708740 114.000000 224.000000 0.059910 0.974462 0.216411
15320.00000000 15730.00000000 180.00000000 180 92 119 97.000000 1.000000 4.000000 1.000000 -60.708740 114.000000 224.000000 -0.220259 0.843061 0.490646
15310.00000000 15720.00000000 150.00000000 180 92 119 97.000000 1.000000 4.000000 1.000000 -60.708740 114.000000 224.000000 0.086055 0.959445 0.268439
15310.00000000 15730.00000000 180.00000000 180 92 119 97.000000 1.000000 4.000000 1.000000 -60.708740 114.000000 224.000000 0.230229 0.930803 0.283902
15320.00000000 15720.00000000 190.00000000 180 92 119 97.000000 1.000000 4.000000 1.000000 -60.708740 114.000000 224.000000 0.158306 0.984354 0.077368
15280.00000000 15720.00000000 190.00000000 180 92 119 97.000000 1.000000 4.000000 1.000000 -60.708740 114.000000 224.000000 0.357777 0.924143 0.133994
15250.00000000 15760.00000000 180.00000000 180 92 119 97.000000 1.000000 4.000000 1.000000 -60.708740 114.000000 224.000000 0.218529 0.857540 0.465694
15240.00000000 15770.00000000 160.00000000 180 92 119 97.000000 1.000000 4.000000 1.000000 -60.708740 114.000000 224.000000 0.844020 0.433668 0.315536
15260.00000000 15770.00000000 150.00000000 180 92 119 97.000000 1.000000 4.000000 1.000000 -60.708740 114.000000 224.000000 0.791453 0.572376 0.214448
15250.00000000 15760.00000000 150.00000000 180 92 119 97.000000 1.000000 4.000000 1.000000 -60.708740 114.000000 224.000000 0.600284 0.339998 0.723920
15260.00000000 15720.00000000 230.00000000 180 92 119 97.000000 1.000000 4.000000 1.000000 -60.708740 114.000000 224.000000 0.494119 0.866458 0.071388
15270.00000000 15720.00000000 220.00000000 180 92 119 97.000000 1.000000 4.000000 1.000000 -60.708740 114.000000 224.000000 0.138574 0.785254 0.603468
15260.00000000 15720.00000000 230.00000000 180 92 119 97.000000 1.000000 4.000000 1.000000 -60.708740 114.000000 224.000000 0.494119 0.866458 0.071388
15270.00000000 15720.00000000 200.00000000 180 92 119 97.000000 1.000000 4.000000 1.000000 -60.708740 114.000000 224.000000 0.166433 0.963215 0.210990
15260.00000000 15730.00000000 160.00000000 180 92 119 97.000000 1.000000 4.000000 1.000000 -60.708740 114.000000 224.000000 0.263994 0.838295 0.477041
15270.00000000 15750.00000000 150.00000000 180 92 119 97.000000 1.000000 4.000000 1.000000 -60.708740 114.000000 224.000000 0.511478 0.672468 0.534956
15300.00000000 15710.00000000 300.00000000 180 92 119 97.000000 1.000000 4.000000 1.000000 -60.708740 114.000000 224.000000 -0.385251 0.922811 -0.001280
15280.00000000 15700.00000000 300.00000000 180 92 119 97.000000 1.000000 4.000000 1.000000 -60.708740 114.000000 224.000000 0.115898 0.993261 -0.001083
15280.00000000 15710.00000000 310.00000000 180 92 119 97.000000 1.000000 4.000000 1.000000 -60.708740 114.000000 224.000000 -0.134022 0.984033 -0.117118
15290.00000000 15690.00000000 300.00000000 180 92 119 97.000000 1.000000 4.000000 1.000000 -60.708740 114.000000 224.000000 -0.499041 0.847625 0.180251
15300.00000000 15710.00000000 250.00000000 180 92 119 97.000000 1.000000 4.000000 1.000000 -60.708740 114.000000 224.000000 -0.273256 0.958320 0.083388
15240.00000000 15710.00000000 290.00000000 180 92 119 97.000000 1.000000 4.000000 1.000000 -60.708740 114.000000 224.000000 -0.310121 0.941196 0.134070
15290.00000000 15710.00000000 230.00000000 180 92 119 97.000000 1.000000 4.000000 1.000000 -60.708740 114.000000 224.000000 -0.218051 0.879622 0.422752
15310.00000000 15710.00000000 230.00000000 180 92 119 97.000000 1.000000 4.000000 1.000000 -60.708740 114.000000 224.000000 -0.048218 0.997567 0.050361
15200.00000000 15790.00000000 240.00000000 180 92 119 97.000000 1.000000 4.000000 1.000000 -60.708740 114.000000 224.000000 0.556981 0.421454 0.715646
15210.00000000 15760.00000000 250.00000000 180 92 119 97.000000 1.000000 4.000000 1.000000 -60.708740 114.000000 224.000000 0.743600 0.634932 0.209574
15220.00000000 15740.00000000 310.00000000 180 92 119 97.000000 1.000000 4.000000 1.000000 -60.708740 114.000000 224.000000 0.356329 0.933243 -0.045683
15210.00000000 15730.00000000 260.00000000 180 92 119 97.000000 1.000000 4.000000 1.000000 -60.708740 114.000000 224.000000 0.161217 0.794032 0.586107
15210.00000000 15750.00000000 250.00000000 180 92 119 97.000000 1.000000 4.000000 1.000000 -60.708740 114.000000 224.000000 0.668638 0.391277 0.632317
15230.00000000 15730.00000000 270.00000000 180 92 119 97.000000 1.000000 4.000000 1.000000 -60.708740 114.000000 224.000000 0.444383 0.884451 0.142375
15180.00000000 15770.00000000 280.00000000 180 92 119 97.000000 1.000000 4.000000 1.000000 -60.708740 114.000000 224.000000 0.822791 0.109220 0.557751
15180.00000000 15780.00000000 290.00000000 180 92 119 97.000000 1.000000 4.000000 1.000000 -60.708740 114.000000 224.000000 0.609272 0.184767 0.771134
15190.00000000 15760.00000000 270.00000000 180 92 119 97.000000 1.000000 4.000000 1.000000 -60.708740 114.000000 224.000000 0.683904 0.714098 0.149462
15220.00000000 15760.00000000 210.00000000 180 92 119 97.000000 1.000000 4.000000 1.000000 -60.708740 114.000000 224.000000 0.465392 0.793903 0.391315
15230.00000000 15760.00000000 200.00000000 180 92 119 97.000000 1.000000 4.000000 1.000000 -60.708740 114.000000 224.000000 0.687581 0.625223 0.369226
15210.00000000 15780.00000000 180.00000000 180 92 119 97.000000 1.000000 4.000000 1.000000 -60.708740 114.000000 224.000000 0.876735 0.167761 0.450767
15210.00000000 15770.00000000 190.00000000 180 92 119 97.000000 1.000000 4.000000 1.000000 -60.708740 114.000000 224.000000 0.670996 0.683808 0.286655
15220.00000000 15750.00000000 220.00000000 180 92 119 97.000000 1.000000 4.000000 1.000000 -60.708740 114.000000 224.000000 0.744782 0.572784 0.342372
15190.00000000 15780.00000000 150.00000000 180 92 119 97.000000 1.000000 4.000000 1.000000 -60.708740 114.000000 224.000000 0.542518 0.562800 0.623643
15200.00000000 15710.00000000 310.00000000 180 92 119 97.000000 1.000000 4.000000 1.000000 -60.708740 114.000000 224.000000 0.032128 0.936845 0.348265
15290.00000000 15760.00000000 130.00000000 180 92 119 97.000000 1.000000 4.000000 1.000000 -60.708740 114.000000 224.000000 0.254217 0.633174 0.731071
15290.00000000 15760.00000000 130.00000000 180 92 119 97.000000 1.000000 4.000000 1.000000 -60.708740 114.000000 224.000000 0.254217 0.633174 0.731071
15280.00000000 15760.00000000 90.00000000 180 92 119 97.000000 1.000000 4.000000 1.000000 -60.708740 114.000000 224.000000 0.529047 0.733414 0.426864
15280.00000000 15770.00000000 90.00000000 180 92 119 97.000000 1.000000 4.000000 1.000000 -60.708740 114.000000 224.000000 0.592522 0.760008 0.267030
15320.00000000 15720.00000000 110.00000000 180 92 119 97.000000 1.000000 4.000000 1.000000 -60.708740 114.000000 224.000000 -0.056246 0.980117 0.190279
15320.00000000 15730.00000000 140.00000000 180 92 119 97.000000 1.000000 4.000000 1.000000 -60.708740 114.000000 224.000000 -0.126461 0.890910 0.436219
15290.00000000 15740.00000000 110.00000000 180 92 119 97.000000 1.000000 4.000000 1.000000 -60.708740 114.000000 224.000000 0.658699 0.628834 0.413139
15280.00000000 15750.00000000 110.00000000 180 92 119 97.000000 1.000000 4.000000 1.000000 -60.708740 114.000000 224.000000 0.588451 0.524379 0.615429
15300.00000000 15730.00000000 140.00000000 180 92 119 97.000000 1.000000 4.000000 1.000000 -60.708740 114.000000 224.000000 0.478319 0.793978 0.375247
15300.00000000 15720.00000000 110.00000000 180 92 119 97.000000 1.000000 4.000000 1.000000 -60.708740 114.000000 224.000000 0.592312 0.800852 0.088340
15280.00000000 15750.00000000 140.00000000 180 92 119 97.000000 1.000000 4.000000 1.000000 -60.708740 114.000000 224.000000 0.406717 0.629166 0.662368
15300.00000000 15730.00000000 80.00000000 180 92 119 97.000000 1.000000 4.000000 1.000000 -60.708740 114.000000 224.000000 0.323209 0.838470 0.438753
15310.00000000 15730.00000000 80.00000000 180 92 119 97.000000 1.000000 4.000000 1.000000 -60.708740 114.000000 224.000000 0.374400 0.908027 0.187917
15320.00000000 15740.00000000 70.00000000 180 92 119 97.000000 1.000000 4.000000 1.000000 -60.708740 114.000000 224.000000 0.485823 0.653928 0.579961
15250.00000000 15770.00000000 110.00000000 180 92 119 97.000000 1.000000 4.000000 1.000000 -60.708740 114.000000 224.000000 0.914048 0.268838 0.303714
15250.00000000 15780.00000000 110.00000000 180 92 119 97.000000 1.000000 4.000000 1.000000 -60.708740 114.000000 224.000000 0.931547 0.182958 0.314240
15270.00000000 15790.00000000 80.00000000 180 92 119 97.000000 1.000000 4.000000 1.000000 -60.708740 114.000000 224.000000 0.744983 0.209091 0.633468
15270.00000000 15770.00000000 90.00000000 180 92 119 97.000000 1.000000 4.000000 1.000000 -60.708740 114.000000 224.000000 0.453787 0.604492 0.654727
15250.00000000 15790.00000000 80.00000000 180 92 119 97.000000 1.000000 4.000000 1.000000 -60.708740 114.000000 224.000000 0.717901 0.035399 0.695245
15270.00000000 15780.00000000 80.00000000 180 92 119 97.000000 1.000000 4.000000 1.000000 -60.708740 114.000000 224.000000 0.802119 0.451694 0.390611
15250.00000000 15780.00000000 100.00000000 180 92 119 97.000000 1.000000 4.000000 1.000000 -60.708740 114.000000 224.000000 0.921474 0.206513 0.328996
15240.00000000 15760.00000000 80.00000000 180 92 119 97.000000 1.000000 4.000000 1.000000 -60.708740 114.000000 224.000000 0.871673 0.190910 0.451376
15250.00000000 15750.00000000 110.00000000 180 92 119 97.000000 1.000000 4.000000 1.000000 -60.708740 114.000000 224.000000 0.489716 0.844495 0.216809
15260.00000000 15730.00000000 140.00000000 180 92 119 97.000000 1.000000 4.000000 1.000000 -60.708740 114.000000 224.000000 0.621334 0.774823 0.116592
15270.00000000 15740.00000000 110.00000000 180 92 119 97.000000 1.000000 4.000000 1.000000 -60.708740 114.000000 224.000000 0.377282 0.901690 0.211220
15270.00000000 15740.00000000 120.00000000 180 92 119 97.000000 1.000000 4.000000 1.000000 -60.708740 114.000000 224.000000 0.523273 0.664608 0.533369
15270.00000000 15750.00000000 140.00000000 180 92 119 97.000000 1.000000 4.000000 1.000000 -60.708740 114.000000 224.000000 0.568972 0.809633 0.144100
15240.00000000 15750.00000000 90.00000000 180 92 119 97.000000 1.000000 4.000000 1.000000 -60.708740 114.000000 224.000000 0.541751 0.773241 0.329552
15280.00000000 15790.00000000 50.00000000 180 92 119 97.000000 1.000000 4.000000 1.000000 -60.708740 114.000000 224.000000 0.787585 0.550836 0.276207
15320.00000000 15760.00000000 20.00000000 180 92 119 97.000000 1.000000 4.000000 1.000000 -60.708740 114.000000 224.000000 0.407462 0.478889 0.777586
15290.00000000 15760.00000000 -10.00000000 180 92 119 97.000000 1.000000 4.000000 1.000000 -60.708740 114.000000 224.000000 0.372045 0.491229 0.787576
15300.00000000 15730.00000000 60.00000000 180 92 119 97.000000 1.000000 4.000000 1.000000 -60.708740 114.000000 224.000000 0.460328 0.793055 0.398951
15280.00000000 15750.00000000 40.00000000 180 92 119 97.000000 1.000000 4.000000 1.000000 -60.708740 114.000000 224.000000 0.704024 0.588610 0.397353
15250.00000000 15790.00000000 40.00000000 180 92 119 97.000000 1.000000 4.000000 1.000000 -60.708740 114.000000 224.000000 0.780991 -0.037994 0.623386
15260.00000000 15760.00000000 60.00000000 180 92 119 97.000000 1.000000 4.000000 1.000000 -60.708740 114.000000 224.000000 0.595287 0.464491 0.655654
15250.00000000 15760.00000000 60.00000000 180 92 119 97.000000 1.000000 4.000000 1.000000 -60.708740 114.000000 224.000000 0.759639 0.410041 0.504792
15270.00000000 15780.00000000 20.00000000 180 92 119 97.000000 1.000000 4.000000 1.000000 -60.708740 114.000000 224.000000 0.747822 0.562894 0.352012
15140.00000000 15800.00000000 700.00000000 180 92 119 97.000000 1.000000 4.000000 1.000000 -60.708740 114.000000 224.000000 0.526307 0.123923 0.841216
15090.00000000 15800.00000000 730.00000000 180 92 119 97.000000 1.000000 4.000000 1.000000 -60.708740 114.000000 224.000000 0.457925 0.384015 0.801771
15130.00000000 15840.00000000 530.00000000 180 92 119 97.000000 1.000000 4.000000 1.000000 -60.708740 114.000000 224.000000 0.132596 0.973632 0.185634
15110.00000000 15820.00000000 550.00000000 180 92 119 97.000000 1.000000 4.000000 1.000000 -60.708740 114.000000 224.000000 0.459343 0.559563 0.689850
15130.00000000 15820.00000000 470.00000000 180 92 119 97.000000 1.000000 4.000000 1.000000 -60.708740 114.000000 224.000000 0.264574 0.833951 0.484279
15150.00000000 15820.00000000 450.00000000 180 92 119 97.000000 1.000000 4.000000 1.000000 -60.708740 114.000000 224.000000 0.456411 0.743109 0.489365
15120.00000000 15800.00000000 420.00000000 180 92 119 97.000000 1.000000 4.000000 1.000000 -60.708740 114.000000 224.000000 -0.564551 0.793465 -0.227367
15150.00000000 15820.00000000 410.00000000 180 92 119 97.000000 1.000000 4.000000 1.000000 -60.708740 114.000000 224.000000 -0.643838 0.765161 -0.001379
15150.00000000 15880.00000000 380.00000000 180 92 119 97.000000 1.000000 4.000000 1.000000 -60.708740 114.000000 224.000000 -0.616374 0.776780 0.129216
15150.00000000 15860.00000000 400.00000000 180 92 119 97.000000 1.000000 4.000000 1.000000 -60.708740 114.000000 224.000000 -0.435747 0.887313 -0.151001
15150.00000000 15810.00000000 370.00000000 180 92 119 97.000000 1.000000 4.000000 1.000000 -60.708740 114.000000 224.000000 0.739605 -0.512288 0.436515
15150.00000000 15820.00000000 340.00000000 180 92 119 97.000000 1.000000 4.000000 1.000000 -60.708740 114.000000 224.000000 0.873300 -0.229185 0.429909
15150.00000000 15810.00000000 370.00000000 180 92 119 97.000000 1.000000 4.000000 1.000000 -60.708740 114.000000 224.000000 0.739605 -0.512288 0.436515
14820.00000000 15870.00000000 510.00000000 180 92 119 97.000000 1.000000 4.000000 1.000000 -60.708740 114.000000 226.000000 0.858171 -0.221707 0.463020
14820.00000000 15900.00000000 540.00000000 180 92 119 97.000000 1.000000 4.000000 1.000000 -60.708740 114.000000 226.000000 0.778152 -0.531069 0.335328
15090.00000000 15760.00000000 840.00000000 180 92 119 97.000000 1.000000 4.000000 1.000000 -60.708740 114.000000 224.000000 0.872310 0.039588 0.487347
15090.00000000 15760.00000000 840.00000000 180 92 119 97.000000 1.000000 4.000000 1.000000 -60.708740 114.000000 224.000000 0.872310 0.039588 0.487347
15080.00000000 15750.00000000 900.00000000 180 92 119 97.000000 1.000000 4.000000 1.000000 -60.708740 114.000000 224.000000 0.965060 0.056181 0.255934
15110.00000000 15740.00000000 870.00000000 180 92 119 97.000000 1.000000 4.000000 1.000000 -60.708740 114.000000 224.000000 0.937301 0.003774 0.348500
15080.00000000 15750.00000000 900.00000000 180 92 119 97.000000 1.000000 4.000000 1.000000 -60.708740 114.000000 224.000000 0.965060 0.056181 0.255934
15100.00000000 15720.00000000 850.00000000 180 92 119 97.000000 1.000000 4.000000 1.000000 -60.708740 114.000000 224.000000 0.656275 -0.067791 0.751471
15090.00000000 15730.00000000 850.00000000 180 92 119 97.000000 1.000000 4.000000 1.000000 -60.708740 114.000000 224.000000 0.968892 -0.121271 0.215735
15090.00000000 15730.00000000 850.00000000 180 92 119 97.000000 1.000000 4.000000 1.000000 -60.708740 114.000000 224.000000 0.968892 -0.121271 0.215735
15090.00000000 15740.00000000 850.00000000 180 92 119 97.000000 1.000000 4.000000 1.000000 -60.708740 114.000000 224.000000 0.857279 0.390796 0.335188
15120.00000000 15710.00000000 890.00000000 180 92 119 97.000000 1.000000 4.000000 1.000000 -60.708740 114.000000 224.000000 0.860229 0.211680 0.463893
15090.00000000 15760.00000000 780.00000000 180 92 119 97.000000 1.000000 4.000000 1.000000 -60.708740 114.000000 224.000000 0.965934 -0.018179 0.258148
15070.00000000 15780.00000000 750.00000000 180 92 119 97.000000 1.000000 4.000000 1.000000 -60.708740 114.000000 224.000000 0.842313 0.193687 0.502985
15090.00000000 15790.00000000 740.00000000 180 92 119 97.000000 1.000000 4.000000 1.000000 -60.708740 114.000000 224.000000 0.531499 0.464853 0.708110
15090.00000000 15750.00000000 800.00000000 180 92 119 97.000000 1.000000 4.000000 1.000000 -60.708740 114.000000 224.000000 0.936812 0.235948 0.258286
15090.00000000 15740.00000000 800.00000000 180 92 119 97.000000 1.000000 4.000000 1.000000 -60.708740 114.000000 224.000000 0.907111 -0.049723 0.417943
15070.00000000 15760.00000000 730.00000000 180 92 119 97.000000 1.000000 4.000000 1.000000 -60.708740 114.000000 224.000000 0.554730 0.406583 0.725923
15080.00000000 15780.00000000 710.00000000 180 92 119 97.000000 1.000000 4.000000 1.000000 -60.708740 114.000000 224.000000 0.788027 0.441748 0.428803
15090.00000000 15770.00000000 710.00000000 180 92 119 97.000000 1.000000 4.000000 1.000000 -60.708740 114.000000 224.000000 0.590187 0.138255 0.795340
15100.00000000 15770.00000000 670.00000000 180 92 119 97.000000 1.000000 4.000000 1.000000 -60.708740 114.000000 224.000000 0.962062 0.169312 0.213937
15090.00000000 15750.00000000 710.00000000 180 92 119 97.000000 1.000000 4.000000 1.000000 -60.708740 114.000000 224.000000 0.846644 -0.249553 0.470018
15110.00000000 15720.00000000 730.00000000 180 92 119 97.000000 1.000000 4.000000 1.000000 -60.708740 114.000000 224.000000 0.639712 0.079783 0.764463
15090.00000000 15750.00000000 680.00000000 180 92 119 97.000000 1.000000 4.000000 1.000000 -60.708740 114.000000 224.000000 0.566109 -0.087869 0.819634
15100.00000000 15730.00000000 670.00000000 180 92 119 97.000000 1.000000 4.000000 1.000000 -60.708740 114.000000 224.000000 0.942774 -0.127765 0.307982
15100.00000000 15740.00000000 670.00000000 180 92 119 97.000000 1.000000 4.000000 1.000000 -60.708740 114.000000 224.000000 0.908061 -0.080565 0.411017
15110.00000000 15690.00000000 700.00000000 180 92 119 97.000000 1.000000 4.000000 1.000000 -60.708740 114.000000 224.000000 0.588354 -0.734227 0.338749
15090.00000000 15680.00000000 660.00000000 180 92 119 97.000000 1.000000 4.000000 1.000000 -60.708740 114.000000 224.000000 -0.658795 0.750255 -0.055733
15060.00000000 15750.00000000 800.00000000 180 92 119 97.000000 1.000000 4.000000 1.000000 -60.708740 114.000000 224.000000 0.950696 0.117680 0.286928
15120.00000000 15780.00000000 610.00000000 180 92 119 97.000000 1.000000 4.000000 1.000000 -60.708740 114.000000 224.000000 0.730842 0.101465 0.674963
15130.00000000 15780.00000000 570.00000000 180 92 119 97.000000 1.000000 4.000000 1.000000 -60.708740 114.000000 224.000000 0.489392 0.260906 0.832120
15120.00000000 15780.00000000 610.00000000 180 92 119 97.000000 1.000000 4.000000 1.000000 -60.708740 114.000000 224.000000 0.730842 0.101465 0.674963
15130.00000000 15750.00000000 580.00000000 180 92 119 97.000000 1.000000 4.000000 1.000000 -60.708740 114.000000 224.000000 0.604492 -0.453787 0.654727
15120.00000000 15720.00000000 580.00000000 180 92 119 97.000000 1.000000 4.000000 1.000000 -60.708740 114.000000 224.000000 0.688048 -0.706355 0.166291
15100.00000000 15770.00000000 630.00000000 180 92 119 97.000000 1.000000 4.000000 1.000000 -60.708740 114.000000 224.000000 0.877665 0.313776 0.362283
15070.00000000 15760.00000000 620.00000000 180 92 119 97.000000 1.000000 4.000000 1.000000 -60.708740 114.000000 224.000000 0.895268 -0.111030 0.431471
15090.00000000 15780.00000000 590.00000000 180 92 119 97.000000 1.000000 4.000000 1.000000 -60.708740 114.000000 224.000000 0.670352 0.213082 0.710791
15090.00000000 15730.00000000 640.00000000 180 92 119 97.000000 1.000000 4.000000 1.000000 -60.708740 114.000000 224.000000 0.797253 0.085368 0.597578
15100.00000000 15740.00000000 640.00000000 180 92 119 97.000000 1.000000 4.000000 1.000000 -60.708740 114.000000 224.000000 0.577373 -0.248787 0.777654
15130.00000000 15770.00000000 490.00000000 180 92 119 97.000000 1.000000 4.000000 1.000000 -60.708740 114.000000 224.000000 0.942074 -0.211036 0.260691
15120.00000000 15770.00000000 520.00000000 180 92 119 97.000000 1.000000 4.000000 1.000000 -60.708740 114.000000 224.000000 0.903846 0.241709 0.353042
15120.00000000 15720.00000000 490.00000000 180 92 119 97.000000 1.000000 4.000000 1.000000 -60.708740 114.000000 224.000000 -0.247316 0.905851 -0.343901
15110.00000000 15760.00000000 560.00000000 180 92 119 97.000000 1.000000 4.000000 1.000000 -60.708740 114.000000 224.000000 0.879174 -0.272951 0.390577
15080.00000000 15760.00000000 550.00000000 180 92 119 97.000000 1.000000 4.000000 1.000000 -60.708740 114.000000 224.000000 0.806385 -0.383153 0.450485
15110.00000000 15730.00000000 560.00000000 180 92 119 97.000000 1.000000 4.000000 1.000000 -60.708740 114.000000 224.000000 0.913696 -0.320011 0.250506
15110.00000000 15730.00000000 560.00000000 180 92 119 97.000000 1.000000 4.000000 1.000000 -60.708740 114.000000 224.000000 0.913696 -0.320011 0.250506
15110.00000000 15740.00000000 490.00000000 180 92 119 97.000000 1.000000 4.000000 1.000000 -60.708740 114.000000 224.000000 -0.191819 0.939773 0.282898
15120.00000000 15680.00000000 620.00000000 180 92 119 97.000000 1.000000 4.000000 1.000000 -60.708740 114.000000 224.000000 0.817540 -0.520815 0.245726
15100.00000000 15690.00000000 650.00000000 180 92 119 97.000000 1.000000 4.000000 1.000000 -60.708740 114.000000 224.000000 0.800420 -0.439667 0.407457
15150.00000000 15690.00000000 560.00000000 180 92 119 97.000000 1.000000 4.000000 1.000000 -60.708740 114.000000 224.000000 -0.415635 0.803989 -0.425264
15140.00000000 15700.00000000 490.00000000 180 92 119 97.000000 1.000000 4.000000 1.000000 -60.708740 114.000000 224.000000 -0.346689 0.839269 -0.418850
15140.00000000 15780.00000000 450.00000000 180 92 119 97.000000 1.000000 4.000000 1.000000 -60.708740 114.000000 224.000000 0.766894 0.120152 0.630426
15130.00000000 15770.00000000 470.00000000 180 92 119 97.000000 1.000000 4.000000 1.000000 -60.708740 114.000000 224.000000 0.737880 -0.185621 0.648905
15130.00000000 15790.00000000 480.00000000 180 92 119 97.000000 1.000000 4.000000 1.000000 -60.708740 114.000000 224.000000 0.826077 0.509183 0.241516
15130.00000000 15780.00000000 410.00000000 180 92 119 97.000000 1.000000 4.000000 1.000000 -60.708740 114.000000 224.000000 0.849715 0.180062 0.495543
15140.00000000 15770.00000000 420.00000000 180 92 119 97.000000 1.000000 4.000000 1.000000 -60.708740 114.000000 224.000000 0.358628 0.673041 0.646840
15140.00000000 15770.00000000 420.00000000 180 92 119 97.000000 1.000000 4.000000 1.000000 -60.708740 114.000000 224.000000 0.358628 0.673041 0.646840
15130.00000000 15740.00000000 420.00000000 180 92 119 97.000000 1.000000 4.000000 1.000000 -60.708740 114.000000 224.000000 0.614981 0.774364 0.148858
15110.00000000 15780.00000000 410.00000000 180 92 119 97.000000 1.000000 4.000000 1.000000 -60.708740 114.000000 224.000000 0.761759 0.185458 0.620749
15140.00000000 15790.00000000 360.00000000 180 92 119 97.000000 1.000000 4.000000 1.000000 -60.708740 114.000000 224.000000 0.554448 0.066647 0.829545
15140.00000000 15780.00000000 400.00000000 180 92 119 97.000000 1.000000 4.000000 1.000000 -60.708740 114.000000 224.000000 0.856178 0.451661 0.250923
15140.00000000 15780.00000000 400.00000000 180 92 119 97.000000 1.000000 4.000000 1.000000 -60.708740 114.000000 224.000000 0.856178 0.451661 0.250923
15400.00000000 15940.00000000 -40.00000000 180 92 119 97.000000 1.000000 4.000000 1.000000 -60.708740 114.000000 224.000000 -0.706113 0.706113 -0.052994
15370.00000000 15920.00000000 -70.00000000 180 92 119 97.000000 1.000000 4.000000 1.000000 -60.708740 114.000000 224.000000 -0.431780 0.671843 -0.601825
15300.00000000 15900.00000000 -30.00000000 180 92 119 97.000000 1.000000 4.000000 1.000000 -60.708740 114.000000 224.000000 0.949423 -0.222031 0.222031
15310.00000000 15920.00000000 -30.00000000 180 92 119 97.000000 1.000000 4.000000 1.000000 -60.708740 114.000000 224.000000 0.588136 -0.655160 0.474195
15290.00000000 15890.00000000 -20.00000000 180 92 119 97.000000 1.000000 4.000000 1.000000 -60.708740 114.000000 224.000000 0.556347 -0.173387 0.812659
15280.00000000 15900.00000000 -80.00000000 180 92 119 97.000000 1.000000 4.000000 1.000000 -60.708740 114.000000 224.000000 0.915904 0.144469 0.374497
15300.00000000 15910.00000000 -60.00000000 180 92 119 97.000000 1.000000 4.000000 1.000000 -60.708740 114.000000 224.000000 0.668839 -0.615730 0.416572
15300.00000000 15910.00000000 -20.00000000 180 92 119 97.000000 1.000000 4.000000 1.000000 -60.708740 114.000000 224.000000 0.714285 -0.647470 0.265669
15290.00000000 15850.00000000 -20.00000000 180 92 119 97.000000 1.000000 4.000000 1.000000 -60.708740 114.000000 224.000000 0.632550 -0.152476 0.759362
15280.00000000 15870.00000000 -40.00000000 180 92 119 97.000000 1.000000 4.000000 1.000000 -60.708740 114.000000 224.000000 0.590307 -0.167581 0.789592
15290.00000000 15880.00000000 -90.00000000 180 92 119 97.000000 1.000000 4.000000 1.000000 -60.708740 114.000000 224.000000 0.615257 -0.233265 0.753025
15310.00000000 15800.00000000 -40.00000000 180 92 119 97.000000 1.000000 4.000000 1.000000 -60.708740 114.000000 224.000000 0.818182 0.320021 0.477667
15290.00000000 15820.00000000 -100.00000000 180 92 119 97.000000 1.000000 4.000000 1.000000 -60.708740 114.000000 224.000000 0.655517 0.258715 0.709482
15300.00000000 15880.00000000 -150.00000000 180 92 119 97.000000 1.000000 4.000000 1.000000 -60.708740 114.000000 224.000000 0.699504 -0.172963 0.693381
15300.00000000 15870.00000000 -150.00000000 180 92 119 97.000000 1.000000 4.000000 1.000000 -60.708740 114.000000 224.000000 0.768784 0.001375 0.639507
15300.00000000 15880.00000000 -150.00000000 180 92 119 97.000000 1.000000 4.000000 1.000000 -60.708740 114.000000 224.000000 0.699504 -0.172963 0.693381
15290.00000000 15800.00000000 -170.00000000 180 92 119 97.000000 1.000000 4.000000 1.000000 -60.708740 114.000000 224.000000 0.711137 0.149475 0.686980
15380.00000000 15740.00000000 -50.00000000 180 92 119 97.000000 1.000000 4.000000 1.000000 -60.708740 114.000000 224.000000 0.331403 0.738787 0.586827
15380.00000000 15740.00000000 -40.00000000 180 92 119 97.000000 1.000000 4.000000 1.000000 -60.708740 114.000000 224.000000 0.199391 0.743465 0.638360
15330.00000000 15760.00000000 -20.00000000 180 92 119 97.000000 1.000000 4.000000 1.000000 -60.708740 114.000000 224.000000 0.523693 0.493577 0.694354
15330.00000000 15760.00000000 -20.00000000 180 92 119 97.000000 1.000000 4.000000 1.000000 -60.708740 114.000000 224.000000 0.523693 0.493577 0.694354
15330.00000000 15760.00000000 -50.00000000 180 92 119 97.000000 1.000000 4.000000 1.000000 -60.708740 114.000000 224.000000 0.500797 0.537645 0.678337
15330.00000000 15770.00000000 -100.00000000 180 92 119 97.000000 1.000000 4.000000 1.000000 -60.708740 114.000000 224.000000 0.410173 0.786299 0.462052
15330.00000000 15750.00000000 -50.00000000 180 92 119 97.000000 1.000000 4.000000 1.000000 -60.708740 114.000000 224.000000 0.428192 0.547226 0.719164
15360.00000000 15750.00000000 -70.00000000 180 92 119 97.000000 1.000000 4.000000 1.000000 -60.708740 114.000000 224.000000 0.450274 0.866143 0.216910
15360.00000000 15750.00000000 -70.00000000 180 92 119 97.000000 1.000000 4.000000 1.000000 -60.708740 114.000000 224.000000 0.450274 0.866143 0.216910
15350.00000000 15760.00000000 -110.00000000 180 92 119 97.000000 1.000000 4.000000 1.000000 -60.708740 114.000000 224.000000 0.540551 0.267925 0.797509
15350.00000000 15750.00000000 -110.00000000 180 92 119 97.000000 1.000000 4.000000 1.000000 -60.708740 114.000000 224.000000 0.619885 0.318844 0.716995
15350.00000000 15750.00000000 -110.00000000 180 92 119 97.000000 1.000000 4.000000 1.000000 -60.708740 114.000000 224.000000 0.619885 0.318844 0.716995
15360.00000000 15740.00000000 -110.00000000 180 92 119 97.000000 1.000000 4.000000 1.000000 -60.708740 114.000000 224.000000 0.409051 0.680647 0.607780
15360.00000000 15740.00000000 -130.00000000 180 92 119 97.000000 1.000000 4.000000 1.000000 -60.708740 114.000000 224.000000 0.488548 0.849323 0.199929
15360.00000000 15750.00000000 -120.00000000 180 92 119 97.000000 1.000000 4.000000 1.000000 -60.708740 114.000000 224.000000 0.615270 0.744967 0.257812
15360.00000000 15740.00000000 -110.00000000 180 92 119 97.000000 1.000000 4.000000 1.000000 -60.708740 114.000000 224.000000 0.409051 0.680647 0.607780
15300.00000000 15790.00000000 -30.00000000 180 92 119 97.000000 1.000000 4.000000 1.000000 -60.708740 114.000000 224.000000 0.675633 0.605912 0.419988
15300.00000000 15790.00000000 -40.00000000 180 92 119 97.000000 1.000000 4.000000 1.000000 -60.708740 114.000000 224.000000 0.819064 0.396014 0.415099
15300.00000000 15790.00000000 -20.00000000 180 92 119 97.000000 1.000000 4.000000 1.000000 -60.708740 114.000000 224.000000 0.511478 0.672468 0.534956
15320.00000000 15780.00000000 -100.00000000 180 92 119 97.000000 1.000000 4.000000 1.000000 -60.708740 114.000000 224.000000 0.834883 0.440154 0.330507
15290.00000000 15770.00000000 -110.00000000 180 92 119 97.000000 1.000000 4.000000 1.000000 -60.708740 114.000000 224.000000 0.762288 0.440979 0.473766
15320.00000000 15790.00000000 -140.00000000 180 92 119 97.000000 1.000000 4.000000 1.000000 -60.708740 114.000000 224.000000 0.559071 0.220240 0.799333
15310.00000000 15790.00000000 -130.00000000 180 92 119 97.000000 1.000000 4.000000 1.000000 -60.708740 114.000000 224.000000 0.857049 0.373506 0.354908
15240.00000000 15810.00000000 570.00000000 180 92 119 97.000000 1.000000 4.000000 1.000000 -60.708740 114.000000 224.000000 0.472756 0.246323 0.846065
15240.00000000 15850.00000000 520.00000000 180 92 119 97.000000 1.000000 4.000000 1.000000 -60.708740 114.000000 224.000000 0.657559 0.463471 0.593979
15220.00000000 15840.00000000 620.00000000 180 92 119 97.000000 1.000000 4.000000 1.000000 -60.708740 114.000000 224.000000 0.546432 0.693485 0.469564
15200.00000000 15840.00000000 590.00000000 180 92 119 97.000000 1.000000 4.000000 1.000000 -60.708740 114.000000 224.000000 0.585019 0.524325 0.618737
15230.00000000 15860.00000000 560.00000000 180 92 119 97.000000 1.000000 4.000000 1.000000 -60.708740 114.000000 224.000000 0.471666 0.729841 0.494836
15170.00000000 15830.00000000 530.00000000 180 92 119 97.000000 1.000000 4.000000 1.000000 -60.708740 114.000000 224.000000 0.551293 0.799764 0.237600
15250.00000000 15900.00000000 360.00000000 180 92 119 97.000000 1.000000 4.000000 1.000000 -60.708740 114.000000 224.000000 -0.034818 0.823095 0.566835
15270.00000000 15910.00000000 350.00000000 180 92 119 97.000000 1.000000 4.000000 1.000000 -60.708740 114.000000 224.000000 0.396359 0.900817 0.177281
15280.00000000 15870.00000000 450.00000000 180 92 119 97.000000 1.000000 4.000000 1.000000 -60.708740 114.000000 224.000000 0.699311 0.634410 0.329374
15250.00000000 15880.00000000 330.00000000 180 92 119 97.000000 1.000000 4.000000 1.000000 -60.708740 114.000000 224.000000 0.157619 0.883536 0.441045
15290.00000000 15840.00000000 350.00000000 180 92 119 97.000000 1.000000 4.000000 1.000000 -60.708740 114.000000 224.000000 0.608332 0.648552 0.457506
15280.00000000 15850.00000000 340.00000000 180 92 119 97.000000 1.000000 4.000000 1.000000 -60.708740 114.000000 224.000000 0.470038 0.764835 0.440558
15220.00000000 15900.00000000 330.00000000 180 92 119 97.000000 1.000000 4.000000 1.000000 -60.708740 114.000000 224.000000 -0.386302 0.909861 -0.151408
15220.00000000 15890.00000000 400.00000000 180 92 119 97.000000 1.000000 4.000000 1.000000 -60.708740 114.000000 224.000000 0.209969 0.928656 0.305794
15220.00000000 15900.00000000 380.00000000 180 92 119 97.000000 1.000000 4.000000 1.000000 -60.708740 114.000000 224.000000 0.103523 0.986444 0.127322
15230.00000000 15900.00000000 370.00000000 180 92 119 97.000000 1.000000 4.000000 1.000000 -60.708740 114.000000 224.000000 0.334560 0.745082 0.576994
15220.00000000 15900.00000000 400.00000000 180 92 119 97.000000 1.000000 4.000000 1.000000 -60.708740 114.000000 224.000000 0.170408 0.960362 0.220606
15200.00000000 15890.00000000 370.00000000 180 92 119 97.000000 1.000000 4.000000 1.000000 -60.708740 114.000000 224.000000 -0.036161 0.999063 -0.023763
