//X Y Z R G B PointSourceId ScanDirectionFlag NumberOfReturns ReturnNumber GpsTime Intensity Classification Nx Ny Nz
-15780.00000000 -9190.00000000 -160.00000000 132 193 93 97.000000 1.000000 4.000000 1.000000 -60.708740 114.000000 159.000000 -0.053072 0.109532 0.992565
-15790.00000000 -9190.00000000 -170.00000000 132 193 93 97.000000 1.000000 4.000000 1.000000 -60.708740 114.000000 159.000000 -0.136454 0.718256 0.682268
-15760.00000000 -9260.00000000 -20.00000000 132 193 93 97.000000 1.000000 4.000000 1.000000 -60.708740 114.000000 159.000000 -0.096447 0.043235 0.994399
-15700.00000000 -9230.00000000 -190.00000000 132 193 93 97.000000 1.000000 4.000000 1.000000 -60.708740 114.000000 159.000000 -0.179969 -0.555030 0.812128
-15730.00000000 -9320.00000000 -60.00000000 132 193 93 97.000000 1.000000 4.000000 1.000000 -60.708740 114.000000 159.000000 0.097943 0.782081 -0.615432
-15830.00000000 -9300.00000000 -80.00000000 132 193 93 97.000000 1.000000 4.000000 1.000000 -60.708740 114.000000 159.000000 -0.136184 -0.650991 0.746769
-15810.00000000 -9340.00000000 -140.00000000 132 193 93 97.000000 1.000000 4.000000 1.000000 -60.708740 114.000000 159.000000 -0.064689 0.884998 -0.461080
-16290.00000000 -9120.00000000 -500.00000000 132 193 93 97.000000 1.000000 4.000000 1.000000 -60.708740 114.000000 159.000000 0.374777 0.904386 -0.204029
-16450.00000000 -9110.00000000 -500.00000000 132 193 93 97.000000 1.000000 4.000000 1.000000 -60.708740 114.000000 159.000000 0.363110 0.927347 -0.090440
-16370.00000000 -9120.00000000 -530.00000000 132 193 93 97.000000 1.000000 4.000000 1.000000 -60.708740 114.000000 159.000000 0.290814 0.689277 -0.663570
-16380.00000000 -9120.00000000 -530.00000000 132 193 93 97.000000 1.000000 4.000000 1.000000 -60.708740 114.000000 159.000000 -0.088494 -0.602047 0.793542
-15840.00000000 -9230.00000000 -110.00000000 132 193 93 97.000000 1.000000 4.000000 1.000000 -60.708740 114.000000 159.000000 -0.161626 -0.355577 0.920566
-15870.00000000 -9230.00000000 -270.00000000 132 193 93 97.000000 1.000000 4.000000 1.000000 -60.708740 114.000000 159.000000 0.428244 0.773444 -0.467323
-15870.00000000 -9230.00000000 -270.00000000 132 193 93 97.000000 1.000000 4.000000 1.000000 -60.708740 114.000000 159.000000 0.428244 0.773444 -0.467323
-15900.00000000 -9280.00000000 -240.00000000 132 193 93 97.000000 1.000000 4.000000 1.000000 -60.708740 114.000000 159.000000 -0.204627 -0.583111 0.786199
-15920.00000000 -9250.00000000 -330.00000000 132 193 93 97.000000 1.000000 4.000000 1.000000 -60.708740 114.000000 159.000000 -0.534780 0.066318 0.842385
-15970.00000000 -9210.00000000 -200.00000000 132 193 93 97.000000 1.000000 4.000000 1.000000 -60.708740 114.000000 159.000000 -0.350223 0.601080 0.718364
-15970.00000000 -9190.00000000 -210.00000000 132 193 93 97.000000 1.000000 4.000000 1.000000 -60.708740 114.000000 159.000000 0.009727 0.665625 0.746223
-15960.00000000 -9190.00000000 -280.00000000 132 193 93 97.000000 1.000000 4.000000 1.000000 -60.708740 114.000000 159.000000 0.002956 0.999972 -0.006896
-15930.00000000 -9210.00000000 -300.00000000 132 193 93 97.000000 1.000000 4.000000 1.000000 -60.708740 114.000000 159.000000 -0.206483 0.728125 -0.653605
-15960.00000000 -9190.00000000 -280.00000000 132 193 93 97.000000 1.000000 4.000000 1.000000 -60.708740 114.000000 159.000000 0.002956 0.999972 -0.006896
-16000.00000000 -9200.00000000 -340.00000000 132 193 93 97.000000 1.000000 4.000000 1.000000 -60.708740 114.000000 159.000000 0.191495 0.887310 -0.419535
-15950.00000000 -9250.00000000 -340.00000000 132 193 93 97.000000 1.000000 4.000000 1.000000 -60.708740 114.000000 159.000000 -0.570904 -0.112429 0.813283
-15950.00000000 -9250.00000000 -330.00000000 132 193 93 97.000000 1.000000 4.000000 1.000000 -60.708740 114.000000 159.000000 -0.558837 -0.134180 0.818350
-15940.00000000 -9280.00000000 -330.00000000 132 193 93 97.000000 1.000000 4.000000 1.000000 -60.708740 114.000000 159.000000 0.591528 -0.393803 -0.703572
-15960.00000000 -9220.00000000 -330.00000000 132 193 93 97.000000 1.000000 4.000000 1.000000 -60.708740 114.000000 159.000000 0.373075 0.636036 -0.675480
-15980.00000000 -9270.00000000 -330.00000000 132 193 93 97.000000 1.000000 4.000000 1.000000 -60.708740 114.000000 159.000000 -0.434707 0.759507 0.483919
-15950.00000000 -9220.00000000 -320.00000000 132 193 93 97.000000 1.000000 4.000000 1.000000 -60.708740 114.000000 159.000000 0.392649 0.734368 -0.553651
-15930.00000000 -9290.00000000 -320.00000000 132 193 93 97.000000 1.000000 4.000000 1.000000 -60.708740 114.000000 159.000000 -0.478774 0.653484 0.586288
-15960.00000000 -9260.00000000 -340.00000000 132 193 93 97.000000 1.000000 4.000000 1.000000 -60.708740 114.000000 159.000000 -0.167668 0.581550 0.796044
-15880.00000000 -9310.00000000 -140.00000000 132 193 93 97.000000 1.000000 4.000000 1.000000 -60.708740 114.000000 159.000000 0.041487 -0.426912 0.903341
-15850.00000000 -9340.00000000 -140.00000000 132 193 93 97.000000 1.000000 4.000000 1.000000 -60.708740 114.000000 159.000000 -0.201440 0.828481 -0.522534
-15900.00000000 -9300.00000000 -310.00000000 132 193 93 97.000000 1.000000 4.000000 1.000000 -60.708740 114.000000 159.000000 -0.597601 0.744998 0.296397
-15990.00000000 -9310.00000000 -200.00000000 132 193 93 97.000000 1.000000 4.000000 1.000000 -60.708740 114.000000 159.000000 -0.067708 -0.643943 0.762071
-15950.00000000 -9300.00000000 -340.00000000 132 193 93 97.000000 1.000000 4.000000 1.000000 -60.708740 114.000000 159.000000 -0.548361 0.780421 0.300406
-15950.00000000 -9310.00000000 -300.00000000 132 193 93 97.000000 1.000000 4.000000 1.000000 -60.708740 114.000000 159.000000 -0.160694 0.923643 0.347938
-15950.00000000 -9340.00000000 -280.00000000 132 193 93 97.000000 1.000000 4.000000 1.000000 -60.708740 114.000000 159.000000 -0.214681 0.947603 0.236559
-15960.00000000 -9320.00000000 -290.00000000 132 193 93 97.000000 1.000000 4.000000 1.000000 -60.708740 114.000000 159.000000 -0.435626 0.899400 0.036190
-15980.00000000 -9350.00000000 -280.00000000 132 193 93 97.000000 1.000000 4.000000 1.000000 -60.708740 114.000000 159.000000 -0.368960 0.928308 0.045956
-16050.00000000 -9160.00000000 -270.00000000 132 193 93 97.000000 1.000000 4.000000 1.000000 -60.708740 114.000000 159.000000 -0.324476 0.945651 0.021463
-16020.00000000 -9200.00000000 -220.00000000 132 193 93 97.000000 1.000000 4.000000 1.000000 -60.708740 114.000000 159.000000 -0.427897 0.731886 0.530328
-16010.00000000 -9160.00000000 -260.00000000 132 193 93 97.000000 1.000000 4.000000 1.000000 -60.708740 114.000000 159.000000 -0.441073 0.894512 0.072825
-16040.00000000 -9160.00000000 -310.00000000 132 193 93 97.000000 1.000000 4.000000 1.000000 -60.708740 114.000000 159.000000 0.229205 0.932288 0.279827
-16030.00000000 -9180.00000000 -280.00000000 132 193 93 97.000000 1.000000 4.000000 1.000000 -60.708740 114.000000 159.000000 -0.022017 0.926002 0.376876
-16040.00000000 -9180.00000000 -320.00000000 132 193 93 97.000000 1.000000 4.000000 1.000000 -60.708740 114.000000 159.000000 0.006439 0.920717 -0.390178
-16050.00000000 -9200.00000000 -340.00000000 132 193 93 97.000000 1.000000 4.000000 1.000000 -60.708740 114.000000 159.000000 0.268987 0.867750 -0.417918
-16070.00000000 -9170.00000000 -280.00000000 132 193 93 97.000000 1.000000 4.000000 1.000000 -60.708740 114.000000 159.000000 -0.608858 0.748025 0.264102
-16090.00000000 -9180.00000000 -290.00000000 132 193 93 97.000000 1.000000 4.000000 1.000000 -60.708740 114.000000 159.000000 -0.247492 0.647892 0.720405
-16090.00000000 -9190.00000000 -350.00000000 132 193 93 97.000000 1.000000 4.000000 1.000000 -60.708740 114.000000 159.000000 -0.039324 0.997977 0.049952
-16070.00000000 -9190.00000000 -340.00000000 132 193 93 97.000000 1.000000 4.000000 1.000000 -60.708740 114.000000 159.000000 -0.061405 0.998099 0.005204
-16070.00000000 -9190.00000000 -330.00000000 132 193 93 97.000000 1.000000 4.000000 1.000000 -60.708740 114.000000 159.000000 -0.047827 0.997995 -0.041450
-16090.00000000 -9220.00000000 -260.00000000 132 193 93 97.000000 1.000000 4.000000 1.000000 -60.708740 114.000000 159.000000 -0.577244 0.590787 0.563702
-16060.00000000 -9270.00000000 -230.00000000 132 193 93 97.000000 1.000000 4.000000 1.000000 -60.708740 114.000000 159.000000 -0.253603 0.020628 0.967088
-16070.00000000 -9250.00000000 -230.00000000 132 193 93 97.000000 1.000000 4.000000 1.000000 -60.708740 114.000000 159.000000 -0.219608 0.402368 0.888748
-16070.00000000 -9270.00000000 -230.00000000 132 193 93 97.000000 1.000000 4.000000 1.000000 -60.708740 114.000000 159.000000 -0.241093 -0.249455 0.937895
-16030.00000000 -9230.00000000 -220.00000000 132 193 93 97.000000 1.000000 4.000000 1.000000 -60.708740 114.000000 159.000000 -0.330285 0.265696 0.905714
-16100.00000000 -9200.00000000 -340.00000000 132 193 93 97.000000 1.000000 4.000000 1.000000 -60.708740 114.000000 159.000000 -0.034232 0.998961 0.030083
-16110.00000000 -9180.00000000 -330.00000000 132 193 93 97.000000 1.000000 4.000000 1.000000 -60.708740 114.000000 159.000000 -0.268434 0.963205 0.013361
-16110.00000000 -9190.00000000 -320.00000000 132 193 93 97.000000 1.000000 4.000000 1.000000 -60.708740 114.000000 159.000000 0.153137 0.988017 0.019284
-16100.00000000 -9210.00000000 -280.00000000 132 193 93 97.000000 1.000000 4.000000 1.000000 -60.708740 114.000000 159.000000 0.529500 -0.519414 -0.670700
-16110.00000000 -9170.00000000 -330.00000000 132 193 93 97.000000 1.000000 4.000000 1.000000 -60.708740 114.000000 159.000000 -0.005305 0.996286 -0.085942
-16120.00000000 -9210.00000000 -290.00000000 132 193 93 97.000000 1.000000 4.000000 1.000000 -60.708740 114.000000 159.000000 -0.251125 0.553724 0.793931
-16150.00000000 -9190.00000000 -340.00000000 132 193 93 97.000000 1.000000 4.000000 1.000000 -60.708740 114.000000 159.000000 -0.412512 0.877525 0.244507
-16100.00000000 -9200.00000000 -280.00000000 132 193 93 97.000000 1.000000 4.000000 1.000000 -60.708740 114.000000 159.000000 0.596145 -0.518461 -0.613033
-16110.00000000 -9240.00000000 -250.00000000 132 193 93 97.000000 1.000000 4.000000 1.000000 -60.708740 114.000000 159.000000 -0.302614 0.527595 0.793769
-16100.00000000 -9230.00000000 -260.00000000 132 193 93 97.000000 1.000000 4.000000 1.000000 -60.708740 114.000000 159.000000 -0.176605 0.553967 0.813592
-16100.00000000 -9260.00000000 -260.00000000 132 193 93 97.000000 1.000000 4.000000 1.000000 -60.708740 114.000000 159.000000 -0.154331 0.012392 0.987942
-16100.00000000 -9230.00000000 -250.00000000 132 193 93 97.000000 1.000000 4.000000 1.000000 -60.708740 114.000000 159.000000 -0.419112 0.524300 0.741252
-16150.00000000 -9250.00000000 -290.00000000 132 193 93 97.000000 1.000000 4.000000 1.000000 -60.708740 114.000000 159.000000 -0.328237 0.171801 0.928841
-16130.00000000 -9220.00000000 -290.00000000 132 193 93 97.000000 1.000000 4.000000 1.000000 -60.708740 114.000000 159.000000 -0.345778 0.735387 0.582790
-16150.00000000 -9230.00000000 -290.00000000 132 193 93 97.000000 1.000000 4.000000 1.000000 -60.708740 114.000000 159.000000 -0.447922 0.352956 0.821454
-16120.00000000 -9230.00000000 -280.00000000 132 193 93 97.000000 1.000000 4.000000 1.000000 -60.708740 114.000000 159.000000 -0.223271 0.657322 0.719776
-16170.00000000 -9260.00000000 -300.00000000 132 193 93 97.000000 1.000000 4.000000 1.000000 -60.708740 114.000000 159.000000 -0.416179 0.086532 0.905156
-16020.00000000 -9310.00000000 -210.00000000 132 193 93 97.000000 1.000000 4.000000 1.000000 -60.708740 114.000000 159.000000 -0.183279 -0.487253 0.853811
-16060.00000000 -9310.00000000 -230.00000000 132 193 93 97.000000 1.000000 4.000000 1.000000 -60.708740 114.000000 159.000000 -0.512750 -0.269623 0.815102
-16040.00000000 -9330.00000000 -280.00000000 132 193 93 97.000000 1.000000 4.000000 1.000000 -60.708740 114.000000 159.000000 -0.132066 0.935357 -0.328124
-16090.00000000 -9310.00000000 -350.00000000 132 193 93 97.000000 1.000000 4.000000 1.000000 -60.708740 114.000000 159.000000 -0.177956 0.983925 -0.014925
-16040.00000000 -9320.00000000 -340.00000000 132 193 93 97.000000 1.000000 4.000000 1.000000 -60.708740 114.000000 159.000000 -0.334938 0.919297 0.206664
-16050.00000000 -9330.00000000 -290.00000000 132 193 93 97.000000 1.000000 4.000000 1.000000 -60.708740 114.000000 159.000000 -0.216605 0.958110 -0.187370
-16010.00000000 -9300.00000000 -330.00000000 132 193 93 97.000000 1.000000 4.000000 1.000000 -60.708740 114.000000 159.000000 0.197560 0.891217 0.408292
-16090.00000000 -9340.00000000 -310.00000000 132 193 93 97.000000 1.000000 4.000000 1.000000 -60.708740 114.000000 159.000000 -0.205273 0.966978 -0.151050
-16110.00000000 -9350.00000000 -320.00000000 132 193 93 97.000000 1.000000 4.000000 1.000000 -60.708740 114.000000 159.000000 0.116446 0.990366 0.074940
-15980.00000000 -9270.00000000 -360.00000000 132 193 93 97.000000 1.000000 4.000000 1.000000 -60.708740 114.000000 159.000000 -0.054461 0.287502 0.956230
-16050.00000000 -9190.00000000 -360.00000000 132 193 93 97.000000 1.000000 4.000000 1.000000 -60.708740 114.000000 159.000000 -0.009633 0.796814 -0.604148
-16050.00000000 -9190.00000000 -360.00000000 132 193 93 97.000000 1.000000 4.000000 1.000000 -60.708740 114.000000 159.000000 -0.009633 0.796814 -0.604148
-16080.00000000 -9180.00000000 -370.00000000 132 193 93 97.000000 1.000000 4.000000 1.000000 -60.708740 114.000000 159.000000 0.244847 0.875740 -0.416089
-16030.00000000 -9250.00000000 -390.00000000 132 193 93 97.000000 1.000000 4.000000 1.000000 -60.708740 114.000000 159.000000 -0.224194 -0.318441 0.921050
-16040.00000000 -9230.00000000 -370.00000000 132 193 93 97.000000 1.000000 4.000000 1.000000 -60.708740 114.000000 159.000000 -0.222087 -0.528414 0.819424
-16020.00000000 -9260.00000000 -380.00000000 132 193 93 97.000000 1.000000 4.000000 1.000000 -60.708740 114.000000 159.000000 -0.426137 0.332480 0.841347
-16030.00000000 -9260.00000000 -390.00000000 132 193 93 97.000000 1.000000 4.000000 1.000000 -60.708740 114.000000 159.000000 -0.121172 -0.251464 0.960252
-16060.00000000 -9250.00000000 -380.00000000 132 193 93 97.000000 1.000000 4.000000 1.000000 -60.708740 114.000000 159.000000 -0.223786 0.234769 0.945940
-16080.00000000 -9280.00000000 -430.00000000 132 193 93 97.000000 1.000000 4.000000 1.000000 -60.708740 114.000000 159.000000 -0.608524 0.168444 0.775451
-16070.00000000 -9290.00000000 -400.00000000 132 193 93 97.000000 1.000000 4.000000 1.000000 -60.708740 114.000000 159.000000 -0.521491 0.291468 0.801931
-16130.00000000 -9190.00000000 -360.00000000 132 193 93 97.000000 1.000000 4.000000 1.000000 -60.708740 114.000000 159.000000 -0.096751 0.971281 -0.217376
-16110.00000000 -9180.00000000 -370.00000000 132 193 93 97.000000 1.000000 4.000000 1.000000 -60.708740 114.000000 159.000000 0.271441 0.851128 -0.449334
-16110.00000000 -9210.00000000 -420.00000000 132 193 93 97.000000 1.000000 4.000000 1.000000 -60.708740 114.000000 159.000000 -0.261515 -0.645071 0.717978
-16150.00000000 -9180.00000000 -370.00000000 132 193 93 97.000000 1.000000 4.000000 1.000000 -60.708740 114.000000 159.000000 0.110458 0.968727 -0.222185
-16170.00000000 -9190.00000000 -360.00000000 132 193 93 97.000000 1.000000 4.000000 1.000000 -60.708740 114.000000 159.000000 -0.369215 0.928866 0.029796
-16150.00000000 -9190.00000000 -380.00000000 132 193 93 97.000000 1.000000 4.000000 1.000000 -60.708740 114.000000 159.000000 0.133698 0.875503 -0.464348
-16160.00000000 -9190.00000000 -360.00000000 132 193 93 97.000000 1.000000 4.000000 1.000000 -60.708740 114.000000 159.000000 -0.373693 0.921227 0.108138
-16170.00000000 -9190.00000000 -370.00000000 132 193 93 97.000000 1.000000 4.000000 1.000000 -60.708740 114.000000 159.000000 -0.335480 0.925026 0.178268
-16170.00000000 -9190.00000000 -390.00000000 132 193 93 97.000000 1.000000 4.000000 1.000000 -60.708740 114.000000 159.000000 0.348259 0.930950 -0.109763
-16170.00000000 -9190.00000000 -380.00000000 132 193 93 97.000000 1.000000 4.000000 1.000000 -60.708740 114.000000 159.000000 0.143286 0.989676 -0.003332
-16100.00000000 -9260.00000000 -430.00000000 132 193 93 97.000000 1.000000 4.000000 1.000000 -60.708740 114.000000 159.000000 -0.190540 -0.147061 0.970602
-16110.00000000 -9230.00000000 -430.00000000 132 193 93 97.000000 1.000000 4.000000 1.000000 -60.708740 114.000000 159.000000 -0.289321 -0.618603 0.730495
-16110.00000000 -9250.00000000 -440.00000000 132 193 93 97.000000 1.000000 4.000000 1.000000 -60.708740 114.000000 159.000000 -0.598448 -0.037841 0.800267
-16100.00000000 -9270.00000000 -440.00000000 132 193 93 97.000000 1.000000 4.000000 1.000000 -60.708740 114.000000 159.000000 -0.660894 -0.046902 0.749013
-16100.00000000 -9220.00000000 -430.00000000 132 193 93 97.000000 1.000000 4.000000 1.000000 -60.708740 114.000000 159.000000 0.225726 0.611794 -0.758127
-16170.00000000 -9280.00000000 -500.00000000 132 193 93 97.000000 1.000000 4.000000 1.000000 -60.708740 114.000000 159.000000 -0.499263 0.113665 0.858963
-16140.00000000 -9280.00000000 -460.00000000 132 193 93 97.000000 1.000000 4.000000 1.000000 -60.708740 114.000000 159.000000 -0.213117 0.398308 0.892150
-16120.00000000 -9290.00000000 -450.00000000 132 193 93 97.000000 1.000000 4.000000 1.000000 -60.708740 114.000000 159.000000 -0.424730 0.411908 0.806186
-16130.00000000 -9230.00000000 -450.00000000 132 193 93 97.000000 1.000000 4.000000 1.000000 -60.708740 114.000000 159.000000 -0.003979 -0.476151 0.879354
-16020.00000000 -9300.00000000 -370.00000000 132 193 93 97.000000 1.000000 4.000000 1.000000 -60.708740 114.000000 159.000000 -0.619831 0.586053 0.521874
-16090.00000000 -9310.00000000 -380.00000000 132 193 93 97.000000 1.000000 4.000000 1.000000 -60.708740 114.000000 159.000000 -0.406139 0.879718 0.247280
-16160.00000000 -9330.00000000 -380.00000000 132 193 93 97.000000 1.000000 4.000000 1.000000 -60.708740 114.000000 159.000000 -0.552319 0.812590 0.186124
-16100.00000000 -9320.00000000 -390.00000000 132 193 93 97.000000 1.000000 4.000000 1.000000 -60.708740 114.000000 159.000000 -0.255015 0.829959 0.496121
-16170.00000000 -9320.00000000 -430.00000000 132 193 93 97.000000 1.000000 4.000000 1.000000 -60.708740 114.000000 159.000000 -0.254143 0.442847 0.859824
-16150.00000000 -9300.00000000 -470.00000000 132 193 93 97.000000 1.000000 4.000000 1.000000 -60.708740 114.000000 159.000000 -0.344563 0.250725 0.904662
-16190.00000000 -9180.00000000 -350.00000000 132 193 93 97.000000 1.000000 4.000000 1.000000 -60.708740 114.000000 159.000000 -0.169379 0.947169 0.272362
-16210.00000000 -9190.00000000 -350.00000000 132 193 93 97.000000 1.000000 4.000000 1.000000 -60.708740 114.000000 159.000000 -0.170514 0.973824 0.150305
-16240.00000000 -9200.00000000 -340.00000000 132 193 93 97.000000 1.000000 4.000000 1.000000 -60.708740 114.000000 159.000000 -0.141189 0.809977 0.569213
-16230.00000000 -9290.00000000 -320.00000000 132 193 93 97.000000 1.000000 4.000000 1.000000 -60.708740 114.000000 159.000000 -0.388570 -0.303237 0.870092
-16210.00000000 -9270.00000000 -310.00000000 132 193 93 97.000000 1.000000 4.000000 1.000000 -60.708740 114.000000 159.000000 -0.321971 -0.094074 0.942064
-16190.00000000 -9280.00000000 -290.00000000 132 193 93 97.000000 1.000000 4.000000 1.000000 -60.708740 114.000000 159.000000 -0.318817 -0.205460 0.925279
-16190.00000000 -9220.00000000 -300.00000000 132 193 93 97.000000 1.000000 4.000000 1.000000 -60.708740 114.000000 159.000000 -0.545424 0.432692 0.717837
-16220.00000000 -9250.00000000 -330.00000000 132 193 93 97.000000 1.000000 4.000000 1.000000 -60.708740 114.000000 159.000000 0.677245 -0.329690 -0.657756
-16200.00000000 -9230.00000000 -320.00000000 132 193 93 97.000000 1.000000 4.000000 1.000000 -60.708740 114.000000 159.000000 -0.327364 0.865287 0.379620
-16190.00000000 -9250.00000000 -310.00000000 132 193 93 97.000000 1.000000 4.000000 1.000000 -60.708740 114.000000 159.000000 -0.103370 0.161743 0.981404
-16200.00000000 -9220.00000000 -340.00000000 132 193 93 97.000000 1.000000 4.000000 1.000000 -60.708740 114.000000 159.000000 -0.371054 0.894373 0.249833
-16210.00000000 -9310.00000000 -340.00000000 132 193 93 97.000000 1.000000 4.000000 1.000000 -60.708740 114.000000 159.000000 0.156588 0.892121 -0.423793
-16230.00000000 -9310.00000000 -340.00000000 132 193 93 97.000000 1.000000 4.000000 1.000000 -60.708740 114.000000 159.000000 0.164440 0.795044 -0.583837
-16190.00000000 -9320.00000000 -350.00000000 132 193 93 97.000000 1.000000 4.000000 1.000000 -60.708740 114.000000 159.000000 0.135565 0.989966 -0.039872
-16210.00000000 -9320.00000000 -350.00000000 132 193 93 97.000000 1.000000 4.000000 1.000000 -60.708740 114.000000 159.000000 0.141827 0.889642 -0.434076
-16210.00000000 -9310.00000000 -310.00000000 132 193 93 97.000000 1.000000 4.000000 1.000000 -60.708740 114.000000 159.000000 -0.304514 -0.497004 0.812563
-16490.00000000 -9140.00000000 -300.00000000 132 193 93 97.000000 1.000000 4.000000 1.000000 -60.708740 114.000000 159.000000 -0.353570 0.521476 0.776563
-16190.00000000 -9180.00000000 -360.00000000 132 193 93 97.000000 1.000000 4.000000 1.000000 -60.708740 114.000000 159.000000 -0.192597 0.970636 -0.144129
-16210.00000000 -9190.00000000 -440.00000000 132 193 93 97.000000 1.000000 4.000000 1.000000 -60.708740 114.000000 159.000000 0.318768 0.847456 -0.424506
-16180.00000000 -9190.00000000 -410.00000000 132 193 93 97.000000 1.000000 4.000000 1.000000 -60.708740 114.000000 159.000000 0.193488 0.844448 -0.499469
-16260.00000000 -9160.00000000 -430.00000000 132 193 93 97.000000 1.000000 4.000000 1.000000 -60.708740 114.000000 159.000000 -0.255865 0.907954 -0.331893
-16220.00000000 -9190.00000000 -360.00000000 132 193 93 97.000000 1.000000 4.000000 1.000000 -60.708740 114.000000 159.000000 -0.167643 0.959658 0.225724
-16260.00000000 -9200.00000000 -390.00000000 132 193 93 97.000000 1.000000 4.000000 1.000000 -60.708740 114.000000 159.000000 -0.242481 0.946633 0.212342
-16250.00000000 -9180.00000000 -370.00000000 132 193 93 97.000000 1.000000 4.000000 1.000000 -60.708740 114.000000 159.000000 0.043742 0.992600 0.113280
-16250.00000000 -9250.00000000 -370.00000000 132 193 93 97.000000 1.000000 4.000000 1.000000 -60.708740 114.000000 159.000000 -0.338506 0.934602 0.109239
-16180.00000000 -9240.00000000 -500.00000000 132 193 93 97.000000 1.000000 4.000000 1.000000 -60.708740 114.000000 159.000000 -0.116840 -0.102678 0.987829
-16200.00000000 -9260.00000000 -500.00000000 132 193 93 97.000000 1.000000 4.000000 1.000000 -60.708740 114.000000 159.000000 -0.488385 -0.314526 0.813974
-16220.00000000 -9260.00000000 -520.00000000 132 193 93 97.000000 1.000000 4.000000 1.000000 -60.708740 114.000000 159.000000 -0.437612 -0.246819 0.864625
-16230.00000000 -9250.00000000 -520.00000000 132 193 93 97.000000 1.000000 4.000000 1.000000 -60.708740 114.000000 159.000000 -0.465385 -0.221397 0.856971
-16190.00000000 -9280.00000000 -510.00000000 132 193 93 97.000000 1.000000 4.000000 1.000000 -60.708740 114.000000 159.000000 -0.244051 0.244051 0.938551
-16220.00000000 -9250.00000000 -520.00000000 132 193 93 97.000000 1.000000 4.000000 1.000000 -60.708740 114.000000 159.000000 -0.098119 0.126491 0.987103
-16260.00000000 -9250.00000000 -520.00000000 132 193 93 97.000000 1.000000 4.000000 1.000000 -60.708740 114.000000 159.000000 -0.139894 -0.457179 0.878303
-16300.00000000 -9150.00000000 -440.00000000 132 193 93 97.000000 1.000000 4.000000 1.000000 -60.708740 114.000000 159.000000 0.340629 0.938362 -0.058729
-16310.00000000 -9200.00000000 -390.00000000 132 193 93 97.000000 1.000000 4.000000 1.000000 -60.708740 114.000000 159.000000 -0.216791 0.974954 0.049656
-16280.00000000 -9160.00000000 -460.00000000 132 193 93 97.000000 1.000000 4.000000 1.000000 -60.708740 114.000000 159.000000 0.075243 0.989730 -0.121546
-16330.00000000 -9150.00000000 -450.00000000 132 193 93 97.000000 1.000000 4.000000 1.000000 -60.708740 114.000000 159.000000 -0.175442 0.976753 0.123183
-16220.00000000 -9210.00000000 -550.00000000 132 193 93 97.000000 1.000000 4.000000 1.000000 -60.708740 114.000000 159.000000 0.328976 0.597991 -0.730878
-16230.00000000 -9200.00000000 -540.00000000 132 193 93 97.000000 1.000000 4.000000 1.000000 -60.708740 114.000000 159.000000 -0.152923 -0.664686 0.731305
-16260.00000000 -9280.00000000 -550.00000000 132 193 93 97.000000 1.000000 4.000000 1.000000 -60.708740 114.000000 159.000000 -0.199934 0.300600 0.932559
-16290.00000000 -9170.00000000 -580.00000000 132 193 93 97.000000 1.000000 4.000000 1.000000 -60.708740 114.000000 159.000000 -0.242288 -0.302501 0.921840
-16290.00000000 -9200.00000000 -600.00000000 132 193 93 97.000000 1.000000 4.000000 1.000000 -60.708740 114.000000 159.000000 -0.558729 -0.484903 0.672824
-16190.00000000 -9330.00000000 -420.00000000 132 193 93 97.000000 1.000000 4.000000 1.000000 -60.708740 114.000000 159.000000 -0.185670 0.819667 0.541916
-16220.00000000 -9330.00000000 -370.00000000 132 193 93 97.000000 1.000000 4.000000 1.000000 -60.708740 114.000000 159.000000 0.189352 0.974346 -0.121637
-16230.00000000 -9340.00000000 -430.00000000 132 193 93 97.000000 1.000000 4.000000 1.000000 -60.708740 114.000000 159.000000 -0.344470 0.908412 0.236914
-16190.00000000 -9320.00000000 -360.00000000 132 193 93 97.000000 1.000000 4.000000 1.000000 -60.708740 114.000000 159.000000 0.086922 0.932069 -0.351699
-16190.00000000 -9330.00000000 -370.00000000 132 193 93 97.000000 1.000000 4.000000 1.000000 -60.708740 114.000000 159.000000 0.122669 0.982570 -0.139673
-16220.00000000 -9320.00000000 -360.00000000 132 193 93 97.000000 1.000000 4.000000 1.000000 -60.708740 114.000000 159.000000 0.152942 0.899068 -0.410227
-16210.00000000 -9330.00000000 -370.00000000 132 193 93 97.000000 1.000000 4.000000 1.000000 -60.708740 114.000000 159.000000 -0.009664 0.995376 -0.095565
-16200.00000000 -9340.00000000 -400.00000000 132 193 93 97.000000 1.000000 4.000000 1.000000 -60.708740 114.000000 159.000000 -0.085078 0.996164 -0.020462
-16310.00000000 -9310.00000000 -380.00000000 132 193 93 97.000000 1.000000 4.000000 1.000000 -60.708740 114.000000 159.000000 0.187866 0.777431 -0.600256
-16300.00000000 -9310.00000000 -390.00000000 132 193 93 97.000000 1.000000 4.000000 1.000000 -60.708740 114.000000 159.000000 0.067934 -0.692345 0.718362
-16320.00000000 -9310.00000000 -390.00000000 132 193 93 97.000000 1.000000 4.000000 1.000000 -60.708740 114.000000 159.000000 0.082422 0.782286 -0.617442
-16270.00000000 -9350.00000000 -480.00000000 132 193 93 97.000000 1.000000 4.000000 1.000000 -60.708740 114.000000 159.000000 0.029379 0.622547 0.782031
-16270.00000000 -9360.00000000 -510.00000000 132 193 93 97.000000 1.000000 4.000000 1.000000 -60.708740 114.000000 159.000000 -0.377623 0.474037 0.795418
-16270.00000000 -9360.00000000 -520.00000000 132 193 93 97.000000 1.000000 4.000000 1.000000 -60.708740 114.000000 159.000000 0.078766 0.574273 0.814866
-16240.00000000 -9320.00000000 -530.00000000 132 193 93 97.000000 1.000000 4.000000 1.000000 -60.708740 114.000000 159.000000 -0.063024 0.170047 0.983419
-16240.00000000 -9320.00000000 -530.00000000 132 193 93 97.000000 1.000000 4.000000 1.000000 -60.708740 114.000000 159.000000 -0.063024 0.170047 0.983419
-16360.00000000 -9170.00000000 -440.00000000 132 193 93 97.000000 1.000000 4.000000 1.000000 -60.708740 114.000000 159.000000 0.284039 0.905098 -0.316416
-16360.00000000 -9270.00000000 -400.00000000 132 193 93 97.000000 1.000000 4.000000 1.000000 -60.708740 114.000000 159.000000 0.018099 0.644587 0.764316
-16420.00000000 -9240.00000000 -420.00000000 132 193 93 97.000000 1.000000 4.000000 1.000000 -60.708740 114.000000 159.000000 0.106817 0.908641 0.403686
-16570.00000000 -9180.00000000 -340.00000000 132 193 93 97.000000 1.000000 4.000000 1.000000 -60.708740 114.000000 159.000000 -0.413517 0.535430 0.736423
-16530.00000000 -9170.00000000 -290.00000000 132 193 93 97.000000 1.000000 4.000000 1.000000 -60.708740 114.000000 159.000000 -0.472033 0.410393 0.780233
-15640.00000000 -9200.00000000 -150.00000000 132 193 93 97.000000 1.000000 4.000000 1.000000 -60.708740 114.000000 159.000000 -0.427364 -0.169497 0.888049
-15600.00000000 -9220.00000000 -110.00000000 132 193 93 97.000000 1.000000 4.000000 1.000000 -60.708740 114.000000 159.000000 -0.222794 -0.188107 0.956545
-15620.00000000 -9280.00000000 -180.00000000 132 193 93 97.000000 1.000000 4.000000 1.000000 -60.708740 114.000000 159.000000 -0.100188 0.956342 0.274542
-15700.00000000 -9180.00000000 -170.00000000 132 193 93 97.000000 1.000000 4.000000 1.000000 -60.708740 114.000000 159.000000 -0.300363 0.360738 0.882978
-15700.00000000 -9180.00000000 -160.00000000 132 193 93 97.000000 1.000000 4.000000 1.000000 -60.708740 114.000000 159.000000 -0.175930 0.693011 0.699131
-15790.00000000 -9290.00000000 -170.00000000 132 193 93 97.000000 1.000000 4.000000 1.000000 -60.708740 114.000000 159.000000 0.330105 0.864413 -0.379236
-15690.00000000 -9220.00000000 -190.00000000 132 193 93 97.000000 1.000000 4.000000 1.000000 -60.708740 114.000000 159.000000 -0.288192 -0.123511 0.949574
-15740.00000000 -9280.00000000 -220.00000000 132 193 93 97.000000 1.000000 4.000000 1.000000 -60.708740 114.000000 159.000000 -0.192524 0.916983 -0.349395
-16390.00000000 -9110.00000000 -510.00000000 132 193 93 97.000000 1.000000 4.000000 1.000000 -60.708740 114.000000 159.000000 -0.138810 0.848934 -0.509945
-16360.00000000 -9100.00000000 -510.00000000 132 193 93 97.000000 1.000000 4.000000 1.000000 -60.708740 114.000000 159.000000 0.266592 0.910492 -0.316123
-15910.00000000 -9280.00000000 -140.00000000 132 193 93 97.000000 1.000000 4.000000 1.000000 -60.708740 114.000000 159.000000 -0.413107 -0.116230 0.903235
-15940.00000000 -9210.00000000 -180.00000000 132 193 93 97.000000 1.000000 4.000000 1.000000 -60.708740 114.000000 159.000000 -0.222229 0.470158 0.854146
-15970.00000000 -9190.00000000 -210.00000000 132 193 93 97.000000 1.000000 4.000000 1.000000 -60.708740 114.000000 159.000000 0.009727 0.665625 0.746223
-15930.00000000 -9210.00000000 -290.00000000 132 193 93 97.000000 1.000000 4.000000 1.000000 -60.708740 114.000000 159.000000 -0.420931 0.861760 -0.283172
-15930.00000000 -9210.00000000 -290.00000000 132 193 93 97.000000 1.000000 4.000000 1.000000 -60.708740 114.000000 159.000000 -0.420931 0.861760 -0.283172
-15940.00000000 -9230.00000000 -330.00000000 132 193 93 97.000000 1.000000 4.000000 1.000000 -60.708740 114.000000 159.000000 0.347360 0.601764 -0.719181
-15910.00000000 -9340.00000000 -260.00000000 132 193 93 97.000000 1.000000 4.000000 1.000000 -60.708740 114.000000 159.000000 -0.079892 0.873208 -0.480755
-15950.00000000 -9310.00000000 -300.00000000 132 193 93 97.000000 1.000000 4.000000 1.000000 -60.708740 114.000000 159.000000 -0.160694 0.923643 0.347938
-16010.00000000 -9200.00000000 -220.00000000 132 193 93 97.000000 1.000000 4.000000 1.000000 -60.708740 114.000000 159.000000 -0.351975 0.757475 0.549859
-16020.00000000 -9200.00000000 -220.00000000 132 193 93 97.000000 1.000000 4.000000 1.000000 -60.708740 114.000000 159.000000 -0.427897 0.731886 0.530328
-16040.00000000 -9190.00000000 -330.00000000 132 193 93 97.000000 1.000000 4.000000 1.000000 -60.708740 114.000000 159.000000 -0.001218 0.958193 -0.286119
-16090.00000000 -9200.00000000 -290.00000000 132 193 93 97.000000 1.000000 4.000000 1.000000 -60.708740 114.000000 159.000000 -0.341296 0.514347 0.786743
-16060.00000000 -9240.00000000 -220.00000000 132 193 93 97.000000 1.000000 4.000000 1.000000 -60.708740 114.000000 159.000000 -0.001093 -0.127937 0.991782
-16050.00000000 -9250.00000000 -240.00000000 132 193 93 97.000000 1.000000 4.000000 1.000000 -60.708740 114.000000 159.000000 -0.370161 0.280243 0.885689
-16070.00000000 -9220.00000000 -230.00000000 132 193 93 97.000000 1.000000 4.000000 1.000000 -60.708740 114.000000 159.000000 -0.428376 0.503875 0.750069
-16100.00000000 -9190.00000000 -350.00000000 132 193 93 97.000000 1.000000 4.000000 1.000000 -60.708740 114.000000 159.000000 0.193062 0.979702 0.053962
-16150.00000000 -9190.00000000 -340.00000000 132 193 93 97.000000 1.000000 4.000000 1.000000 -60.708740 114.000000 159.000000 -0.412512 0.877525 0.244507
-16140.00000000 -9190.00000000 -320.00000000 132 193 93 97.000000 1.000000 4.000000 1.000000 -60.708740 114.000000 159.000000 -0.500886 0.819206 0.279310
-16100.00000000 -9270.00000000 -260.00000000 132 193 93 97.000000 1.000000 4.000000 1.000000 -60.708740 114.000000 159.000000 -0.493876 0.223384 0.840349
-16150.00000000 -9270.00000000 -290.00000000 132 193 93 97.000000 1.000000 4.000000 1.000000 -60.708740 114.000000 159.000000 -0.086146 0.099930 0.991258
-16160.00000000 -9250.00000000 -290.00000000 132 193 93 97.000000 1.000000 4.000000 1.000000 -60.708740 114.000000 159.000000 -0.059083 0.267760 0.961672
-16010.00000000 -9320.00000000 -200.00000000 132 193 93 97.000000 1.000000 4.000000 1.000000 -60.708740 114.000000 159.000000 -0.396140 -0.361693 0.843950
-16090.00000000 -9340.00000000 -330.00000000 132 193 93 97.000000 1.000000 4.000000 1.000000 -60.708740 114.000000 159.000000 -0.127582 0.965242 0.228101
-16120.00000000 -9320.00000000 -350.00000000 132 193 93 97.000000 1.000000 4.000000 1.000000 -60.708740 114.000000 159.000000 -0.180154 0.981900 -0.058461
-16100.00000000 -9330.00000000 -280.00000000 132 193 93 97.000000 1.000000 4.000000 1.000000 -60.708740 114.000000 159.000000 -0.250923 -0.451661 0.856178
-16130.00000000 -9340.00000000 -300.00000000 132 193 93 97.000000 1.000000 4.000000 1.000000 -60.708740 114.000000 159.000000 -0.303458 -0.611732 0.730546
-16130.00000000 -9330.00000000 -350.00000000 132 193 93 97.000000 1.000000 4.000000 1.000000 -60.708740 114.000000 159.000000 -0.180592 0.983477 0.012653
-16000.00000000 -9270.00000000 -370.00000000 132 193 93 97.000000 1.000000 4.000000 1.000000 -60.708740 114.000000 159.000000 -0.338369 0.481341 0.808590
-15970.00000000 -9260.00000000 -360.00000000 132 193 93 97.000000 1.000000 4.000000 1.000000 -60.708740 114.000000 159.000000 -0.578780 0.249393 0.776413
-16070.00000000 -9200.00000000 -360.00000000 132 193 93 97.000000 1.000000 4.000000 1.000000 -60.708740 114.000000 159.000000 0.109926 0.866560 -0.486816
-16070.00000000 -9240.00000000 -400.00000000 132 193 93 97.000000 1.000000 4.000000 1.000000 -60.708740 114.000000 159.000000 -0.260443 -0.136171 0.955838
-16080.00000000 -9270.00000000 -430.00000000 132 193 93 97.000000 1.000000 4.000000 1.000000 -60.708740 114.000000 159.000000 -0.516485 0.204473 0.831525
-16050.00000000 -9230.00000000 -370.00000000 132 193 93 97.000000 1.000000 4.000000 1.000000 -60.708740 114.000000 159.000000 -0.362902 -0.511288 0.779029
-16110.00000000 -9190.00000000 -370.00000000 132 193 93 97.000000 1.000000 4.000000 1.000000 -60.708740 114.000000 159.000000 0.001093 0.991782 -0.127937
-16170.00000000 -9180.00000000 -390.00000000 132 193 93 97.000000 1.000000 4.000000 1.000000 -60.708740 114.000000 159.000000 0.316213 0.934831 -0.161559
-16150.00000000 -9190.00000000 -410.00000000 132 193 93 97.000000 1.000000 4.000000 1.000000 -60.708740 114.000000 159.000000 -0.120785 -0.534074 0.836765
-16150.00000000 -9210.00000000 -390.00000000 132 193 93 97.000000 1.000000 4.000000 1.000000 -60.708740 114.000000 159.000000 0.074431 0.916175 -0.393806
-16120.00000000 -9220.00000000 -420.00000000 132 193 93 97.000000 1.000000 4.000000 1.000000 -60.708740 114.000000 159.000000 -0.139572 -0.640830 0.754889
-16100.00000000 -9220.00000000 -420.00000000 132 193 93 97.000000 1.000000 4.000000 1.000000 -60.708740 114.000000 159.000000 0.392180 0.663563 -0.637086
-16120.00000000 -9280.00000000 -450.00000000 132 193 93 97.000000 1.000000 4.000000 1.000000 -60.708740 114.000000 159.000000 -0.345171 -0.032079 0.937992
-16150.00000000 -9270.00000000 -490.00000000 132 193 93 97.000000 1.000000 4.000000 1.000000 -60.708740 114.000000 159.000000 -0.596822 0.205109 0.775715
-16130.00000000 -9310.00000000 -410.00000000 132 193 93 97.000000 1.000000 4.000000 1.000000 -60.708740 114.000000 159.000000 -0.274052 0.758791 0.590874
-16290.00000000 -9260.00000000 -350.00000000 132 193 93 97.000000 1.000000 4.000000 1.000000 -60.708740 114.000000 159.000000 -0.446363 0.164296 0.879640
-16210.00000000 -9240.00000000 -300.00000000 132 193 93 97.000000 1.000000 4.000000 1.000000 -60.708740 114.000000 159.000000 -0.433192 0.569291 0.698751
-16240.00000000 -9250.00000000 -330.00000000 132 193 93 97.000000 1.000000 4.000000 1.000000 -60.708740 114.000000 159.000000 -0.142176 0.621083 0.770741
-16210.00000000 -9240.00000000 -310.00000000 132 193 93 97.000000 1.000000 4.000000 1.000000 -60.708740 114.000000 159.000000 0.602942 -0.559030 -0.569163
-16200.00000000 -9190.00000000 -350.00000000 132 193 93 97.000000 1.000000 4.000000 1.000000 -60.708740 114.000000 159.000000 -0.328278 0.944274 0.024082
-16280.00000000 -9260.00000000 -350.00000000 132 193 93 97.000000 1.000000 4.000000 1.000000 -60.708740 114.000000 159.000000 -0.607962 0.129322 0.783364
-16190.00000000 -9300.00000000 -320.00000000 132 193 93 97.000000 1.000000 4.000000 1.000000 -60.708740 114.000000 159.000000 -0.393281 -0.349756 0.850295
-16240.00000000 -9300.00000000 -320.00000000 132 193 93 97.000000 1.000000 4.000000 1.000000 -60.708740 114.000000 159.000000 -0.103966 -0.616476 0.780479
-16180.00000000 -9200.00000000 -390.00000000 132 193 93 97.000000 1.000000 4.000000 1.000000 -60.708740 114.000000 159.000000 0.177764 0.983001 -0.045913
-16230.00000000 -9180.00000000 -430.00000000 132 193 93 97.000000 1.000000 4.000000 1.000000 -60.708740 114.000000 159.000000 -0.145669 0.940720 -0.306312
-16230.00000000 -9200.00000000 -380.00000000 132 193 93 97.000000 1.000000 4.000000 1.000000 -60.708740 114.000000 159.000000 0.227608 0.963757 -0.139166
-16250.00000000 -9200.00000000 -360.00000000 132 193 93 97.000000 1.000000 4.000000 1.000000 -60.708740 114.000000 159.000000 0.006820 0.822468 0.568771
-16230.00000000 -9180.00000000 -480.00000000 132 193 93 97.000000 1.000000 4.000000 1.000000 -60.708740 114.000000 159.000000 0.212718 0.753052 -0.622627
-16200.00000000 -9260.00000000 -510.00000000 132 193 93 97.000000 1.000000 4.000000 1.000000 -60.708740 114.000000 159.000000 -0.394405 0.049135 0.917622
-16190.00000000 -9250.00000000 -510.00000000 132 193 93 97.000000 1.000000 4.000000 1.000000 -60.708740 114.000000 159.000000 -0.235009 -0.300526 0.924367
-16280.00000000 -9150.00000000 -440.00000000 132 193 93 97.000000 1.000000 4.000000 1.000000 -60.708740 114.000000 159.000000 -0.149021 0.987699 0.047363
-16240.00000000 -9190.00000000 -540.00000000 132 193 93 97.000000 1.000000 4.000000 1.000000 -60.708740 114.000000 159.000000 -0.319552 -0.307662 0.896232
-16240.00000000 -9200.00000000 -540.00000000 132 193 93 97.000000 1.000000 4.000000 1.000000 -60.708740 114.000000 159.000000 -0.117052 -0.635638 0.763062
-16260.00000000 -9330.00000000 -390.00000000 132 193 93 97.000000 1.000000 4.000000 1.000000 -60.708740 114.000000 159.000000 0.008449 0.964394 -0.264333
-16250.00000000 -9330.00000000 -360.00000000 132 193 93 97.000000 1.000000 4.000000 1.000000 -60.708740 114.000000 159.000000 0.073138 0.804519 -0.589407
-16210.00000000 -9320.00000000 -380.00000000 132 193 93 97.000000 1.000000 4.000000 1.000000 -60.708740 114.000000 159.000000 -0.196100 0.980501 0.012764
-16190.00000000 -9340.00000000 -410.00000000 132 193 93 97.000000 1.000000 4.000000 1.000000 -60.708740 114.000000 159.000000 -0.221150 0.951082 0.215723
-16350.00000000 -9290.00000000 -430.00000000 132 193 93 97.000000 1.000000 4.000000 1.000000 -60.708740 114.000000 159.000000 -0.483424 -0.261018 0.835566
-16490.00000000 -9130.00000000 -530.00000000 132 193 93 97.000000 1.000000 4.000000 1.000000 -60.708740 114.000000 159.000000 0.281614 0.869197 -0.406437
-15600.00000000 -9220.00000000 -110.00000000 132 193 93 97.000000 1.000000 4.000000 1.000000 -60.708740 114.000000 159.000000 -0.222794 -0.188107 0.956545
-15750.00000000 -9200.00000000 -180.00000000 132 193 93 97.000000 1.000000 4.000000 1.000000 -60.708740 114.000000 159.000000 0.464121 -0.431551 -0.773535
-15740.00000000 -9280.00000000 -20.00000000 132 193 93 97.000000 1.000000 4.000000 1.000000 -60.708740 114.000000 159.000000 -0.157181 -0.209142 0.965170
-15820.00000000 -9200.00000000 -240.00000000 132 193 93 97.000000 1.000000 4.000000 1.000000 -60.708740 114.000000 159.000000 0.181102 0.893918 0.410014
-16370.00000000 -9100.00000000 -520.00000000 132 193 93 97.000000 1.000000 4.000000 1.000000 -60.708740 114.000000 159.000000 0.373922 0.819446 -0.434386
-15940.00000000 -9260.00000000 -140.00000000 132 193 93 97.000000 1.000000 4.000000 1.000000 -60.708740 114.000000 159.000000 -0.401032 0.240023 0.884060
-15870.00000000 -9260.00000000 -110.00000000 132 193 93 97.000000 1.000000 4.000000 1.000000 -60.708740 114.000000 159.000000 0.018373 -0.094028 0.995400
-15920.00000000 -9170.00000000 -190.00000000 132 193 93 97.000000 1.000000 4.000000 1.000000 -60.708740 114.000000 159.000000 -0.209405 0.296539 0.931780
-15840.00000000 -9280.00000000 -280.00000000 132 193 93 97.000000 1.000000 4.000000 1.000000 -60.708740 114.000000 159.000000 0.140950 0.808606 0.571217
-15980.00000000 -9270.00000000 -330.00000000 132 193 93 97.000000 1.000000 4.000000 1.000000 -60.708740 114.000000 159.000000 -0.434707 0.759507 0.483919
-15910.00000000 -9320.00000000 -240.00000000 132 193 93 97.000000 1.000000 4.000000 1.000000 -60.708740 114.000000 159.000000 -0.144941 0.974257 -0.172669
-16060.00000000 -9180.00000000 -290.00000000 132 193 93 97.000000 1.000000 4.000000 1.000000 -60.708740 114.000000 159.000000 -0.357933 0.932199 0.053755
-16140.00000000 -9190.00000000 -320.00000000 132 193 93 97.000000 1.000000 4.000000 1.000000 -60.708740 114.000000 159.000000 -0.500886 0.819206 0.279310
-16070.00000000 -9250.00000000 -230.00000000 132 193 93 97.000000 1.000000 4.000000 1.000000 -60.708740 114.000000 159.000000 -0.219608 0.402368 0.888748
-16060.00000000 -9200.00000000 -260.00000000 132 193 93 97.000000 1.000000 4.000000 1.000000 -60.708740 114.000000 159.000000 -0.494414 0.779716 0.384184
-16110.00000000 -9320.00000000 -350.00000000 132 193 93 97.000000 1.000000 4.000000 1.000000 -60.708740 114.000000 159.000000 -0.327513 0.944602 -0.021497
-16170.00000000 -9320.00000000 -350.00000000 132 193 93 97.000000 1.000000 4.000000 1.000000 -60.708740 114.000000 159.000000 0.135944 0.981003 0.138394
-16100.00000000 -9340.00000000 -350.00000000 132 193 93 97.000000 1.000000 4.000000 1.000000 -60.708740 114.000000 159.000000 0.186732 0.947289 0.260334
-16010.00000000 -9340.00000000 -290.00000000 132 193 93 97.000000 1.000000 4.000000 1.000000 -60.708740 114.000000 159.000000 -0.203226 0.966940 -0.154037
-16020.00000000 -9340.00000000 -300.00000000 132 193 93 97.000000 1.000000 4.000000 1.000000 -60.708740 114.000000 159.000000 -0.099154 0.994809 0.022882
-15980.00000000 -9280.00000000 -360.00000000 132 193 93 97.000000 1.000000 4.000000 1.000000 -60.708740 114.000000 159.000000 -0.096600 0.546437 0.831911
-16090.00000000 -9180.00000000 -370.00000000 132 193 93 97.000000 1.000000 4.000000 1.000000 -60.708740 114.000000 159.000000 -0.329563 0.900018 -0.285228
-16090.00000000 -9210.00000000 -400.00000000 132 193 93 97.000000 1.000000 4.000000 1.000000 -60.708740 114.000000 159.000000 -0.077039 -0.710796 0.699167
-16030.00000000 -9230.00000000 -380.00000000 132 193 93 97.000000 1.000000 4.000000 1.000000 -60.708740 114.000000 159.000000 -0.596153 -0.281384 0.751947
-16150.00000000 -9190.00000000 -410.00000000 132 193 93 97.000000 1.000000 4.000000 1.000000 -60.708740 114.000000 159.000000 -0.120785 -0.534074 0.836765
-16150.00000000 -9270.00000000 -490.00000000 132 193 93 97.000000 1.000000 4.000000 1.000000 -60.708740 114.000000 159.000000 -0.596822 0.205109 0.775715
-16030.00000000 -9240.00000000 -390.00000000 132 193 93 97.000000 1.000000 4.000000 1.000000 -60.708740 114.000000 159.000000 0.525758 0.489038 -0.696003
-16080.00000000 -9320.00000000 -360.00000000 132 193 93 97.000000 1.000000 4.000000 1.000000 -60.708740 114.000000 159.000000 -0.133914 0.926355 0.352042
-16020.00000000 -9320.00000000 -360.00000000 132 193 93 97.000000 1.000000 4.000000 1.000000 -60.708740 114.000000 159.000000 -0.280443 0.897714 0.339796
-16060.00000000 -9300.00000000 -380.00000000 132 193 93 97.000000 1.000000 4.000000 1.000000 -60.708740 114.000000 159.000000 -0.424517 0.674233 0.604313
-16310.00000000 -9300.00000000 -340.00000000 132 193 93 97.000000 1.000000 4.000000 1.000000 -60.708740 114.000000 159.000000 -0.354812 -0.549229 0.756608
-16250.00000000 -9160.00000000 -430.00000000 132 193 93 97.000000 1.000000 4.000000 1.000000 -60.708740 114.000000 159.000000 -0.001308 0.896251 -0.443546
-16230.00000000 -9220.00000000 -500.00000000 132 193 93 97.000000 1.000000 4.000000 1.000000 -60.708740 114.000000 159.000000 -0.477325 -0.349612 0.806184
-16270.00000000 -9160.00000000 -460.00000000 132 193 93 97.000000 1.000000 4.000000 1.000000 -60.708740 114.000000 159.000000 0.006482 0.913953 -0.405769
-16340.00000000 -9170.00000000 -610.00000000 132 193 93 97.000000 1.000000 4.000000 1.000000 -60.708740 114.000000 159.000000 -0.505475 -0.469014 0.724238
-16250.00000000 -9210.00000000 -540.00000000 132 193 93 97.000000 1.000000 4.000000 1.000000 -60.708740 114.000000 159.000000 0.125419 -0.576928 0.807109
-16230.00000000 -9340.00000000 -430.00000000 132 193 93 97.000000 1.000000 4.000000 1.000000 -60.708740 114.000000 159.000000 -0.344470 0.908412 0.236914
-16230.00000000 -9300.00000000 -530.00000000 132 193 93 97.000000 1.000000 4.000000 1.000000 -60.708740 114.000000 159.000000 -0.488102 0.413009 0.768883
-15590.00000000 -9260.00000000 -140.00000000 132 193 93 97.000000 1.000000 4.000000 1.000000 -60.708740 114.000000 159.000000 0.191914 0.954203 -0.229492
-15680.00000000 -9210.00000000 -200.00000000 132 193 93 97.000000 1.000000 4.000000 1.000000 -60.708740 114.000000 159.000000 -0.207811 0.789680 0.577252
-15920.00000000 -9190.00000000 -300.00000000 132 193 93 97.000000 1.000000 4.000000 1.000000 -60.708740 114.000000 159.000000 -0.212630 0.755844 -0.619264
-15880.00000000 -9230.00000000 -280.00000000 132 193 93 97.000000 1.000000 4.000000 1.000000 -60.708740 114.000000 159.000000 0.173597 0.850179 -0.497051
-15950.00000000 -9230.00000000 -340.00000000 132 193 93 97.000000 1.000000 4.000000 1.000000 -60.708740 114.000000 159.000000 0.444914 0.584887 -0.678202
-15850.00000000 -9310.00000000 -110.00000000 132 193 93 97.000000 1.000000 4.000000 1.000000 -60.708740 114.000000 159.000000 -0.107352 -0.300850 0.947610
-15950.00000000 -9320.00000000 -170.00000000 132 193 93 97.000000 1.000000 4.000000 1.000000 -60.708740 114.000000 159.000000 -0.226819 -0.664814 0.711742
-15870.00000000 -9310.00000000 -260.00000000 132 193 93 97.000000 1.000000 4.000000 1.000000 -60.708740 114.000000 159.000000 -0.461160 0.885152 -0.061947
-16000.00000000 -9330.00000000 -300.00000000 132 193 93 97.000000 1.000000 4.000000 1.000000 -60.708740 114.000000 159.000000 -0.259664 0.947568 -0.186251
-16050.00000000 -9190.00000000 -240.00000000 132 193 93 97.000000 1.000000 4.000000 1.000000 -60.708740 114.000000 159.000000 0.597236 -0.587085 -0.546480
-16010.00000000 -9210.00000000 -350.00000000 132 193 93 97.000000 1.000000 4.000000 1.000000 -60.708740 114.000000 159.000000 -0.058634 0.895868 -0.440434
-16170.00000000 -9270.00000000 -280.00000000 132 193 93 97.000000 1.000000 4.000000 1.000000 -60.708740 114.000000 159.000000 -0.497311 0.311017 0.809907
-16100.00000000 -9340.00000000 -300.00000000 132 193 93 97.000000 1.000000 4.000000 1.000000 -60.708740 114.000000 159.000000 0.053922 0.990094 -0.129641
-16150.00000000 -9270.00000000 -490.00000000 132 193 93 97.000000 1.000000 4.000000 1.000000 -60.708740 114.000000 159.000000 -0.596822 0.205109 0.775715
-16140.00000000 -9330.00000000 -360.00000000 132 193 93 97.000000 1.000000 4.000000 1.000000 -60.708740 114.000000 159.000000 -0.075545 0.993356 -0.086820
-16100.00000000 -9190.00000000 -360.00000000 132 193 93 97.000000 1.000000 4.000000 1.000000 -60.708740 114.000000 159.000000 0.023106 0.993538 0.111127
