//X Y Z R G B PointSourceId ScanDirectionFlag NumberOfReturns ReturnNumber GpsTime Intensity Classification Nx Ny Nz
-6670.00000000 -6140.00000000 -820.00000000 246 150 57 0.000000 0.000000 0.000000 0.000000 -60.708740 0.000000 118.000000 0.888502 0.117617 0.443543
-6670.00000000 -6140.00000000 -810.00000000 246 150 57 0.000000 0.000000 0.000000 0.000000 -60.708740 0.000000 118.000000 0.686955 0.308726 0.657861
-6580.00000000 -6250.00000000 -940.00000000 246 150 57 0.000000 0.000000 0.000000 0.000000 -60.708740 0.000000 118.000000 0.844128 -0.535932 -0.015001
-6600.00000000 -6260.00000000 -950.00000000 246 150 57 0.000000 0.000000 0.000000 0.000000 -60.708740 0.000000 118.000000 0.876074 -0.189939 0.443190
-6590.00000000 -6250.00000000 -990.00000000 246 150 57 0.000000 0.000000 0.000000 0.000000 -60.708740 0.000000 118.000000 0.889277 -0.433898 0.144633
-6650.00000000 -6300.00000000 -960.00000000 246 150 57 0.000000 0.000000 0.000000 0.000000 -60.708740 0.000000 118.000000 -0.545183 0.541807 -0.639704
-6620.00000000 -6370.00000000 -1000.00000000 246 150 57 0.000000 0.000000 0.000000 0.000000 -60.708740 0.000000 118.000000 -0.627208 0.778841 -0.004135
-6630.00000000 -6380.00000000 -1010.00000000 246 150 57 0.000000 0.000000 0.000000 0.000000 -60.708740 0.000000 118.000000 0.754866 -0.465418 0.462129
-6620.00000000 -6380.00000000 -1010.00000000 246 150 57 0.000000 0.000000 0.000000 0.000000 -60.708740 0.000000 118.000000 -0.658098 0.638206 -0.399500
-6800.00000000 -5840.00000000 -730.00000000 246 150 57 0.000000 0.000000 0.000000 0.000000 -60.708740 0.000000 118.000000 0.712222 0.671878 0.203270
-6770.00000000 -5870.00000000 -760.00000000 246 150 57 0.000000 0.000000 0.000000 0.000000 -60.708740 0.000000 118.000000 0.521019 0.558114 0.645793
-6760.00000000 -5860.00000000 -780.00000000 246 150 57 0.000000 0.000000 0.000000 0.000000 -60.708740 0.000000 118.000000 0.546314 0.398661 0.736621
-6760.00000000 -5880.00000000 -860.00000000 246 150 57 0.000000 0.000000 0.000000 0.000000 -60.708740 0.000000 118.000000 0.536254 0.529530 0.657290
-6780.00000000 -5920.00000000 -810.00000000 246 150 57 0.000000 0.000000 0.000000 0.000000 -60.708740 0.000000 118.000000 0.740425 0.493067 0.456788
-6750.00000000 -5920.00000000 -840.00000000 246 150 57 0.000000 0.000000 0.000000 0.000000 -60.708740 0.000000 118.000000 0.617321 0.762030 0.195511
-6810.00000000 -5860.00000000 -800.00000000 246 150 57 0.000000 0.000000 0.000000 0.000000 -60.708740 0.000000 118.000000 0.726068 0.596123 0.342730
-6800.00000000 -5870.00000000 -820.00000000 246 150 57 0.000000 0.000000 0.000000 0.000000 -60.708740 0.000000 118.000000 0.769707 0.606855 0.198188
-6850.00000000 -5920.00000000 -820.00000000 246 150 57 0.000000 0.000000 0.000000 0.000000 -60.708740 0.000000 118.000000 0.421018 0.906706 0.025076
-6810.00000000 -5840.00000000 -870.00000000 246 150 57 0.000000 0.000000 0.000000 0.000000 -60.708740 0.000000 118.000000 0.100954 0.932812 0.345934
-6890.00000000 -5880.00000000 -940.00000000 246 150 57 0.000000 0.000000 0.000000 0.000000 -60.708740 0.000000 118.000000 -0.187273 0.974071 0.126943
-6850.00000000 -5910.00000000 -930.00000000 246 150 57 0.000000 0.000000 0.000000 0.000000 -60.708740 0.000000 118.000000 0.665528 0.729201 0.159181
-6810.00000000 -6010.00000000 -720.00000000 246 150 57 0.000000 0.000000 0.000000 0.000000 -60.708740 0.000000 118.000000 0.756781 0.165309 0.632420
-6770.00000000 -5970.00000000 -760.00000000 246 150 57 0.000000 0.000000 0.000000 0.000000 -60.708740 0.000000 118.000000 0.616440 0.398289 0.679241
-6750.00000000 -5950.00000000 -800.00000000 246 150 57 0.000000 0.000000 0.000000 0.000000 -60.708740 0.000000 118.000000 0.573283 0.327821 0.750920
-6770.00000000 -6000.00000000 -820.00000000 246 150 57 0.000000 0.000000 0.000000 0.000000 -60.708740 0.000000 118.000000 0.904386 0.374777 0.204029
-6750.00000000 -5930.00000000 -850.00000000 246 150 57 0.000000 0.000000 0.000000 0.000000 -60.708740 0.000000 118.000000 0.789877 0.600897 0.122542
-6760.00000000 -6080.00000000 -730.00000000 246 150 57 0.000000 0.000000 0.000000 0.000000 -60.708740 0.000000 118.000000 0.848252 0.347083 0.400002
-6820.00000000 -6020.00000000 -770.00000000 246 150 57 0.000000 0.000000 0.000000 0.000000 -60.708740 0.000000 118.000000 0.603457 0.673279 0.427241
-6780.00000000 -6080.00000000 -720.00000000 246 150 57 0.000000 0.000000 0.000000 0.000000 -60.708740 0.000000 118.000000 0.788779 0.549469 0.275522
-6810.00000000 -6080.00000000 -700.00000000 246 150 57 0.000000 0.000000 0.000000 0.000000 -60.708740 0.000000 118.000000 0.939124 -0.032030 0.342082
-6750.00000000 -6020.00000000 -770.00000000 246 150 57 0.000000 0.000000 0.000000 0.000000 -60.708740 0.000000 118.000000 0.540737 0.424983 0.725943
-6820.00000000 -6040.00000000 -720.00000000 246 150 57 0.000000 0.000000 0.000000 0.000000 -60.708740 0.000000 118.000000 0.550353 0.279119 0.786895
-6850.00000000 -5960.00000000 -790.00000000 246 150 57 0.000000 0.000000 0.000000 0.000000 -60.708740 0.000000 118.000000 0.682499 0.534932 0.498040
-6830.00000000 -6010.00000000 -860.00000000 246 150 57 0.000000 0.000000 0.000000 0.000000 -60.708740 0.000000 118.000000 0.754668 0.574449 0.316993
-6840.00000000 -6000.00000000 -820.00000000 246 150 57 0.000000 0.000000 0.000000 0.000000 -60.708740 0.000000 118.000000 0.854198 0.447728 0.264358
-6880.00000000 -6030.00000000 -700.00000000 246 150 57 0.000000 0.000000 0.000000 0.000000 -60.708740 0.000000 118.000000 0.604343 0.647869 0.463720
-6750.00000000 -5930.00000000 -880.00000000 246 150 57 0.000000 0.000000 0.000000 0.000000 -60.708740 0.000000 118.000000 0.826735 0.315320 0.465921
-6750.00000000 -5990.00000000 -900.00000000 246 150 57 0.000000 0.000000 0.000000 0.000000 -60.708740 0.000000 118.000000 0.773371 0.402153 0.490073
-6800.00000000 -5990.00000000 -910.00000000 246 150 57 0.000000 0.000000 0.000000 0.000000 -60.708740 0.000000 118.000000 0.804104 0.579014 0.134758
-6750.00000000 -5930.00000000 -880.00000000 246 150 57 0.000000 0.000000 0.000000 0.000000 -60.708740 0.000000 118.000000 0.826735 0.315320 0.465921
-6780.00000000 -5960.00000000 -1000.00000000 246 150 57 0.000000 0.000000 0.000000 0.000000 -60.708740 0.000000 118.000000 0.680882 0.387427 0.621531
-6780.00000000 -6050.00000000 -880.00000000 246 150 57 0.000000 0.000000 0.000000 0.000000 -60.708740 0.000000 118.000000 0.833030 0.140067 0.535203
-6770.00000000 -6040.00000000 -900.00000000 246 150 57 0.000000 0.000000 0.000000 0.000000 -60.708740 0.000000 118.000000 0.942340 0.239390 0.233855
-6760.00000000 -6040.00000000 -930.00000000 246 150 57 0.000000 0.000000 0.000000 0.000000 -60.708740 0.000000 118.000000 0.564306 0.177007 0.806367
-6980.00000000 -6030.00000000 -820.00000000 246 150 57 0.000000 0.000000 0.000000 0.000000 -60.708740 0.000000 118.000000 0.001152 0.980402 0.197002
-7080.00000000 -5970.00000000 -800.00000000 246 150 57 0.000000 0.000000 0.000000 0.000000 -60.708740 0.000000 118.000000 -0.516316 0.851992 0.086764
-7040.00000000 -5960.00000000 -860.00000000 246 150 57 0.000000 0.000000 0.000000 0.000000 -60.708740 0.000000 118.000000 0.549926 -0.800879 -0.237011
-7030.00000000 -6030.00000000 -770.00000000 246 150 57 0.000000 0.000000 0.000000 0.000000 -60.708740 0.000000 118.000000 0.206140 0.969243 0.134439
-6990.00000000 -5950.00000000 -940.00000000 246 150 57 0.000000 0.000000 0.000000 0.000000 -60.708740 0.000000 118.000000 -0.233353 0.956082 0.177349
-6990.00000000 -6010.00000000 -920.00000000 246 150 57 0.000000 0.000000 0.000000 0.000000 -60.708740 0.000000 118.000000 -0.230461 0.928913 0.289843
-6940.00000000 -5940.00000000 -950.00000000 246 150 57 0.000000 0.000000 0.000000 0.000000 -60.708740 0.000000 118.000000 0.207497 0.960831 0.183708
-6920.00000000 -5960.00000000 -950.00000000 246 150 57 0.000000 0.000000 0.000000 0.000000 -60.708740 0.000000 118.000000 -0.037875 0.996649 0.072503
-6960.00000000 -5930.00000000 -970.00000000 246 150 57 0.000000 0.000000 0.000000 0.000000 -60.708740 0.000000 118.000000 -0.478196 0.844864 0.239862
-6990.00000000 -6000.00000000 -960.00000000 246 150 57 0.000000 0.000000 0.000000 0.000000 -60.708740 0.000000 118.000000 -0.053836 0.930973 0.361097
-6990.00000000 -6000.00000000 -980.00000000 246 150 57 0.000000 0.000000 0.000000 0.000000 -60.708740 0.000000 118.000000 -0.427707 0.893781 -0.134991
-7020.00000000 -5950.00000000 -940.00000000 246 150 57 0.000000 0.000000 0.000000 0.000000 -60.708740 0.000000 118.000000 0.058658 0.980426 0.187945
-7050.00000000 -5970.00000000 -890.00000000 246 150 57 0.000000 0.000000 0.000000 0.000000 -60.708740 0.000000 118.000000 0.491959 -0.827174 0.271586
-7040.00000000 -6010.00000000 -870.00000000 246 150 57 0.000000 0.000000 0.000000 0.000000 -60.708740 0.000000 118.000000 -0.425670 0.884984 0.188699
-7040.00000000 -6020.00000000 -890.00000000 246 150 57 0.000000 0.000000 0.000000 0.000000 -60.708740 0.000000 118.000000 0.045702 0.998004 0.043576
-7030.00000000 -6020.00000000 -900.00000000 246 150 57 0.000000 0.000000 0.000000 0.000000 -60.708740 0.000000 118.000000 -0.051758 0.958160 0.281515
-7010.00000000 -6020.00000000 -900.00000000 246 150 57 0.000000 0.000000 0.000000 0.000000 -60.708740 0.000000 118.000000 0.083495 0.981369 0.173040
-7000.00000000 -6020.00000000 -900.00000000 246 150 57 0.000000 0.000000 0.000000 0.000000 -60.708740 0.000000 118.000000 0.131891 0.920461 0.367907
-6890.00000000 -5920.00000000 -1050.00000000 246 150 57 0.000000 0.000000 0.000000 0.000000 -60.708740 0.000000 118.000000 -0.300870 0.952966 -0.036507
-6920.00000000 -5910.00000000 -1050.00000000 246 150 57 0.000000 0.000000 0.000000 0.000000 -60.708740 0.000000 118.000000 -0.351635 0.930957 0.098350
-6930.00000000 -5970.00000000 -1040.00000000 246 150 57 0.000000 0.000000 0.000000 0.000000 -60.708740 0.000000 118.000000 -0.328035 0.881309 0.340128
-6750.00000000 -6100.00000000 -740.00000000 246 150 57 0.000000 0.000000 0.000000 0.000000 -60.708740 0.000000 118.000000 0.729231 0.076838 0.679939
-6820.00000000 -6140.00000000 -730.00000000 246 150 57 0.000000 0.000000 0.000000 0.000000 -60.708740 0.000000 118.000000 0.990411 0.114412 0.077430
-6790.00000000 -6130.00000000 -820.00000000 246 150 57 0.000000 0.000000 0.000000 0.000000 -60.708740 0.000000 118.000000 0.848014 0.213137 0.485227
-6800.00000000 -6100.00000000 -840.00000000 246 150 57 0.000000 0.000000 0.000000 0.000000 -60.708740 0.000000 118.000000 0.745326 0.401329 0.532376
-6790.00000000 -6130.00000000 -820.00000000 246 150 57 0.000000 0.000000 0.000000 0.000000 -60.708740 0.000000 118.000000 0.848014 0.213137 0.485227
-6780.00000000 -6100.00000000 -860.00000000 246 150 57 0.000000 0.000000 0.000000 0.000000 -60.708740 0.000000 118.000000 0.693337 0.226939 0.683946
-6880.00000000 -6120.00000000 -710.00000000 246 150 57 0.000000 0.000000 0.000000 0.000000 -60.708740 0.000000 118.000000 0.810529 0.277493 0.515791
-6870.00000000 -6140.00000000 -730.00000000 246 150 57 0.000000 0.000000 0.000000 0.000000 -60.708740 0.000000 118.000000 0.889870 0.360435 0.279674
-6860.00000000 -6110.00000000 -760.00000000 246 150 57 0.000000 0.000000 0.000000 0.000000 -60.708740 0.000000 118.000000 0.809312 0.170302 0.562148
-6830.00000000 -6110.00000000 -780.00000000 246 150 57 0.000000 0.000000 0.000000 0.000000 -60.708740 0.000000 118.000000 0.837741 0.155686 0.523403
-7350.00000000 -6090.00000000 -310.00000000 246 150 57 0.000000 0.000000 0.000000 0.000000 -60.708740 0.000000 118.000000 -0.085941 0.912611 0.399694
-7350.00000000 -6090.00000000 -330.00000000 246 150 57 0.000000 0.000000 0.000000 0.000000 -60.708740 0.000000 118.000000 -0.589265 0.777953 0.218074
-7330.00000000 -6090.00000000 -250.00000000 246 150 57 0.000000 0.000000 0.000000 0.000000 -60.708740 0.000000 118.000000 -0.181792 0.968270 -0.171478
-7390.00000000 -6090.00000000 -260.00000000 246 150 57 0.000000 0.000000 0.000000 0.000000 -60.708740 0.000000 118.000000 -0.355504 0.933686 -0.042973
-7240.00000000 -6030.00000000 -480.00000000 246 150 57 0.000000 0.000000 0.000000 0.000000 -60.708740 0.000000 118.000000 -0.260028 0.964939 -0.035738
-7230.00000000 -6090.00000000 -500.00000000 246 150 57 0.000000 0.000000 0.000000 0.000000 -60.708740 0.000000 118.000000 -0.440494 0.879525 -0.180003
-7150.00000000 -6060.00000000 -660.00000000 246 150 57 0.000000 0.000000 0.000000 0.000000 -60.708740 0.000000 118.000000 -0.500748 0.862632 0.071535
-7150.00000000 -6060.00000000 -660.00000000 246 150 57 0.000000 0.000000 0.000000 0.000000 -60.708740 0.000000 118.000000 -0.500748 0.862632 0.071535
-7180.00000000 -6010.00000000 -620.00000000 246 150 57 0.000000 0.000000 0.000000 0.000000 -60.708740 0.000000 118.000000 -0.390036 0.853107 0.346526
-7170.00000000 -6010.00000000 -650.00000000 246 150 57 0.000000 0.000000 0.000000 0.000000 -60.708740 0.000000 118.000000 -0.258963 0.884664 0.387695
-7240.00000000 -6090.00000000 -610.00000000 246 150 57 0.000000 0.000000 0.000000 0.000000 -60.708740 0.000000 118.000000 -0.287250 0.924630 0.250093
-7330.00000000 -6080.00000000 -360.00000000 246 150 57 0.000000 0.000000 0.000000 0.000000 -60.708740 0.000000 118.000000 0.132168 0.959198 0.249941
-7280.00000000 -6090.00000000 -450.00000000 246 150 57 0.000000 0.000000 0.000000 0.000000 -60.708740 0.000000 118.000000 -0.437794 0.898348 -0.036148
-7110.00000000 -6160.00000000 -20.00000000 246 150 57 0.000000 0.000000 0.000000 0.000000 -60.708740 0.000000 118.000000 0.782173 0.088520 0.616741
-7090.00000000 -6140.00000000 -50.00000000 246 150 57 0.000000 0.000000 0.000000 0.000000 -60.708740 0.000000 118.000000 0.884049 0.308739 0.350909
-7130.00000000 -6180.00000000 -110.00000000 246 150 57 0.000000 0.000000 0.000000 0.000000 -60.708740 0.000000 118.000000 0.577837 0.684412 0.444618
-7160.00000000 -6250.00000000 -60.00000000 246 150 57 0.000000 0.000000 0.000000 0.000000 -60.708740 0.000000 118.000000 0.882068 0.319239 0.346473
-7160.00000000 -6250.00000000 -60.00000000 246 150 57 0.000000 0.000000 0.000000 0.000000 -60.708740 0.000000 118.000000 0.882068 0.319239 0.346473
-7110.00000000 -6250.00000000 -140.00000000 246 150 57 0.000000 0.000000 0.000000 0.000000 -60.708740 0.000000 118.000000 0.936317 0.172880 0.305652
-7110.00000000 -6220.00000000 -140.00000000 246 150 57 0.000000 0.000000 0.000000 0.000000 -60.708740 0.000000 118.000000 0.686184 0.430319 0.586496
-7240.00000000 -6190.00000000 -110.00000000 246 150 57 0.000000 0.000000 0.000000 0.000000 -60.708740 0.000000 118.000000 0.588802 0.438683 0.678874
-7230.00000000 -6200.00000000 -110.00000000 246 150 57 0.000000 0.000000 0.000000 0.000000 -60.708740 0.000000 118.000000 0.757418 0.373008 0.535894
-7130.00000000 -6170.00000000 -250.00000000 246 150 57 0.000000 0.000000 0.000000 0.000000 -60.708740 0.000000 118.000000 0.576872 0.670510 0.466514
-7140.00000000 -6240.00000000 -230.00000000 246 150 57 0.000000 0.000000 0.000000 0.000000 -60.708740 0.000000 118.000000 0.958543 0.239305 0.154689
-7100.00000000 -6220.00000000 -330.00000000 246 150 57 0.000000 0.000000 0.000000 0.000000 -60.708740 0.000000 118.000000 0.966240 0.188566 0.175562
-7160.00000000 -6320.00000000 -120.00000000 246 150 57 0.000000 0.000000 0.000000 0.000000 -60.708740 0.000000 118.000000 0.836525 0.171480 0.520405
-7160.00000000 -6310.00000000 -120.00000000 246 150 57 0.000000 0.000000 0.000000 0.000000 -60.708740 0.000000 118.000000 0.885075 0.093978 0.455863
-7260.00000000 -6220.00000000 -70.00000000 246 150 57 0.000000 0.000000 0.000000 0.000000 -60.708740 0.000000 118.000000 0.837733 0.184331 0.514029
-7370.00000000 -6150.00000000 -230.00000000 246 150 57 0.000000 0.000000 0.000000 0.000000 -60.708740 0.000000 118.000000 -0.313189 0.823106 0.473719
-7410.00000000 -6180.00000000 -200.00000000 246 150 57 0.000000 0.000000 0.000000 0.000000 -60.708740 0.000000 118.000000 -0.460525 0.883256 0.088186
-7380.00000000 -6110.00000000 -280.00000000 246 150 57 0.000000 0.000000 0.000000 0.000000 -60.708740 0.000000 118.000000 -0.509208 0.844720 -0.164787
-7310.00000000 -6130.00000000 -370.00000000 246 150 57 0.000000 0.000000 0.000000 0.000000 -60.708740 0.000000 118.000000 -0.559842 0.813637 -0.156756
-7300.00000000 -6140.00000000 -380.00000000 246 150 57 0.000000 0.000000 0.000000 0.000000 -60.708740 0.000000 118.000000 -0.036775 0.949802 0.310683
-7310.00000000 -6130.00000000 -410.00000000 246 150 57 0.000000 0.000000 0.000000 0.000000 -60.708740 0.000000 118.000000 -0.200212 0.976494 0.079839
-7270.00000000 -6100.00000000 -450.00000000 246 150 57 0.000000 0.000000 0.000000 0.000000 -60.708740 0.000000 118.000000 -0.219616 0.974317 -0.049747
-7250.00000000 -6100.00000000 -490.00000000 246 150 57 0.000000 0.000000 0.000000 0.000000 -60.708740 0.000000 118.000000 -0.071877 0.964671 -0.253463
-7440.00000000 -6160.00000000 -50.00000000 246 150 57 0.000000 0.000000 0.000000 0.000000 -60.708740 0.000000 118.000000 -0.180880 0.982424 0.046107
-7450.00000000 -6140.00000000 -110.00000000 246 150 57 0.000000 0.000000 0.000000 0.000000 -60.708740 0.000000 118.000000 -0.186832 0.850460 0.491743
-7430.00000000 -6140.00000000 -180.00000000 246 150 57 0.000000 0.000000 0.000000 0.000000 -60.708740 0.000000 118.000000 -0.142300 0.989273 0.033014
-7500.00000000 -6210.00000000 -40.00000000 246 150 57 0.000000 0.000000 0.000000 0.000000 -60.708740 0.000000 118.000000 -0.615612 0.755878 0.222867
-7460.00000000 -6200.00000000 -110.00000000 246 150 57 0.000000 0.000000 0.000000 0.000000 -60.708740 0.000000 118.000000 -0.193121 0.898811 0.393502
-7440.00000000 -6190.00000000 -150.00000000 246 150 57 0.000000 0.000000 0.000000 0.000000 -60.708740 0.000000 118.000000 0.007186 0.998906 -0.046198
-7440.00000000 -6200.00000000 -210.00000000 246 150 57 0.000000 0.000000 0.000000 0.000000 -60.708740 0.000000 118.000000 -0.655112 0.750982 0.082797
-7430.00000000 -6150.00000000 -210.00000000 246 150 57 0.000000 0.000000 0.000000 0.000000 -60.708740 0.000000 118.000000 -0.270636 0.939594 -0.209570
-7120.00000000 -5990.00000000 -710.00000000 246 150 57 0.000000 0.000000 0.000000 0.000000 -60.708740 0.000000 118.000000 -0.172051 0.962699 0.208826
-7150.00000000 -6060.00000000 -700.00000000 246 150 57 0.000000 0.000000 0.000000 0.000000 -60.708740 0.000000 118.000000 -0.010325 0.983169 0.182408
-7150.00000000 -6060.00000000 -700.00000000 246 150 57 0.000000 0.000000 0.000000 0.000000 -60.708740 0.000000 118.000000 -0.010325 0.983169 0.182408
-7230.00000000 -6270.00000000 350.00000000 246 150 57 0.000000 0.000000 0.000000 0.000000 -60.708740 0.000000 118.000000 0.852811 0.419441 0.311098
-7250.00000000 -6320.00000000 490.00000000 246 150 57 0.000000 0.000000 0.000000 0.000000 -60.708740 0.000000 118.000000 0.822775 0.462712 0.330058
-7140.00000000 -6250.00000000 180.00000000 246 150 57 0.000000 0.000000 0.000000 0.000000 -60.708740 0.000000 118.000000 0.648789 0.513976 0.561161
-7180.00000000 -6250.00000000 220.00000000 246 150 57 0.000000 0.000000 0.000000 0.000000 -60.708740 0.000000 118.000000 0.653484 0.586288 0.478774
-7110.00000000 -6220.00000000 140.00000000 246 150 57 0.000000 0.000000 0.000000 0.000000 -60.708740 0.000000 118.000000 0.972853 0.166159 0.161085
-7410.00000000 -6220.00000000 210.00000000 246 150 57 0.000000 0.000000 0.000000 0.000000 -60.708740 0.000000 118.000000 0.261982 0.785947 0.560046
-7400.00000000 -6230.00000000 170.00000000 246 150 57 0.000000 0.000000 0.000000 0.000000 -60.708740 0.000000 118.000000 0.275242 0.625261 0.730267
-7340.00000000 -6260.00000000 190.00000000 246 150 57 0.000000 0.000000 0.000000 0.000000 -60.708740 0.000000 118.000000 0.744128 0.450437 0.493336
-7360.00000000 -6240.00000000 150.00000000 246 150 57 0.000000 0.000000 0.000000 0.000000 -60.708740 0.000000 118.000000 0.581819 0.448451 0.678512
-7380.00000000 -6330.00000000 180.00000000 246 150 57 0.000000 0.000000 0.000000 0.000000 -60.708740 0.000000 118.000000 0.794769 0.207531 0.570327
-7390.00000000 -6320.00000000 260.00000000 246 150 57 0.000000 0.000000 0.000000 0.000000 -60.708740 0.000000 118.000000 0.605912 0.419988 0.675633
-7300.00000000 -6280.00000000 120.00000000 246 150 57 0.000000 0.000000 0.000000 0.000000 -60.708740 0.000000 118.000000 0.971454 0.125390 0.201383
-7530.00000000 -6300.00000000 430.00000000 246 150 57 0.000000 0.000000 0.000000 0.000000 -60.708740 0.000000 118.000000 0.672399 0.355014 0.649495
-7520.00000000 -6320.00000000 330.00000000 246 150 57 0.000000 0.000000 0.000000 0.000000 -60.708740 0.000000 118.000000 0.553154 0.683504 0.476280
-7750.00000000 -6320.00000000 490.00000000 246 150 57 0.000000 0.000000 0.000000 0.000000 -60.708740 0.000000 118.000000 -0.443446 0.891089 -0.096523
-7640.00000000 -6360.00000000 480.00000000 246 150 57 0.000000 0.000000 0.000000 0.000000 -60.708740 0.000000 118.000000 0.247936 0.724856 0.642737
-7680.00000000 -6320.00000000 430.00000000 246 150 57 0.000000 0.000000 0.000000 0.000000 -60.708740 0.000000 118.000000 0.379561 0.919441 0.102769
-7730.00000000 -6310.00000000 400.00000000 246 150 57 0.000000 0.000000 0.000000 0.000000 -60.708740 0.000000 118.000000 -0.335102 0.934759 0.118032
-7450.00000000 -6230.00000000 270.00000000 246 150 57 0.000000 0.000000 0.000000 0.000000 -60.708740 0.000000 118.000000 0.752693 0.593562 0.284846
-7510.00000000 -6210.00000000 190.00000000 246 150 57 0.000000 0.000000 0.000000 0.000000 -60.708740 0.000000 118.000000 0.386553 0.705666 0.593812
-7500.00000000 -6210.00000000 90.00000000 246 150 57 0.000000 0.000000 0.000000 0.000000 -60.708740 0.000000 118.000000 0.015344 0.999379 -0.031710
-7420.00000000 -6250.00000000 140.00000000 246 150 57 0.000000 0.000000 0.000000 0.000000 -60.708740 0.000000 118.000000 0.617073 0.355185 0.702186
-7540.00000000 -6180.00000000 10.00000000 246 150 57 0.000000 0.000000 0.000000 0.000000 -60.708740 0.000000 118.000000 -0.349593 0.909522 0.224842
-7580.00000000 -6210.00000000 70.00000000 246 150 57 0.000000 0.000000 0.000000 0.000000 -60.708740 0.000000 118.000000 -0.679183 0.731095 0.064890
-7560.00000000 -6240.00000000 10.00000000 246 150 57 0.000000 0.000000 0.000000 0.000000 -60.708740 0.000000 118.000000 -0.244259 0.951394 0.187580
-7430.00000000 -6310.00000000 150.00000000 246 150 57 0.000000 0.000000 0.000000 0.000000 -60.708740 0.000000 118.000000 0.849430 0.350682 0.394323
-7440.00000000 -6290.00000000 190.00000000 246 150 57 0.000000 0.000000 0.000000 0.000000 -60.708740 0.000000 118.000000 0.581550 0.796044 0.167668
-7520.00000000 -6330.00000000 310.00000000 246 150 57 0.000000 0.000000 0.000000 0.000000 -60.708740 0.000000 118.000000 0.593995 0.677188 0.434265
-7620.00000000 -6230.00000000 180.00000000 246 150 57 0.000000 0.000000 0.000000 0.000000 -60.708740 0.000000 118.000000 -0.171768 0.980661 0.093802
-7600.00000000 -6250.00000000 150.00000000 246 150 57 0.000000 0.000000 0.000000 0.000000 -60.708740 0.000000 118.000000 -0.285867 0.958206 -0.011042
-7590.00000000 -6220.00000000 100.00000000 246 150 57 0.000000 0.000000 0.000000 0.000000 -60.708740 0.000000 118.000000 -0.356573 0.928717 0.101684
-7670.00000000 -6280.00000000 280.00000000 246 150 57 0.000000 0.000000 0.000000 0.000000 -60.708740 0.000000 118.000000 -0.309624 0.937129 -0.161005
-7670.00000000 -6330.00000000 270.00000000 246 150 57 0.000000 0.000000 0.000000 0.000000 -60.708740 0.000000 118.000000 -0.338777 0.869171 0.360238
-7660.00000000 -6270.00000000 210.00000000 246 150 57 0.000000 0.000000 0.000000 0.000000 -60.708740 0.000000 118.000000 -0.606024 0.759488 0.236459
-7640.00000000 -6290.00000000 190.00000000 246 150 57 0.000000 0.000000 0.000000 0.000000 -60.708740 0.000000 118.000000 0.739979 -0.662867 -0.114185
-7700.00000000 -6290.00000000 300.00000000 246 150 57 0.000000 0.000000 0.000000 0.000000 -60.708740 0.000000 118.000000 -0.440522 0.808959 -0.389262
-7780.00000000 -6370.00000000 510.00000000 246 150 57 0.000000 0.000000 0.000000 0.000000 -60.708740 0.000000 118.000000 -0.397537 0.915009 0.068727
-6730.00000000 -6260.00000000 -430.00000000 246 150 57 0.000000 0.000000 0.000000 0.000000 -60.708740 0.000000 118.000000 0.991749 0.071899 0.106137
-6650.00000000 -6170.00000000 -570.00000000 246 150 57 0.000000 0.000000 0.000000 0.000000 -60.708740 0.000000 118.000000 0.988903 0.061300 0.135324
-7050.00000000 -6070.00000000 -130.00000000 246 150 57 0.000000 0.000000 0.000000 0.000000 -60.708740 0.000000 118.000000 0.636110 0.315627 0.704091
-6940.00000000 -6060.00000000 -200.00000000 246 150 57 0.000000 0.000000 0.000000 0.000000 -60.708740 0.000000 118.000000 0.587263 0.489667 0.644475
-6970.00000000 -6090.00000000 -250.00000000 246 150 57 0.000000 0.000000 0.000000 0.000000 -60.708740 0.000000 118.000000 0.504050 0.325963 0.799801
-6860.00000000 -5910.00000000 -500.00000000 246 150 57 0.000000 0.000000 0.000000 0.000000 -60.708740 0.000000 118.000000 0.358443 0.685789 0.633413
-6840.00000000 -5920.00000000 -500.00000000 246 150 57 0.000000 0.000000 0.000000 0.000000 -60.708740 0.000000 118.000000 0.239128 0.816122 0.526082
-6850.00000000 -5920.00000000 -600.00000000 246 150 57 0.000000 0.000000 0.000000 0.000000 -60.708740 0.000000 118.000000 0.513511 0.687469 0.513511
-6870.00000000 -5970.00000000 -520.00000000 246 150 57 0.000000 0.000000 0.000000 0.000000 -60.708740 0.000000 118.000000 0.643630 0.319383 0.695510
-6900.00000000 -5960.00000000 -510.00000000 246 150 57 0.000000 0.000000 0.000000 0.000000 -60.708740 0.000000 118.000000 0.327568 0.582523 0.743886
-6790.00000000 -6000.00000000 -650.00000000 246 150 57 0.000000 0.000000 0.000000 0.000000 -60.708740 0.000000 118.000000 0.813521 0.525302 0.249480
-6780.00000000 -6090.00000000 -570.00000000 246 150 57 0.000000 0.000000 0.000000 0.000000 -60.708740 0.000000 118.000000 0.967393 0.167060 0.190371
-6860.00000000 -6090.00000000 -620.00000000 246 150 57 0.000000 0.000000 0.000000 0.000000 -60.708740 0.000000 118.000000 0.735627 0.586228 0.339395
-6840.00000000 -6070.00000000 -610.00000000 246 150 57 0.000000 0.000000 0.000000 0.000000 -60.708740 0.000000 118.000000 0.647826 0.553597 0.523309
-7070.00000000 -6130.00000000 -30.00000000 246 150 57 0.000000 0.000000 0.000000 0.000000 -60.708740 0.000000 118.000000 0.760926 0.312380 0.568692
-7020.00000000 -6160.00000000 -170.00000000 246 150 57 0.000000 0.000000 0.000000 0.000000 -60.708740 0.000000 118.000000 0.677677 0.359349 0.641578
-7080.00000000 -6140.00000000 -180.00000000 246 150 57 0.000000 0.000000 0.000000 0.000000 -60.708740 0.000000 118.000000 0.527202 0.316958 0.788413
-7010.00000000 -6140.00000000 -180.00000000 246 150 57 0.000000 0.000000 0.000000 0.000000 -60.708740 0.000000 118.000000 0.718027 0.101733 0.688540
-7080.00000000 -6230.00000000 -180.00000000 246 150 57 0.000000 0.000000 0.000000 0.000000 -60.708740 0.000000 118.000000 0.858312 0.388173 0.335592
-6970.00000000 -6100.00000000 -340.00000000 246 150 57 0.000000 0.000000 0.000000 0.000000 -60.708740 0.000000 118.000000 0.690778 0.203353 0.693883
-7010.00000000 -6130.00000000 -190.00000000 246 150 57 0.000000 0.000000 0.000000 0.000000 -60.708740 0.000000 118.000000 0.554730 0.406583 0.725923
-7030.00000000 -6180.00000000 -300.00000000 246 150 57 0.000000 0.000000 0.000000 0.000000 -60.708740 0.000000 118.000000 0.612786 0.035056 0.789471
-7030.00000000 -6200.00000000 -250.00000000 246 150 57 0.000000 0.000000 0.000000 0.000000 -60.708740 0.000000 118.000000 0.975722 0.054543 0.212113
-7000.00000000 -6230.00000000 -270.00000000 246 150 57 0.000000 0.000000 0.000000 0.000000 -60.708740 0.000000 118.000000 0.727776 0.159533 0.667001
-7040.00000000 -6200.00000000 -290.00000000 246 150 57 0.000000 0.000000 0.000000 0.000000 -60.708740 0.000000 118.000000 0.720267 0.110924 0.684771
-6860.00000000 -6120.00000000 -440.00000000 246 150 57 0.000000 0.000000 0.000000 0.000000 -60.708740 0.000000 118.000000 0.755217 0.355683 0.550578
-6910.00000000 -6130.00000000 -520.00000000 246 150 57 0.000000 0.000000 0.000000 0.000000 -60.708740 0.000000 118.000000 0.607262 0.546367 0.576815
-6830.00000000 -6130.00000000 -620.00000000 246 150 57 0.000000 0.000000 0.000000 0.000000 -60.708740 0.000000 118.000000 0.662125 0.363101 0.655553
-6980.00000000 -6180.00000000 -500.00000000 246 150 57 0.000000 0.000000 0.000000 0.000000 -60.708740 0.000000 118.000000 0.952852 0.225072 0.203509
-6920.00000000 -6150.00000000 -480.00000000 246 150 57 0.000000 0.000000 0.000000 0.000000 -60.708740 0.000000 118.000000 0.814839 0.189674 0.547778
-6940.00000000 -6260.00000000 -410.00000000 246 150 57 0.000000 0.000000 0.000000 0.000000 -60.708740 0.000000 118.000000 0.973168 -0.005898 0.230021
-7020.00000000 -6120.00000000 -370.00000000 246 150 57 0.000000 0.000000 0.000000 0.000000 -60.708740 0.000000 118.000000 0.900661 0.370516 0.226996
-7020.00000000 -6140.00000000 -410.00000000 246 150 57 0.000000 0.000000 0.000000 0.000000 -60.708740 0.000000 118.000000 0.686113 0.290835 0.666831
-7050.00000000 -6100.00000000 -380.00000000 246 150 57 0.000000 0.000000 0.000000 0.000000 -60.708740 0.000000 118.000000 0.729937 0.484970 0.481659
-7020.00000000 -6210.00000000 -500.00000000 246 150 57 0.000000 0.000000 0.000000 0.000000 -60.708740 0.000000 118.000000 0.802717 0.459840 0.379728
-6920.00000000 -6140.00000000 -650.00000000 246 150 57 0.000000 0.000000 0.000000 0.000000 -60.708740 0.000000 118.000000 0.921102 0.076871 0.381657
-6960.00000000 -6250.00000000 -540.00000000 246 150 57 0.000000 0.000000 0.000000 0.000000 -60.708740 0.000000 118.000000 0.904038 -0.113179 0.412197
-6940.00000000 -6150.00000000 -600.00000000 246 150 57 0.000000 0.000000 0.000000 0.000000 -60.708740 0.000000 118.000000 0.699006 0.518833 0.492141
-6950.00000000 -6130.00000000 -590.00000000 246 150 57 0.000000 0.000000 0.000000 0.000000 -60.708740 0.000000 118.000000 0.863506 0.208020 0.459439
-6420.00000000 -6010.00000000 -970.00000000 246 150 57 0.000000 0.000000 0.000000 0.000000 -60.708740 0.000000 118.000000 0.606146 0.191818 0.771877
-6450.00000000 -6040.00000000 -910.00000000 246 150 57 0.000000 0.000000 0.000000 0.000000 -60.708740 0.000000 118.000000 0.966871 -0.005991 0.255196
-6500.00000000 -6080.00000000 -970.00000000 246 150 57 0.000000 0.000000 0.000000 0.000000 -60.708740 0.000000 118.000000 0.912310 -0.038511 0.407685
-6740.00000000 -6070.00000000 -770.00000000 246 150 57 0.000000 0.000000 0.000000 0.000000 -60.708740 0.000000 118.000000 0.612105 0.524421 0.591870
-6730.00000000 -6040.00000000 -770.00000000 246 150 57 0.000000 0.000000 0.000000 0.000000 -60.708740 0.000000 118.000000 0.683435 0.434006 0.586989
-6720.00000000 -6030.00000000 -790.00000000 246 150 57 0.000000 0.000000 0.000000 0.000000 -60.708740 0.000000 118.000000 0.839545 0.161965 0.518586
-6710.00000000 -6030.00000000 -850.00000000 246 150 57 0.000000 0.000000 0.000000 0.000000 -60.708740 0.000000 118.000000 0.793375 0.207168 0.572396
-6580.00000000 -5990.00000000 -890.00000000 246 150 57 0.000000 0.000000 0.000000 0.000000 -60.708740 0.000000 118.000000 0.942876 -0.034542 0.331350
-6620.00000000 -6050.00000000 -940.00000000 246 150 57 0.000000 0.000000 0.000000 0.000000 -60.708740 0.000000 118.000000 0.625948 0.348112 0.697859
-6580.00000000 -6050.00000000 -940.00000000 246 150 57 0.000000 0.000000 0.000000 0.000000 -60.708740 0.000000 118.000000 0.756609 0.494012 0.428362
-6640.00000000 -6050.00000000 -930.00000000 246 150 57 0.000000 0.000000 0.000000 0.000000 -60.708740 0.000000 118.000000 0.603634 0.205328 0.770367
-6590.00000000 -6020.00000000 -990.00000000 246 150 57 0.000000 0.000000 0.000000 0.000000 -60.708740 0.000000 118.000000 0.939572 0.203413 0.275368
-6730.00000000 -5930.00000000 -930.00000000 246 150 57 0.000000 0.000000 0.000000 0.000000 -60.708740 0.000000 118.000000 0.827485 0.460063 0.321887
-6670.00000000 -6070.00000000 -870.00000000 246 150 57 0.000000 0.000000 0.000000 0.000000 -60.708740 0.000000 118.000000 0.735772 0.166044 0.656558
-6470.00000000 -6100.00000000 -850.00000000 246 150 57 0.000000 0.000000 0.000000 0.000000 -60.708740 0.000000 118.000000 0.743828 0.156037 0.649902
-6560.00000000 -6140.00000000 -820.00000000 246 150 57 0.000000 0.000000 0.000000 0.000000 -60.708740 0.000000 118.000000 0.645183 -0.006908 0.763997
-6570.00000000 -6250.00000000 -770.00000000 246 150 57 0.000000 0.000000 0.000000 0.000000 -60.708740 0.000000 118.000000 0.805416 -0.566662 0.173776
-6570.00000000 -6190.00000000 -750.00000000 246 150 57 0.000000 0.000000 0.000000 0.000000 -60.708740 0.000000 118.000000 0.805196 0.190264 0.561658
-6540.00000000 -6170.00000000 -920.00000000 246 150 57 0.000000 0.000000 0.000000 0.000000 -60.708740 0.000000 118.000000 0.975324 -0.090239 0.201493
-6550.00000000 -6150.00000000 -900.00000000 246 150 57 0.000000 0.000000 0.000000 0.000000 -60.708740 0.000000 118.000000 0.987597 -0.152911 0.035641
-6520.00000000 -6110.00000000 -940.00000000 246 150 57 0.000000 0.000000 0.000000 0.000000 -60.708740 0.000000 118.000000 0.831187 -0.124167 0.541951
-6560.00000000 -6170.00000000 -870.00000000 246 150 57 0.000000 0.000000 0.000000 0.000000 -60.708740 0.000000 118.000000 0.888094 -0.172967 0.425878
-6540.00000000 -6180.00000000 -920.00000000 246 150 57 0.000000 0.000000 0.000000 0.000000 -60.708740 0.000000 118.000000 0.975629 -0.217998 0.025016
-6550.00000000 -6390.00000000 -1020.00000000 246 150 57 0.000000 0.000000 0.000000 0.000000 -60.708740 0.000000 118.000000 -0.726709 0.672544 0.139925
-6620.00000000 -6180.00000000 -790.00000000 246 150 57 0.000000 0.000000 0.000000 0.000000 -60.708740 0.000000 118.000000 0.892799 -0.421240 0.159582
-6600.00000000 -6140.00000000 -790.00000000 246 150 57 0.000000 0.000000 0.000000 0.000000 -60.708740 0.000000 118.000000 0.894975 0.096039 0.435656
-6580.00000000 -6240.00000000 -700.00000000 246 150 57 0.000000 0.000000 0.000000 0.000000 -60.708740 0.000000 118.000000 0.815964 -0.176465 0.550512
-6580.00000000 -6230.00000000 -770.00000000 246 150 57 0.000000 0.000000 0.000000 0.000000 -60.708740 0.000000 118.000000 0.895242 0.140905 0.422714
-6590.00000000 -6190.00000000 -770.00000000 246 150 57 0.000000 0.000000 0.000000 0.000000 -60.708740 0.000000 118.000000 0.754305 -0.041041 0.655240
-6590.00000000 -6240.00000000 -950.00000000 246 150 57 0.000000 0.000000 0.000000 0.000000 -60.708740 0.000000 118.000000 0.980724 -0.185607 0.061071
-6590.00000000 -6250.00000000 -1020.00000000 246 150 57 0.000000 0.000000 0.000000 0.000000 -60.708740 0.000000 118.000000 0.705273 -0.247713 0.664250
-6600.00000000 -6260.00000000 -950.00000000 246 150 57 0.000000 0.000000 0.000000 0.000000 -60.708740 0.000000 118.000000 0.876074 -0.189939 0.443190
-6580.00000000 -6320.00000000 -1030.00000000 246 150 57 0.000000 0.000000 0.000000 0.000000 -60.708740 0.000000 118.000000 0.828539 -0.427684 0.361401
-6910.00000000 -5870.00000000 -760.00000000 246 150 57 0.000000 0.000000 0.000000 0.000000 -60.708740 0.000000 118.000000 0.166596 0.981334 0.096066
-6770.00000000 -5950.00000000 -770.00000000 246 150 57 0.000000 0.000000 0.000000 0.000000 -60.708740 0.000000 118.000000 0.621554 0.434921 0.651548
-6780.00000000 -6010.00000000 -760.00000000 246 150 57 0.000000 0.000000 0.000000 0.000000 -60.708740 0.000000 118.000000 0.519186 0.696143 0.495814
-6800.00000000 -5980.00000000 -830.00000000 246 150 57 0.000000 0.000000 0.000000 0.000000 -60.708740 0.000000 118.000000 0.855526 0.489083 0.169923
-6750.00000000 -6090.00000000 -740.00000000 246 150 57 0.000000 0.000000 0.000000 0.000000 -60.708740 0.000000 118.000000 0.828927 0.305559 0.468524
-6770.00000000 -6080.00000000 -870.00000000 246 150 57 0.000000 0.000000 0.000000 0.000000 -60.708740 0.000000 118.000000 0.701796 0.153092 0.695733
-6800.00000000 -5970.00000000 -880.00000000 246 150 57 0.000000 0.000000 0.000000 0.000000 -60.708740 0.000000 118.000000 0.648554 0.507051 0.567695
-6790.00000000 -5970.00000000 -880.00000000 246 150 57 0.000000 0.000000 0.000000 0.000000 -60.708740 0.000000 118.000000 0.474819 0.518135 0.711395
-6760.00000000 -6080.00000000 -900.00000000 246 150 57 0.000000 0.000000 0.000000 0.000000 -60.708740 0.000000 118.000000 0.736621 0.546314 0.398661
-7070.00000000 -5970.00000000 -860.00000000 246 150 57 0.000000 0.000000 0.000000 0.000000 -60.708740 0.000000 118.000000 -0.058077 0.996072 0.066843
-6980.00000000 -5960.00000000 -910.00000000 246 150 57 0.000000 0.000000 0.000000 0.000000 -60.708740 0.000000 118.000000 0.167804 0.984528 -0.050459
-6990.00000000 -6010.00000000 -920.00000000 246 150 57 0.000000 0.000000 0.000000 0.000000 -60.708740 0.000000 118.000000 -0.230461 0.928913 0.289843
-6970.00000000 -5940.00000000 -880.00000000 246 150 57 0.000000 0.000000 0.000000 0.000000 -60.708740 0.000000 118.000000 -0.059330 0.960636 0.271402
-6990.00000000 -6010.00000000 -920.00000000 246 150 57 0.000000 0.000000 0.000000 0.000000 -60.708740 0.000000 118.000000 -0.230461 0.928913 0.289843
-6960.00000000 -6000.00000000 -980.00000000 246 150 57 0.000000 0.000000 0.000000 0.000000 -60.708740 0.000000 118.000000 0.074817 0.996475 -0.037951
-6920.00000000 -5930.00000000 -1000.00000000 246 150 57 0.000000 0.000000 0.000000 0.000000 -60.708740 0.000000 118.000000 0.306641 0.931125 0.197427
-6980.00000000 -5990.00000000 -1000.00000000 246 150 57 0.000000 0.000000 0.000000 0.000000 -60.708740 0.000000 118.000000 -0.220145 0.960993 -0.167416
-6990.00000000 -5950.00000000 -970.00000000 246 150 57 0.000000 0.000000 0.000000 0.000000 -60.708740 0.000000 118.000000 -0.132110 0.968379 0.211633
-7000.00000000 -6010.00000000 -940.00000000 246 150 57 0.000000 0.000000 0.000000 0.000000 -60.708740 0.000000 118.000000 -0.227986 0.970496 0.078487
-7030.00000000 -5960.00000000 -930.00000000 246 150 57 0.000000 0.000000 0.000000 0.000000 -60.708740 0.000000 118.000000 -0.415063 0.868135 0.272147
-6870.00000000 -5980.00000000 -1090.00000000 246 150 57 0.000000 0.000000 0.000000 0.000000 -60.708740 0.000000 118.000000 0.006156 0.954177 0.299181
-6980.00000000 -6000.00000000 -1050.00000000 246 150 57 0.000000 0.000000 0.000000 0.000000 -60.708740 0.000000 118.000000 -0.295131 0.925314 0.238101
-6780.00000000 -6140.00000000 -720.00000000 246 150 57 0.000000 0.000000 0.000000 0.000000 -60.708740 0.000000 118.000000 0.953427 0.250761 0.167621
-6820.00000000 -6100.00000000 -820.00000000 246 150 57 0.000000 0.000000 0.000000 0.000000 -60.708740 0.000000 118.000000 0.541183 0.299952 0.785589
-7230.00000000 -6090.00000000 -510.00000000 246 150 57 0.000000 0.000000 0.000000 0.000000 -60.708740 0.000000 118.000000 -0.421447 0.906829 0.006524
-7240.00000000 -6090.00000000 -510.00000000 246 150 57 0.000000 0.000000 0.000000 0.000000 -60.708740 0.000000 118.000000 -0.100158 0.991218 0.086343
-7150.00000000 -6070.00000000 -670.00000000 246 150 57 0.000000 0.000000 0.000000 0.000000 -60.708740 0.000000 118.000000 -0.106743 0.984674 -0.137926
-7180.00000000 -6010.00000000 -640.00000000 246 150 57 0.000000 0.000000 0.000000 0.000000 -60.708740 0.000000 118.000000 -0.314251 0.947882 0.052589
-7210.00000000 -6050.00000000 -600.00000000 246 150 57 0.000000 0.000000 0.000000 0.000000 -60.708740 0.000000 118.000000 -0.297767 0.907969 -0.294833
-7190.00000000 -6080.00000000 -620.00000000 246 150 57 0.000000 0.000000 0.000000 0.000000 -60.708740 0.000000 118.000000 -0.338928 0.940620 -0.019041
-7290.00000000 -6050.00000000 -480.00000000 246 150 57 0.000000 0.000000 0.000000 0.000000 -60.708740 0.000000 118.000000 -0.249866 0.917137 -0.310527
-7150.00000000 -6180.00000000 -80.00000000 246 150 57 0.000000 0.000000 0.000000 0.000000 -60.708740 0.000000 118.000000 0.572182 0.545177 0.612691
-7220.00000000 -6180.00000000 -70.00000000 246 150 57 0.000000 0.000000 0.000000 0.000000 -60.708740 0.000000 118.000000 0.417036 0.682876 0.599801
-7220.00000000 -6190.00000000 -60.00000000 246 150 57 0.000000 0.000000 0.000000 0.000000 -60.708740 0.000000 118.000000 0.499424 0.637312 0.586865
-7110.00000000 -6220.00000000 -310.00000000 246 150 57 0.000000 0.000000 0.000000 0.000000 -60.708740 0.000000 118.000000 0.864328 0.411512 0.289129
-7090.00000000 -6270.00000000 -140.00000000 246 150 57 0.000000 0.000000 0.000000 0.000000 -60.708740 0.000000 118.000000 0.836911 0.244163 0.489862
-7160.00000000 -6330.00000000 -110.00000000 246 150 57 0.000000 0.000000 0.000000 0.000000 -60.708740 0.000000 118.000000 0.929649 0.115696 0.349809
-7400.00000000 -6170.00000000 -160.00000000 246 150 57 0.000000 0.000000 0.000000 0.000000 -60.708740 0.000000 118.000000 -0.172212 0.925466 0.337424
-7410.00000000 -6170.00000000 -220.00000000 246 150 57 0.000000 0.000000 0.000000 0.000000 -60.708740 0.000000 118.000000 -0.327347 0.939287 0.102881
-7350.00000000 -6110.00000000 -260.00000000 246 150 57 0.000000 0.000000 0.000000 0.000000 -60.708740 0.000000 118.000000 -0.364491 0.929121 0.062295
-7380.00000000 -6110.00000000 -280.00000000 246 150 57 0.000000 0.000000 0.000000 0.000000 -60.708740 0.000000 118.000000 -0.509208 0.844720 -0.164787
-7400.00000000 -6110.00000000 -280.00000000 246 150 57 0.000000 0.000000 0.000000 0.000000 -60.708740 0.000000 118.000000 -0.396950 0.848384 -0.350250
-7350.00000000 -6130.00000000 -300.00000000 246 150 57 0.000000 0.000000 0.000000 0.000000 -60.708740 0.000000 118.000000 -0.428901 0.865379 -0.259159
-7240.00000000 -6100.00000000 -540.00000000 246 150 57 0.000000 0.000000 0.000000 0.000000 -60.708740 0.000000 118.000000 -0.069879 0.994947 0.072098
-7290.00000000 -6120.00000000 -390.00000000 246 150 57 0.000000 0.000000 0.000000 0.000000 -60.708740 0.000000 118.000000 0.210451 0.967043 0.143313
-7450.00000000 -6130.00000000 -150.00000000 246 150 57 0.000000 0.000000 0.000000 0.000000 -60.708740 0.000000 118.000000 -0.091262 0.995083 -0.038484
-7440.00000000 -6150.00000000 -180.00000000 246 150 57 0.000000 0.000000 0.000000 0.000000 -60.708740 0.000000 118.000000 -0.156963 0.940412 0.301642
-7460.00000000 -6190.00000000 -140.00000000 246 150 57 0.000000 0.000000 0.000000 0.000000 -60.708740 0.000000 118.000000 -0.534680 0.796499 -0.282323
-7520.00000000 -6260.00000000 -30.00000000 246 150 57 0.000000 0.000000 0.000000 0.000000 -60.708740 0.000000 118.000000 -0.377681 0.893104 -0.244382
-7140.00000000 -6080.00000000 -750.00000000 246 150 57 0.000000 0.000000 0.000000 0.000000 -60.708740 0.000000 118.000000 -0.394891 0.835407 -0.382305
-7110.00000000 -6040.00000000 -760.00000000 246 150 57 0.000000 0.000000 0.000000 0.000000 -60.708740 0.000000 118.000000 -0.001189 0.968656 0.248404
-7120.00000000 -6050.00000000 -710.00000000 246 150 57 0.000000 0.000000 0.000000 0.000000 -60.708740 0.000000 118.000000 -0.353412 0.848499 0.393890
-7180.00000000 -6020.00000000 -730.00000000 246 150 57 0.000000 0.000000 0.000000 0.000000 -60.708740 0.000000 118.000000 -0.690166 0.719225 -0.079914
-7150.00000000 -6300.00000000 360.00000000 246 150 57 0.000000 0.000000 0.000000 0.000000 -60.708740 0.000000 118.000000 0.695311 0.401332 0.596217
-7200.00000000 -6340.00000000 370.00000000 246 150 57 0.000000 0.000000 0.000000 0.000000 -60.708740 0.000000 118.000000 0.983828 0.158991 0.082484
-7180.00000000 -6300.00000000 370.00000000 246 150 57 0.000000 0.000000 0.000000 0.000000 -60.708740 0.000000 118.000000 0.698439 0.555084 0.451735
-7190.00000000 -6300.00000000 -10.00000000 246 150 57 0.000000 0.000000 0.000000 0.000000 -60.708740 0.000000 118.000000 0.826925 -0.338646 0.448902
-7360.00000000 -6220.00000000 160.00000000 246 150 57 0.000000 0.000000 0.000000 0.000000 -60.708740 0.000000 118.000000 0.389069 0.569650 0.723964
-7370.00000000 -6200.00000000 160.00000000 246 150 57 0.000000 0.000000 0.000000 0.000000 -60.708740 0.000000 118.000000 0.433248 0.797240 0.420363
-7280.00000000 -6220.00000000 110.00000000 246 150 57 0.000000 0.000000 0.000000 0.000000 -60.708740 0.000000 118.000000 0.894123 0.093167 0.438023
-7360.00000000 -6190.00000000 80.00000000 246 150 57 0.000000 0.000000 0.000000 0.000000 -60.708740 0.000000 118.000000 0.636378 0.636378 0.435944
-7400.00000000 -6280.00000000 110.00000000 246 150 57 0.000000 0.000000 0.000000 0.000000 -60.708740 0.000000 118.000000 0.862714 0.450177 0.230358
-7470.00000000 -6300.00000000 340.00000000 246 150 57 0.000000 0.000000 0.000000 0.000000 -60.708740 0.000000 118.000000 0.466655 0.580392 0.667367
-7420.00000000 -6280.00000000 360.00000000 246 150 57 0.000000 0.000000 0.000000 0.000000 -60.708740 0.000000 118.000000 0.742324 0.615701 0.264324
-7550.00000000 -6330.00000000 460.00000000 246 150 57 0.000000 0.000000 0.000000 0.000000 -60.708740 0.000000 118.000000 0.738107 0.437580 0.513538
-7680.00000000 -6320.00000000 430.00000000 246 150 57 0.000000 0.000000 0.000000 0.000000 -60.708740 0.000000 118.000000 0.379561 0.919441 0.102769
-7460.00000000 -6240.00000000 310.00000000 246 150 57 0.000000 0.000000 0.000000 0.000000 -60.708740 0.000000 118.000000 0.775190 0.495666 0.391658
-7510.00000000 -6220.00000000 80.00000000 246 150 57 0.000000 0.000000 0.000000 0.000000 -60.708740 0.000000 118.000000 -0.206524 0.977062 -0.051933
-7520.00000000 -6200.00000000 100.00000000 246 150 57 0.000000 0.000000 0.000000 0.000000 -60.708740 0.000000 118.000000 0.015339 0.975766 -0.218279
-7610.00000000 -6240.00000000 120.00000000 246 150 57 0.000000 0.000000 0.000000 0.000000 -60.708740 0.000000 118.000000 -0.132945 0.990941 -0.018992
-7650.00000000 -6290.00000000 250.00000000 246 150 57 0.000000 0.000000 0.000000 0.000000 -60.708740 0.000000 118.000000 -0.627059 0.776291 -0.064571
-7710.00000000 -6350.00000000 310.00000000 246 150 57 0.000000 0.000000 0.000000 0.000000 -60.708740 0.000000 118.000000 -0.533520 0.817860 0.215548
-7620.00000000 -6270.00000000 170.00000000 246 150 57 0.000000 0.000000 0.000000 0.000000 -60.708740 0.000000 118.000000 -0.486270 0.864320 -0.128422
-7660.00000000 -6330.00000000 270.00000000 246 150 57 0.000000 0.000000 0.000000 0.000000 -60.708740 0.000000 118.000000 -0.154331 0.987942 0.012392
-6600.00000000 -6280.00000000 -640.00000000 246 150 57 0.000000 0.000000 0.000000 0.000000 -60.708740 0.000000 118.000000 0.989802 -0.139138 0.030542
-6970.00000000 -6080.00000000 -350.00000000 246 150 57 0.000000 0.000000 0.000000 0.000000 -60.708740 0.000000 118.000000 0.864615 0.259840 0.430028
-6900.00000000 -6040.00000000 -420.00000000 246 150 57 0.000000 0.000000 0.000000 0.000000 -60.708740 0.000000 118.000000 0.846867 0.430426 0.312331
-6800.00000000 -5990.00000000 -590.00000000 246 150 57 0.000000 0.000000 0.000000 0.000000 -60.708740 0.000000 118.000000 0.906514 0.376153 0.191679
-6800.00000000 -6010.00000000 -580.00000000 246 150 57 0.000000 0.000000 0.000000 0.000000 -60.708740 0.000000 118.000000 0.910324 0.130046 0.392936
-6830.00000000 -6070.00000000 -620.00000000 246 150 57 0.000000 0.000000 0.000000 0.000000 -60.708740 0.000000 118.000000 0.836111 0.366881 0.407820
-6910.00000000 -6020.00000000 -690.00000000 246 150 57 0.000000 0.000000 0.000000 0.000000 -60.708740 0.000000 118.000000 0.806435 0.312117 0.502240
-6920.00000000 -6010.00000000 -390.00000000 246 150 57 0.000000 0.000000 0.000000 0.000000 -60.708740 0.000000 118.000000 0.528118 0.412952 0.741998
-7010.00000000 -5990.00000000 -480.00000000 246 150 57 0.000000 0.000000 0.000000 0.000000 -60.708740 0.000000 118.000000 0.678408 0.612060 0.406381
-6950.00000000 -5980.00000000 -390.00000000 246 150 57 0.000000 0.000000 0.000000 0.000000 -60.708740 0.000000 118.000000 0.224431 0.794020 0.564946
-7000.00000000 -6060.00000000 -370.00000000 246 150 57 0.000000 0.000000 0.000000 0.000000 -60.708740 0.000000 118.000000 0.888225 0.245489 0.388319
-7010.00000000 -6130.00000000 -70.00000000 246 150 57 0.000000 0.000000 0.000000 0.000000 -60.708740 0.000000 118.000000 0.704089 0.023891 0.709710
-7050.00000000 -6220.00000000 -180.00000000 246 150 57 0.000000 0.000000 0.000000 0.000000 -60.708740 0.000000 118.000000 0.927734 0.312069 0.204751
-7040.00000000 -6140.00000000 -340.00000000 246 150 57 0.000000 0.000000 0.000000 0.000000 -60.708740 0.000000 118.000000 0.767329 0.365008 0.527234
-7070.00000000 -6230.00000000 -200.00000000 246 150 57 0.000000 0.000000 0.000000 0.000000 -60.708740 0.000000 118.000000 0.794020 -0.224431 0.564946
