//X Y Z R G B PointSourceId ScanDirectionFlag NumberOfReturns ReturnNumber GpsTime Intensity Classification Nx Ny Nz
8380.00000000 -10410.00000000 630.00000000 8 153 175 0.000000 0.000000 0.000000 0.000000 -60.708740 0.000000 125.000000 0.158411 0.876347 0.454887
8410.00000000 -10420.00000000 650.00000000 8 153 175 0.000000 0.000000 0.000000 0.000000 -60.708740 0.000000 125.000000 -0.474137 0.877362 0.073693
8380.00000000 -10450.00000000 630.00000000 8 153 175 0.000000 0.000000 0.000000 0.000000 -60.708740 0.000000 125.000000 -0.183242 0.961033 0.206972
8380.00000000 -10460.00000000 640.00000000 8 153 175 0.000000 0.000000 0.000000 0.000000 -60.708740 0.000000 125.000000 0.049929 -0.694720 -0.717545
8410.00000000 -10530.00000000 690.00000000 8 153 175 0.000000 0.000000 0.000000 0.000000 -60.708740 0.000000 125.000000 -0.341972 0.830504 0.439679
8410.00000000 -10570.00000000 720.00000000 8 153 175 0.000000 0.000000 0.000000 0.000000 -60.708740 0.000000 125.000000 -0.347223 0.722159 0.598267
8320.00000000 -10630.00000000 720.00000000 8 153 175 0.000000 0.000000 0.000000 0.000000 -60.708740 0.000000 125.000000 -0.037416 0.974033 0.223291
8250.00000000 -10620.00000000 710.00000000 8 153 175 0.000000 0.000000 0.000000 0.000000 -60.708740 0.000000 125.000000 0.017757 0.840024 0.542259
8260.00000000 -10650.00000000 700.00000000 8 153 175 0.000000 0.000000 0.000000 0.000000 -60.708740 0.000000 125.000000 0.277519 0.953562 0.117058
8240.00000000 -10600.00000000 720.00000000 8 153 175 0.000000 0.000000 0.000000 0.000000 -60.708740 0.000000 125.000000 0.051596 0.924756 0.377046
8210.00000000 -10600.00000000 700.00000000 8 153 175 0.000000 0.000000 0.000000 0.000000 -60.708740 0.000000 125.000000 0.578802 0.538303 0.612551
8230.00000000 -10600.00000000 680.00000000 8 153 175 0.000000 0.000000 0.000000 0.000000 -60.708740 0.000000 125.000000 0.226876 0.671241 0.705664
8210.00000000 -10620.00000000 730.00000000 8 153 175 0.000000 0.000000 0.000000 0.000000 -60.708740 0.000000 125.000000 0.181018 0.927541 0.326955
8210.00000000 -10610.00000000 700.00000000 8 153 175 0.000000 0.000000 0.000000 0.000000 -60.708740 0.000000 125.000000 0.490351 0.864905 0.107220
8210.00000000 -10620.00000000 710.00000000 8 153 175 0.000000 0.000000 0.000000 0.000000 -60.708740 0.000000 125.000000 0.603760 0.686466 0.405263
8210.00000000 -10610.00000000 710.00000000 8 153 175 0.000000 0.000000 0.000000 0.000000 -60.708740 0.000000 125.000000 0.792682 0.543689 0.275784
8210.00000000 -10610.00000000 700.00000000 8 153 175 0.000000 0.000000 0.000000 0.000000 -60.708740 0.000000 125.000000 0.490351 0.864905 0.107220
8180.00000000 -10640.00000000 700.00000000 8 153 175 0.000000 0.000000 0.000000 0.000000 -60.708740 0.000000 125.000000 0.726673 0.648536 0.226597
8200.00000000 -10660.00000000 720.00000000 8 153 175 0.000000 0.000000 0.000000 0.000000 -60.708740 0.000000 125.000000 0.342582 0.729001 0.592618
8350.00000000 -10510.00000000 650.00000000 8 153 175 0.000000 0.000000 0.000000 0.000000 -60.708740 0.000000 125.000000 0.197246 0.973665 0.114327
8300.00000000 -10520.00000000 630.00000000 8 153 175 0.000000 0.000000 0.000000 0.000000 -60.708740 0.000000 125.000000 0.110560 0.623558 0.773920
8290.00000000 -10580.00000000 650.00000000 8 153 175 0.000000 0.000000 0.000000 0.000000 -60.708740 0.000000 125.000000 -0.059591 0.871687 0.486426
8160.00000000 -10600.00000000 650.00000000 8 153 175 0.000000 0.000000 0.000000 0.000000 -60.708740 0.000000 125.000000 0.817363 0.461850 0.344403
9200.00000000 -9660.00000000 -790.00000000 8 153 175 0.000000 0.000000 0.000000 0.000000 -60.708740 0.000000 131.000000 0.982175 0.010363 0.187684
9200.00000000 -9650.00000000 -830.00000000 8 153 175 0.000000 0.000000 0.000000 0.000000 -60.708740 0.000000 131.000000 0.995543 0.090306 0.027201
9200.00000000 -9650.00000000 -830.00000000 8 153 175 0.000000 0.000000 0.000000 0.000000 -60.708740 0.000000 131.000000 0.995543 0.090306 0.027201
8820.00000000 -9450.00000000 -300.00000000 8 153 175 0.000000 0.000000 0.000000 0.000000 -60.708740 0.000000 125.000000 0.283120 0.950379 0.128932
8860.00000000 -9460.00000000 -320.00000000 8 153 175 0.000000 0.000000 0.000000 0.000000 -60.708740 0.000000 125.000000 0.517258 0.554326 0.652049
8990.00000000 -9230.00000000 -690.00000000 8 153 175 0.000000 0.000000 0.000000 0.000000 -60.708740 0.000000 125.000000 0.056811 0.868795 0.491902
9020.00000000 -9460.00000000 -540.00000000 8 153 175 0.000000 0.000000 0.000000 0.000000 -60.708740 0.000000 125.000000 0.748607 0.616777 0.243258
9030.00000000 -9460.00000000 -530.00000000 8 153 175 0.000000 0.000000 0.000000 0.000000 -60.708740 0.000000 125.000000 0.738223 0.667777 0.095397
9020.00000000 -9460.00000000 -550.00000000 8 153 175 0.000000 0.000000 0.000000 0.000000 -60.708740 0.000000 125.000000 0.837310 0.502994 0.214266
8940.00000000 -9300.00000000 -590.00000000 8 153 175 0.000000 0.000000 0.000000 0.000000 -60.708740 0.000000 125.000000 0.073523 0.635754 0.768383
8930.00000000 -9410.00000000 -600.00000000 8 153 175 0.000000 0.000000 0.000000 0.000000 -60.708740 0.000000 125.000000 0.480237 0.722848 0.496854
8930.00000000 -9420.00000000 -590.00000000 8 153 175 0.000000 0.000000 0.000000 0.000000 -60.708740 0.000000 125.000000 0.618984 0.602118 0.504295
8930.00000000 -9450.00000000 -540.00000000 8 153 175 0.000000 0.000000 0.000000 0.000000 -60.708740 0.000000 125.000000 0.417340 0.673398 0.610215
8940.00000000 -9460.00000000 -540.00000000 8 153 175 0.000000 0.000000 0.000000 0.000000 -60.708740 0.000000 125.000000 0.393526 0.477737 0.785433
8980.00000000 -9450.00000000 -660.00000000 8 153 175 0.000000 0.000000 0.000000 0.000000 -60.708740 0.000000 125.000000 0.820018 0.462939 0.336539
8950.00000000 -9450.00000000 -690.00000000 8 153 175 0.000000 0.000000 0.000000 0.000000 -60.708740 0.000000 125.000000 0.366606 0.741358 0.562129
8840.00000000 -9240.00000000 -650.00000000 8 153 175 0.000000 0.000000 0.000000 0.000000 -60.708740 0.000000 125.000000 0.177007 -0.806367 -0.564306
8860.00000000 -9280.00000000 -670.00000000 8 153 175 0.000000 0.000000 0.000000 0.000000 -60.708740 0.000000 125.000000 -0.055813 0.679775 0.731294
8820.00000000 -9210.00000000 -670.00000000 8 153 175 0.000000 0.000000 0.000000 0.000000 -60.708740 0.000000 125.000000 0.254822 0.678999 0.688495
8830.00000000 -9240.00000000 -650.00000000 8 153 175 0.000000 0.000000 0.000000 0.000000 -60.708740 0.000000 125.000000 0.082520 0.921244 0.380132
8810.00000000 -9290.00000000 -670.00000000 8 153 175 0.000000 0.000000 0.000000 0.000000 -60.708740 0.000000 125.000000 0.394344 0.799955 0.452288
8770.00000000 -9240.00000000 -640.00000000 8 153 175 0.000000 0.000000 0.000000 0.000000 -60.708740 0.000000 125.000000 0.289992 0.819815 0.493770
8870.00000000 -9380.00000000 -510.00000000 8 153 175 0.000000 0.000000 0.000000 0.000000 -60.708740 0.000000 125.000000 0.313799 0.903094 0.293174
8860.00000000 -9400.00000000 -430.00000000 8 153 175 0.000000 0.000000 0.000000 0.000000 -60.708740 0.000000 125.000000 0.316588 0.896255 0.310642
8870.00000000 -9440.00000000 -380.00000000 8 153 175 0.000000 0.000000 0.000000 0.000000 -60.708740 0.000000 125.000000 0.195830 0.630666 0.750940
8880.00000000 -9410.00000000 -460.00000000 8 153 175 0.000000 0.000000 0.000000 0.000000 -60.708740 0.000000 125.000000 0.338271 0.899594 0.276230
8870.00000000 -9450.00000000 -520.00000000 8 153 175 0.000000 0.000000 0.000000 0.000000 -60.708740 0.000000 125.000000 0.406243 0.467746 0.784972
8870.00000000 -9450.00000000 -520.00000000 8 153 175 0.000000 0.000000 0.000000 0.000000 -60.708740 0.000000 125.000000 0.406243 0.467746 0.784972
8780.00000000 -9380.00000000 -520.00000000 8 153 175 0.000000 0.000000 0.000000 0.000000 -60.708740 0.000000 125.000000 0.264229 0.757878 0.596493
8820.00000000 -9400.00000000 -480.00000000 8 153 175 0.000000 0.000000 0.000000 0.000000 -60.708740 0.000000 125.000000 0.486483 0.621150 0.614416
8820.00000000 -9410.00000000 -470.00000000 8 153 175 0.000000 0.000000 0.000000 0.000000 -60.708740 0.000000 125.000000 0.311396 0.931394 0.188513
8790.00000000 -9450.00000000 -480.00000000 8 153 175 0.000000 0.000000 0.000000 0.000000 -60.708740 0.000000 125.000000 0.508687 0.708827 0.488674
8790.00000000 -9440.00000000 -490.00000000 8 153 175 0.000000 0.000000 0.000000 0.000000 -60.708740 0.000000 125.000000 0.290874 0.931640 0.217804
8790.00000000 -9440.00000000 -490.00000000 8 153 175 0.000000 0.000000 0.000000 0.000000 -60.708740 0.000000 125.000000 0.290874 0.931640 0.217804
8900.00000000 -9370.00000000 -600.00000000 8 153 175 0.000000 0.000000 0.000000 0.000000 -60.708740 0.000000 125.000000 0.506090 0.499409 0.703181
8870.00000000 -9380.00000000 -560.00000000 8 153 175 0.000000 0.000000 0.000000 0.000000 -60.708740 0.000000 125.000000 0.309618 0.749180 0.585548
8900.00000000 -9310.00000000 -680.00000000 8 153 175 0.000000 0.000000 0.000000 0.000000 -60.708740 0.000000 125.000000 0.026725 0.738465 0.673762
8890.00000000 -9370.00000000 -650.00000000 8 153 175 0.000000 0.000000 0.000000 0.000000 -60.708740 0.000000 125.000000 0.349265 0.783835 0.513436
8890.00000000 -9360.00000000 -610.00000000 8 153 175 0.000000 0.000000 0.000000 0.000000 -60.708740 0.000000 125.000000 0.249509 0.594741 0.764218
8890.00000000 -9350.00000000 -670.00000000 8 153 175 0.000000 0.000000 0.000000 0.000000 -60.708740 0.000000 125.000000 0.176188 0.669513 0.721603
8890.00000000 -9350.00000000 -670.00000000 8 153 175 0.000000 0.000000 0.000000 0.000000 -60.708740 0.000000 125.000000 0.176188 0.669513 0.721603
8840.00000000 -9360.00000000 -610.00000000 8 153 175 0.000000 0.000000 0.000000 0.000000 -60.708740 0.000000 125.000000 0.020842 0.615537 0.787832
8860.00000000 -9360.00000000 -640.00000000 8 153 175 0.000000 0.000000 0.000000 0.000000 -60.708740 0.000000 125.000000 0.247553 0.739506 0.625978
8870.00000000 -9350.00000000 -610.00000000 8 153 175 0.000000 0.000000 0.000000 0.000000 -60.708740 0.000000 125.000000 0.199568 0.648210 0.734844
8870.00000000 -9350.00000000 -610.00000000 8 153 175 0.000000 0.000000 0.000000 0.000000 -60.708740 0.000000 125.000000 0.199568 0.648210 0.734844
8860.00000000 -9350.00000000 -680.00000000 8 153 175 0.000000 0.000000 0.000000 0.000000 -60.708740 0.000000 125.000000 0.346805 0.932461 0.101208
8870.00000000 -9350.00000000 -660.00000000 8 153 175 0.000000 0.000000 0.000000 0.000000 -60.708740 0.000000 125.000000 0.405573 0.822278 0.399211
8860.00000000 -9380.00000000 -680.00000000 8 153 175 0.000000 0.000000 0.000000 0.000000 -60.708740 0.000000 125.000000 0.336565 0.837498 0.430490
8880.00000000 -9410.00000000 -560.00000000 8 153 175 0.000000 0.000000 0.000000 0.000000 -60.708740 0.000000 125.000000 0.261225 0.952468 0.156735
8880.00000000 -9400.00000000 -580.00000000 8 153 175 0.000000 0.000000 0.000000 0.000000 -60.708740 0.000000 125.000000 0.304514 0.665421 0.681532
8910.00000000 -9410.00000000 -590.00000000 8 153 175 0.000000 0.000000 0.000000 0.000000 -60.708740 0.000000 125.000000 0.353371 0.819250 0.451618
8860.00000000 -9410.00000000 -530.00000000 8 153 175 0.000000 0.000000 0.000000 0.000000 -60.708740 0.000000 125.000000 0.380052 0.748687 0.543165
8870.00000000 -9410.00000000 -560.00000000 8 153 175 0.000000 0.000000 0.000000 0.000000 -60.708740 0.000000 125.000000 0.138498 0.787800 0.600158
8860.00000000 -9390.00000000 -540.00000000 8 153 175 0.000000 0.000000 0.000000 0.000000 -60.708740 0.000000 125.000000 0.234100 0.965822 0.111293
8860.00000000 -9400.00000000 -580.00000000 8 153 175 0.000000 0.000000 0.000000 0.000000 -60.708740 0.000000 125.000000 0.254458 0.741247 0.621131
8860.00000000 -9400.00000000 -580.00000000 8 153 175 0.000000 0.000000 0.000000 0.000000 -60.708740 0.000000 125.000000 0.254458 0.741247 0.621131
8860.00000000 -9390.00000000 -590.00000000 8 153 175 0.000000 0.000000 0.000000 0.000000 -60.708740 0.000000 125.000000 0.155557 0.873736 0.460856
8840.00000000 -9420.00000000 -600.00000000 8 153 175 0.000000 0.000000 0.000000 0.000000 -60.708740 0.000000 125.000000 0.444455 0.574296 0.687491
8910.00000000 -9400.00000000 -640.00000000 8 153 175 0.000000 0.000000 0.000000 0.000000 -60.708740 0.000000 125.000000 0.332736 0.776384 0.535271
8910.00000000 -9400.00000000 -610.00000000 8 153 175 0.000000 0.000000 0.000000 0.000000 -60.708740 0.000000 125.000000 0.489955 0.601079 0.631386
8880.00000000 -9430.00000000 -610.00000000 8 153 175 0.000000 0.000000 0.000000 0.000000 -60.708740 0.000000 125.000000 0.230699 0.562039 0.794286
8810.00000000 -9380.00000000 -530.00000000 8 153 175 0.000000 0.000000 0.000000 0.000000 -60.708740 0.000000 125.000000 0.247050 0.608970 0.753738
8760.00000000 -9340.00000000 -600.00000000 8 153 175 0.000000 0.000000 0.000000 0.000000 -60.708740 0.000000 125.000000 -0.091371 0.986091 0.138836
8790.00000000 -9330.00000000 -580.00000000 8 153 175 0.000000 0.000000 0.000000 0.000000 -60.708740 0.000000 125.000000 0.028199 0.964888 0.261145
8800.00000000 -9300.00000000 -650.00000000 8 153 175 0.000000 0.000000 0.000000 0.000000 -60.708740 0.000000 125.000000 0.333214 -0.801945 -0.495835
8800.00000000 -9380.00000000 -680.00000000 8 153 175 0.000000 0.000000 0.000000 0.000000 -60.708740 0.000000 125.000000 -0.046019 0.982922 0.178177
8820.00000000 -9400.00000000 -550.00000000 8 153 175 0.000000 0.000000 0.000000 0.000000 -60.708740 0.000000 125.000000 0.067793 0.690909 0.719757
8810.00000000 -9430.00000000 -630.00000000 8 153 175 0.000000 0.000000 0.000000 0.000000 -60.708740 0.000000 125.000000 0.272666 0.956288 0.105674
8810.00000000 -9430.00000000 -610.00000000 8 153 175 0.000000 0.000000 0.000000 0.000000 -60.708740 0.000000 125.000000 0.419727 0.769227 0.481788
8820.00000000 -9430.00000000 -620.00000000 8 153 175 0.000000 0.000000 0.000000 0.000000 -60.708740 0.000000 125.000000 0.258757 0.706421 0.658797
8780.00000000 -9390.00000000 -660.00000000 8 153 175 0.000000 0.000000 0.000000 0.000000 -60.708740 0.000000 125.000000 0.044086 -0.666978 -0.743772
8770.00000000 -9460.00000000 -670.00000000 8 153 175 0.000000 0.000000 0.000000 0.000000 -60.708740 0.000000 125.000000 -0.127547 0.943847 0.304770
8990.00000000 -9510.00000000 -300.00000000 8 153 175 0.000000 0.000000 0.000000 0.000000 -60.708740 0.000000 125.000000 0.818609 0.379898 0.430763
8770.00000000 -9500.00000000 -120.00000000 8 153 175 0.000000 0.000000 0.000000 0.000000 -60.708740 0.000000 125.000000 0.175442 0.826226 0.535323
8780.00000000 -9500.00000000 -160.00000000 8 153 175 0.000000 0.000000 0.000000 0.000000 -60.708740 0.000000 125.000000 0.586496 0.686184 0.430319
8770.00000000 -9500.00000000 -150.00000000 8 153 175 0.000000 0.000000 0.000000 0.000000 -60.708740 0.000000 125.000000 0.581620 0.770765 0.260074
8770.00000000 -9490.00000000 -160.00000000 8 153 175 0.000000 0.000000 0.000000 0.000000 -60.708740 0.000000 125.000000 0.615155 0.661833 0.428441
8800.00000000 -9570.00000000 -70.00000000 8 153 175 0.000000 0.000000 0.000000 0.000000 -60.708740 0.000000 125.000000 0.587038 0.721125 0.367921
8860.00000000 -9550.00000000 -320.00000000 8 153 175 0.000000 0.000000 0.000000 0.000000 -60.708740 0.000000 125.000000 0.556786 0.502957 0.661078
8910.00000000 -9600.00000000 -220.00000000 8 153 175 0.000000 0.000000 0.000000 0.000000 -60.708740 0.000000 125.000000 0.889218 0.247912 0.384487
8910.00000000 -9600.00000000 -210.00000000 8 153 175 0.000000 0.000000 0.000000 0.000000 -60.708740 0.000000 125.000000 0.840299 0.250400 0.480829
8840.00000000 -9590.00000000 -270.00000000 8 153 175 0.000000 0.000000 0.000000 0.000000 -60.708740 0.000000 125.000000 0.648817 0.740415 0.175562
8840.00000000 -9580.00000000 -250.00000000 8 153 175 0.000000 0.000000 0.000000 0.000000 -60.708740 0.000000 125.000000 0.541890 0.765117 0.347780
8880.00000000 -9620.00000000 -330.00000000 8 153 175 0.000000 0.000000 0.000000 0.000000 -60.708740 0.000000 125.000000 0.755887 0.647274 0.098339
8860.00000000 -9570.00000000 -310.00000000 8 153 175 0.000000 0.000000 0.000000 0.000000 -60.708740 0.000000 125.000000 0.655934 0.592186 0.468045
8840.00000000 -9590.00000000 -280.00000000 8 153 175 0.000000 0.000000 0.000000 0.000000 -60.708740 0.000000 125.000000 0.541822 0.679374 0.494853
8860.00000000 -9590.00000000 -300.00000000 8 153 175 0.000000 0.000000 0.000000 0.000000 -60.708740 0.000000 125.000000 0.697149 0.645389 0.312180
8840.00000000 -9590.00000000 -280.00000000 8 153 175 0.000000 0.000000 0.000000 0.000000 -60.708740 0.000000 125.000000 0.541822 0.679374 0.494853
8840.00000000 -9560.00000000 -310.00000000 8 153 175 0.000000 0.000000 0.000000 0.000000 -60.708740 0.000000 125.000000 0.627784 0.405823 0.664225
8860.00000000 -9610.00000000 -290.00000000 8 153 175 0.000000 0.000000 0.000000 0.000000 -60.708740 0.000000 125.000000 0.712814 0.265122 0.649312
8860.00000000 -9620.00000000 -320.00000000 8 153 175 0.000000 0.000000 0.000000 0.000000 -60.708740 0.000000 125.000000 0.527799 0.618857 0.581759
8860.00000000 -9620.00000000 -320.00000000 8 153 175 0.000000 0.000000 0.000000 0.000000 -60.708740 0.000000 125.000000 0.527799 0.618857 0.581759
8840.00000000 -9600.00000000 -330.00000000 8 153 175 0.000000 0.000000 0.000000 0.000000 -60.708740 0.000000 125.000000 0.657839 0.590884 0.467016
8850.00000000 -9630.00000000 -320.00000000 8 153 175 0.000000 0.000000 0.000000 0.000000 -60.708740 0.000000 125.000000 0.555389 0.806309 0.203490
8810.00000000 -9500.00000000 -250.00000000 8 153 175 0.000000 0.000000 0.000000 0.000000 -60.708740 0.000000 125.000000 0.566314 0.777696 0.272904
8800.00000000 -9490.00000000 -250.00000000 8 153 175 0.000000 0.000000 0.000000 0.000000 -60.708740 0.000000 125.000000 0.364291 0.912869 0.184288
8770.00000000 -9470.00000000 -200.00000000 8 153 175 0.000000 0.000000 0.000000 0.000000 -60.708740 0.000000 125.000000 0.586257 0.701856 0.404600
8790.00000000 -9490.00000000 -240.00000000 8 153 175 0.000000 0.000000 0.000000 0.000000 -60.708740 0.000000 125.000000 0.469723 0.867743 0.162427
8810.00000000 -9530.00000000 -280.00000000 8 153 175 0.000000 0.000000 0.000000 0.000000 -60.708740 0.000000 125.000000 0.305547 0.948115 0.087861
8800.00000000 -9550.00000000 -300.00000000 8 153 175 0.000000 0.000000 0.000000 0.000000 -60.708740 0.000000 125.000000 0.609408 0.759032 0.229112
8800.00000000 -9520.00000000 -330.00000000 8 153 175 0.000000 0.000000 0.000000 0.000000 -60.708740 0.000000 125.000000 0.220153 0.729158 0.647967
8800.00000000 -9520.00000000 -330.00000000 8 153 175 0.000000 0.000000 0.000000 0.000000 -60.708740 0.000000 125.000000 0.220153 0.729158 0.647967
8790.00000000 -9480.00000000 -290.00000000 8 153 175 0.000000 0.000000 0.000000 0.000000 -60.708740 0.000000 125.000000 0.164800 0.609307 0.775619
8830.00000000 -9590.00000000 -240.00000000 8 153 175 0.000000 0.000000 0.000000 0.000000 -60.708740 0.000000 125.000000 0.434707 0.483919 0.759507
8820.00000000 -9630.00000000 -230.00000000 8 153 175 0.000000 0.000000 0.000000 0.000000 -60.708740 0.000000 125.000000 0.570688 0.677797 0.463580
8770.00000000 -9560.00000000 -270.00000000 8 153 175 0.000000 0.000000 0.000000 0.000000 -60.708740 0.000000 125.000000 0.123830 0.675843 0.726569
8780.00000000 -9630.00000000 -230.00000000 8 153 175 0.000000 0.000000 0.000000 0.000000 -60.708740 0.000000 125.000000 0.488561 0.669883 0.559075
8770.00000000 -9620.00000000 -230.00000000 8 153 175 0.000000 0.000000 0.000000 0.000000 -60.708740 0.000000 125.000000 0.524468 0.598670 0.605415
8780.00000000 -9630.00000000 -230.00000000 8 153 175 0.000000 0.000000 0.000000 0.000000 -60.708740 0.000000 125.000000 0.488561 0.669883 0.559075
8780.00000000 -9620.00000000 -240.00000000 8 153 175 0.000000 0.000000 0.000000 0.000000 -60.708740 0.000000 125.000000 0.325912 0.823440 0.464464
8830.00000000 -9580.00000000 -280.00000000 8 153 175 0.000000 0.000000 0.000000 0.000000 -60.708740 0.000000 125.000000 0.601974 0.731084 0.321160
8820.00000000 -9570.00000000 -320.00000000 8 153 175 0.000000 0.000000 0.000000 0.000000 -60.708740 0.000000 125.000000 0.354942 0.539707 0.763369
8810.00000000 -9600.00000000 -320.00000000 8 153 175 0.000000 0.000000 0.000000 0.000000 -60.708740 0.000000 125.000000 0.290351 0.883088 0.368580
8780.00000000 -9580.00000000 -300.00000000 8 153 175 0.000000 0.000000 0.000000 0.000000 -60.708740 0.000000 125.000000 0.595948 0.514913 0.616207
8790.00000000 -9580.00000000 -300.00000000 8 153 175 0.000000 0.000000 0.000000 0.000000 -60.708740 0.000000 125.000000 0.662823 0.578922 0.474884
8790.00000000 -9570.00000000 -350.00000000 8 153 175 0.000000 0.000000 0.000000 0.000000 -60.708740 0.000000 125.000000 0.440375 0.709585 0.550053
8880.00000000 -9690.00000000 -60.00000000 8 153 175 0.000000 0.000000 0.000000 0.000000 -60.708740 0.000000 125.000000 0.820018 0.462939 0.336539
8880.00000000 -9700.00000000 -60.00000000 8 153 175 0.000000 0.000000 0.000000 0.000000 -60.708740 0.000000 125.000000 0.700772 0.700772 0.133552
8880.00000000 -9680.00000000 -90.00000000 8 153 175 0.000000 0.000000 0.000000 0.000000 -60.708740 0.000000 125.000000 0.842374 0.348514 0.411028
8890.00000000 -9680.00000000 -130.00000000 8 153 175 0.000000 0.000000 0.000000 0.000000 -60.708740 0.000000 125.000000 0.652542 0.203048 0.730041
8900.00000000 -9690.00000000 -180.00000000 8 153 175 0.000000 0.000000 0.000000 0.000000 -60.708740 0.000000 125.000000 0.694023 0.312229 0.648726
8840.00000000 -9660.00000000 -160.00000000 8 153 175 0.000000 0.000000 0.000000 0.000000 -60.708740 0.000000 125.000000 0.657861 0.686955 0.308726
8840.00000000 -9650.00000000 -180.00000000 8 153 175 0.000000 0.000000 0.000000 0.000000 -60.708740 0.000000 125.000000 0.775346 0.622337 0.107401
8840.00000000 -9660.00000000 -170.00000000 8 153 175 0.000000 0.000000 0.000000 0.000000 -60.708740 0.000000 125.000000 0.773241 0.541751 0.329552
8850.00000000 -9730.00000000 -180.00000000 8 153 175 0.000000 0.000000 0.000000 0.000000 -60.708740 0.000000 125.000000 0.745935 0.408215 0.526253
8790.00000000 -9680.00000000 -90.00000000 8 153 175 0.000000 0.000000 0.000000 0.000000 -60.708740 0.000000 125.000000 0.623420 0.413951 0.663319
8800.00000000 -9640.00000000 -180.00000000 8 153 175 0.000000 0.000000 0.000000 0.000000 -60.708740 0.000000 125.000000 0.276423 0.653509 0.704639
8830.00000000 -9660.00000000 -160.00000000 8 153 175 0.000000 0.000000 0.000000 0.000000 -60.708740 0.000000 125.000000 0.689351 0.683041 0.241352
8780.00000000 -9660.00000000 -150.00000000 8 153 175 0.000000 0.000000 0.000000 0.000000 -60.708740 0.000000 125.000000 0.485539 0.807109 0.335897
8780.00000000 -9660.00000000 -150.00000000 8 153 175 0.000000 0.000000 0.000000 0.000000 -60.708740 0.000000 125.000000 0.485539 0.807109 0.335897
8760.00000000 -9690.00000000 -110.00000000 8 153 175 0.000000 0.000000 0.000000 0.000000 -60.708740 0.000000 125.000000 0.714156 0.471110 0.517722
8780.00000000 -9720.00000000 -30.00000000 8 153 175 0.000000 0.000000 0.000000 0.000000 -60.708740 0.000000 125.000000 0.676043 0.602958 0.423565
8790.00000000 -9750.00000000 -60.00000000 8 153 175 0.000000 0.000000 0.000000 0.000000 -60.708740 0.000000 125.000000 0.680242 0.708007 0.189727
8770.00000000 -9720.00000000 -90.00000000 8 153 175 0.000000 0.000000 0.000000 0.000000 -60.708740 0.000000 125.000000 0.405467 0.680192 0.610684
8780.00000000 -9730.00000000 -80.00000000 8 153 175 0.000000 0.000000 0.000000 0.000000 -60.708740 0.000000 125.000000 0.822106 0.346900 0.451445
8790.00000000 -9730.00000000 -100.00000000 8 153 175 0.000000 0.000000 0.000000 0.000000 -60.708740 0.000000 125.000000 0.600938 0.703015 0.380320
8770.00000000 -9720.00000000 -90.00000000 8 153 175 0.000000 0.000000 0.000000 0.000000 -60.708740 0.000000 125.000000 0.405467 0.680192 0.610684
8780.00000000 -9740.00000000 -80.00000000 8 153 175 0.000000 0.000000 0.000000 0.000000 -60.708740 0.000000 125.000000 0.766903 0.583479 0.267230
8790.00000000 -9720.00000000 -90.00000000 8 153 175 0.000000 0.000000 0.000000 0.000000 -60.708740 0.000000 125.000000 0.484314 0.861816 0.150708
8790.00000000 -9770.00000000 -20.00000000 8 153 175 0.000000 0.000000 0.000000 0.000000 -60.708740 0.000000 125.000000 0.768819 0.515255 0.378721
8770.00000000 -9790.00000000 -50.00000000 8 153 175 0.000000 0.000000 0.000000 0.000000 -60.708740 0.000000 125.000000 0.585852 0.518319 0.622995
8880.00000000 -9650.00000000 -300.00000000 8 153 175 0.000000 0.000000 0.000000 0.000000 -60.708740 0.000000 125.000000 0.715795 0.666108 0.209614
8880.00000000 -9650.00000000 -290.00000000 8 153 175 0.000000 0.000000 0.000000 0.000000 -60.708740 0.000000 125.000000 0.797126 0.531944 0.285703
8810.00000000 -9660.00000000 -230.00000000 8 153 175 0.000000 0.000000 0.000000 0.000000 -60.708740 0.000000 125.000000 0.675388 0.448591 0.585336
8760.00000000 -9650.00000000 -260.00000000 8 153 175 0.000000 0.000000 0.000000 0.000000 -60.708740 0.000000 125.000000 0.326404 0.703149 0.631697
8790.00000000 -9680.00000000 -200.00000000 8 153 175 0.000000 0.000000 0.000000 0.000000 -60.708740 0.000000 125.000000 0.544352 0.635358 0.547723
8780.00000000 -9680.00000000 -190.00000000 8 153 175 0.000000 0.000000 0.000000 0.000000 -60.708740 0.000000 125.000000 0.612193 0.725263 0.314981
8780.00000000 -9680.00000000 -190.00000000 8 153 175 0.000000 0.000000 0.000000 0.000000 -60.708740 0.000000 125.000000 0.612193 0.725263 0.314981
8780.00000000 -9690.00000000 -320.00000000 8 153 175 0.000000 0.000000 0.000000 0.000000 -60.708740 0.000000 125.000000 0.796307 0.553207 0.244658
8780.00000000 -9690.00000000 -320.00000000 8 153 175 0.000000 0.000000 0.000000 0.000000 -60.708740 0.000000 125.000000 0.796307 0.553207 0.244658
8760.00000000 -9680.00000000 -330.00000000 8 153 175 0.000000 0.000000 0.000000 0.000000 -60.708740 0.000000 125.000000 0.569104 0.656400 0.495238
8760.00000000 -9680.00000000 -330.00000000 8 153 175 0.000000 0.000000 0.000000 0.000000 -60.708740 0.000000 125.000000 0.569104 0.656400 0.495238
8820.00000000 -9750.00000000 -310.00000000 8 153 175 0.000000 0.000000 0.000000 0.000000 -60.708740 0.000000 125.000000 0.976842 0.087240 0.195368
8760.00000000 -9780.00000000 -300.00000000 8 153 175 0.000000 0.000000 0.000000 0.000000 -60.708740 0.000000 125.000000 0.670261 0.701803 0.241294
8770.00000000 -9790.00000000 -300.00000000 8 153 175 0.000000 0.000000 0.000000 0.000000 -60.708740 0.000000 125.000000 0.880120 0.474324 0.020155
8770.00000000 -9790.00000000 -280.00000000 8 153 175 0.000000 0.000000 0.000000 0.000000 -60.708740 0.000000 125.000000 0.715577 0.607996 0.343933
8760.00000000 -9790.00000000 -330.00000000 8 153 175 0.000000 0.000000 0.000000 0.000000 -60.708740 0.000000 125.000000 0.682943 0.223480 0.695446
9030.00000000 -9500.00000000 -430.00000000 8 153 175 0.000000 0.000000 0.000000 0.000000 -60.708740 0.000000 125.000000 0.915545 0.222778 0.334885
9020.00000000 -9520.00000000 -420.00000000 8 153 175 0.000000 0.000000 0.000000 0.000000 -60.708740 0.000000 125.000000 0.759586 0.191815 0.621479
9050.00000000 -9480.00000000 -490.00000000 8 153 175 0.000000 0.000000 0.000000 0.000000 -60.708740 0.000000 125.000000 0.893975 0.403966 0.193962
9060.00000000 -9480.00000000 -520.00000000 8 153 175 0.000000 0.000000 0.000000 0.000000 -60.708740 0.000000 125.000000 0.788763 0.269219 0.552607
9040.00000000 -9500.00000000 -480.00000000 8 153 175 0.000000 0.000000 0.000000 0.000000 -60.708740 0.000000 125.000000 0.843603 0.352153 0.405367
9010.00000000 -9500.00000000 -460.00000000 8 153 175 0.000000 0.000000 0.000000 0.000000 -60.708740 0.000000 125.000000 0.880224 0.259419 0.397375
9030.00000000 -9480.00000000 -520.00000000 8 153 175 0.000000 0.000000 0.000000 0.000000 -60.708740 0.000000 125.000000 0.859645 0.129019 0.494332
9030.00000000 -9520.00000000 -510.00000000 8 153 175 0.000000 0.000000 0.000000 0.000000 -60.708740 0.000000 125.000000 0.968046 0.145271 0.204408
9040.00000000 -9540.00000000 -520.00000000 8 153 175 0.000000 0.000000 0.000000 0.000000 -60.708740 0.000000 125.000000 0.920700 0.265725 0.285834
9030.00000000 -9510.00000000 -510.00000000 8 153 175 0.000000 0.000000 0.000000 0.000000 -60.708740 0.000000 125.000000 0.964529 0.207524 0.163148
9040.00000000 -9520.00000000 -520.00000000 8 153 175 0.000000 0.000000 0.000000 0.000000 -60.708740 0.000000 125.000000 0.949634 0.106982 0.294532
9040.00000000 -9520.00000000 -520.00000000 8 153 175 0.000000 0.000000 0.000000 0.000000 -60.708740 0.000000 125.000000 0.949634 0.106982 0.294532
9050.00000000 -9510.00000000 -600.00000000 8 153 175 0.000000 0.000000 0.000000 0.000000 -60.708740 0.000000 125.000000 0.979228 0.161764 0.122249
9010.00000000 -9500.00000000 -550.00000000 8 153 175 0.000000 0.000000 0.000000 0.000000 -60.708740 0.000000 125.000000 0.801705 0.432182 0.412902
9030.00000000 -9480.00000000 -560.00000000 8 153 175 0.000000 0.000000 0.000000 0.000000 -60.708740 0.000000 125.000000 0.792234 0.207673 0.573793
9010.00000000 -9490.00000000 -570.00000000 8 153 175 0.000000 0.000000 0.000000 0.000000 -60.708740 0.000000 125.000000 0.865379 0.428901 0.259159
9040.00000000 -9530.00000000 -530.00000000 8 153 175 0.000000 0.000000 0.000000 0.000000 -60.708740 0.000000 125.000000 0.951438 0.306224 0.031505
9010.00000000 -9510.00000000 -550.00000000 8 153 175 0.000000 0.000000 0.000000 0.000000 -60.708740 0.000000 125.000000 0.815686 0.502563 0.286508
9040.00000000 -9510.00000000 -600.00000000 8 153 175 0.000000 0.000000 0.000000 0.000000 -60.708740 0.000000 125.000000 0.898746 0.388922 0.202473
9020.00000000 -9500.00000000 -620.00000000 8 153 175 0.000000 0.000000 0.000000 0.000000 -60.708740 0.000000 125.000000 0.740312 0.130116 0.659551
9020.00000000 -9500.00000000 -620.00000000 8 153 175 0.000000 0.000000 0.000000 0.000000 -60.708740 0.000000 125.000000 0.740312 0.130116 0.659551
9000.00000000 -9510.00000000 -540.00000000 8 153 175 0.000000 0.000000 0.000000 0.000000 -60.708740 0.000000 125.000000 0.780496 0.207824 0.589606
9000.00000000 -9470.00000000 -670.00000000 8 153 175 0.000000 0.000000 0.000000 0.000000 -60.708740 0.000000 125.000000 0.571006 0.389995 0.722396
8940.00000000 -9510.00000000 -630.00000000 8 153 175 0.000000 0.000000 0.000000 0.000000 -60.708740 0.000000 125.000000 0.756880 0.379254 0.532258
8990.00000000 -9560.00000000 -630.00000000 8 153 175 0.000000 0.000000 0.000000 0.000000 -60.708740 0.000000 125.000000 0.827088 -0.063622 0.558461
8990.00000000 -9570.00000000 -640.00000000 8 153 175 0.000000 0.000000 0.000000 0.000000 -60.708740 0.000000 125.000000 0.840491 0.078218 0.536151
8950.00000000 -9590.00000000 -690.00000000 8 153 175 0.000000 0.000000 0.000000 0.000000 -60.708740 0.000000 125.000000 0.902944 0.424994 0.063817
8950.00000000 -9580.00000000 -660.00000000 8 153 175 0.000000 0.000000 0.000000 0.000000 -60.708740 0.000000 125.000000 0.806710 -0.075943 0.586047
8990.00000000 -9710.00000000 -450.00000000 8 153 175 0.000000 0.000000 0.000000 0.000000 -60.708740 0.000000 125.000000 0.993423 -0.007617 -0.114249
8990.00000000 -9710.00000000 -450.00000000 8 153 175 0.000000 0.000000 0.000000 0.000000 -60.708740 0.000000 125.000000 0.993423 -0.007617 -0.114249
8990.00000000 -9710.00000000 -500.00000000 8 153 175 0.000000 0.000000 0.000000 0.000000 -60.708740 0.000000 125.000000 0.901546 0.345617 0.260316
8940.00000000 -9670.00000000 -460.00000000 8 153 175 0.000000 0.000000 0.000000 0.000000 -60.708740 0.000000 125.000000 0.993805 0.108715 0.023061
8990.00000000 -9750.00000000 -460.00000000 8 153 175 0.000000 0.000000 0.000000 0.000000 -60.708740 0.000000 125.000000 0.941765 0.322777 0.094309
8990.00000000 -9730.00000000 -460.00000000 8 153 175 0.000000 0.000000 0.000000 0.000000 -60.708740 0.000000 125.000000 0.904386 0.374777 0.204029
9020.00000000 -9640.00000000 -650.00000000 8 153 175 0.000000 0.000000 0.000000 0.000000 -60.708740 0.000000 125.000000 0.927164 0.361391 0.098807
8990.00000000 -9650.00000000 -570.00000000 8 153 175 0.000000 0.000000 0.000000 0.000000 -60.708740 0.000000 125.000000 0.976497 0.202161 -0.074738
8970.00000000 -9670.00000000 -610.00000000 8 153 175 0.000000 0.000000 0.000000 0.000000 -60.708740 0.000000 125.000000 0.993589 0.107685 -0.034415
8970.00000000 -9690.00000000 -610.00000000 8 153 175 0.000000 0.000000 0.000000 0.000000 -60.708740 0.000000 125.000000 0.979978 0.149154 0.131896
8970.00000000 -9710.00000000 -610.00000000 8 153 175 0.000000 0.000000 0.000000 0.000000 -60.708740 0.000000 125.000000 0.999613 -0.023294 -0.015192
8960.00000000 -9660.00000000 -650.00000000 8 153 175 0.000000 0.000000 0.000000 0.000000 -60.708740 0.000000 125.000000 0.882828 -0.079246 0.462963
8930.00000000 -9660.00000000 -690.00000000 8 153 175 0.000000 0.000000 0.000000 0.000000 -60.708740 0.000000 125.000000 0.986747 -0.100931 -0.127054
8940.00000000 -9680.00000000 -650.00000000 8 153 175 0.000000 0.000000 0.000000 0.000000 -60.708740 0.000000 125.000000 0.952082 0.134115 0.274869
8960.00000000 -9680.00000000 -650.00000000 8 153 175 0.000000 0.000000 0.000000 0.000000 -60.708740 0.000000 125.000000 0.966893 -0.015692 0.254700
8960.00000000 -9680.00000000 -680.00000000 8 153 175 0.000000 0.000000 0.000000 0.000000 -60.708740 0.000000 125.000000 0.975050 -0.203908 -0.087742
8850.00000000 -9480.00000000 -410.00000000 8 153 175 0.000000 0.000000 0.000000 0.000000 -60.708740 0.000000 125.000000 0.570727 0.516853 0.638070
8850.00000000 -9500.00000000 -400.00000000 8 153 175 0.000000 0.000000 0.000000 0.000000 -60.708740 0.000000 125.000000 0.538247 0.544997 0.642860
8850.00000000 -9500.00000000 -410.00000000 8 153 175 0.000000 0.000000 0.000000 0.000000 -60.708740 0.000000 125.000000 0.641437 0.493283 0.587563
8850.00000000 -9530.00000000 -440.00000000 8 153 175 0.000000 0.000000 0.000000 0.000000 -60.708740 0.000000 125.000000 0.594130 0.761179 0.260030
8850.00000000 -9540.00000000 -420.00000000 8 153 175 0.000000 0.000000 0.000000 0.000000 -60.708740 0.000000 125.000000 0.753514 0.481001 0.448168
8910.00000000 -9490.00000000 -490.00000000 8 153 175 0.000000 0.000000 0.000000 0.000000 -60.708740 0.000000 125.000000 0.638073 0.377568 0.671048
8870.00000000 -9480.00000000 -460.00000000 8 153 175 0.000000 0.000000 0.000000 0.000000 -60.708740 0.000000 125.000000 0.541893 0.602667 0.585785
8870.00000000 -9480.00000000 -460.00000000 8 153 175 0.000000 0.000000 0.000000 0.000000 -60.708740 0.000000 125.000000 0.541893 0.602667 0.585785
8880.00000000 -9610.00000000 -380.00000000 8 153 175 0.000000 0.000000 0.000000 0.000000 -60.708740 0.000000 125.000000 0.876477 0.460620 0.140063
8840.00000000 -9570.00000000 -360.00000000 8 153 175 0.000000 0.000000 0.000000 0.000000 -60.708740 0.000000 125.000000 0.422947 0.745507 0.515107
8850.00000000 -9560.00000000 -370.00000000 8 153 175 0.000000 0.000000 0.000000 0.000000 -60.708740 0.000000 125.000000 0.619299 0.632726 0.464894
8860.00000000 -9560.00000000 -380.00000000 8 153 175 0.000000 0.000000 0.000000 0.000000 -60.708740 0.000000 125.000000 0.607193 0.542922 0.580131
8850.00000000 -9620.00000000 -510.00000000 8 153 175 0.000000 0.000000 0.000000 0.000000 -60.708740 0.000000 125.000000 0.762442 0.178769 0.621871
8820.00000000 -9480.00000000 -420.00000000 8 153 175 0.000000 0.000000 0.000000 0.000000 -60.708740 0.000000 125.000000 0.296990 0.551100 0.779798
8820.00000000 -9490.00000000 -400.00000000 8 153 175 0.000000 0.000000 0.000000 0.000000 -60.708740 0.000000 125.000000 0.405539 0.587617 0.700175
8800.00000000 -9530.00000000 -390.00000000 8 153 175 0.000000 0.000000 0.000000 0.000000 -60.708740 0.000000 125.000000 0.167647 0.974369 0.150000
8800.00000000 -9530.00000000 -390.00000000 8 153 175 0.000000 0.000000 0.000000 0.000000 -60.708740 0.000000 125.000000 0.167647 0.974369 0.150000
8820.00000000 -9520.00000000 -440.00000000 8 153 175 0.000000 0.000000 0.000000 0.000000 -60.708740 0.000000 125.000000 0.471455 0.868471 0.153260
8790.00000000 -9520.00000000 -360.00000000 8 153 175 0.000000 0.000000 0.000000 0.000000 -60.708740 0.000000 125.000000 0.144251 0.864051 0.482295
8820.00000000 -9480.00000000 -490.00000000 8 153 175 0.000000 0.000000 0.000000 0.000000 -60.708740 0.000000 125.000000 0.117764 0.886780 0.446937
8820.00000000 -9490.00000000 -490.00000000 8 153 175 0.000000 0.000000 0.000000 0.000000 -60.708740 0.000000 125.000000 0.215240 0.877288 0.428995
8820.00000000 -9480.00000000 -490.00000000 8 153 175 0.000000 0.000000 0.000000 0.000000 -60.708740 0.000000 125.000000 0.117764 0.886780 0.446937
8810.00000000 -9530.00000000 -500.00000000 8 153 175 0.000000 0.000000 0.000000 0.000000 -60.708740 0.000000 125.000000 0.262413 0.893983 0.363227
8800.00000000 -9520.00000000 -500.00000000 8 153 175 0.000000 0.000000 0.000000 0.000000 -60.708740 0.000000 125.000000 0.015335 0.690096 0.723555
8770.00000000 -9500.00000000 -460.00000000 8 153 175 0.000000 0.000000 0.000000 0.000000 -60.708740 0.000000 125.000000 0.203176 0.662262 0.721199
8770.00000000 -9510.00000000 -470.00000000 8 153 175 0.000000 0.000000 0.000000 0.000000 -60.708740 0.000000 125.000000 0.283723 0.678049 0.678049
8800.00000000 -9570.00000000 -370.00000000 8 153 175 0.000000 0.000000 0.000000 0.000000 -60.708740 0.000000 125.000000 0.215535 0.895865 0.388550
8800.00000000 -9560.00000000 -380.00000000 8 153 175 0.000000 0.000000 0.000000 0.000000 -60.708740 0.000000 125.000000 0.517082 0.694463 0.500348
8830.00000000 -9570.00000000 -400.00000000 8 153 175 0.000000 0.000000 0.000000 0.000000 -60.708740 0.000000 125.000000 0.276063 0.864793 0.419432
8800.00000000 -9610.00000000 -430.00000000 8 153 175 0.000000 0.000000 0.000000 0.000000 -60.708740 0.000000 125.000000 0.607414 0.499729 0.617510
8790.00000000 -9570.00000000 -370.00000000 8 153 175 0.000000 0.000000 0.000000 0.000000 -60.708740 0.000000 125.000000 0.200087 0.892357 0.404555
8790.00000000 -9570.00000000 -360.00000000 8 153 175 0.000000 0.000000 0.000000 0.000000 -60.708740 0.000000 125.000000 0.197965 0.835684 0.512291
8760.00000000 -9630.00000000 -520.00000000 8 153 175 0.000000 0.000000 0.000000 0.000000 -60.708740 0.000000 125.000000 0.205568 0.896624 0.392182
8840.00000000 -9500.00000000 -560.00000000 8 153 175 0.000000 0.000000 0.000000 0.000000 -60.708740 0.000000 125.000000 0.253683 0.914709 0.314567
8850.00000000 -9500.00000000 -560.00000000 8 153 175 0.000000 0.000000 0.000000 0.000000 -60.708740 0.000000 125.000000 0.307769 0.835820 0.454624
8920.00000000 -9480.00000000 -630.00000000 8 153 175 0.000000 0.000000 0.000000 0.000000 -60.708740 0.000000 125.000000 0.640810 0.427762 0.637481
8910.00000000 -9530.00000000 -660.00000000 8 153 175 0.000000 0.000000 0.000000 0.000000 -60.708740 0.000000 125.000000 0.882287 0.262140 0.390963
8850.00000000 -9550.00000000 -690.00000000 8 153 175 0.000000 0.000000 0.000000 0.000000 -60.708740 0.000000 125.000000 0.745927 0.429772 0.508811
8880.00000000 -9570.00000000 -530.00000000 8 153 175 0.000000 0.000000 0.000000 0.000000 -60.708740 0.000000 125.000000 0.661766 0.477477 0.577998
8910.00000000 -9610.00000000 -560.00000000 8 153 175 0.000000 0.000000 0.000000 0.000000 -60.708740 0.000000 125.000000 0.885075 0.443255 0.142014
8860.00000000 -9570.00000000 -580.00000000 8 153 175 0.000000 0.000000 0.000000 0.000000 -60.708740 0.000000 125.000000 0.512826 0.718620 0.469675
8850.00000000 -9560.00000000 -600.00000000 8 153 175 0.000000 0.000000 0.000000 0.000000 -60.708740 0.000000 125.000000 0.800594 0.417211 0.430098
8850.00000000 -9580.00000000 -590.00000000 8 153 175 0.000000 0.000000 0.000000 0.000000 -60.708740 0.000000 125.000000 0.365759 0.634748 0.680673
8850.00000000 -9630.00000000 -560.00000000 8 153 175 0.000000 0.000000 0.000000 0.000000 -60.708740 0.000000 125.000000 0.644803 0.683981 0.341174
8860.00000000 -9630.00000000 -570.00000000 8 153 175 0.000000 0.000000 0.000000 0.000000 -60.708740 0.000000 125.000000 0.706994 0.666054 0.237764
8860.00000000 -9610.00000000 -580.00000000 8 153 175 0.000000 0.000000 0.000000 0.000000 -60.708740 0.000000 125.000000 0.721551 0.317999 0.615013
8880.00000000 -9580.00000000 -680.00000000 8 153 175 0.000000 0.000000 0.000000 0.000000 -60.708740 0.000000 125.000000 0.817851 0.529378 0.225561
8880.00000000 -9620.00000000 -650.00000000 8 153 175 0.000000 0.000000 0.000000 0.000000 -60.708740 0.000000 125.000000 0.717270 0.551619 0.425724
8890.00000000 -9620.00000000 -640.00000000 8 153 175 0.000000 0.000000 0.000000 0.000000 -60.708740 0.000000 125.000000 0.949774 0.079256 0.302732
8890.00000000 -9630.00000000 -660.00000000 8 153 175 0.000000 0.000000 0.000000 0.000000 -60.708740 0.000000 125.000000 0.814115 0.307065 0.492878
8880.00000000 -9620.00000000 -660.00000000 8 153 175 0.000000 0.000000 0.000000 0.000000 -60.708740 0.000000 125.000000 0.720002 0.503835 0.477230
8880.00000000 -9610.00000000 -660.00000000 8 153 175 0.000000 0.000000 0.000000 0.000000 -60.708740 0.000000 125.000000 0.651948 0.591614 0.474296
8870.00000000 -9590.00000000 -630.00000000 8 153 175 0.000000 0.000000 0.000000 0.000000 -60.708740 0.000000 125.000000 0.810268 0.153697 0.565546
8870.00000000 -9570.00000000 -630.00000000 8 153 175 0.000000 0.000000 0.000000 0.000000 -60.708740 0.000000 125.000000 0.727627 0.230024 0.646258
8860.00000000 -9570.00000000 -690.00000000 8 153 175 0.000000 0.000000 0.000000 0.000000 -60.708740 0.000000 125.000000 0.815712 0.498229 0.293908
8870.00000000 -9590.00000000 -670.00000000 8 153 175 0.000000 0.000000 0.000000 0.000000 -60.708740 0.000000 125.000000 0.467283 0.648167 0.601271
8870.00000000 -9590.00000000 -670.00000000 8 153 175 0.000000 0.000000 0.000000 0.000000 -60.708740 0.000000 125.000000 0.467283 0.648167 0.601271
8850.00000000 -9630.00000000 -630.00000000 8 153 175 0.000000 0.000000 0.000000 0.000000 -60.708740 0.000000 125.000000 0.903284 0.104386 0.416151
8840.00000000 -9630.00000000 -610.00000000 8 153 175 0.000000 0.000000 0.000000 0.000000 -60.708740 0.000000 125.000000 0.805196 0.190264 0.561658
8870.00000000 -9600.00000000 -650.00000000 8 153 175 0.000000 0.000000 0.000000 0.000000 -60.708740 0.000000 125.000000 0.899060 0.423663 0.110460
8840.00000000 -9620.00000000 -640.00000000 8 153 175 0.000000 0.000000 0.000000 0.000000 -60.708740 0.000000 125.000000 0.670397 0.502378 0.546063
8860.00000000 -9610.00000000 -630.00000000 8 153 175 0.000000 0.000000 0.000000 0.000000 -60.708740 0.000000 125.000000 0.853089 0.244826 0.460759
8870.00000000 -9600.00000000 -640.00000000 8 153 175 0.000000 0.000000 0.000000 0.000000 -60.708740 0.000000 125.000000 0.811124 0.020727 0.584507
8840.00000000 -9620.00000000 -640.00000000 8 153 175 0.000000 0.000000 0.000000 0.000000 -60.708740 0.000000 125.000000 0.670397 0.502378 0.546063
8820.00000000 -9510.00000000 -530.00000000 8 153 175 0.000000 0.000000 0.000000 0.000000 -60.708740 0.000000 125.000000 0.543844 0.681060 0.490296
8780.00000000 -9510.00000000 -550.00000000 8 153 175 0.000000 0.000000 0.000000 0.000000 -60.708740 0.000000 125.000000 0.089573 0.967636 0.235917
8790.00000000 -9510.00000000 -560.00000000 8 153 175 0.000000 0.000000 0.000000 0.000000 -60.708740 0.000000 125.000000 0.233830 0.969081 0.078777
8790.00000000 -9510.00000000 -600.00000000 8 153 175 0.000000 0.000000 0.000000 0.000000 -60.708740 0.000000 125.000000 0.213492 0.962680 0.166341
8820.00000000 -9500.00000000 -610.00000000 8 153 175 0.000000 0.000000 0.000000 0.000000 -60.708740 0.000000 125.000000 0.486483 0.614416 0.621150
8830.00000000 -9500.00000000 -610.00000000 8 153 175 0.000000 0.000000 0.000000 0.000000 -60.708740 0.000000 125.000000 0.456534 0.843428 0.283206
8820.00000000 -9530.00000000 -690.00000000 8 153 175 0.000000 0.000000 0.000000 0.000000 -60.708740 0.000000 125.000000 0.009001 0.922009 0.387064
8830.00000000 -9530.00000000 -690.00000000 8 153 175 0.000000 0.000000 0.000000 0.000000 -60.708740 0.000000 125.000000 0.246786 0.746646 0.617751
8820.00000000 -9540.00000000 -660.00000000 8 153 175 0.000000 0.000000 0.000000 0.000000 -60.708740 0.000000 125.000000 0.428503 0.658594 0.618578
8820.00000000 -9540.00000000 -660.00000000 8 153 175 0.000000 0.000000 0.000000 0.000000 -60.708740 0.000000 125.000000 0.428503 0.658594 0.618578
8770.00000000 -9500.00000000 -610.00000000 8 153 175 0.000000 0.000000 0.000000 0.000000 -60.708740 0.000000 125.000000 0.192535 0.928947 0.316207
8820.00000000 -9590.00000000 -560.00000000 8 153 175 0.000000 0.000000 0.000000 0.000000 -60.708740 0.000000 125.000000 0.576061 0.459179 0.676246
8790.00000000 -9570.00000000 -600.00000000 8 153 175 0.000000 0.000000 0.000000 0.000000 -60.708740 0.000000 125.000000 0.334794 0.869853 0.362311
8760.00000000 -9590.00000000 -600.00000000 8 153 175 0.000000 0.000000 0.000000 0.000000 -60.708740 0.000000 125.000000 0.061708 0.744796 0.664433
8830.00000000 -9590.00000000 -630.00000000 8 153 175 0.000000 0.000000 0.000000 0.000000 -60.708740 0.000000 125.000000 0.723348 0.428712 0.541270
8820.00000000 -9560.00000000 -620.00000000 8 153 175 0.000000 0.000000 0.000000 0.000000 -60.708740 0.000000 125.000000 0.441316 0.735527 0.514043
8800.00000000 -9580.00000000 -670.00000000 8 153 175 0.000000 0.000000 0.000000 0.000000 -60.708740 0.000000 125.000000 0.095314 0.857827 0.505023
8810.00000000 -9630.00000000 -680.00000000 8 153 175 0.000000 0.000000 0.000000 0.000000 -60.708740 0.000000 125.000000 0.821282 0.436852 0.366956
8810.00000000 -9630.00000000 -690.00000000 8 153 175 0.000000 0.000000 0.000000 0.000000 -60.708740 0.000000 125.000000 0.722689 0.636920 0.268427
8780.00000000 -9560.00000000 -640.00000000 8 153 175 0.000000 0.000000 0.000000 0.000000 -60.708740 0.000000 125.000000 0.155233 0.935522 0.317336
8770.00000000 -9580.00000000 -660.00000000 8 153 175 0.000000 0.000000 0.000000 0.000000 -60.708740 0.000000 125.000000 0.041216 0.692150 0.720575
8770.00000000 -9630.00000000 -650.00000000 8 153 175 0.000000 0.000000 0.000000 0.000000 -60.708740 0.000000 125.000000 0.374668 0.792753 0.480797
8780.00000000 -9630.00000000 -650.00000000 8 153 175 0.000000 0.000000 0.000000 0.000000 -60.708740 0.000000 125.000000 0.137198 0.900981 0.411594
8760.00000000 -9620.00000000 -620.00000000 8 153 175 0.000000 0.000000 0.000000 0.000000 -60.708740 0.000000 125.000000 0.322555 0.902859 0.284261
8770.00000000 -9630.00000000 -650.00000000 8 153 175 0.000000 0.000000 0.000000 0.000000 -60.708740 0.000000 125.000000 0.374668 0.792753 0.480797
8910.00000000 -9690.00000000 -500.00000000 8 153 175 0.000000 0.000000 0.000000 0.000000 -60.708740 0.000000 125.000000 0.959667 -0.091213 0.265932
8800.00000000 -9690.00000000 -370.00000000 8 153 175 0.000000 0.000000 0.000000 0.000000 -60.708740 0.000000 125.000000 0.771516 0.245696 0.586853
8820.00000000 -9710.00000000 -440.00000000 8 153 175 0.000000 0.000000 0.000000 0.000000 -60.708740 0.000000 125.000000 0.971021 0.162477 0.175270
8770.00000000 -9640.00000000 -430.00000000 8 153 175 0.000000 0.000000 0.000000 0.000000 -60.708740 0.000000 125.000000 0.220439 0.670697 0.708218
8770.00000000 -9690.00000000 -440.00000000 8 153 175 0.000000 0.000000 0.000000 0.000000 -60.708740 0.000000 125.000000 0.583380 0.774191 0.245552
8770.00000000 -9700.00000000 -400.00000000 8 153 175 0.000000 0.000000 0.000000 0.000000 -60.708740 0.000000 125.000000 0.426001 0.772024 0.471702
8780.00000000 -9710.00000000 -400.00000000 8 153 175 0.000000 0.000000 0.000000 0.000000 -60.708740 0.000000 125.000000 0.651465 0.365936 0.664593
8780.00000000 -9700.00000000 -420.00000000 8 153 175 0.000000 0.000000 0.000000 0.000000 -60.708740 0.000000 125.000000 0.505009 0.711679 0.488342
8770.00000000 -9700.00000000 -400.00000000 8 153 175 0.000000 0.000000 0.000000 0.000000 -60.708740 0.000000 125.000000 0.426001 0.772024 0.471702
8790.00000000 -9700.00000000 -410.00000000 8 153 175 0.000000 0.000000 0.000000 0.000000 -60.708740 0.000000 125.000000 0.855224 0.377168 0.355438
8820.00000000 -9660.00000000 -470.00000000 8 153 175 0.000000 0.000000 0.000000 0.000000 -60.708740 0.000000 125.000000 0.441534 0.831216 0.337829
8830.00000000 -9670.00000000 -500.00000000 8 153 175 0.000000 0.000000 0.000000 0.000000 -60.708740 0.000000 125.000000 0.934793 0.213787 0.283652
