//X Y Z R G B PointSourceId ScanDirectionFlag NumberOfReturns ReturnNumber GpsTime Intensity Classification Nx Ny Nz
-16570.00000000 6710.00000000 -890.00000000 59 25 213 0.000000 0.000000 0.000000 0.000000 -60.708740 0.000000 89.000000 0.953355 -0.153337 -0.260006
-16530.00000000 6720.00000000 -970.00000000 59 25 213 0.000000 0.000000 0.000000 0.000000 -60.708740 0.000000 89.000000 0.919025 0.374520 -0.122997
-16550.00000000 6720.00000000 -980.00000000 59 25 213 0.000000 0.000000 0.000000 0.000000 -60.708740 0.000000 89.000000 0.852529 0.488226 0.186631
-16550.00000000 6730.00000000 -980.00000000 59 25 213 0.000000 0.000000 0.000000 0.000000 -60.708740 0.000000 89.000000 0.960965 0.196952 -0.194308
-16550.00000000 6710.00000000 -980.00000000 59 25 213 0.000000 0.000000 0.000000 0.000000 -60.708740 0.000000 89.000000 0.821210 0.570625 0.001362
-16550.00000000 6740.00000000 -980.00000000 59 25 213 0.000000 0.000000 0.000000 0.000000 -60.708740 0.000000 89.000000 0.759415 0.566752 -0.319500
-16540.00000000 6710.00000000 -980.00000000 59 25 213 0.000000 0.000000 0.000000 0.000000 -60.708740 0.000000 89.000000 0.782458 0.621156 0.043863
-16550.00000000 6730.00000000 -990.00000000 59 25 213 0.000000 0.000000 0.000000 0.000000 -60.708740 0.000000 89.000000 0.688018 0.717610 0.108011
-16550.00000000 6730.00000000 -1020.00000000 59 25 213 0.000000 0.000000 0.000000 0.000000 -60.708740 0.000000 89.000000 0.810292 0.550877 0.199903
-16580.00000000 6740.00000000 -980.00000000 59 25 213 0.000000 0.000000 0.000000 0.000000 -60.708740 0.000000 89.000000 0.625566 0.778766 -0.046811
-16580.00000000 6740.00000000 -1030.00000000 59 25 213 0.000000 0.000000 0.000000 0.000000 -60.708740 0.000000 89.000000 0.568941 0.807867 -0.153808
-16610.00000000 6760.00000000 -930.00000000 59 25 213 0.000000 0.000000 0.000000 0.000000 -60.708740 0.000000 89.000000 0.266016 0.879204 -0.395266
-16600.00000000 6750.00000000 -940.00000000 59 25 213 0.000000 0.000000 0.000000 0.000000 -60.708740 0.000000 89.000000 0.499434 0.864670 -0.053955
-16670.00000000 6750.00000000 -930.00000000 59 25 213 0.000000 0.000000 0.000000 0.000000 -60.708740 0.000000 89.000000 0.851449 -0.476388 0.219290
-16670.00000000 6730.00000000 -900.00000000 59 25 213 0.000000 0.000000 0.000000 0.000000 -60.708740 0.000000 89.000000 0.760720 -0.648643 -0.023816
-16670.00000000 6740.00000000 -940.00000000 59 25 213 0.000000 0.000000 0.000000 0.000000 -60.708740 0.000000 89.000000 -0.661065 0.728552 -0.179454
-16670.00000000 6740.00000000 -930.00000000 59 25 213 0.000000 0.000000 0.000000 0.000000 -60.708740 0.000000 89.000000 0.721048 -0.689258 0.070804
-16650.00000000 6760.00000000 -970.00000000 59 25 213 0.000000 0.000000 0.000000 0.000000 -60.708740 0.000000 89.000000 -0.064996 0.880908 -0.468803
-16670.00000000 6730.00000000 -990.00000000 59 25 213 0.000000 0.000000 0.000000 0.000000 -60.708740 0.000000 89.000000 -0.656562 0.752990 -0.043960
-16660.00000000 6740.00000000 -1000.00000000 59 25 213 0.000000 0.000000 0.000000 0.000000 -60.708740 0.000000 89.000000 -0.592854 0.797791 0.109788
-16730.00000000 6710.00000000 -790.00000000 59 25 213 0.000000 0.000000 0.000000 0.000000 -60.708740 0.000000 89.000000 0.867774 0.278113 0.411851
-16820.00000000 6720.00000000 -860.00000000 59 25 213 0.000000 0.000000 0.000000 0.000000 -60.708740 0.000000 89.000000 0.959734 -0.129270 0.249400
-16740.00000000 6710.00000000 -910.00000000 59 25 213 0.000000 0.000000 0.000000 0.000000 -60.708740 0.000000 89.000000 0.993398 -0.038935 0.107906
-16720.00000000 6720.00000000 -1020.00000000 59 25 213 0.000000 0.000000 0.000000 0.000000 -60.708740 0.000000 89.000000 0.928902 -0.360569 -0.084446
-16690.00000000 6750.00000000 -1030.00000000 59 25 213 0.000000 0.000000 0.000000 0.000000 -60.708740 0.000000 89.000000 -0.493283 0.641437 -0.587563
-16730.00000000 6730.00000000 -1000.00000000 59 25 213 0.000000 0.000000 0.000000 0.000000 -60.708740 0.000000 89.000000 0.939261 -0.108531 0.325592
-16800.00000000 6720.00000000 -880.00000000 59 25 213 0.000000 0.000000 0.000000 0.000000 -60.708740 0.000000 89.000000 0.997816 -0.015772 -0.064138
-16590.00000000 6810.00000000 -1080.00000000 59 25 213 0.000000 0.000000 0.000000 0.000000 -60.708740 0.000000 89.000000 0.417695 0.833814 -0.360951
-16540.00000000 6840.00000000 -1160.00000000 59 25 213 0.000000 0.000000 0.000000 0.000000 -60.708740 0.000000 89.000000 0.459343 0.689850 -0.559563
-16520.00000000 6750.00000000 -1110.00000000 59 25 213 0.000000 0.000000 0.000000 0.000000 -60.708740 0.000000 89.000000 0.685571 0.623097 -0.376488
-16530.00000000 6710.00000000 -1050.00000000 59 25 213 0.000000 0.000000 0.000000 0.000000 -60.708740 0.000000 89.000000 0.919144 0.272713 0.284256
-16570.00000000 6750.00000000 -1060.00000000 59 25 213 0.000000 0.000000 0.000000 0.000000 -60.708740 0.000000 89.000000 0.153990 0.890837 -0.427429
-16560.00000000 6750.00000000 -1050.00000000 59 25 213 0.000000 0.000000 0.000000 0.000000 -60.708740 0.000000 89.000000 0.705835 0.621069 -0.340691
-16560.00000000 6750.00000000 -1060.00000000 59 25 213 0.000000 0.000000 0.000000 0.000000 -60.708740 0.000000 89.000000 0.507733 0.750919 -0.422289
-16590.00000000 6780.00000000 -1110.00000000 59 25 213 0.000000 0.000000 0.000000 0.000000 -60.708740 0.000000 89.000000 0.196602 0.803172 -0.562373
-16560.00000000 6770.00000000 -1100.00000000 59 25 213 0.000000 0.000000 0.000000 0.000000 -60.708740 0.000000 89.000000 0.545056 0.809140 -0.219558
-16540.00000000 6760.00000000 -1180.00000000 59 25 213 0.000000 0.000000 0.000000 0.000000 -60.708740 0.000000 89.000000 0.702488 0.696445 -0.146541
-16540.00000000 6760.00000000 -1190.00000000 59 25 213 0.000000 0.000000 0.000000 0.000000 -60.708740 0.000000 89.000000 0.668016 0.740469 -0.073902
-16530.00000000 6740.00000000 -1180.00000000 59 25 213 0.000000 0.000000 0.000000 0.000000 -60.708740 0.000000 89.000000 0.614229 0.708726 -0.347031
-16610.00000000 6770.00000000 -1070.00000000 59 25 213 0.000000 0.000000 0.000000 0.000000 -60.708740 0.000000 89.000000 0.146772 0.867554 -0.475193
-16620.00000000 6780.00000000 -1100.00000000 59 25 213 0.000000 0.000000 0.000000 0.000000 -60.708740 0.000000 89.000000 -0.068751 0.854472 -0.514928
-16660.00000000 6740.00000000 -1050.00000000 59 25 213 0.000000 0.000000 0.000000 0.000000 -60.708740 0.000000 89.000000 -0.640586 0.758940 0.116874
-16680.00000000 6770.00000000 -1120.00000000 59 25 213 0.000000 0.000000 0.000000 0.000000 -60.708740 0.000000 89.000000 -0.615036 0.763014 -0.198846
-16630.00000000 6770.00000000 -1140.00000000 59 25 213 0.000000 0.000000 0.000000 0.000000 -60.708740 0.000000 89.000000 0.131478 0.868335 -0.478234
-16580.00000000 6790.00000000 -1260.00000000 59 25 213 0.000000 0.000000 0.000000 0.000000 -60.708740 0.000000 89.000000 0.235835 0.773103 -0.588807
-16520.00000000 6760.00000000 -1260.00000000 59 25 213 0.000000 0.000000 0.000000 0.000000 -60.708740 0.000000 89.000000 0.376118 0.782907 -0.495572
-16520.00000000 6760.00000000 -1260.00000000 59 25 213 0.000000 0.000000 0.000000 0.000000 -60.708740 0.000000 89.000000 0.376118 0.782907 -0.495572
-16530.00000000 6770.00000000 -1280.00000000 59 25 213 0.000000 0.000000 0.000000 0.000000 -60.708740 0.000000 89.000000 0.008989 0.923305 -0.383961
-16560.00000000 6780.00000000 -1260.00000000 59 25 213 0.000000 0.000000 0.000000 0.000000 -60.708740 0.000000 89.000000 0.239542 0.866268 -0.438407
-16560.00000000 6760.00000000 -1260.00000000 59 25 213 0.000000 0.000000 0.000000 0.000000 -60.708740 0.000000 89.000000 0.502356 0.822744 -0.265953
-16530.00000000 6760.00000000 -1300.00000000 59 25 213 0.000000 0.000000 0.000000 0.000000 -60.708740 0.000000 89.000000 0.180467 0.878860 -0.441631
-16610.00000000 6790.00000000 -1350.00000000 59 25 213 0.000000 0.000000 0.000000 0.000000 -60.708740 0.000000 89.000000 -0.009603 0.816283 -0.577572
-16640.00000000 6780.00000000 -1220.00000000 59 25 213 0.000000 0.000000 0.000000 0.000000 -60.708740 0.000000 89.000000 -0.581344 0.799535 -0.150940
-16600.00000000 6780.00000000 -1300.00000000 59 25 213 0.000000 0.000000 0.000000 0.000000 -60.708740 0.000000 89.000000 0.299486 0.895477 -0.329285
-16670.00000000 6770.00000000 -1310.00000000 59 25 213 0.000000 0.000000 0.000000 0.000000 -60.708740 0.000000 89.000000 -0.608494 0.753149 -0.250002
-16690.00000000 6760.00000000 -1070.00000000 59 25 213 0.000000 0.000000 0.000000 0.000000 -60.708740 0.000000 89.000000 0.765275 -0.416088 0.491147
-16690.00000000 6750.00000000 -1080.00000000 59 25 213 0.000000 0.000000 0.000000 0.000000 -60.708740 0.000000 89.000000 -0.571656 0.662182 -0.484483
-16750.00000000 6750.00000000 -1080.00000000 59 25 213 0.000000 0.000000 0.000000 0.000000 -60.708740 0.000000 89.000000 0.789152 -0.429415 0.439138
-16730.00000000 6770.00000000 -1090.00000000 59 25 213 0.000000 0.000000 0.000000 0.000000 -60.708740 0.000000 89.000000 -0.682683 0.525012 -0.508238
-16750.00000000 6750.00000000 -1100.00000000 59 25 213 0.000000 0.000000 0.000000 0.000000 -60.708740 0.000000 89.000000 -0.613672 0.617035 -0.492619
-16700.00000000 6760.00000000 -1130.00000000 59 25 213 0.000000 0.000000 0.000000 0.000000 -60.708740 0.000000 89.000000 -0.407063 0.780068 -0.475177
-16700.00000000 6770.00000000 -1120.00000000 59 25 213 0.000000 0.000000 0.000000 0.000000 -60.708740 0.000000 89.000000 -0.480779 0.710355 -0.514051
-16710.00000000 6720.00000000 -1140.00000000 59 25 213 0.000000 0.000000 0.000000 0.000000 -60.708740 0.000000 89.000000 -0.569408 0.686295 -0.452520
-16700.00000000 6720.00000000 -1140.00000000 59 25 213 0.000000 0.000000 0.000000 0.000000 -60.708740 0.000000 89.000000 -0.588786 0.609031 -0.531426
-16720.00000000 6740.00000000 -1180.00000000 59 25 213 0.000000 0.000000 0.000000 0.000000 -60.708740 0.000000 89.000000 0.875445 -0.461599 0.143255
-16710.00000000 6730.00000000 -1240.00000000 59 25 213 0.000000 0.000000 0.000000 0.000000 -60.708740 0.000000 89.000000 0.870022 -0.431254 0.238918
-16710.00000000 6720.00000000 -1250.00000000 59 25 213 0.000000 0.000000 0.000000 0.000000 -60.708740 0.000000 89.000000 0.897457 -0.413660 0.153155
-16750.00000000 6720.00000000 -1200.00000000 59 25 213 0.000000 0.000000 0.000000 0.000000 -60.708740 0.000000 89.000000 0.960182 -0.269055 -0.075233
-16700.00000000 6720.00000000 -1340.00000000 59 25 213 0.000000 0.000000 0.000000 0.000000 -60.708740 0.000000 89.000000 0.796119 -0.545865 0.261202
-16720.00000000 6710.00000000 -1330.00000000 59 25 213 0.000000 0.000000 0.000000 0.000000 -60.708740 0.000000 89.000000 0.910886 -0.257963 0.322089
-16520.00000000 6640.00000000 -750.00000000 59 25 213 0.000000 0.000000 0.000000 0.000000 -60.708740 0.000000 89.000000 -0.713354 0.564394 -0.415434
-16550.00000000 6630.00000000 -760.00000000 59 25 213 0.000000 0.000000 0.000000 0.000000 -60.708740 0.000000 89.000000 0.791719 -0.601472 0.106831
-16540.00000000 6690.00000000 -790.00000000 59 25 213 0.000000 0.000000 0.000000 0.000000 -60.708740 0.000000 89.000000 0.783315 -0.534441 0.317474
-16530.00000000 6680.00000000 -850.00000000 59 25 213 0.000000 0.000000 0.000000 0.000000 -60.708740 0.000000 89.000000 0.983215 0.019641 0.181392
-16530.00000000 6650.00000000 -780.00000000 59 25 213 0.000000 0.000000 0.000000 0.000000 -60.708740 0.000000 89.000000 0.827550 -0.466380 0.312490
-16530.00000000 6650.00000000 -780.00000000 59 25 213 0.000000 0.000000 0.000000 0.000000 -60.708740 0.000000 89.000000 0.827550 -0.466380 0.312490
-16540.00000000 6660.00000000 -850.00000000 59 25 213 0.000000 0.000000 0.000000 0.000000 -60.708740 0.000000 89.000000 0.945791 -0.215514 0.242968
-16560.00000000 6700.00000000 -850.00000000 59 25 213 0.000000 0.000000 0.000000 0.000000 -60.708740 0.000000 89.000000 0.897894 -0.218248 0.382301
-16560.00000000 6690.00000000 -840.00000000 59 25 213 0.000000 0.000000 0.000000 0.000000 -60.708740 0.000000 89.000000 0.940585 -0.128200 0.314428
-16550.00000000 6700.00000000 -900.00000000 59 25 213 0.000000 0.000000 0.000000 0.000000 -60.708740 0.000000 89.000000 0.998734 0.034511 -0.036603
-16550.00000000 6700.00000000 -910.00000000 59 25 213 0.000000 0.000000 0.000000 0.000000 -60.708740 0.000000 89.000000 0.915688 0.357446 0.183707
-16590.00000000 6700.00000000 -870.00000000 59 25 213 0.000000 0.000000 0.000000 0.000000 -60.708740 0.000000 89.000000 0.740466 -0.516182 0.430427
-16540.00000000 6550.00000000 -920.00000000 59 25 213 0.000000 0.000000 0.000000 0.000000 -60.708740 0.000000 89.000000 -0.673162 0.738352 -0.041098
-16530.00000000 6510.00000000 -790.00000000 59 25 213 0.000000 0.000000 0.000000 0.000000 -60.708740 0.000000 89.000000 0.630626 -0.663730 0.402210
-16530.00000000 6480.00000000 -780.00000000 59 25 213 0.000000 0.000000 0.000000 0.000000 -60.708740 0.000000 89.000000 -0.483732 0.755934 -0.441098
-16550.00000000 6410.00000000 -770.00000000 59 25 213 0.000000 0.000000 0.000000 0.000000 -60.708740 0.000000 89.000000 -0.136511 0.988244 0.068839
-16550.00000000 6380.00000000 -730.00000000 59 25 213 0.000000 0.000000 0.000000 0.000000 -60.708740 0.000000 89.000000 -0.043251 0.965105 -0.258267
-16560.00000000 6420.00000000 -770.00000000 59 25 213 0.000000 0.000000 0.000000 0.000000 -60.708740 0.000000 89.000000 -0.144060 0.894311 -0.423621
-16580.00000000 6410.00000000 -790.00000000 59 25 213 0.000000 0.000000 0.000000 0.000000 -60.708740 0.000000 89.000000 0.180593 0.960967 -0.209594
-16570.00000000 6410.00000000 -780.00000000 59 25 213 0.000000 0.000000 0.000000 0.000000 -60.708740 0.000000 89.000000 -0.231330 0.784038 -0.575996
-16560.00000000 6420.00000000 -860.00000000 59 25 213 0.000000 0.000000 0.000000 0.000000 -60.708740 0.000000 89.000000 -0.150162 0.983861 0.097305
-16570.00000000 6400.00000000 -830.00000000 59 25 213 0.000000 0.000000 0.000000 0.000000 -60.708740 0.000000 89.000000 0.053978 0.998070 0.030694
-16610.00000000 6400.00000000 -700.00000000 59 25 213 0.000000 0.000000 0.000000 0.000000 -60.708740 0.000000 89.000000 -0.171538 0.898053 -0.405061
-16660.00000000 6410.00000000 -750.00000000 59 25 213 0.000000 0.000000 0.000000 0.000000 -60.708740 0.000000 89.000000 0.135865 0.888127 -0.439058
-16660.00000000 6420.00000000 -810.00000000 59 25 213 0.000000 0.000000 0.000000 0.000000 -60.708740 0.000000 89.000000 0.015233 0.785217 -0.619033
-16550.00000000 6500.00000000 -880.00000000 59 25 213 0.000000 0.000000 0.000000 0.000000 -60.708740 0.000000 89.000000 -0.378981 0.922679 -0.070975
-16550.00000000 6460.00000000 -870.00000000 59 25 213 0.000000 0.000000 0.000000 0.000000 -60.708740 0.000000 89.000000 0.041972 0.977343 -0.207460
-16550.00000000 6460.00000000 -870.00000000 59 25 213 0.000000 0.000000 0.000000 0.000000 -60.708740 0.000000 89.000000 0.041972 0.977343 -0.207460
-16530.00000000 6480.00000000 -1020.00000000 59 25 213 0.000000 0.000000 0.000000 0.000000 -60.708740 0.000000 89.000000 -0.430583 0.831198 -0.351721
-16550.00000000 6430.00000000 -890.00000000 59 25 213 0.000000 0.000000 0.000000 0.000000 -60.708740 0.000000 89.000000 -0.048209 0.984178 -0.170497
-16530.00000000 6450.00000000 -870.00000000 59 25 213 0.000000 0.000000 0.000000 0.000000 -60.708740 0.000000 89.000000 0.541966 -0.695384 0.471927
-16590.00000000 6410.00000000 -900.00000000 59 25 213 0.000000 0.000000 0.000000 0.000000 -60.708740 0.000000 89.000000 -0.177618 0.793969 -0.581434
-16540.00000000 6450.00000000 -950.00000000 59 25 213 0.000000 0.000000 0.000000 0.000000 -60.708740 0.000000 89.000000 -0.229619 0.965941 -0.119300
-16530.00000000 6450.00000000 -1010.00000000 59 25 213 0.000000 0.000000 0.000000 0.000000 -60.708740 0.000000 89.000000 -0.426788 0.813615 -0.394819
-16570.00000000 6420.00000000 -980.00000000 59 25 213 0.000000 0.000000 0.000000 0.000000 -60.708740 0.000000 89.000000 -0.077142 0.865397 -0.495114
-16680.00000000 6470.00000000 -960.00000000 59 25 213 0.000000 0.000000 0.000000 0.000000 -60.708740 0.000000 89.000000 0.405886 0.910869 0.074661
-16660.00000000 6480.00000000 -1000.00000000 59 25 213 0.000000 0.000000 0.000000 0.000000 -60.708740 0.000000 89.000000 0.379014 0.901791 -0.207659
-16620.00000000 6420.00000000 -930.00000000 59 25 213 0.000000 0.000000 0.000000 0.000000 -60.708740 0.000000 89.000000 0.370174 0.917753 -0.143879
-16670.00000000 6440.00000000 -890.00000000 59 25 213 0.000000 0.000000 0.000000 0.000000 -60.708740 0.000000 89.000000 0.007047 0.999707 -0.023155
-16670.00000000 6440.00000000 -890.00000000 59 25 213 0.000000 0.000000 0.000000 0.000000 -60.708740 0.000000 89.000000 0.007047 0.999707 -0.023155
-16600.00000000 6450.00000000 -960.00000000 59 25 213 0.000000 0.000000 0.000000 0.000000 -60.708740 0.000000 89.000000 0.357159 0.926425 -0.119053
-16620.00000000 6450.00000000 -1010.00000000 59 25 213 0.000000 0.000000 0.000000 0.000000 -60.708740 0.000000 89.000000 0.009470 0.853611 -0.520825
-16630.00000000 6440.00000000 -1010.00000000 59 25 213 0.000000 0.000000 0.000000 0.000000 -60.708740 0.000000 89.000000 0.069654 0.900036 -0.430214
-16650.00000000 6440.00000000 -1020.00000000 59 25 213 0.000000 0.000000 0.000000 0.000000 -60.708740 0.000000 89.000000 0.547671 0.755688 -0.359155
-16740.00000000 6700.00000000 -700.00000000 59 25 213 0.000000 0.000000 0.000000 0.000000 -60.708740 0.000000 89.000000 0.783676 0.621156 -0.004132
-16750.00000000 6650.00000000 -810.00000000 59 25 213 0.000000 0.000000 0.000000 0.000000 -60.708740 0.000000 89.000000 0.725872 0.527456 -0.441476
-16750.00000000 6650.00000000 -810.00000000 59 25 213 0.000000 0.000000 0.000000 0.000000 -60.708740 0.000000 89.000000 0.725872 0.527456 -0.441476
-16760.00000000 6610.00000000 -780.00000000 59 25 213 0.000000 0.000000 0.000000 0.000000 -60.708740 0.000000 89.000000 0.823734 0.566231 0.029073
-16790.00000000 6550.00000000 -800.00000000 59 25 213 0.000000 0.000000 0.000000 0.000000 -60.708740 0.000000 89.000000 0.884236 0.464599 -0.047686
-16790.00000000 6560.00000000 -790.00000000 59 25 213 0.000000 0.000000 0.000000 0.000000 -60.708740 0.000000 89.000000 0.482026 0.791554 -0.375625
-16790.00000000 6550.00000000 -800.00000000 59 25 213 0.000000 0.000000 0.000000 0.000000 -60.708740 0.000000 89.000000 0.884236 0.464599 -0.047686
-16780.00000000 6560.00000000 -840.00000000 59 25 213 0.000000 0.000000 0.000000 0.000000 -60.708740 0.000000 89.000000 0.766887 0.601999 0.222444
-16830.00000000 6550.00000000 -780.00000000 59 25 213 0.000000 0.000000 0.000000 0.000000 -60.708740 0.000000 89.000000 0.715605 0.631984 -0.297499
-16750.00000000 6680.00000000 -940.00000000 59 25 213 0.000000 0.000000 0.000000 0.000000 -60.708740 0.000000 89.000000 0.954276 0.268680 0.131031
-16740.00000000 6690.00000000 -1020.00000000 59 25 213 0.000000 0.000000 0.000000 0.000000 -60.708740 0.000000 89.000000 0.952019 0.228214 0.203908
-16760.00000000 6620.00000000 -1030.00000000 59 25 213 0.000000 0.000000 0.000000 0.000000 -60.708740 0.000000 89.000000 0.993394 -0.048158 0.104155
-16770.00000000 6630.00000000 -1030.00000000 59 25 213 0.000000 0.000000 0.000000 0.000000 -60.708740 0.000000 89.000000 0.987451 0.100519 0.121805
-16770.00000000 6630.00000000 -1000.00000000 59 25 213 0.000000 0.000000 0.000000 0.000000 -60.708740 0.000000 89.000000 0.972365 0.008291 -0.233320
-16780.00000000 6630.00000000 -1020.00000000 59 25 213 0.000000 0.000000 0.000000 0.000000 -60.708740 0.000000 89.000000 0.994276 0.049992 0.094428
-16800.00000000 6600.00000000 -900.00000000 59 25 213 0.000000 0.000000 0.000000 0.000000 -60.708740 0.000000 89.000000 0.745764 0.661775 -0.076749
-16780.00000000 6540.00000000 -890.00000000 59 25 213 0.000000 0.000000 0.000000 0.000000 -60.708740 0.000000 89.000000 0.654360 0.752586 0.073670
-16790.00000000 6540.00000000 -890.00000000 59 25 213 0.000000 0.000000 0.000000 0.000000 -60.708740 0.000000 89.000000 0.587388 0.774355 -0.235267
-16790.00000000 6540.00000000 -900.00000000 59 25 213 0.000000 0.000000 0.000000 0.000000 -60.708740 0.000000 89.000000 0.516145 0.852700 0.080603
-16820.00000000 6560.00000000 -880.00000000 59 25 213 0.000000 0.000000 0.000000 0.000000 -60.708740 0.000000 89.000000 0.767961 0.623687 0.145777
-16800.00000000 6610.00000000 -960.00000000 59 25 213 0.000000 0.000000 0.000000 0.000000 -60.708740 0.000000 89.000000 0.935917 0.348522 -0.050908
-16790.00000000 6610.00000000 -980.00000000 59 25 213 0.000000 0.000000 0.000000 0.000000 -60.708740 0.000000 89.000000 0.903324 0.423731 -0.066762
-16780.00000000 6580.00000000 -1010.00000000 59 25 213 0.000000 0.000000 0.000000 0.000000 -60.708740 0.000000 89.000000 0.922784 0.381063 0.057093
-16770.00000000 6610.00000000 -1030.00000000 59 25 213 0.000000 0.000000 0.000000 0.000000 -60.708740 0.000000 89.000000 0.941644 0.116866 0.315672
-16780.00000000 6570.00000000 -950.00000000 59 25 213 0.000000 0.000000 0.000000 0.000000 -60.708740 0.000000 89.000000 0.969338 0.243851 -0.030330
-16790.00000000 6560.00000000 -970.00000000 59 25 213 0.000000 0.000000 0.000000 0.000000 -60.708740 0.000000 89.000000 0.865440 0.471658 -0.168974
-16840.00000000 6570.00000000 -950.00000000 59 25 213 0.000000 0.000000 0.000000 0.000000 -60.708740 0.000000 89.000000 0.961173 0.129113 -0.243880
-16740.00000000 6460.00000000 -710.00000000 59 25 213 0.000000 0.000000 0.000000 0.000000 -60.708740 0.000000 89.000000 0.528006 0.803760 -0.274187
-16760.00000000 6490.00000000 -750.00000000 59 25 213 0.000000 0.000000 0.000000 0.000000 -60.708740 0.000000 89.000000 0.637892 0.755517 0.149294
-16750.00000000 6490.00000000 -760.00000000 59 25 213 0.000000 0.000000 0.000000 0.000000 -60.708740 0.000000 89.000000 0.708750 0.674631 -0.206267
-16720.00000000 6460.00000000 -790.00000000 59 25 213 0.000000 0.000000 0.000000 0.000000 -60.708740 0.000000 89.000000 0.452744 0.884199 0.114960
-16720.00000000 6490.00000000 -860.00000000 59 25 213 0.000000 0.000000 0.000000 0.000000 -60.708740 0.000000 89.000000 0.366354 0.909420 0.196825
-16760.00000000 6500.00000000 -860.00000000 59 25 213 0.000000 0.000000 0.000000 0.000000 -60.708740 0.000000 89.000000 0.420458 0.907304 0.003905
-16740.00000000 6500.00000000 -860.00000000 59 25 213 0.000000 0.000000 0.000000 0.000000 -60.708740 0.000000 89.000000 0.628406 0.768051 -0.123304
-16740.00000000 6480.00000000 -780.00000000 59 25 213 0.000000 0.000000 0.000000 0.000000 -60.708740 0.000000 89.000000 0.609841 0.792378 -0.015211
-16730.00000000 6470.00000000 -830.00000000 59 25 213 0.000000 0.000000 0.000000 0.000000 -60.708740 0.000000 89.000000 0.305649 0.941400 -0.142636
-16730.00000000 6460.00000000 -840.00000000 59 25 213 0.000000 0.000000 0.000000 0.000000 -60.708740 0.000000 89.000000 0.677166 0.708158 -0.199896
-16740.00000000 6470.00000000 -830.00000000 59 25 213 0.000000 0.000000 0.000000 0.000000 -60.708740 0.000000 89.000000 0.312461 0.949832 -0.013694
-16700.00000000 6430.00000000 -730.00000000 59 25 213 0.000000 0.000000 0.000000 0.000000 -60.708740 0.000000 89.000000 0.179666 0.968128 -0.174496
-16700.00000000 6370.00000000 -700.00000000 59 25 213 0.000000 0.000000 0.000000 0.000000 -60.708740 0.000000 89.000000 -0.111293 0.965822 -0.234100
-16740.00000000 6450.00000000 -760.00000000 59 25 213 0.000000 0.000000 0.000000 0.000000 -60.708740 0.000000 89.000000 0.426943 0.895019 0.129076
-16710.00000000 6440.00000000 -780.00000000 59 25 213 0.000000 0.000000 0.000000 0.000000 -60.708740 0.000000 89.000000 0.261790 0.964032 -0.045906
-16700.00000000 6440.00000000 -820.00000000 59 25 213 0.000000 0.000000 0.000000 0.000000 -60.708740 0.000000 89.000000 0.202765 0.964116 0.171369
-16800.00000000 6530.00000000 -720.00000000 59 25 213 0.000000 0.000000 0.000000 0.000000 -60.708740 0.000000 89.000000 0.787832 0.615537 0.020842
-16790.00000000 6530.00000000 -760.00000000 59 25 213 0.000000 0.000000 0.000000 0.000000 -60.708740 0.000000 89.000000 0.734452 0.513291 -0.443972
-16790.00000000 6500.00000000 -750.00000000 59 25 213 0.000000 0.000000 0.000000 0.000000 -60.708740 0.000000 89.000000 0.350363 0.766925 -0.537654
-16840.00000000 6460.00000000 -720.00000000 59 25 213 0.000000 0.000000 0.000000 0.000000 -60.708740 0.000000 89.000000 0.666287 0.734853 0.126699
-16840.00000000 6460.00000000 -750.00000000 59 25 213 0.000000 0.000000 0.000000 0.000000 -60.708740 0.000000 89.000000 0.408652 0.908875 -0.083370
-16800.00000000 6520.00000000 -780.00000000 59 25 213 0.000000 0.000000 0.000000 0.000000 -60.708740 0.000000 89.000000 0.559930 0.815389 -0.147037
-16770.00000000 6490.00000000 -810.00000000 59 25 213 0.000000 0.000000 0.000000 0.000000 -60.708740 0.000000 89.000000 0.599727 0.799168 -0.040731
-16700.00000000 6460.00000000 -900.00000000 59 25 213 0.000000 0.000000 0.000000 0.000000 -60.708740 0.000000 89.000000 0.321595 0.928273 0.186778
-16710.00000000 6460.00000000 -910.00000000 59 25 213 0.000000 0.000000 0.000000 0.000000 -60.708740 0.000000 89.000000 0.544208 0.838816 -0.015003
-16690.00000000 6480.00000000 -910.00000000 59 25 213 0.000000 0.000000 0.000000 0.000000 -60.708740 0.000000 89.000000 0.406123 0.907886 0.103956
-16740.00000000 6490.00000000 -920.00000000 59 25 213 0.000000 0.000000 0.000000 0.000000 -60.708740 0.000000 89.000000 0.503368 0.863502 0.031375
-16740.00000000 6490.00000000 -920.00000000 59 25 213 0.000000 0.000000 0.000000 0.000000 -60.708740 0.000000 89.000000 0.503368 0.863502 0.031375
-16730.00000000 6490.00000000 -940.00000000 59 25 213 0.000000 0.000000 0.000000 0.000000 -60.708740 0.000000 89.000000 0.554758 0.828572 0.075584
-16730.00000000 6470.00000000 -920.00000000 59 25 213 0.000000 0.000000 0.000000 0.000000 -60.708740 0.000000 89.000000 0.330497 0.943739 0.011310
-16760.00000000 6490.00000000 -920.00000000 59 25 213 0.000000 0.000000 0.000000 0.000000 -60.708740 0.000000 89.000000 0.187113 0.964353 -0.187113
-16720.00000000 6500.00000000 -960.00000000 59 25 213 0.000000 0.000000 0.000000 0.000000 -60.708740 0.000000 89.000000 0.268442 0.952233 -0.145573
-16710.00000000 6490.00000000 -960.00000000 59 25 213 0.000000 0.000000 0.000000 0.000000 -60.708740 0.000000 89.000000 0.523246 0.761234 -0.383062
-16700.00000000 6480.00000000 -980.00000000 59 25 213 0.000000 0.000000 0.000000 0.000000 -60.708740 0.000000 89.000000 0.620627 0.782529 -0.049707
-16720.00000000 6480.00000000 -970.00000000 59 25 213 0.000000 0.000000 0.000000 0.000000 -60.708740 0.000000 89.000000 0.709190 0.700453 -0.080093
-16700.00000000 6480.00000000 -980.00000000 59 25 213 0.000000 0.000000 0.000000 0.000000 -60.708740 0.000000 89.000000 0.620627 0.782529 -0.049707
-16710.00000000 6460.00000000 -980.00000000 59 25 213 0.000000 0.000000 0.000000 0.000000 -60.708740 0.000000 89.000000 0.170495 0.985209 0.017164
-16720.00000000 6460.00000000 -970.00000000 59 25 213 0.000000 0.000000 0.000000 0.000000 -60.708740 0.000000 89.000000 0.470062 0.881875 -0.036575
-16700.00000000 6460.00000000 -980.00000000 59 25 213 0.000000 0.000000 0.000000 0.000000 -60.708740 0.000000 89.000000 0.499423 0.860037 -0.104464
-16690.00000000 6470.00000000 -960.00000000 59 25 213 0.000000 0.000000 0.000000 0.000000 -60.708740 0.000000 89.000000 0.519473 0.817202 -0.249657
-16700.00000000 6490.00000000 -1010.00000000 59 25 213 0.000000 0.000000 0.000000 0.000000 -60.708740 0.000000 89.000000 0.614938 0.783573 -0.088679
-16710.00000000 6460.00000000 -1030.00000000 59 25 213 0.000000 0.000000 0.000000 0.000000 -60.708740 0.000000 89.000000 0.426478 0.691990 -0.582466
-16740.00000000 6500.00000000 -980.00000000 59 25 213 0.000000 0.000000 0.000000 0.000000 -60.708740 0.000000 89.000000 0.381136 0.911044 0.157272
-16730.00000000 6500.00000000 -950.00000000 59 25 213 0.000000 0.000000 0.000000 0.000000 -60.708740 0.000000 89.000000 0.284540 0.958645 -0.006106
-16750.00000000 6510.00000000 -950.00000000 59 25 213 0.000000 0.000000 0.000000 0.000000 -60.708740 0.000000 89.000000 0.775728 0.548608 -0.311891
-16740.00000000 6500.00000000 -960.00000000 59 25 213 0.000000 0.000000 0.000000 0.000000 -60.708740 0.000000 89.000000 0.431471 0.895268 0.111030
-16760.00000000 6530.00000000 -990.00000000 59 25 213 0.000000 0.000000 0.000000 0.000000 -60.708740 0.000000 89.000000 0.625053 0.775878 0.085564
-16730.00000000 6490.00000000 -960.00000000 59 25 213 0.000000 0.000000 0.000000 0.000000 -60.708740 0.000000 89.000000 0.356775 0.933799 -0.027048
-16730.00000000 6490.00000000 -980.00000000 59 25 213 0.000000 0.000000 0.000000 0.000000 -60.708740 0.000000 89.000000 0.765665 0.638295 -0.079606
-16740.00000000 6490.00000000 -990.00000000 59 25 213 0.000000 0.000000 0.000000 0.000000 -60.708740 0.000000 89.000000 0.535470 0.808637 -0.243677
-16730.00000000 6480.00000000 -990.00000000 59 25 213 0.000000 0.000000 0.000000 0.000000 -60.708740 0.000000 89.000000 0.510938 0.846655 -0.148717
-16770.00000000 6530.00000000 -880.00000000 59 25 213 0.000000 0.000000 0.000000 0.000000 -60.708740 0.000000 89.000000 0.759521 0.629144 0.165245
-16780.00000000 6530.00000000 -880.00000000 59 25 213 0.000000 0.000000 0.000000 0.000000 -60.708740 0.000000 89.000000 0.719085 0.683205 0.127073
-16770.00000000 6530.00000000 -900.00000000 59 25 213 0.000000 0.000000 0.000000 0.000000 -60.708740 0.000000 89.000000 0.889372 0.420669 -0.179039
-16770.00000000 6510.00000000 -930.00000000 59 25 213 0.000000 0.000000 0.000000 0.000000 -60.708740 0.000000 89.000000 0.872896 0.485248 -0.050862
-16770.00000000 6510.00000000 -930.00000000 59 25 213 0.000000 0.000000 0.000000 0.000000 -60.708740 0.000000 89.000000 0.872896 0.485248 -0.050862
-16790.00000000 6530.00000000 -930.00000000 59 25 213 0.000000 0.000000 0.000000 0.000000 -60.708740 0.000000 89.000000 0.567493 0.820660 -0.066848
-16790.00000000 6530.00000000 -920.00000000 59 25 213 0.000000 0.000000 0.000000 0.000000 -60.708740 0.000000 89.000000 0.503835 0.720002 -0.477230
-16780.00000000 6530.00000000 -980.00000000 59 25 213 0.000000 0.000000 0.000000 0.000000 -60.708740 0.000000 89.000000 0.875977 0.457600 0.152533
-16520.00000000 6530.00000000 -1100.00000000 59 25 213 0.000000 0.000000 0.000000 0.000000 -60.708740 0.000000 89.000000 0.837081 -0.528140 0.142701
-16550.00000000 6480.00000000 -1150.00000000 59 25 213 0.000000 0.000000 0.000000 0.000000 -60.708740 0.000000 89.000000 -0.092458 0.988952 -0.115865
-16540.00000000 6460.00000000 -1160.00000000 59 25 213 0.000000 0.000000 0.000000 0.000000 -60.708740 0.000000 89.000000 -0.050303 0.993766 -0.099488
-16560.00000000 6470.00000000 -1160.00000000 59 25 213 0.000000 0.000000 0.000000 0.000000 -60.708740 0.000000 89.000000 -0.441420 0.773707 -0.454451
-16560.00000000 6460.00000000 -1180.00000000 59 25 213 0.000000 0.000000 0.000000 0.000000 -60.708740 0.000000 89.000000 -0.205535 0.853647 -0.478583
-16550.00000000 6450.00000000 -1040.00000000 59 25 213 0.000000 0.000000 0.000000 0.000000 -60.708740 0.000000 89.000000 0.040358 0.930829 -0.363219
-16580.00000000 6450.00000000 -1070.00000000 59 25 213 0.000000 0.000000 0.000000 0.000000 -60.708740 0.000000 89.000000 -0.323418 0.798189 -0.508228
-16560.00000000 6420.00000000 -1110.00000000 59 25 213 0.000000 0.000000 0.000000 0.000000 -60.708740 0.000000 89.000000 -0.246290 0.770245 -0.588272
-16590.00000000 6430.00000000 -1130.00000000 59 25 213 0.000000 0.000000 0.000000 0.000000 -60.708740 0.000000 89.000000 0.338267 0.938461 -0.069759
-16640.00000000 6460.00000000 -1110.00000000 59 25 213 0.000000 0.000000 0.000000 0.000000 -60.708740 0.000000 89.000000 0.240925 0.906753 -0.346055
-16680.00000000 6510.00000000 -1100.00000000 59 25 213 0.000000 0.000000 0.000000 0.000000 -60.708740 0.000000 89.000000 0.707424 0.561632 -0.429093
-16670.00000000 6460.00000000 -1100.00000000 59 25 213 0.000000 0.000000 0.000000 0.000000 -60.708740 0.000000 89.000000 0.228974 0.973432 -0.001174
-16640.00000000 6460.00000000 -1170.00000000 59 25 213 0.000000 0.000000 0.000000 0.000000 -60.708740 0.000000 89.000000 0.058843 0.998267 0.001032
-16660.00000000 6490.00000000 -1170.00000000 59 25 213 0.000000 0.000000 0.000000 0.000000 -60.708740 0.000000 89.000000 0.520335 0.853568 -0.025948
-16660.00000000 6510.00000000 -1140.00000000 59 25 213 0.000000 0.000000 0.000000 0.000000 -60.708740 0.000000 89.000000 0.601823 0.780702 -0.168268
-16620.00000000 6430.00000000 -1130.00000000 59 25 213 0.000000 0.000000 0.000000 0.000000 -60.708740 0.000000 89.000000 0.324515 0.815246 -0.479650
-16630.00000000 6370.00000000 -1140.00000000 59 25 213 0.000000 0.000000 0.000000 0.000000 -60.708740 0.000000 89.000000 -0.218577 0.896312 -0.385810
-16630.00000000 6370.00000000 -1150.00000000 59 25 213 0.000000 0.000000 0.000000 0.000000 -60.708740 0.000000 89.000000 0.081509 0.830819 -0.550542
-16590.00000000 6490.00000000 -1270.00000000 59 25 213 0.000000 0.000000 0.000000 0.000000 -60.708740 0.000000 89.000000 -0.049528 0.799527 -0.598584
-16570.00000000 6460.00000000 -1240.00000000 59 25 213 0.000000 0.000000 0.000000 0.000000 -60.708740 0.000000 89.000000 0.170549 0.904339 -0.391259
-16550.00000000 6490.00000000 -1260.00000000 59 25 213 0.000000 0.000000 0.000000 0.000000 -60.708740 0.000000 89.000000 -0.329596 0.686794 -0.647827
-16520.00000000 6460.00000000 -1280.00000000 59 25 213 0.000000 0.000000 0.000000 0.000000 -60.708740 0.000000 89.000000 -0.335769 0.915078 -0.223365
-16550.00000000 6470.00000000 -1310.00000000 59 25 213 0.000000 0.000000 0.000000 0.000000 -60.708740 0.000000 89.000000 -0.212630 0.818396 -0.533870
-16580.00000000 6470.00000000 -1300.00000000 59 25 213 0.000000 0.000000 0.000000 0.000000 -60.708740 0.000000 89.000000 0.203359 0.958313 -0.200701
-16580.00000000 6420.00000000 -1260.00000000 59 25 213 0.000000 0.000000 0.000000 0.000000 -60.708740 0.000000 89.000000 0.287404 0.911816 -0.293240
-16550.00000000 6450.00000000 -1340.00000000 59 25 213 0.000000 0.000000 0.000000 0.000000 -60.708740 0.000000 89.000000 -0.117111 0.739725 -0.662640
-16590.00000000 6430.00000000 -1360.00000000 59 25 213 0.000000 0.000000 0.000000 0.000000 -60.708740 0.000000 89.000000 0.358977 0.748816 -0.557145
-16640.00000000 6460.00000000 -1200.00000000 59 25 213 0.000000 0.000000 0.000000 0.000000 -60.708740 0.000000 89.000000 0.127507 0.973346 -0.190629
-16680.00000000 6500.00000000 -1260.00000000 59 25 213 0.000000 0.000000 0.000000 0.000000 -60.708740 0.000000 89.000000 0.416953 0.897943 -0.140882
-16670.00000000 6480.00000000 -1200.00000000 59 25 213 0.000000 0.000000 0.000000 0.000000 -60.708740 0.000000 89.000000 0.421649 0.874809 -0.238584
-16680.00000000 6490.00000000 -1200.00000000 59 25 213 0.000000 0.000000 0.000000 0.000000 -60.708740 0.000000 89.000000 0.558750 0.829245 0.012295
-16680.00000000 6480.00000000 -1200.00000000 59 25 213 0.000000 0.000000 0.000000 0.000000 -60.708740 0.000000 89.000000 0.240292 0.967459 -0.079259
-16670.00000000 6480.00000000 -1210.00000000 59 25 213 0.000000 0.000000 0.000000 0.000000 -60.708740 0.000000 89.000000 0.515067 0.852769 -0.086554
-16680.00000000 6480.00000000 -1280.00000000 59 25 213 0.000000 0.000000 0.000000 0.000000 -60.708740 0.000000 89.000000 0.393127 0.915482 0.085699
-16630.00000000 6460.00000000 -1310.00000000 59 25 213 0.000000 0.000000 0.000000 0.000000 -60.708740 0.000000 89.000000 0.770245 0.588272 -0.246290
-16610.00000000 6480.00000000 -1330.00000000 59 25 213 0.000000 0.000000 0.000000 0.000000 -60.708740 0.000000 89.000000 0.522784 0.733877 -0.433729
-16620.00000000 6470.00000000 -1330.00000000 59 25 213 0.000000 0.000000 0.000000 0.000000 -60.708740 0.000000 89.000000 0.280472 0.871738 -0.401757
-16660.00000000 6520.00000000 -1330.00000000 59 25 213 0.000000 0.000000 0.000000 0.000000 -60.708740 0.000000 89.000000 0.604391 0.765976 -0.219072
-16670.00000000 6510.00000000 -1330.00000000 59 25 213 0.000000 0.000000 0.000000 0.000000 -60.708740 0.000000 89.000000 0.552372 0.830689 -0.069579
-16680.00000000 6520.00000000 -1360.00000000 59 25 213 0.000000 0.000000 0.000000 0.000000 -60.708740 0.000000 89.000000 0.764589 0.640289 -0.073713
-16680.00000000 6510.00000000 -1360.00000000 59 25 213 0.000000 0.000000 0.000000 0.000000 -60.708740 0.000000 89.000000 0.655001 0.705999 -0.269331
-16660.00000000 6480.00000000 -1300.00000000 59 25 213 0.000000 0.000000 0.000000 0.000000 -60.708740 0.000000 89.000000 0.359638 0.931371 -0.056646
-16660.00000000 6490.00000000 -1290.00000000 59 25 213 0.000000 0.000000 0.000000 0.000000 -60.708740 0.000000 89.000000 0.454898 0.869788 0.191146
-16630.00000000 6450.00000000 -1230.00000000 59 25 213 0.000000 0.000000 0.000000 0.000000 -60.708740 0.000000 89.000000 0.448953 0.748255 -0.488421
-16620.00000000 6450.00000000 -1270.00000000 59 25 213 0.000000 0.000000 0.000000 0.000000 -60.708740 0.000000 89.000000 0.410376 0.815962 -0.407183
-16600.00000000 6450.00000000 -1350.00000000 59 25 213 0.000000 0.000000 0.000000 0.000000 -60.708740 0.000000 89.000000 0.626986 0.778473 -0.029456
-16620.00000000 6420.00000000 -1290.00000000 59 25 213 0.000000 0.000000 0.000000 0.000000 -60.708740 0.000000 89.000000 0.475004 0.804468 -0.356653
-16620.00000000 6450.00000000 -1320.00000000 59 25 213 0.000000 0.000000 0.000000 0.000000 -60.708740 0.000000 89.000000 0.673708 0.738407 -0.029536
-16760.00000000 6690.00000000 -1050.00000000 59 25 213 0.000000 0.000000 0.000000 0.000000 -60.708740 0.000000 89.000000 0.955747 -0.011070 0.293981
-16750.00000000 6700.00000000 -1050.00000000 59 25 213 0.000000 0.000000 0.000000 0.000000 -60.708740 0.000000 89.000000 0.977274 -0.202739 -0.061914
-16760.00000000 6680.00000000 -1050.00000000 59 25 213 0.000000 0.000000 0.000000 0.000000 -60.708740 0.000000 89.000000 0.995090 -0.096790 -0.020663
-16760.00000000 6690.00000000 -1070.00000000 59 25 213 0.000000 0.000000 0.000000 0.000000 -60.708740 0.000000 89.000000 0.919824 -0.388901 -0.051765
-16750.00000000 6690.00000000 -1060.00000000 59 25 213 0.000000 0.000000 0.000000 0.000000 -60.708740 0.000000 89.000000 0.966930 -0.247644 0.060978
-16760.00000000 6700.00000000 -1050.00000000 59 25 213 0.000000 0.000000 0.000000 0.000000 -60.708740 0.000000 89.000000 0.889101 -0.238974 0.390373
-16730.00000000 6690.00000000 -1100.00000000 59 25 213 0.000000 0.000000 0.000000 0.000000 -60.708740 0.000000 89.000000 0.891696 -0.440949 -0.102188
-16730.00000000 6700.00000000 -1100.00000000 59 25 213 0.000000 0.000000 0.000000 0.000000 -60.708740 0.000000 89.000000 0.923739 -0.358693 -0.134337
-16740.00000000 6660.00000000 -1070.00000000 59 25 213 0.000000 0.000000 0.000000 0.000000 -60.708740 0.000000 89.000000 0.969932 -0.001187 0.243373
-16750.00000000 6660.00000000 -1050.00000000 59 25 213 0.000000 0.000000 0.000000 0.000000 -60.708740 0.000000 89.000000 0.949320 -0.275263 -0.151730
-16750.00000000 6650.00000000 -1070.00000000 59 25 213 0.000000 0.000000 0.000000 0.000000 -60.708740 0.000000 89.000000 0.973693 -0.150676 0.170934
-16760.00000000 6640.00000000 -1060.00000000 59 25 213 0.000000 0.000000 0.000000 0.000000 -60.708740 0.000000 89.000000 0.985741 -0.139458 0.094164
-16760.00000000 6650.00000000 -1070.00000000 59 25 213 0.000000 0.000000 0.000000 0.000000 -60.708740 0.000000 89.000000 0.967611 -0.187321 0.169235
-16760.00000000 6650.00000000 -1050.00000000 59 25 213 0.000000 0.000000 0.000000 0.000000 -60.708740 0.000000 89.000000 0.983471 -0.150839 0.100157
-16760.00000000 6650.00000000 -1050.00000000 59 25 213 0.000000 0.000000 0.000000 0.000000 -60.708740 0.000000 89.000000 0.983471 -0.150839 0.100157
-16750.00000000 6660.00000000 -1090.00000000 59 25 213 0.000000 0.000000 0.000000 0.000000 -60.708740 0.000000 89.000000 0.979240 -0.193921 -0.059019
-16750.00000000 6660.00000000 -1110.00000000 59 25 213 0.000000 0.000000 0.000000 0.000000 -60.708740 0.000000 89.000000 0.989517 -0.115114 0.087208
-16750.00000000 6680.00000000 -1120.00000000 59 25 213 0.000000 0.000000 0.000000 0.000000 -60.708740 0.000000 89.000000 0.956460 -0.078314 0.281161
-16740.00000000 6690.00000000 -1160.00000000 59 25 213 0.000000 0.000000 0.000000 0.000000 -60.708740 0.000000 89.000000 0.906506 -0.382365 0.179010
-16740.00000000 6660.00000000 -1120.00000000 59 25 213 0.000000 0.000000 0.000000 0.000000 -60.708740 0.000000 89.000000 0.912869 -0.184288 0.364291
-16760.00000000 6650.00000000 -1190.00000000 59 25 213 0.000000 0.000000 0.000000 0.000000 -60.708740 0.000000 89.000000 0.967884 0.197185 0.155944
-16760.00000000 6660.00000000 -1190.00000000 59 25 213 0.000000 0.000000 0.000000 0.000000 -60.708740 0.000000 89.000000 0.872559 0.065199 0.484138
-16750.00000000 6630.00000000 -1190.00000000 59 25 213 0.000000 0.000000 0.000000 0.000000 -60.708740 0.000000 89.000000 0.997237 0.031063 0.067482
-16740.00000000 6650.00000000 -1180.00000000 59 25 213 0.000000 0.000000 0.000000 0.000000 -60.708740 0.000000 89.000000 0.992044 0.064773 0.107954
-16760.00000000 6660.00000000 -1190.00000000 59 25 213 0.000000 0.000000 0.000000 0.000000 -60.708740 0.000000 89.000000 0.872559 0.065199 0.484138
-16760.00000000 6600.00000000 -1050.00000000 59 25 213 0.000000 0.000000 0.000000 0.000000 -60.708740 0.000000 89.000000 0.956852 0.127318 0.261198
-16760.00000000 6600.00000000 -1060.00000000 59 25 213 0.000000 0.000000 0.000000 0.000000 -60.708740 0.000000 89.000000 0.994694 -0.007560 0.102601
-16760.00000000 6610.00000000 -1050.00000000 59 25 213 0.000000 0.000000 0.000000 0.000000 -60.708740 0.000000 89.000000 0.975216 0.059657 0.213062
-16760.00000000 6550.00000000 -1060.00000000 59 25 213 0.000000 0.000000 0.000000 0.000000 -60.708740 0.000000 89.000000 0.795786 0.603554 -0.049472
-16720.00000000 6540.00000000 -1140.00000000 59 25 213 0.000000 0.000000 0.000000 0.000000 -60.708740 0.000000 89.000000 0.927022 0.354651 -0.121869
-16690.00000000 6540.00000000 -1180.00000000 59 25 213 0.000000 0.000000 0.000000 0.000000 -60.708740 0.000000 89.000000 0.926777 0.358973 -0.110558
-16710.00000000 6550.00000000 -1160.00000000 59 25 213 0.000000 0.000000 0.000000 0.000000 -60.708740 0.000000 89.000000 0.806815 0.521688 -0.277294
-16720.00000000 6560.00000000 -1160.00000000 59 25 213 0.000000 0.000000 0.000000 0.000000 -60.708740 0.000000 89.000000 0.900636 0.423257 -0.098529
-16750.00000000 6600.00000000 -1120.00000000 59 25 213 0.000000 0.000000 0.000000 0.000000 -60.708740 0.000000 89.000000 0.800978 0.558071 -0.216772
-16760.00000000 6590.00000000 -1160.00000000 59 25 213 0.000000 0.000000 0.000000 0.000000 -60.708740 0.000000 89.000000 0.779699 0.613995 0.122799
-16730.00000000 6590.00000000 -1190.00000000 59 25 213 0.000000 0.000000 0.000000 0.000000 -60.708740 0.000000 89.000000 0.889983 0.453797 -0.044702
-16740.00000000 6560.00000000 -1150.00000000 59 25 213 0.000000 0.000000 0.000000 0.000000 -60.708740 0.000000 89.000000 0.829903 0.467309 0.304767
-16770.00000000 6620.00000000 -1050.00000000 59 25 213 0.000000 0.000000 0.000000 0.000000 -60.708740 0.000000 89.000000 0.974319 0.170159 0.147471
-16830.00000000 6630.00000000 -1050.00000000 59 25 213 0.000000 0.000000 0.000000 0.000000 -60.708740 0.000000 89.000000 0.980297 0.005773 -0.197445
-16790.00000000 6670.00000000 -1050.00000000 59 25 213 0.000000 0.000000 0.000000 0.000000 -60.708740 0.000000 89.000000 0.925874 0.006403 0.377777
-16780.00000000 6640.00000000 -1040.00000000 59 25 213 0.000000 0.000000 0.000000 0.000000 -60.708740 0.000000 89.000000 0.927038 0.187096 -0.324956
-16770.00000000 6620.00000000 -1040.00000000 59 25 213 0.000000 0.000000 0.000000 0.000000 -60.708740 0.000000 89.000000 0.932508 0.191535 0.306176
-16780.00000000 6590.00000000 -1040.00000000 59 25 213 0.000000 0.000000 0.000000 0.000000 -60.708740 0.000000 89.000000 0.975066 0.193515 -0.108618
-16780.00000000 6570.00000000 -1060.00000000 59 25 213 0.000000 0.000000 0.000000 0.000000 -60.708740 0.000000 89.000000 0.955865 0.275153 -0.103020
-16790.00000000 6610.00000000 -1090.00000000 59 25 213 0.000000 0.000000 0.000000 0.000000 -60.708740 0.000000 89.000000 0.877034 0.446570 0.177164
-16750.00000000 6670.00000000 -1230.00000000 59 25 213 0.000000 0.000000 0.000000 0.000000 -60.708740 0.000000 89.000000 0.989276 0.122061 0.080212
-16750.00000000 6680.00000000 -1210.00000000 59 25 213 0.000000 0.000000 0.000000 0.000000 -60.708740 0.000000 89.000000 0.967160 -0.198093 0.159251
-16750.00000000 6670.00000000 -1230.00000000 59 25 213 0.000000 0.000000 0.000000 0.000000 -60.708740 0.000000 89.000000 0.989276 0.122061 0.080212
-16740.00000000 6670.00000000 -1220.00000000 59 25 213 0.000000 0.000000 0.000000 0.000000 -60.708740 0.000000 89.000000 0.911197 -0.378367 -0.162967
-16750.00000000 6680.00000000 -1210.00000000 59 25 213 0.000000 0.000000 0.000000 0.000000 -60.708740 0.000000 89.000000 0.967160 -0.198093 0.159251
-16730.00000000 6700.00000000 -1250.00000000 59 25 213 0.000000 0.000000 0.000000 0.000000 -60.708740 0.000000 89.000000 0.959500 -0.146097 0.240862
-16740.00000000 6630.00000000 -1210.00000000 59 25 213 0.000000 0.000000 0.000000 0.000000 -60.708740 0.000000 89.000000 0.971709 0.236105 -0.005932
-16750.00000000 6660.00000000 -1220.00000000 59 25 213 0.000000 0.000000 0.000000 0.000000 -60.708740 0.000000 89.000000 0.983890 -0.172798 -0.045844
-16750.00000000 6620.00000000 -1240.00000000 59 25 213 0.000000 0.000000 0.000000 0.000000 -60.708740 0.000000 89.000000 0.892150 0.213117 0.398308
-16740.00000000 6650.00000000 -1200.00000000 59 25 213 0.000000 0.000000 0.000000 0.000000 -60.708740 0.000000 89.000000 0.996375 0.040203 -0.074973
-16760.00000000 6640.00000000 -1220.00000000 59 25 213 0.000000 0.000000 0.000000 0.000000 -60.708740 0.000000 89.000000 0.972852 0.218799 -0.075405
-16740.00000000 6650.00000000 -1270.00000000 59 25 213 0.000000 0.000000 0.000000 0.000000 -60.708740 0.000000 89.000000 0.999618 -0.027180 0.005033
-16740.00000000 6640.00000000 -1280.00000000 59 25 213 0.000000 0.000000 0.000000 0.000000 -60.708740 0.000000 89.000000 0.988760 -0.146778 -0.028445
-16740.00000000 6620.00000000 -1250.00000000 59 25 213 0.000000 0.000000 0.000000 0.000000 -60.708740 0.000000 89.000000 0.994813 0.052009 -0.087420
-16710.00000000 6690.00000000 -1350.00000000 59 25 213 0.000000 0.000000 0.000000 0.000000 -60.708740 0.000000 89.000000 0.760294 -0.308919 0.571421
-16710.00000000 6690.00000000 -1350.00000000 59 25 213 0.000000 0.000000 0.000000 0.000000 -60.708740 0.000000 89.000000 0.760294 -0.308919 0.571421
-16730.00000000 6700.00000000 -1290.00000000 59 25 213 0.000000 0.000000 0.000000 0.000000 -60.708740 0.000000 89.000000 0.655403 -0.477724 0.585002
-16740.00000000 6670.00000000 -1310.00000000 59 25 213 0.000000 0.000000 0.000000 0.000000 -60.708740 0.000000 89.000000 0.972553 -0.181323 0.145819
-16740.00000000 6670.00000000 -1300.00000000 59 25 213 0.000000 0.000000 0.000000 0.000000 -60.708740 0.000000 89.000000 0.951265 -0.266998 0.154295
-16740.00000000 6670.00000000 -1300.00000000 59 25 213 0.000000 0.000000 0.000000 0.000000 -60.708740 0.000000 89.000000 0.951265 -0.266998 0.154295
-16730.00000000 6690.00000000 -1300.00000000 59 25 213 0.000000 0.000000 0.000000 0.000000 -60.708740 0.000000 89.000000 0.922984 -0.384469 -0.016829
-16730.00000000 6690.00000000 -1300.00000000 59 25 213 0.000000 0.000000 0.000000 0.000000 -60.708740 0.000000 89.000000 0.922984 -0.384469 -0.016829
-16740.00000000 6620.00000000 -1300.00000000 59 25 213 0.000000 0.000000 0.000000 0.000000 -60.708740 0.000000 89.000000 0.984778 0.003408 0.173784
-16740.00000000 6650.00000000 -1300.00000000 59 25 213 0.000000 0.000000 0.000000 0.000000 -60.708740 0.000000 89.000000 0.978979 0.044120 0.199134
-16760.00000000 6660.00000000 -1290.00000000 59 25 213 0.000000 0.000000 0.000000 0.000000 -60.708740 0.000000 89.000000 0.771681 -0.235402 0.590842
-16740.00000000 6640.00000000 -1290.00000000 59 25 213 0.000000 0.000000 0.000000 0.000000 -60.708740 0.000000 89.000000 0.973303 -0.185571 -0.135076
-16750.00000000 6630.00000000 -1300.00000000 59 25 213 0.000000 0.000000 0.000000 0.000000 -60.708740 0.000000 89.000000 0.992721 0.012093 0.119830
-16740.00000000 6640.00000000 -1330.00000000 59 25 213 0.000000 0.000000 0.000000 0.000000 -60.708740 0.000000 89.000000 0.998446 -0.021955 0.051229
-16740.00000000 6630.00000000 -1350.00000000 59 25 213 0.000000 0.000000 0.000000 0.000000 -60.708740 0.000000 89.000000 0.797948 -0.364455 0.480053
