//X Y Z R G B PointSourceId ScanDirectionFlag NumberOfReturns ReturnNumber GpsTime Intensity Classification Nx Ny Nz
4300.00000000 -11610.00000000 530.00000000 254 82 87 0.000000 0.000000 0.000000 0.000000 -60.708740 0.000000 74.000000 0.996997 0.063592 0.044191
4240.00000000 -11500.00000000 590.00000000 254 82 87 0.000000 0.000000 0.000000 0.000000 -60.708740 0.000000 74.000000 0.848620 -0.455769 0.268551
4260.00000000 -11490.00000000 500.00000000 254 82 87 0.000000 0.000000 0.000000 0.000000 -60.708740 0.000000 74.000000 0.949561 0.112570 0.292682
4280.00000000 -11560.00000000 520.00000000 254 82 87 0.000000 0.000000 0.000000 0.000000 -60.708740 0.000000 74.000000 0.818938 0.195998 0.539375
4280.00000000 -11600.00000000 590.00000000 254 82 87 0.000000 0.000000 0.000000 0.000000 -60.708740 0.000000 74.000000 0.961647 -0.028393 0.272816
4250.00000000 -11600.00000000 580.00000000 254 82 87 0.000000 0.000000 0.000000 0.000000 -60.708740 0.000000 74.000000 0.907621 -0.106697 0.406005
4250.00000000 -11610.00000000 610.00000000 254 82 87 0.000000 0.000000 0.000000 0.000000 -60.708740 0.000000 74.000000 0.933087 -0.182168 0.310102
4240.00000000 -11590.00000000 630.00000000 254 82 87 0.000000 0.000000 0.000000 0.000000 -60.708740 0.000000 74.000000 0.790530 -0.001370 0.612421
4240.00000000 -11600.00000000 600.00000000 254 82 87 0.000000 0.000000 0.000000 0.000000 -60.708740 0.000000 74.000000 0.951128 0.087415 0.296167
4340.00000000 -11560.00000000 470.00000000 254 82 87 0.000000 0.000000 0.000000 0.000000 -60.708740 0.000000 74.000000 0.927255 0.282578 0.245659
4350.00000000 -11570.00000000 400.00000000 254 82 87 0.000000 0.000000 0.000000 0.000000 -60.708740 0.000000 74.000000 0.805550 0.527127 0.270602
4370.00000000 -11570.00000000 320.00000000 254 82 87 0.000000 0.000000 0.000000 0.000000 -60.708740 0.000000 74.000000 0.647826 0.553597 0.523309
4340.00000000 -11560.00000000 340.00000000 254 82 87 0.000000 0.000000 0.000000 0.000000 -60.708740 0.000000 74.000000 0.945677 0.155584 0.285462
4320.00000000 -11500.00000000 370.00000000 254 82 87 0.000000 0.000000 0.000000 0.000000 -60.708740 0.000000 74.000000 0.865995 0.478844 0.144090
4320.00000000 -11510.00000000 340.00000000 254 82 87 0.000000 0.000000 0.000000 0.000000 -60.708740 0.000000 74.000000 0.884617 0.039286 0.464661
4370.00000000 -11600.00000000 470.00000000 254 82 87 0.000000 0.000000 0.000000 0.000000 -60.708740 0.000000 74.000000 0.962222 0.030880 0.270509
4370.00000000 -11600.00000000 470.00000000 254 82 87 0.000000 0.000000 0.000000 0.000000 -60.708740 0.000000 74.000000 0.962222 0.030880 0.270509
4340.00000000 -11620.00000000 460.00000000 254 82 87 0.000000 0.000000 0.000000 0.000000 -60.708740 0.000000 74.000000 0.869201 0.489710 0.068364
4340.00000000 -11640.00000000 430.00000000 254 82 87 0.000000 0.000000 0.000000 0.000000 -60.708740 0.000000 74.000000 0.595277 0.625631 0.504214
4330.00000000 -11610.00000000 460.00000000 254 82 87 0.000000 0.000000 0.000000 0.000000 -60.708740 0.000000 74.000000 0.664309 0.670806 0.329718
4310.00000000 -11610.00000000 430.00000000 254 82 87 0.000000 0.000000 0.000000 0.000000 -60.708740 0.000000 74.000000 0.806815 0.277294 0.521688
4310.00000000 -11620.00000000 450.00000000 254 82 87 0.000000 0.000000 0.000000 0.000000 -60.708740 0.000000 74.000000 0.740013 0.651880 0.165629
4350.00000000 -11600.00000000 400.00000000 254 82 87 0.000000 0.000000 0.000000 0.000000 -60.708740 0.000000 74.000000 0.816011 0.103274 0.568735
4370.00000000 -11600.00000000 320.00000000 254 82 87 0.000000 0.000000 0.000000 0.000000 -60.708740 0.000000 74.000000 0.858904 0.363680 0.360585
4370.00000000 -11590.00000000 330.00000000 254 82 87 0.000000 0.000000 0.000000 0.000000 -60.708740 0.000000 74.000000 0.751462 0.559945 0.348951
4360.00000000 -11620.00000000 390.00000000 254 82 87 0.000000 0.000000 0.000000 0.000000 -60.708740 0.000000 74.000000 0.855952 0.167051 0.489327
4340.00000000 -11500.00000000 260.00000000 254 82 87 0.000000 0.000000 0.000000 0.000000 -60.708740 0.000000 74.000000 0.829656 0.247819 0.500256
4340.00000000 -11540.00000000 280.00000000 254 82 87 0.000000 0.000000 0.000000 0.000000 -60.708740 0.000000 74.000000 0.936648 -0.097819 0.336336
4370.00000000 -11560.00000000 310.00000000 254 82 87 0.000000 0.000000 0.000000 0.000000 -60.708740 0.000000 74.000000 0.949984 0.255401 0.179727
4360.00000000 -11540.00000000 270.00000000 254 82 87 0.000000 0.000000 0.000000 0.000000 -60.708740 0.000000 74.000000 0.885392 0.302146 0.353255
4330.00000000 -11520.00000000 270.00000000 254 82 87 0.000000 0.000000 0.000000 0.000000 -60.708740 0.000000 74.000000 0.938621 0.137193 0.316496
4330.00000000 -11540.00000000 310.00000000 254 82 87 0.000000 0.000000 0.000000 0.000000 -60.708740 0.000000 74.000000 0.767232 0.405607 0.496828
4910.00000000 -10980.00000000 -120.00000000 254 82 87 0.000000 0.000000 0.000000 0.000000 -60.708740 0.000000 74.000000 0.688506 0.575145 0.441778
4920.00000000 -10870.00000000 -350.00000000 254 82 87 0.000000 0.000000 0.000000 0.000000 -60.708740 0.000000 74.000000 -0.199867 0.941444 0.271544
4930.00000000 -10940.00000000 -230.00000000 254 82 87 0.000000 0.000000 0.000000 0.000000 -60.708740 0.000000 74.000000 0.347696 0.680701 0.644789
4920.00000000 -10920.00000000 -270.00000000 254 82 87 0.000000 0.000000 0.000000 0.000000 -60.708740 0.000000 74.000000 -0.046864 0.756917 0.651829
4920.00000000 -10920.00000000 -270.00000000 254 82 87 0.000000 0.000000 0.000000 0.000000 -60.708740 0.000000 74.000000 -0.046864 0.756917 0.651829
4930.00000000 -10960.00000000 -210.00000000 254 82 87 0.000000 0.000000 0.000000 0.000000 -60.708740 0.000000 74.000000 0.607798 0.763245 0.219180
4960.00000000 -10960.00000000 -210.00000000 254 82 87 0.000000 0.000000 0.000000 0.000000 -60.708740 0.000000 74.000000 0.184120 0.894505 0.407384
4910.00000000 -10940.00000000 -260.00000000 254 82 87 0.000000 0.000000 0.000000 0.000000 -60.708740 0.000000 74.000000 0.373120 0.672273 0.639399
4910.00000000 -10980.00000000 -200.00000000 254 82 87 0.000000 0.000000 0.000000 0.000000 -60.708740 0.000000 74.000000 0.514983 0.682729 0.518337
4900.00000000 -10950.00000000 -250.00000000 254 82 87 0.000000 0.000000 0.000000 0.000000 -60.708740 0.000000 74.000000 0.110950 0.693809 0.711561
4910.00000000 -10910.00000000 -290.00000000 254 82 87 0.000000 0.000000 0.000000 0.000000 -60.708740 0.000000 74.000000 0.349270 0.823392 0.447255
4900.00000000 -10910.00000000 -290.00000000 254 82 87 0.000000 0.000000 0.000000 0.000000 -60.708740 0.000000 74.000000 0.040537 0.823324 0.566122
4930.00000000 -11010.00000000 -130.00000000 254 82 87 0.000000 0.000000 0.000000 0.000000 -60.708740 0.000000 74.000000 0.241093 0.937895 0.249455
4920.00000000 -10990.00000000 -140.00000000 254 82 87 0.000000 0.000000 0.000000 0.000000 -60.708740 0.000000 74.000000 0.027592 0.915778 0.400735
4940.00000000 -11020.00000000 -120.00000000 254 82 87 0.000000 0.000000 0.000000 0.000000 -60.708740 0.000000 74.000000 0.745886 0.462680 0.479146
4930.00000000 -11020.00000000 -120.00000000 254 82 87 0.000000 0.000000 0.000000 0.000000 -60.708740 0.000000 74.000000 0.324714 0.863339 0.386271
4910.00000000 -11020.00000000 -110.00000000 254 82 87 0.000000 0.000000 0.000000 0.000000 -60.708740 0.000000 74.000000 0.159119 0.834257 0.527917
4890.00000000 -11090.00000000 -20.00000000 254 82 87 0.000000 0.000000 0.000000 0.000000 -60.708740 0.000000 74.000000 0.631766 0.767250 0.110449
4900.00000000 -11080.00000000 -40.00000000 254 82 87 0.000000 0.000000 0.000000 0.000000 -60.708740 0.000000 74.000000 0.419414 0.884448 0.204556
4970.00000000 -10990.00000000 -230.00000000 254 82 87 0.000000 0.000000 0.000000 0.000000 -60.708740 0.000000 74.000000 0.523648 0.798920 0.295838
4940.00000000 -10990.00000000 -220.00000000 254 82 87 0.000000 0.000000 0.000000 0.000000 -60.708740 0.000000 74.000000 0.529705 0.839064 0.124036
4860.00000000 -10900.00000000 -300.00000000 254 82 87 0.000000 0.000000 0.000000 0.000000 -60.708740 0.000000 74.000000 0.416201 0.805085 0.422629
4860.00000000 -11000.00000000 -150.00000000 254 82 87 0.000000 0.000000 0.000000 0.000000 -60.708740 0.000000 74.000000 0.204306 0.951172 0.231366
4840.00000000 -11110.00000000 -20.00000000 254 82 87 0.000000 0.000000 0.000000 0.000000 -60.708740 0.000000 74.000000 0.146201 0.746075 0.649613
4860.00000000 -11120.00000000 -30.00000000 254 82 87 0.000000 0.000000 0.000000 0.000000 -60.708740 0.000000 74.000000 0.348112 0.625948 0.697859
4840.00000000 -11150.00000000 -110.00000000 254 82 87 0.000000 0.000000 0.000000 0.000000 -60.708740 0.000000 74.000000 0.666536 0.735128 0.123764
4830.00000000 -11100.00000000 -160.00000000 254 82 87 0.000000 0.000000 0.000000 0.000000 -60.708740 0.000000 74.000000 0.029536 0.979419 0.199664
4810.00000000 -11150.00000000 -120.00000000 254 82 87 0.000000 0.000000 0.000000 0.000000 -60.708740 0.000000 74.000000 0.419906 0.815862 0.397553
4810.00000000 -11140.00000000 -150.00000000 254 82 87 0.000000 0.000000 0.000000 0.000000 -60.708740 0.000000 74.000000 0.011580 0.925095 0.379559
4780.00000000 -11150.00000000 -60.00000000 254 82 87 0.000000 0.000000 0.000000 0.000000 -60.708740 0.000000 74.000000 -0.275700 0.946617 0.167050
4760.00000000 -11150.00000000 -70.00000000 254 82 87 0.000000 0.000000 0.000000 0.000000 -60.708740 0.000000 74.000000 -0.060942 0.997518 0.035282
4770.00000000 -11150.00000000 -70.00000000 254 82 87 0.000000 0.000000 0.000000 0.000000 -60.708740 0.000000 74.000000 -0.021150 0.991832 0.125788
4760.00000000 -11150.00000000 -70.00000000 254 82 87 0.000000 0.000000 0.000000 0.000000 -60.708740 0.000000 74.000000 -0.060942 0.997518 0.035282
4710.00000000 -11150.00000000 -50.00000000 254 82 87 0.000000 0.000000 0.000000 0.000000 -60.708740 0.000000 74.000000 -0.481214 0.757132 0.441797
4730.00000000 -11150.00000000 -100.00000000 254 82 87 0.000000 0.000000 0.000000 0.000000 -60.708740 0.000000 74.000000 -0.652800 0.740648 0.159035
4740.00000000 -11140.00000000 -100.00000000 254 82 87 0.000000 0.000000 0.000000 0.000000 -60.708740 0.000000 74.000000 0.719880 -0.551081 -0.421999
4740.00000000 -11140.00000000 -100.00000000 254 82 87 0.000000 0.000000 0.000000 0.000000 -60.708740 0.000000 74.000000 0.719880 -0.551081 -0.421999
4740.00000000 -11150.00000000 -90.00000000 254 82 87 0.000000 0.000000 0.000000 0.000000 -60.708740 0.000000 74.000000 0.770767 -0.612661 -0.174829
4740.00000000 -11150.00000000 -90.00000000 254 82 87 0.000000 0.000000 0.000000 0.000000 -60.708740 0.000000 74.000000 0.770767 -0.612661 -0.174829
4740.00000000 -11150.00000000 -90.00000000 254 82 87 0.000000 0.000000 0.000000 0.000000 -60.708740 0.000000 74.000000 0.770767 -0.612661 -0.174829
4770.00000000 -11150.00000000 -120.00000000 254 82 87 0.000000 0.000000 0.000000 0.000000 -60.708740 0.000000 74.000000 -0.134553 0.990801 -0.014456
4770.00000000 -11120.00000000 -120.00000000 254 82 87 0.000000 0.000000 0.000000 0.000000 -60.708740 0.000000 74.000000 -0.033274 0.997156 0.067622
4790.00000000 -11140.00000000 -110.00000000 254 82 87 0.000000 0.000000 0.000000 0.000000 -60.708740 0.000000 74.000000 -0.048790 0.840584 0.539479
4780.00000000 -11150.00000000 -110.00000000 254 82 87 0.000000 0.000000 0.000000 0.000000 -60.708740 0.000000 74.000000 -0.082673 0.917534 0.388969
4760.00000000 -11150.00000000 -110.00000000 254 82 87 0.000000 0.000000 0.000000 0.000000 -60.708740 0.000000 74.000000 0.690500 -0.601083 -0.402378
4790.00000000 -11150.00000000 -170.00000000 254 82 87 0.000000 0.000000 0.000000 0.000000 -60.708740 0.000000 74.000000 -0.449840 0.893085 -0.006596
4790.00000000 -11120.00000000 -160.00000000 254 82 87 0.000000 0.000000 0.000000 0.000000 -60.708740 0.000000 74.000000 -0.285018 0.902312 0.323415
4780.00000000 -11130.00000000 -160.00000000 254 82 87 0.000000 0.000000 0.000000 0.000000 -60.708740 0.000000 74.000000 -0.081042 0.996710 0.001052
4740.00000000 -11110.00000000 -130.00000000 254 82 87 0.000000 0.000000 0.000000 0.000000 -60.708740 0.000000 74.000000 -0.571699 0.755286 0.320473
4730.00000000 -11150.00000000 -120.00000000 254 82 87 0.000000 0.000000 0.000000 0.000000 -60.708740 0.000000 74.000000 -0.441073 0.894512 0.072825
4730.00000000 -11150.00000000 -140.00000000 254 82 87 0.000000 0.000000 0.000000 0.000000 -60.708740 0.000000 74.000000 -0.607573 0.788242 0.097620
4750.00000000 -11140.00000000 -180.00000000 254 82 87 0.000000 0.000000 0.000000 0.000000 -60.708740 0.000000 74.000000 -0.559373 0.767736 0.312544
4820.00000000 -11140.00000000 -230.00000000 254 82 87 0.000000 0.000000 0.000000 0.000000 -60.708740 0.000000 74.000000 -0.329483 0.941192 0.074823
4810.00000000 -11140.00000000 -240.00000000 254 82 87 0.000000 0.000000 0.000000 0.000000 -60.708740 0.000000 74.000000 -0.544118 0.795008 0.268139
4800.00000000 -11150.00000000 -330.00000000 254 82 87 0.000000 0.000000 0.000000 0.000000 -60.708740 0.000000 74.000000 0.998613 0.052559 -0.003092
4800.00000000 -11150.00000000 -330.00000000 254 82 87 0.000000 0.000000 0.000000 0.000000 -60.708740 0.000000 74.000000 0.998613 0.052559 -0.003092
4800.00000000 -11130.00000000 -320.00000000 254 82 87 0.000000 0.000000 0.000000 0.000000 -60.708740 0.000000 74.000000 0.959147 0.104846 0.262762
4780.00000000 -11090.00000000 -200.00000000 254 82 87 0.000000 0.000000 0.000000 0.000000 -60.708740 0.000000 74.000000 -0.502687 0.840831 0.200773
4770.00000000 -11140.00000000 -200.00000000 254 82 87 0.000000 0.000000 0.000000 0.000000 -60.708740 0.000000 74.000000 -0.461678 0.796274 0.390898
4770.00000000 -11130.00000000 -220.00000000 254 82 87 0.000000 0.000000 0.000000 0.000000 -60.708740 0.000000 74.000000 -0.529444 0.836197 -0.143053
4780.00000000 -11140.00000000 -210.00000000 254 82 87 0.000000 0.000000 0.000000 0.000000 -60.708740 0.000000 74.000000 -0.382504 0.922511 0.051618
4790.00000000 -11120.00000000 -230.00000000 254 82 87 0.000000 0.000000 0.000000 0.000000 -60.708740 0.000000 74.000000 0.541375 -0.625702 -0.561614
4790.00000000 -11120.00000000 -240.00000000 254 82 87 0.000000 0.000000 0.000000 0.000000 -60.708740 0.000000 74.000000 0.814067 -0.551270 -0.182750
4750.00000000 -11100.00000000 -200.00000000 254 82 87 0.000000 0.000000 0.000000 0.000000 -60.708740 0.000000 74.000000 -0.348898 0.910609 0.221499
4740.00000000 -11080.00000000 -250.00000000 254 82 87 0.000000 0.000000 0.000000 0.000000 -60.708740 0.000000 74.000000 0.783615 -0.542014 -0.303591
4750.00000000 -11120.00000000 -230.00000000 254 82 87 0.000000 0.000000 0.000000 0.000000 -60.708740 0.000000 74.000000 0.866553 -0.498097 0.031387
4740.00000000 -11120.00000000 -250.00000000 254 82 87 0.000000 0.000000 0.000000 0.000000 -60.708740 0.000000 74.000000 0.762245 -0.625859 -0.165178
4740.00000000 -11120.00000000 -260.00000000 254 82 87 0.000000 0.000000 0.000000 0.000000 -60.708740 0.000000 74.000000 0.926914 -0.204570 0.314615
4730.00000000 -11120.00000000 -270.00000000 254 82 87 0.000000 0.000000 0.000000 0.000000 -60.708740 0.000000 74.000000 0.736314 -0.664624 -0.126951
4760.00000000 -11120.00000000 -420.00000000 254 82 87 0.000000 0.000000 0.000000 0.000000 -60.708740 0.000000 74.000000 0.903752 -0.271860 0.330641
4790.00000000 -11130.00000000 -410.00000000 254 82 87 0.000000 0.000000 0.000000 0.000000 -60.708740 0.000000 74.000000 0.838623 0.522105 0.155300
4790.00000000 -11150.00000000 -430.00000000 254 82 87 0.000000 0.000000 0.000000 0.000000 -60.708740 0.000000 74.000000 0.893646 0.266161 0.361324
4720.00000000 -11150.00000000 -420.00000000 254 82 87 0.000000 0.000000 0.000000 0.000000 -60.708740 0.000000 74.000000 0.850301 -0.063037 0.522508
4740.00000000 -11150.00000000 -460.00000000 254 82 87 0.000000 0.000000 0.000000 0.000000 -60.708740 0.000000 74.000000 0.682018 0.605685 0.409875
4750.00000000 -11150.00000000 -510.00000000 254 82 87 0.000000 0.000000 0.000000 0.000000 -60.708740 0.000000 74.000000 0.605265 0.731160 0.314738
4710.00000000 -11150.00000000 -600.00000000 254 82 87 0.000000 0.000000 0.000000 0.000000 -60.708740 0.000000 74.000000 0.776298 0.408492 0.480100
4710.00000000 -11140.00000000 -600.00000000 254 82 87 0.000000 0.000000 0.000000 0.000000 -60.708740 0.000000 74.000000 0.802502 0.462921 0.376423
4730.00000000 -11140.00000000 -580.00000000 254 82 87 0.000000 0.000000 0.000000 0.000000 -60.708740 0.000000 74.000000 0.818356 0.573822 0.031956
4770.00000000 -11150.00000000 -650.00000000 254 82 87 0.000000 0.000000 0.000000 0.000000 -60.708740 0.000000 74.000000 0.737882 0.490271 0.463859
4720.00000000 -11100.00000000 -640.00000000 254 82 87 0.000000 0.000000 0.000000 0.000000 -60.708740 0.000000 74.000000 0.789152 0.429415 0.439138
4700.00000000 -11110.00000000 -200.00000000 254 82 87 0.000000 0.000000 0.000000 0.000000 -60.708740 0.000000 74.000000 0.795887 -0.443953 -0.411666
4660.00000000 -11150.00000000 -340.00000000 254 82 87 0.000000 0.000000 0.000000 0.000000 -60.708740 0.000000 74.000000 0.975188 0.216306 0.047128
4680.00000000 -11140.00000000 -470.00000000 254 82 87 0.000000 0.000000 0.000000 0.000000 -60.708740 0.000000 74.000000 0.980016 0.051328 0.192183
4680.00000000 -11130.00000000 -470.00000000 254 82 87 0.000000 0.000000 0.000000 0.000000 -60.708740 0.000000 74.000000 0.865162 0.393534 0.310846
4700.00000000 -11120.00000000 -500.00000000 254 82 87 0.000000 0.000000 0.000000 0.000000 -60.708740 0.000000 74.000000 0.713208 0.480460 0.510385
4690.00000000 -11130.00000000 -490.00000000 254 82 87 0.000000 0.000000 0.000000 0.000000 -60.708740 0.000000 74.000000 0.889107 -0.093517 0.448043
4880.00000000 -11210.00000000 -130.00000000 254 82 87 0.000000 0.000000 0.000000 0.000000 -60.708740 0.000000 74.000000 0.961631 0.139613 0.236167
4880.00000000 -11210.00000000 -130.00000000 254 82 87 0.000000 0.000000 0.000000 0.000000 -60.708740 0.000000 74.000000 0.961631 0.139613 0.236167
4870.00000000 -11180.00000000 -50.00000000 254 82 87 0.000000 0.000000 0.000000 0.000000 -60.708740 0.000000 74.000000 0.965662 0.232118 0.116700
4850.00000000 -11180.00000000 -40.00000000 254 82 87 0.000000 0.000000 0.000000 0.000000 -60.708740 0.000000 74.000000 0.704154 0.679283 0.206738
4850.00000000 -11160.00000000 -60.00000000 254 82 87 0.000000 0.000000 0.000000 0.000000 -60.708740 0.000000 74.000000 0.795890 0.556968 0.237371
4860.00000000 -11190.00000000 -70.00000000 254 82 87 0.000000 0.000000 0.000000 0.000000 -60.708740 0.000000 74.000000 0.868171 0.128138 0.479438
4840.00000000 -11160.00000000 -100.00000000 254 82 87 0.000000 0.000000 0.000000 0.000000 -60.708740 0.000000 74.000000 0.626077 0.710201 0.321936
4840.00000000 -11190.00000000 -100.00000000 254 82 87 0.000000 0.000000 0.000000 0.000000 -60.708740 0.000000 74.000000 0.923951 0.235629 0.301319
4840.00000000 -11160.00000000 -90.00000000 254 82 87 0.000000 0.000000 0.000000 0.000000 -60.708740 0.000000 74.000000 0.422485 0.867685 0.261971
4870.00000000 -11180.00000000 -100.00000000 254 82 87 0.000000 0.000000 0.000000 0.000000 -60.708740 0.000000 74.000000 0.886981 0.460366 -0.036451
4860.00000000 -11210.00000000 -40.00000000 254 82 87 0.000000 0.000000 0.000000 0.000000 -60.708740 0.000000 74.000000 0.832867 0.505833 0.224645
4870.00000000 -11230.00000000 -60.00000000 254 82 87 0.000000 0.000000 0.000000 0.000000 -60.708740 0.000000 74.000000 0.983828 0.158991 -0.082484
4860.00000000 -11220.00000000 -50.00000000 254 82 87 0.000000 0.000000 0.000000 0.000000 -60.708740 0.000000 74.000000 0.853061 0.503087 0.138531
4820.00000000 -11180.00000000 -60.00000000 254 82 87 0.000000 0.000000 0.000000 0.000000 -60.708740 0.000000 74.000000 0.544916 0.838437 0.009512
4800.00000000 -11160.00000000 -80.00000000 254 82 87 0.000000 0.000000 0.000000 0.000000 -60.708740 0.000000 74.000000 0.336031 0.732125 0.592518
4840.00000000 -11180.00000000 -180.00000000 254 82 87 0.000000 0.000000 0.000000 0.000000 -60.708740 0.000000 74.000000 0.839269 0.346689 0.418850
4840.00000000 -11180.00000000 -180.00000000 254 82 87 0.000000 0.000000 0.000000 0.000000 -60.708740 0.000000 74.000000 0.839269 0.346689 0.418850
4860.00000000 -11220.00000000 -120.00000000 254 82 87 0.000000 0.000000 0.000000 0.000000 -60.708740 0.000000 74.000000 0.986157 0.145615 0.079319
4830.00000000 -11180.00000000 -160.00000000 254 82 87 0.000000 0.000000 0.000000 0.000000 -60.708740 0.000000 74.000000 0.960546 0.276389 0.030985
4830.00000000 -11180.00000000 -150.00000000 254 82 87 0.000000 0.000000 0.000000 0.000000 -60.708740 0.000000 74.000000 0.776839 0.366616 0.511971
4810.00000000 -11170.00000000 -150.00000000 254 82 87 0.000000 0.000000 0.000000 0.000000 -60.708740 0.000000 74.000000 0.041138 0.961132 0.273006
4860.00000000 -11260.00000000 -40.00000000 254 82 87 0.000000 0.000000 0.000000 0.000000 -60.708740 0.000000 74.000000 0.950937 -0.257630 0.171304
4860.00000000 -11240.00000000 -80.00000000 254 82 87 0.000000 0.000000 0.000000 0.000000 -60.708740 0.000000 74.000000 0.957350 -0.201618 -0.206958
4860.00000000 -11250.00000000 -90.00000000 254 82 87 0.000000 0.000000 0.000000 0.000000 -60.708740 0.000000 74.000000 0.986767 0.054756 0.152617
4870.00000000 -11240.00000000 -90.00000000 254 82 87 0.000000 0.000000 0.000000 0.000000 -60.708740 0.000000 74.000000 0.951866 -0.233578 0.198474
4850.00000000 -11240.00000000 -100.00000000 254 82 87 0.000000 0.000000 0.000000 0.000000 -60.708740 0.000000 74.000000 0.995120 -0.067522 0.071950
4870.00000000 -11270.00000000 -70.00000000 254 82 87 0.000000 0.000000 0.000000 0.000000 -60.708740 0.000000 74.000000 0.892758 -0.324503 -0.312540
4850.00000000 -11240.00000000 -90.00000000 254 82 87 0.000000 0.000000 0.000000 0.000000 -60.708740 0.000000 74.000000 0.919342 -0.351638 -0.176525
4870.00000000 -11310.00000000 -20.00000000 254 82 87 0.000000 0.000000 0.000000 0.000000 -60.708740 0.000000 74.000000 0.829607 -0.439203 -0.344751
4860.00000000 -11280.00000000 -60.00000000 254 82 87 0.000000 0.000000 0.000000 0.000000 -60.708740 0.000000 74.000000 0.846336 -0.427050 -0.318346
4870.00000000 -11290.00000000 -30.00000000 254 82 87 0.000000 0.000000 0.000000 0.000000 -60.708740 0.000000 74.000000 0.929343 -0.218586 0.297559
4840.00000000 -11300.00000000 -60.00000000 254 82 87 0.000000 0.000000 0.000000 0.000000 -60.708740 0.000000 74.000000 0.570376 -0.724887 -0.386278
4850.00000000 -11300.00000000 -50.00000000 254 82 87 0.000000 0.000000 0.000000 0.000000 -60.708740 0.000000 74.000000 -0.592563 0.743513 0.309931
4840.00000000 -11310.00000000 -70.00000000 254 82 87 0.000000 0.000000 0.000000 0.000000 -60.708740 0.000000 74.000000 -0.639537 0.675706 0.366624
4840.00000000 -11310.00000000 -70.00000000 254 82 87 0.000000 0.000000 0.000000 0.000000 -60.708740 0.000000 74.000000 -0.639537 0.675706 0.366624
4840.00000000 -11300.00000000 -100.00000000 254 82 87 0.000000 0.000000 0.000000 0.000000 -60.708740 0.000000 74.000000 0.597207 -0.733157 -0.325308
4830.00000000 -11250.00000000 -90.00000000 254 82 87 0.000000 0.000000 0.000000 0.000000 -60.708740 0.000000 74.000000 0.909395 -0.409160 -0.074763
4800.00000000 -11310.00000000 -30.00000000 254 82 87 0.000000 0.000000 0.000000 0.000000 -60.708740 0.000000 74.000000 -0.134938 0.949908 0.281899
4860.00000000 -11270.00000000 -110.00000000 254 82 87 0.000000 0.000000 0.000000 0.000000 -60.708740 0.000000 74.000000 0.638469 -0.664865 -0.387701
4850.00000000 -11250.00000000 -170.00000000 254 82 87 0.000000 0.000000 0.000000 0.000000 -60.708740 0.000000 74.000000 -0.633132 0.669500 0.388475
4850.00000000 -11260.00000000 -150.00000000 254 82 87 0.000000 0.000000 0.000000 0.000000 -60.708740 0.000000 74.000000 0.861390 -0.428408 -0.272900
4840.00000000 -11280.00000000 -110.00000000 254 82 87 0.000000 0.000000 0.000000 0.000000 -60.708740 0.000000 74.000000 -0.687725 0.655361 0.312308
4840.00000000 -11280.00000000 -160.00000000 254 82 87 0.000000 0.000000 0.000000 0.000000 -60.708740 0.000000 74.000000 -0.481916 0.708701 0.515267
4840.00000000 -11310.00000000 -170.00000000 254 82 87 0.000000 0.000000 0.000000 0.000000 -60.708740 0.000000 74.000000 -0.307571 0.732695 0.607090
4830.00000000 -11310.00000000 -110.00000000 254 82 87 0.000000 0.000000 0.000000 0.000000 -60.708740 0.000000 74.000000 -0.537526 0.769969 0.343823
4800.00000000 -11300.00000000 -180.00000000 254 82 87 0.000000 0.000000 0.000000 0.000000 -60.708740 0.000000 74.000000 -0.396255 0.806949 0.437966
4790.00000000 -11160.00000000 -60.00000000 254 82 87 0.000000 0.000000 0.000000 0.000000 -60.708740 0.000000 74.000000 0.452490 0.854703 0.254430
4760.00000000 -11170.00000000 -60.00000000 254 82 87 0.000000 0.000000 0.000000 0.000000 -60.708740 0.000000 74.000000 -0.259554 0.954360 0.147746
4770.00000000 -11160.00000000 -30.00000000 254 82 87 0.000000 0.000000 0.000000 0.000000 -60.708740 0.000000 74.000000 0.267225 0.856646 0.441303
4730.00000000 -11180.00000000 -20.00000000 254 82 87 0.000000 0.000000 0.000000 0.000000 -60.708740 0.000000 74.000000 -0.509507 0.725259 0.463037
4730.00000000 -11180.00000000 -30.00000000 254 82 87 0.000000 0.000000 0.000000 0.000000 -60.708740 0.000000 74.000000 0.685011 -0.675430 -0.273046
4720.00000000 -11180.00000000 -20.00000000 254 82 87 0.000000 0.000000 0.000000 0.000000 -60.708740 0.000000 74.000000 -0.430554 0.794993 0.427329
4730.00000000 -11180.00000000 -60.00000000 254 82 87 0.000000 0.000000 0.000000 0.000000 -60.708740 0.000000 74.000000 -0.377813 0.915953 0.135232
4710.00000000 -11190.00000000 -60.00000000 254 82 87 0.000000 0.000000 0.000000 0.000000 -60.708740 0.000000 74.000000 0.875549 -0.478707 0.065215
4720.00000000 -11180.00000000 -20.00000000 254 82 87 0.000000 0.000000 0.000000 0.000000 -60.708740 0.000000 74.000000 -0.430554 0.794993 0.427329
4740.00000000 -11170.00000000 -20.00000000 254 82 87 0.000000 0.000000 0.000000 0.000000 -60.708740 0.000000 74.000000 -0.599710 0.692227 0.401459
4710.00000000 -11170.00000000 -50.00000000 254 82 87 0.000000 0.000000 0.000000 0.000000 -60.708740 0.000000 74.000000 0.858822 -0.502760 -0.098273
4710.00000000 -11180.00000000 -50.00000000 254 82 87 0.000000 0.000000 0.000000 0.000000 -60.708740 0.000000 74.000000 0.874505 -0.458351 -0.158604
4740.00000000 -11190.00000000 -40.00000000 254 82 87 0.000000 0.000000 0.000000 0.000000 -60.708740 0.000000 74.000000 -0.404110 0.847227 0.344820
4740.00000000 -11170.00000000 -30.00000000 254 82 87 0.000000 0.000000 0.000000 0.000000 -60.708740 0.000000 74.000000 -0.321632 0.776077 0.542454
4750.00000000 -11170.00000000 -30.00000000 254 82 87 0.000000 0.000000 0.000000 0.000000 -60.708740 0.000000 74.000000 -0.532509 0.804229 0.263912
4720.00000000 -11190.00000000 -70.00000000 254 82 87 0.000000 0.000000 0.000000 0.000000 -60.708740 0.000000 74.000000 0.805308 -0.592585 -0.017957
4720.00000000 -11180.00000000 -80.00000000 254 82 87 0.000000 0.000000 0.000000 0.000000 -60.708740 0.000000 74.000000 0.734902 -0.606254 -0.303931
4740.00000000 -11170.00000000 -80.00000000 254 82 87 0.000000 0.000000 0.000000 0.000000 -60.708740 0.000000 74.000000 0.825224 -0.435579 -0.359551
4740.00000000 -11170.00000000 -100.00000000 254 82 87 0.000000 0.000000 0.000000 0.000000 -60.708740 0.000000 74.000000 -0.401604 0.899651 0.171294
4750.00000000 -11170.00000000 -70.00000000 254 82 87 0.000000 0.000000 0.000000 0.000000 -60.708740 0.000000 74.000000 -0.542818 0.696477 0.469328
4740.00000000 -11170.00000000 -80.00000000 254 82 87 0.000000 0.000000 0.000000 0.000000 -60.708740 0.000000 74.000000 0.825224 -0.435579 -0.359551
4710.00000000 -11190.00000000 -70.00000000 254 82 87 0.000000 0.000000 0.000000 0.000000 -60.708740 0.000000 74.000000 -0.571731 0.818966 0.049166
4710.00000000 -11200.00000000 -20.00000000 254 82 87 0.000000 0.000000 0.000000 0.000000 -60.708740 0.000000 74.000000 0.957367 -0.286584 -0.036292
4710.00000000 -11210.00000000 -40.00000000 254 82 87 0.000000 0.000000 0.000000 0.000000 -60.708740 0.000000 74.000000 0.769141 -0.529493 -0.357853
4710.00000000 -11200.00000000 -40.00000000 254 82 87 0.000000 0.000000 0.000000 0.000000 -60.708740 0.000000 74.000000 0.932974 -0.334669 -0.132501
4710.00000000 -11200.00000000 -50.00000000 254 82 87 0.000000 0.000000 0.000000 0.000000 -60.708740 0.000000 74.000000 0.878600 -0.445878 -0.171042
4710.00000000 -11180.00000000 -120.00000000 254 82 87 0.000000 0.000000 0.000000 0.000000 -60.708740 0.000000 74.000000 0.969785 -0.214802 0.115662
4710.00000000 -11180.00000000 -110.00000000 254 82 87 0.000000 0.000000 0.000000 0.000000 -60.708740 0.000000 74.000000 0.882794 -0.466718 0.053378
4710.00000000 -11190.00000000 -110.00000000 254 82 87 0.000000 0.000000 0.000000 0.000000 -60.708740 0.000000 74.000000 0.870896 -0.490473 -0.031249
4750.00000000 -11160.00000000 -110.00000000 254 82 87 0.000000 0.000000 0.000000 0.000000 -60.708740 0.000000 74.000000 -0.483817 0.773781 0.408882
4750.00000000 -11160.00000000 -110.00000000 254 82 87 0.000000 0.000000 0.000000 0.000000 -60.708740 0.000000 74.000000 -0.483817 0.773781 0.408882
4710.00000000 -11190.00000000 -120.00000000 254 82 87 0.000000 0.000000 0.000000 0.000000 -60.708740 0.000000 74.000000 0.850756 -0.520612 -0.071954
4790.00000000 -11310.00000000 -100.00000000 254 82 87 0.000000 0.000000 0.000000 0.000000 -60.708740 0.000000 74.000000 -0.312331 0.846867 0.430426
4740.00000000 -11270.00000000 -20.00000000 254 82 87 0.000000 0.000000 0.000000 0.000000 -60.708740 0.000000 74.000000 0.775551 0.534696 0.335590
4760.00000000 -11310.00000000 -110.00000000 254 82 87 0.000000 0.000000 0.000000 0.000000 -60.708740 0.000000 74.000000 -0.080309 0.941322 0.327817
4780.00000000 -11310.00000000 -180.00000000 254 82 87 0.000000 0.000000 0.000000 0.000000 -60.708740 0.000000 74.000000 -0.085614 0.974012 0.209692
4780.00000000 -11310.00000000 -170.00000000 254 82 87 0.000000 0.000000 0.000000 0.000000 -60.708740 0.000000 74.000000 -0.191178 0.838472 0.510309
4780.00000000 -11310.00000000 -180.00000000 254 82 87 0.000000 0.000000 0.000000 0.000000 -60.708740 0.000000 74.000000 -0.085614 0.974012 0.209692
4720.00000000 -11310.00000000 -120.00000000 254 82 87 0.000000 0.000000 0.000000 0.000000 -60.708740 0.000000 74.000000 0.285228 0.936383 0.204529
4720.00000000 -11290.00000000 -180.00000000 254 82 87 0.000000 0.000000 0.000000 0.000000 -60.708740 0.000000 74.000000 0.657429 0.654134 0.374026
4730.00000000 -11310.00000000 -160.00000000 254 82 87 0.000000 0.000000 0.000000 0.000000 -60.708740 0.000000 74.000000 0.310792 0.929564 0.198288
4800.00000000 -11160.00000000 -240.00000000 254 82 87 0.000000 0.000000 0.000000 0.000000 -60.708740 0.000000 74.000000 0.888298 -0.377713 0.261264
4800.00000000 -11160.00000000 -240.00000000 254 82 87 0.000000 0.000000 0.000000 0.000000 -60.708740 0.000000 74.000000 0.888298 -0.377713 0.261264
4800.00000000 -11160.00000000 -270.00000000 254 82 87 0.000000 0.000000 0.000000 0.000000 -60.708740 0.000000 74.000000 0.817920 0.473033 0.327484
4800.00000000 -11180.00000000 -340.00000000 254 82 87 0.000000 0.000000 0.000000 0.000000 -60.708740 0.000000 74.000000 0.761468 0.632304 0.142681
4800.00000000 -11180.00000000 -340.00000000 254 82 87 0.000000 0.000000 0.000000 0.000000 -60.708740 0.000000 74.000000 0.761468 0.632304 0.142681
4820.00000000 -11230.00000000 -300.00000000 254 82 87 0.000000 0.000000 0.000000 0.000000 -60.708740 0.000000 74.000000 -0.117840 0.935944 0.331847
4870.00000000 -11270.00000000 -200.00000000 254 82 87 0.000000 0.000000 0.000000 0.000000 -60.708740 0.000000 74.000000 -0.202021 0.956591 0.210049
4840.00000000 -11310.00000000 -230.00000000 254 82 87 0.000000 0.000000 0.000000 0.000000 -60.708740 0.000000 74.000000 -0.177765 0.980732 0.081022
4840.00000000 -11280.00000000 -270.00000000 254 82 87 0.000000 0.000000 0.000000 0.000000 -60.708740 0.000000 74.000000 -0.137216 0.989995 0.032886
4840.00000000 -11280.00000000 -270.00000000 254 82 87 0.000000 0.000000 0.000000 0.000000 -60.708740 0.000000 74.000000 -0.137216 0.989995 0.032886
4820.00000000 -11310.00000000 -210.00000000 254 82 87 0.000000 0.000000 0.000000 0.000000 -60.708740 0.000000 74.000000 -0.039827 0.973943 0.223271
4800.00000000 -11310.00000000 -200.00000000 254 82 87 0.000000 0.000000 0.000000 0.000000 -60.708740 0.000000 74.000000 -0.173114 0.817398 0.549448
4800.00000000 -11310.00000000 -200.00000000 254 82 87 0.000000 0.000000 0.000000 0.000000 -60.708740 0.000000 74.000000 -0.173114 0.817398 0.549448
4800.00000000 -11310.00000000 -210.00000000 254 82 87 0.000000 0.000000 0.000000 0.000000 -60.708740 0.000000 74.000000 0.135418 0.977741 0.160265
4830.00000000 -11290.00000000 -190.00000000 254 82 87 0.000000 0.000000 0.000000 0.000000 -60.708740 0.000000 74.000000 -0.193097 0.975449 0.105892
4820.00000000 -11290.00000000 -230.00000000 254 82 87 0.000000 0.000000 0.000000 0.000000 -60.708740 0.000000 74.000000 -0.115609 0.818047 0.563413
4800.00000000 -11310.00000000 -240.00000000 254 82 87 0.000000 0.000000 0.000000 0.000000 -60.708740 0.000000 74.000000 -0.237225 0.804703 0.544221
4820.00000000 -11280.00000000 -240.00000000 254 82 87 0.000000 0.000000 0.000000 0.000000 -60.708740 0.000000 74.000000 -0.445223 0.848851 0.285005
4830.00000000 -11270.00000000 -300.00000000 254 82 87 0.000000 0.000000 0.000000 0.000000 -60.708740 0.000000 74.000000 -0.207024 0.904826 0.372064
4830.00000000 -11250.00000000 -300.00000000 254 82 87 0.000000 0.000000 0.000000 0.000000 -60.708740 0.000000 74.000000 0.282872 0.887531 0.363693
4800.00000000 -11270.00000000 -340.00000000 254 82 87 0.000000 0.000000 0.000000 0.000000 -60.708740 0.000000 74.000000 0.332363 0.803079 0.494569
4780.00000000 -11190.00000000 -260.00000000 254 82 87 0.000000 0.000000 0.000000 0.000000 -60.708740 0.000000 74.000000 0.782573 0.620072 0.055593
4790.00000000 -11170.00000000 -240.00000000 254 82 87 0.000000 0.000000 0.000000 0.000000 -60.708740 0.000000 74.000000 0.901605 -0.270039 0.337917
4790.00000000 -11170.00000000 -290.00000000 254 82 87 0.000000 0.000000 0.000000 0.000000 -60.708740 0.000000 74.000000 0.599646 0.569241 0.562485
4710.00000000 -11160.00000000 -290.00000000 254 82 87 0.000000 0.000000 0.000000 0.000000 -60.708740 0.000000 74.000000 0.969271 -0.219769 0.110520
4780.00000000 -11240.00000000 -260.00000000 254 82 87 0.000000 0.000000 0.000000 0.000000 -60.708740 0.000000 74.000000 0.718794 0.506310 0.476429
4710.00000000 -11290.00000000 -220.00000000 254 82 87 0.000000 0.000000 0.000000 0.000000 -60.708740 0.000000 74.000000 0.412639 0.581672 0.700990
4710.00000000 -11290.00000000 -220.00000000 254 82 87 0.000000 0.000000 0.000000 0.000000 -60.708740 0.000000 74.000000 0.412639 0.581672 0.700990
4730.00000000 -11300.00000000 -190.00000000 254 82 87 0.000000 0.000000 0.000000 0.000000 -60.708740 0.000000 74.000000 0.739599 0.671197 0.049877
4740.00000000 -11310.00000000 -230.00000000 254 82 87 0.000000 0.000000 0.000000 0.000000 -60.708740 0.000000 74.000000 0.482650 0.778415 0.401396
4710.00000000 -11290.00000000 -220.00000000 254 82 87 0.000000 0.000000 0.000000 0.000000 -60.708740 0.000000 74.000000 0.412639 0.581672 0.700990
4750.00000000 -11310.00000000 -240.00000000 254 82 87 0.000000 0.000000 0.000000 0.000000 -60.708740 0.000000 74.000000 0.271474 0.854300 0.443254
4740.00000000 -11310.00000000 -270.00000000 254 82 87 0.000000 0.000000 0.000000 0.000000 -60.708740 0.000000 74.000000 0.112266 0.817938 0.564246
4790.00000000 -11300.00000000 -280.00000000 254 82 87 0.000000 0.000000 0.000000 0.000000 -60.708740 0.000000 74.000000 -0.093209 0.964012 0.248983
4780.00000000 -11300.00000000 -280.00000000 254 82 87 0.000000 0.000000 0.000000 0.000000 -60.708740 0.000000 74.000000 0.068715 0.859644 0.506251
4770.00000000 -11290.00000000 -280.00000000 254 82 87 0.000000 0.000000 0.000000 0.000000 -60.708740 0.000000 74.000000 0.084727 0.990024 0.112582
4790.00000000 -11310.00000000 -340.00000000 254 82 87 0.000000 0.000000 0.000000 0.000000 -60.708740 0.000000 74.000000 -0.001075 0.994546 0.104293
4710.00000000 -11310.00000000 -290.00000000 254 82 87 0.000000 0.000000 0.000000 0.000000 -60.708740 0.000000 74.000000 0.702805 0.525852 0.479109
4860.00000000 -11320.00000000 -20.00000000 254 82 87 0.000000 0.000000 0.000000 0.000000 -60.708740 0.000000 74.000000 0.806379 -0.543261 -0.233711
4860.00000000 -11320.00000000 -20.00000000 254 82 87 0.000000 0.000000 0.000000 0.000000 -60.708740 0.000000 74.000000 0.806379 -0.543261 -0.233711
4870.00000000 -11320.00000000 -60.00000000 254 82 87 0.000000 0.000000 0.000000 0.000000 -60.708740 0.000000 74.000000 0.888792 -0.458263 0.006603
4800.00000000 -11340.00000000 -30.00000000 254 82 87 0.000000 0.000000 0.000000 0.000000 -60.708740 0.000000 74.000000 -0.507138 0.807313 0.301755
4830.00000000 -11320.00000000 -20.00000000 254 82 87 0.000000 0.000000 0.000000 0.000000 -60.708740 0.000000 74.000000 -0.512807 0.819562 0.255629
4830.00000000 -11320.00000000 -20.00000000 254 82 87 0.000000 0.000000 0.000000 0.000000 -60.708740 0.000000 74.000000 -0.512807 0.819562 0.255629
4820.00000000 -11320.00000000 -100.00000000 254 82 87 0.000000 0.000000 0.000000 0.000000 -60.708740 0.000000 74.000000 -0.364192 0.893385 0.263110
4830.00000000 -11320.00000000 -90.00000000 254 82 87 0.000000 0.000000 0.000000 0.000000 -60.708740 0.000000 74.000000 -0.687838 0.601651 0.406073
4810.00000000 -11320.00000000 -100.00000000 254 82 87 0.000000 0.000000 0.000000 0.000000 -60.708740 0.000000 74.000000 -0.014851 0.865392 0.500875
4810.00000000 -11350.00000000 -90.00000000 254 82 87 0.000000 0.000000 0.000000 0.000000 -60.708740 0.000000 74.000000 -0.596784 0.726874 0.339858
4820.00000000 -11320.00000000 -90.00000000 254 82 87 0.000000 0.000000 0.000000 0.000000 -60.708740 0.000000 74.000000 -0.472541 0.817070 0.330305
4810.00000000 -11320.00000000 -120.00000000 254 82 87 0.000000 0.000000 0.000000 0.000000 -60.708740 0.000000 74.000000 -0.300449 0.835963 0.459235
4800.00000000 -11330.00000000 -180.00000000 254 82 87 0.000000 0.000000 0.000000 0.000000 -60.708740 0.000000 74.000000 -0.289923 0.860564 0.418777
4810.00000000 -11340.00000000 -180.00000000 254 82 87 0.000000 0.000000 0.000000 0.000000 -60.708740 0.000000 74.000000 -0.038202 0.734321 0.677726
4800.00000000 -11320.00000000 -130.00000000 254 82 87 0.000000 0.000000 0.000000 0.000000 -60.708740 0.000000 74.000000 -0.519667 0.796186 0.309893
4780.00000000 -11340.00000000 -50.00000000 254 82 87 0.000000 0.000000 0.000000 0.000000 -60.708740 0.000000 74.000000 -0.425486 0.720180 0.547999
4770.00000000 -11360.00000000 -60.00000000 254 82 87 0.000000 0.000000 0.000000 0.000000 -60.708740 0.000000 74.000000 -0.149115 0.875871 0.458928
4790.00000000 -11330.00000000 -60.00000000 254 82 87 0.000000 0.000000 0.000000 0.000000 -60.708740 0.000000 74.000000 0.106133 0.936392 0.334522
4760.00000000 -11330.00000000 -90.00000000 254 82 87 0.000000 0.000000 0.000000 0.000000 -60.708740 0.000000 74.000000 0.018200 0.709784 0.704184
4780.00000000 -11320.00000000 -90.00000000 254 82 87 0.000000 0.000000 0.000000 0.000000 -60.708740 0.000000 74.000000 -0.165921 0.939302 0.300302
4780.00000000 -11320.00000000 -100.00000000 254 82 87 0.000000 0.000000 0.000000 0.000000 -60.708740 0.000000 74.000000 -0.216344 0.943921 0.249416
4730.00000000 -11320.00000000 -30.00000000 254 82 87 0.000000 0.000000 0.000000 0.000000 -60.708740 0.000000 74.000000 0.659344 0.715725 0.230222
4750.00000000 -11330.00000000 -30.00000000 254 82 87 0.000000 0.000000 0.000000 0.000000 -60.708740 0.000000 74.000000 0.046223 0.923142 0.381671
4740.00000000 -11320.00000000 -40.00000000 254 82 87 0.000000 0.000000 0.000000 0.000000 -60.708740 0.000000 74.000000 0.219284 0.760496 0.611196
4710.00000000 -11350.00000000 -40.00000000 254 82 87 0.000000 0.000000 0.000000 0.000000 -60.708740 0.000000 74.000000 0.345201 0.892143 0.291404
4720.00000000 -11360.00000000 -50.00000000 254 82 87 0.000000 0.000000 0.000000 0.000000 -60.708740 0.000000 74.000000 0.240880 0.948550 0.205497
4740.00000000 -11330.00000000 -40.00000000 254 82 87 0.000000 0.000000 0.000000 0.000000 -60.708740 0.000000 74.000000 0.546797 0.803931 0.233899
4710.00000000 -11320.00000000 -70.00000000 254 82 87 0.000000 0.000000 0.000000 0.000000 -60.708740 0.000000 74.000000 0.235759 0.847210 0.476080
4710.00000000 -11340.00000000 -100.00000000 254 82 87 0.000000 0.000000 0.000000 0.000000 -60.708740 0.000000 74.000000 0.746472 0.574832 0.335184
4710.00000000 -11330.00000000 -90.00000000 254 82 87 0.000000 0.000000 0.000000 0.000000 -60.708740 0.000000 74.000000 0.682310 0.730340 0.032491
4740.00000000 -11320.00000000 -90.00000000 254 82 87 0.000000 0.000000 0.000000 0.000000 -60.708740 0.000000 74.000000 0.471671 0.736469 0.484911
4730.00000000 -11350.00000000 -70.00000000 254 82 87 0.000000 0.000000 0.000000 0.000000 -60.708740 0.000000 74.000000 0.259840 0.864615 0.430028
4770.00000000 -11350.00000000 -110.00000000 254 82 87 0.000000 0.000000 0.000000 0.000000 -60.708740 0.000000 74.000000 -0.310961 0.832875 0.457847
4780.00000000 -11320.00000000 -140.00000000 254 82 87 0.000000 0.000000 0.000000 0.000000 -60.708740 0.000000 74.000000 -0.058357 0.967235 0.247086
4790.00000000 -11320.00000000 -140.00000000 254 82 87 0.000000 0.000000 0.000000 0.000000 -60.708740 0.000000 74.000000 -0.156336 0.952716 0.260560
4770.00000000 -11320.00000000 -130.00000000 254 82 87 0.000000 0.000000 0.000000 0.000000 -60.708740 0.000000 74.000000 0.099885 0.977887 0.183739
4760.00000000 -11320.00000000 -120.00000000 254 82 87 0.000000 0.000000 0.000000 0.000000 -60.708740 0.000000 74.000000 0.472837 0.849891 0.232618
4780.00000000 -11320.00000000 -130.00000000 254 82 87 0.000000 0.000000 0.000000 0.000000 -60.708740 0.000000 74.000000 0.231570 0.946832 0.223348
4720.00000000 -11330.00000000 -130.00000000 254 82 87 0.000000 0.000000 0.000000 0.000000 -60.708740 0.000000 74.000000 0.512389 0.801104 0.309337
4730.00000000 -11320.00000000 -120.00000000 254 82 87 0.000000 0.000000 0.000000 0.000000 -60.708740 0.000000 74.000000 0.661190 0.553515 0.506408
4730.00000000 -11330.00000000 -140.00000000 254 82 87 0.000000 0.000000 0.000000 0.000000 -60.708740 0.000000 74.000000 0.135405 0.784161 0.605604
4730.00000000 -11330.00000000 -140.00000000 254 82 87 0.000000 0.000000 0.000000 0.000000 -60.708740 0.000000 74.000000 0.135405 0.784161 0.605604
4730.00000000 -11330.00000000 -110.00000000 254 82 87 0.000000 0.000000 0.000000 0.000000 -60.708740 0.000000 74.000000 0.245755 0.933868 0.259798
4740.00000000 -11320.00000000 -150.00000000 254 82 87 0.000000 0.000000 0.000000 0.000000 -60.708740 0.000000 74.000000 0.380977 0.867525 0.319776
4730.00000000 -11320.00000000 -150.00000000 254 82 87 0.000000 0.000000 0.000000 0.000000 -60.708740 0.000000 74.000000 0.273969 0.914678 0.297162
4750.00000000 -11320.00000000 -160.00000000 254 82 87 0.000000 0.000000 0.000000 0.000000 -60.708740 0.000000 74.000000 0.146539 0.935386 0.321838
4720.00000000 -11330.00000000 -170.00000000 254 82 87 0.000000 0.000000 0.000000 0.000000 -60.708740 0.000000 74.000000 0.197261 0.948213 0.248957
4750.00000000 -11330.00000000 -150.00000000 254 82 87 0.000000 0.000000 0.000000 0.000000 -60.708740 0.000000 74.000000 0.293143 0.784357 0.546673
4710.00000000 -11330.00000000 -180.00000000 254 82 87 0.000000 0.000000 0.000000 0.000000 -60.708740 0.000000 74.000000 0.374785 0.875511 0.304987
4710.00000000 -11320.00000000 -160.00000000 254 82 87 0.000000 0.000000 0.000000 0.000000 -60.708740 0.000000 74.000000 0.473857 0.719930 0.507110
4800.00000000 -11340.00000000 -240.00000000 254 82 87 0.000000 0.000000 0.000000 0.000000 -60.708740 0.000000 74.000000 -0.218932 0.920087 0.324821
4830.00000000 -11320.00000000 -210.00000000 254 82 87 0.000000 0.000000 0.000000 0.000000 -60.708740 0.000000 74.000000 0.067286 0.985677 0.154639
4800.00000000 -11320.00000000 -190.00000000 254 82 87 0.000000 0.000000 0.000000 0.000000 -60.708740 0.000000 74.000000 -0.304265 0.775797 0.552776
4810.00000000 -11330.00000000 -280.00000000 254 82 87 0.000000 0.000000 0.000000 0.000000 -60.708740 0.000000 74.000000 0.082854 0.962382 0.258760
4780.00000000 -11320.00000000 -220.00000000 254 82 87 0.000000 0.000000 0.000000 0.000000 -60.708740 0.000000 74.000000 -0.174808 0.835193 0.521435
4770.00000000 -11340.00000000 -190.00000000 254 82 87 0.000000 0.000000 0.000000 0.000000 -60.708740 0.000000 74.000000 0.174255 0.795510 0.580344
4760.00000000 -11350.00000000 -190.00000000 254 82 87 0.000000 0.000000 0.000000 0.000000 -60.708740 0.000000 74.000000 -0.036864 0.947017 0.319062
4780.00000000 -11340.00000000 -240.00000000 254 82 87 0.000000 0.000000 0.000000 0.000000 -60.708740 0.000000 74.000000 0.282805 0.957478 0.057068
4760.00000000 -11340.00000000 -270.00000000 254 82 87 0.000000 0.000000 0.000000 0.000000 -60.708740 0.000000 74.000000 0.096753 0.919831 0.380197
4770.00000000 -11320.00000000 -260.00000000 254 82 87 0.000000 0.000000 0.000000 0.000000 -60.708740 0.000000 74.000000 0.209693 0.675678 0.706744
4780.00000000 -11340.00000000 -240.00000000 254 82 87 0.000000 0.000000 0.000000 0.000000 -60.708740 0.000000 74.000000 0.282805 0.957478 0.057068
4740.00000000 -11320.00000000 -230.00000000 254 82 87 0.000000 0.000000 0.000000 0.000000 -60.708740 0.000000 74.000000 0.217597 0.832347 0.509755
4750.00000000 -11320.00000000 -230.00000000 254 82 87 0.000000 0.000000 0.000000 0.000000 -60.708740 0.000000 74.000000 0.233860 0.695302 0.679606
4750.00000000 -11320.00000000 -230.00000000 254 82 87 0.000000 0.000000 0.000000 0.000000 -60.708740 0.000000 74.000000 0.233860 0.695302 0.679606
4750.00000000 -11320.00000000 -190.00000000 254 82 87 0.000000 0.000000 0.000000 0.000000 -60.708740 0.000000 74.000000 0.262985 0.928266 0.262985
4750.00000000 -11320.00000000 -270.00000000 254 82 87 0.000000 0.000000 0.000000 0.000000 -60.708740 0.000000 74.000000 -0.027450 0.918934 0.393455
4720.00000000 -11320.00000000 -260.00000000 254 82 87 0.000000 0.000000 0.000000 0.000000 -60.708740 0.000000 74.000000 0.307493 0.851401 0.424928
4730.00000000 -11320.00000000 -260.00000000 254 82 87 0.000000 0.000000 0.000000 0.000000 -60.708740 0.000000 74.000000 0.159543 0.827534 0.538270
4760.00000000 -11320.00000000 -280.00000000 254 82 87 0.000000 0.000000 0.000000 0.000000 -60.708740 0.000000 74.000000 0.376008 0.890231 0.257112
4760.00000000 -11320.00000000 -290.00000000 254 82 87 0.000000 0.000000 0.000000 0.000000 -60.708740 0.000000 74.000000 0.521263 0.809289 0.270806
4760.00000000 -11320.00000000 -280.00000000 254 82 87 0.000000 0.000000 0.000000 0.000000 -60.708740 0.000000 74.000000 0.376008 0.890231 0.257112
4740.00000000 -11330.00000000 -320.00000000 254 82 87 0.000000 0.000000 0.000000 0.000000 -60.708740 0.000000 74.000000 0.424199 0.899859 0.101530
4710.00000000 -11340.00000000 -330.00000000 254 82 87 0.000000 0.000000 0.000000 0.000000 -60.708740 0.000000 74.000000 0.242152 0.942318 0.231082
4730.00000000 -11320.00000000 -330.00000000 254 82 87 0.000000 0.000000 0.000000 0.000000 -60.708740 0.000000 74.000000 0.572424 0.810811 0.122137
4740.00000000 -11330.00000000 -340.00000000 254 82 87 0.000000 0.000000 0.000000 0.000000 -60.708740 0.000000 74.000000 0.230189 0.949360 0.213844
4740.00000000 -11330.00000000 -320.00000000 254 82 87 0.000000 0.000000 0.000000 0.000000 -60.708740 0.000000 74.000000 0.424199 0.899859 0.101530
4800.00000000 -11190.00000000 -440.00000000 254 82 87 0.000000 0.000000 0.000000 0.000000 -60.708740 0.000000 74.000000 0.812487 0.479890 0.331013
4800.00000000 -11190.00000000 -440.00000000 254 82 87 0.000000 0.000000 0.000000 0.000000 -60.708740 0.000000 74.000000 0.812487 0.479890 0.331013
4800.00000000 -11210.00000000 -440.00000000 254 82 87 0.000000 0.000000 0.000000 0.000000 -60.708740 0.000000 74.000000 0.551761 0.817922 0.162986
4800.00000000 -11210.00000000 -440.00000000 254 82 87 0.000000 0.000000 0.000000 0.000000 -60.708740 0.000000 74.000000 0.551761 0.817922 0.162986
4800.00000000 -11180.00000000 -450.00000000 254 82 87 0.000000 0.000000 0.000000 0.000000 -60.708740 0.000000 74.000000 0.820768 0.379427 0.427054
4820.00000000 -11310.00000000 -370.00000000 254 82 87 0.000000 0.000000 0.000000 0.000000 -60.708740 0.000000 74.000000 0.107695 0.756816 0.644695
