//X Y Z R G B PointSourceId ScanDirectionFlag NumberOfReturns ReturnNumber GpsTime Intensity Classification Nx Ny Nz
17830.00000000 12150.00000000 -900.00000000 154 219 69 97.000000 1.000000 4.000000 1.000000 -60.708740 114.000000 229.000000 0.784741 -0.001374 -0.619822
17830.00000000 12150.00000000 -900.00000000 154 219 69 97.000000 1.000000 4.000000 1.000000 -60.708740 114.000000 229.000000 0.784741 -0.001374 -0.619822
17830.00000000 12170.00000000 -890.00000000 154 219 69 97.000000 1.000000 4.000000 1.000000 -60.708740 114.000000 229.000000 0.836115 0.346682 -0.425116
17830.00000000 12160.00000000 -900.00000000 154 219 69 97.000000 1.000000 4.000000 1.000000 -60.708740 114.000000 229.000000 0.815649 0.017942 -0.578269
17810.00000000 12140.00000000 -940.00000000 154 219 69 97.000000 1.000000 4.000000 1.000000 -60.708740 114.000000 229.000000 0.918051 -0.108735 -0.381260
17810.00000000 12140.00000000 -930.00000000 154 219 69 97.000000 1.000000 4.000000 1.000000 -60.708740 114.000000 229.000000 0.983029 -0.127273 0.132121
17810.00000000 12170.00000000 -910.00000000 154 219 69 97.000000 1.000000 4.000000 1.000000 -60.708740 114.000000 229.000000 0.853084 -0.034343 -0.520642
17810.00000000 12170.00000000 -920.00000000 154 219 69 97.000000 1.000000 4.000000 1.000000 -60.708740 114.000000 229.000000 0.813238 -0.046350 -0.580082
17840.00000000 12170.00000000 -910.00000000 154 219 69 97.000000 1.000000 4.000000 1.000000 -60.708740 114.000000 229.000000 0.800676 0.332687 -0.498234
17830.00000000 12110.00000000 -870.00000000 154 219 69 97.000000 1.000000 4.000000 1.000000 -60.708740 114.000000 229.000000 0.908259 0.121380 -0.400415
17830.00000000 12110.00000000 -870.00000000 154 219 69 97.000000 1.000000 4.000000 1.000000 -60.708740 114.000000 229.000000 0.908259 0.121380 -0.400415
17840.00000000 12110.00000000 -900.00000000 154 219 69 97.000000 1.000000 4.000000 1.000000 -60.708740 114.000000 229.000000 0.887449 -0.061724 -0.456755
17820.00000000 12120.00000000 -940.00000000 154 219 69 97.000000 1.000000 4.000000 1.000000 -60.708740 114.000000 229.000000 0.961976 0.128871 -0.240819
17820.00000000 12110.00000000 -930.00000000 154 219 69 97.000000 1.000000 4.000000 1.000000 -60.708740 114.000000 229.000000 0.906974 0.142464 -0.396360
17830.00000000 12110.00000000 -930.00000000 154 219 69 97.000000 1.000000 4.000000 1.000000 -60.708740 114.000000 229.000000 0.877718 0.183777 -0.442535
17820.00000000 12110.00000000 -930.00000000 154 219 69 97.000000 1.000000 4.000000 1.000000 -60.708740 114.000000 229.000000 0.906974 0.142464 -0.396360
17810.00000000 12130.00000000 -940.00000000 154 219 69 97.000000 1.000000 4.000000 1.000000 -60.708740 114.000000 229.000000 0.907846 0.041326 -0.417262
17820.00000000 12110.00000000 -920.00000000 154 219 69 97.000000 1.000000 4.000000 1.000000 -60.708740 114.000000 229.000000 0.942896 0.278614 -0.182540
17830.00000000 12110.00000000 -910.00000000 154 219 69 97.000000 1.000000 4.000000 1.000000 -60.708740 114.000000 229.000000 0.810204 -0.004099 -0.586134
17830.00000000 12110.00000000 -910.00000000 154 219 69 97.000000 1.000000 4.000000 1.000000 -60.708740 114.000000 229.000000 0.810204 -0.004099 -0.586134
17820.00000000 12120.00000000 -930.00000000 154 219 69 97.000000 1.000000 4.000000 1.000000 -60.708740 114.000000 229.000000 0.889920 0.260864 -0.374154
17800.00000000 12170.00000000 -940.00000000 154 219 69 97.000000 1.000000 4.000000 1.000000 -60.708740 114.000000 229.000000 0.930957 -0.351635 -0.098350
17800.00000000 12170.00000000 -940.00000000 154 219 69 97.000000 1.000000 4.000000 1.000000 -60.708740 114.000000 229.000000 0.930957 -0.351635 -0.098350
17810.00000000 12150.00000000 -960.00000000 154 219 69 97.000000 1.000000 4.000000 1.000000 -60.708740 114.000000 229.000000 0.916608 0.392832 0.074247
17810.00000000 12170.00000000 -960.00000000 154 219 69 97.000000 1.000000 4.000000 1.000000 -60.708740 114.000000 229.000000 0.987374 -0.143724 0.066604
17810.00000000 12150.00000000 -980.00000000 154 219 69 97.000000 1.000000 4.000000 1.000000 -60.708740 114.000000 229.000000 0.931697 0.269220 0.243848
17810.00000000 12150.00000000 -960.00000000 154 219 69 97.000000 1.000000 4.000000 1.000000 -60.708740 114.000000 229.000000 0.916608 0.392832 0.074247
17810.00000000 12160.00000000 -1010.00000000 154 219 69 97.000000 1.000000 4.000000 1.000000 -60.708740 114.000000 229.000000 0.806878 -0.271048 0.524862
17810.00000000 12170.00000000 -1030.00000000 154 219 69 97.000000 1.000000 4.000000 1.000000 -60.708740 114.000000 229.000000 0.901388 0.364952 0.233042
17810.00000000 12160.00000000 -1010.00000000 154 219 69 97.000000 1.000000 4.000000 1.000000 -60.708740 114.000000 229.000000 0.806878 -0.271048 0.524862
17810.00000000 12100.00000000 -960.00000000 154 219 69 97.000000 1.000000 4.000000 1.000000 -60.708740 114.000000 229.000000 0.982132 -0.128104 0.137864
17830.00000000 12120.00000000 -960.00000000 154 219 69 97.000000 1.000000 4.000000 1.000000 -60.708740 114.000000 229.000000 0.935153 -0.190365 -0.298749
17820.00000000 12110.00000000 -950.00000000 154 219 69 97.000000 1.000000 4.000000 1.000000 -60.708740 114.000000 229.000000 0.979410 -0.201472 -0.012810
17830.00000000 12100.00000000 -1010.00000000 154 219 69 97.000000 1.000000 4.000000 1.000000 -60.708740 114.000000 229.000000 0.900582 0.214563 0.378040
17810.00000000 12120.00000000 -990.00000000 154 219 69 97.000000 1.000000 4.000000 1.000000 -60.708740 114.000000 229.000000 0.986355 -0.069362 -0.149305
17810.00000000 12100.00000000 -1000.00000000 154 219 69 97.000000 1.000000 4.000000 1.000000 -60.708740 114.000000 229.000000 0.971709 0.005932 0.236105
17800.00000000 12170.00000000 -950.00000000 154 219 69 97.000000 1.000000 4.000000 1.000000 -60.708740 114.000000 229.000000 0.969271 0.092011 -0.228138
17800.00000000 12170.00000000 -960.00000000 154 219 69 97.000000 1.000000 4.000000 1.000000 -60.708740 114.000000 229.000000 0.986025 0.139162 0.091585
17780.00000000 12150.00000000 -980.00000000 154 219 69 97.000000 1.000000 4.000000 1.000000 -60.708740 114.000000 229.000000 0.914271 0.401745 0.052053
17780.00000000 12170.00000000 -980.00000000 154 219 69 97.000000 1.000000 4.000000 1.000000 -60.708740 114.000000 229.000000 0.946512 0.132914 0.294023
17800.00000000 12160.00000000 -980.00000000 154 219 69 97.000000 1.000000 4.000000 1.000000 -60.708740 114.000000 229.000000 0.958157 0.141022 0.249094
17790.00000000 12170.00000000 -950.00000000 154 219 69 97.000000 1.000000 4.000000 1.000000 -60.708740 114.000000 229.000000 0.908659 0.258158 -0.328167
17800.00000000 12150.00000000 -1000.00000000 154 219 69 97.000000 1.000000 4.000000 1.000000 -60.708740 114.000000 229.000000 0.924977 0.006397 0.379970
17800.00000000 12170.00000000 -1030.00000000 154 219 69 97.000000 1.000000 4.000000 1.000000 -60.708740 114.000000 229.000000 0.955388 0.125189 0.267509
17790.00000000 12160.00000000 -990.00000000 154 219 69 97.000000 1.000000 4.000000 1.000000 -60.708740 114.000000 229.000000 0.905343 0.009145 0.424583
17780.00000000 12170.00000000 -990.00000000 154 219 69 97.000000 1.000000 4.000000 1.000000 -60.708740 114.000000 229.000000 0.944972 0.209841 0.250987
17800.00000000 12150.00000000 -1000.00000000 154 219 69 97.000000 1.000000 4.000000 1.000000 -60.708740 114.000000 229.000000 0.924977 0.006397 0.379970
17780.00000000 12110.00000000 -950.00000000 154 219 69 97.000000 1.000000 4.000000 1.000000 -60.708740 114.000000 229.000000 0.958057 0.146278 0.246433
17800.00000000 12130.00000000 -960.00000000 154 219 69 97.000000 1.000000 4.000000 1.000000 -60.708740 114.000000 229.000000 0.999815 0.017014 -0.009007
17790.00000000 12130.00000000 -970.00000000 154 219 69 97.000000 1.000000 4.000000 1.000000 -60.708740 114.000000 229.000000 0.933633 0.340119 0.112470
17800.00000000 12130.00000000 -980.00000000 154 219 69 97.000000 1.000000 4.000000 1.000000 -60.708740 114.000000 229.000000 0.944131 0.323368 -0.063635
17800.00000000 12130.00000000 -990.00000000 154 219 69 97.000000 1.000000 4.000000 1.000000 -60.708740 114.000000 229.000000 0.886334 0.361432 0.289446
17800.00000000 12120.00000000 -990.00000000 154 219 69 97.000000 1.000000 4.000000 1.000000 -60.708740 114.000000 229.000000 0.982462 0.038828 0.182373
17730.00000000 12160.00000000 -1000.00000000 154 219 69 97.000000 1.000000 4.000000 1.000000 -60.708740 114.000000 229.000000 0.980885 -0.148174 0.126131
17720.00000000 12150.00000000 -1010.00000000 154 219 69 97.000000 1.000000 4.000000 1.000000 -60.708740 114.000000 229.000000 0.924647 -0.085041 0.371209
17770.00000000 12400.00000000 -1060.00000000 154 219 69 97.000000 1.000000 4.000000 1.000000 -60.708740 114.000000 229.000000 0.893776 -0.175279 0.412846
17770.00000000 12390.00000000 -1070.00000000 154 219 69 97.000000 1.000000 4.000000 1.000000 -60.708740 114.000000 229.000000 0.877355 0.351246 0.326917
17770.00000000 12400.00000000 -1070.00000000 154 219 69 97.000000 1.000000 4.000000 1.000000 -60.708740 114.000000 229.000000 0.997762 0.017949 0.064406
17790.00000000 12400.00000000 -1050.00000000 154 219 69 97.000000 1.000000 4.000000 1.000000 -60.708740 114.000000 229.000000 0.982014 0.078128 0.171883
17770.00000000 12430.00000000 -1110.00000000 154 219 69 97.000000 1.000000 4.000000 1.000000 -60.708740 114.000000 229.000000 0.722788 0.061789 0.688302
17770.00000000 12420.00000000 -1100.00000000 154 219 69 97.000000 1.000000 4.000000 1.000000 -60.708740 114.000000 229.000000 0.826897 -0.118128 0.549806
17790.00000000 12420.00000000 -1110.00000000 154 219 69 97.000000 1.000000 4.000000 1.000000 -60.708740 114.000000 229.000000 0.745017 0.352219 0.566473
17780.00000000 12430.00000000 -1110.00000000 154 219 69 97.000000 1.000000 4.000000 1.000000 -60.708740 114.000000 229.000000 0.787196 0.088433 0.610330
17770.00000000 12430.00000000 -1100.00000000 154 219 69 97.000000 1.000000 4.000000 1.000000 -60.708740 114.000000 229.000000 0.654465 -0.120208 0.746476
17780.00000000 12420.00000000 -1080.00000000 154 219 69 97.000000 1.000000 4.000000 1.000000 -60.708740 114.000000 229.000000 0.965221 0.061343 0.254137
17780.00000000 12420.00000000 -1110.00000000 154 219 69 97.000000 1.000000 4.000000 1.000000 -60.708740 114.000000 229.000000 0.656264 0.046978 0.753067
17780.00000000 12420.00000000 -1080.00000000 154 219 69 97.000000 1.000000 4.000000 1.000000 -60.708740 114.000000 229.000000 0.965221 0.061343 0.254137
17770.00000000 12390.00000000 -1110.00000000 154 219 69 97.000000 1.000000 4.000000 1.000000 -60.708740 114.000000 229.000000 0.729606 -0.098357 0.676757
17800.00000000 12370.00000000 -1070.00000000 154 219 69 97.000000 1.000000 4.000000 1.000000 -60.708740 114.000000 229.000000 0.961891 0.120723 0.245341
17790.00000000 12350.00000000 -1060.00000000 154 219 69 97.000000 1.000000 4.000000 1.000000 -60.708740 114.000000 229.000000 0.952539 0.265856 0.148291
17790.00000000 12350.00000000 -1050.00000000 154 219 69 97.000000 1.000000 4.000000 1.000000 -60.708740 114.000000 229.000000 0.953609 0.238066 0.184266
17780.00000000 12380.00000000 -1050.00000000 154 219 69 97.000000 1.000000 4.000000 1.000000 -60.708740 114.000000 229.000000 0.991940 -0.081231 0.097249
17800.00000000 12350.00000000 -1090.00000000 154 219 69 97.000000 1.000000 4.000000 1.000000 -60.708740 114.000000 229.000000 0.949627 0.194273 0.245898
17780.00000000 12370.00000000 -1080.00000000 154 219 69 97.000000 1.000000 4.000000 1.000000 -60.708740 114.000000 229.000000 0.943716 -0.102203 0.314572
17780.00000000 12370.00000000 -1090.00000000 154 219 69 97.000000 1.000000 4.000000 1.000000 -60.708740 114.000000 229.000000 0.972595 -0.013095 0.232137
17780.00000000 12370.00000000 -1090.00000000 154 219 69 97.000000 1.000000 4.000000 1.000000 -60.708740 114.000000 229.000000 0.972595 -0.013095 0.232137
17800.00000000 12350.00000000 -1080.00000000 154 219 69 97.000000 1.000000 4.000000 1.000000 -60.708740 114.000000 229.000000 0.979454 0.073853 0.187658
17810.00000000 12410.00000000 -1130.00000000 154 219 69 97.000000 1.000000 4.000000 1.000000 -60.708740 114.000000 229.000000 0.845664 0.142165 0.514433
17800.00000000 12400.00000000 -1120.00000000 154 219 69 97.000000 1.000000 4.000000 1.000000 -60.708740 114.000000 229.000000 0.689178 -0.169620 0.704459
17810.00000000 12380.00000000 -1140.00000000 154 219 69 97.000000 1.000000 4.000000 1.000000 -60.708740 114.000000 229.000000 0.711237 -0.001381 0.702951
17810.00000000 12380.00000000 -1130.00000000 154 219 69 97.000000 1.000000 4.000000 1.000000 -60.708740 114.000000 229.000000 0.839123 0.072167 0.539133
17800.00000000 12360.00000000 -1140.00000000 154 219 69 97.000000 1.000000 4.000000 1.000000 -60.708740 114.000000 229.000000 0.890436 -0.175763 0.419798
17820.00000000 12430.00000000 -1140.00000000 154 219 69 97.000000 1.000000 4.000000 1.000000 -60.708740 114.000000 229.000000 0.448696 0.296543 0.843051
17790.00000000 12380.00000000 -1130.00000000 154 219 69 97.000000 1.000000 4.000000 1.000000 -60.708740 114.000000 229.000000 0.556435 -0.355275 0.751106
17800.00000000 12410.00000000 -1120.00000000 154 219 69 97.000000 1.000000 4.000000 1.000000 -60.708740 114.000000 229.000000 0.756159 0.171923 0.631400
17800.00000000 12350.00000000 -1120.00000000 154 219 69 97.000000 1.000000 4.000000 1.000000 -60.708740 114.000000 229.000000 0.895263 0.099163 0.434363
17810.00000000 12340.00000000 -1100.00000000 154 219 69 97.000000 1.000000 4.000000 1.000000 -60.708740 114.000000 229.000000 0.780313 0.363500 0.508900
17830.00000000 12320.00000000 -1100.00000000 154 219 69 97.000000 1.000000 4.000000 1.000000 -60.708740 114.000000 229.000000 0.731256 -0.356670 0.581422
17780.00000000 12330.00000000 -1060.00000000 154 219 69 97.000000 1.000000 4.000000 1.000000 -60.708740 114.000000 229.000000 0.726958 0.136398 0.672999
17790.00000000 12310.00000000 -1040.00000000 154 219 69 97.000000 1.000000 4.000000 1.000000 -60.708740 114.000000 229.000000 0.961693 -0.035986 0.271756
17790.00000000 12310.00000000 -1040.00000000 154 219 69 97.000000 1.000000 4.000000 1.000000 -60.708740 114.000000 229.000000 0.961693 -0.035986 0.271756
17780.00000000 12340.00000000 -1050.00000000 154 219 69 97.000000 1.000000 4.000000 1.000000 -60.708740 114.000000 229.000000 0.826370 -0.001357 0.563126
17790.00000000 12320.00000000 -1050.00000000 154 219 69 97.000000 1.000000 4.000000 1.000000 -60.708740 114.000000 229.000000 0.876035 0.218637 0.429837
17790.00000000 12330.00000000 -1060.00000000 154 219 69 97.000000 1.000000 4.000000 1.000000 -60.708740 114.000000 229.000000 0.809567 0.236833 0.537132
17790.00000000 12310.00000000 -1090.00000000 154 219 69 97.000000 1.000000 4.000000 1.000000 -60.708740 114.000000 229.000000 0.725710 -0.223175 0.650798
17800.00000000 12320.00000000 -1090.00000000 154 219 69 97.000000 1.000000 4.000000 1.000000 -60.708740 114.000000 229.000000 0.816432 0.034890 0.576387
17800.00000000 12330.00000000 -1090.00000000 154 219 69 97.000000 1.000000 4.000000 1.000000 -60.708740 114.000000 229.000000 0.890130 0.150991 0.429966
17780.00000000 12280.00000000 -1050.00000000 154 219 69 97.000000 1.000000 4.000000 1.000000 -60.708740 114.000000 229.000000 0.733967 -0.206380 0.647070
17790.00000000 12280.00000000 -1050.00000000 154 219 69 97.000000 1.000000 4.000000 1.000000 -60.708740 114.000000 229.000000 0.991465 0.023420 0.128255
17790.00000000 12270.00000000 -1050.00000000 154 219 69 97.000000 1.000000 4.000000 1.000000 -60.708740 114.000000 229.000000 0.901171 0.357234 0.245507
17790.00000000 12290.00000000 -1040.00000000 154 219 69 97.000000 1.000000 4.000000 1.000000 -60.708740 114.000000 229.000000 0.949639 0.145995 0.277257
17790.00000000 12290.00000000 -1040.00000000 154 219 69 97.000000 1.000000 4.000000 1.000000 -60.708740 114.000000 229.000000 0.949639 0.145995 0.277257
17800.00000000 12290.00000000 -1040.00000000 154 219 69 97.000000 1.000000 4.000000 1.000000 -60.708740 114.000000 229.000000 0.839917 0.155540 0.519949
17790.00000000 12300.00000000 -1050.00000000 154 219 69 97.000000 1.000000 4.000000 1.000000 -60.708740 114.000000 229.000000 0.945307 0.161394 0.283456
17800.00000000 12270.00000000 -1050.00000000 154 219 69 97.000000 1.000000 4.000000 1.000000 -60.708740 114.000000 229.000000 0.902600 0.358407 0.238450
17780.00000000 12300.00000000 -1040.00000000 154 219 69 97.000000 1.000000 4.000000 1.000000 -60.708740 114.000000 229.000000 0.708234 0.162970 0.686910
17820.00000000 12310.00000000 -1120.00000000 154 219 69 97.000000 1.000000 4.000000 1.000000 -60.708740 114.000000 229.000000 0.853084 -0.034343 0.520642
17810.00000000 12310.00000000 -1170.00000000 154 219 69 97.000000 1.000000 4.000000 1.000000 -60.708740 114.000000 229.000000 0.573826 0.440765 0.690254
17830.00000000 12300.00000000 -1130.00000000 154 219 69 97.000000 1.000000 4.000000 1.000000 -60.708740 114.000000 229.000000 0.768932 0.204946 0.605592
17820.00000000 12290.00000000 -1130.00000000 154 219 69 97.000000 1.000000 4.000000 1.000000 -60.708740 114.000000 229.000000 0.496121 -0.255015 0.829959
17840.00000000 12280.00000000 -1130.00000000 154 219 69 97.000000 1.000000 4.000000 1.000000 -60.708740 114.000000 229.000000 0.526385 -0.096098 0.844798
17810.00000000 12280.00000000 -1120.00000000 154 219 69 97.000000 1.000000 4.000000 1.000000 -60.708740 114.000000 229.000000 0.670260 -0.311711 0.673490
17830.00000000 12290.00000000 -1120.00000000 154 219 69 97.000000 1.000000 4.000000 1.000000 -60.708740 114.000000 229.000000 0.558837 -0.134180 0.818350
17840.00000000 12280.00000000 -1140.00000000 154 219 69 97.000000 1.000000 4.000000 1.000000 -60.708740 114.000000 229.000000 0.561198 -0.326428 0.760593
17820.00000000 12290.00000000 -1120.00000000 154 219 69 97.000000 1.000000 4.000000 1.000000 -60.708740 114.000000 229.000000 0.505075 -0.151670 0.849645
17770.00000000 12310.00000000 -1130.00000000 154 219 69 97.000000 1.000000 4.000000 1.000000 -60.708740 114.000000 229.000000 0.452445 -0.058777 0.889853
17790.00000000 12330.00000000 -1180.00000000 154 219 69 97.000000 1.000000 4.000000 1.000000 -60.708740 114.000000 229.000000 0.551950 -0.063524 0.831454
17760.00000000 12390.00000000 -1100.00000000 154 219 69 97.000000 1.000000 4.000000 1.000000 -60.708740 114.000000 229.000000 0.775772 -0.235697 0.585341
17750.00000000 12430.00000000 -1090.00000000 154 219 69 97.000000 1.000000 4.000000 1.000000 -60.708740 114.000000 229.000000 0.794268 -0.035021 0.606557
17760.00000000 12410.00000000 -1100.00000000 154 219 69 97.000000 1.000000 4.000000 1.000000 -60.708740 114.000000 229.000000 0.613539 0.088477 0.784692
17750.00000000 12420.00000000 -1080.00000000 154 219 69 97.000000 1.000000 4.000000 1.000000 -60.708740 114.000000 229.000000 0.842520 -0.040252 0.537159
17720.00000000 12390.00000000 -1120.00000000 154 219 69 97.000000 1.000000 4.000000 1.000000 -60.708740 114.000000 229.000000 0.871177 0.193759 0.451119
17750.00000000 12330.00000000 -1060.00000000 154 219 69 97.000000 1.000000 4.000000 1.000000 -60.708740 114.000000 229.000000 0.851898 0.324311 0.411208
17760.00000000 12330.00000000 -1080.00000000 154 219 69 97.000000 1.000000 4.000000 1.000000 -60.708740 114.000000 229.000000 0.979052 -0.066561 0.192422
17730.00000000 12280.00000000 -1100.00000000 154 219 69 97.000000 1.000000 4.000000 1.000000 -60.708740 114.000000 229.000000 0.847534 0.114063 0.518339
17740.00000000 12290.00000000 -1160.00000000 154 219 69 97.000000 1.000000 4.000000 1.000000 -60.708740 114.000000 229.000000 0.781122 -0.145430 0.607206
17760.00000000 12290.00000000 -1120.00000000 154 219 69 97.000000 1.000000 4.000000 1.000000 -60.708740 114.000000 229.000000 0.474324 -0.020155 0.880120
17820.00000000 12230.00000000 -1070.00000000 154 219 69 97.000000 1.000000 4.000000 1.000000 -60.708740 114.000000 229.000000 0.664698 0.095376 0.740999
17830.00000000 12220.00000000 -1080.00000000 154 219 69 97.000000 1.000000 4.000000 1.000000 -60.708740 114.000000 229.000000 0.880464 0.028315 0.473266
17810.00000000 12200.00000000 -1070.00000000 154 219 69 97.000000 1.000000 4.000000 1.000000 -60.708740 114.000000 229.000000 0.703682 -0.219998 0.675597
17820.00000000 12200.00000000 -1070.00000000 154 219 69 97.000000 1.000000 4.000000 1.000000 -60.708740 114.000000 229.000000 0.713077 0.159644 0.682668
17820.00000000 12180.00000000 -1040.00000000 154 219 69 97.000000 1.000000 4.000000 1.000000 -60.708740 114.000000 229.000000 0.819413 0.320502 0.475228
17810.00000000 12200.00000000 -1080.00000000 154 219 69 97.000000 1.000000 4.000000 1.000000 -60.708740 114.000000 229.000000 0.711924 -0.244675 0.658254
17820.00000000 12200.00000000 -1090.00000000 154 219 69 97.000000 1.000000 4.000000 1.000000 -60.708740 114.000000 229.000000 0.903639 -0.030609 0.427199
17830.00000000 12210.00000000 -1080.00000000 154 219 69 97.000000 1.000000 4.000000 1.000000 -60.708740 114.000000 229.000000 0.904090 0.049853 0.424424
17790.00000000 12250.00000000 -1060.00000000 154 219 69 97.000000 1.000000 4.000000 1.000000 -60.708740 114.000000 229.000000 0.904451 0.176303 0.388441
17790.00000000 12230.00000000 -1050.00000000 154 219 69 97.000000 1.000000 4.000000 1.000000 -60.708740 114.000000 229.000000 0.914730 -0.174437 0.364474
17790.00000000 12230.00000000 -1040.00000000 154 219 69 97.000000 1.000000 4.000000 1.000000 -60.708740 114.000000 229.000000 0.979437 0.010481 0.201478
17790.00000000 12220.00000000 -1050.00000000 154 219 69 97.000000 1.000000 4.000000 1.000000 -60.708740 114.000000 229.000000 0.963882 -0.038357 0.263552
17800.00000000 12240.00000000 -1050.00000000 154 219 69 97.000000 1.000000 4.000000 1.000000 -60.708740 114.000000 229.000000 0.957959 -0.190526 0.214508
17790.00000000 12230.00000000 -1050.00000000 154 219 69 97.000000 1.000000 4.000000 1.000000 -60.708740 114.000000 229.000000 0.914730 -0.174437 0.364474
17800.00000000 12250.00000000 -1070.00000000 154 219 69 97.000000 1.000000 4.000000 1.000000 -60.708740 114.000000 229.000000 0.818737 0.283349 0.499383
17790.00000000 12200.00000000 -1060.00000000 154 219 69 97.000000 1.000000 4.000000 1.000000 -60.708740 114.000000 229.000000 0.705877 0.058943 0.705877
17800.00000000 12200.00000000 -1070.00000000 154 219 69 97.000000 1.000000 4.000000 1.000000 -60.708740 114.000000 229.000000 0.615172 -0.303570 0.727605
17800.00000000 12180.00000000 -1070.00000000 154 219 69 97.000000 1.000000 4.000000 1.000000 -60.708740 114.000000 229.000000 0.812433 0.004096 0.583040
17800.00000000 12200.00000000 -1070.00000000 154 219 69 97.000000 1.000000 4.000000 1.000000 -60.708740 114.000000 229.000000 0.615172 -0.303570 0.727605
17770.00000000 12200.00000000 -1100.00000000 154 219 69 97.000000 1.000000 4.000000 1.000000 -60.708740 114.000000 229.000000 0.743533 0.384022 0.547436
17820.00000000 12230.00000000 -1120.00000000 154 219 69 97.000000 1.000000 4.000000 1.000000 -60.708740 114.000000 229.000000 0.641231 0.384079 0.664309
17810.00000000 12250.00000000 -1130.00000000 154 219 69 97.000000 1.000000 4.000000 1.000000 -60.708740 114.000000 229.000000 0.875209 0.180926 0.448637
17840.00000000 12210.00000000 -1120.00000000 154 219 69 97.000000 1.000000 4.000000 1.000000 -60.708740 114.000000 229.000000 0.500654 0.304814 0.810206
17830.00000000 12200.00000000 -1160.00000000 154 219 69 97.000000 1.000000 4.000000 1.000000 -60.708740 114.000000 229.000000 0.205032 -0.111950 0.972332
17790.00000000 12230.00000000 -1140.00000000 154 219 69 97.000000 1.000000 4.000000 1.000000 -60.708740 114.000000 229.000000 0.489699 -0.303897 0.817215
17770.00000000 12220.00000000 -1140.00000000 154 219 69 97.000000 1.000000 4.000000 1.000000 -60.708740 114.000000 229.000000 0.762049 -0.026665 0.646970
17790.00000000 12230.00000000 -1140.00000000 154 219 69 97.000000 1.000000 4.000000 1.000000 -60.708740 114.000000 229.000000 0.489699 -0.303897 0.817215
17770.00000000 12220.00000000 -1120.00000000 154 219 69 97.000000 1.000000 4.000000 1.000000 -60.708740 114.000000 229.000000 0.772135 0.401510 0.492541
17770.00000000 12200.00000000 -1150.00000000 154 219 69 97.000000 1.000000 4.000000 1.000000 -60.708740 114.000000 229.000000 0.696874 0.029564 0.716584
17780.00000000 12210.00000000 -1150.00000000 154 219 69 97.000000 1.000000 4.000000 1.000000 -60.708740 114.000000 229.000000 0.659203 0.070680 0.748636
17790.00000000 12200.00000000 -1160.00000000 154 219 69 97.000000 1.000000 4.000000 1.000000 -60.708740 114.000000 229.000000 0.850907 0.045807 0.523315
17820.00000000 12160.00000000 -1050.00000000 154 219 69 97.000000 1.000000 4.000000 1.000000 -60.708740 114.000000 229.000000 0.920473 -0.257043 0.294379
17820.00000000 12140.00000000 -1070.00000000 154 219 69 97.000000 1.000000 4.000000 1.000000 -60.708740 114.000000 229.000000 0.936270 0.190028 0.295445
17820.00000000 12120.00000000 -1060.00000000 154 219 69 97.000000 1.000000 4.000000 1.000000 -60.708740 114.000000 229.000000 0.901208 0.297443 0.315201
17820.00000000 12100.00000000 -1070.00000000 154 219 69 97.000000 1.000000 4.000000 1.000000 -60.708740 114.000000 229.000000 0.963332 0.043505 0.264761
17820.00000000 12120.00000000 -1060.00000000 154 219 69 97.000000 1.000000 4.000000 1.000000 -60.708740 114.000000 229.000000 0.901208 0.297443 0.315201
17810.00000000 12130.00000000 -1070.00000000 154 219 69 97.000000 1.000000 4.000000 1.000000 -60.708740 114.000000 229.000000 0.752462 0.355916 0.554189
17810.00000000 12100.00000000 -1080.00000000 154 219 69 97.000000 1.000000 4.000000 1.000000 -60.708740 114.000000 229.000000 0.956606 0.064963 0.284052
17790.00000000 12170.00000000 -1060.00000000 154 219 69 97.000000 1.000000 4.000000 1.000000 -60.708740 114.000000 229.000000 0.896132 -0.183859 0.403911
17790.00000000 12170.00000000 -1060.00000000 154 219 69 97.000000 1.000000 4.000000 1.000000 -60.708740 114.000000 229.000000 0.896132 -0.183859 0.403911
17800.00000000 12170.00000000 -1070.00000000 154 219 69 97.000000 1.000000 4.000000 1.000000 -60.708740 114.000000 229.000000 0.729298 -0.247300 0.637939
17800.00000000 12160.00000000 -1070.00000000 154 219 69 97.000000 1.000000 4.000000 1.000000 -60.708740 114.000000 229.000000 0.735241 0.195756 0.648923
17790.00000000 12150.00000000 -1050.00000000 154 219 69 97.000000 1.000000 4.000000 1.000000 -60.708740 114.000000 229.000000 0.981145 -0.010401 0.192993
17790.00000000 12160.00000000 -1060.00000000 154 219 69 97.000000 1.000000 4.000000 1.000000 -60.708740 114.000000 229.000000 0.958652 0.135077 0.250482
17800.00000000 12160.00000000 -1080.00000000 154 219 69 97.000000 1.000000 4.000000 1.000000 -60.708740 114.000000 229.000000 0.524935 0.139689 0.839602
17800.00000000 12100.00000000 -1070.00000000 154 219 69 97.000000 1.000000 4.000000 1.000000 -60.708740 114.000000 229.000000 0.825971 0.026287 0.563099
17800.00000000 12100.00000000 -1040.00000000 154 219 69 97.000000 1.000000 4.000000 1.000000 -60.708740 114.000000 229.000000 0.829474 0.301485 0.470191
17790.00000000 12110.00000000 -1040.00000000 154 219 69 97.000000 1.000000 4.000000 1.000000 -60.708740 114.000000 229.000000 0.946832 0.244564 0.209041
17760.00000000 12210.00000000 -1040.00000000 154 219 69 97.000000 1.000000 4.000000 1.000000 -60.708740 114.000000 229.000000 0.836263 -0.040352 0.546841
17830.00000000 11940.00000000 -830.00000000 154 219 69 97.000000 1.000000 4.000000 1.000000 -60.708740 114.000000 229.000000 0.852258 0.245462 -0.461957
17840.00000000 12080.00000000 -900.00000000 154 219 69 97.000000 1.000000 4.000000 1.000000 -60.708740 114.000000 229.000000 0.967488 0.202798 -0.151130
17830.00000000 12090.00000000 -910.00000000 154 219 69 97.000000 1.000000 4.000000 1.000000 -60.708740 114.000000 229.000000 0.903158 0.122200 -0.411548
17810.00000000 12080.00000000 -920.00000000 154 219 69 97.000000 1.000000 4.000000 1.000000 -60.708740 114.000000 229.000000 0.991695 0.005491 0.128492
17820.00000000 12090.00000000 -910.00000000 154 219 69 97.000000 1.000000 4.000000 1.000000 -60.708740 114.000000 229.000000 0.902661 -0.245113 -0.353726
17830.00000000 12090.00000000 -920.00000000 154 219 69 97.000000 1.000000 4.000000 1.000000 -60.708740 114.000000 229.000000 0.889920 -0.260864 -0.374154
17840.00000000 12060.00000000 -930.00000000 154 219 69 97.000000 1.000000 4.000000 1.000000 -60.708740 114.000000 229.000000 0.850461 0.151291 -0.503813
17830.00000000 12090.00000000 -910.00000000 154 219 69 97.000000 1.000000 4.000000 1.000000 -60.708740 114.000000 229.000000 0.903158 0.122200 -0.411548
17820.00000000 12090.00000000 -940.00000000 154 219 69 97.000000 1.000000 4.000000 1.000000 -60.708740 114.000000 229.000000 0.901290 -0.055568 -0.429638
17820.00000000 12090.00000000 -930.00000000 154 219 69 97.000000 1.000000 4.000000 1.000000 -60.708740 114.000000 229.000000 0.934923 -0.222868 -0.276132
17840.00000000 12090.00000000 -920.00000000 154 219 69 97.000000 1.000000 4.000000 1.000000 -60.708740 114.000000 229.000000 0.935759 0.092108 -0.340398
17840.00000000 12070.00000000 -910.00000000 154 219 69 97.000000 1.000000 4.000000 1.000000 -60.708740 114.000000 229.000000 0.949905 0.052417 -0.308112
17830.00000000 12020.00000000 -900.00000000 154 219 69 97.000000 1.000000 4.000000 1.000000 -60.708740 114.000000 229.000000 0.957144 0.224975 -0.182377
17840.00000000 12020.00000000 -880.00000000 154 219 69 97.000000 1.000000 4.000000 1.000000 -60.708740 114.000000 229.000000 0.723542 0.009721 -0.690212
17830.00000000 12040.00000000 -900.00000000 154 219 69 97.000000 1.000000 4.000000 1.000000 -60.708740 114.000000 229.000000 0.943621 -0.113448 -0.310981
17830.00000000 12040.00000000 -940.00000000 154 219 69 97.000000 1.000000 4.000000 1.000000 -60.708740 114.000000 229.000000 0.969398 -0.134106 -0.205630
17830.00000000 12030.00000000 -930.00000000 154 219 69 97.000000 1.000000 4.000000 1.000000 -60.708740 114.000000 229.000000 0.923026 -0.048858 -0.381623
17830.00000000 12010.00000000 -910.00000000 154 219 69 97.000000 1.000000 4.000000 1.000000 -60.708740 114.000000 229.000000 0.959134 -0.280631 -0.036170
17840.00000000 12010.00000000 -910.00000000 154 219 69 97.000000 1.000000 4.000000 1.000000 -60.708740 114.000000 229.000000 0.889557 0.340522 -0.304520
17830.00000000 12020.00000000 -910.00000000 154 219 69 97.000000 1.000000 4.000000 1.000000 -60.708740 114.000000 229.000000 0.970910 0.206874 -0.120571
17830.00000000 12050.00000000 -910.00000000 154 219 69 97.000000 1.000000 4.000000 1.000000 -60.708740 114.000000 229.000000 0.843023 -0.170984 -0.509977
17790.00000000 12030.00000000 -940.00000000 154 219 69 97.000000 1.000000 4.000000 1.000000 -60.708740 114.000000 229.000000 0.999776 -0.020974 0.002996
17810.00000000 12080.00000000 -950.00000000 154 219 69 97.000000 1.000000 4.000000 1.000000 -60.708740 114.000000 229.000000 0.975922 0.064574 -0.208343
17820.00000000 12090.00000000 -960.00000000 154 219 69 97.000000 1.000000 4.000000 1.000000 -60.708740 114.000000 229.000000 0.960739 0.093888 -0.261084
17810.00000000 12060.00000000 -960.00000000 154 219 69 97.000000 1.000000 4.000000 1.000000 -60.708740 114.000000 229.000000 0.964150 0.098331 0.246465
17810.00000000 12060.00000000 -1000.00000000 154 219 69 97.000000 1.000000 4.000000 1.000000 -60.708740 114.000000 229.000000 0.996992 0.067757 -0.037643
17810.00000000 12060.00000000 -1000.00000000 154 219 69 97.000000 1.000000 4.000000 1.000000 -60.708740 114.000000 229.000000 0.996992 0.067757 -0.037643
17810.00000000 12080.00000000 -1010.00000000 154 219 69 97.000000 1.000000 4.000000 1.000000 -60.708740 114.000000 229.000000 0.907108 -0.112866 0.405482
17820.00000000 12080.00000000 -1000.00000000 154 219 69 97.000000 1.000000 4.000000 1.000000 -60.708740 114.000000 229.000000 0.948677 0.003720 0.316226
17810.00000000 12070.00000000 -1020.00000000 154 219 69 97.000000 1.000000 4.000000 1.000000 -60.708740 114.000000 229.000000 0.964796 -0.082407 0.249757
17810.00000000 12070.00000000 -1010.00000000 154 219 69 97.000000 1.000000 4.000000 1.000000 -60.708740 114.000000 229.000000 0.981778 -0.186949 0.034098
17810.00000000 12080.00000000 -1000.00000000 154 219 69 97.000000 1.000000 4.000000 1.000000 -60.708740 114.000000 229.000000 0.926218 0.318167 0.202213
17810.00000000 12050.00000000 -960.00000000 154 219 69 97.000000 1.000000 4.000000 1.000000 -60.708740 114.000000 229.000000 0.992988 -0.055104 -0.104584
17810.00000000 12050.00000000 -980.00000000 154 219 69 97.000000 1.000000 4.000000 1.000000 -60.708740 114.000000 229.000000 0.968854 -0.168552 -0.181419
17820.00000000 12030.00000000 -950.00000000 154 219 69 97.000000 1.000000 4.000000 1.000000 -60.708740 114.000000 229.000000 0.982034 -0.063242 0.177792
17810.00000000 12040.00000000 -960.00000000 154 219 69 97.000000 1.000000 4.000000 1.000000 -60.708740 114.000000 229.000000 0.980338 0.167673 0.104031
17820.00000000 12030.00000000 -950.00000000 154 219 69 97.000000 1.000000 4.000000 1.000000 -60.708740 114.000000 229.000000 0.982034 -0.063242 0.177792
17810.00000000 12050.00000000 -1000.00000000 154 219 69 97.000000 1.000000 4.000000 1.000000 -60.708740 114.000000 229.000000 0.900371 0.052804 0.431907
17810.00000000 12020.00000000 -990.00000000 154 219 69 97.000000 1.000000 4.000000 1.000000 -60.708740 114.000000 229.000000 0.966306 0.251810 0.053339
17820.00000000 12050.00000000 -1010.00000000 154 219 69 97.000000 1.000000 4.000000 1.000000 -60.708740 114.000000 229.000000 0.938198 0.166211 0.303575
17820.00000000 12050.00000000 -1010.00000000 154 219 69 97.000000 1.000000 4.000000 1.000000 -60.708740 114.000000 229.000000 0.938198 0.166211 0.303575
17810.00000000 12040.00000000 -1010.00000000 154 219 69 97.000000 1.000000 4.000000 1.000000 -60.708740 114.000000 229.000000 0.916961 -0.264258 0.298915
17810.00000000 12030.00000000 -1000.00000000 154 219 69 97.000000 1.000000 4.000000 1.000000 -60.708740 114.000000 229.000000 0.976531 0.210719 0.044552
17810.00000000 12040.00000000 -1030.00000000 154 219 69 97.000000 1.000000 4.000000 1.000000 -60.708740 114.000000 229.000000 0.947624 -0.178104 0.265117
17810.00000000 12010.00000000 -990.00000000 154 219 69 97.000000 1.000000 4.000000 1.000000 -60.708740 114.000000 229.000000 0.998643 0.050814 0.011407
17800.00000000 12080.00000000 -960.00000000 154 219 69 97.000000 1.000000 4.000000 1.000000 -60.708740 114.000000 229.000000 0.964116 0.202765 0.171369
17800.00000000 12080.00000000 -970.00000000 154 219 69 97.000000 1.000000 4.000000 1.000000 -60.708740 114.000000 229.000000 0.940437 0.220220 0.259001
17800.00000000 12090.00000000 -1020.00000000 154 219 69 97.000000 1.000000 4.000000 1.000000 -60.708740 114.000000 229.000000 0.998085 0.059822 -0.015743
17800.00000000 12060.00000000 -990.00000000 154 219 69 97.000000 1.000000 4.000000 1.000000 -60.708740 114.000000 229.000000 0.909856 -0.363655 0.199795
17770.00000000 12080.00000000 -1030.00000000 154 219 69 97.000000 1.000000 4.000000 1.000000 -60.708740 114.000000 229.000000 0.759185 0.079838 0.645960
17800.00000000 12030.00000000 -980.00000000 154 219 69 97.000000 1.000000 4.000000 1.000000 -60.708740 114.000000 229.000000 0.968408 0.249019 -0.013233
17790.00000000 12050.00000000 -1020.00000000 154 219 69 97.000000 1.000000 4.000000 1.000000 -60.708740 114.000000 229.000000 0.973288 0.226093 0.039899
17800.00000000 12040.00000000 -1020.00000000 154 219 69 97.000000 1.000000 4.000000 1.000000 -60.708740 114.000000 229.000000 0.933319 0.014044 0.358773
17800.00000000 12040.00000000 -1000.00000000 154 219 69 97.000000 1.000000 4.000000 1.000000 -60.708740 114.000000 229.000000 0.986740 -0.156533 -0.042902
17830.00000000 11970.00000000 -900.00000000 154 219 69 97.000000 1.000000 4.000000 1.000000 -60.708740 114.000000 229.000000 0.833677 0.234042 -0.500206
17830.00000000 11970.00000000 -900.00000000 154 219 69 97.000000 1.000000 4.000000 1.000000 -60.708740 114.000000 229.000000 0.833677 0.234042 -0.500206
17830.00000000 12000.00000000 -920.00000000 154 219 69 97.000000 1.000000 4.000000 1.000000 -60.708740 114.000000 229.000000 0.991614 0.062760 0.112969
17820.00000000 11990.00000000 -940.00000000 154 219 69 97.000000 1.000000 4.000000 1.000000 -60.708740 114.000000 229.000000 0.918904 -0.128896 -0.372828
17820.00000000 11980.00000000 -930.00000000 154 219 69 97.000000 1.000000 4.000000 1.000000 -60.708740 114.000000 229.000000 0.962172 -0.136709 -0.235661
17820.00000000 11980.00000000 -940.00000000 154 219 69 97.000000 1.000000 4.000000 1.000000 -60.708740 114.000000 229.000000 0.941279 0.013898 -0.337344
17830.00000000 12000.00000000 -920.00000000 154 219 69 97.000000 1.000000 4.000000 1.000000 -60.708740 114.000000 229.000000 0.991614 0.062760 0.112969
17820.00000000 11980.00000000 -930.00000000 154 219 69 97.000000 1.000000 4.000000 1.000000 -60.708740 114.000000 229.000000 0.962172 -0.136709 -0.235661
17840.00000000 11930.00000000 -890.00000000 154 219 69 97.000000 1.000000 4.000000 1.000000 -60.708740 114.000000 229.000000 0.787052 -0.128952 -0.603258
17840.00000000 11930.00000000 -900.00000000 154 219 69 97.000000 1.000000 4.000000 1.000000 -60.708740 114.000000 229.000000 0.955969 0.217934 -0.196542
17830.00000000 11930.00000000 -930.00000000 154 219 69 97.000000 1.000000 4.000000 1.000000 -60.708740 114.000000 229.000000 0.917816 -0.068534 -0.391046
17830.00000000 11930.00000000 -910.00000000 154 219 69 97.000000 1.000000 4.000000 1.000000 -60.708740 114.000000 229.000000 0.946315 0.280239 -0.161104
17830.00000000 11940.00000000 -920.00000000 154 219 69 97.000000 1.000000 4.000000 1.000000 -60.708740 114.000000 229.000000 0.903994 0.344309 -0.253470
17830.00000000 11930.00000000 -920.00000000 154 219 69 97.000000 1.000000 4.000000 1.000000 -60.708740 114.000000 229.000000 0.926551 0.154194 -0.343115
17830.00000000 11930.00000000 -930.00000000 154 219 69 97.000000 1.000000 4.000000 1.000000 -60.708740 114.000000 229.000000 0.917816 -0.068534 -0.391046
17830.00000000 11930.00000000 -910.00000000 154 219 69 97.000000 1.000000 4.000000 1.000000 -60.708740 114.000000 229.000000 0.946315 0.280239 -0.161104
17820.00000000 11970.00000000 -970.00000000 154 219 69 97.000000 1.000000 4.000000 1.000000 -60.708740 114.000000 229.000000 0.973573 -0.119341 0.194715
17820.00000000 11990.00000000 -950.00000000 154 219 69 97.000000 1.000000 4.000000 1.000000 -60.708740 114.000000 229.000000 0.951678 0.039179 -0.304588
17820.00000000 11980.00000000 -960.00000000 154 219 69 97.000000 1.000000 4.000000 1.000000 -60.708740 114.000000 229.000000 0.964681 0.260624 -0.038291
17820.00000000 11980.00000000 -950.00000000 154 219 69 97.000000 1.000000 4.000000 1.000000 -60.708740 114.000000 229.000000 0.999486 0.019398 -0.025523
17810.00000000 11990.00000000 -990.00000000 154 219 69 97.000000 1.000000 4.000000 1.000000 -60.708740 114.000000 229.000000 0.995448 0.067394 -0.067394
17820.00000000 11990.00000000 -1010.00000000 154 219 69 97.000000 1.000000 4.000000 1.000000 -60.708740 114.000000 229.000000 0.954905 0.260910 0.141713
17820.00000000 12000.00000000 -1010.00000000 154 219 69 97.000000 1.000000 4.000000 1.000000 -60.708740 114.000000 229.000000 0.965262 0.149401 0.214358
17820.00000000 11960.00000000 -970.00000000 154 219 69 97.000000 1.000000 4.000000 1.000000 -60.708740 114.000000 229.000000 0.913076 -0.241654 0.328476
17810.00000000 11950.00000000 -960.00000000 154 219 69 97.000000 1.000000 4.000000 1.000000 -60.708740 114.000000 229.000000 0.912998 0.390491 0.118120
17810.00000000 11950.00000000 -950.00000000 154 219 69 97.000000 1.000000 4.000000 1.000000 -60.708740 114.000000 229.000000 0.988013 -0.092810 -0.123355
17810.00000000 11960.00000000 -1010.00000000 154 219 69 97.000000 1.000000 4.000000 1.000000 -60.708740 114.000000 229.000000 0.973248 -0.158613 0.166226
17820.00000000 11950.00000000 -1020.00000000 154 219 69 97.000000 1.000000 4.000000 1.000000 -60.708740 114.000000 229.000000 0.879031 0.344629 0.329447
17800.00000000 11990.00000000 -1020.00000000 154 219 69 97.000000 1.000000 4.000000 1.000000 -60.708740 114.000000 229.000000 0.961602 -0.185989 0.201818
17800.00000000 11940.00000000 -1030.00000000 154 219 69 97.000000 1.000000 4.000000 1.000000 -60.708740 114.000000 229.000000 0.709775 0.265173 0.652612
17780.00000000 11940.00000000 -1000.00000000 154 219 69 97.000000 1.000000 4.000000 1.000000 -60.708740 114.000000 229.000000 0.795095 0.303120 0.525302
17740.00000000 12010.00000000 -900.00000000 154 219 69 97.000000 1.000000 4.000000 1.000000 -60.708740 114.000000 229.000000 0.963215 0.190022 -0.190022
17840.00000000 11890.00000000 -920.00000000 154 219 69 97.000000 1.000000 4.000000 1.000000 -60.708740 114.000000 229.000000 0.978664 -0.132386 -0.157131
17820.00000000 11910.00000000 -930.00000000 154 219 69 97.000000 1.000000 4.000000 1.000000 -60.708740 114.000000 229.000000 0.942626 -0.265587 -0.202286
17820.00000000 11900.00000000 -930.00000000 154 219 69 97.000000 1.000000 4.000000 1.000000 -60.708740 114.000000 229.000000 0.990340 -0.137640 -0.016785
17820.00000000 11900.00000000 -940.00000000 154 219 69 97.000000 1.000000 4.000000 1.000000 -60.708740 114.000000 229.000000 0.986716 -0.154574 -0.049975
17840.00000000 11900.00000000 -910.00000000 154 219 69 97.000000 1.000000 4.000000 1.000000 -60.708740 114.000000 229.000000 0.989154 -0.042311 -0.140654
17820.00000000 11900.00000000 -930.00000000 154 219 69 97.000000 1.000000 4.000000 1.000000 -60.708740 114.000000 229.000000 0.990340 -0.137640 -0.016785
17830.00000000 11920.00000000 -940.00000000 154 219 69 97.000000 1.000000 4.000000 1.000000 -60.708740 114.000000 229.000000 0.927080 0.274849 -0.254912
17820.00000000 11890.00000000 -930.00000000 154 219 69 97.000000 1.000000 4.000000 1.000000 -60.708740 114.000000 229.000000 0.961390 0.245876 0.123589
17830.00000000 11910.00000000 -940.00000000 154 219 69 97.000000 1.000000 4.000000 1.000000 -60.708740 114.000000 229.000000 0.998902 -0.046293 0.007201
17830.00000000 11890.00000000 -910.00000000 154 219 69 97.000000 1.000000 4.000000 1.000000 -60.708740 114.000000 229.000000 0.919657 0.372012 -0.125848
17840.00000000 11870.00000000 -900.00000000 154 219 69 97.000000 1.000000 4.000000 1.000000 -60.708740 114.000000 229.000000 0.937202 0.037385 -0.346778
17840.00000000 11860.00000000 -930.00000000 154 219 69 97.000000 1.000000 4.000000 1.000000 -60.708740 114.000000 229.000000 0.952184 0.076226 -0.295862
17830.00000000 11850.00000000 -940.00000000 154 219 69 97.000000 1.000000 4.000000 1.000000 -60.708740 114.000000 229.000000 0.962170 -0.240218 -0.128549
17840.00000000 11860.00000000 -930.00000000 154 219 69 97.000000 1.000000 4.000000 1.000000 -60.708740 114.000000 229.000000 0.952184 0.076226 -0.295862
17830.00000000 11860.00000000 -930.00000000 154 219 69 97.000000 1.000000 4.000000 1.000000 -60.708740 114.000000 229.000000 0.984526 -0.119009 -0.128626
17840.00000000 11870.00000000 -930.00000000 154 219 69 97.000000 1.000000 4.000000 1.000000 -60.708740 114.000000 229.000000 0.995609 -0.031555 -0.088136
17840.00000000 11870.00000000 -920.00000000 154 219 69 97.000000 1.000000 4.000000 1.000000 -60.708740 114.000000 229.000000 0.922827 0.111068 -0.368856
17840.00000000 11870.00000000 -910.00000000 154 219 69 97.000000 1.000000 4.000000 1.000000 -60.708740 114.000000 229.000000 0.959147 0.104846 -0.262762
17830.00000000 11900.00000000 -980.00000000 154 219 69 97.000000 1.000000 4.000000 1.000000 -60.708740 114.000000 229.000000 0.995977 -0.085431 0.027035
17820.00000000 11910.00000000 -950.00000000 154 219 69 97.000000 1.000000 4.000000 1.000000 -60.708740 114.000000 229.000000 0.947430 -0.317510 -0.039529
17820.00000000 11900.00000000 -960.00000000 154 219 69 97.000000 1.000000 4.000000 1.000000 -60.708740 114.000000 229.000000 0.991841 -0.046369 -0.118749
17830.00000000 11920.00000000 -950.00000000 154 219 69 97.000000 1.000000 4.000000 1.000000 -60.708740 114.000000 229.000000 0.920857 0.316500 0.227708
17820.00000000 11900.00000000 -950.00000000 154 219 69 97.000000 1.000000 4.000000 1.000000 -60.708740 114.000000 229.000000 0.988689 0.145160 -0.037719
17820.00000000 11900.00000000 -950.00000000 154 219 69 97.000000 1.000000 4.000000 1.000000 -60.708740 114.000000 229.000000 0.988689 0.145160 -0.037719
17830.00000000 11920.00000000 -950.00000000 154 219 69 97.000000 1.000000 4.000000 1.000000 -60.708740 114.000000 229.000000 0.920857 0.316500 0.227708
17810.00000000 11890.00000000 -970.00000000 154 219 69 97.000000 1.000000 4.000000 1.000000 -60.708740 114.000000 229.000000 0.959702 -0.258431 -0.110385
17830.00000000 11890.00000000 -970.00000000 154 219 69 97.000000 1.000000 4.000000 1.000000 -60.708740 114.000000 229.000000 0.989873 0.135552 -0.042147
17820.00000000 11920.00000000 -950.00000000 154 219 69 97.000000 1.000000 4.000000 1.000000 -60.708740 114.000000 229.000000 0.950321 0.270176 0.154578
17820.00000000 11920.00000000 -950.00000000 154 219 69 97.000000 1.000000 4.000000 1.000000 -60.708740 114.000000 229.000000 0.950321 0.270176 0.154578
17820.00000000 11890.00000000 -1030.00000000 154 219 69 97.000000 1.000000 4.000000 1.000000 -60.708740 114.000000 229.000000 0.851402 0.040017 0.522985
17830.00000000 11910.00000000 -1030.00000000 154 219 69 97.000000 1.000000 4.000000 1.000000 -60.708740 114.000000 229.000000 0.812636 -0.029172 0.582042
17820.00000000 11920.00000000 -990.00000000 154 219 69 97.000000 1.000000 4.000000 1.000000 -60.708740 114.000000 229.000000 0.995047 -0.060876 0.078585
17820.00000000 11890.00000000 -1020.00000000 154 219 69 97.000000 1.000000 4.000000 1.000000 -60.708740 114.000000 229.000000 0.970757 -0.030223 0.238156
17830.00000000 11900.00000000 -1030.00000000 154 219 69 97.000000 1.000000 4.000000 1.000000 -60.708740 114.000000 229.000000 0.615253 -0.100837 0.781854
17820.00000000 11910.00000000 -1020.00000000 154 219 69 97.000000 1.000000 4.000000 1.000000 -60.708740 114.000000 229.000000 0.966439 -0.028101 0.255355
17820.00000000 11890.00000000 -1030.00000000 154 219 69 97.000000 1.000000 4.000000 1.000000 -60.708740 114.000000 229.000000 0.851402 0.040017 0.522985
17820.00000000 11920.00000000 -990.00000000 154 219 69 97.000000 1.000000 4.000000 1.000000 -60.708740 114.000000 229.000000 0.995047 -0.060876 0.078585
17820.00000000 11920.00000000 -1020.00000000 154 219 69 97.000000 1.000000 4.000000 1.000000 -60.708740 114.000000 229.000000 0.979437 -0.010481 0.201478
17840.00000000 11880.00000000 -970.00000000 154 219 69 97.000000 1.000000 4.000000 1.000000 -60.708740 114.000000 229.000000 0.818708 0.346803 0.457653
17830.00000000 11860.00000000 -950.00000000 154 219 69 97.000000 1.000000 4.000000 1.000000 -60.708740 114.000000 229.000000 0.963951 -0.058915 -0.259477
17840.00000000 11860.00000000 -970.00000000 154 219 69 97.000000 1.000000 4.000000 1.000000 -60.708740 114.000000 229.000000 0.987798 0.097720 -0.121267
17810.00000000 11880.00000000 -960.00000000 154 219 69 97.000000 1.000000 4.000000 1.000000 -60.708740 114.000000 229.000000 0.970319 -0.241687 -0.008334
17810.00000000 11870.00000000 -960.00000000 154 219 69 97.000000 1.000000 4.000000 1.000000 -60.708740 114.000000 229.000000 0.938544 0.246838 0.241260
17820.00000000 11880.00000000 -970.00000000 154 219 69 97.000000 1.000000 4.000000 1.000000 -60.708740 114.000000 229.000000 0.967393 -0.167060 0.190371
17820.00000000 11880.00000000 -980.00000000 154 219 69 97.000000 1.000000 4.000000 1.000000 -60.708740 114.000000 229.000000 0.999616 -0.005043 -0.027235
17830.00000000 11850.00000000 -950.00000000 154 219 69 97.000000 1.000000 4.000000 1.000000 -60.708740 114.000000 229.000000 0.987098 -0.073944 0.142020
17830.00000000 11850.00000000 -990.00000000 154 219 69 97.000000 1.000000 4.000000 1.000000 -60.708740 114.000000 229.000000 0.955035 0.202827 0.216260
17820.00000000 11880.00000000 -1030.00000000 154 219 69 97.000000 1.000000 4.000000 1.000000 -60.708740 114.000000 229.000000 0.900079 -0.116547 0.419850
17820.00000000 11850.00000000 -1010.00000000 154 219 69 97.000000 1.000000 4.000000 1.000000 -60.708740 114.000000 229.000000 0.927030 -0.157053 0.340513
17830.00000000 11850.00000000 -1020.00000000 154 219 69 97.000000 1.000000 4.000000 1.000000 -60.708740 114.000000 229.000000 0.929620 -0.130449 0.344660
