//X Y Z R G B PointSourceId ScanDirectionFlag NumberOfReturns ReturnNumber GpsTime Intensity Classification Nx Ny Nz
-13980.00000000 -1220.00000000 -40.00000000 133 214 82 97.000000 1.000000 4.000000 1.000000 -60.708740 114.000000 187.000000 0.141329 0.584654 0.798878
-13910.00000000 -1230.00000000 -50.00000000 133 214 82 97.000000 1.000000 4.000000 1.000000 -60.708740 114.000000 187.000000 0.528610 0.759573 0.378973
-13960.00000000 -1230.00000000 -130.00000000 133 214 82 97.000000 1.000000 4.000000 1.000000 -60.708740 114.000000 187.000000 0.418853 0.804006 0.422063
-13990.00000000 -1170.00000000 -20.00000000 133 214 82 97.000000 1.000000 4.000000 1.000000 -60.708740 114.000000 187.000000 -0.119609 0.955558 0.269449
-14150.00000000 -1320.00000000 -140.00000000 133 214 82 97.000000 1.000000 4.000000 1.000000 -60.708740 114.000000 187.000000 -0.084149 0.898045 0.431779
-14150.00000000 -1280.00000000 -150.00000000 133 214 82 97.000000 1.000000 4.000000 1.000000 -60.708740 114.000000 187.000000 -0.074016 0.870041 0.487391
-14090.00000000 -1260.00000000 -200.00000000 133 214 82 97.000000 1.000000 4.000000 1.000000 -60.708740 114.000000 187.000000 0.105685 0.976034 -0.190233
-14100.00000000 -1270.00000000 -220.00000000 133 214 82 97.000000 1.000000 4.000000 1.000000 -60.708740 114.000000 187.000000 0.095779 0.900879 -0.423371
-14120.00000000 -1250.00000000 -260.00000000 133 214 82 97.000000 1.000000 4.000000 1.000000 -60.708740 114.000000 187.000000 0.434530 0.890430 -0.135345
-14150.00000000 -1290.00000000 -200.00000000 133 214 82 97.000000 1.000000 4.000000 1.000000 -60.708740 114.000000 187.000000 0.244564 0.946832 -0.209041
-14150.00000000 -1290.00000000 -210.00000000 133 214 82 97.000000 1.000000 4.000000 1.000000 -60.708740 114.000000 187.000000 0.233200 0.972263 0.017938
-14150.00000000 -1270.00000000 -260.00000000 133 214 82 97.000000 1.000000 4.000000 1.000000 -60.708740 114.000000 187.000000 0.183884 0.800883 -0.569888
-14140.00000000 -1270.00000000 -250.00000000 133 214 82 97.000000 1.000000 4.000000 1.000000 -60.708740 114.000000 187.000000 -0.035637 0.914695 -0.402571
-14100.00000000 -1250.00000000 -310.00000000 133 214 82 97.000000 1.000000 4.000000 1.000000 -60.708740 114.000000 187.000000 -0.013218 0.999478 0.029486
-14080.00000000 -1230.00000000 -350.00000000 133 214 82 97.000000 1.000000 4.000000 1.000000 -60.708740 114.000000 187.000000 -0.317219 0.792251 -0.521259
-14100.00000000 -1280.00000000 -300.00000000 133 214 82 97.000000 1.000000 4.000000 1.000000 -60.708740 114.000000 187.000000 -0.266417 0.931756 -0.246683
-14080.00000000 -1260.00000000 -340.00000000 133 214 82 97.000000 1.000000 4.000000 1.000000 -60.708740 114.000000 187.000000 -0.066227 0.912306 -0.404118
-14080.00000000 -1260.00000000 -340.00000000 133 214 82 97.000000 1.000000 4.000000 1.000000 -60.708740 114.000000 187.000000 -0.066227 0.912306 -0.404118
-14120.00000000 -1270.00000000 -340.00000000 133 214 82 97.000000 1.000000 4.000000 1.000000 -60.708740 114.000000 187.000000 0.222705 0.745984 -0.627623
-14140.00000000 -1300.00000000 -240.00000000 133 214 82 97.000000 1.000000 4.000000 1.000000 -60.708740 114.000000 187.000000 0.024745 0.979178 -0.201491
-14140.00000000 -1310.00000000 -220.00000000 133 214 82 97.000000 1.000000 4.000000 1.000000 -60.708740 114.000000 187.000000 -0.159161 0.953629 0.255460
-14150.00000000 -1300.00000000 -210.00000000 133 214 82 97.000000 1.000000 4.000000 1.000000 -60.708740 114.000000 187.000000 -0.059328 0.932109 -0.357286
-14140.00000000 -1300.00000000 -220.00000000 133 214 82 97.000000 1.000000 4.000000 1.000000 -60.708740 114.000000 187.000000 -0.054649 0.987175 0.149995
-13860.00000000 -1130.00000000 -370.00000000 133 214 82 97.000000 1.000000 4.000000 1.000000 -60.708740 114.000000 187.000000 -0.142215 0.929229 -0.341040
-13910.00000000 -1120.00000000 -520.00000000 133 214 82 97.000000 1.000000 4.000000 1.000000 -60.708740 114.000000 187.000000 0.050673 0.983989 -0.170872
-13980.00000000 -1170.00000000 -500.00000000 133 214 82 97.000000 1.000000 4.000000 1.000000 -60.708740 114.000000 187.000000 0.275737 0.892791 -0.356222
-13980.00000000 -1160.00000000 -490.00000000 133 214 82 97.000000 1.000000 4.000000 1.000000 -60.708740 114.000000 187.000000 0.289797 0.913080 -0.286885
-13950.00000000 -1160.00000000 -520.00000000 133 214 82 97.000000 1.000000 4.000000 1.000000 -60.708740 114.000000 187.000000 -0.170435 0.944894 -0.279514
-13980.00000000 -1190.00000000 -490.00000000 133 214 82 97.000000 1.000000 4.000000 1.000000 -60.708740 114.000000 187.000000 -0.245498 0.819871 -0.517245
-13850.00000000 -1120.00000000 -640.00000000 133 214 82 97.000000 1.000000 4.000000 1.000000 -60.708740 114.000000 187.000000 -0.155300 -0.522105 0.838623
-13820.00000000 -1100.00000000 -680.00000000 133 214 82 97.000000 1.000000 4.000000 1.000000 -60.708740 114.000000 187.000000 0.083020 -0.662703 0.744266
-13870.00000000 -1120.00000000 -630.00000000 133 214 82 97.000000 1.000000 4.000000 1.000000 -60.708740 114.000000 187.000000 -0.166229 -0.675591 0.718292
-13880.00000000 -1130.00000000 -590.00000000 133 214 82 97.000000 1.000000 4.000000 1.000000 -60.708740 114.000000 187.000000 -0.270163 0.766252 -0.582983
-13880.00000000 -1140.00000000 -600.00000000 133 214 82 97.000000 1.000000 4.000000 1.000000 -60.708740 114.000000 187.000000 0.041050 -0.638391 0.768617
-13850.00000000 -1130.00000000 -640.00000000 133 214 82 97.000000 1.000000 4.000000 1.000000 -60.708740 114.000000 187.000000 -0.049378 0.811213 -0.582662
-13900.00000000 -1150.00000000 -620.00000000 133 214 82 97.000000 1.000000 4.000000 1.000000 -60.708740 114.000000 187.000000 0.342404 0.804251 -0.485736
-13900.00000000 -1130.00000000 -610.00000000 133 214 82 97.000000 1.000000 4.000000 1.000000 -60.708740 114.000000 187.000000 -0.217005 -0.672870 0.707216
-13900.00000000 -1130.00000000 -610.00000000 133 214 82 97.000000 1.000000 4.000000 1.000000 -60.708740 114.000000 187.000000 -0.217005 -0.672870 0.707216
-13890.00000000 -1140.00000000 -610.00000000 133 214 82 97.000000 1.000000 4.000000 1.000000 -60.708740 114.000000 187.000000 -0.291413 -0.511942 0.808080
-13900.00000000 -1130.00000000 -610.00000000 133 214 82 97.000000 1.000000 4.000000 1.000000 -60.708740 114.000000 187.000000 -0.217005 -0.672870 0.707216
-13900.00000000 -1150.00000000 -620.00000000 133 214 82 97.000000 1.000000 4.000000 1.000000 -60.708740 114.000000 187.000000 0.342404 0.804251 -0.485736
-13940.00000000 -1140.00000000 -540.00000000 133 214 82 97.000000 1.000000 4.000000 1.000000 -60.708740 114.000000 187.000000 -0.079895 0.916766 -0.391352
-13940.00000000 -1140.00000000 -540.00000000 133 214 82 97.000000 1.000000 4.000000 1.000000 -60.708740 114.000000 187.000000 -0.079895 0.916766 -0.391352
-13920.00000000 -1170.00000000 -570.00000000 133 214 82 97.000000 1.000000 4.000000 1.000000 -60.708740 114.000000 187.000000 -0.119607 -0.612799 0.781135
-14070.00000000 -1170.00000000 -380.00000000 133 214 82 97.000000 1.000000 4.000000 1.000000 -60.708740 114.000000 187.000000 -0.043059 0.840353 -0.540326
-14060.00000000 -1180.00000000 -390.00000000 133 214 82 97.000000 1.000000 4.000000 1.000000 -60.708740 114.000000 187.000000 -0.082398 0.793622 -0.602806
-14060.00000000 -1190.00000000 -400.00000000 133 214 82 97.000000 1.000000 4.000000 1.000000 -60.708740 114.000000 187.000000 0.170717 0.850614 -0.497305
-14070.00000000 -1180.00000000 -400.00000000 133 214 82 97.000000 1.000000 4.000000 1.000000 -60.708740 114.000000 187.000000 0.034270 0.948126 -0.316042
-14010.00000000 -1170.00000000 -460.00000000 133 214 82 97.000000 1.000000 4.000000 1.000000 -60.708740 114.000000 187.000000 -0.296820 0.884434 -0.360102
-14010.00000000 -1170.00000000 -460.00000000 133 214 82 97.000000 1.000000 4.000000 1.000000 -60.708740 114.000000 187.000000 -0.296820 0.884434 -0.360102
-14000.00000000 -1180.00000000 -470.00000000 133 214 82 97.000000 1.000000 4.000000 1.000000 -60.708740 114.000000 187.000000 -0.073333 0.783652 -0.616856
-14040.00000000 -1170.00000000 -470.00000000 133 214 82 97.000000 1.000000 4.000000 1.000000 -60.708740 114.000000 187.000000 0.390936 0.684551 -0.615271
-14040.00000000 -1170.00000000 -460.00000000 133 214 82 97.000000 1.000000 4.000000 1.000000 -60.708740 114.000000 187.000000 0.310817 0.739197 -0.597478
-14030.00000000 -1170.00000000 -450.00000000 133 214 82 97.000000 1.000000 4.000000 1.000000 -60.708740 114.000000 187.000000 0.205910 0.735394 -0.645598
-14090.00000000 -1200.00000000 -360.00000000 133 214 82 97.000000 1.000000 4.000000 1.000000 -60.708740 114.000000 187.000000 0.085407 0.974139 -0.209186
-14110.00000000 -1200.00000000 -360.00000000 133 214 82 97.000000 1.000000 4.000000 1.000000 -60.708740 114.000000 187.000000 0.476951 0.776470 -0.411839
-14090.00000000 -1210.00000000 -370.00000000 133 214 82 97.000000 1.000000 4.000000 1.000000 -60.708740 114.000000 187.000000 0.119526 0.979621 -0.161422
-14110.00000000 -1200.00000000 -410.00000000 133 214 82 97.000000 1.000000 4.000000 1.000000 -60.708740 114.000000 187.000000 -0.038253 -0.667300 0.743806
-14130.00000000 -1190.00000000 -370.00000000 133 214 82 97.000000 1.000000 4.000000 1.000000 -60.708740 114.000000 187.000000 0.374587 0.892791 -0.250218
-14130.00000000 -1190.00000000 -360.00000000 133 214 82 97.000000 1.000000 4.000000 1.000000 -60.708740 114.000000 187.000000 0.254481 0.834389 -0.488912
-14120.00000000 -1200.00000000 -370.00000000 133 214 82 97.000000 1.000000 4.000000 1.000000 -60.708740 114.000000 187.000000 0.349763 0.740196 -0.574262
-14120.00000000 -1190.00000000 -360.00000000 133 214 82 97.000000 1.000000 4.000000 1.000000 -60.708740 114.000000 187.000000 0.310871 0.815840 -0.487610
-14130.00000000 -1200.00000000 -370.00000000 133 214 82 97.000000 1.000000 4.000000 1.000000 -60.708740 114.000000 187.000000 0.364080 0.800334 -0.476351
-14130.00000000 -1200.00000000 -370.00000000 133 214 82 97.000000 1.000000 4.000000 1.000000 -60.708740 114.000000 187.000000 0.364080 0.800334 -0.476351
-14140.00000000 -1200.00000000 -380.00000000 133 214 82 97.000000 1.000000 4.000000 1.000000 -60.708740 114.000000 187.000000 0.242609 0.774783 -0.583826
-14130.00000000 -1210.00000000 -400.00000000 133 214 82 97.000000 1.000000 4.000000 1.000000 -60.708740 114.000000 187.000000 -0.336687 0.796240 -0.502637
-14150.00000000 -1190.00000000 -620.00000000 133 214 82 97.000000 1.000000 4.000000 1.000000 -60.708740 114.000000 187.000000 0.444091 -0.550540 0.706887
-14070.00000000 -1240.00000000 -460.00000000 133 214 82 97.000000 1.000000 4.000000 1.000000 -60.708740 114.000000 187.000000 0.427762 0.637481 -0.640810
-14110.00000000 -1250.00000000 -370.00000000 133 214 82 97.000000 1.000000 4.000000 1.000000 -60.708740 114.000000 187.000000 -0.252289 0.785075 -0.565692
-14100.00000000 -1220.00000000 -420.00000000 133 214 82 97.000000 1.000000 4.000000 1.000000 -60.708740 114.000000 187.000000 0.089451 0.955437 -0.281316
-13940.00000000 -1660.00000000 -130.00000000 133 214 82 97.000000 1.000000 4.000000 1.000000 -60.708740 114.000000 187.000000 -0.162998 0.892881 -0.419755
-13990.00000000 -1590.00000000 -80.00000000 133 214 82 97.000000 1.000000 4.000000 1.000000 -60.708740 114.000000 187.000000 0.354925 -0.433798 0.828159
-13990.00000000 -1620.00000000 -40.00000000 133 214 82 97.000000 1.000000 4.000000 1.000000 -60.708740 114.000000 187.000000 0.038307 0.713646 -0.699458
-14020.00000000 -1630.00000000 -60.00000000 133 214 82 97.000000 1.000000 4.000000 1.000000 -60.708740 114.000000 187.000000 -0.055962 -0.710290 0.701681
-14020.00000000 -1600.00000000 -20.00000000 133 214 82 97.000000 1.000000 4.000000 1.000000 -60.708740 114.000000 187.000000 0.314751 -0.627887 0.711821
-14020.00000000 -1630.00000000 -70.00000000 133 214 82 97.000000 1.000000 4.000000 1.000000 -60.708740 114.000000 187.000000 0.006733 -0.518439 0.855088
-14040.00000000 -1630.00000000 -20.00000000 133 214 82 97.000000 1.000000 4.000000 1.000000 -60.708740 114.000000 187.000000 -0.234788 -0.294552 0.926344
-14040.00000000 -1630.00000000 -80.00000000 133 214 82 97.000000 1.000000 4.000000 1.000000 -60.708740 114.000000 187.000000 -0.225176 0.781128 -0.582352
-14030.00000000 -1610.00000000 -70.00000000 133 214 82 97.000000 1.000000 4.000000 1.000000 -60.708740 114.000000 187.000000 -0.073183 -0.604115 0.793529
-14070.00000000 -1680.00000000 -70.00000000 133 214 82 97.000000 1.000000 4.000000 1.000000 -60.708740 114.000000 187.000000 -0.336368 0.798675 -0.498973
-13990.00000000 -1660.00000000 -140.00000000 133 214 82 97.000000 1.000000 4.000000 1.000000 -60.708740 114.000000 187.000000 -0.339015 0.776039 -0.531820
-14090.00000000 -1610.00000000 -50.00000000 133 214 82 97.000000 1.000000 4.000000 1.000000 -60.708740 114.000000 187.000000 0.381500 -0.514619 0.767870
-14110.00000000 -1630.00000000 -60.00000000 133 214 82 97.000000 1.000000 4.000000 1.000000 -60.708740 114.000000 187.000000 0.070744 0.737759 -0.671347
-14090.00000000 -1600.00000000 -50.00000000 133 214 82 97.000000 1.000000 4.000000 1.000000 -60.708740 114.000000 187.000000 0.001357 -0.555013 0.831841
-14080.00000000 -1610.00000000 -50.00000000 133 214 82 97.000000 1.000000 4.000000 1.000000 -60.708740 114.000000 187.000000 -0.198998 0.741999 -0.640186
-14120.00000000 -1630.00000000 -60.00000000 133 214 82 97.000000 1.000000 4.000000 1.000000 -60.708740 114.000000 187.000000 -0.225726 0.758127 -0.611794
-14140.00000000 -1600.00000000 -40.00000000 133 214 82 97.000000 1.000000 4.000000 1.000000 -60.708740 114.000000 187.000000 -0.170174 0.811715 -0.558713
-14150.00000000 -1600.00000000 -60.00000000 133 214 82 97.000000 1.000000 4.000000 1.000000 -60.708740 114.000000 187.000000 0.102032 -0.311395 0.944787
-14120.00000000 -1630.00000000 -70.00000000 133 214 82 97.000000 1.000000 4.000000 1.000000 -60.708740 114.000000 187.000000 -0.078419 0.828390 -0.554636
-14110.00000000 -1640.00000000 -60.00000000 133 214 82 97.000000 1.000000 4.000000 1.000000 -60.708740 114.000000 187.000000 0.375871 0.720557 -0.582682
-14110.00000000 -1640.00000000 -70.00000000 133 214 82 97.000000 1.000000 4.000000 1.000000 -60.708740 114.000000 187.000000 0.294420 0.683761 -0.667673
-14110.00000000 -1640.00000000 -70.00000000 133 214 82 97.000000 1.000000 4.000000 1.000000 -60.708740 114.000000 187.000000 0.294420 0.683761 -0.667673
-14120.00000000 -1640.00000000 -60.00000000 133 214 82 97.000000 1.000000 4.000000 1.000000 -60.708740 114.000000 187.000000 0.221401 0.788063 -0.574403
-14130.00000000 -1640.00000000 -70.00000000 133 214 82 97.000000 1.000000 4.000000 1.000000 -60.708740 114.000000 187.000000 0.131956 0.918138 -0.373645
-14130.00000000 -1640.00000000 -70.00000000 133 214 82 97.000000 1.000000 4.000000 1.000000 -60.708740 114.000000 187.000000 0.131956 0.918138 -0.373645
-14150.00000000 -1690.00000000 -20.00000000 133 214 82 97.000000 1.000000 4.000000 1.000000 -60.708740 114.000000 187.000000 -0.180505 0.802412 -0.568817
-13850.00000000 -1530.00000000 -440.00000000 133 214 82 97.000000 1.000000 4.000000 1.000000 -60.708740 114.000000 187.000000 -0.028296 -0.266966 0.963291
-13830.00000000 -1480.00000000 -510.00000000 133 214 82 97.000000 1.000000 4.000000 1.000000 -60.708740 114.000000 187.000000 0.050399 -0.005143 0.998716
-13820.00000000 -1500.00000000 -510.00000000 133 214 82 97.000000 1.000000 4.000000 1.000000 -60.708740 114.000000 187.000000 -0.167885 -0.031261 0.985311
-13830.00000000 -1490.00000000 -510.00000000 133 214 82 97.000000 1.000000 4.000000 1.000000 -60.708740 114.000000 187.000000 -0.145818 0.021477 0.989078
-13820.00000000 -1490.00000000 -510.00000000 133 214 82 97.000000 1.000000 4.000000 1.000000 -60.708740 114.000000 187.000000 -0.255585 -0.096326 0.961976
-13850.00000000 -1480.00000000 -490.00000000 133 214 82 97.000000 1.000000 4.000000 1.000000 -60.708740 114.000000 187.000000 0.216392 -0.275027 0.936768
-13840.00000000 -1510.00000000 -500.00000000 133 214 82 97.000000 1.000000 4.000000 1.000000 -60.708740 114.000000 187.000000 0.105012 0.116811 0.987587
-13840.00000000 -1520.00000000 -500.00000000 133 214 82 97.000000 1.000000 4.000000 1.000000 -60.708740 114.000000 187.000000 0.030140 0.119443 0.992383
-13850.00000000 -1450.00000000 -620.00000000 133 214 82 97.000000 1.000000 4.000000 1.000000 -60.708740 114.000000 187.000000 -0.044459 0.070483 0.996522
-13830.00000000 -1500.00000000 -590.00000000 133 214 82 97.000000 1.000000 4.000000 1.000000 -60.708740 114.000000 187.000000 0.085072 -0.117702 0.989398
-13870.00000000 -1500.00000000 -560.00000000 133 214 82 97.000000 1.000000 4.000000 1.000000 -60.708740 114.000000 187.000000 0.284463 -0.233515 0.929813
-13890.00000000 -1510.00000000 -590.00000000 133 214 82 97.000000 1.000000 4.000000 1.000000 -60.708740 114.000000 187.000000 0.185974 -0.317415 0.929872
-13840.00000000 -1470.00000000 -610.00000000 133 214 82 97.000000 1.000000 4.000000 1.000000 -60.708740 114.000000 187.000000 0.037719 -0.145160 0.988689
-14230.00000000 -1120.00000000 -300.00000000 133 214 82 97.000000 1.000000 4.000000 1.000000 -60.708740 114.000000 187.000000 0.196537 0.850662 -0.487593
-14210.00000000 -1150.00000000 -320.00000000 133 214 82 97.000000 1.000000 4.000000 1.000000 -60.708740 114.000000 187.000000 0.120254 0.952781 -0.278831
-14200.00000000 -1150.00000000 -320.00000000 133 214 82 97.000000 1.000000 4.000000 1.000000 -60.708740 114.000000 187.000000 0.110109 0.794254 -0.597526
-14200.00000000 -1190.00000000 -330.00000000 133 214 82 97.000000 1.000000 4.000000 1.000000 -60.708740 114.000000 187.000000 0.392597 0.843066 -0.367570
-14320.00000000 -1090.00000000 -260.00000000 133 214 82 97.000000 1.000000 4.000000 1.000000 -60.708740 114.000000 187.000000 0.481671 0.850097 -0.212902
-14310.00000000 -1090.00000000 -320.00000000 133 214 82 97.000000 1.000000 4.000000 1.000000 -60.708740 114.000000 187.000000 0.195575 0.927221 -0.319392
-14240.00000000 -1130.00000000 -310.00000000 133 214 82 97.000000 1.000000 4.000000 1.000000 -60.708740 114.000000 187.000000 0.103439 0.877109 -0.469020
-14240.00000000 -1130.00000000 -310.00000000 133 214 82 97.000000 1.000000 4.000000 1.000000 -60.708740 114.000000 187.000000 0.103439 0.877109 -0.469020
-14180.00000000 -1330.00000000 -170.00000000 133 214 82 97.000000 1.000000 4.000000 1.000000 -60.708740 114.000000 187.000000 0.089799 0.931496 0.352494
-14160.00000000 -1320.00000000 -180.00000000 133 214 82 97.000000 1.000000 4.000000 1.000000 -60.708740 114.000000 187.000000 0.265453 0.922630 0.279802
-14190.00000000 -1330.00000000 -160.00000000 133 214 82 97.000000 1.000000 4.000000 1.000000 -60.708740 114.000000 187.000000 0.027088 0.995773 0.087767
-14190.00000000 -1330.00000000 -180.00000000 133 214 82 97.000000 1.000000 4.000000 1.000000 -60.708740 114.000000 187.000000 0.065719 0.994699 -0.079086
-14190.00000000 -1330.00000000 -160.00000000 133 214 82 97.000000 1.000000 4.000000 1.000000 -60.708740 114.000000 187.000000 0.027088 0.995773 0.087767
-14200.00000000 -1330.00000000 -130.00000000 133 214 82 97.000000 1.000000 4.000000 1.000000 -60.708740 114.000000 187.000000 -0.018057 0.779249 0.626455
-14220.00000000 -1330.00000000 -180.00000000 133 214 82 97.000000 1.000000 4.000000 1.000000 -60.708740 114.000000 187.000000 0.259243 0.848292 0.461729
-14230.00000000 -1300.00000000 -150.00000000 133 214 82 97.000000 1.000000 4.000000 1.000000 -60.708740 114.000000 187.000000 0.273749 0.875695 0.397768
-14200.00000000 -1310.00000000 -170.00000000 133 214 82 97.000000 1.000000 4.000000 1.000000 -60.708740 114.000000 187.000000 0.209734 0.975077 0.072364
-14210.00000000 -1310.00000000 -160.00000000 133 214 82 97.000000 1.000000 4.000000 1.000000 -60.708740 114.000000 187.000000 0.222283 0.817082 0.531946
-14200.00000000 -1330.00000000 -160.00000000 133 214 82 97.000000 1.000000 4.000000 1.000000 -60.708740 114.000000 187.000000 -0.050353 0.943803 0.326651
-14210.00000000 -1330.00000000 -160.00000000 133 214 82 97.000000 1.000000 4.000000 1.000000 -60.708740 114.000000 187.000000 0.110905 0.942026 0.316681
-14200.00000000 -1340.00000000 -120.00000000 133 214 82 97.000000 1.000000 4.000000 1.000000 -60.708740 114.000000 187.000000 0.201506 0.956818 0.209512
-14320.00000000 -1280.00000000 -20.00000000 133 214 82 97.000000 1.000000 4.000000 1.000000 -60.708740 114.000000 187.000000 0.368731 0.765075 0.527918
-14240.00000000 -1280.00000000 -180.00000000 133 214 82 97.000000 1.000000 4.000000 1.000000 -60.708740 114.000000 187.000000 0.340528 0.900703 0.269769
-14250.00000000 -1380.00000000 -80.00000000 133 214 82 97.000000 1.000000 4.000000 1.000000 -60.708740 114.000000 187.000000 0.406599 0.253562 0.877715
-14320.00000000 -1310.00000000 -20.00000000 133 214 82 97.000000 1.000000 4.000000 1.000000 -60.708740 114.000000 187.000000 0.317295 0.293682 0.901707
-14320.00000000 -1380.00000000 -30.00000000 133 214 82 97.000000 1.000000 4.000000 1.000000 -60.708740 114.000000 187.000000 0.547608 0.480622 0.684929
-14320.00000000 -1380.00000000 -30.00000000 133 214 82 97.000000 1.000000 4.000000 1.000000 -60.708740 114.000000 187.000000 0.547608 0.480622 0.684929
-14250.00000000 -1320.00000000 -180.00000000 133 214 82 97.000000 1.000000 4.000000 1.000000 -60.708740 114.000000 187.000000 0.138253 0.957240 0.254123
-14250.00000000 -1300.00000000 -170.00000000 133 214 82 97.000000 1.000000 4.000000 1.000000 -60.708740 114.000000 187.000000 0.156414 0.942562 0.295146
-14230.00000000 -1280.00000000 -200.00000000 133 214 82 97.000000 1.000000 4.000000 1.000000 -60.708740 114.000000 187.000000 0.191939 0.980892 0.031794
-14200.00000000 -1280.00000000 -240.00000000 133 214 82 97.000000 1.000000 4.000000 1.000000 -60.708740 114.000000 187.000000 -0.171509 0.982281 -0.075560
-14190.00000000 -1280.00000000 -220.00000000 133 214 82 97.000000 1.000000 4.000000 1.000000 -60.708740 114.000000 187.000000 -0.153527 0.973185 0.171291
-14190.00000000 -1330.00000000 -200.00000000 133 214 82 97.000000 1.000000 4.000000 1.000000 -60.708740 114.000000 187.000000 0.148233 0.968025 0.202370
-14180.00000000 -1330.00000000 -240.00000000 133 214 82 97.000000 1.000000 4.000000 1.000000 -60.708740 114.000000 187.000000 -0.193641 0.980087 0.043955
-14180.00000000 -1330.00000000 -260.00000000 133 214 82 97.000000 1.000000 4.000000 1.000000 -60.708740 114.000000 187.000000 -0.251935 0.962979 -0.095914
-14210.00000000 -1320.00000000 -200.00000000 133 214 82 97.000000 1.000000 4.000000 1.000000 -60.708740 114.000000 187.000000 -0.233615 0.961866 0.142257
-14220.00000000 -1320.00000000 -200.00000000 133 214 82 97.000000 1.000000 4.000000 1.000000 -60.708740 114.000000 187.000000 0.178475 0.983363 0.033829
-14260.00000000 -1280.00000000 -190.00000000 133 214 82 97.000000 1.000000 4.000000 1.000000 -60.708740 114.000000 187.000000 -0.125918 0.981675 -0.143034
-14280.00000000 -1280.00000000 -220.00000000 133 214 82 97.000000 1.000000 4.000000 1.000000 -60.708740 114.000000 187.000000 0.154037 0.966940 -0.203226
-14270.00000000 -1270.00000000 -320.00000000 133 214 82 97.000000 1.000000 4.000000 1.000000 -60.708740 114.000000 187.000000 -0.212963 0.871212 -0.442308
-14280.00000000 -1310.00000000 -270.00000000 133 214 82 97.000000 1.000000 4.000000 1.000000 -60.708740 114.000000 187.000000 0.173889 0.917514 -0.357675
-14300.00000000 -1300.00000000 -260.00000000 133 214 82 97.000000 1.000000 4.000000 1.000000 -60.708740 114.000000 187.000000 -0.087415 0.951128 -0.296167
-14270.00000000 -1320.00000000 -330.00000000 133 214 82 97.000000 1.000000 4.000000 1.000000 -60.708740 114.000000 187.000000 0.053511 0.935790 -0.348474
-14280.00000000 -1320.00000000 -320.00000000 133 214 82 97.000000 1.000000 4.000000 1.000000 -60.708740 114.000000 187.000000 -0.277747 0.808133 -0.519402
-14260.00000000 -1360.00000000 -330.00000000 133 214 82 97.000000 1.000000 4.000000 1.000000 -60.708740 114.000000 187.000000 -0.180892 -0.503808 0.844663
-14290.00000000 -1320.00000000 -320.00000000 133 214 82 97.000000 1.000000 4.000000 1.000000 -60.708740 114.000000 187.000000 0.163439 0.889513 -0.426677
-14320.00000000 -1370.00000000 -310.00000000 133 214 82 97.000000 1.000000 4.000000 1.000000 -60.708740 114.000000 187.000000 -0.251864 0.685894 -0.682726
-14470.00000000 -1120.00000000 -20.00000000 133 214 82 97.000000 1.000000 4.000000 1.000000 -60.708740 114.000000 187.000000 0.424804 0.900806 0.089942
-14330.00000000 -1090.00000000 -260.00000000 133 214 82 97.000000 1.000000 4.000000 1.000000 -60.708740 114.000000 187.000000 0.374466 0.923321 -0.085167
-14360.00000000 -1110.00000000 -270.00000000 133 214 82 97.000000 1.000000 4.000000 1.000000 -60.708740 114.000000 187.000000 -0.049291 0.977399 -0.205578
-14360.00000000 -1110.00000000 -270.00000000 133 214 82 97.000000 1.000000 4.000000 1.000000 -60.708740 114.000000 187.000000 -0.049291 0.977399 -0.205578
-14400.00000000 -1050.00000000 -230.00000000 133 214 82 97.000000 1.000000 4.000000 1.000000 -60.708740 114.000000 187.000000 -0.006066 0.962008 -0.272953
-14400.00000000 -1050.00000000 -230.00000000 133 214 82 97.000000 1.000000 4.000000 1.000000 -60.708740 114.000000 187.000000 -0.006066 0.962008 -0.272953
-14390.00000000 -1050.00000000 -240.00000000 133 214 82 97.000000 1.000000 4.000000 1.000000 -60.708740 114.000000 187.000000 -0.111829 -0.829281 0.547529
-14370.00000000 -1140.00000000 -300.00000000 133 214 82 97.000000 1.000000 4.000000 1.000000 -60.708740 114.000000 187.000000 0.384992 0.809922 -0.442502
-14450.00000000 -1050.00000000 -230.00000000 133 214 82 97.000000 1.000000 4.000000 1.000000 -60.708740 114.000000 187.000000 -0.122743 0.978223 0.167376
-14440.00000000 -1050.00000000 -190.00000000 133 214 82 97.000000 1.000000 4.000000 1.000000 -60.708740 114.000000 187.000000 0.298390 0.941495 0.156689
-14430.00000000 -1080.00000000 -190.00000000 133 214 82 97.000000 1.000000 4.000000 1.000000 -60.708740 114.000000 187.000000 0.085390 0.994741 -0.056557
-14430.00000000 -1080.00000000 -200.00000000 133 214 82 97.000000 1.000000 4.000000 1.000000 -60.708740 114.000000 187.000000 -0.171956 0.962168 0.211336
-14430.00000000 -1070.00000000 -240.00000000 133 214 82 97.000000 1.000000 4.000000 1.000000 -60.708740 114.000000 187.000000 0.240601 0.952996 0.184147
-14410.00000000 -1050.00000000 -270.00000000 133 214 82 97.000000 1.000000 4.000000 1.000000 -60.708740 114.000000 187.000000 0.083284 0.996159 0.027040
-14410.00000000 -1090.00000000 -240.00000000 133 214 82 97.000000 1.000000 4.000000 1.000000 -60.708740 114.000000 187.000000 -0.149673 0.873337 -0.463552
-14480.00000000 -1060.00000000 -270.00000000 133 214 82 97.000000 1.000000 4.000000 1.000000 -60.708740 114.000000 187.000000 -0.080405 0.973519 -0.214001
-14470.00000000 -1110.00000000 -220.00000000 133 214 82 97.000000 1.000000 4.000000 1.000000 -60.708740 114.000000 187.000000 0.108705 0.985510 -0.130207
-14440.00000000 -1060.00000000 -300.00000000 133 214 82 97.000000 1.000000 4.000000 1.000000 -60.708740 114.000000 187.000000 -0.271769 0.914133 -0.300836
-14410.00000000 -1080.00000000 -280.00000000 133 214 82 97.000000 1.000000 4.000000 1.000000 -60.708740 114.000000 187.000000 0.391665 0.875575 -0.282785
-14440.00000000 -1050.00000000 -280.00000000 133 214 82 97.000000 1.000000 4.000000 1.000000 -60.708740 114.000000 187.000000 0.241278 0.828338 -0.505609
-14480.00000000 -1080.00000000 -310.00000000 133 214 82 97.000000 1.000000 4.000000 1.000000 -60.708740 114.000000 187.000000 0.238615 0.826687 -0.509560
-14460.00000000 -1070.00000000 -320.00000000 133 214 82 97.000000 1.000000 4.000000 1.000000 -60.708740 114.000000 187.000000 -0.027100 0.979118 -0.201479
-14330.00000000 -1350.00000000 -40.00000000 133 214 82 97.000000 1.000000 4.000000 1.000000 -60.708740 114.000000 187.000000 0.367701 0.737035 0.567076
-14360.00000000 -1360.00000000 -20.00000000 133 214 82 97.000000 1.000000 4.000000 1.000000 -60.708740 114.000000 187.000000 0.407844 0.271391 0.871786
-14360.00000000 -1340.00000000 -40.00000000 133 214 82 97.000000 1.000000 4.000000 1.000000 -60.708740 114.000000 187.000000 0.539194 0.469083 0.699450
-14390.00000000 -1330.00000000 -40.00000000 133 214 82 97.000000 1.000000 4.000000 1.000000 -60.708740 114.000000 187.000000 0.299037 0.847530 0.438485
-14410.00000000 -1300.00000000 -40.00000000 133 214 82 97.000000 1.000000 4.000000 1.000000 -60.708740 114.000000 187.000000 0.566455 0.505944 0.650499
-14330.00000000 -1340.00000000 -300.00000000 133 214 82 97.000000 1.000000 4.000000 1.000000 -60.708740 114.000000 187.000000 0.185890 -0.671356 0.717444
-14180.00000000 -1210.00000000 -620.00000000 133 214 82 97.000000 1.000000 4.000000 1.000000 -60.708740 114.000000 187.000000 -0.253762 0.745524 -0.616279
-14230.00000000 -1280.00000000 -500.00000000 133 214 82 97.000000 1.000000 4.000000 1.000000 -60.708740 114.000000 187.000000 0.307310 -0.600139 0.738508
-14280.00000000 -1250.00000000 -460.00000000 133 214 82 97.000000 1.000000 4.000000 1.000000 -60.708740 114.000000 187.000000 0.311088 -0.604447 0.733395
-14290.00000000 -1270.00000000 -470.00000000 133 214 82 97.000000 1.000000 4.000000 1.000000 -60.708740 114.000000 187.000000 0.088926 -0.654553 0.750768
-14280.00000000 -1320.00000000 -440.00000000 133 214 82 97.000000 1.000000 4.000000 1.000000 -60.708740 114.000000 187.000000 -0.098425 -0.706605 0.700729
-14290.00000000 -1320.00000000 -440.00000000 133 214 82 97.000000 1.000000 4.000000 1.000000 -60.708740 114.000000 187.000000 0.210923 -0.511375 0.833071
-14300.00000000 -1330.00000000 -450.00000000 133 214 82 97.000000 1.000000 4.000000 1.000000 -60.708740 114.000000 187.000000 0.194076 -0.510013 0.837986
-14310.00000000 -1300.00000000 -480.00000000 133 214 82 97.000000 1.000000 4.000000 1.000000 -60.708740 114.000000 187.000000 0.001377 0.756234 -0.654300
-14290.00000000 -1340.00000000 -450.00000000 133 214 82 97.000000 1.000000 4.000000 1.000000 -60.708740 114.000000 187.000000 -0.206319 -0.331533 0.920608
-14230.00000000 -1270.00000000 -550.00000000 133 214 82 97.000000 1.000000 4.000000 1.000000 -60.708740 114.000000 187.000000 -0.290499 0.711000 -0.640382
-14220.00000000 -1220.00000000 -640.00000000 133 214 82 97.000000 1.000000 4.000000 1.000000 -60.708740 114.000000 187.000000 0.171707 -0.606294 0.776482
-14300.00000000 -1290.00000000 -530.00000000 133 214 82 97.000000 1.000000 4.000000 1.000000 -60.708740 114.000000 187.000000 0.233621 -0.719677 0.653824
-14260.00000000 -1250.00000000 -660.00000000 133 214 82 97.000000 1.000000 4.000000 1.000000 -60.708740 114.000000 187.000000 0.244029 -0.650218 0.719491
-14270.00000000 -1300.00000000 -560.00000000 133 214 82 97.000000 1.000000 4.000000 1.000000 -60.708740 114.000000 187.000000 0.246158 -0.112124 0.962722
-14270.00000000 -1310.00000000 -550.00000000 133 214 82 97.000000 1.000000 4.000000 1.000000 -60.708740 114.000000 187.000000 0.325014 -0.367739 0.871283
-14310.00000000 -1330.00000000 -560.00000000 133 214 82 97.000000 1.000000 4.000000 1.000000 -60.708740 114.000000 187.000000 0.169369 0.007957 0.985521
-14320.00000000 -1320.00000000 -570.00000000 133 214 82 97.000000 1.000000 4.000000 1.000000 -60.708740 114.000000 187.000000 0.186934 -0.036446 0.981696
-14310.00000000 -1310.00000000 -570.00000000 133 214 82 97.000000 1.000000 4.000000 1.000000 -60.708740 114.000000 187.000000 0.280443 -0.339796 0.897714
-14470.00000000 -1120.00000000 -380.00000000 133 214 82 97.000000 1.000000 4.000000 1.000000 -60.708740 114.000000 187.000000 0.226916 -0.699529 0.677620
-14470.00000000 -1100.00000000 -360.00000000 133 214 82 97.000000 1.000000 4.000000 1.000000 -60.708740 114.000000 187.000000 -0.250444 0.877304 -0.409409
-14470.00000000 -1090.00000000 -400.00000000 133 214 82 97.000000 1.000000 4.000000 1.000000 -60.708740 114.000000 187.000000 -0.047292 0.895845 -0.441842
-14470.00000000 -1090.00000000 -400.00000000 133 214 82 97.000000 1.000000 4.000000 1.000000 -60.708740 114.000000 187.000000 -0.047292 0.895845 -0.441842
-14440.00000000 -1170.00000000 -440.00000000 133 214 82 97.000000 1.000000 4.000000 1.000000 -60.708740 114.000000 187.000000 -0.249693 0.771065 -0.585758
-14480.00000000 -1140.00000000 -480.00000000 133 214 82 97.000000 1.000000 4.000000 1.000000 -60.708740 114.000000 187.000000 -0.171451 -0.458669 0.871910
-14480.00000000 -1140.00000000 -480.00000000 133 214 82 97.000000 1.000000 4.000000 1.000000 -60.708740 114.000000 187.000000 -0.171451 -0.458669 0.871910
-14490.00000000 -1140.00000000 -520.00000000 133 214 82 97.000000 1.000000 4.000000 1.000000 -60.708740 114.000000 187.000000 0.305363 -0.400501 0.863917
-14470.00000000 -1180.00000000 -530.00000000 133 214 82 97.000000 1.000000 4.000000 1.000000 -60.708740 114.000000 187.000000 0.426864 -0.529047 0.733414
-14460.00000000 -1210.00000000 -540.00000000 133 214 82 97.000000 1.000000 4.000000 1.000000 -60.708740 114.000000 187.000000 -0.321188 -0.482574 0.814838
-14160.00000000 -1580.00000000 -60.00000000 133 214 82 97.000000 1.000000 4.000000 1.000000 -60.708740 114.000000 187.000000 -0.098597 -0.352519 0.930596
-14210.00000000 -1610.00000000 -30.00000000 133 214 82 97.000000 1.000000 4.000000 1.000000 -60.708740 114.000000 187.000000 -0.020714 -0.581375 0.813372
-14210.00000000 -1610.00000000 -60.00000000 133 214 82 97.000000 1.000000 4.000000 1.000000 -60.708740 114.000000 187.000000 -0.130262 -0.678263 0.723181
-14230.00000000 -1610.00000000 -30.00000000 133 214 82 97.000000 1.000000 4.000000 1.000000 -60.708740 114.000000 187.000000 -0.039686 -0.329007 0.943493
-14200.00000000 -1610.00000000 -20.00000000 133 214 82 97.000000 1.000000 4.000000 1.000000 -60.708740 114.000000 187.000000 0.290188 0.723066 -0.626871
-14160.00000000 -1640.00000000 -40.00000000 133 214 82 97.000000 1.000000 4.000000 1.000000 -60.708740 114.000000 187.000000 0.228812 0.776717 -0.586818
-14170.00000000 -1700.00000000 -60.00000000 133 214 82 97.000000 1.000000 4.000000 1.000000 -60.708740 114.000000 187.000000 -0.158888 0.900364 -0.405092
-14170.00000000 -1710.00000000 -30.00000000 133 214 82 97.000000 1.000000 4.000000 1.000000 -60.708740 114.000000 187.000000 -0.115144 0.933345 -0.340014
-14190.00000000 -1680.00000000 -60.00000000 133 214 82 97.000000 1.000000 4.000000 1.000000 -60.708740 114.000000 187.000000 -0.130078 0.884818 -0.447412
-14180.00000000 -1690.00000000 -60.00000000 133 214 82 97.000000 1.000000 4.000000 1.000000 -60.708740 114.000000 187.000000 0.379624 0.760878 -0.526260
-14220.00000000 -1660.00000000 -90.00000000 133 214 82 97.000000 1.000000 4.000000 1.000000 -60.708740 114.000000 187.000000 0.117455 -0.676482 0.727032
-14200.00000000 -1650.00000000 -90.00000000 133 214 82 97.000000 1.000000 4.000000 1.000000 -60.708740 114.000000 187.000000 0.083770 -0.523918 0.847639
-14230.00000000 -1650.00000000 -100.00000000 133 214 82 97.000000 1.000000 4.000000 1.000000 -60.708740 114.000000 187.000000 0.176307 0.697562 -0.694495
-14200.00000000 -1680.00000000 -50.00000000 133 214 82 97.000000 1.000000 4.000000 1.000000 -60.708740 114.000000 187.000000 0.321532 -0.612366 0.722236
-14200.00000000 -1680.00000000 -30.00000000 133 214 82 97.000000 1.000000 4.000000 1.000000 -60.708740 114.000000 187.000000 0.049746 0.950278 -0.307405
-14240.00000000 -1630.00000000 -30.00000000 133 214 82 97.000000 1.000000 4.000000 1.000000 -60.708740 114.000000 187.000000 -0.162390 -0.365731 0.916445
-14270.00000000 -1610.00000000 -40.00000000 133 214 82 97.000000 1.000000 4.000000 1.000000 -60.708740 114.000000 187.000000 0.110905 -0.316681 0.942026
-14300.00000000 -1600.00000000 -60.00000000 133 214 82 97.000000 1.000000 4.000000 1.000000 -60.708740 114.000000 187.000000 -0.162259 0.744573 -0.647521
-14300.00000000 -1600.00000000 -20.00000000 133 214 82 97.000000 1.000000 4.000000 1.000000 -60.708740 114.000000 187.000000 0.389157 -0.392308 0.833457
-14320.00000000 -1610.00000000 -110.00000000 133 214 82 97.000000 1.000000 4.000000 1.000000 -60.708740 114.000000 187.000000 -0.005336 0.995666 -0.092843
-14270.00000000 -1650.00000000 -40.00000000 133 214 82 97.000000 1.000000 4.000000 1.000000 -60.708740 114.000000 187.000000 -0.322494 0.714672 -0.620679
-14250.00000000 -1660.00000000 -20.00000000 133 214 82 97.000000 1.000000 4.000000 1.000000 -60.708740 114.000000 187.000000 -0.108779 -0.386924 0.915673
-14290.00000000 -1660.00000000 -90.00000000 133 214 82 97.000000 1.000000 4.000000 1.000000 -60.708740 114.000000 187.000000 0.275565 0.795203 -0.540108
-14360.00000000 -1490.00000000 -30.00000000 133 214 82 97.000000 1.000000 4.000000 1.000000 -60.708740 114.000000 187.000000 0.222744 -0.250414 0.942167
-14340.00000000 -1520.00000000 -20.00000000 133 214 82 97.000000 1.000000 4.000000 1.000000 -60.708740 114.000000 187.000000 0.274093 -0.578289 0.768411
-14440.00000000 -1450.00000000 -20.00000000 133 214 82 97.000000 1.000000 4.000000 1.000000 -60.708740 114.000000 187.000000 -0.264612 -0.144938 0.953401
-14390.00000000 -1540.00000000 -340.00000000 133 214 82 97.000000 1.000000 4.000000 1.000000 -60.708740 114.000000 187.000000 0.565363 0.323755 0.758649
-14440.00000000 -1530.00000000 -310.00000000 133 214 82 97.000000 1.000000 4.000000 1.000000 -60.708740 114.000000 187.000000 0.271396 0.598341 0.753878
-14330.00000000 -1560.00000000 -30.00000000 133 214 82 97.000000 1.000000 4.000000 1.000000 -60.708740 114.000000 187.000000 0.252654 -0.216758 0.942965
-14360.00000000 -1570.00000000 -70.00000000 133 214 82 97.000000 1.000000 4.000000 1.000000 -60.708740 114.000000 187.000000 0.391525 0.692190 -0.606285
-14360.00000000 -1570.00000000 -70.00000000 133 214 82 97.000000 1.000000 4.000000 1.000000 -60.708740 114.000000 187.000000 0.391525 0.692190 -0.606285
-14340.00000000 -1620.00000000 -60.00000000 133 214 82 97.000000 1.000000 4.000000 1.000000 -60.708740 114.000000 187.000000 -0.354812 -0.549229 0.756608
-14330.00000000 -1630.00000000 -70.00000000 133 214 82 97.000000 1.000000 4.000000 1.000000 -60.708740 114.000000 187.000000 0.043608 0.800419 -0.597853
-14330.00000000 -1610.00000000 -80.00000000 133 214 82 97.000000 1.000000 4.000000 1.000000 -60.708740 114.000000 187.000000 0.182070 0.763469 -0.619649
-14360.00000000 -1600.00000000 -100.00000000 133 214 82 97.000000 1.000000 4.000000 1.000000 -60.708740 114.000000 187.000000 0.115884 0.969098 -0.217761
-14360.00000000 -1600.00000000 -90.00000000 133 214 82 97.000000 1.000000 4.000000 1.000000 -60.708740 114.000000 187.000000 0.275714 0.848706 -0.451308
-14370.00000000 -1590.00000000 -80.00000000 133 214 82 97.000000 1.000000 4.000000 1.000000 -60.708740 114.000000 187.000000 -0.266910 -0.576462 0.772302
-14380.00000000 -1610.00000000 -100.00000000 133 214 82 97.000000 1.000000 4.000000 1.000000 -60.708740 114.000000 187.000000 0.376733 0.672855 -0.636662
-14350.00000000 -1610.00000000 -130.00000000 133 214 82 97.000000 1.000000 4.000000 1.000000 -60.708740 114.000000 187.000000 -0.291636 0.907150 -0.303360
-14360.00000000 -1630.00000000 -120.00000000 133 214 82 97.000000 1.000000 4.000000 1.000000 -60.708740 114.000000 187.000000 0.329222 0.705475 -0.627629
-14360.00000000 -1630.00000000 -120.00000000 133 214 82 97.000000 1.000000 4.000000 1.000000 -60.708740 114.000000 187.000000 0.329222 0.705475 -0.627629
-14350.00000000 -1630.00000000 -120.00000000 133 214 82 97.000000 1.000000 4.000000 1.000000 -60.708740 114.000000 187.000000 0.035394 -0.689470 0.723448
-14360.00000000 -1610.00000000 -110.00000000 133 214 82 97.000000 1.000000 4.000000 1.000000 -60.708740 114.000000 187.000000 0.129961 -0.727483 0.673706
-14350.00000000 -1620.00000000 -150.00000000 133 214 82 97.000000 1.000000 4.000000 1.000000 -60.708740 114.000000 187.000000 -0.083263 0.973060 -0.214993
-14350.00000000 -1620.00000000 -150.00000000 133 214 82 97.000000 1.000000 4.000000 1.000000 -60.708740 114.000000 187.000000 -0.083263 0.973060 -0.214993
-14330.00000000 -1630.00000000 -160.00000000 133 214 82 97.000000 1.000000 4.000000 1.000000 -60.708740 114.000000 187.000000 -0.093987 0.980153 -0.174548
-14330.00000000 -1640.00000000 -90.00000000 133 214 82 97.000000 1.000000 4.000000 1.000000 -60.708740 114.000000 187.000000 0.127001 0.730627 -0.670862
-14380.00000000 -1640.00000000 -140.00000000 133 214 82 97.000000 1.000000 4.000000 1.000000 -60.708740 114.000000 187.000000 0.484924 0.835916 -0.257087
-14390.00000000 -1640.00000000 -140.00000000 133 214 82 97.000000 1.000000 4.000000 1.000000 -60.708740 114.000000 187.000000 0.109989 0.906363 -0.407933
-14380.00000000 -1640.00000000 -150.00000000 133 214 82 97.000000 1.000000 4.000000 1.000000 -60.708740 114.000000 187.000000 0.438085 0.896642 -0.064143
-14380.00000000 -1650.00000000 -180.00000000 133 214 82 97.000000 1.000000 4.000000 1.000000 -60.708740 114.000000 187.000000 -0.181122 0.969836 0.163138
-14400.00000000 -1690.00000000 -170.00000000 133 214 82 97.000000 1.000000 4.000000 1.000000 -60.708740 114.000000 187.000000 0.186609 0.927432 -0.324110
-14420.00000000 -1630.00000000 -180.00000000 133 214 82 97.000000 1.000000 4.000000 1.000000 -60.708740 114.000000 187.000000 -0.073276 0.997185 0.015929
-14430.00000000 -1630.00000000 -170.00000000 133 214 82 97.000000 1.000000 4.000000 1.000000 -60.708740 114.000000 187.000000 0.194346 0.980932 0.001150
-14410.00000000 -1640.00000000 -170.00000000 133 214 82 97.000000 1.000000 4.000000 1.000000 -60.708740 114.000000 187.000000 0.252988 0.965842 -0.056081
-14400.00000000 -1630.00000000 -260.00000000 133 214 82 97.000000 1.000000 4.000000 1.000000 -60.708740 114.000000 187.000000 -0.035331 0.713696 0.699564
-14380.00000000 -1620.00000000 -260.00000000 133 214 82 97.000000 1.000000 4.000000 1.000000 -60.708740 114.000000 187.000000 0.352032 0.789259 0.503133
-14350.00000000 -1570.00000000 -340.00000000 133 214 82 97.000000 1.000000 4.000000 1.000000 -60.708740 114.000000 187.000000 0.064207 0.603545 0.794739
-14340.00000000 -1620.00000000 -300.00000000 133 214 82 97.000000 1.000000 4.000000 1.000000 -60.708740 114.000000 187.000000 -0.045109 0.876217 0.479801
-14380.00000000 -1630.00000000 -330.00000000 133 214 82 97.000000 1.000000 4.000000 1.000000 -60.708740 114.000000 187.000000 0.195377 0.629208 0.752280
-14390.00000000 -1620.00000000 -330.00000000 133 214 82 97.000000 1.000000 4.000000 1.000000 -60.708740 114.000000 187.000000 -0.206314 0.684094 0.699607
-14390.00000000 -1620.00000000 -330.00000000 133 214 82 97.000000 1.000000 4.000000 1.000000 -60.708740 114.000000 187.000000 -0.206314 0.684094 0.699607
-14360.00000000 -1670.00000000 -240.00000000 133 214 82 97.000000 1.000000 4.000000 1.000000 -60.708740 114.000000 187.000000 0.125993 0.976760 0.173397
-14380.00000000 -1640.00000000 -210.00000000 133 214 82 97.000000 1.000000 4.000000 1.000000 -60.708740 114.000000 187.000000 0.338857 0.908950 -0.242871
-14380.00000000 -1650.00000000 -210.00000000 133 214 82 97.000000 1.000000 4.000000 1.000000 -60.708740 114.000000 187.000000 0.307308 0.921923 -0.235841
-14380.00000000 -1650.00000000 -190.00000000 133 214 82 97.000000 1.000000 4.000000 1.000000 -60.708740 114.000000 187.000000 0.054947 0.973166 0.223450
-14360.00000000 -1640.00000000 -330.00000000 133 214 82 97.000000 1.000000 4.000000 1.000000 -60.708740 114.000000 187.000000 0.387651 0.750767 0.534860
-14400.00000000 -1700.00000000 -340.00000000 133 214 82 97.000000 1.000000 4.000000 1.000000 -60.708740 114.000000 187.000000 0.045585 0.967146 0.250103
-14420.00000000 -1620.00000000 -240.00000000 133 214 82 97.000000 1.000000 4.000000 1.000000 -60.708740 114.000000 187.000000 0.403876 0.914313 0.030258
-14450.00000000 -1650.00000000 -200.00000000 133 214 82 97.000000 1.000000 4.000000 1.000000 -60.708740 114.000000 187.000000 -0.024054 0.986201 0.163794
-14410.00000000 -1650.00000000 -210.00000000 133 214 82 97.000000 1.000000 4.000000 1.000000 -60.708740 114.000000 187.000000 0.311074 0.943903 0.110812
-14420.00000000 -1690.00000000 -230.00000000 133 214 82 97.000000 1.000000 4.000000 1.000000 -60.708740 114.000000 187.000000 -0.100236 0.939542 0.327436
-14440.00000000 -1650.00000000 -280.00000000 133 214 82 97.000000 1.000000 4.000000 1.000000 -60.708740 114.000000 187.000000 0.196885 0.949123 0.245767
-14440.00000000 -1650.00000000 -290.00000000 133 214 82 97.000000 1.000000 4.000000 1.000000 -60.708740 114.000000 187.000000 0.390960 0.744296 0.541455
-14360.00000000 -1510.00000000 -380.00000000 133 214 82 97.000000 1.000000 4.000000 1.000000 -60.708740 114.000000 187.000000 -0.182842 0.225550 0.956920
-14380.00000000 -1500.00000000 -380.00000000 133 214 82 97.000000 1.000000 4.000000 1.000000 -60.708740 114.000000 187.000000 0.227245 0.174088 0.958151
-14390.00000000 -1530.00000000 -370.00000000 133 214 82 97.000000 1.000000 4.000000 1.000000 -60.708740 114.000000 187.000000 0.139042 0.626435 0.766972
-14400.00000000 -1510.00000000 -370.00000000 133 214 82 97.000000 1.000000 4.000000 1.000000 -60.708740 114.000000 187.000000 0.159430 0.227945 0.960533
-14370.00000000 -1650.00000000 -360.00000000 133 214 82 97.000000 1.000000 4.000000 1.000000 -60.708740 114.000000 187.000000 -0.117317 0.891895 0.436760
-14370.00000000 -1650.00000000 -360.00000000 133 214 82 97.000000 1.000000 4.000000 1.000000 -60.708740 114.000000 187.000000 -0.117317 0.891895 0.436760
-13840.00000000 -1080.00000000 -720.00000000 133 214 82 97.000000 1.000000 4.000000 1.000000 -60.708740 114.000000 187.000000 0.229505 0.622943 -0.747844
-13820.00000000 -1070.00000000 -700.00000000 133 214 82 97.000000 1.000000 4.000000 1.000000 -60.708740 114.000000 187.000000 -0.195432 0.860796 -0.469932
-13820.00000000 -1110.00000000 -720.00000000 133 214 82 97.000000 1.000000 4.000000 1.000000 -60.708740 114.000000 187.000000 0.102024 -0.527363 0.843493
-14190.00000000 -1720.00000000 -50.00000000 133 214 82 97.000000 1.000000 4.000000 1.000000 -60.708740 114.000000 187.000000 0.054689 -0.539877 0.839965
-14500.00000000 -1080.00000000 -40.00000000 133 214 82 97.000000 1.000000 4.000000 1.000000 -60.708740 114.000000 187.000000 -0.232000 0.915032 0.329988
-14530.00000000 -1070.00000000 -40.00000000 133 214 82 97.000000 1.000000 4.000000 1.000000 -60.708740 114.000000 187.000000 0.271991 0.919590 0.283504
-14540.00000000 -1070.00000000 -60.00000000 133 214 82 97.000000 1.000000 4.000000 1.000000 -60.708740 114.000000 187.000000 -0.034779 0.975000 0.219465
-14540.00000000 -1070.00000000 -50.00000000 133 214 82 97.000000 1.000000 4.000000 1.000000 -60.708740 114.000000 187.000000 0.383078 0.903486 0.192262
-14560.00000000 -1060.00000000 -50.00000000 133 214 82 97.000000 1.000000 4.000000 1.000000 -60.708740 114.000000 187.000000 0.518180 0.813838 0.262980
-14540.00000000 -1070.00000000 -60.00000000 133 214 82 97.000000 1.000000 4.000000 1.000000 -60.708740 114.000000 187.000000 -0.034779 0.975000 0.219465
-14550.00000000 -1070.00000000 -50.00000000 133 214 82 97.000000 1.000000 4.000000 1.000000 -60.708740 114.000000 187.000000 0.397326 0.917604 -0.011648
-14540.00000000 -1070.00000000 -50.00000000 133 214 82 97.000000 1.000000 4.000000 1.000000 -60.708740 114.000000 187.000000 0.383078 0.903486 0.192262
-14570.00000000 -1060.00000000 -80.00000000 133 214 82 97.000000 1.000000 4.000000 1.000000 -60.708740 114.000000 187.000000 -0.170514 0.973824 0.150305
-14570.00000000 -1060.00000000 -80.00000000 133 214 82 97.000000 1.000000 4.000000 1.000000 -60.708740 114.000000 187.000000 -0.170514 0.973824 0.150305
-14540.00000000 -1110.00000000 -40.00000000 133 214 82 97.000000 1.000000 4.000000 1.000000 -60.708740 114.000000 187.000000 0.283604 0.958257 0.036231
-14540.00000000 -1110.00000000 -40.00000000 133 214 82 97.000000 1.000000 4.000000 1.000000 -60.708740 114.000000 187.000000 0.283604 0.958257 0.036231
-14540.00000000 -1110.00000000 -50.00000000 133 214 82 97.000000 1.000000 4.000000 1.000000 -60.708740 114.000000 187.000000 0.024846 0.916683 0.398842
-14520.00000000 -1180.00000000 -20.00000000 133 214 82 97.000000 1.000000 4.000000 1.000000 -60.708740 114.000000 187.000000 -0.129998 0.721714 0.679875
-14600.00000000 -1080.00000000 -40.00000000 133 214 82 97.000000 1.000000 4.000000 1.000000 -60.708740 114.000000 187.000000 0.188526 0.981953 -0.015036
