//X Y Z R G B PointSourceId ScanDirectionFlag NumberOfReturns ReturnNumber GpsTime Intensity Classification Nx Ny Nz
4020.00000000 -18920.00000000 -280.00000000 83 175 126 0.000000 0.000000 0.000000 0.000000 -60.708740 0.000000 211.000000 0.211108 0.968538 -0.131783
4020.00000000 -18930.00000000 -300.00000000 83 175 126 0.000000 0.000000 0.000000 0.000000 -60.708740 0.000000 211.000000 0.064643 0.992319 -0.105469
4030.00000000 -18930.00000000 -300.00000000 83 175 126 0.000000 0.000000 0.000000 0.000000 -60.708740 0.000000 211.000000 -0.053319 0.998419 0.017773
4010.00000000 -18920.00000000 -290.00000000 83 175 126 0.000000 0.000000 0.000000 0.000000 -60.708740 0.000000 211.000000 -0.021273 0.990856 -0.133234
4000.00000000 -18940.00000000 -350.00000000 83 175 126 0.000000 0.000000 0.000000 0.000000 -60.708740 0.000000 211.000000 -0.563399 0.809792 -0.163761
4030.00000000 -18930.00000000 -340.00000000 83 175 126 0.000000 0.000000 0.000000 0.000000 -60.708740 0.000000 211.000000 0.052631 0.948644 -0.311936
4030.00000000 -18930.00000000 -340.00000000 83 175 126 0.000000 0.000000 0.000000 0.000000 -60.708740 0.000000 211.000000 0.052631 0.948644 -0.311936
4010.00000000 -18930.00000000 -320.00000000 83 175 126 0.000000 0.000000 0.000000 0.000000 -60.708740 0.000000 211.000000 -0.314735 0.918336 0.240003
4000.00000000 -18980.00000000 -300.00000000 83 175 126 0.000000 0.000000 0.000000 0.000000 -60.708740 0.000000 211.000000 0.849775 -0.525391 -0.042974
4020.00000000 -18970.00000000 -290.00000000 83 175 126 0.000000 0.000000 0.000000 0.000000 -60.708740 0.000000 211.000000 -0.329641 0.937795 -0.108983
3990.00000000 -18920.00000000 -300.00000000 83 175 126 0.000000 0.000000 0.000000 0.000000 -60.708740 0.000000 211.000000 0.026039 0.958485 -0.283950
3960.00000000 -18940.00000000 -300.00000000 83 175 126 0.000000 0.000000 0.000000 0.000000 -60.708740 0.000000 211.000000 0.797851 -0.592143 0.113139
3970.00000000 -18930.00000000 -330.00000000 83 175 126 0.000000 0.000000 0.000000 0.000000 -60.708740 0.000000 211.000000 -0.669582 0.736980 -0.092306
3980.00000000 -18930.00000000 -320.00000000 83 175 126 0.000000 0.000000 0.000000 0.000000 -60.708740 0.000000 211.000000 -0.559768 0.759801 0.330699
3990.00000000 -18950.00000000 -290.00000000 83 175 126 0.000000 0.000000 0.000000 0.000000 -60.708740 0.000000 211.000000 0.724449 -0.687298 0.052869
4010.00000000 -19010.00000000 -220.00000000 83 175 126 0.000000 0.000000 0.000000 0.000000 -60.708740 0.000000 211.000000 0.783795 0.618785 -0.052632
4030.00000000 -19000.00000000 -210.00000000 83 175 126 0.000000 0.000000 0.000000 0.000000 -60.708740 0.000000 211.000000 -0.215802 0.876602 -0.430115
4020.00000000 -19020.00000000 -230.00000000 83 175 126 0.000000 0.000000 0.000000 0.000000 -60.708740 0.000000 211.000000 0.558723 0.821308 0.115246
4030.00000000 -19000.00000000 -210.00000000 83 175 126 0.000000 0.000000 0.000000 0.000000 -60.708740 0.000000 211.000000 -0.215802 0.876602 -0.430115
4030.00000000 -19000.00000000 -230.00000000 83 175 126 0.000000 0.000000 0.000000 0.000000 -60.708740 0.000000 211.000000 -0.245393 0.950389 0.191162
4000.00000000 -18990.00000000 -220.00000000 83 175 126 0.000000 0.000000 0.000000 0.000000 -60.708740 0.000000 211.000000 0.986991 0.158971 -0.024017
4020.00000000 -19050.00000000 -270.00000000 83 175 126 0.000000 0.000000 0.000000 0.000000 -60.708740 0.000000 211.000000 0.124116 0.991808 0.030190
3970.00000000 -19010.00000000 -200.00000000 83 175 126 0.000000 0.000000 0.000000 0.000000 -60.708740 0.000000 211.000000 0.821738 0.566275 0.063866
3980.00000000 -18990.00000000 -260.00000000 83 175 126 0.000000 0.000000 0.000000 0.000000 -60.708740 0.000000 211.000000 0.975691 0.141896 -0.167010
3980.00000000 -19000.00000000 -260.00000000 83 175 126 0.000000 0.000000 0.000000 0.000000 -60.708740 0.000000 211.000000 0.961078 0.245797 -0.126150
3980.00000000 -19000.00000000 -270.00000000 83 175 126 0.000000 0.000000 0.000000 0.000000 -60.708740 0.000000 211.000000 0.875468 0.047952 -0.480891
3980.00000000 -19010.00000000 -260.00000000 83 175 126 0.000000 0.000000 0.000000 0.000000 -60.708740 0.000000 211.000000 0.838440 0.537462 -0.090294
3980.00000000 -19000.00000000 -270.00000000 83 175 126 0.000000 0.000000 0.000000 0.000000 -60.708740 0.000000 211.000000 0.875468 0.047952 -0.480891
3980.00000000 -19000.00000000 -270.00000000 83 175 126 0.000000 0.000000 0.000000 0.000000 -60.708740 0.000000 211.000000 0.875468 0.047952 -0.480891
4010.00000000 -19020.00000000 -310.00000000 83 175 126 0.000000 0.000000 0.000000 0.000000 -60.708740 0.000000 211.000000 0.529258 0.845402 0.071979
4000.00000000 -19020.00000000 -290.00000000 83 175 126 0.000000 0.000000 0.000000 0.000000 -60.708740 0.000000 211.000000 0.508178 0.845976 -0.161491
4020.00000000 -19020.00000000 -320.00000000 83 175 126 0.000000 0.000000 0.000000 0.000000 -60.708740 0.000000 211.000000 0.125077 0.925021 -0.358738
4010.00000000 -19020.00000000 -320.00000000 83 175 126 0.000000 0.000000 0.000000 0.000000 -60.708740 0.000000 211.000000 0.375860 0.925898 0.037979
4010.00000000 -18990.00000000 -340.00000000 83 175 126 0.000000 0.000000 0.000000 0.000000 -60.708740 0.000000 211.000000 -0.570326 0.796622 -0.200302
4020.00000000 -19020.00000000 -340.00000000 83 175 126 0.000000 0.000000 0.000000 0.000000 -60.708740 0.000000 211.000000 -0.223348 0.946832 0.231570
4010.00000000 -19020.00000000 -320.00000000 83 175 126 0.000000 0.000000 0.000000 0.000000 -60.708740 0.000000 211.000000 0.375860 0.925898 0.037979
4020.00000000 -19040.00000000 -310.00000000 83 175 126 0.000000 0.000000 0.000000 0.000000 -60.708740 0.000000 211.000000 -0.121106 0.948888 -0.291454
4010.00000000 -19030.00000000 -310.00000000 83 175 126 0.000000 0.000000 0.000000 0.000000 -60.708740 0.000000 211.000000 0.284968 0.946742 0.149912
4010.00000000 -19030.00000000 -310.00000000 83 175 126 0.000000 0.000000 0.000000 0.000000 -60.708740 0.000000 211.000000 0.284968 0.946742 0.149912
4000.00000000 -19030.00000000 -290.00000000 83 175 126 0.000000 0.000000 0.000000 0.000000 -60.708740 0.000000 211.000000 0.378405 0.891849 -0.247818
4030.00000000 -19040.00000000 -350.00000000 83 175 126 0.000000 0.000000 0.000000 0.000000 -60.708740 0.000000 211.000000 -0.695407 0.701468 0.156050
4030.00000000 -19050.00000000 -350.00000000 83 175 126 0.000000 0.000000 0.000000 0.000000 -60.708740 0.000000 211.000000 -0.629010 0.773610 0.076638
4020.00000000 -19040.00000000 -330.00000000 83 175 126 0.000000 0.000000 0.000000 0.000000 -60.708740 0.000000 211.000000 0.090351 0.926436 -0.365450
4030.00000000 -19040.00000000 -340.00000000 83 175 126 0.000000 0.000000 0.000000 0.000000 -60.708740 0.000000 211.000000 -0.623098 0.775574 -0.101162
3980.00000000 -19010.00000000 -300.00000000 83 175 126 0.000000 0.000000 0.000000 0.000000 -60.708740 0.000000 211.000000 0.976184 0.027347 -0.215212
3970.00000000 -18990.00000000 -290.00000000 83 175 126 0.000000 0.000000 0.000000 0.000000 -60.708740 0.000000 211.000000 0.967410 -0.035468 0.250719
3980.00000000 -19000.00000000 -300.00000000 83 175 126 0.000000 0.000000 0.000000 0.000000 -60.708740 0.000000 211.000000 0.873043 -0.457726 -0.168174
3980.00000000 -19000.00000000 -290.00000000 83 175 126 0.000000 0.000000 0.000000 0.000000 -60.708740 0.000000 211.000000 0.918004 0.074141 -0.389579
3970.00000000 -19000.00000000 -310.00000000 83 175 126 0.000000 0.000000 0.000000 0.000000 -60.708740 0.000000 211.000000 0.890972 -0.430470 -0.144443
3980.00000000 -18990.00000000 -280.00000000 83 175 126 0.000000 0.000000 0.000000 0.000000 -60.708740 0.000000 211.000000 0.962786 -0.261202 -0.069401
3980.00000000 -19020.00000000 -300.00000000 83 175 126 0.000000 0.000000 0.000000 0.000000 -60.708740 0.000000 211.000000 0.822776 0.494915 -0.279463
3980.00000000 -19020.00000000 -300.00000000 83 175 126 0.000000 0.000000 0.000000 0.000000 -60.708740 0.000000 211.000000 0.822776 0.494915 -0.279463
3970.00000000 -19000.00000000 -310.00000000 83 175 126 0.000000 0.000000 0.000000 0.000000 -60.708740 0.000000 211.000000 0.890972 -0.430470 -0.144443
3980.00000000 -19000.00000000 -300.00000000 83 175 126 0.000000 0.000000 0.000000 0.000000 -60.708740 0.000000 211.000000 0.873043 -0.457726 -0.168174
3980.00000000 -19000.00000000 -300.00000000 83 175 126 0.000000 0.000000 0.000000 0.000000 -60.708740 0.000000 211.000000 0.873043 -0.457726 -0.168174
3980.00000000 -19030.00000000 -300.00000000 83 175 126 0.000000 0.000000 0.000000 0.000000 -60.708740 0.000000 211.000000 0.631377 0.714918 -0.300426
3980.00000000 -19050.00000000 -340.00000000 83 175 126 0.000000 0.000000 0.000000 0.000000 -60.708740 0.000000 211.000000 0.344283 0.878149 -0.332150
3970.00000000 -19030.00000000 -340.00000000 83 175 126 0.000000 0.000000 0.000000 0.000000 -60.708740 0.000000 211.000000 0.920802 0.200669 -0.334449
3940.00000000 -18970.00000000 -350.00000000 83 175 126 0.000000 0.000000 0.000000 0.000000 -60.708740 0.000000 211.000000 0.731555 -0.626821 -0.268184
4030.00000000 -18930.00000000 -410.00000000 83 175 126 0.000000 0.000000 0.000000 0.000000 -60.708740 0.000000 211.000000 0.052669 0.903471 -0.425401
4010.00000000 -18960.00000000 -380.00000000 83 175 126 0.000000 0.000000 0.000000 0.000000 -60.708740 0.000000 211.000000 -0.139965 0.982189 -0.125360
4010.00000000 -18970.00000000 -400.00000000 83 175 126 0.000000 0.000000 0.000000 0.000000 -60.708740 0.000000 211.000000 -0.170489 0.932836 -0.317414
4020.00000000 -18970.00000000 -410.00000000 83 175 126 0.000000 0.000000 0.000000 0.000000 -60.708740 0.000000 211.000000 0.488500 0.868602 -0.083059
4000.00000000 -18950.00000000 -420.00000000 83 175 126 0.000000 0.000000 0.000000 0.000000 -60.708740 0.000000 211.000000 0.119422 0.923807 -0.363757
3990.00000000 -18940.00000000 -360.00000000 83 175 126 0.000000 0.000000 0.000000 0.000000 -60.708740 0.000000 211.000000 -0.552170 0.820069 0.150321
3990.00000000 -18940.00000000 -370.00000000 83 175 126 0.000000 0.000000 0.000000 0.000000 -60.708740 0.000000 211.000000 -0.066434 0.979604 0.189640
3980.00000000 -18960.00000000 -390.00000000 83 175 126 0.000000 0.000000 0.000000 0.000000 -60.708740 0.000000 211.000000 -0.220878 0.963239 0.152916
3980.00000000 -18960.00000000 -390.00000000 83 175 126 0.000000 0.000000 0.000000 0.000000 -60.708740 0.000000 211.000000 -0.220878 0.963239 0.152916
3960.00000000 -18960.00000000 -360.00000000 83 175 126 0.000000 0.000000 0.000000 0.000000 -60.708740 0.000000 211.000000 0.848802 -0.516222 0.114234
3990.00000000 -18960.00000000 -390.00000000 83 175 126 0.000000 0.000000 0.000000 0.000000 -60.708740 0.000000 211.000000 -0.129052 0.991608 0.007721
3990.00000000 -18960.00000000 -380.00000000 83 175 126 0.000000 0.000000 0.000000 0.000000 -60.708740 0.000000 211.000000 -0.297938 0.951060 -0.081965
3960.00000000 -18950.00000000 -410.00000000 83 175 126 0.000000 0.000000 0.000000 0.000000 -60.708740 0.000000 211.000000 0.664607 -0.683917 0.300924
3980.00000000 -18980.00000000 -440.00000000 83 175 126 0.000000 0.000000 0.000000 0.000000 -60.708740 0.000000 211.000000 -0.617740 0.785832 0.029416
3990.00000000 -18980.00000000 -420.00000000 83 175 126 0.000000 0.000000 0.000000 0.000000 -60.708740 0.000000 211.000000 -0.095161 0.991741 0.085989
3980.00000000 -18980.00000000 -420.00000000 83 175 126 0.000000 0.000000 0.000000 0.000000 -60.708740 0.000000 211.000000 -0.546064 0.834066 0.078416
3980.00000000 -18950.00000000 -420.00000000 83 175 126 0.000000 0.000000 0.000000 0.000000 -60.708740 0.000000 211.000000 -0.236738 0.963769 -0.122897
3970.00000000 -18950.00000000 -420.00000000 83 175 126 0.000000 0.000000 0.000000 0.000000 -60.708740 0.000000 211.000000 -0.407785 0.860197 -0.306224
3980.00000000 -18980.00000000 -430.00000000 83 175 126 0.000000 0.000000 0.000000 0.000000 -60.708740 0.000000 211.000000 -0.675791 0.733675 0.070907
3990.00000000 -18950.00000000 -420.00000000 83 175 126 0.000000 0.000000 0.000000 0.000000 -60.708740 0.000000 211.000000 -0.109056 0.992747 -0.050593
3960.00000000 -18960.00000000 -410.00000000 83 175 126 0.000000 0.000000 0.000000 0.000000 -60.708740 0.000000 211.000000 0.874641 -0.484725 -0.006677
3980.00000000 -18950.00000000 -440.00000000 83 175 126 0.000000 0.000000 0.000000 0.000000 -60.708740 0.000000 211.000000 -0.388033 0.910114 0.145336
3980.00000000 -18950.00000000 -420.00000000 83 175 126 0.000000 0.000000 0.000000 0.000000 -60.708740 0.000000 211.000000 -0.236738 0.963769 -0.122897
3970.00000000 -18960.00000000 -420.00000000 83 175 126 0.000000 0.000000 0.000000 0.000000 -60.708740 0.000000 211.000000 -0.525914 0.784875 -0.327697
4010.00000000 -18970.00000000 -470.00000000 83 175 126 0.000000 0.000000 0.000000 0.000000 -60.708740 0.000000 211.000000 0.313190 0.949552 0.016221
4000.00000000 -18980.00000000 -490.00000000 83 175 126 0.000000 0.000000 0.000000 0.000000 -60.708740 0.000000 211.000000 0.164435 0.961613 -0.219685
4030.00000000 -18980.00000000 -520.00000000 83 175 126 0.000000 0.000000 0.000000 0.000000 -60.708740 0.000000 211.000000 0.520714 0.786678 -0.331655
3970.00000000 -18960.00000000 -480.00000000 83 175 126 0.000000 0.000000 0.000000 0.000000 -60.708740 0.000000 211.000000 -0.469946 0.882646 -0.009319
3980.00000000 -18980.00000000 -480.00000000 83 175 126 0.000000 0.000000 0.000000 0.000000 -60.708740 0.000000 211.000000 -0.564955 0.789070 0.241234
3980.00000000 -18950.00000000 -460.00000000 83 175 126 0.000000 0.000000 0.000000 0.000000 -60.708740 0.000000 211.000000 -0.445754 0.865993 -0.226629
3990.00000000 -18970.00000000 -480.00000000 83 175 126 0.000000 0.000000 0.000000 0.000000 -60.708740 0.000000 211.000000 -0.479006 0.858651 -0.182408
3960.00000000 -18970.00000000 -470.00000000 83 175 126 0.000000 0.000000 0.000000 0.000000 -60.708740 0.000000 211.000000 -0.358599 0.907385 0.219224
3990.00000000 -18950.00000000 -460.00000000 83 175 126 0.000000 0.000000 0.000000 0.000000 -60.708740 0.000000 211.000000 0.204847 0.964214 -0.168313
3970.00000000 -18980.00000000 -520.00000000 83 175 126 0.000000 0.000000 0.000000 0.000000 -60.708740 0.000000 211.000000 -0.618690 0.783674 -0.055469
3980.00000000 -18980.00000000 -500.00000000 83 175 126 0.000000 0.000000 0.000000 0.000000 -60.708740 0.000000 211.000000 -0.278164 0.957551 0.075630
3990.00000000 -18980.00000000 -520.00000000 83 175 126 0.000000 0.000000 0.000000 0.000000 -60.708740 0.000000 211.000000 -0.064970 0.974555 -0.214525
3990.00000000 -18980.00000000 -510.00000000 83 175 126 0.000000 0.000000 0.000000 0.000000 -60.708740 0.000000 211.000000 -0.043955 0.980087 0.193641
3970.00000000 -18980.00000000 -510.00000000 83 175 126 0.000000 0.000000 0.000000 0.000000 -60.708740 0.000000 211.000000 -0.673903 0.732631 0.095433
3990.00000000 -18970.00000000 -490.00000000 83 175 126 0.000000 0.000000 0.000000 0.000000 -60.708740 0.000000 211.000000 -0.415063 0.868135 -0.272147
4030.00000000 -18990.00000000 -380.00000000 83 175 126 0.000000 0.000000 0.000000 0.000000 -60.708740 0.000000 211.000000 0.540551 0.766453 -0.346921
4000.00000000 -19010.00000000 -360.00000000 83 175 126 0.000000 0.000000 0.000000 0.000000 -60.708740 0.000000 211.000000 0.991018 -0.088628 -0.100138
4030.00000000 -19000.00000000 -440.00000000 83 175 126 0.000000 0.000000 0.000000 0.000000 -60.708740 0.000000 211.000000 0.865227 0.402752 -0.298618
4000.00000000 -19050.00000000 -380.00000000 83 175 126 0.000000 0.000000 0.000000 0.000000 -60.708740 0.000000 211.000000 0.142191 0.969720 0.198556
4030.00000000 -19030.00000000 -360.00000000 83 175 126 0.000000 0.000000 0.000000 0.000000 -60.708740 0.000000 211.000000 -0.625871 0.685008 0.372894
4010.00000000 -19050.00000000 -360.00000000 83 175 126 0.000000 0.000000 0.000000 0.000000 -60.708740 0.000000 211.000000 -0.062826 0.861414 -0.504004
3960.00000000 -19000.00000000 -360.00000000 83 175 126 0.000000 0.000000 0.000000 0.000000 -60.708740 0.000000 211.000000 0.895860 -0.274849 -0.349133
3980.00000000 -18990.00000000 -360.00000000 83 175 126 0.000000 0.000000 0.000000 0.000000 -60.708740 0.000000 211.000000 0.901420 -0.359102 0.241844
3970.00000000 -18990.00000000 -380.00000000 83 175 126 0.000000 0.000000 0.000000 0.000000 -60.708740 0.000000 211.000000 0.940791 -0.239701 0.239701
3960.00000000 -19000.00000000 -360.00000000 83 175 126 0.000000 0.000000 0.000000 0.000000 -60.708740 0.000000 211.000000 0.895860 -0.274849 -0.349133
3970.00000000 -19000.00000000 -390.00000000 83 175 126 0.000000 0.000000 0.000000 0.000000 -60.708740 0.000000 211.000000 0.907783 -0.323060 0.267511
3960.00000000 -19010.00000000 -430.00000000 83 175 126 0.000000 0.000000 0.000000 0.000000 -60.708740 0.000000 211.000000 0.960257 -0.102100 0.259773
3980.00000000 -18990.00000000 -400.00000000 83 175 126 0.000000 0.000000 0.000000 0.000000 -60.708740 0.000000 211.000000 0.940819 -0.338795 0.008816
3980.00000000 -19000.00000000 -400.00000000 83 175 126 0.000000 0.000000 0.000000 0.000000 -60.708740 0.000000 211.000000 0.884513 -0.286829 -0.367921
3980.00000000 -18990.00000000 -410.00000000 83 175 126 0.000000 0.000000 0.000000 0.000000 -60.708740 0.000000 211.000000 0.663287 -0.707401 -0.244203
3970.00000000 -18990.00000000 -440.00000000 83 175 126 0.000000 0.000000 0.000000 0.000000 -60.708740 0.000000 211.000000 0.738398 -0.674190 -0.015354
3960.00000000 -19000.00000000 -420.00000000 83 175 126 0.000000 0.000000 0.000000 0.000000 -60.708740 0.000000 211.000000 0.718925 -0.669663 -0.186274
3960.00000000 -18990.00000000 -440.00000000 83 175 126 0.000000 0.000000 0.000000 0.000000 -60.708740 0.000000 211.000000 0.725760 -0.685679 -0.055828
3970.00000000 -18990.00000000 -430.00000000 83 175 126 0.000000 0.000000 0.000000 0.000000 -60.708740 0.000000 211.000000 0.770860 -0.597145 0.221797
3970.00000000 -18990.00000000 -440.00000000 83 175 126 0.000000 0.000000 0.000000 0.000000 -60.708740 0.000000 211.000000 0.738398 -0.674190 -0.015354
3970.00000000 -19010.00000000 -400.00000000 83 175 126 0.000000 0.000000 0.000000 0.000000 -60.708740 0.000000 211.000000 0.933479 -0.325824 -0.149852
3960.00000000 -19000.00000000 -420.00000000 83 175 126 0.000000 0.000000 0.000000 0.000000 -60.708740 0.000000 211.000000 0.718925 -0.669663 -0.186274
3960.00000000 -18990.00000000 -440.00000000 83 175 126 0.000000 0.000000 0.000000 0.000000 -60.708740 0.000000 211.000000 0.725760 -0.685679 -0.055828
3960.00000000 -19020.00000000 -410.00000000 83 175 126 0.000000 0.000000 0.000000 0.000000 -60.708740 0.000000 211.000000 0.947921 0.303703 0.095975
3960.00000000 -19000.00000000 -440.00000000 83 175 126 0.000000 0.000000 0.000000 0.000000 -60.708740 0.000000 211.000000 0.835014 -0.454185 0.310594
3970.00000000 -19030.00000000 -370.00000000 83 175 126 0.000000 0.000000 0.000000 0.000000 -60.708740 0.000000 211.000000 0.994433 0.085746 0.061247
3970.00000000 -19030.00000000 -370.00000000 83 175 126 0.000000 0.000000 0.000000 0.000000 -60.708740 0.000000 211.000000 0.994433 0.085746 0.061247
3990.00000000 -19050.00000000 -380.00000000 83 175 126 0.000000 0.000000 0.000000 0.000000 -60.708740 0.000000 211.000000 0.359753 0.929474 0.081580
3990.00000000 -19050.00000000 -380.00000000 83 175 126 0.000000 0.000000 0.000000 0.000000 -60.708740 0.000000 211.000000 0.359753 0.929474 0.081580
3960.00000000 -19030.00000000 -380.00000000 83 175 126 0.000000 0.000000 0.000000 0.000000 -60.708740 0.000000 211.000000 0.852590 0.499185 0.154615
3970.00000000 -19030.00000000 -420.00000000 83 175 126 0.000000 0.000000 0.000000 0.000000 -60.708740 0.000000 211.000000 0.957480 0.272643 0.094327
3980.00000000 -19050.00000000 -420.00000000 83 175 126 0.000000 0.000000 0.000000 0.000000 -60.708740 0.000000 211.000000 0.778857 0.598297 -0.188211
3980.00000000 -19050.00000000 -430.00000000 83 175 126 0.000000 0.000000 0.000000 0.000000 -60.708740 0.000000 211.000000 0.414665 0.909630 -0.025012
3980.00000000 -19050.00000000 -420.00000000 83 175 126 0.000000 0.000000 0.000000 0.000000 -60.708740 0.000000 211.000000 0.778857 0.598297 -0.188211
3990.00000000 -19050.00000000 -400.00000000 83 175 126 0.000000 0.000000 0.000000 0.000000 -60.708740 0.000000 211.000000 0.194664 0.906989 -0.373466
3970.00000000 -19050.00000000 -420.00000000 83 175 126 0.000000 0.000000 0.000000 0.000000 -60.708740 0.000000 211.000000 0.835547 0.420134 -0.354045
4030.00000000 -19010.00000000 -450.00000000 83 175 126 0.000000 0.000000 0.000000 0.000000 -60.708740 0.000000 211.000000 0.948705 0.210975 -0.235475
4000.00000000 -18990.00000000 -450.00000000 83 175 126 0.000000 0.000000 0.000000 0.000000 -60.708740 0.000000 211.000000 0.281022 0.957508 -0.064851
4010.00000000 -19000.00000000 -470.00000000 83 175 126 0.000000 0.000000 0.000000 0.000000 -60.708740 0.000000 211.000000 0.435048 0.777220 -0.454601
4030.00000000 -19010.00000000 -460.00000000 83 175 126 0.000000 0.000000 0.000000 0.000000 -60.708740 0.000000 211.000000 0.924765 0.349047 -0.151578
4020.00000000 -18990.00000000 -500.00000000 83 175 126 0.000000 0.000000 0.000000 0.000000 -60.708740 0.000000 211.000000 0.383914 0.775928 -0.500546
4010.00000000 -19060.00000000 -460.00000000 83 175 126 0.000000 0.000000 0.000000 0.000000 -60.708740 0.000000 211.000000 -0.449781 0.838865 -0.306598
4030.00000000 -19050.00000000 -470.00000000 83 175 126 0.000000 0.000000 0.000000 0.000000 -60.708740 0.000000 211.000000 0.949715 -0.312390 -0.021328
4030.00000000 -19060.00000000 -470.00000000 83 175 126 0.000000 0.000000 0.000000 0.000000 -60.708740 0.000000 211.000000 -0.654145 0.748649 -0.107794
4010.00000000 -19060.00000000 -520.00000000 83 175 126 0.000000 0.000000 0.000000 0.000000 -60.708740 0.000000 211.000000 -0.363930 0.926737 -0.093350
4030.00000000 -19050.00000000 -500.00000000 83 175 126 0.000000 0.000000 0.000000 0.000000 -60.708740 0.000000 211.000000 0.946406 -0.317195 -0.060850
4030.00000000 -19030.00000000 -490.00000000 83 175 126 0.000000 0.000000 0.000000 0.000000 -60.708740 0.000000 211.000000 0.976759 -0.115718 0.180420
4030.00000000 -19040.00000000 -500.00000000 83 175 126 0.000000 0.000000 0.000000 0.000000 -60.708740 0.000000 211.000000 0.977855 -0.008178 -0.209123
4030.00000000 -19060.00000000 -520.00000000 83 175 126 0.000000 0.000000 0.000000 0.000000 -60.708740 0.000000 211.000000 0.931654 -0.356493 0.070238
3970.00000000 -19000.00000000 -460.00000000 83 175 126 0.000000 0.000000 0.000000 0.000000 -60.708740 0.000000 211.000000 0.706473 -0.618368 0.344263
3960.00000000 -18990.00000000 -500.00000000 83 175 126 0.000000 0.000000 0.000000 0.000000 -60.708740 0.000000 211.000000 0.756961 -0.651073 -0.055806
3960.00000000 -18990.00000000 -490.00000000 83 175 126 0.000000 0.000000 0.000000 0.000000 -60.708740 0.000000 211.000000 0.725995 -0.664859 -0.175767
3970.00000000 -18990.00000000 -520.00000000 83 175 126 0.000000 0.000000 0.000000 0.000000 -60.708740 0.000000 211.000000 -0.661850 0.693900 0.283650
3980.00000000 -18990.00000000 -520.00000000 83 175 126 0.000000 0.000000 0.000000 0.000000 -60.708740 0.000000 211.000000 -0.548847 0.835081 0.037516
3960.00000000 -18990.00000000 -500.00000000 83 175 126 0.000000 0.000000 0.000000 0.000000 -60.708740 0.000000 211.000000 0.756961 -0.651073 -0.055806
3960.00000000 -19060.00000000 -450.00000000 83 175 126 0.000000 0.000000 0.000000 0.000000 -60.708740 0.000000 211.000000 0.598510 0.800349 -0.035042
3990.00000000 -19040.00000000 -480.00000000 83 175 126 0.000000 0.000000 0.000000 0.000000 -60.708740 0.000000 211.000000 0.730911 0.653648 -0.196249
3970.00000000 -19060.00000000 -470.00000000 83 175 126 0.000000 0.000000 0.000000 0.000000 -60.708740 0.000000 211.000000 0.815047 0.574400 -0.075918
3970.00000000 -19030.00000000 -460.00000000 83 175 126 0.000000 0.000000 0.000000 0.000000 -60.708740 0.000000 211.000000 0.950358 0.308327 -0.041872
3960.00000000 -19060.00000000 -460.00000000 83 175 126 0.000000 0.000000 0.000000 0.000000 -60.708740 0.000000 211.000000 0.863703 0.494963 0.095022
3950.00000000 -18980.00000000 -400.00000000 83 175 126 0.000000 0.000000 0.000000 0.000000 -60.708740 0.000000 211.000000 0.935760 -0.351393 -0.029605
3950.00000000 -18980.00000000 -410.00000000 83 175 126 0.000000 0.000000 0.000000 0.000000 -60.708740 0.000000 211.000000 0.855992 -0.497263 -0.141450
3950.00000000 -18980.00000000 -430.00000000 83 175 126 0.000000 0.000000 0.000000 0.000000 -60.708740 0.000000 211.000000 0.773996 -0.543239 0.325303
3950.00000000 -18980.00000000 -460.00000000 83 175 126 0.000000 0.000000 0.000000 0.000000 -60.708740 0.000000 211.000000 0.851898 -0.411208 -0.324311
3950.00000000 -19020.00000000 -390.00000000 83 175 126 0.000000 0.000000 0.000000 0.000000 -60.708740 0.000000 211.000000 0.927064 0.309965 0.210889
3950.00000000 -19020.00000000 -390.00000000 83 175 126 0.000000 0.000000 0.000000 0.000000 -60.708740 0.000000 211.000000 0.927064 0.309965 0.210889
3940.00000000 -19020.00000000 -380.00000000 83 175 126 0.000000 0.000000 0.000000 0.000000 -60.708740 0.000000 211.000000 0.964418 -0.015810 0.263908
3950.00000000 -19000.00000000 -400.00000000 83 175 126 0.000000 0.000000 0.000000 0.000000 -60.708740 0.000000 211.000000 0.995338 -0.020578 -0.094227
3950.00000000 -19010.00000000 -410.00000000 83 175 126 0.000000 0.000000 0.000000 0.000000 -60.708740 0.000000 211.000000 0.877020 -0.279258 -0.390961
3950.00000000 -19010.00000000 -420.00000000 83 175 126 0.000000 0.000000 0.000000 0.000000 -60.708740 0.000000 211.000000 0.862965 -0.459151 -0.210881
3950.00000000 -19030.00000000 -370.00000000 83 175 126 0.000000 0.000000 0.000000 0.000000 -60.708740 0.000000 211.000000 0.887520 0.017350 -0.460443
3950.00000000 -19060.00000000 -440.00000000 83 175 126 0.000000 0.000000 0.000000 0.000000 -60.708740 0.000000 211.000000 0.791260 0.531206 -0.302867
3950.00000000 -19050.00000000 -440.00000000 83 175 126 0.000000 0.000000 0.000000 0.000000 -60.708740 0.000000 211.000000 0.764253 0.361844 -0.533841
3940.00000000 -19050.00000000 -410.00000000 83 175 126 0.000000 0.000000 0.000000 0.000000 -60.708740 0.000000 211.000000 0.937523 0.344582 -0.048111
3930.00000000 -19020.00000000 -450.00000000 83 175 126 0.000000 0.000000 0.000000 0.000000 -60.708740 0.000000 211.000000 0.975576 -0.072401 0.207387
3950.00000000 -18990.00000000 -490.00000000 83 175 126 0.000000 0.000000 0.000000 0.000000 -60.708740 0.000000 211.000000 0.837859 -0.543135 -0.054735
3950.00000000 -19020.00000000 -500.00000000 83 175 126 0.000000 0.000000 0.000000 0.000000 -60.708740 0.000000 211.000000 0.955175 -0.271969 -0.116933
3940.00000000 -19000.00000000 -500.00000000 83 175 126 0.000000 0.000000 0.000000 0.000000 -60.708740 0.000000 211.000000 0.832992 -0.502852 -0.230792
3930.00000000 -19020.00000000 -500.00000000 83 175 126 0.000000 0.000000 0.000000 0.000000 -60.708740 0.000000 211.000000 0.993656 -0.103715 -0.043493
3950.00000000 -19010.00000000 -520.00000000 83 175 126 0.000000 0.000000 0.000000 0.000000 -60.708740 0.000000 211.000000 0.973132 -0.145527 0.178429
3940.00000000 -19010.00000000 -500.00000000 83 175 126 0.000000 0.000000 0.000000 0.000000 -60.708740 0.000000 211.000000 0.937772 -0.284805 0.198669
3940.00000000 -19040.00000000 -470.00000000 83 175 126 0.000000 0.000000 0.000000 0.000000 -60.708740 0.000000 211.000000 0.826701 0.536683 -0.168928
3940.00000000 -19060.00000000 -470.00000000 83 175 126 0.000000 0.000000 0.000000 0.000000 -60.708740 0.000000 211.000000 0.862941 0.483305 -0.147474
3950.00000000 -19050.00000000 -460.00000000 83 175 126 0.000000 0.000000 0.000000 0.000000 -60.708740 0.000000 211.000000 0.858995 0.511013 -0.031510
3950.00000000 -19060.00000000 -480.00000000 83 175 126 0.000000 0.000000 0.000000 0.000000 -60.708740 0.000000 211.000000 0.911542 0.318386 -0.260233
3950.00000000 -19060.00000000 -450.00000000 83 175 126 0.000000 0.000000 0.000000 0.000000 -60.708740 0.000000 211.000000 0.901457 0.431364 -0.036058
3940.00000000 -19030.00000000 -500.00000000 83 175 126 0.000000 0.000000 0.000000 0.000000 -60.708740 0.000000 211.000000 0.912822 -0.083232 -0.399786
3930.00000000 -19050.00000000 -520.00000000 83 175 126 0.000000 0.000000 0.000000 0.000000 -60.708740 0.000000 211.000000 0.880009 0.362000 -0.307473
3940.00000000 -19030.00000000 -490.00000000 83 175 126 0.000000 0.000000 0.000000 0.000000 -60.708740 0.000000 211.000000 0.958355 -0.132413 0.253027
3950.00000000 -19060.00000000 -520.00000000 83 175 126 0.000000 0.000000 0.000000 0.000000 -60.708740 0.000000 211.000000 0.852021 0.439107 -0.285034
4000.00000000 -18980.00000000 -530.00000000 83 175 126 0.000000 0.000000 0.000000 0.000000 -60.708740 0.000000 211.000000 0.373822 0.909489 0.181898
3980.00000000 -18980.00000000 -540.00000000 83 175 126 0.000000 0.000000 0.000000 0.000000 -60.708740 0.000000 211.000000 -0.259942 0.927554 -0.268465
3990.00000000 -18980.00000000 -530.00000000 83 175 126 0.000000 0.000000 0.000000 0.000000 -60.708740 0.000000 211.000000 -0.072647 0.990534 -0.116466
3980.00000000 -18970.00000000 -530.00000000 83 175 126 0.000000 0.000000 0.000000 0.000000 -60.708740 0.000000 211.000000 -0.239742 0.960277 -0.142797
3960.00000000 -18970.00000000 -540.00000000 83 175 126 0.000000 0.000000 0.000000 0.000000 -60.708740 0.000000 211.000000 -0.379363 0.923954 -0.048907
3980.00000000 -18980.00000000 -530.00000000 83 175 126 0.000000 0.000000 0.000000 0.000000 -60.708740 0.000000 211.000000 -0.316117 0.948351 -0.026448
3970.00000000 -18980.00000000 -530.00000000 83 175 126 0.000000 0.000000 0.000000 0.000000 -60.708740 0.000000 211.000000 -0.407400 0.859383 0.309009
3960.00000000 -18980.00000000 -550.00000000 83 175 126 0.000000 0.000000 0.000000 0.000000 -60.708740 0.000000 211.000000 -0.710965 0.643863 -0.282788
3970.00000000 -18980.00000000 -570.00000000 83 175 126 0.000000 0.000000 0.000000 0.000000 -60.708740 0.000000 211.000000 -0.670310 0.732733 -0.117416
4030.00000000 -19020.00000000 -560.00000000 83 175 126 0.000000 0.000000 0.000000 0.000000 -60.708740 0.000000 211.000000 0.722914 0.688421 -0.058925
4010.00000000 -19010.00000000 -580.00000000 83 175 126 0.000000 0.000000 0.000000 0.000000 -60.708740 0.000000 211.000000 0.643458 0.758309 -0.104544
4020.00000000 -19010.00000000 -570.00000000 83 175 126 0.000000 0.000000 0.000000 0.000000 -60.708740 0.000000 211.000000 0.687685 0.611826 -0.390843
4020.00000000 -19020.00000000 -580.00000000 83 175 126 0.000000 0.000000 0.000000 0.000000 -60.708740 0.000000 211.000000 0.855591 0.224838 -0.466274
4020.00000000 -19040.00000000 -540.00000000 83 175 126 0.000000 0.000000 0.000000 0.000000 -60.708740 0.000000 211.000000 0.990325 -0.136325 -0.025913
4030.00000000 -19030.00000000 -530.00000000 83 175 126 0.000000 0.000000 0.000000 0.000000 -60.708740 0.000000 211.000000 0.971711 0.035093 0.233550
4010.00000000 -19030.00000000 -590.00000000 83 175 126 0.000000 0.000000 0.000000 0.000000 -60.708740 0.000000 211.000000 0.921406 0.354818 -0.158476
4030.00000000 -19050.00000000 -570.00000000 83 175 126 0.000000 0.000000 0.000000 0.000000 -60.708740 0.000000 211.000000 0.873719 -0.440568 0.206192
4020.00000000 -19050.00000000 -570.00000000 83 175 126 0.000000 0.000000 0.000000 0.000000 -60.708740 0.000000 211.000000 0.916008 -0.279288 0.287971
4010.00000000 -19040.00000000 -590.00000000 83 175 126 0.000000 0.000000 0.000000 0.000000 -60.708740 0.000000 211.000000 0.962008 -0.006066 -0.272953
4000.00000000 -19030.00000000 -590.00000000 83 175 126 0.000000 0.000000 0.000000 0.000000 -60.708740 0.000000 211.000000 0.868637 0.444036 0.219776
4000.00000000 -19030.00000000 -590.00000000 83 175 126 0.000000 0.000000 0.000000 0.000000 -60.708740 0.000000 211.000000 0.868637 0.444036 0.219776
4010.00000000 -19040.00000000 -590.00000000 83 175 126 0.000000 0.000000 0.000000 0.000000 -60.708740 0.000000 211.000000 0.962008 -0.006066 -0.272953
4010.00000000 -19030.00000000 -580.00000000 83 175 126 0.000000 0.000000 0.000000 0.000000 -60.708740 0.000000 211.000000 0.767178 0.573398 -0.287493
3960.00000000 -19000.00000000 -560.00000000 83 175 126 0.000000 0.000000 0.000000 0.000000 -60.708740 0.000000 211.000000 -0.273924 0.961751 -0.001207
3960.00000000 -18990.00000000 -540.00000000 83 175 126 0.000000 0.000000 0.000000 0.000000 -60.708740 0.000000 211.000000 0.837602 -0.546144 0.012258
3960.00000000 -19010.00000000 -570.00000000 83 175 126 0.000000 0.000000 0.000000 0.000000 -60.708740 0.000000 211.000000 0.774768 -0.627605 -0.076467
3960.00000000 -19010.00000000 -580.00000000 83 175 126 0.000000 0.000000 0.000000 0.000000 -60.708740 0.000000 211.000000 0.722666 -0.605741 0.332914
4000.00000000 -19020.00000000 -610.00000000 83 175 126 0.000000 0.000000 0.000000 0.000000 -60.708740 0.000000 211.000000 0.809150 0.557144 -0.186727
4010.00000000 -19040.00000000 -610.00000000 83 175 126 0.000000 0.000000 0.000000 0.000000 -60.708740 0.000000 211.000000 0.928924 0.019326 -0.369766
4030.00000000 -19050.00000000 -650.00000000 83 175 126 0.000000 0.000000 0.000000 0.000000 -60.708740 0.000000 211.000000 0.975120 0.220265 -0.025003
4020.00000000 -19050.00000000 -630.00000000 83 175 126 0.000000 0.000000 0.000000 0.000000 -60.708740 0.000000 211.000000 0.962994 0.262407 -0.061521
4020.00000000 -19060.00000000 -670.00000000 83 175 126 0.000000 0.000000 0.000000 0.000000 -60.708740 0.000000 211.000000 0.928717 -0.101684 -0.356573
3980.00000000 -18990.00000000 -610.00000000 83 175 126 0.000000 0.000000 0.000000 0.000000 -60.708740 0.000000 211.000000 -0.264009 0.918983 -0.292863
3970.00000000 -19010.00000000 -640.00000000 83 175 126 0.000000 0.000000 0.000000 0.000000 -60.708740 0.000000 211.000000 -0.115356 0.989264 -0.089721
3960.00000000 -19020.00000000 -630.00000000 83 175 126 0.000000 0.000000 0.000000 0.000000 -60.708740 0.000000 211.000000 0.885505 -0.461229 0.056114
3970.00000000 -19000.00000000 -610.00000000 83 175 126 0.000000 0.000000 0.000000 0.000000 -60.708740 0.000000 211.000000 -0.537521 0.832054 -0.136958
3970.00000000 -18990.00000000 -620.00000000 83 175 126 0.000000 0.000000 0.000000 0.000000 -60.708740 0.000000 211.000000 -0.048498 0.963743 -0.262387
3960.00000000 -19000.00000000 -610.00000000 83 175 126 0.000000 0.000000 0.000000 0.000000 -60.708740 0.000000 211.000000 -0.148174 0.980885 0.126131
3970.00000000 -19010.00000000 -640.00000000 83 175 126 0.000000 0.000000 0.000000 0.000000 -60.708740 0.000000 211.000000 -0.115356 0.989264 -0.089721
3980.00000000 -19020.00000000 -660.00000000 83 175 126 0.000000 0.000000 0.000000 0.000000 -60.708740 0.000000 211.000000 0.199998 0.960256 -0.194700
3990.00000000 -18990.00000000 -660.00000000 83 175 126 0.000000 0.000000 0.000000 0.000000 -60.708740 0.000000 211.000000 0.276613 0.889648 -0.363335
3960.00000000 -19040.00000000 -650.00000000 83 175 126 0.000000 0.000000 0.000000 0.000000 -60.708740 0.000000 211.000000 0.970376 -0.241095 0.015593
3970.00000000 -19030.00000000 -650.00000000 83 175 126 0.000000 0.000000 0.000000 0.000000 -60.708740 0.000000 211.000000 -0.228467 0.891757 -0.390604
3970.00000000 -19060.00000000 -690.00000000 83 175 126 0.000000 0.000000 0.000000 0.000000 -60.708740 0.000000 211.000000 0.346154 0.780859 -0.520036
3990.00000000 -19040.00000000 -670.00000000 83 175 126 0.000000 0.000000 0.000000 0.000000 -60.708740 0.000000 211.000000 0.856457 0.391833 -0.336078
3980.00000000 -19030.00000000 -680.00000000 83 175 126 0.000000 0.000000 0.000000 0.000000 -60.708740 0.000000 211.000000 0.417120 0.797199 -0.436446
3950.00000000 -19020.00000000 -540.00000000 83 175 126 0.000000 0.000000 0.000000 0.000000 -60.708740 0.000000 211.000000 0.852514 -0.402188 -0.333863
3940.00000000 -19020.00000000 -540.00000000 83 175 126 0.000000 0.000000 0.000000 0.000000 -60.708740 0.000000 211.000000 0.781131 -0.598411 -0.178153
3940.00000000 -19020.00000000 -600.00000000 83 175 126 0.000000 0.000000 0.000000 0.000000 -60.708740 0.000000 211.000000 0.845931 -0.454553 0.278895
3950.00000000 -19010.00000000 -600.00000000 83 175 126 0.000000 0.000000 0.000000 0.000000 -60.708740 0.000000 211.000000 0.729201 -0.665528 -0.159181
3940.00000000 -19020.00000000 -590.00000000 83 175 126 0.000000 0.000000 0.000000 0.000000 -60.708740 0.000000 211.000000 0.898795 -0.436634 -0.038961
3930.00000000 -19050.00000000 -530.00000000 83 175 126 0.000000 0.000000 0.000000 0.000000 -60.708740 0.000000 211.000000 0.826108 0.485670 -0.285780
3940.00000000 -19060.00000000 -550.00000000 83 175 126 0.000000 0.000000 0.000000 0.000000 -60.708740 0.000000 211.000000 0.973967 0.178118 -0.140221
3950.00000000 -19030.00000000 -530.00000000 83 175 126 0.000000 0.000000 0.000000 0.000000 -60.708740 0.000000 211.000000 0.915032 -0.329988 -0.232000
3930.00000000 -19060.00000000 -530.00000000 83 175 126 0.000000 0.000000 0.000000 0.000000 -60.708740 0.000000 211.000000 0.761712 0.555583 -0.333350
3930.00000000 -19050.00000000 -530.00000000 83 175 126 0.000000 0.000000 0.000000 0.000000 -60.708740 0.000000 211.000000 0.826108 0.485670 -0.285780
3950.00000000 -19060.00000000 -530.00000000 83 175 126 0.000000 0.000000 0.000000 0.000000 -60.708740 0.000000 211.000000 0.933515 0.284968 -0.217586
3950.00000000 -19040.00000000 -530.00000000 83 175 126 0.000000 0.000000 0.000000 0.000000 -60.708740 0.000000 211.000000 0.970152 0.241636 -0.020437
3940.00000000 -19030.00000000 -540.00000000 83 175 126 0.000000 0.000000 0.000000 0.000000 -60.708740 0.000000 211.000000 0.979985 -0.186836 0.068707
3940.00000000 -19030.00000000 -570.00000000 83 175 126 0.000000 0.000000 0.000000 0.000000 -60.708740 0.000000 211.000000 0.932952 -0.359615 -0.016637
3950.00000000 -19050.00000000 -600.00000000 83 175 126 0.000000 0.000000 0.000000 0.000000 -60.708740 0.000000 211.000000 0.878168 0.263601 -0.399167
3930.00000000 -19040.00000000 -570.00000000 83 175 126 0.000000 0.000000 0.000000 0.000000 -60.708740 0.000000 211.000000 0.960711 -0.264803 0.083151
3950.00000000 -19050.00000000 -600.00000000 83 175 126 0.000000 0.000000 0.000000 0.000000 -60.708740 0.000000 211.000000 0.878168 0.263601 -0.399167
3930.00000000 -19050.00000000 -600.00000000 83 175 126 0.000000 0.000000 0.000000 0.000000 -60.708740 0.000000 211.000000 0.966879 -0.254186 -0.023108
3940.00000000 -19020.00000000 -610.00000000 83 175 126 0.000000 0.000000 0.000000 0.000000 -60.708740 0.000000 211.000000 -0.674572 0.737059 0.041184
3930.00000000 -19020.00000000 -630.00000000 83 175 126 0.000000 0.000000 0.000000 0.000000 -60.708740 0.000000 211.000000 0.736257 -0.549323 -0.395184
3950.00000000 -19010.00000000 -610.00000000 83 175 126 0.000000 0.000000 0.000000 0.000000 -60.708740 0.000000 211.000000 0.834271 -0.500563 -0.231147
3940.00000000 -19010.00000000 -630.00000000 83 175 126 0.000000 0.000000 0.000000 0.000000 -60.708740 0.000000 211.000000 0.781057 -0.578388 -0.235408
3940.00000000 -19000.00000000 -630.00000000 83 175 126 0.000000 0.000000 0.000000 0.000000 -60.708740 0.000000 211.000000 0.731741 -0.654715 0.189482
3950.00000000 -19010.00000000 -690.00000000 83 175 126 0.000000 0.000000 0.000000 0.000000 -60.708740 0.000000 211.000000 -0.395532 0.901813 0.174034
3950.00000000 -19030.00000000 -630.00000000 83 175 126 0.000000 0.000000 0.000000 0.000000 -60.708740 0.000000 211.000000 0.884864 -0.454390 0.102695
3930.00000000 -19050.00000000 -620.00000000 83 175 126 0.000000 0.000000 0.000000 0.000000 -60.708740 0.000000 211.000000 0.977803 -0.176771 -0.112491
3930.00000000 -19030.00000000 -620.00000000 83 175 126 0.000000 0.000000 0.000000 0.000000 -60.708740 0.000000 211.000000 0.924948 -0.270193 0.267334
3930.00000000 -19050.00000000 -650.00000000 83 175 126 0.000000 0.000000 0.000000 0.000000 -60.708740 0.000000 211.000000 0.981834 0.132944 -0.135383
3930.00000000 -19050.00000000 -640.00000000 83 175 126 0.000000 0.000000 0.000000 0.000000 -60.708740 0.000000 211.000000 0.969557 -0.239624 -0.050383
3930.00000000 -19030.00000000 -620.00000000 83 175 126 0.000000 0.000000 0.000000 0.000000 -60.708740 0.000000 211.000000 0.924948 -0.270193 0.267334
3930.00000000 -19050.00000000 -620.00000000 83 175 126 0.000000 0.000000 0.000000 0.000000 -60.708740 0.000000 211.000000 0.977803 -0.176771 -0.112491
3950.00000000 -19030.00000000 -620.00000000 83 175 126 0.000000 0.000000 0.000000 0.000000 -60.708740 0.000000 211.000000 0.963591 -0.155165 0.217753
3930.00000000 -19060.00000000 -640.00000000 83 175 126 0.000000 0.000000 0.000000 0.000000 -60.708740 0.000000 211.000000 0.995407 -0.084505 0.044996
3930.00000000 -19030.00000000 -620.00000000 83 175 126 0.000000 0.000000 0.000000 0.000000 -60.708740 0.000000 211.000000 0.924948 -0.270193 0.267334
3930.00000000 -19040.00000000 -620.00000000 83 175 126 0.000000 0.000000 0.000000 0.000000 -60.708740 0.000000 211.000000 0.959194 -0.020932 0.281971
3950.00000000 -19040.00000000 -620.00000000 83 175 126 0.000000 0.000000 0.000000 0.000000 -60.708740 0.000000 211.000000 0.984525 -0.173875 -0.021878
3950.00000000 -19040.00000000 -610.00000000 83 175 126 0.000000 0.000000 0.000000 0.000000 -60.708740 0.000000 211.000000 0.945236 -0.195613 0.261274
3930.00000000 -19050.00000000 -650.00000000 83 175 126 0.000000 0.000000 0.000000 0.000000 -60.708740 0.000000 211.000000 0.981834 0.132944 -0.135383
3930.00000000 -19050.00000000 -660.00000000 83 175 126 0.000000 0.000000 0.000000 0.000000 -60.708740 0.000000 211.000000 0.974592 0.217793 -0.052319
3940.00000000 -19040.00000000 -680.00000000 83 175 126 0.000000 0.000000 0.000000 0.000000 -60.708740 0.000000 211.000000 0.949719 -0.256058 0.180189
3940.00000000 -19030.00000000 -680.00000000 83 175 126 0.000000 0.000000 0.000000 0.000000 -60.708740 0.000000 211.000000 0.858367 -0.468881 -0.208225
3910.00000000 -19060.00000000 -680.00000000 83 175 126 0.000000 0.000000 0.000000 0.000000 -60.708740 0.000000 211.000000 0.894805 0.438413 -0.084363
3940.00000000 -19030.00000000 -670.00000000 83 175 126 0.000000 0.000000 0.000000 0.000000 -60.708740 0.000000 211.000000 0.894596 -0.331938 -0.299191
3930.00000000 -19050.00000000 -660.00000000 83 175 126 0.000000 0.000000 0.000000 0.000000 -60.708740 0.000000 211.000000 0.974592 0.217793 -0.052319
3920.00000000 -19040.00000000 -690.00000000 83 175 126 0.000000 0.000000 0.000000 0.000000 -60.708740 0.000000 211.000000 0.871041 -0.485154 0.076898
3970.00000000 -19070.00000000 -440.00000000 83 175 126 0.000000 0.000000 0.000000 0.000000 -60.708740 0.000000 211.000000 0.312236 0.891889 -0.327175
4020.00000000 -19070.00000000 -520.00000000 83 175 126 0.000000 0.000000 0.000000 0.000000 -60.708740 0.000000 211.000000 0.735565 -0.600362 0.313862
4010.00000000 -19070.00000000 -510.00000000 83 175 126 0.000000 0.000000 0.000000 0.000000 -60.708740 0.000000 211.000000 -0.555188 0.815573 -0.163115
3980.00000000 -19070.00000000 -460.00000000 83 175 126 0.000000 0.000000 0.000000 0.000000 -60.708740 0.000000 211.000000 0.090577 0.926052 -0.366365
3990.00000000 -19090.00000000 -470.00000000 83 175 126 0.000000 0.000000 0.000000 0.000000 -60.708740 0.000000 211.000000 -0.059959 0.860348 -0.506169
3970.00000000 -19070.00000000 -450.00000000 83 175 126 0.000000 0.000000 0.000000 0.000000 -60.708740 0.000000 211.000000 0.204668 0.978384 -0.029576
3970.00000000 -19070.00000000 -450.00000000 83 175 126 0.000000 0.000000 0.000000 0.000000 -60.708740 0.000000 211.000000 0.204668 0.978384 -0.029576
3960.00000000 -19080.00000000 -480.00000000 83 175 126 0.000000 0.000000 0.000000 0.000000 -60.708740 0.000000 211.000000 0.353042 0.903846 -0.241709
3970.00000000 -19090.00000000 -490.00000000 83 175 126 0.000000 0.000000 0.000000 0.000000 -60.708740 0.000000 211.000000 0.321870 0.773448 -0.546057
3960.00000000 -19070.00000000 -510.00000000 83 175 126 0.000000 0.000000 0.000000 0.000000 -60.708740 0.000000 211.000000 0.388303 0.895295 -0.218329
3960.00000000 -19070.00000000 -500.00000000 83 175 126 0.000000 0.000000 0.000000 0.000000 -60.708740 0.000000 211.000000 0.414575 0.881158 -0.227348
3960.00000000 -19070.00000000 -510.00000000 83 175 126 0.000000 0.000000 0.000000 0.000000 -60.708740 0.000000 211.000000 0.388303 0.895295 -0.218329
3980.00000000 -19080.00000000 -510.00000000 83 175 126 0.000000 0.000000 0.000000 0.000000 -60.708740 0.000000 211.000000 -0.099786 0.994568 0.029607
3970.00000000 -19070.00000000 -510.00000000 83 175 126 0.000000 0.000000 0.000000 0.000000 -60.708740 0.000000 211.000000 0.240168 0.865512 -0.439553
3940.00000000 -19090.00000000 -520.00000000 83 175 126 0.000000 0.000000 0.000000 0.000000 -60.708740 0.000000 211.000000 0.444646 0.893395 -0.064303
3940.00000000 -19080.00000000 -520.00000000 83 175 126 0.000000 0.000000 0.000000 0.000000 -60.708740 0.000000 211.000000 0.499009 0.866127 0.028554
3950.00000000 -19090.00000000 -500.00000000 83 175 126 0.000000 0.000000 0.000000 0.000000 -60.708740 0.000000 211.000000 0.542152 0.676431 -0.498511
3950.00000000 -19070.00000000 -480.00000000 83 175 126 0.000000 0.000000 0.000000 0.000000 -60.708740 0.000000 211.000000 0.890085 0.451214 -0.064459
4000.00000000 -19080.00000000 -550.00000000 83 175 126 0.000000 0.000000 0.000000 0.000000 -60.708740 0.000000 211.000000 -0.284409 0.951116 0.120378
4000.00000000 -19080.00000000 -540.00000000 83 175 126 0.000000 0.000000 0.000000 0.000000 -60.708740 0.000000 211.000000 -0.291736 0.953004 -0.081686
4020.00000000 -19080.00000000 -540.00000000 83 175 126 0.000000 0.000000 0.000000 0.000000 -60.708740 0.000000 211.000000 -0.590194 0.806830 -0.026385
4010.00000000 -19090.00000000 -590.00000000 83 175 126 0.000000 0.000000 0.000000 0.000000 -60.708740 0.000000 211.000000 -0.671059 0.741106 -0.021014
3960.00000000 -19080.00000000 -530.00000000 83 175 126 0.000000 0.000000 0.000000 0.000000 -60.708740 0.000000 211.000000 0.677001 0.580048 -0.453006
3980.00000000 -19080.00000000 -540.00000000 83 175 126 0.000000 0.000000 0.000000 0.000000 -60.708740 0.000000 211.000000 -0.139116 0.955260 -0.261007
3970.00000000 -19080.00000000 -530.00000000 83 175 126 0.000000 0.000000 0.000000 0.000000 -60.708740 0.000000 211.000000 0.063592 0.996997 -0.044191
3970.00000000 -19080.00000000 -530.00000000 83 175 126 0.000000 0.000000 0.000000 0.000000 -60.708740 0.000000 211.000000 0.063592 0.996997 -0.044191
3960.00000000 -19070.00000000 -530.00000000 83 175 126 0.000000 0.000000 0.000000 0.000000 -60.708740 0.000000 211.000000 0.649443 0.616052 -0.445762
3960.00000000 -19090.00000000 -560.00000000 83 175 126 0.000000 0.000000 0.000000 0.000000 -60.708740 0.000000 211.000000 0.228611 0.855398 -0.464792
3980.00000000 -19080.00000000 -540.00000000 83 175 126 0.000000 0.000000 0.000000 0.000000 -60.708740 0.000000 211.000000 -0.139116 0.955260 -0.261007
3970.00000000 -19090.00000000 -560.00000000 83 175 126 0.000000 0.000000 0.000000 0.000000 -60.708740 0.000000 211.000000 0.003749 0.943559 -0.331183
3990.00000000 -19080.00000000 -530.00000000 83 175 126 0.000000 0.000000 0.000000 0.000000 -60.708740 0.000000 211.000000 0.021087 0.956341 -0.291492
3960.00000000 -19080.00000000 -530.00000000 83 175 126 0.000000 0.000000 0.000000 0.000000 -60.708740 0.000000 211.000000 0.677001 0.580048 -0.453006
3980.00000000 -19080.00000000 -540.00000000 83 175 126 0.000000 0.000000 0.000000 0.000000 -60.708740 0.000000 211.000000 -0.139116 0.955260 -0.261007
3960.00000000 -19100.00000000 -590.00000000 83 175 126 0.000000 0.000000 0.000000 0.000000 -60.708740 0.000000 211.000000 0.511588 0.768194 -0.384909
3960.00000000 -19100.00000000 -590.00000000 83 175 126 0.000000 0.000000 0.000000 0.000000 -60.708740 0.000000 211.000000 0.511588 0.768194 -0.384909
3980.00000000 -19100.00000000 -590.00000000 83 175 126 0.000000 0.000000 0.000000 0.000000 -60.708740 0.000000 211.000000 -0.105685 0.976034 -0.190233
3960.00000000 -19130.00000000 -600.00000000 83 175 126 0.000000 0.000000 0.000000 0.000000 -60.708740 0.000000 211.000000 0.225439 0.956450 -0.185421
3970.00000000 -19110.00000000 -580.00000000 83 175 126 0.000000 0.000000 0.000000 0.000000 -60.708740 0.000000 211.000000 -0.084011 0.996437 0.007444
4020.00000000 -19080.00000000 -630.00000000 83 175 126 0.000000 0.000000 0.000000 0.000000 -60.708740 0.000000 211.000000 0.843977 -0.465802 -0.265953
