//X Y Z R G B PointSourceId ScanDirectionFlag NumberOfReturns ReturnNumber GpsTime Intensity Classification Nx Ny Nz
21630.00000000 -2380.00000000 960.00000000 164 57 145 97.000000 1.000000 4.000000 1.000000 -60.708740 114.000000 113.000000 0.634858 0.756072 -0.159093
21620.00000000 -2360.00000000 990.00000000 164 57 145 97.000000 1.000000 4.000000 1.000000 -60.708740 114.000000 113.000000 0.624523 0.738360 -0.254552
21620.00000000 -2360.00000000 990.00000000 164 57 145 97.000000 1.000000 4.000000 1.000000 -60.708740 114.000000 113.000000 0.624523 0.738360 -0.254552
21620.00000000 -2370.00000000 990.00000000 164 57 145 97.000000 1.000000 4.000000 1.000000 -60.708740 114.000000 113.000000 0.733318 0.618287 -0.282783
21620.00000000 -2380.00000000 970.00000000 164 57 145 97.000000 1.000000 4.000000 1.000000 -60.708740 114.000000 113.000000 0.813497 0.509415 -0.280570
21620.00000000 -2380.00000000 950.00000000 164 57 145 97.000000 1.000000 4.000000 1.000000 -60.708740 114.000000 113.000000 0.679926 0.686266 -0.258340
21620.00000000 -2380.00000000 970.00000000 164 57 145 97.000000 1.000000 4.000000 1.000000 -60.708740 114.000000 113.000000 0.813497 0.509415 -0.280570
21630.00000000 -2370.00000000 970.00000000 164 57 145 97.000000 1.000000 4.000000 1.000000 -60.708740 114.000000 113.000000 0.831058 0.414740 -0.370585
21620.00000000 -2380.00000000 980.00000000 164 57 145 97.000000 1.000000 4.000000 1.000000 -60.708740 114.000000 113.000000 0.892405 0.425432 -0.150405
21610.00000000 -2360.00000000 950.00000000 164 57 145 97.000000 1.000000 4.000000 1.000000 -60.708740 114.000000 113.000000 0.811984 0.550935 -0.192751
21600.00000000 -2370.00000000 960.00000000 164 57 145 97.000000 1.000000 4.000000 1.000000 -60.708740 114.000000 113.000000 0.586349 0.726811 -0.357689
21610.00000000 -2370.00000000 910.00000000 164 57 145 97.000000 1.000000 4.000000 1.000000 -60.708740 114.000000 113.000000 0.585403 0.787161 -0.194115
21620.00000000 -2370.00000000 930.00000000 164 57 145 97.000000 1.000000 4.000000 1.000000 -60.708740 114.000000 113.000000 0.651281 0.755255 -0.073648
21630.00000000 -2370.00000000 930.00000000 164 57 145 97.000000 1.000000 4.000000 1.000000 -60.708740 114.000000 113.000000 0.825356 0.394460 -0.403965
21610.00000000 -2370.00000000 910.00000000 164 57 145 97.000000 1.000000 4.000000 1.000000 -60.708740 114.000000 113.000000 0.585403 0.787161 -0.194115
21600.00000000 -2360.00000000 920.00000000 164 57 145 97.000000 1.000000 4.000000 1.000000 -60.708740 114.000000 113.000000 0.629426 0.582177 -0.514678
21580.00000000 -2330.00000000 950.00000000 164 57 145 97.000000 1.000000 4.000000 1.000000 -60.708740 114.000000 113.000000 0.880762 0.373153 -0.291573
21590.00000000 -2330.00000000 960.00000000 164 57 145 97.000000 1.000000 4.000000 1.000000 -60.708740 114.000000 113.000000 0.831389 0.402285 -0.383354
21590.00000000 -2330.00000000 980.00000000 164 57 145 97.000000 1.000000 4.000000 1.000000 -60.708740 114.000000 113.000000 0.910609 0.348898 -0.221499
21590.00000000 -2320.00000000 990.00000000 164 57 145 97.000000 1.000000 4.000000 1.000000 -60.708740 114.000000 113.000000 0.913721 0.382000 -0.138527
21590.00000000 -2340.00000000 960.00000000 164 57 145 97.000000 1.000000 4.000000 1.000000 -60.708740 114.000000 113.000000 0.839343 0.387510 -0.381234
21580.00000000 -2340.00000000 980.00000000 164 57 145 97.000000 1.000000 4.000000 1.000000 -60.708740 114.000000 113.000000 0.965373 0.244832 -0.090068
21580.00000000 -2340.00000000 930.00000000 164 57 145 97.000000 1.000000 4.000000 1.000000 -60.708740 114.000000 113.000000 0.787800 0.600158 -0.138498
21580.00000000 -2350.00000000 910.00000000 164 57 145 97.000000 1.000000 4.000000 1.000000 -60.708740 114.000000 113.000000 0.971715 0.232287 -0.042566
21580.00000000 -2350.00000000 920.00000000 164 57 145 97.000000 1.000000 4.000000 1.000000 -60.708740 114.000000 113.000000 0.835566 0.483424 -0.261018
21580.00000000 -2340.00000000 930.00000000 164 57 145 97.000000 1.000000 4.000000 1.000000 -60.708740 114.000000 113.000000 0.787800 0.600158 -0.138498
21580.00000000 -2340.00000000 930.00000000 164 57 145 97.000000 1.000000 4.000000 1.000000 -60.708740 114.000000 113.000000 0.787800 0.600158 -0.138498
21580.00000000 -2350.00000000 910.00000000 164 57 145 97.000000 1.000000 4.000000 1.000000 -60.708740 114.000000 113.000000 0.971715 0.232287 -0.042566
21590.00000000 -2360.00000000 910.00000000 164 57 145 97.000000 1.000000 4.000000 1.000000 -60.708740 114.000000 113.000000 0.607013 0.757590 -0.239982
21590.00000000 -2360.00000000 920.00000000 164 57 145 97.000000 1.000000 4.000000 1.000000 -60.708740 114.000000 113.000000 0.525069 0.750799 -0.400753
21610.00000000 -2370.00000000 900.00000000 164 57 145 97.000000 1.000000 4.000000 1.000000 -60.708740 114.000000 113.000000 0.744093 0.658293 -0.113907
21620.00000000 -2380.00000000 870.00000000 164 57 145 97.000000 1.000000 4.000000 1.000000 -60.708740 114.000000 113.000000 0.781239 0.602929 -0.161688
21620.00000000 -2390.00000000 890.00000000 164 57 145 97.000000 1.000000 4.000000 1.000000 -60.708740 114.000000 113.000000 0.795241 0.605831 -0.023676
21610.00000000 -2370.00000000 870.00000000 164 57 145 97.000000 1.000000 4.000000 1.000000 -60.708740 114.000000 113.000000 0.767517 0.632504 -0.104194
21620.00000000 -2380.00000000 900.00000000 164 57 145 97.000000 1.000000 4.000000 1.000000 -60.708740 114.000000 113.000000 0.806474 0.565286 -0.173354
21600.00000000 -2360.00000000 880.00000000 164 57 145 97.000000 1.000000 4.000000 1.000000 -60.708740 114.000000 113.000000 0.692828 0.692828 -0.199944
21620.00000000 -2390.00000000 870.00000000 164 57 145 97.000000 1.000000 4.000000 1.000000 -60.708740 114.000000 113.000000 0.860377 0.341370 -0.378442
21620.00000000 -2380.00000000 890.00000000 164 57 145 97.000000 1.000000 4.000000 1.000000 -60.708740 114.000000 113.000000 0.773610 0.629010 -0.076638
21600.00000000 -2360.00000000 840.00000000 164 57 145 97.000000 1.000000 4.000000 1.000000 -60.708740 114.000000 113.000000 0.848511 0.529135 0.006766
21600.00000000 -2370.00000000 830.00000000 164 57 145 97.000000 1.000000 4.000000 1.000000 -60.708740 114.000000 113.000000 0.902244 0.428936 -0.044373
21630.00000000 -2380.00000000 830.00000000 164 57 145 97.000000 1.000000 4.000000 1.000000 -60.708740 114.000000 113.000000 0.526855 0.835548 -0.155830
21610.00000000 -2380.00000000 860.00000000 164 57 145 97.000000 1.000000 4.000000 1.000000 -60.708740 114.000000 113.000000 0.762071 0.598658 -0.246691
21580.00000000 -2350.00000000 880.00000000 164 57 145 97.000000 1.000000 4.000000 1.000000 -60.708740 114.000000 113.000000 0.727987 0.656889 -0.196294
21580.00000000 -2340.00000000 890.00000000 164 57 145 97.000000 1.000000 4.000000 1.000000 -60.708740 114.000000 113.000000 0.863262 0.487302 -0.131586
21580.00000000 -2350.00000000 830.00000000 164 57 145 97.000000 1.000000 4.000000 1.000000 -60.708740 114.000000 113.000000 0.669254 0.672495 -0.315991
21590.00000000 -2350.00000000 830.00000000 164 57 145 97.000000 1.000000 4.000000 1.000000 -60.708740 114.000000 113.000000 0.662066 0.703346 -0.258793
21570.00000000 -2320.00000000 860.00000000 164 57 145 97.000000 1.000000 4.000000 1.000000 -60.708740 114.000000 113.000000 0.858995 0.511013 -0.031510
21590.00000000 -2370.00000000 890.00000000 164 57 145 97.000000 1.000000 4.000000 1.000000 -60.708740 114.000000 113.000000 -0.622665 -0.321845 0.713235
21590.00000000 -2360.00000000 880.00000000 164 57 145 97.000000 1.000000 4.000000 1.000000 -60.708740 114.000000 113.000000 0.736750 0.618998 -0.272104
21590.00000000 -2390.00000000 840.00000000 164 57 145 97.000000 1.000000 4.000000 1.000000 -60.708740 114.000000 113.000000 0.864871 0.494010 -0.089177
21590.00000000 -2360.00000000 830.00000000 164 57 145 97.000000 1.000000 4.000000 1.000000 -60.708740 114.000000 113.000000 0.612691 0.572182 -0.545177
21570.00000000 -2240.00000000 790.00000000 164 57 145 97.000000 1.000000 4.000000 1.000000 -60.708740 114.000000 113.000000 0.943211 -0.039782 -0.329803
21560.00000000 -2260.00000000 820.00000000 164 57 145 97.000000 1.000000 4.000000 1.000000 -60.708740 114.000000 113.000000 0.999793 -0.011053 0.017082
21560.00000000 -2230.00000000 790.00000000 164 57 145 97.000000 1.000000 4.000000 1.000000 -60.708740 114.000000 113.000000 0.977086 0.102526 -0.186523
21560.00000000 -2240.00000000 770.00000000 164 57 145 97.000000 1.000000 4.000000 1.000000 -60.708740 114.000000 113.000000 0.944309 -0.328945 -0.008755
21580.00000000 -2260.00000000 760.00000000 164 57 145 97.000000 1.000000 4.000000 1.000000 -60.708740 114.000000 113.000000 0.932576 -0.220836 -0.285540
21560.00000000 -2290.00000000 810.00000000 164 57 145 97.000000 1.000000 4.000000 1.000000 -60.708740 114.000000 113.000000 0.984352 -0.062781 -0.164651
21560.00000000 -2280.00000000 820.00000000 164 57 145 97.000000 1.000000 4.000000 1.000000 -60.708740 114.000000 113.000000 0.991705 0.128493 0.003295
21560.00000000 -2300.00000000 820.00000000 164 57 145 97.000000 1.000000 4.000000 1.000000 -60.708740 114.000000 113.000000 0.862718 0.092080 -0.497231
21560.00000000 -2270.00000000 800.00000000 164 57 145 97.000000 1.000000 4.000000 1.000000 -60.708740 114.000000 113.000000 0.993456 -0.025360 -0.111364
21560.00000000 -2300.00000000 780.00000000 164 57 145 97.000000 1.000000 4.000000 1.000000 -60.708740 114.000000 113.000000 0.986889 0.160497 -0.017074
21570.00000000 -2280.00000000 760.00000000 164 57 145 97.000000 1.000000 4.000000 1.000000 -60.708740 114.000000 113.000000 0.971304 0.109887 -0.210933
21570.00000000 -2240.00000000 730.00000000 164 57 145 97.000000 1.000000 4.000000 1.000000 -60.708740 114.000000 113.000000 0.988357 -0.127492 -0.083045
21560.00000000 -2260.00000000 670.00000000 164 57 145 97.000000 1.000000 4.000000 1.000000 -60.708740 114.000000 113.000000 0.858004 0.141301 -0.493826
21570.00000000 -2230.00000000 670.00000000 164 57 145 97.000000 1.000000 4.000000 1.000000 -60.708740 114.000000 113.000000 0.896530 -0.255519 -0.361861
21570.00000000 -2270.00000000 670.00000000 164 57 145 97.000000 1.000000 4.000000 1.000000 -60.708740 114.000000 113.000000 0.972194 -0.112225 -0.205535
21560.00000000 -2300.00000000 670.00000000 164 57 145 97.000000 1.000000 4.000000 1.000000 -60.708740 114.000000 113.000000 0.934849 0.354861 0.011447
21560.00000000 -2280.00000000 680.00000000 164 57 145 97.000000 1.000000 4.000000 1.000000 -60.708740 114.000000 113.000000 0.986627 0.038170 -0.158462
21600.00000000 -2380.00000000 810.00000000 164 57 145 97.000000 1.000000 4.000000 1.000000 -60.708740 114.000000 113.000000 0.834389 0.488912 -0.254481
21610.00000000 -2370.00000000 800.00000000 164 57 145 97.000000 1.000000 4.000000 1.000000 -60.708740 114.000000 113.000000 0.765665 0.638295 -0.079606
21610.00000000 -2390.00000000 800.00000000 164 57 145 97.000000 1.000000 4.000000 1.000000 -60.708740 114.000000 113.000000 0.773050 0.600232 -0.205221
21610.00000000 -2380.00000000 810.00000000 164 57 145 97.000000 1.000000 4.000000 1.000000 -60.708740 114.000000 113.000000 0.813972 0.457162 -0.358403
21600.00000000 -2370.00000000 800.00000000 164 57 145 97.000000 1.000000 4.000000 1.000000 -60.708740 114.000000 113.000000 0.615850 0.772448 -0.155092
21610.00000000 -2390.00000000 810.00000000 164 57 145 97.000000 1.000000 4.000000 1.000000 -60.708740 114.000000 113.000000 0.819034 0.488905 -0.300260
21600.00000000 -2380.00000000 810.00000000 164 57 145 97.000000 1.000000 4.000000 1.000000 -60.708740 114.000000 113.000000 0.834389 0.488912 -0.254481
21610.00000000 -2370.00000000 820.00000000 164 57 145 97.000000 1.000000 4.000000 1.000000 -60.708740 114.000000 113.000000 0.763515 0.644083 -0.046920
21610.00000000 -2390.00000000 770.00000000 164 57 145 97.000000 1.000000 4.000000 1.000000 -60.708740 114.000000 113.000000 0.951649 0.259052 -0.165096
21610.00000000 -2380.00000000 780.00000000 164 57 145 97.000000 1.000000 4.000000 1.000000 -60.708740 114.000000 113.000000 0.869274 0.494241 0.009376
21600.00000000 -2380.00000000 770.00000000 164 57 145 97.000000 1.000000 4.000000 1.000000 -60.708740 114.000000 113.000000 0.944299 0.246040 -0.218550
21600.00000000 -2390.00000000 750.00000000 164 57 145 97.000000 1.000000 4.000000 1.000000 -60.708740 114.000000 113.000000 0.865392 0.500875 0.014851
21610.00000000 -2390.00000000 770.00000000 164 57 145 97.000000 1.000000 4.000000 1.000000 -60.708740 114.000000 113.000000 0.951649 0.259052 -0.165096
21560.00000000 -2320.00000000 810.00000000 164 57 145 97.000000 1.000000 4.000000 1.000000 -60.708740 114.000000 113.000000 0.899122 0.374023 -0.227347
21580.00000000 -2350.00000000 800.00000000 164 57 145 97.000000 1.000000 4.000000 1.000000 -60.708740 114.000000 113.000000 0.762873 0.491702 -0.419825
21580.00000000 -2350.00000000 810.00000000 164 57 145 97.000000 1.000000 4.000000 1.000000 -60.708740 114.000000 113.000000 0.931830 0.260800 -0.252341
21580.00000000 -2340.00000000 800.00000000 164 57 145 97.000000 1.000000 4.000000 1.000000 -60.708740 114.000000 113.000000 0.811247 0.454235 -0.368169
21580.00000000 -2340.00000000 810.00000000 164 57 145 97.000000 1.000000 4.000000 1.000000 -60.708740 114.000000 113.000000 0.781025 0.594557 -0.191053
21560.00000000 -2340.00000000 750.00000000 164 57 145 97.000000 1.000000 4.000000 1.000000 -60.708740 114.000000 113.000000 0.874882 0.295671 -0.383614
21560.00000000 -2340.00000000 750.00000000 164 57 145 97.000000 1.000000 4.000000 1.000000 -60.708740 114.000000 113.000000 0.874882 0.295671 -0.383614
21560.00000000 -2340.00000000 760.00000000 164 57 145 97.000000 1.000000 4.000000 1.000000 -60.708740 114.000000 113.000000 0.905286 0.292930 -0.307650
21560.00000000 -2330.00000000 770.00000000 164 57 145 97.000000 1.000000 4.000000 1.000000 -60.708740 114.000000 113.000000 0.758603 0.608446 -0.233055
21580.00000000 -2330.00000000 760.00000000 164 57 145 97.000000 1.000000 4.000000 1.000000 -60.708740 114.000000 113.000000 0.834162 0.187874 -0.518533
21560.00000000 -2340.00000000 750.00000000 164 57 145 97.000000 1.000000 4.000000 1.000000 -60.708740 114.000000 113.000000 0.874882 0.295671 -0.383614
21590.00000000 -2360.00000000 810.00000000 164 57 145 97.000000 1.000000 4.000000 1.000000 -60.708740 114.000000 113.000000 0.858505 0.511245 -0.039963
21580.00000000 -2360.00000000 800.00000000 164 57 145 97.000000 1.000000 4.000000 1.000000 -60.708740 114.000000 113.000000 0.888203 0.443393 -0.120410
21590.00000000 -2360.00000000 750.00000000 164 57 145 97.000000 1.000000 4.000000 1.000000 -60.708740 114.000000 113.000000 0.866811 0.255656 -0.428111
21580.00000000 -2370.00000000 740.00000000 164 57 145 97.000000 1.000000 4.000000 1.000000 -60.708740 114.000000 113.000000 0.829352 0.442216 -0.341498
21590.00000000 -2380.00000000 750.00000000 164 57 145 97.000000 1.000000 4.000000 1.000000 -60.708740 114.000000 113.000000 0.761226 0.513461 -0.396098
21600.00000000 -2380.00000000 720.00000000 164 57 145 97.000000 1.000000 4.000000 1.000000 -60.708740 114.000000 113.000000 0.730346 0.670604 -0.129939
21620.00000000 -2380.00000000 720.00000000 164 57 145 97.000000 1.000000 4.000000 1.000000 -60.708740 114.000000 113.000000 0.873968 0.485835 0.012045
21560.00000000 -2310.00000000 720.00000000 164 57 145 97.000000 1.000000 4.000000 1.000000 -60.708740 114.000000 113.000000 0.870296 0.478734 -0.115754
21570.00000000 -2340.00000000 720.00000000 164 57 145 97.000000 1.000000 4.000000 1.000000 -60.708740 114.000000 113.000000 0.849682 0.527155 -0.012196
21570.00000000 -2350.00000000 710.00000000 164 57 145 97.000000 1.000000 4.000000 1.000000 -60.708740 114.000000 113.000000 0.851181 0.444831 -0.278596
21560.00000000 -2330.00000000 700.00000000 164 57 145 97.000000 1.000000 4.000000 1.000000 -60.708740 114.000000 113.000000 0.873484 0.486172 -0.025731
21570.00000000 -2340.00000000 700.00000000 164 57 145 97.000000 1.000000 4.000000 1.000000 -60.708740 114.000000 113.000000 0.990168 0.138241 -0.021354
21590.00000000 -2340.00000000 720.00000000 164 57 145 97.000000 1.000000 4.000000 1.000000 -60.708740 114.000000 113.000000 0.894881 0.343956 -0.284397
21570.00000000 -2350.00000000 710.00000000 164 57 145 97.000000 1.000000 4.000000 1.000000 -60.708740 114.000000 113.000000 0.851181 0.444831 -0.278596
21590.00000000 -2350.00000000 720.00000000 164 57 145 97.000000 1.000000 4.000000 1.000000 -60.708740 114.000000 113.000000 0.874206 0.436358 -0.212967
21590.00000000 -2340.00000000 720.00000000 164 57 145 97.000000 1.000000 4.000000 1.000000 -60.708740 114.000000 113.000000 0.894881 0.343956 -0.284397
21570.00000000 -2310.00000000 660.00000000 164 57 145 97.000000 1.000000 4.000000 1.000000 -60.708740 114.000000 113.000000 0.877954 0.430834 -0.208755
21570.00000000 -2330.00000000 670.00000000 164 57 145 97.000000 1.000000 4.000000 1.000000 -60.708740 114.000000 113.000000 0.921753 0.333763 -0.197417
21570.00000000 -2320.00000000 670.00000000 164 57 145 97.000000 1.000000 4.000000 1.000000 -60.708740 114.000000 113.000000 0.904090 0.424424 -0.049853
21570.00000000 -2350.00000000 660.00000000 164 57 145 97.000000 1.000000 4.000000 1.000000 -60.708740 114.000000 113.000000 0.906371 0.231321 -0.353528
21570.00000000 -2320.00000000 680.00000000 164 57 145 97.000000 1.000000 4.000000 1.000000 -60.708740 114.000000 113.000000 0.876011 0.475148 -0.082695
21570.00000000 -2360.00000000 700.00000000 164 57 145 97.000000 1.000000 4.000000 1.000000 -60.708740 114.000000 113.000000 0.939791 0.125756 -0.317771
21570.00000000 -2370.00000000 730.00000000 164 57 145 97.000000 1.000000 4.000000 1.000000 -60.708740 114.000000 113.000000 0.824556 0.517459 -0.228787
21590.00000000 -2390.00000000 730.00000000 164 57 145 97.000000 1.000000 4.000000 1.000000 -60.708740 114.000000 113.000000 0.778808 0.503553 -0.374022
21580.00000000 -2380.00000000 660.00000000 164 57 145 97.000000 1.000000 4.000000 1.000000 -60.708740 114.000000 113.000000 0.631931 0.674830 -0.381139
21570.00000000 -2370.00000000 660.00000000 164 57 145 97.000000 1.000000 4.000000 1.000000 -60.708740 114.000000 113.000000 0.755098 0.326834 -0.568336
21550.00000000 -2220.00000000 920.00000000 164 57 145 97.000000 1.000000 4.000000 1.000000 -60.708740 114.000000 113.000000 0.882855 -0.070684 -0.464296
21540.00000000 -2180.00000000 880.00000000 164 57 145 97.000000 1.000000 4.000000 1.000000 -60.708740 114.000000 113.000000 0.800388 -0.257435 -0.541393
21540.00000000 -2180.00000000 880.00000000 164 57 145 97.000000 1.000000 4.000000 1.000000 -60.708740 114.000000 113.000000 0.800388 -0.257435 -0.541393
21540.00000000 -2180.00000000 870.00000000 164 57 145 97.000000 1.000000 4.000000 1.000000 -60.708740 114.000000 113.000000 0.980913 0.193861 0.015091
21550.00000000 -2200.00000000 900.00000000 164 57 145 97.000000 1.000000 4.000000 1.000000 -60.708740 114.000000 113.000000 0.952039 -0.294833 -0.081826
21520.00000000 -2220.00000000 880.00000000 164 57 145 97.000000 1.000000 4.000000 1.000000 -60.708740 114.000000 113.000000 0.980949 0.181746 -0.068606
21550.00000000 -2200.00000000 900.00000000 164 57 145 97.000000 1.000000 4.000000 1.000000 -60.708740 114.000000 113.000000 0.952039 -0.294833 -0.081826
21520.00000000 -2220.00000000 860.00000000 164 57 145 97.000000 1.000000 4.000000 1.000000 -60.708740 114.000000 113.000000 0.923180 -0.205624 -0.324744
21520.00000000 -2160.00000000 750.00000000 164 57 145 97.000000 1.000000 4.000000 1.000000 -60.708740 114.000000 113.000000 0.986095 -0.017100 -0.165299
21530.00000000 -2210.00000000 760.00000000 164 57 145 97.000000 1.000000 4.000000 1.000000 -60.708740 114.000000 113.000000 0.822510 0.049210 -0.566618
21540.00000000 -2240.00000000 920.00000000 164 57 145 97.000000 1.000000 4.000000 1.000000 -60.708740 114.000000 113.000000 0.913214 0.346590 -0.214282
21530.00000000 -2240.00000000 930.00000000 164 57 145 97.000000 1.000000 4.000000 1.000000 -60.708740 114.000000 113.000000 0.887773 0.298929 -0.350002
21520.00000000 -2240.00000000 910.00000000 164 57 145 97.000000 1.000000 4.000000 1.000000 -60.708740 114.000000 113.000000 0.779228 0.255562 -0.572270
21530.00000000 -2290.00000000 910.00000000 164 57 145 97.000000 1.000000 4.000000 1.000000 -60.708740 114.000000 113.000000 0.846213 0.305879 -0.436304
21530.00000000 -2280.00000000 920.00000000 164 57 145 97.000000 1.000000 4.000000 1.000000 -60.708740 114.000000 113.000000 0.891227 0.310057 -0.331027
21530.00000000 -2270.00000000 910.00000000 164 57 145 97.000000 1.000000 4.000000 1.000000 -60.708740 114.000000 113.000000 0.958032 -0.054276 -0.281477
21520.00000000 -2270.00000000 910.00000000 164 57 145 97.000000 1.000000 4.000000 1.000000 -60.708740 114.000000 113.000000 0.998716 -0.005143 -0.050399
21530.00000000 -2290.00000000 920.00000000 164 57 145 97.000000 1.000000 4.000000 1.000000 -60.708740 114.000000 113.000000 0.906804 0.221986 -0.358369
21530.00000000 -2260.00000000 900.00000000 164 57 145 97.000000 1.000000 4.000000 1.000000 -60.708740 114.000000 113.000000 0.954965 -0.164281 -0.247089
21520.00000000 -2250.00000000 890.00000000 164 57 145 97.000000 1.000000 4.000000 1.000000 -60.708740 114.000000 113.000000 0.975341 -0.144355 -0.166950
21520.00000000 -2230.00000000 870.00000000 164 57 145 97.000000 1.000000 4.000000 1.000000 -60.708740 114.000000 113.000000 0.829183 -0.146326 -0.539486
21550.00000000 -2240.00000000 840.00000000 164 57 145 97.000000 1.000000 4.000000 1.000000 -60.708740 114.000000 113.000000 0.967263 0.240244 0.081758
21550.00000000 -2250.00000000 850.00000000 164 57 145 97.000000 1.000000 4.000000 1.000000 -60.708740 114.000000 113.000000 0.998822 -0.005133 -0.048247
21530.00000000 -2290.00000000 900.00000000 164 57 145 97.000000 1.000000 4.000000 1.000000 -60.708740 114.000000 113.000000 0.889434 0.160012 -0.428139
21530.00000000 -2270.00000000 890.00000000 164 57 145 97.000000 1.000000 4.000000 1.000000 -60.708740 114.000000 113.000000 0.985885 0.043067 -0.161792
21520.00000000 -2290.00000000 890.00000000 164 57 145 97.000000 1.000000 4.000000 1.000000 -60.708740 114.000000 113.000000 0.995047 -0.060876 -0.078585
21530.00000000 -2300.00000000 900.00000000 164 57 145 97.000000 1.000000 4.000000 1.000000 -60.708740 114.000000 113.000000 0.647675 0.395893 -0.650988
21530.00000000 -2270.00000000 890.00000000 164 57 145 97.000000 1.000000 4.000000 1.000000 -60.708740 114.000000 113.000000 0.985885 0.043067 -0.161792
21530.00000000 -2270.00000000 900.00000000 164 57 145 97.000000 1.000000 4.000000 1.000000 -60.708740 114.000000 113.000000 0.990168 -0.091704 -0.105633
21520.00000000 -2290.00000000 900.00000000 164 57 145 97.000000 1.000000 4.000000 1.000000 -60.708740 114.000000 113.000000 0.970423 -0.040282 -0.238028
21520.00000000 -2290.00000000 900.00000000 164 57 145 97.000000 1.000000 4.000000 1.000000 -60.708740 114.000000 113.000000 0.970423 -0.040282 -0.238028
21530.00000000 -2290.00000000 850.00000000 164 57 145 97.000000 1.000000 4.000000 1.000000 -60.708740 114.000000 113.000000 0.934922 0.078242 -0.346120
21530.00000000 -2270.00000000 830.00000000 164 57 145 97.000000 1.000000 4.000000 1.000000 -60.708740 114.000000 113.000000 0.969988 0.242796 -0.013156
21520.00000000 -2300.00000000 850.00000000 164 57 145 97.000000 1.000000 4.000000 1.000000 -60.708740 114.000000 113.000000 0.938660 0.125967 -0.321014
21530.00000000 -2270.00000000 830.00000000 164 57 145 97.000000 1.000000 4.000000 1.000000 -60.708740 114.000000 113.000000 0.969988 0.242796 -0.013156
21510.00000000 -2260.00000000 860.00000000 164 57 145 97.000000 1.000000 4.000000 1.000000 -60.708740 114.000000 113.000000 0.982610 0.043645 -0.180479
21510.00000000 -2240.00000000 860.00000000 164 57 145 97.000000 1.000000 4.000000 1.000000 -60.708740 114.000000 113.000000 0.971565 -0.159587 -0.174907
21510.00000000 -2270.00000000 870.00000000 164 57 145 97.000000 1.000000 4.000000 1.000000 -60.708740 114.000000 113.000000 0.911630 0.275677 -0.304849
21540.00000000 -2310.00000000 920.00000000 164 57 145 97.000000 1.000000 4.000000 1.000000 -60.708740 114.000000 113.000000 0.822503 0.522297 -0.225154
21530.00000000 -2310.00000000 830.00000000 164 57 145 97.000000 1.000000 4.000000 1.000000 -60.708740 114.000000 113.000000 0.928656 0.201514 -0.311431
21550.00000000 -2250.00000000 800.00000000 164 57 145 97.000000 1.000000 4.000000 1.000000 -60.708740 114.000000 113.000000 0.969425 0.237081 -0.063304
21540.00000000 -2240.00000000 820.00000000 164 57 145 97.000000 1.000000 4.000000 1.000000 -60.708740 114.000000 113.000000 0.998487 0.028289 0.047148
21550.00000000 -2260.00000000 810.00000000 164 57 145 97.000000 1.000000 4.000000 1.000000 -60.708740 114.000000 113.000000 0.952288 0.305078 -0.008646
21520.00000000 -2260.00000000 820.00000000 164 57 145 97.000000 1.000000 4.000000 1.000000 -60.708740 114.000000 113.000000 0.997978 0.003122 0.063479
21550.00000000 -2260.00000000 790.00000000 164 57 145 97.000000 1.000000 4.000000 1.000000 -60.708740 114.000000 113.000000 0.974589 0.116350 -0.191415
21550.00000000 -2230.00000000 770.00000000 164 57 145 97.000000 1.000000 4.000000 1.000000 -60.708740 114.000000 113.000000 0.956064 -0.290211 0.041459
21550.00000000 -2260.00000000 750.00000000 164 57 145 97.000000 1.000000 4.000000 1.000000 -60.708740 114.000000 113.000000 0.955614 0.161268 -0.246567
21540.00000000 -2240.00000000 740.00000000 164 57 145 97.000000 1.000000 4.000000 1.000000 -60.708740 114.000000 113.000000 0.903927 -0.389450 -0.176762
21550.00000000 -2230.00000000 770.00000000 164 57 145 97.000000 1.000000 4.000000 1.000000 -60.708740 114.000000 113.000000 0.956064 -0.290211 0.041459
21550.00000000 -2230.00000000 760.00000000 164 57 145 97.000000 1.000000 4.000000 1.000000 -60.708740 114.000000 113.000000 0.991746 -0.023427 0.126060
21550.00000000 -2300.00000000 790.00000000 164 57 145 97.000000 1.000000 4.000000 1.000000 -60.708740 114.000000 113.000000 0.986045 0.159490 0.047731
21550.00000000 -2270.00000000 790.00000000 164 57 145 97.000000 1.000000 4.000000 1.000000 -60.708740 114.000000 113.000000 0.997913 0.009424 -0.063875
21540.00000000 -2270.00000000 750.00000000 164 57 145 97.000000 1.000000 4.000000 1.000000 -60.708740 114.000000 113.000000 0.957704 0.227139 -0.176664
21520.00000000 -2270.00000000 780.00000000 164 57 145 97.000000 1.000000 4.000000 1.000000 -60.708740 114.000000 113.000000 0.990913 -0.122293 0.056003
21550.00000000 -2300.00000000 740.00000000 164 57 145 97.000000 1.000000 4.000000 1.000000 -60.708740 114.000000 113.000000 0.993698 0.025366 -0.109185
21550.00000000 -2280.00000000 740.00000000 164 57 145 97.000000 1.000000 4.000000 1.000000 -60.708740 114.000000 113.000000 0.976519 0.102726 -0.189363
21510.00000000 -2290.00000000 810.00000000 164 57 145 97.000000 1.000000 4.000000 1.000000 -60.708740 114.000000 113.000000 0.907065 0.072076 -0.414775
21540.00000000 -2250.00000000 720.00000000 164 57 145 97.000000 1.000000 4.000000 1.000000 -60.708740 114.000000 113.000000 0.990034 -0.044534 0.133603
21550.00000000 -2250.00000000 700.00000000 164 57 145 97.000000 1.000000 4.000000 1.000000 -60.708740 114.000000 113.000000 0.969491 -0.195947 0.147281
21530.00000000 -2230.00000000 710.00000000 164 57 145 97.000000 1.000000 4.000000 1.000000 -60.708740 114.000000 113.000000 0.913514 -0.394253 -0.100280
21540.00000000 -2260.00000000 710.00000000 164 57 145 97.000000 1.000000 4.000000 1.000000 -60.708740 114.000000 113.000000 0.994099 0.086103 0.065975
21540.00000000 -2240.00000000 730.00000000 164 57 145 97.000000 1.000000 4.000000 1.000000 -60.708740 114.000000 113.000000 0.974317 -0.219616 -0.049747
21550.00000000 -2250.00000000 700.00000000 164 57 145 97.000000 1.000000 4.000000 1.000000 -60.708740 114.000000 113.000000 0.969491 -0.195947 0.147281
21540.00000000 -2260.00000000 730.00000000 164 57 145 97.000000 1.000000 4.000000 1.000000 -60.708740 114.000000 113.000000 0.982827 0.144213 0.115128
21540.00000000 -2260.00000000 720.00000000 164 57 145 97.000000 1.000000 4.000000 1.000000 -60.708740 114.000000 113.000000 0.984064 0.170477 -0.050555
21540.00000000 -2240.00000000 670.00000000 164 57 145 97.000000 1.000000 4.000000 1.000000 -60.708740 114.000000 113.000000 0.926350 -0.375477 -0.029882
21550.00000000 -2250.00000000 670.00000000 164 57 145 97.000000 1.000000 4.000000 1.000000 -60.708740 114.000000 113.000000 0.838752 -0.220724 -0.497771
21550.00000000 -2280.00000000 710.00000000 164 57 145 97.000000 1.000000 4.000000 1.000000 -60.708740 114.000000 113.000000 0.888407 -0.349070 -0.298133
21550.00000000 -2280.00000000 710.00000000 164 57 145 97.000000 1.000000 4.000000 1.000000 -60.708740 114.000000 113.000000 0.888407 -0.349070 -0.298133
21540.00000000 -2270.00000000 710.00000000 164 57 145 97.000000 1.000000 4.000000 1.000000 -60.708740 114.000000 113.000000 0.968854 0.181419 -0.168552
21540.00000000 -2270.00000000 690.00000000 164 57 145 97.000000 1.000000 4.000000 1.000000 -60.708740 114.000000 113.000000 0.987741 -0.097948 0.121550
21540.00000000 -2270.00000000 690.00000000 164 57 145 97.000000 1.000000 4.000000 1.000000 -60.708740 114.000000 113.000000 0.987741 -0.097948 0.121550
21540.00000000 -2310.00000000 790.00000000 164 57 145 97.000000 1.000000 4.000000 1.000000 -60.708740 114.000000 113.000000 0.791409 0.234779 -0.564403
21550.00000000 -2320.00000000 820.00000000 164 57 145 97.000000 1.000000 4.000000 1.000000 -60.708740 114.000000 113.000000 0.821180 0.514977 -0.245890
21550.00000000 -2340.00000000 810.00000000 164 57 145 97.000000 1.000000 4.000000 1.000000 -60.708740 114.000000 113.000000 0.960465 0.277413 0.023426
21550.00000000 -2310.00000000 740.00000000 164 57 145 97.000000 1.000000 4.000000 1.000000 -60.708740 114.000000 113.000000 0.902783 0.421849 -0.083820
21550.00000000 -2320.00000000 740.00000000 164 57 145 97.000000 1.000000 4.000000 1.000000 -60.708740 114.000000 113.000000 0.997795 0.065961 -0.007329
21550.00000000 -2330.00000000 750.00000000 164 57 145 97.000000 1.000000 4.000000 1.000000 -60.708740 114.000000 113.000000 0.853879 0.255094 -0.453671
21530.00000000 -2370.00000000 740.00000000 164 57 145 97.000000 1.000000 4.000000 1.000000 -60.708740 114.000000 113.000000 0.814886 -0.029153 -0.578888
21550.00000000 -2320.00000000 700.00000000 164 57 145 97.000000 1.000000 4.000000 1.000000 -60.708740 114.000000 113.000000 0.947359 0.316641 -0.047432
21550.00000000 -2330.00000000 720.00000000 164 57 145 97.000000 1.000000 4.000000 1.000000 -60.708740 114.000000 113.000000 0.988305 0.147730 -0.037792
21520.00000000 -2310.00000000 730.00000000 164 57 145 97.000000 1.000000 4.000000 1.000000 -60.708740 114.000000 113.000000 0.779135 0.155224 -0.607334
21520.00000000 -2340.00000000 710.00000000 164 57 145 97.000000 1.000000 4.000000 1.000000 -60.708740 114.000000 113.000000 0.926425 -0.119053 -0.357159
21550.00000000 -2320.00000000 700.00000000 164 57 145 97.000000 1.000000 4.000000 1.000000 -60.708740 114.000000 113.000000 0.947359 0.316641 -0.047432
21550.00000000 -2310.00000000 680.00000000 164 57 145 97.000000 1.000000 4.000000 1.000000 -60.708740 114.000000 113.000000 0.970583 -0.177748 -0.162403
21500.00000000 -2330.00000000 690.00000000 164 57 145 97.000000 1.000000 4.000000 1.000000 -60.708740 114.000000 113.000000 0.868926 0.329487 -0.369332
21490.00000000 -2330.00000000 660.00000000 164 57 145 97.000000 1.000000 4.000000 1.000000 -60.708740 114.000000 113.000000 0.995881 0.085796 0.029323
21850.00000000 -2040.00000000 640.00000000 164 57 145 97.000000 1.000000 4.000000 1.000000 -60.708740 114.000000 113.000000 0.405057 0.902496 -0.146389
21830.00000000 -2040.00000000 630.00000000 164 57 145 97.000000 1.000000 4.000000 1.000000 -60.708740 114.000000 113.000000 0.048220 0.869345 -0.491848
21840.00000000 -2080.00000000 620.00000000 164 57 145 97.000000 1.000000 4.000000 1.000000 -60.708740 114.000000 113.000000 0.154496 0.799480 -0.580485
21820.00000000 -2060.00000000 620.00000000 164 57 145 97.000000 1.000000 4.000000 1.000000 -60.708740 114.000000 113.000000 0.296688 0.859318 -0.416592
21840.00000000 -2070.00000000 630.00000000 164 57 145 97.000000 1.000000 4.000000 1.000000 -60.708740 114.000000 113.000000 0.169407 0.962600 -0.211431
21820.00000000 -2060.00000000 580.00000000 164 57 145 97.000000 1.000000 4.000000 1.000000 -60.708740 114.000000 113.000000 0.225923 0.925004 -0.305493
21810.00000000 -2140.00000000 650.00000000 164 57 145 97.000000 1.000000 4.000000 1.000000 -60.708740 114.000000 113.000000 0.349593 0.909522 -0.224842
21790.00000000 -2080.00000000 570.00000000 164 57 145 97.000000 1.000000 4.000000 1.000000 -60.708740 114.000000 113.000000 0.320267 0.878837 -0.353660
21770.00000000 -2090.00000000 590.00000000 164 57 145 97.000000 1.000000 4.000000 1.000000 -60.708740 114.000000 113.000000 -0.259052 0.951649 -0.165096
21770.00000000 -2100.00000000 570.00000000 164 57 145 97.000000 1.000000 4.000000 1.000000 -60.708740 114.000000 113.000000 -0.070654 0.768542 -0.635886
21750.00000000 -2070.00000000 630.00000000 164 57 145 97.000000 1.000000 4.000000 1.000000 -60.708740 114.000000 113.000000 -0.214069 0.790055 -0.574445
21740.00000000 -2060.00000000 640.00000000 164 57 145 97.000000 1.000000 4.000000 1.000000 -60.708740 114.000000 113.000000 -0.472708 0.835376 -0.280525
21760.00000000 -2090.00000000 580.00000000 164 57 145 97.000000 1.000000 4.000000 1.000000 -60.708740 114.000000 113.000000 -0.336321 0.726259 -0.599529
21740.00000000 -2070.00000000 570.00000000 164 57 145 97.000000 1.000000 4.000000 1.000000 -60.708740 114.000000 113.000000 -0.232116 0.963474 -0.133564
21780.00000000 -2080.00000000 510.00000000 164 57 145 97.000000 1.000000 4.000000 1.000000 -60.708740 114.000000 113.000000 -0.135555 0.990764 -0.003306
21740.00000000 -2080.00000000 510.00000000 164 57 145 97.000000 1.000000 4.000000 1.000000 -60.708740 114.000000 113.000000 -0.339848 0.938812 -0.055990
21760.00000000 -2070.00000000 520.00000000 164 57 145 97.000000 1.000000 4.000000 1.000000 -60.708740 114.000000 113.000000 -0.441712 0.873014 -0.206727
21730.00000000 -2140.00000000 580.00000000 164 57 145 97.000000 1.000000 4.000000 1.000000 -60.708740 114.000000 113.000000 -0.535039 0.831460 0.149692
21710.00000000 -2090.00000000 630.00000000 164 57 145 97.000000 1.000000 4.000000 1.000000 -60.708740 114.000000 113.000000 -0.338325 0.929357 -0.147758
21690.00000000 -2130.00000000 620.00000000 164 57 145 97.000000 1.000000 4.000000 1.000000 -60.708740 114.000000 113.000000 -0.412778 0.898400 0.149971
21710.00000000 -2130.00000000 650.00000000 164 57 145 97.000000 1.000000 4.000000 1.000000 -60.708740 114.000000 113.000000 -0.370268 0.900059 0.229771
21700.00000000 -2120.00000000 620.00000000 164 57 145 97.000000 1.000000 4.000000 1.000000 -60.708740 114.000000 113.000000 -0.374963 0.912647 0.162720
21680.00000000 -2130.00000000 610.00000000 164 57 145 97.000000 1.000000 4.000000 1.000000 -60.708740 114.000000 113.000000 -0.473297 0.880142 0.036616
21680.00000000 -2120.00000000 580.00000000 164 57 145 97.000000 1.000000 4.000000 1.000000 -60.708740 114.000000 113.000000 -0.177390 0.983281 0.041117
21700.00000000 -2110.00000000 610.00000000 164 57 145 97.000000 1.000000 4.000000 1.000000 -60.708740 114.000000 113.000000 -0.394405 0.917622 0.049135
21670.00000000 -2120.00000000 570.00000000 164 57 145 97.000000 1.000000 4.000000 1.000000 -60.708740 114.000000 113.000000 -0.382864 0.902980 0.195044
21680.00000000 -2130.00000000 540.00000000 164 57 145 97.000000 1.000000 4.000000 1.000000 -60.708740 114.000000 113.000000 -0.459786 0.830126 -0.315416
21680.00000000 -2120.00000000 550.00000000 164 57 145 97.000000 1.000000 4.000000 1.000000 -60.708740 114.000000 113.000000 -0.311219 0.925131 0.217427
21710.00000000 -2120.00000000 540.00000000 164 57 145 97.000000 1.000000 4.000000 1.000000 -60.708740 114.000000 113.000000 -0.235289 0.953258 -0.189576
21690.00000000 -2110.00000000 550.00000000 164 57 145 97.000000 1.000000 4.000000 1.000000 -60.708740 114.000000 113.000000 -0.138541 0.986367 -0.088809
21680.00000000 -2130.00000000 520.00000000 164 57 145 97.000000 1.000000 4.000000 1.000000 -60.708740 114.000000 113.000000 -0.533177 0.845682 -0.023301
21690.00000000 -2120.00000000 520.00000000 164 57 145 97.000000 1.000000 4.000000 1.000000 -60.708740 114.000000 113.000000 -0.364569 0.921818 0.131688
21650.00000000 -2120.00000000 530.00000000 164 57 145 97.000000 1.000000 4.000000 1.000000 -60.708740 114.000000 113.000000 -0.358810 0.931854 0.053887
21660.00000000 -2140.00000000 620.00000000 164 57 145 97.000000 1.000000 4.000000 1.000000 -60.708740 114.000000 113.000000 -0.410786 0.865857 -0.285565
21640.00000000 -2150.00000000 620.00000000 164 57 145 97.000000 1.000000 4.000000 1.000000 -60.708740 114.000000 113.000000 -0.555821 0.827302 -0.081444
21650.00000000 -2140.00000000 620.00000000 164 57 145 97.000000 1.000000 4.000000 1.000000 -60.708740 114.000000 113.000000 -0.527467 0.772650 -0.353258
21650.00000000 -2150.00000000 630.00000000 164 57 145 97.000000 1.000000 4.000000 1.000000 -60.708740 114.000000 113.000000 -0.485047 0.870273 -0.085762
21670.00000000 -2150.00000000 590.00000000 164 57 145 97.000000 1.000000 4.000000 1.000000 -60.708740 114.000000 113.000000 -0.473935 0.834436 0.281253
21660.00000000 -2140.00000000 590.00000000 164 57 145 97.000000 1.000000 4.000000 1.000000 -60.708740 114.000000 113.000000 -0.492557 0.836272 0.240908
21700.00000000 -2140.00000000 490.00000000 164 57 145 97.000000 1.000000 4.000000 1.000000 -60.708740 114.000000 113.000000 -0.363251 0.823263 -0.436218
21640.00000000 -2150.00000000 500.00000000 164 57 145 97.000000 1.000000 4.000000 1.000000 -60.708740 114.000000 113.000000 -0.597842 0.795668 -0.097458
21640.00000000 -2140.00000000 550.00000000 164 57 145 97.000000 1.000000 4.000000 1.000000 -60.708740 114.000000 113.000000 -0.284400 0.941130 -0.182730
21650.00000000 -2140.00000000 490.00000000 164 57 145 97.000000 1.000000 4.000000 1.000000 -60.708740 114.000000 113.000000 -0.398444 0.914395 0.071585
21610.00000000 -2130.00000000 590.00000000 164 57 145 97.000000 1.000000 4.000000 1.000000 -60.708740 114.000000 113.000000 0.950873 -0.309558 0.003700
21620.00000000 -2130.00000000 500.00000000 164 57 145 97.000000 1.000000 4.000000 1.000000 -60.708740 114.000000 113.000000 0.826809 -0.547779 -0.127766
21610.00000000 -2160.00000000 620.00000000 164 57 145 97.000000 1.000000 4.000000 1.000000 -60.708740 114.000000 113.000000 0.876335 -0.449140 -0.174097
21610.00000000 -2150.00000000 620.00000000 164 57 145 97.000000 1.000000 4.000000 1.000000 -60.708740 114.000000 113.000000 0.806830 -0.590194 -0.026385
21610.00000000 -2150.00000000 620.00000000 164 57 145 97.000000 1.000000 4.000000 1.000000 -60.708740 114.000000 113.000000 0.806830 -0.590194 -0.026385
21610.00000000 -2160.00000000 650.00000000 164 57 145 97.000000 1.000000 4.000000 1.000000 -60.708740 114.000000 113.000000 -0.593275 0.729809 0.339711
21620.00000000 -2160.00000000 640.00000000 164 57 145 97.000000 1.000000 4.000000 1.000000 -60.708740 114.000000 113.000000 0.768976 -0.543281 0.336931
21610.00000000 -2160.00000000 590.00000000 164 57 145 97.000000 1.000000 4.000000 1.000000 -60.708740 114.000000 113.000000 -0.646023 0.757356 0.095219
21610.00000000 -2160.00000000 570.00000000 164 57 145 97.000000 1.000000 4.000000 1.000000 -60.708740 114.000000 113.000000 0.762696 -0.640198 -0.091874
21610.00000000 -2140.00000000 580.00000000 164 57 145 97.000000 1.000000 4.000000 1.000000 -60.708740 114.000000 113.000000 -0.641527 0.759509 -0.107658
21610.00000000 -2160.00000000 600.00000000 164 57 145 97.000000 1.000000 4.000000 1.000000 -60.708740 114.000000 113.000000 0.708475 -0.705702 -0.006932
21610.00000000 -2150.00000000 610.00000000 164 57 145 97.000000 1.000000 4.000000 1.000000 -60.708740 114.000000 113.000000 0.838360 -0.544728 -0.020582
21610.00000000 -2160.00000000 570.00000000 164 57 145 97.000000 1.000000 4.000000 1.000000 -60.708740 114.000000 113.000000 0.762696 -0.640198 -0.091874
21620.00000000 -2140.00000000 600.00000000 164 57 145 97.000000 1.000000 4.000000 1.000000 -60.708740 114.000000 113.000000 -0.574322 0.780890 0.245691
21610.00000000 -2140.00000000 590.00000000 164 57 145 97.000000 1.000000 4.000000 1.000000 -60.708740 114.000000 113.000000 0.763515 -0.644083 -0.046920
21610.00000000 -2150.00000000 610.00000000 164 57 145 97.000000 1.000000 4.000000 1.000000 -60.708740 114.000000 113.000000 0.838360 -0.544728 -0.020582
21600.00000000 -2190.00000000 630.00000000 164 57 145 97.000000 1.000000 4.000000 1.000000 -60.708740 114.000000 113.000000 0.869788 -0.454898 0.191146
21600.00000000 -2190.00000000 570.00000000 164 57 145 97.000000 1.000000 4.000000 1.000000 -60.708740 114.000000 113.000000 0.853437 -0.377751 -0.359096
21600.00000000 -2190.00000000 590.00000000 164 57 145 97.000000 1.000000 4.000000 1.000000 -60.708740 114.000000 113.000000 0.866847 -0.488224 -0.101061
21600.00000000 -2190.00000000 600.00000000 164 57 145 97.000000 1.000000 4.000000 1.000000 -60.708740 114.000000 113.000000 0.776308 -0.627623 -0.058616
21590.00000000 -2160.00000000 630.00000000 164 57 145 97.000000 1.000000 4.000000 1.000000 -60.708740 114.000000 113.000000 -0.690037 0.683750 0.237348
21590.00000000 -2180.00000000 640.00000000 164 57 145 97.000000 1.000000 4.000000 1.000000 -60.708740 114.000000 113.000000 0.890596 -0.415417 -0.185116
21590.00000000 -2160.00000000 630.00000000 164 57 145 97.000000 1.000000 4.000000 1.000000 -60.708740 114.000000 113.000000 -0.690037 0.683750 0.237348
21590.00000000 -2180.00000000 650.00000000 164 57 145 97.000000 1.000000 4.000000 1.000000 -60.708740 114.000000 113.000000 0.915530 -0.374344 0.147214
21590.00000000 -2170.00000000 650.00000000 164 57 145 97.000000 1.000000 4.000000 1.000000 -60.708740 114.000000 113.000000 0.823759 -0.528363 0.205559
21590.00000000 -2180.00000000 650.00000000 164 57 145 97.000000 1.000000 4.000000 1.000000 -60.708740 114.000000 113.000000 0.915530 -0.374344 0.147214
21590.00000000 -2160.00000000 630.00000000 164 57 145 97.000000 1.000000 4.000000 1.000000 -60.708740 114.000000 113.000000 -0.690037 0.683750 0.237348
21560.00000000 -2180.00000000 600.00000000 164 57 145 97.000000 1.000000 4.000000 1.000000 -60.708740 114.000000 113.000000 -0.716915 0.687229 0.117259
21560.00000000 -2180.00000000 600.00000000 164 57 145 97.000000 1.000000 4.000000 1.000000 -60.708740 114.000000 113.000000 -0.716915 0.687229 0.117259
21570.00000000 -2190.00000000 640.00000000 164 57 145 97.000000 1.000000 4.000000 1.000000 -60.708740 114.000000 113.000000 0.680349 -0.624340 -0.383829
21570.00000000 -2220.00000000 650.00000000 164 57 145 97.000000 1.000000 4.000000 1.000000 -60.708740 114.000000 113.000000 0.998504 0.052990 0.013507
21590.00000000 -2190.00000000 650.00000000 164 57 145 97.000000 1.000000 4.000000 1.000000 -60.708740 114.000000 113.000000 0.898983 -0.405761 0.164885
21580.00000000 -2220.00000000 580.00000000 164 57 145 97.000000 1.000000 4.000000 1.000000 -60.708740 114.000000 113.000000 0.810453 -0.538758 -0.230014
21570.00000000 -2210.00000000 580.00000000 164 57 145 97.000000 1.000000 4.000000 1.000000 -60.708740 114.000000 113.000000 0.980963 -0.192919 0.022215
21580.00000000 -2190.00000000 610.00000000 164 57 145 97.000000 1.000000 4.000000 1.000000 -60.708740 114.000000 113.000000 0.907807 -0.419289 0.009143
21580.00000000 -2200.00000000 610.00000000 164 57 145 97.000000 1.000000 4.000000 1.000000 -60.708740 114.000000 113.000000 0.917159 -0.397567 0.027554
21600.00000000 -2160.00000000 530.00000000 164 57 145 97.000000 1.000000 4.000000 1.000000 -60.708740 114.000000 113.000000 -0.616947 0.761568 -0.198469
21600.00000000 -2160.00000000 530.00000000 164 57 145 97.000000 1.000000 4.000000 1.000000 -60.708740 114.000000 113.000000 -0.616947 0.761568 -0.198469
21620.00000000 -2150.00000000 540.00000000 164 57 145 97.000000 1.000000 4.000000 1.000000 -60.708740 114.000000 113.000000 -0.533011 0.835491 -0.133620
21610.00000000 -2140.00000000 490.00000000 164 57 145 97.000000 1.000000 4.000000 1.000000 -60.708740 114.000000 113.000000 -0.531603 0.833684 0.149560
21610.00000000 -2160.00000000 520.00000000 164 57 145 97.000000 1.000000 4.000000 1.000000 -60.708740 114.000000 113.000000 0.759481 -0.649575 -0.035226
21630.00000000 -2150.00000000 510.00000000 164 57 145 97.000000 1.000000 4.000000 1.000000 -60.708740 114.000000 113.000000 0.750549 -0.615795 0.239737
21610.00000000 -2140.00000000 510.00000000 164 57 145 97.000000 1.000000 4.000000 1.000000 -60.708740 114.000000 113.000000 -0.538096 0.842882 -0.001349
21580.00000000 -2180.00000000 560.00000000 164 57 145 97.000000 1.000000 4.000000 1.000000 -60.708740 114.000000 113.000000 0.844099 -0.536172 0.004052
21590.00000000 -2180.00000000 540.00000000 164 57 145 97.000000 1.000000 4.000000 1.000000 -60.708740 114.000000 113.000000 0.926052 -0.366365 0.090577
21590.00000000 -2170.00000000 550.00000000 164 57 145 97.000000 1.000000 4.000000 1.000000 -60.708740 114.000000 113.000000 0.936535 -0.339711 -0.086593
21580.00000000 -2180.00000000 560.00000000 164 57 145 97.000000 1.000000 4.000000 1.000000 -60.708740 114.000000 113.000000 0.844099 -0.536172 0.004052
21570.00000000 -2180.00000000 490.00000000 164 57 145 97.000000 1.000000 4.000000 1.000000 -60.708740 114.000000 113.000000 0.755099 -0.650345 -0.082930
21590.00000000 -2180.00000000 510.00000000 164 57 145 97.000000 1.000000 4.000000 1.000000 -60.708740 114.000000 113.000000 -0.582373 0.807808 0.091041
21590.00000000 -2170.00000000 500.00000000 164 57 145 97.000000 1.000000 4.000000 1.000000 -60.708740 114.000000 113.000000 -0.819150 0.508277 0.265796
21560.00000000 -2180.00000000 510.00000000 164 57 145 97.000000 1.000000 4.000000 1.000000 -60.708740 114.000000 113.000000 0.920791 -0.359094 0.152301
21580.00000000 -2180.00000000 520.00000000 164 57 145 97.000000 1.000000 4.000000 1.000000 -60.708740 114.000000 113.000000 0.782614 -0.532946 -0.321688
21590.00000000 -2170.00000000 490.00000000 164 57 145 97.000000 1.000000 4.000000 1.000000 -60.708740 114.000000 113.000000 -0.460671 0.883765 0.082114
21580.00000000 -2190.00000000 560.00000000 164 57 145 97.000000 1.000000 4.000000 1.000000 -60.708740 114.000000 113.000000 0.858674 -0.506181 -0.080369
21570.00000000 -2220.00000000 540.00000000 164 57 145 97.000000 1.000000 4.000000 1.000000 -60.708740 114.000000 113.000000 0.858353 -0.494027 -0.138444
21570.00000000 -2210.00000000 560.00000000 164 57 145 97.000000 1.000000 4.000000 1.000000 -60.708740 114.000000 113.000000 0.683338 -0.607227 -0.405370
21560.00000000 -2190.00000000 530.00000000 164 57 145 97.000000 1.000000 4.000000 1.000000 -60.708740 114.000000 113.000000 0.879834 -0.475190 -0.009317
21570.00000000 -2210.00000000 560.00000000 164 57 145 97.000000 1.000000 4.000000 1.000000 -60.708740 114.000000 113.000000 0.683338 -0.607227 -0.405370
21580.00000000 -2200.00000000 560.00000000 164 57 145 97.000000 1.000000 4.000000 1.000000 -60.708740 114.000000 113.000000 0.923808 -0.382221 -0.022026
21570.00000000 -2190.00000000 530.00000000 164 57 145 97.000000 1.000000 4.000000 1.000000 -60.708740 114.000000 113.000000 0.975304 -0.149756 -0.162341
21570.00000000 -2200.00000000 500.00000000 164 57 145 97.000000 1.000000 4.000000 1.000000 -60.708740 114.000000 113.000000 0.947710 -0.228380 -0.222910
21560.00000000 -2220.00000000 520.00000000 164 57 145 97.000000 1.000000 4.000000 1.000000 -60.708740 114.000000 113.000000 0.798330 -0.599103 0.061191
21580.00000000 -2200.00000000 520.00000000 164 57 145 97.000000 1.000000 4.000000 1.000000 -60.708740 114.000000 113.000000 -0.623218 0.688993 0.369984
21560.00000000 -2190.00000000 510.00000000 164 57 145 97.000000 1.000000 4.000000 1.000000 -60.708740 114.000000 113.000000 0.954787 -0.226947 -0.192032
21560.00000000 -2190.00000000 490.00000000 164 57 145 97.000000 1.000000 4.000000 1.000000 -60.708740 114.000000 113.000000 0.764121 -0.638472 -0.092045
21560.00000000 -2190.00000000 510.00000000 164 57 145 97.000000 1.000000 4.000000 1.000000 -60.708740 114.000000 113.000000 0.954787 -0.226947 -0.192032
