//X Y Z R G B PointSourceId ScanDirectionFlag NumberOfReturns ReturnNumber GpsTime Intensity Classification Nx Ny Nz
10380.00000000 9050.00000000 -310.00000000 218 221 36 97.000000 1.000000 4.000000 1.000000 -60.708740 114.000000 10.000000 0.818580 -0.323331 -0.474745
10410.00000000 8950.00000000 -230.00000000 218 221 36 97.000000 1.000000 4.000000 1.000000 -60.708740 114.000000 10.000000 0.885403 -0.464670 0.011983
10400.00000000 8940.00000000 -260.00000000 218 221 36 97.000000 1.000000 4.000000 1.000000 -60.708740 114.000000 10.000000 0.905432 -0.253053 -0.340817
10380.00000000 8960.00000000 -230.00000000 218 221 36 97.000000 1.000000 4.000000 1.000000 -60.708740 114.000000 10.000000 0.861688 -0.414773 -0.292331
10390.00000000 8950.00000000 -260.00000000 218 221 36 97.000000 1.000000 4.000000 1.000000 -60.708740 114.000000 10.000000 0.937485 -0.236118 -0.255678
10390.00000000 8950.00000000 -260.00000000 218 221 36 97.000000 1.000000 4.000000 1.000000 -60.708740 114.000000 10.000000 0.937485 -0.236118 -0.255678
10380.00000000 8920.00000000 -200.00000000 218 221 36 97.000000 1.000000 4.000000 1.000000 -60.708740 114.000000 10.000000 0.684708 -0.448142 -0.574755
10370.00000000 8920.00000000 -210.00000000 218 221 36 97.000000 1.000000 4.000000 1.000000 -60.708740 114.000000 10.000000 -0.494375 0.685421 0.534595
10380.00000000 8910.00000000 -190.00000000 218 221 36 97.000000 1.000000 4.000000 1.000000 -60.708740 114.000000 10.000000 0.751676 -0.635799 -0.175340
10390.00000000 8930.00000000 -270.00000000 218 221 36 97.000000 1.000000 4.000000 1.000000 -60.708740 114.000000 10.000000 0.784779 -0.369023 -0.497940
10380.00000000 8930.00000000 -260.00000000 218 221 36 97.000000 1.000000 4.000000 1.000000 -60.708740 114.000000 10.000000 -0.594671 0.791404 0.141588
10370.00000000 8920.00000000 -270.00000000 218 221 36 97.000000 1.000000 4.000000 1.000000 -60.708740 114.000000 10.000000 -0.567510 0.801817 0.187141
10390.00000000 8930.00000000 -270.00000000 218 221 36 97.000000 1.000000 4.000000 1.000000 -60.708740 114.000000 10.000000 0.784779 -0.369023 -0.497940
10390.00000000 8920.00000000 -260.00000000 218 221 36 97.000000 1.000000 4.000000 1.000000 -60.708740 114.000000 10.000000 -0.321919 0.729576 0.603396
10410.00000000 8950.00000000 -340.00000000 218 221 36 97.000000 1.000000 4.000000 1.000000 -60.708740 114.000000 10.000000 0.538154 -0.723610 -0.432179
10380.00000000 8940.00000000 -280.00000000 218 221 36 97.000000 1.000000 4.000000 1.000000 -60.708740 114.000000 10.000000 0.878784 -0.404090 -0.253871
10340.00000000 9060.00000000 -200.00000000 218 221 36 97.000000 1.000000 4.000000 1.000000 -60.708740 114.000000 10.000000 0.964331 0.263445 -0.025732
10340.00000000 9060.00000000 -230.00000000 218 221 36 97.000000 1.000000 4.000000 1.000000 -60.708740 114.000000 10.000000 0.823510 0.553410 0.124774
10320.00000000 8900.00000000 -230.00000000 218 221 36 97.000000 1.000000 4.000000 1.000000 -60.708740 114.000000 10.000000 0.001121 0.987433 0.158034
10350.00000000 8920.00000000 -220.00000000 218 221 36 97.000000 1.000000 4.000000 1.000000 -60.708740 114.000000 10.000000 -0.119484 0.786232 0.606269
10340.00000000 8900.00000000 -250.00000000 218 221 36 97.000000 1.000000 4.000000 1.000000 -60.708740 114.000000 10.000000 0.011722 0.913049 0.407681
10350.00000000 8920.00000000 -260.00000000 218 221 36 97.000000 1.000000 4.000000 1.000000 -60.708740 114.000000 10.000000 -0.165424 0.836064 0.523099
10350.00000000 8910.00000000 -250.00000000 218 221 36 97.000000 1.000000 4.000000 1.000000 -60.708740 114.000000 10.000000 -0.491343 0.779986 0.387561
10290.00000000 8900.00000000 -210.00000000 218 221 36 97.000000 1.000000 4.000000 1.000000 -60.708740 114.000000 10.000000 0.153318 0.988171 -0.003357
10290.00000000 8900.00000000 -210.00000000 218 221 36 97.000000 1.000000 4.000000 1.000000 -60.708740 114.000000 10.000000 0.153318 0.988171 -0.003357
10280.00000000 8910.00000000 -220.00000000 218 221 36 97.000000 1.000000 4.000000 1.000000 -60.708740 114.000000 10.000000 0.505833 0.832867 0.224645
10290.00000000 8900.00000000 -220.00000000 218 221 36 97.000000 1.000000 4.000000 1.000000 -60.708740 114.000000 10.000000 0.228306 0.942282 0.244910
10290.00000000 8900.00000000 -190.00000000 218 221 36 97.000000 1.000000 4.000000 1.000000 -60.708740 114.000000 10.000000 -0.121106 0.948888 0.291454
10340.00000000 8900.00000000 -290.00000000 218 221 36 97.000000 1.000000 4.000000 1.000000 -60.708740 114.000000 10.000000 -0.472275 0.830768 0.294587
10340.00000000 8910.00000000 -290.00000000 218 221 36 97.000000 1.000000 4.000000 1.000000 -60.708740 114.000000 10.000000 -0.296177 0.845114 0.445041
10300.00000000 8910.00000000 -280.00000000 218 221 36 97.000000 1.000000 4.000000 1.000000 -60.708740 114.000000 10.000000 0.043221 0.998304 0.039004
10380.00000000 8880.00000000 -20.00000000 218 221 36 97.000000 1.000000 4.000000 1.000000 -60.708740 114.000000 10.000000 -0.490720 0.869472 0.056675
10400.00000000 8890.00000000 -60.00000000 218 221 36 97.000000 1.000000 4.000000 1.000000 -60.708740 114.000000 10.000000 0.773325 -0.621925 -0.123198
10360.00000000 8880.00000000 -40.00000000 218 221 36 97.000000 1.000000 4.000000 1.000000 -60.708740 114.000000 10.000000 -0.381692 0.857647 0.344604
10390.00000000 8870.00000000 -60.00000000 218 221 36 97.000000 1.000000 4.000000 1.000000 -60.708740 114.000000 10.000000 -0.719239 0.656560 0.227210
10400.00000000 8890.00000000 -60.00000000 218 221 36 97.000000 1.000000 4.000000 1.000000 -60.708740 114.000000 10.000000 0.773325 -0.621925 -0.123198
10390.00000000 8880.00000000 -60.00000000 218 221 36 97.000000 1.000000 4.000000 1.000000 -60.708740 114.000000 10.000000 0.763225 -0.604025 -0.229436
10370.00000000 8890.00000000 -170.00000000 218 221 36 97.000000 1.000000 4.000000 1.000000 -60.708740 114.000000 10.000000 -0.454560 0.882047 0.123971
10380.00000000 8880.00000000 -110.00000000 218 221 36 97.000000 1.000000 4.000000 1.000000 -60.708740 114.000000 10.000000 -0.711598 0.684287 0.159313
10310.00000000 8880.00000000 -60.00000000 218 221 36 97.000000 1.000000 4.000000 1.000000 -60.708740 114.000000 10.000000 -0.023066 0.994040 0.106544
10350.00000000 8890.00000000 -60.00000000 218 221 36 97.000000 1.000000 4.000000 1.000000 -60.708740 114.000000 10.000000 -0.305145 0.947138 0.099073
10350.00000000 8890.00000000 -60.00000000 218 221 36 97.000000 1.000000 4.000000 1.000000 -60.708740 114.000000 10.000000 -0.305145 0.947138 0.099073
10310.00000000 8890.00000000 -60.00000000 218 221 36 97.000000 1.000000 4.000000 1.000000 -60.708740 114.000000 10.000000 0.410499 0.884722 0.220810
10340.00000000 8870.00000000 -60.00000000 218 221 36 97.000000 1.000000 4.000000 1.000000 -60.708740 114.000000 10.000000 -0.076295 0.979718 0.185287
10340.00000000 8870.00000000 -40.00000000 218 221 36 97.000000 1.000000 4.000000 1.000000 -60.708740 114.000000 10.000000 -0.245836 0.768823 0.590318
10320.00000000 8870.00000000 -50.00000000 218 221 36 97.000000 1.000000 4.000000 1.000000 -60.708740 114.000000 10.000000 -0.061032 0.904632 0.421800
10310.00000000 8880.00000000 -50.00000000 218 221 36 97.000000 1.000000 4.000000 1.000000 -60.708740 114.000000 10.000000 0.244071 0.947649 0.205892
10310.00000000 8880.00000000 -50.00000000 218 221 36 97.000000 1.000000 4.000000 1.000000 -60.708740 114.000000 10.000000 0.244071 0.947649 0.205892
10340.00000000 8870.00000000 -70.00000000 218 221 36 97.000000 1.000000 4.000000 1.000000 -60.708740 114.000000 10.000000 0.198798 0.973985 0.108776
10320.00000000 8880.00000000 -90.00000000 218 221 36 97.000000 1.000000 4.000000 1.000000 -60.708740 114.000000 10.000000 0.300201 0.953359 -0.031402
10320.00000000 8880.00000000 -100.00000000 218 221 36 97.000000 1.000000 4.000000 1.000000 -60.708740 114.000000 10.000000 -0.176954 0.800074 0.573210
10280.00000000 8880.00000000 -60.00000000 218 221 36 97.000000 1.000000 4.000000 1.000000 -60.708740 114.000000 10.000000 0.714275 0.667590 0.210081
10280.00000000 8890.00000000 -30.00000000 218 221 36 97.000000 1.000000 4.000000 1.000000 -60.708740 114.000000 10.000000 0.512670 0.832139 -0.211458
10280.00000000 8890.00000000 -30.00000000 218 221 36 97.000000 1.000000 4.000000 1.000000 -60.708740 114.000000 10.000000 0.512670 0.832139 -0.211458
10290.00000000 8880.00000000 -30.00000000 218 221 36 97.000000 1.000000 4.000000 1.000000 -60.708740 114.000000 10.000000 0.789468 0.604917 0.103993
10300.00000000 8870.00000000 -20.00000000 218 221 36 97.000000 1.000000 4.000000 1.000000 -60.708740 114.000000 10.000000 0.329569 0.893267 0.305709
10300.00000000 8870.00000000 -50.00000000 218 221 36 97.000000 1.000000 4.000000 1.000000 -60.708740 114.000000 10.000000 0.132197 0.989750 -0.054028
10290.00000000 8880.00000000 -30.00000000 218 221 36 97.000000 1.000000 4.000000 1.000000 -60.708740 114.000000 10.000000 0.789468 0.604917 0.103993
10300.00000000 8860.00000000 -90.00000000 218 221 36 97.000000 1.000000 4.000000 1.000000 -60.708740 114.000000 10.000000 0.177549 0.916153 0.359359
10300.00000000 8890.00000000 -70.00000000 218 221 36 97.000000 1.000000 4.000000 1.000000 -60.708740 114.000000 10.000000 0.031157 0.879172 0.475485
10270.00000000 8870.00000000 -80.00000000 218 221 36 97.000000 1.000000 4.000000 1.000000 -60.708740 114.000000 10.000000 0.418328 0.865559 0.275336
10280.00000000 8870.00000000 -90.00000000 218 221 36 97.000000 1.000000 4.000000 1.000000 -60.708740 114.000000 10.000000 0.395502 0.821182 0.411385
10290.00000000 8880.00000000 -100.00000000 218 221 36 97.000000 1.000000 4.000000 1.000000 -60.708740 114.000000 10.000000 0.097231 0.991753 -0.083504
10270.00000000 8840.00000000 -20.00000000 218 221 36 97.000000 1.000000 4.000000 1.000000 -60.708740 114.000000 10.000000 0.360312 0.931571 -0.048478
10330.00000000 8870.00000000 -120.00000000 218 221 36 97.000000 1.000000 4.000000 1.000000 -60.708740 114.000000 10.000000 0.022079 0.923427 0.383138
10330.00000000 8880.00000000 -130.00000000 218 221 36 97.000000 1.000000 4.000000 1.000000 -60.708740 114.000000 10.000000 -0.314240 0.931547 0.182958
10310.00000000 8880.00000000 -120.00000000 218 221 36 97.000000 1.000000 4.000000 1.000000 -60.708740 114.000000 10.000000 0.194981 0.977360 0.082162
10320.00000000 8880.00000000 -130.00000000 218 221 36 97.000000 1.000000 4.000000 1.000000 -60.708740 114.000000 10.000000 0.114483 0.987856 0.105041
10340.00000000 8890.00000000 -140.00000000 218 221 36 97.000000 1.000000 4.000000 1.000000 -60.708740 114.000000 10.000000 -0.036889 0.867568 0.495948
10340.00000000 8890.00000000 -180.00000000 218 221 36 97.000000 1.000000 4.000000 1.000000 -60.708740 114.000000 10.000000 -0.505966 0.820443 0.266216
10310.00000000 8890.00000000 -180.00000000 218 221 36 97.000000 1.000000 4.000000 1.000000 -60.708740 114.000000 10.000000 0.021362 0.948718 0.315402
10350.00000000 8870.00000000 -170.00000000 218 221 36 97.000000 1.000000 4.000000 1.000000 -60.708740 114.000000 10.000000 -0.195970 0.720615 0.665064
10300.00000000 8880.00000000 -110.00000000 218 221 36 97.000000 1.000000 4.000000 1.000000 -60.708740 114.000000 10.000000 0.263615 0.961495 0.077684
10300.00000000 8880.00000000 -120.00000000 218 221 36 97.000000 1.000000 4.000000 1.000000 -60.708740 114.000000 10.000000 0.210777 0.954540 0.210777
10290.00000000 8890.00000000 -120.00000000 218 221 36 97.000000 1.000000 4.000000 1.000000 -60.708740 114.000000 10.000000 0.411401 0.808395 0.421006
10280.00000000 8890.00000000 -160.00000000 218 221 36 97.000000 1.000000 4.000000 1.000000 -60.708740 114.000000 10.000000 -0.034022 0.951359 0.306199
10270.00000000 8890.00000000 -150.00000000 218 221 36 97.000000 1.000000 4.000000 1.000000 -60.708740 114.000000 10.000000 0.475632 0.873175 -0.106485
10360.00000000 8890.00000000 -310.00000000 218 221 36 97.000000 1.000000 4.000000 1.000000 -60.708740 114.000000 10.000000 0.531184 -0.575027 -0.622244
10310.00000000 8890.00000000 -200.00000000 218 221 36 97.000000 1.000000 4.000000 1.000000 -60.708740 114.000000 10.000000 -0.421056 0.897401 0.131846
10310.00000000 8890.00000000 -200.00000000 218 221 36 97.000000 1.000000 4.000000 1.000000 -60.708740 114.000000 10.000000 -0.421056 0.897401 0.131846
10350.00000000 8890.00000000 -200.00000000 218 221 36 97.000000 1.000000 4.000000 1.000000 -60.708740 114.000000 10.000000 -0.143853 0.985574 0.089165
10320.00000000 8890.00000000 -270.00000000 218 221 36 97.000000 1.000000 4.000000 1.000000 -60.708740 114.000000 10.000000 -0.273830 0.948288 0.160521
10290.00000000 8890.00000000 -210.00000000 218 221 36 97.000000 1.000000 4.000000 1.000000 -60.708740 114.000000 10.000000 0.270335 0.952164 0.142492
10320.00000000 8870.00000000 -280.00000000 218 221 36 97.000000 1.000000 4.000000 1.000000 -60.708740 114.000000 10.000000 -0.334257 0.920273 0.203399
10310.00000000 8880.00000000 -300.00000000 218 221 36 97.000000 1.000000 4.000000 1.000000 -60.708740 114.000000 10.000000 -0.109205 0.816855 0.566411
10250.00000000 9050.00000000 -20.00000000 218 221 36 97.000000 1.000000 4.000000 1.000000 -60.708740 114.000000 10.000000 -0.687795 0.717378 0.110935
10240.00000000 9050.00000000 -50.00000000 218 221 36 97.000000 1.000000 4.000000 1.000000 -60.708740 114.000000 10.000000 0.820356 -0.502799 -0.272414
10230.00000000 9030.00000000 -30.00000000 218 221 36 97.000000 1.000000 4.000000 1.000000 -60.708740 114.000000 10.000000 0.856998 -0.474116 -0.201911
10230.00000000 9030.00000000 -90.00000000 218 221 36 97.000000 1.000000 4.000000 1.000000 -60.708740 114.000000 10.000000 0.796041 -0.548940 -0.254921
10220.00000000 9060.00000000 -60.00000000 218 221 36 97.000000 1.000000 4.000000 1.000000 -60.708740 114.000000 10.000000 -0.423135 0.735959 0.528508
10210.00000000 9020.00000000 -30.00000000 218 221 36 97.000000 1.000000 4.000000 1.000000 -60.708740 114.000000 10.000000 -0.681366 0.312360 0.661945
10210.00000000 9010.00000000 -40.00000000 218 221 36 97.000000 1.000000 4.000000 1.000000 -60.708740 114.000000 10.000000 0.947226 -0.055416 -0.315742
10220.00000000 8980.00000000 -50.00000000 218 221 36 97.000000 1.000000 4.000000 1.000000 -60.708740 114.000000 10.000000 0.913408 -0.274458 -0.300597
10220.00000000 9010.00000000 -60.00000000 218 221 36 97.000000 1.000000 4.000000 1.000000 -60.708740 114.000000 10.000000 0.897800 -0.162322 -0.409397
10200.00000000 9010.00000000 -80.00000000 218 221 36 97.000000 1.000000 4.000000 1.000000 -60.708740 114.000000 10.000000 0.991258 -0.086146 0.099930
10240.00000000 9060.00000000 -110.00000000 218 221 36 97.000000 1.000000 4.000000 1.000000 -60.708740 114.000000 10.000000 0.775274 -0.631551 -0.009674
10230.00000000 9050.00000000 -180.00000000 218 221 36 97.000000 1.000000 4.000000 1.000000 -60.708740 114.000000 10.000000 0.913880 0.030331 -0.404850
10220.00000000 9020.00000000 -140.00000000 218 221 36 97.000000 1.000000 4.000000 1.000000 -60.708740 114.000000 10.000000 0.986197 0.136477 -0.093754
10200.00000000 9020.00000000 -180.00000000 218 221 36 97.000000 1.000000 4.000000 1.000000 -60.708740 114.000000 10.000000 0.982370 -0.182356 0.041177
10210.00000000 8990.00000000 -120.00000000 218 221 36 97.000000 1.000000 4.000000 1.000000 -60.708740 114.000000 10.000000 0.977932 0.192159 -0.082004
10230.00000000 8950.00000000 -60.00000000 218 221 36 97.000000 1.000000 4.000000 1.000000 -60.708740 114.000000 10.000000 0.841784 0.476858 0.252995
10230.00000000 8940.00000000 -60.00000000 218 221 36 97.000000 1.000000 4.000000 1.000000 -60.708740 114.000000 10.000000 0.912803 0.359676 0.193451
10230.00000000 8940.00000000 -90.00000000 218 221 36 97.000000 1.000000 4.000000 1.000000 -60.708740 114.000000 10.000000 0.815954 0.492088 -0.303428
10250.00000000 8900.00000000 -60.00000000 218 221 36 97.000000 1.000000 4.000000 1.000000 -60.708740 114.000000 10.000000 0.856130 0.480922 0.189093
10240.00000000 8910.00000000 -30.00000000 218 221 36 97.000000 1.000000 4.000000 1.000000 -60.708740 114.000000 10.000000 0.935448 0.347000 -0.067289
10260.00000000 8920.00000000 -60.00000000 218 221 36 97.000000 1.000000 4.000000 1.000000 -60.708740 114.000000 10.000000 0.488226 0.852529 -0.186631
10240.00000000 8910.00000000 -50.00000000 218 221 36 97.000000 1.000000 4.000000 1.000000 -60.708740 114.000000 10.000000 0.780970 0.618690 0.085487
10240.00000000 8910.00000000 -20.00000000 218 221 36 97.000000 1.000000 4.000000 1.000000 -60.708740 114.000000 10.000000 0.866812 0.456452 -0.200720
10250.00000000 8910.00000000 -60.00000000 218 221 36 97.000000 1.000000 4.000000 1.000000 -60.708740 114.000000 10.000000 0.784991 0.551231 0.282723
10250.00000000 8910.00000000 -80.00000000 218 221 36 97.000000 1.000000 4.000000 1.000000 -60.708740 114.000000 10.000000 0.719663 0.687286 -0.098604
10260.00000000 8900.00000000 -80.00000000 218 221 36 97.000000 1.000000 4.000000 1.000000 -60.708740 114.000000 10.000000 0.291694 0.938674 0.183864
10230.00000000 8900.00000000 -90.00000000 218 221 36 97.000000 1.000000 4.000000 1.000000 -60.708740 114.000000 10.000000 0.719439 0.544127 0.431663
10240.00000000 8900.00000000 -100.00000000 218 221 36 97.000000 1.000000 4.000000 1.000000 -60.708740 114.000000 10.000000 0.587212 0.781408 0.211150
10230.00000000 8910.00000000 -100.00000000 218 221 36 97.000000 1.000000 4.000000 1.000000 -60.708740 114.000000 10.000000 0.741404 0.534271 0.406046
10240.00000000 8920.00000000 -70.00000000 218 221 36 97.000000 1.000000 4.000000 1.000000 -60.708740 114.000000 10.000000 0.791246 0.607436 -0.070365
10260.00000000 8920.00000000 -70.00000000 218 221 36 97.000000 1.000000 4.000000 1.000000 -60.708740 114.000000 10.000000 0.425878 0.888094 0.172967
10220.00000000 8960.00000000 -40.00000000 218 221 36 97.000000 1.000000 4.000000 1.000000 -60.708740 114.000000 10.000000 0.957551 0.209090 0.198436
10220.00000000 8950.00000000 -90.00000000 218 221 36 97.000000 1.000000 4.000000 1.000000 -60.708740 114.000000 10.000000 0.965190 0.106107 -0.239060
10220.00000000 8960.00000000 -90.00000000 218 221 36 97.000000 1.000000 4.000000 1.000000 -60.708740 114.000000 10.000000 0.986731 0.150994 0.059695
10220.00000000 8960.00000000 -80.00000000 218 221 36 97.000000 1.000000 4.000000 1.000000 -60.708740 114.000000 10.000000 0.906834 0.400694 0.130753
10190.00000000 8930.00000000 -40.00000000 218 221 36 97.000000 1.000000 4.000000 1.000000 -60.708740 114.000000 10.000000 0.915119 0.399446 0.054774
10220.00000000 8930.00000000 -100.00000000 218 221 36 97.000000 1.000000 4.000000 1.000000 -60.708740 114.000000 10.000000 0.711237 0.702951 -0.001381
10230.00000000 8940.00000000 -130.00000000 218 221 36 97.000000 1.000000 4.000000 1.000000 -60.708740 114.000000 10.000000 0.941953 0.329619 0.063839
10260.00000000 8900.00000000 -140.00000000 218 221 36 97.000000 1.000000 4.000000 1.000000 -60.708740 114.000000 10.000000 0.411336 0.824259 0.389101
10260.00000000 8900.00000000 -140.00000000 218 221 36 97.000000 1.000000 4.000000 1.000000 -60.708740 114.000000 10.000000 0.411336 0.824259 0.389101
10240.00000000 8920.00000000 -120.00000000 218 221 36 97.000000 1.000000 4.000000 1.000000 -60.708740 114.000000 10.000000 0.351978 0.899827 0.257725
10240.00000000 8930.00000000 -150.00000000 218 221 36 97.000000 1.000000 4.000000 1.000000 -60.708740 114.000000 10.000000 0.765967 0.543433 0.343476
10240.00000000 8930.00000000 -150.00000000 218 221 36 97.000000 1.000000 4.000000 1.000000 -60.708740 114.000000 10.000000 0.765967 0.543433 0.343476
10210.00000000 8950.00000000 -110.00000000 218 221 36 97.000000 1.000000 4.000000 1.000000 -60.708740 114.000000 10.000000 0.840124 0.458108 0.290394
10200.00000000 8960.00000000 -110.00000000 218 221 36 97.000000 1.000000 4.000000 1.000000 -60.708740 114.000000 10.000000 0.915337 0.402332 -0.016927
10210.00000000 8950.00000000 -120.00000000 218 221 36 97.000000 1.000000 4.000000 1.000000 -60.708740 114.000000 10.000000 0.827468 0.442892 0.345172
10210.00000000 8970.00000000 -160.00000000 218 221 36 97.000000 1.000000 4.000000 1.000000 -60.708740 114.000000 10.000000 0.934752 0.320762 0.152809
10220.00000000 8960.00000000 -160.00000000 218 221 36 97.000000 1.000000 4.000000 1.000000 -60.708740 114.000000 10.000000 0.918108 0.396072 0.014285
10230.00000000 9060.00000000 -230.00000000 218 221 36 97.000000 1.000000 4.000000 1.000000 -60.708740 114.000000 10.000000 0.975321 -0.220538 0.010614
10240.00000000 9050.00000000 -200.00000000 218 221 36 97.000000 1.000000 4.000000 1.000000 -60.708740 114.000000 10.000000 0.724004 -0.662255 -0.192965
10230.00000000 9040.00000000 -190.00000000 218 221 36 97.000000 1.000000 4.000000 1.000000 -60.708740 114.000000 10.000000 0.863588 -0.266540 -0.427986
10240.00000000 9050.00000000 -230.00000000 218 221 36 97.000000 1.000000 4.000000 1.000000 -60.708740 114.000000 10.000000 0.925874 -0.377777 -0.006403
10200.00000000 9000.00000000 -200.00000000 218 221 36 97.000000 1.000000 4.000000 1.000000 -60.708740 114.000000 10.000000 0.841684 0.516252 0.158278
10220.00000000 9010.00000000 -200.00000000 218 221 36 97.000000 1.000000 4.000000 1.000000 -60.708740 114.000000 10.000000 0.999730 -0.013115 0.019167
10210.00000000 9020.00000000 -330.00000000 218 221 36 97.000000 1.000000 4.000000 1.000000 -60.708740 114.000000 10.000000 0.513596 0.804370 -0.298676
10210.00000000 9020.00000000 -330.00000000 218 221 36 97.000000 1.000000 4.000000 1.000000 -60.708740 114.000000 10.000000 0.513596 0.804370 -0.298676
10230.00000000 8940.00000000 -190.00000000 218 221 36 97.000000 1.000000 4.000000 1.000000 -60.708740 114.000000 10.000000 0.453589 0.806203 0.379861
10250.00000000 8920.00000000 -200.00000000 218 221 36 97.000000 1.000000 4.000000 1.000000 -60.708740 114.000000 10.000000 0.440604 0.706629 0.553664
10250.00000000 8930.00000000 -210.00000000 218 221 36 97.000000 1.000000 4.000000 1.000000 -60.708740 114.000000 10.000000 0.675687 0.731383 0.092339
10260.00000000 8910.00000000 -190.00000000 218 221 36 97.000000 1.000000 4.000000 1.000000 -60.708740 114.000000 10.000000 0.132345 0.947804 0.290090
10230.00000000 8900.00000000 -210.00000000 218 221 36 97.000000 1.000000 4.000000 1.000000 -60.708740 114.000000 10.000000 0.613013 0.781407 0.116694
10260.00000000 8910.00000000 -190.00000000 218 221 36 97.000000 1.000000 4.000000 1.000000 -60.708740 114.000000 10.000000 0.132345 0.947804 0.290090
10250.00000000 8930.00000000 -260.00000000 218 221 36 97.000000 1.000000 4.000000 1.000000 -60.708740 114.000000 10.000000 0.626962 0.753279 0.198718
10230.00000000 8920.00000000 -240.00000000 218 221 36 97.000000 1.000000 4.000000 1.000000 -60.708740 114.000000 10.000000 0.535602 0.826658 -0.172533
10230.00000000 8900.00000000 -250.00000000 218 221 36 97.000000 1.000000 4.000000 1.000000 -60.708740 114.000000 10.000000 0.472778 0.872268 -0.125020
10220.00000000 8940.00000000 -200.00000000 218 221 36 97.000000 1.000000 4.000000 1.000000 -60.708740 114.000000 10.000000 0.864213 0.462599 0.197832
10210.00000000 8960.00000000 -190.00000000 218 221 36 97.000000 1.000000 4.000000 1.000000 -60.708740 114.000000 10.000000 0.638052 0.714810 0.286244
10220.00000000 8940.00000000 -190.00000000 218 221 36 97.000000 1.000000 4.000000 1.000000 -60.708740 114.000000 10.000000 0.896605 0.404124 0.181059
10200.00000000 8950.00000000 -210.00000000 218 221 36 97.000000 1.000000 4.000000 1.000000 -60.708740 114.000000 10.000000 0.377262 0.925532 -0.032635
10220.00000000 8940.00000000 -200.00000000 218 221 36 97.000000 1.000000 4.000000 1.000000 -60.708740 114.000000 10.000000 0.864213 0.462599 0.197832
10220.00000000 8970.00000000 -200.00000000 218 221 36 97.000000 1.000000 4.000000 1.000000 -60.708740 114.000000 10.000000 0.950175 0.297503 -0.093052
10200.00000000 8970.00000000 -270.00000000 218 221 36 97.000000 1.000000 4.000000 1.000000 -60.708740 114.000000 10.000000 0.511002 0.847765 -0.142026
10260.00000000 8920.00000000 -300.00000000 218 221 36 97.000000 1.000000 4.000000 1.000000 -60.708740 114.000000 10.000000 0.433933 0.857133 0.277533
10260.00000000 8920.00000000 -280.00000000 218 221 36 97.000000 1.000000 4.000000 1.000000 -60.708740 114.000000 10.000000 0.101585 0.991883 0.076474
10200.00000000 8950.00000000 -290.00000000 218 221 36 97.000000 1.000000 4.000000 1.000000 -60.708740 114.000000 10.000000 0.383441 0.922115 -0.051745
10210.00000000 8970.00000000 -320.00000000 218 221 36 97.000000 1.000000 4.000000 1.000000 -60.708740 114.000000 10.000000 0.135900 0.986750 -0.088630
10180.00000000 9010.00000000 -240.00000000 218 221 36 97.000000 1.000000 4.000000 1.000000 -60.708740 114.000000 10.000000 0.852411 0.522358 -0.023186
10260.00000000 8890.00000000 -100.00000000 218 221 36 97.000000 1.000000 4.000000 1.000000 -60.708740 114.000000 10.000000 0.385002 0.905971 0.176042
10250.00000000 8890.00000000 -110.00000000 218 221 36 97.000000 1.000000 4.000000 1.000000 -60.708740 114.000000 10.000000 0.745368 0.641292 0.182133
10240.00000000 8890.00000000 -180.00000000 218 221 36 97.000000 1.000000 4.000000 1.000000 -60.708740 114.000000 10.000000 0.216622 0.934968 0.280910
10250.00000000 8890.00000000 -220.00000000 218 221 36 97.000000 1.000000 4.000000 1.000000 -60.708740 114.000000 10.000000 0.135252 0.985068 0.106526
10400.00000000 9030.00000000 -390.00000000 218 221 36 97.000000 1.000000 4.000000 1.000000 -60.708740 114.000000 10.000000 0.898882 -0.378553 -0.220701
10430.00000000 9030.00000000 -390.00000000 218 221 36 97.000000 1.000000 4.000000 1.000000 -60.708740 114.000000 10.000000 0.838255 0.165269 -0.519629
10420.00000000 9060.00000000 -440.00000000 218 221 36 97.000000 1.000000 4.000000 1.000000 -60.708740 114.000000 10.000000 0.925867 0.166181 -0.339345
10420.00000000 9020.00000000 -400.00000000 218 221 36 97.000000 1.000000 4.000000 1.000000 -60.708740 114.000000 10.000000 0.795648 -0.306507 -0.522492
10420.00000000 9020.00000000 -400.00000000 218 221 36 97.000000 1.000000 4.000000 1.000000 -60.708740 114.000000 10.000000 0.795648 -0.306507 -0.522492
10430.00000000 8980.00000000 -390.00000000 218 221 36 97.000000 1.000000 4.000000 1.000000 -60.708740 114.000000 10.000000 0.638747 -0.403157 -0.655337
10420.00000000 9010.00000000 -510.00000000 218 221 36 97.000000 1.000000 4.000000 1.000000 -60.708740 114.000000 10.000000 0.730504 -0.678221 -0.079876
10410.00000000 8950.00000000 -430.00000000 218 221 36 97.000000 1.000000 4.000000 1.000000 -60.708740 114.000000 10.000000 -0.583775 0.549933 0.597312
10410.00000000 8970.00000000 -490.00000000 218 221 36 97.000000 1.000000 4.000000 1.000000 -60.708740 114.000000 10.000000 0.826257 -0.231475 -0.513536
10330.00000000 8920.00000000 -440.00000000 218 221 36 97.000000 1.000000 4.000000 1.000000 -60.708740 114.000000 10.000000 -0.070350 0.889714 0.451065
10340.00000000 8920.00000000 -430.00000000 218 221 36 97.000000 1.000000 4.000000 1.000000 -60.708740 114.000000 10.000000 -0.352613 0.573606 0.739351
10270.00000000 8960.00000000 -420.00000000 218 221 36 97.000000 1.000000 4.000000 1.000000 -60.708740 114.000000 10.000000 -0.343910 0.848104 0.403044
10340.00000000 8940.00000000 -480.00000000 218 221 36 97.000000 1.000000 4.000000 1.000000 -60.708740 114.000000 10.000000 -0.783147 0.455620 0.423191
10320.00000000 8930.00000000 -460.00000000 218 221 36 97.000000 1.000000 4.000000 1.000000 -60.708740 114.000000 10.000000 -0.460006 0.600517 0.654045
10320.00000000 8930.00000000 -460.00000000 218 221 36 97.000000 1.000000 4.000000 1.000000 -60.708740 114.000000 10.000000 -0.460006 0.600517 0.654045
10450.00000000 8840.00000000 430.00000000 218 221 36 97.000000 1.000000 4.000000 1.000000 -60.708740 114.000000 10.000000 -0.346678 0.603838 0.717770
10450.00000000 8820.00000000 420.00000000 218 221 36 97.000000 1.000000 4.000000 1.000000 -60.708740 114.000000 10.000000 0.918555 -0.304262 -0.252350
10450.00000000 8890.00000000 340.00000000 218 221 36 97.000000 1.000000 4.000000 1.000000 -60.708740 114.000000 10.000000 0.474605 0.846963 0.239591
10450.00000000 8830.00000000 330.00000000 218 221 36 97.000000 1.000000 4.000000 1.000000 -60.708740 114.000000 10.000000 -0.584426 0.680998 0.441234
10470.00000000 8820.00000000 340.00000000 218 221 36 97.000000 1.000000 4.000000 1.000000 -60.708740 114.000000 10.000000 0.890316 -0.014595 -0.455109
10440.00000000 8900.00000000 180.00000000 218 221 36 97.000000 1.000000 4.000000 1.000000 -60.708740 114.000000 10.000000 0.957438 0.070306 -0.279945
10440.00000000 8970.00000000 100.00000000 218 221 36 97.000000 1.000000 4.000000 1.000000 -60.708740 114.000000 10.000000 0.866954 0.466595 0.175157
10440.00000000 8850.00000000 240.00000000 218 221 36 97.000000 1.000000 4.000000 1.000000 -60.708740 114.000000 10.000000 0.868166 -0.493933 -0.048155
10440.00000000 8890.00000000 170.00000000 218 221 36 97.000000 1.000000 4.000000 1.000000 -60.708740 114.000000 10.000000 0.907768 -0.001299 -0.419470
10440.00000000 8870.00000000 210.00000000 218 221 36 97.000000 1.000000 4.000000 1.000000 -60.708740 114.000000 10.000000 0.934930 -0.324419 -0.143730
10440.00000000 8870.00000000 220.00000000 218 221 36 97.000000 1.000000 4.000000 1.000000 -60.708740 114.000000 10.000000 0.974928 -0.204400 0.087954
10470.00000000 8840.00000000 180.00000000 218 221 36 97.000000 1.000000 4.000000 1.000000 -60.708740 114.000000 10.000000 0.711715 -0.542496 -0.446273
10420.00000000 8920.00000000 380.00000000 218 221 36 97.000000 1.000000 4.000000 1.000000 -60.708740 114.000000 10.000000 0.176939 0.878847 0.443080
10320.00000000 8980.00000000 450.00000000 218 221 36 97.000000 1.000000 4.000000 1.000000 -60.708740 114.000000 10.000000 -0.672500 0.729163 0.126746
10330.00000000 8980.00000000 350.00000000 218 221 36 97.000000 1.000000 4.000000 1.000000 -60.708740 114.000000 10.000000 -0.815862 0.397553 0.419906
10340.00000000 8980.00000000 370.00000000 218 221 36 97.000000 1.000000 4.000000 1.000000 -60.708740 114.000000 10.000000 -0.482122 0.851598 0.205765
10310.00000000 8930.00000000 420.00000000 218 221 36 97.000000 1.000000 4.000000 1.000000 -60.708740 114.000000 10.000000 -0.599453 0.754457 0.267302
10330.00000000 8970.00000000 360.00000000 218 221 36 97.000000 1.000000 4.000000 1.000000 -60.708740 114.000000 10.000000 -0.421538 0.888292 0.182326
10340.00000000 8970.00000000 380.00000000 218 221 36 97.000000 1.000000 4.000000 1.000000 -60.708740 114.000000 10.000000 0.704118 -0.568265 -0.425784
10320.00000000 8970.00000000 320.00000000 218 221 36 97.000000 1.000000 4.000000 1.000000 -60.708740 114.000000 10.000000 -0.368323 0.826751 0.425231
10290.00000000 8950.00000000 360.00000000 218 221 36 97.000000 1.000000 4.000000 1.000000 -60.708740 114.000000 10.000000 0.592308 -0.511309 -0.622683
10300.00000000 8940.00000000 370.00000000 218 221 36 97.000000 1.000000 4.000000 1.000000 -60.708740 114.000000 10.000000 0.845095 -0.342099 -0.410832
10290.00000000 8960.00000000 350.00000000 218 221 36 97.000000 1.000000 4.000000 1.000000 -60.708740 114.000000 10.000000 -0.739447 0.264428 0.619109
10290.00000000 8930.00000000 400.00000000 218 221 36 97.000000 1.000000 4.000000 1.000000 -60.708740 114.000000 10.000000 0.837334 -0.544755 -0.045977
10270.00000000 8930.00000000 350.00000000 218 221 36 97.000000 1.000000 4.000000 1.000000 -60.708740 114.000000 10.000000 0.714003 -0.690252 -0.117269
10430.00000000 8880.00000000 470.00000000 218 221 36 97.000000 1.000000 4.000000 1.000000 -60.708740 114.000000 10.000000 -0.408930 0.581111 0.703624
10420.00000000 8790.00000000 460.00000000 218 221 36 97.000000 1.000000 4.000000 1.000000 -60.708740 114.000000 10.000000 0.986797 -0.161640 0.010173
10360.00000000 8770.00000000 380.00000000 218 221 36 97.000000 1.000000 4.000000 1.000000 -60.708740 114.000000 10.000000 0.799256 0.599793 0.037926
10360.00000000 8770.00000000 340.00000000 218 221 36 97.000000 1.000000 4.000000 1.000000 -60.708740 114.000000 10.000000 0.594787 0.785481 0.171020
10360.00000000 8760.00000000 400.00000000 218 221 36 97.000000 1.000000 4.000000 1.000000 -60.708740 114.000000 10.000000 0.953794 0.273078 0.125326
10300.00000000 8830.00000000 450.00000000 218 221 36 97.000000 1.000000 4.000000 1.000000 -60.708740 114.000000 10.000000 0.991959 -0.126329 0.007690
10270.00000000 8830.00000000 460.00000000 218 221 36 97.000000 1.000000 4.000000 1.000000 -60.708740 114.000000 10.000000 0.990945 -0.084017 -0.104734
10310.00000000 8820.00000000 320.00000000 218 221 36 97.000000 1.000000 4.000000 1.000000 -60.708740 114.000000 10.000000 0.920562 0.384572 -0.068339
10280.00000000 8880.00000000 360.00000000 218 221 36 97.000000 1.000000 4.000000 1.000000 -60.708740 114.000000 10.000000 0.969269 0.076291 -0.233875
10290.00000000 8820.00000000 340.00000000 218 221 36 97.000000 1.000000 4.000000 1.000000 -60.708740 114.000000 10.000000 0.929043 -0.200988 -0.310618
10300.00000000 8830.00000000 350.00000000 218 221 36 97.000000 1.000000 4.000000 1.000000 -60.708740 114.000000 10.000000 0.972887 -0.230389 0.020293
10340.00000000 8790.00000000 420.00000000 218 221 36 97.000000 1.000000 4.000000 1.000000 -60.708740 114.000000 10.000000 0.873081 0.456350 -0.171681
10320.00000000 8770.00000000 410.00000000 218 221 36 97.000000 1.000000 4.000000 1.000000 -60.708740 114.000000 10.000000 0.740707 0.603124 -0.295963
10310.00000000 8730.00000000 470.00000000 218 221 36 97.000000 1.000000 4.000000 1.000000 -60.708740 114.000000 10.000000 0.912713 0.356775 -0.199163
10300.00000000 8780.00000000 470.00000000 218 221 36 97.000000 1.000000 4.000000 1.000000 -60.708740 114.000000 10.000000 0.766700 0.243023 -0.594231
10300.00000000 8790.00000000 420.00000000 218 221 36 97.000000 1.000000 4.000000 1.000000 -60.708740 114.000000 10.000000 0.851786 0.513935 -0.101642
10300.00000000 8790.00000000 420.00000000 218 221 36 97.000000 1.000000 4.000000 1.000000 -60.708740 114.000000 10.000000 0.851786 0.513935 -0.101642
10320.00000000 8800.00000000 360.00000000 218 221 36 97.000000 1.000000 4.000000 1.000000 -60.708740 114.000000 10.000000 0.912055 0.409306 0.025006
10310.00000000 8800.00000000 400.00000000 218 221 36 97.000000 1.000000 4.000000 1.000000 -60.708740 114.000000 10.000000 0.901945 0.386548 -0.192550
10250.00000000 8920.00000000 320.00000000 218 221 36 97.000000 1.000000 4.000000 1.000000 -60.708740 114.000000 10.000000 0.991534 -0.114977 -0.060334
10250.00000000 8920.00000000 320.00000000 218 221 36 97.000000 1.000000 4.000000 1.000000 -60.708740 114.000000 10.000000 0.991534 -0.114977 -0.060334
10250.00000000 8910.00000000 420.00000000 218 221 36 97.000000 1.000000 4.000000 1.000000 -60.708740 114.000000 10.000000 0.914482 -0.144688 -0.377873
10250.00000000 8930.00000000 370.00000000 218 221 36 97.000000 1.000000 4.000000 1.000000 -60.708740 114.000000 10.000000 0.806037 -0.591826 -0.006866
10260.00000000 8850.00000000 340.00000000 218 221 36 97.000000 1.000000 4.000000 1.000000 -60.708740 114.000000 10.000000 0.920307 0.283725 -0.269323
10260.00000000 8860.00000000 420.00000000 218 221 36 97.000000 1.000000 4.000000 1.000000 -60.708740 114.000000 10.000000 0.820311 0.026283 -0.571313
10230.00000000 8850.00000000 350.00000000 218 221 36 97.000000 1.000000 4.000000 1.000000 -60.708740 114.000000 10.000000 0.850402 -0.390221 -0.352909
10370.00000000 8990.00000000 270.00000000 218 221 36 97.000000 1.000000 4.000000 1.000000 -60.708740 114.000000 10.000000 -0.190908 0.980627 0.043873
10360.00000000 8990.00000000 250.00000000 218 221 36 97.000000 1.000000 4.000000 1.000000 -60.708740 114.000000 10.000000 -0.486174 0.834985 0.257749
10370.00000000 8980.00000000 280.00000000 218 221 36 97.000000 1.000000 4.000000 1.000000 -60.708740 114.000000 10.000000 -0.196335 0.725049 0.660119
10380.00000000 8980.00000000 290.00000000 218 221 36 97.000000 1.000000 4.000000 1.000000 -60.708740 114.000000 10.000000 -0.328276 0.943952 -0.034488
10420.00000000 8990.00000000 160.00000000 218 221 36 97.000000 1.000000 4.000000 1.000000 -60.708740 114.000000 10.000000 0.430623 0.900640 0.058413
10360.00000000 9020.00000000 180.00000000 218 221 36 97.000000 1.000000 4.000000 1.000000 -60.708740 114.000000 10.000000 -0.117349 0.937442 0.327768
10390.00000000 9030.00000000 150.00000000 218 221 36 97.000000 1.000000 4.000000 1.000000 -60.708740 114.000000 10.000000 0.428991 0.801746 0.416137
10360.00000000 9020.00000000 170.00000000 218 221 36 97.000000 1.000000 4.000000 1.000000 -60.708740 114.000000 10.000000 -0.211861 0.898582 0.384272
10430.00000000 8900.00000000 260.00000000 218 221 36 97.000000 1.000000 4.000000 1.000000 -60.708740 114.000000 10.000000 0.422227 0.906275 0.019730
10370.00000000 8970.00000000 300.00000000 218 221 36 97.000000 1.000000 4.000000 1.000000 -60.708740 114.000000 10.000000 -0.448565 0.750895 0.484713
10410.00000000 8940.00000000 190.00000000 218 221 36 97.000000 1.000000 4.000000 1.000000 -60.708740 114.000000 10.000000 0.115977 0.992981 0.023195
10430.00000000 8920.00000000 210.00000000 218 221 36 97.000000 1.000000 4.000000 1.000000 -60.708740 114.000000 10.000000 0.849692 0.520596 0.083692
10420.00000000 8930.00000000 150.00000000 218 221 36 97.000000 1.000000 4.000000 1.000000 -60.708740 114.000000 10.000000 0.967470 0.248354 -0.048188
10430.00000000 8910.00000000 160.00000000 218 221 36 97.000000 1.000000 4.000000 1.000000 -60.708740 114.000000 10.000000 0.959709 0.240255 -0.145729
10320.00000000 8990.00000000 240.00000000 218 221 36 97.000000 1.000000 4.000000 1.000000 -60.708740 114.000000 10.000000 0.376831 -0.646701 -0.663156
10310.00000000 8980.00000000 240.00000000 218 221 36 97.000000 1.000000 4.000000 1.000000 -60.708740 114.000000 10.000000 -0.390181 0.832492 0.393340
10340.00000000 8990.00000000 290.00000000 218 221 36 97.000000 1.000000 4.000000 1.000000 -60.708740 114.000000 10.000000 -0.385548 0.769470 0.509184
10320.00000000 9000.00000000 200.00000000 218 221 36 97.000000 1.000000 4.000000 1.000000 -60.708740 114.000000 10.000000 0.475237 -0.589428 -0.653241
10320.00000000 8990.00000000 230.00000000 218 221 36 97.000000 1.000000 4.000000 1.000000 -60.708740 114.000000 10.000000 -0.493770 0.819815 0.289992
10310.00000000 8990.00000000 200.00000000 218 221 36 97.000000 1.000000 4.000000 1.000000 -60.708740 114.000000 10.000000 -0.511819 0.839023 0.184615
10340.00000000 9010.00000000 200.00000000 218 221 36 97.000000 1.000000 4.000000 1.000000 -60.708740 114.000000 10.000000 -0.052755 0.754260 0.654453
10310.00000000 9010.00000000 190.00000000 218 221 36 97.000000 1.000000 4.000000 1.000000 -60.708740 114.000000 10.000000 0.785691 -0.570987 -0.238041
10320.00000000 9010.00000000 150.00000000 218 221 36 97.000000 1.000000 4.000000 1.000000 -60.708740 114.000000 10.000000 -0.702241 0.465381 0.538774
10320.00000000 9010.00000000 160.00000000 218 221 36 97.000000 1.000000 4.000000 1.000000 -60.708740 114.000000 10.000000 -0.148259 0.910731 0.385472
10320.00000000 9010.00000000 150.00000000 218 221 36 97.000000 1.000000 4.000000 1.000000 -60.708740 114.000000 10.000000 -0.702241 0.465381 0.538774
10340.00000000 9010.00000000 190.00000000 218 221 36 97.000000 1.000000 4.000000 1.000000 -60.708740 114.000000 10.000000 -0.526608 0.766417 0.367816
10310.00000000 9000.00000000 190.00000000 218 221 36 97.000000 1.000000 4.000000 1.000000 -60.708740 114.000000 10.000000 0.790866 -0.605122 -0.091421
10280.00000000 9010.00000000 170.00000000 218 221 36 97.000000 1.000000 4.000000 1.000000 -60.708740 114.000000 10.000000 0.712327 -0.533000 -0.456620
10270.00000000 8950.00000000 290.00000000 218 221 36 97.000000 1.000000 4.000000 1.000000 -60.708740 114.000000 10.000000 0.954733 -0.051984 -0.292886
10290.00000000 8930.00000000 310.00000000 218 221 36 97.000000 1.000000 4.000000 1.000000 -60.708740 114.000000 10.000000 0.968729 -0.134368 -0.208590
10320.00000000 8960.00000000 180.00000000 218 221 36 97.000000 1.000000 4.000000 1.000000 -60.708740 114.000000 10.000000 0.621814 -0.402935 -0.671559
10290.00000000 8960.00000000 170.00000000 218 221 36 97.000000 1.000000 4.000000 1.000000 -60.708740 114.000000 10.000000 0.699946 -0.687585 -0.193142
10270.00000000 8950.00000000 160.00000000 218 221 36 97.000000 1.000000 4.000000 1.000000 -60.708740 114.000000 10.000000 0.976427 -0.003500 -0.215817
10290.00000000 8930.00000000 180.00000000 218 221 36 97.000000 1.000000 4.000000 1.000000 -60.708740 114.000000 10.000000 0.782529 -0.049707 -0.620627
10280.00000000 8970.00000000 190.00000000 218 221 36 97.000000 1.000000 4.000000 1.000000 -60.708740 114.000000 10.000000 -0.691395 0.527335 0.493853
10290.00000000 8960.00000000 210.00000000 218 221 36 97.000000 1.000000 4.000000 1.000000 -60.708740 114.000000 10.000000 0.857527 -0.435642 -0.273614
10270.00000000 8910.00000000 170.00000000 218 221 36 97.000000 1.000000 4.000000 1.000000 -60.708740 114.000000 10.000000 0.987754 0.153803 0.026203
10400.00000000 9040.00000000 130.00000000 218 221 36 97.000000 1.000000 4.000000 1.000000 -60.708740 114.000000 10.000000 -0.164376 0.966842 0.195439
10410.00000000 8980.00000000 130.00000000 218 221 36 97.000000 1.000000 4.000000 1.000000 -60.708740 114.000000 10.000000 0.629358 0.694746 0.348190
10400.00000000 9010.00000000 140.00000000 218 221 36 97.000000 1.000000 4.000000 1.000000 -60.708740 114.000000 10.000000 0.344820 0.847227 0.404110
10410.00000000 8980.00000000 130.00000000 218 221 36 97.000000 1.000000 4.000000 1.000000 -60.708740 114.000000 10.000000 0.629358 0.694746 0.348190
10410.00000000 8980.00000000 120.00000000 218 221 36 97.000000 1.000000 4.000000 1.000000 -60.708740 114.000000 10.000000 0.673706 0.727483 0.129961
10400.00000000 8980.00000000 80.00000000 218 221 36 97.000000 1.000000 4.000000 1.000000 -60.708740 114.000000 10.000000 0.783705 0.603887 -0.145352
10400.00000000 9030.00000000 40.00000000 218 221 36 97.000000 1.000000 4.000000 1.000000 -60.708740 114.000000 10.000000 0.365556 0.924159 0.110899
10430.00000000 8980.00000000 40.00000000 218 221 36 97.000000 1.000000 4.000000 1.000000 -60.708740 114.000000 10.000000 0.934461 0.273193 0.228361
10420.00000000 9000.00000000 60.00000000 218 221 36 97.000000 1.000000 4.000000 1.000000 -60.708740 114.000000 10.000000 0.599624 0.760153 -0.250237
10360.00000000 9030.00000000 60.00000000 218 221 36 97.000000 1.000000 4.000000 1.000000 -60.708740 114.000000 10.000000 -0.157588 0.969873 0.185775
10390.00000000 9030.00000000 -10.00000000 218 221 36 97.000000 1.000000 4.000000 1.000000 -60.708740 114.000000 10.000000 0.714953 0.654979 0.244631
10370.00000000 9020.00000000 0.00000000 218 221 36 97.000000 1.000000 4.000000 1.000000 -60.708740 114.000000 10.000000 0.462532 0.885729 -0.039336
10390.00000000 9000.00000000 60.00000000 218 221 36 97.000000 1.000000 4.000000 1.000000 -60.708740 114.000000 10.000000 0.441712 0.873014 0.206727
10390.00000000 9010.00000000 40.00000000 218 221 36 97.000000 1.000000 4.000000 1.000000 -60.708740 114.000000 10.000000 0.189361 0.946804 0.260201
10370.00000000 9000.00000000 10.00000000 218 221 36 97.000000 1.000000 4.000000 1.000000 -60.708740 114.000000 10.000000 0.553450 0.798394 0.237193
10390.00000000 9000.00000000 20.00000000 218 221 36 97.000000 1.000000 4.000000 1.000000 -60.708740 114.000000 10.000000 0.658802 0.718266 -0.223773
10430.00000000 8960.00000000 140.00000000 218 221 36 97.000000 1.000000 4.000000 1.000000 -60.708740 114.000000 10.000000 0.554047 0.800976 0.226866
10430.00000000 8920.00000000 130.00000000 218 221 36 97.000000 1.000000 4.000000 1.000000 -60.708740 114.000000 10.000000 0.820542 0.330430 -0.466397
10420.00000000 8970.00000000 70.00000000 218 221 36 97.000000 1.000000 4.000000 1.000000 -60.708740 114.000000 10.000000 0.731560 0.681775 0.001383
10430.00000000 8960.00000000 130.00000000 218 221 36 97.000000 1.000000 4.000000 1.000000 -60.708740 114.000000 10.000000 0.842234 0.535711 -0.060461
10420.00000000 8930.00000000 100.00000000 218 221 36 97.000000 1.000000 4.000000 1.000000 -60.708740 114.000000 10.000000 0.943709 0.013823 -0.330487
10420.00000000 8920.00000000 80.00000000 218 221 36 97.000000 1.000000 4.000000 1.000000 -60.708740 114.000000 10.000000 0.839253 -0.142570 -0.524717
10420.00000000 8940.00000000 60.00000000 218 221 36 97.000000 1.000000 4.000000 1.000000 -60.708740 114.000000 10.000000 0.992008 -0.005481 -0.126056
10410.00000000 8960.00000000 60.00000000 218 221 36 97.000000 1.000000 4.000000 1.000000 -60.708740 114.000000 10.000000 0.695073 0.676159 -0.244300
10430.00000000 8970.00000000 0.00000000 218 221 36 97.000000 1.000000 4.000000 1.000000 -60.708740 114.000000 10.000000 0.808064 0.395231 -0.436835
10410.00000000 8940.00000000 10.00000000 218 221 36 97.000000 1.000000 4.000000 1.000000 -60.708740 114.000000 10.000000 0.963188 0.001205 -0.268825
10410.00000000 8920.00000000 20.00000000 218 221 36 97.000000 1.000000 4.000000 1.000000 -60.708740 114.000000 10.000000 0.929860 -0.362128 -0.064997
10340.00000000 9030.00000000 110.00000000 218 221 36 97.000000 1.000000 4.000000 1.000000 -60.708740 114.000000 10.000000 -0.203510 0.962407 0.179877
10340.00000000 9030.00000000 120.00000000 218 221 36 97.000000 1.000000 4.000000 1.000000 -60.708740 114.000000 10.000000 0.037545 0.827377 0.560391
10350.00000000 9040.00000000 110.00000000 218 221 36 97.000000 1.000000 4.000000 1.000000 -60.708740 114.000000 10.000000 -0.356142 0.924306 0.137191
10330.00000000 9040.00000000 90.00000000 218 221 36 97.000000 1.000000 4.000000 1.000000 -60.708740 114.000000 10.000000 -0.058814 0.692854 0.718675
10310.00000000 9030.00000000 80.00000000 218 221 36 97.000000 1.000000 4.000000 1.000000 -60.708740 114.000000 10.000000 -0.632755 0.771125 0.070626
10330.00000000 9030.00000000 90.00000000 218 221 36 97.000000 1.000000 4.000000 1.000000 -60.708740 114.000000 10.000000 0.102373 0.942630 0.317755
10330.00000000 9050.00000000 80.00000000 218 221 36 97.000000 1.000000 4.000000 1.000000 -60.708740 114.000000 10.000000 -0.245169 0.854283 0.458359
10310.00000000 8990.00000000 130.00000000 218 221 36 97.000000 1.000000 4.000000 1.000000 -60.708740 114.000000 10.000000 -0.448840 0.669089 0.592336
10280.00000000 9030.00000000 70.00000000 218 221 36 97.000000 1.000000 4.000000 1.000000 -60.708740 114.000000 10.000000 -0.501456 0.669166 0.548415
10290.00000000 9030.00000000 100.00000000 218 221 36 97.000000 1.000000 4.000000 1.000000 -60.708740 114.000000 10.000000 -0.631399 0.765107 0.126280
10280.00000000 9010.00000000 110.00000000 218 221 36 97.000000 1.000000 4.000000 1.000000 -60.708740 114.000000 10.000000 -0.680349 0.624340 0.383829
10320.00000000 9060.00000000 40.00000000 218 221 36 97.000000 1.000000 4.000000 1.000000 -60.708740 114.000000 10.000000 -0.167989 0.979730 0.109131
10320.00000000 9050.00000000 60.00000000 218 221 36 97.000000 1.000000 4.000000 1.000000 -60.708740 114.000000 10.000000 -0.023766 0.761897 0.647263
10350.00000000 9050.00000000 60.00000000 218 221 36 97.000000 1.000000 4.000000 1.000000 -60.708740 114.000000 10.000000 -0.370304 0.919519 0.131756
10280.00000000 9030.00000000 40.00000000 218 221 36 97.000000 1.000000 4.000000 1.000000 -60.708740 114.000000 10.000000 -0.615667 0.581932 0.531329
10270.00000000 9030.00000000 30.00000000 218 221 36 97.000000 1.000000 4.000000 1.000000 -60.708740 114.000000 10.000000 -0.565746 0.747303 0.348525
10270.00000000 9000.00000000 -10.00000000 218 221 36 97.000000 1.000000 4.000000 1.000000 -60.708740 114.000000 10.000000 0.847235 -0.288585 -0.445995
10280.00000000 8930.00000000 90.00000000 218 221 36 97.000000 1.000000 4.000000 1.000000 -60.708740 114.000000 10.000000 0.934922 0.346120 -0.078242
10320.00000000 8900.00000000 0.00000000 218 221 36 97.000000 1.000000 4.000000 1.000000 -60.708740 114.000000 10.000000 0.416754 0.766501 0.488665
10400.00000000 8860.00000000 160.00000000 218 221 36 97.000000 1.000000 4.000000 1.000000 -60.708740 114.000000 10.000000 -0.486447 0.802239 0.346095
10430.00000000 8880.00000000 190.00000000 218 221 36 97.000000 1.000000 4.000000 1.000000 -60.708740 114.000000 10.000000 0.911587 -0.411057 0.006484
10420.00000000 8850.00000000 160.00000000 218 221 36 97.000000 1.000000 4.000000 1.000000 -60.708740 114.000000 10.000000 -0.423100 0.850850 0.311513
