//X Y Z R G B PointSourceId ScanDirectionFlag NumberOfReturns ReturnNumber GpsTime Intensity Classification Nx Ny Nz
-680.00000000 -21490.00000000 530.00000000 187 212 56 0.000000 0.000000 0.000000 0.000000 -60.708740 0.000000 139.000000 0.801779 -0.536082 -0.264134
-670.00000000 -21470.00000000 560.00000000 187 212 56 0.000000 0.000000 0.000000 0.000000 -60.708740 0.000000 139.000000 0.928563 -0.345288 0.136189
-660.00000000 -21470.00000000 530.00000000 187 212 56 0.000000 0.000000 0.000000 0.000000 -60.708740 0.000000 139.000000 0.951833 -0.134455 -0.275566
-650.00000000 -21490.00000000 530.00000000 187 212 56 0.000000 0.000000 0.000000 0.000000 -60.708740 0.000000 139.000000 0.980397 -0.003456 -0.197001
-670.00000000 -21490.00000000 510.00000000 187 212 56 0.000000 0.000000 0.000000 0.000000 -60.708740 0.000000 139.000000 0.858004 -0.493826 0.141301
-670.00000000 -21500.00000000 490.00000000 187 212 56 0.000000 0.000000 0.000000 0.000000 -60.708740 0.000000 139.000000 0.938321 -0.334069 -0.089174
-680.00000000 -21500.00000000 510.00000000 187 212 56 0.000000 0.000000 0.000000 0.000000 -60.708740 0.000000 139.000000 0.860782 -0.437247 -0.260520
-680.00000000 -21520.00000000 640.00000000 187 212 56 0.000000 0.000000 0.000000 0.000000 -60.708740 0.000000 139.000000 0.972510 0.005908 -0.232788
-670.00000000 -21540.00000000 650.00000000 187 212 56 0.000000 0.000000 0.000000 0.000000 -60.708740 0.000000 139.000000 0.752743 -0.654496 0.070795
-670.00000000 -21520.00000000 580.00000000 187 212 56 0.000000 0.000000 0.000000 0.000000 -60.708740 0.000000 139.000000 0.856842 -0.513552 0.045680
-680.00000000 -21570.00000000 640.00000000 187 212 56 0.000000 0.000000 0.000000 0.000000 -60.708740 0.000000 139.000000 0.757837 -0.495950 -0.423930
-680.00000000 -21560.00000000 630.00000000 187 212 56 0.000000 0.000000 0.000000 0.000000 -60.708740 0.000000 139.000000 0.825802 -0.440533 -0.352111
-680.00000000 -21560.00000000 570.00000000 187 212 56 0.000000 0.000000 0.000000 0.000000 -60.708740 0.000000 139.000000 0.914682 -0.355313 -0.192640
-680.00000000 -21550.00000000 560.00000000 187 212 56 0.000000 0.000000 0.000000 0.000000 -60.708740 0.000000 139.000000 0.819413 -0.320502 -0.475228
-680.00000000 -21530.00000000 520.00000000 187 212 56 0.000000 0.000000 0.000000 0.000000 -60.708740 0.000000 139.000000 0.891978 -0.235198 -0.386080
-670.00000000 -21440.00000000 460.00000000 187 212 56 0.000000 0.000000 0.000000 0.000000 -60.708740 0.000000 139.000000 0.964536 -0.186642 0.186642
-670.00000000 -21440.00000000 470.00000000 187 212 56 0.000000 0.000000 0.000000 0.000000 -60.708740 0.000000 139.000000 0.937611 -0.346647 -0.026862
-670.00000000 -21440.00000000 460.00000000 187 212 56 0.000000 0.000000 0.000000 0.000000 -60.708740 0.000000 139.000000 0.964536 -0.186642 0.186642
-680.00000000 -21450.00000000 480.00000000 187 212 56 0.000000 0.000000 0.000000 0.000000 -60.708740 0.000000 139.000000 0.897106 -0.286184 -0.336600
-680.00000000 -21430.00000000 430.00000000 187 212 56 0.000000 0.000000 0.000000 0.000000 -60.708740 0.000000 139.000000 0.956226 -0.284698 -0.067664
-660.00000000 -21450.00000000 420.00000000 187 212 56 0.000000 0.000000 0.000000 0.000000 -60.708740 0.000000 139.000000 0.974743 -0.212114 0.069887
-660.00000000 -21430.00000000 420.00000000 187 212 56 0.000000 0.000000 0.000000 0.000000 -60.708740 0.000000 139.000000 0.913753 -0.115086 0.389628
-680.00000000 -21450.00000000 420.00000000 187 212 56 0.000000 0.000000 0.000000 0.000000 -60.708740 0.000000 139.000000 0.861683 -0.328334 -0.386910
-660.00000000 -21450.00000000 420.00000000 187 212 56 0.000000 0.000000 0.000000 0.000000 -60.708740 0.000000 139.000000 0.974743 -0.212114 0.069887
-660.00000000 -21480.00000000 480.00000000 187 212 56 0.000000 0.000000 0.000000 0.000000 -60.708740 0.000000 139.000000 0.731944 -0.676648 0.080034
-680.00000000 -21500.00000000 450.00000000 187 212 56 0.000000 0.000000 0.000000 0.000000 -60.708740 0.000000 139.000000 0.885644 -0.383829 -0.261362
-680.00000000 -21470.00000000 420.00000000 187 212 56 0.000000 0.000000 0.000000 0.000000 -60.708740 0.000000 139.000000 0.706855 -0.706855 0.026700
-670.00000000 -21500.00000000 410.00000000 187 212 56 0.000000 0.000000 0.000000 0.000000 -60.708740 0.000000 139.000000 0.741079 -0.670768 0.029531
-670.00000000 -21490.00000000 410.00000000 187 212 56 0.000000 0.000000 0.000000 0.000000 -60.708740 0.000000 139.000000 -0.675923 0.669471 0.308118
-680.00000000 -21470.00000000 420.00000000 187 212 56 0.000000 0.000000 0.000000 0.000000 -60.708740 0.000000 139.000000 0.706855 -0.706855 0.026700
-680.00000000 -21470.00000000 420.00000000 187 212 56 0.000000 0.000000 0.000000 0.000000 -60.708740 0.000000 139.000000 0.706855 -0.706855 0.026700
-680.00000000 -21500.00000000 410.00000000 187 212 56 0.000000 0.000000 0.000000 0.000000 -60.708740 0.000000 139.000000 -0.460443 0.887520 0.017350
-640.00000000 -21450.00000000 370.00000000 187 212 56 0.000000 0.000000 0.000000 0.000000 -60.708740 0.000000 139.000000 0.872953 -0.471595 0.124708
-640.00000000 -21450.00000000 370.00000000 187 212 56 0.000000 0.000000 0.000000 0.000000 -60.708740 0.000000 139.000000 0.872953 -0.471595 0.124708
-670.00000000 -21440.00000000 320.00000000 187 212 56 0.000000 0.000000 0.000000 0.000000 -60.708740 0.000000 139.000000 0.774014 -0.614703 -0.151797
-660.00000000 -21460.00000000 340.00000000 187 212 56 0.000000 0.000000 0.000000 0.000000 -60.708740 0.000000 139.000000 -0.526777 0.849685 0.023260
-670.00000000 -21450.00000000 350.00000000 187 212 56 0.000000 0.000000 0.000000 0.000000 -60.708740 0.000000 139.000000 0.908342 -0.406617 -0.097864
-660.00000000 -21430.00000000 320.00000000 187 212 56 0.000000 0.000000 0.000000 0.000000 -60.708740 0.000000 139.000000 0.994194 -0.107334 0.007589
-680.00000000 -21450.00000000 320.00000000 187 212 56 0.000000 0.000000 0.000000 0.000000 -60.708740 0.000000 139.000000 0.935477 -0.337848 -0.103643
-640.00000000 -21450.00000000 330.00000000 187 212 56 0.000000 0.000000 0.000000 0.000000 -60.708740 0.000000 139.000000 -0.768575 0.571260 -0.288017
-680.00000000 -21430.00000000 350.00000000 187 212 56 0.000000 0.000000 0.000000 0.000000 -60.708740 0.000000 139.000000 0.990944 -0.129646 0.034948
-680.00000000 -21450.00000000 330.00000000 187 212 56 0.000000 0.000000 0.000000 0.000000 -60.708740 0.000000 139.000000 0.964975 -0.245376 -0.092811
-670.00000000 -21490.00000000 370.00000000 187 212 56 0.000000 0.000000 0.000000 0.000000 -60.708740 0.000000 139.000000 0.632391 -0.622326 -0.461293
-660.00000000 -21480.00000000 360.00000000 187 212 56 0.000000 0.000000 0.000000 0.000000 -60.708740 0.000000 139.000000 0.739036 -0.669616 -0.073759
-680.00000000 -21490.00000000 400.00000000 187 212 56 0.000000 0.000000 0.000000 0.000000 -60.708740 0.000000 139.000000 -0.454518 0.878735 0.145734
-670.00000000 -21510.00000000 390.00000000 187 212 56 0.000000 0.000000 0.000000 0.000000 -60.708740 0.000000 139.000000 0.774410 -0.610739 0.165187
-660.00000000 -21480.00000000 360.00000000 187 212 56 0.000000 0.000000 0.000000 0.000000 -60.708740 0.000000 139.000000 0.739036 -0.669616 -0.073759
-660.00000000 -21480.00000000 370.00000000 187 212 56 0.000000 0.000000 0.000000 0.000000 -60.708740 0.000000 139.000000 -0.618652 0.779531 -0.097990
-670.00000000 -21500.00000000 330.00000000 187 212 56 0.000000 0.000000 0.000000 0.000000 -60.708740 0.000000 139.000000 0.889117 -0.450800 -0.079063
-670.00000000 -21480.00000000 320.00000000 187 212 56 0.000000 0.000000 0.000000 0.000000 -60.708740 0.000000 139.000000 0.821872 -0.568774 0.031985
-670.00000000 -21480.00000000 320.00000000 187 212 56 0.000000 0.000000 0.000000 0.000000 -60.708740 0.000000 139.000000 0.821872 -0.568774 0.031985
-670.00000000 -21530.00000000 450.00000000 187 212 56 0.000000 0.000000 0.000000 0.000000 -60.708740 0.000000 139.000000 -0.561857 0.808894 -0.173227
-670.00000000 -21530.00000000 420.00000000 187 212 56 0.000000 0.000000 0.000000 0.000000 -60.708740 0.000000 139.000000 -0.569924 0.818462 0.072847
-680.00000000 -21410.00000000 290.00000000 187 212 56 0.000000 0.000000 0.000000 0.000000 -60.708740 0.000000 139.000000 0.985226 -0.152941 -0.077063
-640.00000000 -21410.00000000 290.00000000 187 212 56 0.000000 0.000000 0.000000 0.000000 -60.708740 0.000000 139.000000 0.985237 -0.167872 -0.033574
-650.00000000 -21400.00000000 310.00000000 187 212 56 0.000000 0.000000 0.000000 0.000000 -60.708740 0.000000 139.000000 0.997514 -0.005245 -0.070277
-640.00000000 -21370.00000000 180.00000000 187 212 56 0.000000 0.000000 0.000000 0.000000 -60.708740 0.000000 139.000000 0.859300 -0.438044 -0.264048
-650.00000000 -21400.00000000 230.00000000 187 212 56 0.000000 0.000000 0.000000 0.000000 -60.708740 0.000000 139.000000 0.797947 -0.573002 0.186948
-650.00000000 -21410.00000000 230.00000000 187 212 56 0.000000 0.000000 0.000000 0.000000 -60.708740 0.000000 139.000000 0.629859 -0.606344 -0.485411
-650.00000000 -21400.00000000 230.00000000 187 212 56 0.000000 0.000000 0.000000 0.000000 -60.708740 0.000000 139.000000 0.797947 -0.573002 0.186948
-640.00000000 -21420.00000000 190.00000000 187 212 56 0.000000 0.000000 0.000000 0.000000 -60.708740 0.000000 139.000000 0.845682 -0.533177 -0.023301
-650.00000000 -21420.00000000 150.00000000 187 212 56 0.000000 0.000000 0.000000 0.000000 -60.708740 0.000000 139.000000 -0.338286 0.939685 0.050549
-670.00000000 -21310.00000000 -10.00000000 187 212 56 0.000000 0.000000 0.000000 0.000000 -60.708740 0.000000 139.000000 -0.723123 0.616829 0.310830
-680.00000000 -21380.00000000 110.00000000 187 212 56 0.000000 0.000000 0.000000 0.000000 -60.708740 0.000000 139.000000 -0.440652 0.741022 0.506668
-670.00000000 -21410.00000000 140.00000000 187 212 56 0.000000 0.000000 0.000000 0.000000 -60.708740 0.000000 139.000000 -0.482871 0.764409 0.427218
-680.00000000 -21420.00000000 30.00000000 187 212 56 0.000000 0.000000 0.000000 0.000000 -60.708740 0.000000 139.000000 -0.112079 0.993178 0.032181
-660.00000000 -21410.00000000 -10.00000000 187 212 56 0.000000 0.000000 0.000000 0.000000 -60.708740 0.000000 139.000000 0.545423 -0.676324 -0.495076
-660.00000000 -21410.00000000 -10.00000000 187 212 56 0.000000 0.000000 0.000000 0.000000 -60.708740 0.000000 139.000000 0.545423 -0.676324 -0.495076
-670.00000000 -21410.00000000 -10.00000000 187 212 56 0.000000 0.000000 0.000000 0.000000 -60.708740 0.000000 139.000000 -0.382163 0.924094 -0.001278
-660.00000000 -21460.00000000 290.00000000 187 212 56 0.000000 0.000000 0.000000 0.000000 -60.708740 0.000000 139.000000 0.850788 -0.524721 0.028771
-670.00000000 -21440.00000000 310.00000000 187 212 56 0.000000 0.000000 0.000000 0.000000 -60.708740 0.000000 139.000000 -0.545708 0.800683 0.247201
-680.00000000 -21450.00000000 310.00000000 187 212 56 0.000000 0.000000 0.000000 0.000000 -60.708740 0.000000 139.000000 0.922010 -0.344874 -0.175956
-660.00000000 -21450.00000000 270.00000000 187 212 56 0.000000 0.000000 0.000000 0.000000 -60.708740 0.000000 139.000000 0.818396 -0.533870 -0.212630
-660.00000000 -21460.00000000 250.00000000 187 212 56 0.000000 0.000000 0.000000 0.000000 -60.708740 0.000000 139.000000 0.849818 -0.460892 -0.255711
-660.00000000 -21480.00000000 290.00000000 187 212 56 0.000000 0.000000 0.000000 0.000000 -60.708740 0.000000 139.000000 0.785955 -0.485775 -0.382487
-640.00000000 -21490.00000000 310.00000000 187 212 56 0.000000 0.000000 0.000000 0.000000 -60.708740 0.000000 139.000000 -0.605456 0.795782 0.012413
-660.00000000 -21480.00000000 280.00000000 187 212 56 0.000000 0.000000 0.000000 0.000000 -60.708740 0.000000 139.000000 0.696236 -0.509237 -0.505898
-680.00000000 -21510.00000000 290.00000000 187 212 56 0.000000 0.000000 0.000000 0.000000 -60.708740 0.000000 139.000000 -0.535448 0.773425 0.339278
-660.00000000 -21480.00000000 280.00000000 187 212 56 0.000000 0.000000 0.000000 0.000000 -60.708740 0.000000 139.000000 0.696236 -0.509237 -0.505898
-650.00000000 -21500.00000000 270.00000000 187 212 56 0.000000 0.000000 0.000000 0.000000 -60.708740 0.000000 139.000000 -0.451583 0.842645 0.293296
-650.00000000 -21480.00000000 260.00000000 187 212 56 0.000000 0.000000 0.000000 0.000000 -60.708740 0.000000 139.000000 -0.576932 0.798013 0.174140
-660.00000000 -21480.00000000 250.00000000 187 212 56 0.000000 0.000000 0.000000 0.000000 -60.708740 0.000000 139.000000 -0.356165 0.897063 0.261582
-650.00000000 -21480.00000000 260.00000000 187 212 56 0.000000 0.000000 0.000000 0.000000 -60.708740 0.000000 139.000000 -0.576932 0.798013 0.174140
-640.00000000 -21470.00000000 260.00000000 187 212 56 0.000000 0.000000 0.000000 0.000000 -60.708740 0.000000 139.000000 0.895734 -0.444588 0.001311
-660.00000000 -21480.00000000 250.00000000 187 212 56 0.000000 0.000000 0.000000 0.000000 -60.708740 0.000000 139.000000 -0.356165 0.897063 0.261582
-670.00000000 -21440.00000000 210.00000000 187 212 56 0.000000 0.000000 0.000000 0.000000 -60.708740 0.000000 139.000000 -0.440356 0.897799 0.006572
-640.00000000 -21470.00000000 210.00000000 187 212 56 0.000000 0.000000 0.000000 0.000000 -60.708740 0.000000 139.000000 0.873281 -0.484237 -0.053804
-640.00000000 -21470.00000000 210.00000000 187 212 56 0.000000 0.000000 0.000000 0.000000 -60.708740 0.000000 139.000000 0.873281 -0.484237 -0.053804
-670.00000000 -21470.00000000 230.00000000 187 212 56 0.000000 0.000000 0.000000 0.000000 -60.708740 0.000000 139.000000 0.724949 -0.688631 0.015365
-680.00000000 -21510.00000000 190.00000000 187 212 56 0.000000 0.000000 0.000000 0.000000 -60.708740 0.000000 139.000000 0.659646 -0.582435 -0.475012
-680.00000000 -21470.00000000 170.00000000 187 212 56 0.000000 0.000000 0.000000 0.000000 -60.708740 0.000000 139.000000 0.766955 -0.621733 -0.158837
-680.00000000 -21470.00000000 160.00000000 187 212 56 0.000000 0.000000 0.000000 0.000000 -60.708740 0.000000 139.000000 -0.325865 0.695503 0.640381
-650.00000000 -21480.00000000 180.00000000 187 212 56 0.000000 0.000000 0.000000 0.000000 -60.708740 0.000000 139.000000 0.799672 -0.510327 -0.316371
-680.00000000 -21540.00000000 280.00000000 187 212 56 0.000000 0.000000 0.000000 0.000000 -60.708740 0.000000 139.000000 0.449467 -0.676706 -0.583137
-670.00000000 -21530.00000000 280.00000000 187 212 56 0.000000 0.000000 0.000000 0.000000 -60.708740 0.000000 139.000000 0.750535 -0.641366 -0.159204
-670.00000000 -21530.00000000 280.00000000 187 212 56 0.000000 0.000000 0.000000 0.000000 -60.708740 0.000000 139.000000 0.750535 -0.641366 -0.159204
-680.00000000 -21530.00000000 240.00000000 187 212 56 0.000000 0.000000 0.000000 0.000000 -60.708740 0.000000 139.000000 -0.481478 0.870638 0.100841
-680.00000000 -21540.00000000 270.00000000 187 212 56 0.000000 0.000000 0.000000 0.000000 -60.708740 0.000000 139.000000 -0.560575 0.740351 0.370993
-640.00000000 -21530.00000000 270.00000000 187 212 56 0.000000 0.000000 0.000000 0.000000 -60.708740 0.000000 139.000000 -0.632553 0.752018 -0.185324
-680.00000000 -21520.00000000 220.00000000 187 212 56 0.000000 0.000000 0.000000 0.000000 -60.708740 0.000000 139.000000 -0.354844 0.788364 0.502562
-670.00000000 -21520.00000000 170.00000000 187 212 56 0.000000 0.000000 0.000000 0.000000 -60.708740 0.000000 139.000000 -0.649216 0.588824 0.481460
-680.00000000 -21520.00000000 220.00000000 187 212 56 0.000000 0.000000 0.000000 0.000000 -60.708740 0.000000 139.000000 -0.354844 0.788364 0.502562
-670.00000000 -21520.00000000 230.00000000 187 212 56 0.000000 0.000000 0.000000 0.000000 -60.708740 0.000000 139.000000 -0.713280 0.666457 0.216950
-670.00000000 -21460.00000000 110.00000000 187 212 56 0.000000 0.000000 0.000000 0.000000 -60.708740 0.000000 139.000000 -0.472590 0.745935 0.469297
-660.00000000 -21460.00000000 120.00000000 187 212 56 0.000000 0.000000 0.000000 0.000000 -60.708740 0.000000 139.000000 0.789859 -0.562404 -0.244591
-660.00000000 -21460.00000000 110.00000000 187 212 56 0.000000 0.000000 0.000000 0.000000 -60.708740 0.000000 139.000000 0.745037 -0.629938 -0.219312
-670.00000000 -21440.00000000 130.00000000 187 212 56 0.000000 0.000000 0.000000 0.000000 -60.708740 0.000000 139.000000 -0.519578 0.763893 0.382761
-670.00000000 -21430.00000000 120.00000000 187 212 56 0.000000 0.000000 0.000000 0.000000 -60.708740 0.000000 139.000000 0.805527 -0.587273 -0.078973
-660.00000000 -21460.00000000 130.00000000 187 212 56 0.000000 0.000000 0.000000 0.000000 -60.708740 0.000000 139.000000 -0.432282 0.894133 -0.116871
-660.00000000 -21460.00000000 100.00000000 187 212 56 0.000000 0.000000 0.000000 0.000000 -60.708740 0.000000 139.000000 -0.652239 0.749853 0.110925
-670.00000000 -21460.00000000 90.00000000 187 212 56 0.000000 0.000000 0.000000 0.000000 -60.708740 0.000000 139.000000 -0.509528 0.841245 0.180800
-660.00000000 -21460.00000000 90.00000000 187 212 56 0.000000 0.000000 0.000000 0.000000 -60.708740 0.000000 139.000000 -0.486026 0.873769 0.017502
-670.00000000 -21460.00000000 90.00000000 187 212 56 0.000000 0.000000 0.000000 0.000000 -60.708740 0.000000 139.000000 -0.509528 0.841245 0.180800
-670.00000000 -21470.00000000 120.00000000 187 212 56 0.000000 0.000000 0.000000 0.000000 -60.708740 0.000000 139.000000 -0.551903 0.802346 0.227254
-710.00000000 -21400.00000000 590.00000000 187 212 56 0.000000 0.000000 0.000000 0.000000 -60.708740 0.000000 139.000000 0.584843 0.811146 -0.001363
-710.00000000 -21400.00000000 590.00000000 187 212 56 0.000000 0.000000 0.000000 0.000000 -60.708740 0.000000 139.000000 0.584843 0.811146 -0.001363
-710.00000000 -21400.00000000 590.00000000 187 212 56 0.000000 0.000000 0.000000 0.000000 -60.708740 0.000000 139.000000 0.584843 0.811146 -0.001363
-750.00000000 -21380.00000000 620.00000000 187 212 56 0.000000 0.000000 0.000000 0.000000 -60.708740 0.000000 139.000000 0.312887 0.921516 0.230022
-760.00000000 -21400.00000000 630.00000000 187 212 56 0.000000 0.000000 0.000000 0.000000 -60.708740 0.000000 139.000000 0.216282 0.928742 0.301099
-740.00000000 -21410.00000000 640.00000000 187 212 56 0.000000 0.000000 0.000000 0.000000 -60.708740 0.000000 139.000000 0.416984 0.885538 0.204808
-760.00000000 -21390.00000000 580.00000000 187 212 56 0.000000 0.000000 0.000000 0.000000 -60.708740 0.000000 139.000000 0.044955 0.987860 0.148698
-730.00000000 -21400.00000000 600.00000000 187 212 56 0.000000 0.000000 0.000000 0.000000 -60.708740 0.000000 139.000000 0.356056 0.850492 0.387153
-730.00000000 -21400.00000000 570.00000000 187 212 56 0.000000 0.000000 0.000000 0.000000 -60.708740 0.000000 139.000000 0.554593 0.490924 0.671878
-730.00000000 -21390.00000000 590.00000000 187 212 56 0.000000 0.000000 0.000000 0.000000 -60.708740 0.000000 139.000000 0.381063 0.922784 0.057093
-740.00000000 -21400.00000000 610.00000000 187 212 56 0.000000 0.000000 0.000000 0.000000 -60.708740 0.000000 139.000000 0.443026 0.653672 0.613549
-710.00000000 -21360.00000000 560.00000000 187 212 56 0.000000 0.000000 0.000000 0.000000 -60.708740 0.000000 139.000000 0.371772 0.715702 0.591232
-690.00000000 -21380.00000000 490.00000000 187 212 56 0.000000 0.000000 0.000000 0.000000 -60.708740 0.000000 139.000000 0.736332 0.289102 0.611747
-690.00000000 -21390.00000000 510.00000000 187 212 56 0.000000 0.000000 0.000000 0.000000 -60.708740 0.000000 139.000000 0.981139 0.191070 -0.029305
-710.00000000 -21410.00000000 520.00000000 187 212 56 0.000000 0.000000 0.000000 0.000000 -60.708740 0.000000 139.000000 0.961483 0.059226 0.268409
-690.00000000 -21390.00000000 510.00000000 187 212 56 0.000000 0.000000 0.000000 0.000000 -60.708740 0.000000 139.000000 0.981139 0.191070 -0.029305
-740.00000000 -21380.00000000 560.00000000 187 212 56 0.000000 0.000000 0.000000 0.000000 -60.708740 0.000000 139.000000 0.171152 0.840875 0.513455
-740.00000000 -21380.00000000 560.00000000 187 212 56 0.000000 0.000000 0.000000 0.000000 -60.708740 0.000000 139.000000 0.171152 0.840875 0.513455
-760.00000000 -21350.00000000 530.00000000 187 212 56 0.000000 0.000000 0.000000 0.000000 -60.708740 0.000000 139.000000 -0.123976 0.975530 0.181581
-750.00000000 -21360.00000000 490.00000000 187 212 56 0.000000 0.000000 0.000000 0.000000 -60.708740 0.000000 139.000000 0.070626 0.771125 0.632755
-750.00000000 -21360.00000000 490.00000000 187 212 56 0.000000 0.000000 0.000000 0.000000 -60.708740 0.000000 139.000000 0.070626 0.771125 0.632755
-750.00000000 -21350.00000000 510.00000000 187 212 56 0.000000 0.000000 0.000000 0.000000 -60.708740 0.000000 139.000000 0.253099 0.771872 0.583227
-810.00000000 -21340.00000000 530.00000000 187 212 56 0.000000 0.000000 0.000000 0.000000 -60.708740 0.000000 139.000000 -0.134322 0.961120 0.241258
-790.00000000 -21380.00000000 650.00000000 187 212 56 0.000000 0.000000 0.000000 0.000000 -60.708740 0.000000 139.000000 -0.030452 0.909581 0.414409
-800.00000000 -21370.00000000 630.00000000 187 212 56 0.000000 0.000000 0.000000 0.000000 -60.708740 0.000000 139.000000 -0.369180 0.898682 0.236805
-790.00000000 -21380.00000000 610.00000000 187 212 56 0.000000 0.000000 0.000000 0.000000 -60.708740 0.000000 139.000000 -0.078099 0.995488 0.053899
-780.00000000 -21420.00000000 640.00000000 187 212 56 0.000000 0.000000 0.000000 0.000000 -60.708740 0.000000 139.000000 -0.138989 0.970370 0.197644
-790.00000000 -21400.00000000 640.00000000 187 212 56 0.000000 0.000000 0.000000 0.000000 -60.708740 0.000000 139.000000 -0.059699 0.998124 -0.013616
-800.00000000 -21400.00000000 630.00000000 187 212 56 0.000000 0.000000 0.000000 0.000000 -60.708740 0.000000 139.000000 -0.075415 0.989682 0.121825
-770.00000000 -21400.00000000 610.00000000 187 212 56 0.000000 0.000000 0.000000 0.000000 -60.708740 0.000000 139.000000 0.287908 0.956759 0.041489
-800.00000000 -21400.00000000 610.00000000 187 212 56 0.000000 0.000000 0.000000 0.000000 -60.708740 0.000000 139.000000 -0.140574 0.937612 0.317997
-780.00000000 -21400.00000000 590.00000000 187 212 56 0.000000 0.000000 0.000000 0.000000 -60.708740 0.000000 139.000000 0.106567 0.964239 0.242665
-810.00000000 -21370.00000000 620.00000000 187 212 56 0.000000 0.000000 0.000000 0.000000 -60.708740 0.000000 139.000000 -0.013769 0.947587 0.319200
-840.00000000 -21420.00000000 650.00000000 187 212 56 0.000000 0.000000 0.000000 0.000000 -60.708740 0.000000 139.000000 -0.526222 0.832060 0.175407
-810.00000000 -21410.00000000 650.00000000 187 212 56 0.000000 0.000000 0.000000 0.000000 -60.708740 0.000000 139.000000 -0.125978 0.893167 0.431721
-810.00000000 -21400.00000000 630.00000000 187 212 56 0.000000 0.000000 0.000000 0.000000 -60.708740 0.000000 139.000000 -0.505188 0.858961 0.083490
-830.00000000 -21410.00000000 650.00000000 187 212 56 0.000000 0.000000 0.000000 0.000000 -60.708740 0.000000 139.000000 0.651635 -0.628303 -0.424979
-830.00000000 -21410.00000000 650.00000000 187 212 56 0.000000 0.000000 0.000000 0.000000 -60.708740 0.000000 139.000000 0.651635 -0.628303 -0.424979
-840.00000000 -21420.00000000 620.00000000 187 212 56 0.000000 0.000000 0.000000 0.000000 -60.708740 0.000000 139.000000 -0.488385 0.813974 0.314526
-830.00000000 -21420.00000000 630.00000000 187 212 56 0.000000 0.000000 0.000000 0.000000 -60.708740 0.000000 139.000000 -0.599283 0.731740 0.324679
-830.00000000 -21410.00000000 620.00000000 187 212 56 0.000000 0.000000 0.000000 0.000000 -60.708740 0.000000 139.000000 -0.580329 0.784605 0.218204
-830.00000000 -21410.00000000 650.00000000 187 212 56 0.000000 0.000000 0.000000 0.000000 -60.708740 0.000000 139.000000 0.651635 -0.628303 -0.424979
-810.00000000 -21410.00000000 650.00000000 187 212 56 0.000000 0.000000 0.000000 0.000000 -60.708740 0.000000 139.000000 -0.125978 0.893167 0.431721
-820.00000000 -21390.00000000 610.00000000 187 212 56 0.000000 0.000000 0.000000 0.000000 -60.708740 0.000000 139.000000 -0.334900 0.922741 0.190766
-830.00000000 -21410.00000000 590.00000000 187 212 56 0.000000 0.000000 0.000000 0.000000 -60.708740 0.000000 139.000000 -0.167867 0.899597 0.403169
-810.00000000 -21390.00000000 570.00000000 187 212 56 0.000000 0.000000 0.000000 0.000000 -60.708740 0.000000 139.000000 -0.417513 0.754798 0.505928
-830.00000000 -21390.00000000 580.00000000 187 212 56 0.000000 0.000000 0.000000 0.000000 -60.708740 0.000000 139.000000 -0.478619 0.875387 -0.067978
-810.00000000 -21390.00000000 570.00000000 187 212 56 0.000000 0.000000 0.000000 0.000000 -60.708740 0.000000 139.000000 -0.417513 0.754798 0.505928
-840.00000000 -21410.00000000 600.00000000 187 212 56 0.000000 0.000000 0.000000 0.000000 -60.708740 0.000000 139.000000 0.566709 -0.696337 -0.440404
-830.00000000 -21420.00000000 600.00000000 187 212 56 0.000000 0.000000 0.000000 0.000000 -60.708740 0.000000 139.000000 -0.569417 0.819335 0.066740
-840.00000000 -21390.00000000 570.00000000 187 212 56 0.000000 0.000000 0.000000 0.000000 -60.708740 0.000000 139.000000 -0.264142 0.954361 0.139371
-830.00000000 -21410.00000000 580.00000000 187 212 56 0.000000 0.000000 0.000000 0.000000 -60.708740 0.000000 139.000000 -0.298688 0.896065 0.328409
-780.00000000 -21350.00000000 560.00000000 187 212 56 0.000000 0.000000 0.000000 0.000000 -60.708740 0.000000 139.000000 -0.071820 0.977483 0.198418
-800.00000000 -21380.00000000 560.00000000 187 212 56 0.000000 0.000000 0.000000 0.000000 -60.708740 0.000000 139.000000 -0.225960 0.941268 0.250912
-780.00000000 -21380.00000000 560.00000000 187 212 56 0.000000 0.000000 0.000000 0.000000 -60.708740 0.000000 139.000000 -0.293817 0.921583 0.253686
-790.00000000 -21370.00000000 520.00000000 187 212 56 0.000000 0.000000 0.000000 0.000000 -60.708740 0.000000 139.000000 -0.216716 0.841099 0.495567
-790.00000000 -21370.00000000 520.00000000 187 212 56 0.000000 0.000000 0.000000 0.000000 -60.708740 0.000000 139.000000 -0.216716 0.841099 0.495567
-800.00000000 -21370.00000000 510.00000000 187 212 56 0.000000 0.000000 0.000000 0.000000 -60.708740 0.000000 139.000000 -0.380787 0.923640 0.043481
-790.00000000 -21360.00000000 510.00000000 187 212 56 0.000000 0.000000 0.000000 0.000000 -60.708740 0.000000 139.000000 0.149491 -0.693095 -0.705175
-780.00000000 -21370.00000000 500.00000000 187 212 56 0.000000 0.000000 0.000000 0.000000 -60.708740 0.000000 139.000000 -0.115199 0.986914 0.112824
-790.00000000 -21360.00000000 510.00000000 187 212 56 0.000000 0.000000 0.000000 0.000000 -60.708740 0.000000 139.000000 0.149491 -0.693095 -0.705175
-780.00000000 -21360.00000000 490.00000000 187 212 56 0.000000 0.000000 0.000000 0.000000 -60.708740 0.000000 139.000000 -0.084931 0.816204 0.571487
-800.00000000 -21400.00000000 560.00000000 187 212 56 0.000000 0.000000 0.000000 0.000000 -60.708740 0.000000 139.000000 -0.355196 0.760671 0.543337
-810.00000000 -21370.00000000 520.00000000 187 212 56 0.000000 0.000000 0.000000 0.000000 -60.708740 0.000000 139.000000 -0.127153 0.991346 0.032632
-810.00000000 -21400.00000000 560.00000000 187 212 56 0.000000 0.000000 0.000000 0.000000 -60.708740 0.000000 139.000000 -0.420443 0.653099 0.629833
-820.00000000 -21390.00000000 530.00000000 187 212 56 0.000000 0.000000 0.000000 0.000000 -60.708740 0.000000 139.000000 -0.211504 0.977171 0.020087
-820.00000000 -21390.00000000 530.00000000 187 212 56 0.000000 0.000000 0.000000 0.000000 -60.708740 0.000000 139.000000 -0.211504 0.977171 0.020087
-830.00000000 -21390.00000000 530.00000000 187 212 56 0.000000 0.000000 0.000000 0.000000 -60.708740 0.000000 139.000000 -0.300473 0.942207 0.148197
-840.00000000 -21400.00000000 540.00000000 187 212 56 0.000000 0.000000 0.000000 0.000000 -60.708740 0.000000 139.000000 -0.637826 0.759741 -0.126376
-820.00000000 -21390.00000000 530.00000000 187 212 56 0.000000 0.000000 0.000000 0.000000 -60.708740 0.000000 139.000000 -0.211504 0.977171 0.020087
-810.00000000 -21390.00000000 540.00000000 187 212 56 0.000000 0.000000 0.000000 0.000000 -60.708740 0.000000 139.000000 -0.206497 0.976937 0.054341
-820.00000000 -21390.00000000 560.00000000 187 212 56 0.000000 0.000000 0.000000 0.000000 -60.708740 0.000000 139.000000 -0.223786 0.945940 0.234769
-810.00000000 -21390.00000000 490.00000000 187 212 56 0.000000 0.000000 0.000000 0.000000 -60.708740 0.000000 139.000000 0.726400 -0.672258 -0.142874
-830.00000000 -21400.00000000 490.00000000 187 212 56 0.000000 0.000000 0.000000 0.000000 -60.708740 0.000000 139.000000 -0.710761 0.667022 -0.223382
-840.00000000 -21400.00000000 520.00000000 187 212 56 0.000000 0.000000 0.000000 0.000000 -60.708740 0.000000 139.000000 0.843937 -0.489392 -0.219696
-700.00000000 -21380.00000000 450.00000000 187 212 56 0.000000 0.000000 0.000000 0.000000 -60.708740 0.000000 139.000000 0.857513 0.489798 -0.157382
-700.00000000 -21380.00000000 450.00000000 187 212 56 0.000000 0.000000 0.000000 0.000000 -60.708740 0.000000 139.000000 0.857513 0.489798 -0.157382
-690.00000000 -21360.00000000 440.00000000 187 212 56 0.000000 0.000000 0.000000 0.000000 -60.708740 0.000000 139.000000 0.977740 0.206531 -0.037008
-700.00000000 -21400.00000000 420.00000000 187 212 56 0.000000 0.000000 0.000000 0.000000 -60.708740 0.000000 139.000000 0.970012 -0.236016 -0.058077
-750.00000000 -21360.00000000 480.00000000 187 212 56 0.000000 0.000000 0.000000 0.000000 -60.708740 0.000000 139.000000 0.391405 0.649039 0.652342
-700.00000000 -21380.00000000 350.00000000 187 212 56 0.000000 0.000000 0.000000 0.000000 -60.708740 0.000000 139.000000 0.993255 0.091529 0.071189
-700.00000000 -21380.00000000 320.00000000 187 212 56 0.000000 0.000000 0.000000 0.000000 -60.708740 0.000000 139.000000 0.980680 -0.180174 -0.076181
-710.00000000 -21370.00000000 350.00000000 187 212 56 0.000000 0.000000 0.000000 0.000000 -60.708740 0.000000 139.000000 0.893327 0.438998 -0.096162
-710.00000000 -21420.00000000 400.00000000 187 212 56 0.000000 0.000000 0.000000 0.000000 -60.708740 0.000000 139.000000 0.985295 0.084386 -0.148567
-740.00000000 -21380.00000000 330.00000000 187 212 56 0.000000 0.000000 0.000000 0.000000 -60.708740 0.000000 139.000000 0.950390 -0.298545 0.087347
-760.00000000 -21390.00000000 330.00000000 187 212 56 0.000000 0.000000 0.000000 0.000000 -60.708740 0.000000 139.000000 -0.106894 0.798044 0.593042
-780.00000000 -21330.00000000 330.00000000 187 212 56 0.000000 0.000000 0.000000 0.000000 -60.708740 0.000000 139.000000 -0.217610 0.923065 0.317170
-770.00000000 -21350.00000000 480.00000000 187 212 56 0.000000 0.000000 0.000000 0.000000 -60.708740 0.000000 139.000000 -0.241853 0.946917 0.211792
-790.00000000 -21360.00000000 460.00000000 187 212 56 0.000000 0.000000 0.000000 0.000000 -60.708740 0.000000 139.000000 -0.237306 0.970126 0.050412
-800.00000000 -21350.00000000 480.00000000 187 212 56 0.000000 0.000000 0.000000 0.000000 -60.708740 0.000000 139.000000 -0.164934 0.986194 0.014787
-800.00000000 -21380.00000000 410.00000000 187 212 56 0.000000 0.000000 0.000000 0.000000 -60.708740 0.000000 139.000000 0.768539 -0.471566 -0.432405
-770.00000000 -21350.00000000 410.00000000 187 212 56 0.000000 0.000000 0.000000 0.000000 -60.708740 0.000000 139.000000 -0.053622 0.963949 0.260628
-780.00000000 -21350.00000000 420.00000000 187 212 56 0.000000 0.000000 0.000000 0.000000 -60.708740 0.000000 139.000000 -0.371246 0.899501 0.230378
-780.00000000 -21350.00000000 420.00000000 187 212 56 0.000000 0.000000 0.000000 0.000000 -60.708740 0.000000 139.000000 -0.371246 0.899501 0.230378
-830.00000000 -21370.00000000 470.00000000 187 212 56 0.000000 0.000000 0.000000 0.000000 -60.708740 0.000000 139.000000 0.772811 -0.634562 0.009677
-830.00000000 -21380.00000000 430.00000000 187 212 56 0.000000 0.000000 0.000000 0.000000 -60.708740 0.000000 139.000000 -0.610710 0.769892 0.185203
-820.00000000 -21380.00000000 440.00000000 187 212 56 0.000000 0.000000 0.000000 0.000000 -60.708740 0.000000 139.000000 0.698021 -0.694966 0.172596
-830.00000000 -21380.00000000 410.00000000 187 212 56 0.000000 0.000000 0.000000 0.000000 -60.708740 0.000000 139.000000 0.994544 0.022976 0.101752
-840.00000000 -21380.00000000 420.00000000 187 212 56 0.000000 0.000000 0.000000 0.000000 -60.708740 0.000000 139.000000 0.765109 -0.635878 0.101329
-810.00000000 -21390.00000000 460.00000000 187 212 56 0.000000 0.000000 0.000000 0.000000 -60.708740 0.000000 139.000000 -0.611546 0.638354 0.467456
-820.00000000 -21400.00000000 450.00000000 187 212 56 0.000000 0.000000 0.000000 0.000000 -60.708740 0.000000 139.000000 0.771866 -0.557725 -0.305231
-830.00000000 -21410.00000000 430.00000000 187 212 56 0.000000 0.000000 0.000000 0.000000 -60.708740 0.000000 139.000000 0.976135 -0.213041 0.042127
-840.00000000 -21420.00000000 420.00000000 187 212 56 0.000000 0.000000 0.000000 0.000000 -60.708740 0.000000 139.000000 0.967690 -0.223706 0.116327
-840.00000000 -21400.00000000 420.00000000 187 212 56 0.000000 0.000000 0.000000 0.000000 -60.708740 0.000000 139.000000 0.987191 -0.076481 0.140019
-840.00000000 -21390.00000000 430.00000000 187 212 56 0.000000 0.000000 0.000000 0.000000 -60.708740 0.000000 139.000000 0.927723 -0.362203 -0.090214
-840.00000000 -21410.00000000 440.00000000 187 212 56 0.000000 0.000000 0.000000 0.000000 -60.708740 0.000000 139.000000 0.967573 -0.251302 0.025494
-770.00000000 -21370.00000000 350.00000000 187 212 56 0.000000 0.000000 0.000000 0.000000 -60.708740 0.000000 139.000000 -0.532946 0.782614 0.321688
-840.00000000 -21380.00000000 380.00000000 187 212 56 0.000000 0.000000 0.000000 0.000000 -60.708740 0.000000 139.000000 0.998366 0.056902 -0.005173
-840.00000000 -21380.00000000 370.00000000 187 212 56 0.000000 0.000000 0.000000 0.000000 -60.708740 0.000000 139.000000 0.970972 0.233866 0.050202
-810.00000000 -21350.00000000 400.00000000 187 212 56 0.000000 0.000000 0.000000 0.000000 -60.708740 0.000000 139.000000 -0.595479 0.685050 0.419655
-810.00000000 -21380.00000000 330.00000000 187 212 56 0.000000 0.000000 0.000000 0.000000 -60.708740 0.000000 139.000000 0.969119 0.102613 -0.224228
-810.00000000 -21360.00000000 340.00000000 187 212 56 0.000000 0.000000 0.000000 0.000000 -60.708740 0.000000 139.000000 0.776144 -0.626940 -0.067428
-810.00000000 -21370.00000000 320.00000000 187 212 56 0.000000 0.000000 0.000000 0.000000 -60.708740 0.000000 139.000000 0.901248 -0.300416 0.312255
-810.00000000 -21360.00000000 330.00000000 187 212 56 0.000000 0.000000 0.000000 0.000000 -60.708740 0.000000 139.000000 0.854730 -0.339720 0.392462
-810.00000000 -21380.00000000 350.00000000 187 212 56 0.000000 0.000000 0.000000 0.000000 -60.708740 0.000000 139.000000 0.994150 0.059136 0.090377
-810.00000000 -21370.00000000 320.00000000 187 212 56 0.000000 0.000000 0.000000 0.000000 -60.708740 0.000000 139.000000 0.901248 -0.300416 0.312255
-840.00000000 -21400.00000000 380.00000000 187 212 56 0.000000 0.000000 0.000000 0.000000 -60.708740 0.000000 139.000000 0.880643 0.176713 0.439591
-810.00000000 -21390.00000000 400.00000000 187 212 56 0.000000 0.000000 0.000000 0.000000 -60.708740 0.000000 139.000000 0.984667 -0.172403 0.026613
-720.00000000 -21440.00000000 630.00000000 187 212 56 0.000000 0.000000 0.000000 0.000000 -60.708740 0.000000 139.000000 0.573984 0.637947 0.513387
-690.00000000 -21480.00000000 590.00000000 187 212 56 0.000000 0.000000 0.000000 0.000000 -60.708740 0.000000 139.000000 0.966376 -0.235546 -0.103131
-690.00000000 -21500.00000000 590.00000000 187 212 56 0.000000 0.000000 0.000000 0.000000 -60.708740 0.000000 139.000000 0.931268 -0.218376 -0.291638
-690.00000000 -21510.00000000 590.00000000 187 212 56 0.000000 0.000000 0.000000 0.000000 -60.708740 0.000000 139.000000 0.977395 -0.128244 -0.168087
-690.00000000 -21500.00000000 590.00000000 187 212 56 0.000000 0.000000 0.000000 0.000000 -60.708740 0.000000 139.000000 0.931268 -0.218376 -0.291638
-690.00000000 -21510.00000000 580.00000000 187 212 56 0.000000 0.000000 0.000000 0.000000 -60.708740 0.000000 139.000000 0.972110 -0.210016 -0.104379
-690.00000000 -21440.00000000 530.00000000 187 212 56 0.000000 0.000000 0.000000 0.000000 -60.708740 0.000000 139.000000 0.997752 -0.060566 -0.028689
-690.00000000 -21440.00000000 540.00000000 187 212 56 0.000000 0.000000 0.000000 0.000000 -60.708740 0.000000 139.000000 0.982908 -0.176237 -0.053226
-690.00000000 -21460.00000000 510.00000000 187 212 56 0.000000 0.000000 0.000000 0.000000 -60.708740 0.000000 139.000000 0.974143 -0.098537 -0.203310
-690.00000000 -21450.00000000 510.00000000 187 212 56 0.000000 0.000000 0.000000 0.000000 -60.708740 0.000000 139.000000 0.974979 -0.054774 -0.215445
-690.00000000 -21500.00000000 530.00000000 187 212 56 0.000000 0.000000 0.000000 0.000000 -60.708740 0.000000 139.000000 0.925815 -0.330146 -0.184039
-690.00000000 -21500.00000000 540.00000000 187 212 56 0.000000 0.000000 0.000000 0.000000 -60.708740 0.000000 139.000000 -0.694169 0.714629 0.086223
-690.00000000 -21500.00000000 530.00000000 187 212 56 0.000000 0.000000 0.000000 0.000000 -60.708740 0.000000 139.000000 0.925815 -0.330146 -0.184039
-690.00000000 -21510.00000000 540.00000000 187 212 56 0.000000 0.000000 0.000000 0.000000 -60.708740 0.000000 139.000000 0.902533 -0.371803 -0.217249
-690.00000000 -21500.00000000 530.00000000 187 212 56 0.000000 0.000000 0.000000 0.000000 -60.708740 0.000000 139.000000 0.925815 -0.330146 -0.184039
-690.00000000 -21500.00000000 530.00000000 187 212 56 0.000000 0.000000 0.000000 0.000000 -60.708740 0.000000 139.000000 0.925815 -0.330146 -0.184039
-690.00000000 -21500.00000000 530.00000000 187 212 56 0.000000 0.000000 0.000000 0.000000 -60.708740 0.000000 139.000000 0.925815 -0.330146 -0.184039
-690.00000000 -21490.00000000 530.00000000 187 212 56 0.000000 0.000000 0.000000 0.000000 -60.708740 0.000000 139.000000 0.925354 -0.157715 -0.344740
-690.00000000 -21490.00000000 520.00000000 187 212 56 0.000000 0.000000 0.000000 0.000000 -60.708740 0.000000 139.000000 0.942640 -0.179747 -0.281283
-690.00000000 -21470.00000000 500.00000000 187 212 56 0.000000 0.000000 0.000000 0.000000 -60.708740 0.000000 139.000000 0.991218 -0.100158 -0.086343
-700.00000000 -21480.00000000 490.00000000 187 212 56 0.000000 0.000000 0.000000 0.000000 -60.708740 0.000000 139.000000 0.895262 -0.444275 -0.033556
-690.00000000 -21530.00000000 620.00000000 187 212 56 0.000000 0.000000 0.000000 0.000000 -60.708740 0.000000 139.000000 0.908887 -0.273691 -0.314671
-690.00000000 -21530.00000000 650.00000000 187 212 56 0.000000 0.000000 0.000000 0.000000 -60.708740 0.000000 139.000000 0.863105 -0.504937 0.009425
-700.00000000 -21530.00000000 600.00000000 187 212 56 0.000000 0.000000 0.000000 0.000000 -60.708740 0.000000 139.000000 0.871551 -0.358694 -0.334272
-700.00000000 -21550.00000000 600.00000000 187 212 56 0.000000 0.000000 0.000000 0.000000 -60.708740 0.000000 139.000000 0.914873 -0.381314 -0.132692
-710.00000000 -21550.00000000 570.00000000 187 212 56 0.000000 0.000000 0.000000 0.000000 -60.708740 0.000000 139.000000 0.864761 -0.487777 -0.119426
-700.00000000 -21550.00000000 600.00000000 187 212 56 0.000000 0.000000 0.000000 0.000000 -60.708740 0.000000 139.000000 0.914873 -0.381314 -0.132692
-700.00000000 -21550.00000000 580.00000000 187 212 56 0.000000 0.000000 0.000000 0.000000 -60.708740 0.000000 139.000000 -0.650613 0.756894 0.061758
-690.00000000 -21570.00000000 620.00000000 187 212 56 0.000000 0.000000 0.000000 0.000000 -60.708740 0.000000 139.000000 0.823112 -0.459742 -0.333352
-720.00000000 -21570.00000000 650.00000000 187 212 56 0.000000 0.000000 0.000000 0.000000 -60.708740 0.000000 139.000000 -0.635843 0.749222 -0.185390
-720.00000000 -21590.00000000 630.00000000 187 212 56 0.000000 0.000000 0.000000 0.000000 -60.708740 0.000000 139.000000 0.749711 -0.656543 -0.082978
-720.00000000 -21590.00000000 630.00000000 187 212 56 0.000000 0.000000 0.000000 0.000000 -60.708740 0.000000 139.000000 0.749711 -0.656543 -0.082978
-690.00000000 -21560.00000000 620.00000000 187 212 56 0.000000 0.000000 0.000000 0.000000 -60.708740 0.000000 139.000000 0.772062 -0.505497 -0.385218
-690.00000000 -21560.00000000 630.00000000 187 212 56 0.000000 0.000000 0.000000 0.000000 -60.708740 0.000000 139.000000 0.764307 -0.639106 0.085894
-700.00000000 -21580.00000000 620.00000000 187 212 56 0.000000 0.000000 0.000000 0.000000 -60.708740 0.000000 139.000000 -0.564985 0.824684 0.026246
-690.00000000 -21580.00000000 650.00000000 187 212 56 0.000000 0.000000 0.000000 0.000000 -60.708740 0.000000 139.000000 -0.708062 0.699229 0.098628
-700.00000000 -21570.00000000 610.00000000 187 212 56 0.000000 0.000000 0.000000 0.000000 -60.708740 0.000000 139.000000 0.780313 -0.363500 -0.508900
-720.00000000 -21560.00000000 580.00000000 187 212 56 0.000000 0.000000 0.000000 0.000000 -60.708740 0.000000 139.000000 -0.643328 0.746747 -0.168816
-700.00000000 -21580.00000000 570.00000000 187 212 56 0.000000 0.000000 0.000000 0.000000 -60.708740 0.000000 139.000000 0.729890 -0.673401 -0.117436
-720.00000000 -21560.00000000 600.00000000 187 212 56 0.000000 0.000000 0.000000 0.000000 -60.708740 0.000000 139.000000 0.626615 -0.636641 -0.449492
-690.00000000 -21590.00000000 580.00000000 187 212 56 0.000000 0.000000 0.000000 0.000000 -60.708740 0.000000 139.000000 0.750252 -0.633648 -0.188714
-700.00000000 -21560.00000000 580.00000000 187 212 56 0.000000 0.000000 0.000000 0.000000 -60.708740 0.000000 139.000000 0.826616 -0.482844 -0.289081
-720.00000000 -21580.00000000 590.00000000 187 212 56 0.000000 0.000000 0.000000 0.000000 -60.708740 0.000000 139.000000 -0.594747 0.793490 0.129035
-730.00000000 -21590.00000000 620.00000000 187 212 56 0.000000 0.000000 0.000000 0.000000 -60.708740 0.000000 139.000000 0.635944 -0.514490 -0.575217
-730.00000000 -21580.00000000 580.00000000 187 212 56 0.000000 0.000000 0.000000 0.000000 -60.708740 0.000000 139.000000 -0.391199 0.837385 0.381772
-740.00000000 -21590.00000000 590.00000000 187 212 56 0.000000 0.000000 0.000000 0.000000 -60.708740 0.000000 139.000000 0.749479 -0.614352 -0.246684
-730.00000000 -21570.00000000 610.00000000 187 212 56 0.000000 0.000000 0.000000 0.000000 -60.708740 0.000000 139.000000 -0.634221 0.773001 -0.015266
-730.00000000 -21570.00000000 570.00000000 187 212 56 0.000000 0.000000 0.000000 0.000000 -60.708740 0.000000 139.000000 -0.644739 0.708733 0.286373
-730.00000000 -21580.00000000 580.00000000 187 212 56 0.000000 0.000000 0.000000 0.000000 -60.708740 0.000000 139.000000 -0.391199 0.837385 0.381772
-730.00000000 -21580.00000000 610.00000000 187 212 56 0.000000 0.000000 0.000000 0.000000 -60.708740 0.000000 139.000000 -0.370284 0.925037 -0.084829
-760.00000000 -21580.00000000 570.00000000 187 212 56 0.000000 0.000000 0.000000 0.000000 -60.708740 0.000000 139.000000 -0.364464 0.813279 0.453590
-700.00000000 -21550.00000000 560.00000000 187 212 56 0.000000 0.000000 0.000000 0.000000 -60.708740 0.000000 139.000000 -0.472778 0.872268 0.125020
-700.00000000 -21530.00000000 550.00000000 187 212 56 0.000000 0.000000 0.000000 0.000000 -60.708740 0.000000 139.000000 -0.647074 0.757585 -0.085792
-700.00000000 -21550.00000000 530.00000000 187 212 56 0.000000 0.000000 0.000000 0.000000 -60.708740 0.000000 139.000000 0.760781 -0.635230 0.133025
-710.00000000 -21530.00000000 550.00000000 187 212 56 0.000000 0.000000 0.000000 0.000000 -60.708740 0.000000 139.000000 -0.741158 0.646019 -0.182604
-700.00000000 -21530.00000000 540.00000000 187 212 56 0.000000 0.000000 0.000000 0.000000 -60.708740 0.000000 139.000000 0.900203 -0.430295 -0.066935
-700.00000000 -21550.00000000 530.00000000 187 212 56 0.000000 0.000000 0.000000 0.000000 -60.708740 0.000000 139.000000 0.760781 -0.635230 0.133025
-720.00000000 -21550.00000000 510.00000000 187 212 56 0.000000 0.000000 0.000000 0.000000 -60.708740 0.000000 139.000000 0.746437 -0.499273 -0.439953
-690.00000000 -21540.00000000 510.00000000 187 212 56 0.000000 0.000000 0.000000 0.000000 -60.708740 0.000000 139.000000 0.756345 -0.648918 -0.082748
-690.00000000 -21540.00000000 490.00000000 187 212 56 0.000000 0.000000 0.000000 0.000000 -60.708740 0.000000 139.000000 0.803757 -0.402681 -0.437975
-710.00000000 -21520.00000000 520.00000000 187 212 56 0.000000 0.000000 0.000000 0.000000 -60.708740 0.000000 139.000000 -0.484482 0.739124 0.467946
-690.00000000 -21540.00000000 490.00000000 187 212 56 0.000000 0.000000 0.000000 0.000000 -60.708740 0.000000 139.000000 0.803757 -0.402681 -0.437975
-690.00000000 -21550.00000000 510.00000000 187 212 56 0.000000 0.000000 0.000000 0.000000 -60.708740 0.000000 139.000000 0.777567 -0.626334 -0.055642
-720.00000000 -21530.00000000 520.00000000 187 212 56 0.000000 0.000000 0.000000 0.000000 -60.708740 0.000000 139.000000 0.851671 -0.522081 0.045699
-690.00000000 -21540.00000000 490.00000000 187 212 56 0.000000 0.000000 0.000000 0.000000 -60.708740 0.000000 139.000000 0.803757 -0.402681 -0.437975
-710.00000000 -21560.00000000 530.00000000 187 212 56 0.000000 0.000000 0.000000 0.000000 -60.708740 0.000000 139.000000 0.700320 -0.671993 -0.240784
-710.00000000 -21560.00000000 530.00000000 187 212 56 0.000000 0.000000 0.000000 0.000000 -60.708740 0.000000 139.000000 0.700320 -0.671993 -0.240784
-690.00000000 -21590.00000000 560.00000000 187 212 56 0.000000 0.000000 0.000000 0.000000 -60.708740 0.000000 139.000000 0.729306 -0.431630 -0.530856
-710.00000000 -21570.00000000 550.00000000 187 212 56 0.000000 0.000000 0.000000 0.000000 -60.708740 0.000000 139.000000 0.694904 -0.564922 -0.444939
-710.00000000 -21560.00000000 540.00000000 187 212 56 0.000000 0.000000 0.000000 0.000000 -60.708740 0.000000 139.000000 -0.618504 0.762770 0.188774
-700.00000000 -21560.00000000 540.00000000 187 212 56 0.000000 0.000000 0.000000 0.000000 -60.708740 0.000000 139.000000 0.796095 -0.427921 -0.427921
-700.00000000 -21590.00000000 560.00000000 187 212 56 0.000000 0.000000 0.000000 0.000000 -60.708740 0.000000 139.000000 -0.601173 0.733334 0.317510
-700.00000000 -21560.00000000 490.00000000 187 212 56 0.000000 0.000000 0.000000 0.000000 -60.708740 0.000000 139.000000 0.713431 -0.683137 -0.156016
-720.00000000 -21580.00000000 520.00000000 187 212 56 0.000000 0.000000 0.000000 0.000000 -60.708740 0.000000 139.000000 0.646502 -0.599484 -0.471863
-700.00000000 -21560.00000000 510.00000000 187 212 56 0.000000 0.000000 0.000000 0.000000 -60.708740 0.000000 139.000000 0.709660 -0.704039 -0.026700
-720.00000000 -21560.00000000 520.00000000 187 212 56 0.000000 0.000000 0.000000 0.000000 -60.708740 0.000000 139.000000 0.666998 -0.617098 -0.417497
-730.00000000 -21590.00000000 530.00000000 187 212 56 0.000000 0.000000 0.000000 0.000000 -60.708740 0.000000 139.000000 -0.197631 0.792056 0.577572
-740.00000000 -21570.00000000 530.00000000 187 212 56 0.000000 0.000000 0.000000 0.000000 -60.708740 0.000000 139.000000 -0.334054 0.663219 0.669737
-740.00000000 -21560.00000000 530.00000000 187 212 56 0.000000 0.000000 0.000000 0.000000 -60.708740 0.000000 139.000000 -0.481478 0.870638 0.100841
-740.00000000 -21560.00000000 520.00000000 187 212 56 0.000000 0.000000 0.000000 0.000000 -60.708740 0.000000 139.000000 -0.358869 0.930941 -0.067536
-750.00000000 -21570.00000000 520.00000000 187 212 56 0.000000 0.000000 0.000000 0.000000 -60.708740 0.000000 139.000000 -0.546241 0.760200 0.351734
-830.00000000 -21440.00000000 580.00000000 187 212 56 0.000000 0.000000 0.000000 0.000000 -60.708740 0.000000 139.000000 0.963882 -0.263552 -0.038357
-840.00000000 -21440.00000000 580.00000000 187 212 56 0.000000 0.000000 0.000000 0.000000 -60.708740 0.000000 139.000000 0.775821 -0.424506 -0.466794
-840.00000000 -21430.00000000 500.00000000 187 212 56 0.000000 0.000000 0.000000 0.000000 -60.708740 0.000000 139.000000 0.978704 0.147612 -0.142650
-830.00000000 -21430.00000000 560.00000000 187 212 56 0.000000 0.000000 0.000000 0.000000 -60.708740 0.000000 139.000000 0.745157 -0.655917 0.120475
-800.00000000 -21590.00000000 600.00000000 187 212 56 0.000000 0.000000 0.000000 0.000000 -60.708740 0.000000 139.000000 -0.043666 0.993125 0.108606
-770.00000000 -21570.00000000 600.00000000 187 212 56 0.000000 0.000000 0.000000 0.000000 -60.708740 0.000000 139.000000 -0.001201 0.964763 0.263117
-830.00000000 -21590.00000000 640.00000000 187 212 56 0.000000 0.000000 0.000000 0.000000 -60.708740 0.000000 139.000000 0.324151 0.937190 0.128847
