//X Y Z R G B PointSourceId ScanDirectionFlag NumberOfReturns ReturnNumber GpsTime Intensity Classification Nx Ny Nz
-6130.00000000 19210.00000000 -690.00000000 165 239 53 0.000000 0.000000 0.000000 0.000000 -60.708740 0.000000 41.000000 0.838625 0.337018 -0.427934
-6180.00000000 19310.00000000 -600.00000000 165 239 53 0.000000 0.000000 0.000000 0.000000 -60.708740 0.000000 41.000000 -0.190183 0.975774 -0.108143
-6160.00000000 19260.00000000 -690.00000000 165 239 53 0.000000 0.000000 0.000000 0.000000 -60.708740 0.000000 41.000000 0.541524 0.817595 -0.195677
-6180.00000000 19310.00000000 -620.00000000 165 239 53 0.000000 0.000000 0.000000 0.000000 -60.708740 0.000000 41.000000 -0.060021 0.973818 -0.219262
-6240.00000000 19350.00000000 -370.00000000 165 239 53 0.000000 0.000000 0.000000 0.000000 -60.708740 0.000000 41.000000 -0.322922 0.929624 -0.177537
-6280.00000000 19270.00000000 -430.00000000 165 239 53 0.000000 0.000000 0.000000 0.000000 -60.708740 0.000000 41.000000 0.888443 -0.450498 0.087868
-6290.00000000 19260.00000000 -410.00000000 165 239 53 0.000000 0.000000 0.000000 0.000000 -60.708740 0.000000 41.000000 0.798541 -0.578150 0.167558
-6250.00000000 19310.00000000 -460.00000000 165 239 53 0.000000 0.000000 0.000000 0.000000 -60.708740 0.000000 41.000000 -0.568062 0.818297 -0.087726
-6320.00000000 19200.00000000 -440.00000000 165 239 53 0.000000 0.000000 0.000000 0.000000 -60.708740 0.000000 41.000000 0.998196 -0.045517 -0.039166
-6290.00000000 19200.00000000 -360.00000000 165 239 53 0.000000 0.000000 0.000000 0.000000 -60.708740 0.000000 41.000000 0.944286 0.326720 -0.039719
-6310.00000000 19230.00000000 -390.00000000 165 239 53 0.000000 0.000000 0.000000 0.000000 -60.708740 0.000000 41.000000 0.951226 0.268912 -0.151179
-6320.00000000 19190.00000000 -440.00000000 165 239 53 0.000000 0.000000 0.000000 0.000000 -60.708740 0.000000 41.000000 0.989831 0.077566 -0.119243
-6320.00000000 19180.00000000 -410.00000000 165 239 53 0.000000 0.000000 0.000000 0.000000 -60.708740 0.000000 41.000000 0.979993 0.073711 0.184881
-6300.00000000 19190.00000000 -390.00000000 165 239 53 0.000000 0.000000 0.000000 0.000000 -60.708740 0.000000 41.000000 0.974213 0.184786 -0.129476
-6320.00000000 19170.00000000 -400.00000000 165 239 53 0.000000 0.000000 0.000000 0.000000 -60.708740 0.000000 41.000000 0.843361 0.243365 -0.479078
-6320.00000000 19190.00000000 -410.00000000 165 239 53 0.000000 0.000000 0.000000 0.000000 -60.708740 0.000000 41.000000 0.997999 -0.063217 0.001036
-6300.00000000 19240.00000000 -500.00000000 165 239 53 0.000000 0.000000 0.000000 0.000000 -60.708740 0.000000 41.000000 0.882832 -0.437780 0.170167
-6330.00000000 19200.00000000 -450.00000000 165 239 53 0.000000 0.000000 0.000000 0.000000 -60.708740 0.000000 41.000000 0.902136 -0.078268 -0.424292
-6330.00000000 19220.00000000 -500.00000000 165 239 53 0.000000 0.000000 0.000000 0.000000 -60.708740 0.000000 41.000000 0.966872 -0.079211 0.242661
-6330.00000000 19200.00000000 -480.00000000 165 239 53 0.000000 0.000000 0.000000 0.000000 -60.708740 0.000000 41.000000 0.965974 0.258159 -0.015756
-6270.00000000 19270.00000000 -590.00000000 165 239 53 0.000000 0.000000 0.000000 0.000000 -60.708740 0.000000 41.000000 -0.579564 0.763755 -0.284225
-6250.00000000 19300.00000000 -640.00000000 165 239 53 0.000000 0.000000 0.000000 0.000000 -60.708740 0.000000 41.000000 -0.307767 0.782973 -0.540586
-6300.00000000 19250.00000000 -600.00000000 165 239 53 0.000000 0.000000 0.000000 0.000000 -60.708740 0.000000 41.000000 -0.602929 0.781239 -0.161688
-6360.00000000 19170.00000000 -650.00000000 165 239 53 0.000000 0.000000 0.000000 0.000000 -60.708740 0.000000 41.000000 0.975843 -0.039610 0.214853
-6360.00000000 19170.00000000 -650.00000000 165 239 53 0.000000 0.000000 0.000000 0.000000 -60.708740 0.000000 41.000000 0.975843 -0.039610 0.214853
-6130.00000000 19170.00000000 -770.00000000 165 239 53 0.000000 0.000000 0.000000 0.000000 -60.708740 0.000000 41.000000 0.753506 0.400454 -0.521407
-6120.00000000 19180.00000000 -700.00000000 165 239 53 0.000000 0.000000 0.000000 0.000000 -60.708740 0.000000 41.000000 0.920700 0.285834 -0.265725
-6130.00000000 19200.00000000 -740.00000000 165 239 53 0.000000 0.000000 0.000000 0.000000 -60.708740 0.000000 41.000000 0.765576 0.515261 -0.385226
-6190.00000000 19280.00000000 -710.00000000 165 239 53 0.000000 0.000000 0.000000 0.000000 -60.708740 0.000000 41.000000 0.259476 0.964656 0.045936
-6220.00000000 19250.00000000 -790.00000000 165 239 53 0.000000 0.000000 0.000000 0.000000 -60.708740 0.000000 41.000000 -0.292952 0.793346 -0.533648
-6280.00000000 19260.00000000 -760.00000000 165 239 53 0.000000 0.000000 0.000000 0.000000 -60.708740 0.000000 41.000000 -0.503316 0.829625 -0.241653
-6260.00000000 19260.00000000 -760.00000000 165 239 53 0.000000 0.000000 0.000000 0.000000 -60.708740 0.000000 41.000000 -0.069759 0.938461 -0.338267
-6270.00000000 19260.00000000 -800.00000000 165 239 53 0.000000 0.000000 0.000000 0.000000 -60.708740 0.000000 41.000000 -0.117210 0.964730 -0.235708
-6260.00000000 19260.00000000 -780.00000000 165 239 53 0.000000 0.000000 0.000000 0.000000 -60.708740 0.000000 41.000000 -0.367171 0.930082 -0.011514
-6290.00000000 19240.00000000 -750.00000000 165 239 53 0.000000 0.000000 0.000000 0.000000 -60.708740 0.000000 41.000000 -0.265398 0.960305 -0.085902
-6300.00000000 19250.00000000 -720.00000000 165 239 53 0.000000 0.000000 0.000000 0.000000 -60.708740 0.000000 41.000000 -0.295618 0.904503 -0.307384
-6310.00000000 19230.00000000 -830.00000000 165 239 53 0.000000 0.000000 0.000000 0.000000 -60.708740 0.000000 41.000000 -0.568492 0.817298 0.094025
-6270.00000000 19230.00000000 -820.00000000 165 239 53 0.000000 0.000000 0.000000 0.000000 -60.708740 0.000000 41.000000 0.680704 -0.714207 0.162943
-6050.00000000 19160.00000000 -20.00000000 165 239 53 0.000000 0.000000 0.000000 0.000000 -60.708740 0.000000 41.000000 -0.584908 0.775198 -0.238643
-6040.00000000 19130.00000000 -130.00000000 165 239 53 0.000000 0.000000 0.000000 0.000000 -60.708740 0.000000 41.000000 0.725816 -0.630104 0.275970
-6070.00000000 19130.00000000 -130.00000000 165 239 53 0.000000 0.000000 0.000000 0.000000 -60.708740 0.000000 41.000000 0.643118 -0.728028 0.237435
-6070.00000000 19140.00000000 -130.00000000 165 239 53 0.000000 0.000000 0.000000 0.000000 -60.708740 0.000000 41.000000 0.729550 -0.665847 0.156224
-6070.00000000 19140.00000000 -90.00000000 165 239 53 0.000000 0.000000 0.000000 0.000000 -60.708740 0.000000 41.000000 -0.282408 0.948945 0.140535
-6050.00000000 19140.00000000 -280.00000000 165 239 53 0.000000 0.000000 0.000000 0.000000 -60.708740 0.000000 41.000000 0.889480 -0.407249 0.207300
-6070.00000000 19110.00000000 -200.00000000 165 239 53 0.000000 0.000000 0.000000 0.000000 -60.708740 0.000000 41.000000 -0.698051 0.666250 -0.262366
-6050.00000000 19160.00000000 -340.00000000 165 239 53 0.000000 0.000000 0.000000 0.000000 -60.708740 0.000000 41.000000 0.901972 -0.388209 -0.189053
-6060.00000000 19120.00000000 -230.00000000 165 239 53 0.000000 0.000000 0.000000 0.000000 -60.708740 0.000000 41.000000 0.782029 -0.616012 0.094659
-6060.00000000 19110.00000000 -230.00000000 165 239 53 0.000000 0.000000 0.000000 0.000000 -60.708740 0.000000 41.000000 0.722009 -0.635942 0.272546
-6060.00000000 19140.00000000 -210.00000000 165 239 53 0.000000 0.000000 0.000000 0.000000 -60.708740 0.000000 41.000000 -0.554923 0.830276 0.051980
-6050.00000000 19110.00000000 -360.00000000 165 239 53 0.000000 0.000000 0.000000 0.000000 -60.708740 0.000000 41.000000 -0.664698 0.740999 0.095376
-6070.00000000 19110.00000000 -440.00000000 165 239 53 0.000000 0.000000 0.000000 0.000000 -60.708740 0.000000 41.000000 0.838848 -0.544228 -0.012276
-6070.00000000 19160.00000000 -460.00000000 165 239 53 0.000000 0.000000 0.000000 0.000000 -60.708740 0.000000 41.000000 0.857448 -0.491017 -0.153901
-6100.00000000 19160.00000000 -70.00000000 165 239 53 0.000000 0.000000 0.000000 0.000000 -60.708740 0.000000 41.000000 -0.354770 0.916134 -0.186646
-6090.00000000 19160.00000000 -30.00000000 165 239 53 0.000000 0.000000 0.000000 0.000000 -60.708740 0.000000 41.000000 -0.268439 0.959445 0.086055
-6100.00000000 19150.00000000 -160.00000000 165 239 53 0.000000 0.000000 0.000000 0.000000 -60.708740 0.000000 41.000000 -0.250757 0.805227 -0.537337
-6080.00000000 19150.00000000 -150.00000000 165 239 53 0.000000 0.000000 0.000000 0.000000 -60.708740 0.000000 41.000000 -0.431069 0.857536 -0.280732
-6120.00000000 19120.00000000 -150.00000000 165 239 53 0.000000 0.000000 0.000000 0.000000 -60.708740 0.000000 41.000000 -0.073532 0.953331 -0.292836
-6130.00000000 19140.00000000 -160.00000000 165 239 53 0.000000 0.000000 0.000000 0.000000 -60.708740 0.000000 41.000000 0.092677 0.991991 -0.085812
-6080.00000000 19130.00000000 -130.00000000 165 239 53 0.000000 0.000000 0.000000 0.000000 -60.708740 0.000000 41.000000 -0.172777 0.922881 -0.344149
-6170.00000000 19160.00000000 -70.00000000 165 239 53 0.000000 0.000000 0.000000 0.000000 -60.708740 0.000000 41.000000 0.057256 0.920098 -0.387480
-6160.00000000 19140.00000000 -180.00000000 165 239 53 0.000000 0.000000 0.000000 0.000000 -60.708740 0.000000 41.000000 0.128531 0.990713 -0.044360
-6170.00000000 19160.00000000 -160.00000000 165 239 53 0.000000 0.000000 0.000000 0.000000 -60.708740 0.000000 41.000000 0.380437 0.924655 0.016765
-6100.00000000 19120.00000000 -200.00000000 165 239 53 0.000000 0.000000 0.000000 0.000000 -60.708740 0.000000 41.000000 -0.424918 0.872358 -0.241738
-6080.00000000 19110.00000000 -270.00000000 165 239 53 0.000000 0.000000 0.000000 0.000000 -60.708740 0.000000 41.000000 -0.196552 0.961655 -0.191276
-6120.00000000 19100.00000000 -270.00000000 165 239 53 0.000000 0.000000 0.000000 0.000000 -60.708740 0.000000 41.000000 -0.336335 0.864642 -0.373194
-6110.00000000 19130.00000000 -240.00000000 165 239 53 0.000000 0.000000 0.000000 0.000000 -60.708740 0.000000 41.000000 -0.338108 0.895167 -0.290445
-6100.00000000 19120.00000000 -190.00000000 165 239 53 0.000000 0.000000 0.000000 0.000000 -60.708740 0.000000 41.000000 -0.220030 0.947086 -0.233697
-6130.00000000 19090.00000000 -320.00000000 165 239 53 0.000000 0.000000 0.000000 0.000000 -60.708740 0.000000 41.000000 -0.105410 0.994329 -0.014127
-6110.00000000 19090.00000000 -340.00000000 165 239 53 0.000000 0.000000 0.000000 0.000000 -60.708740 0.000000 41.000000 -0.109042 0.973856 -0.199283
-6080.00000000 19100.00000000 -290.00000000 165 239 53 0.000000 0.000000 0.000000 0.000000 -60.708740 0.000000 41.000000 0.735681 -0.649312 0.192789
-6140.00000000 19090.00000000 -330.00000000 165 239 53 0.000000 0.000000 0.000000 0.000000 -60.708740 0.000000 41.000000 -0.198324 0.979883 -0.022297
-6120.00000000 19080.00000000 -350.00000000 165 239 53 0.000000 0.000000 0.000000 0.000000 -60.708740 0.000000 41.000000 -0.474963 0.840792 -0.259769
-6180.00000000 19120.00000000 -260.00000000 165 239 53 0.000000 0.000000 0.000000 0.000000 -60.708740 0.000000 41.000000 -0.097607 0.967201 -0.234511
-6230.00000000 19160.00000000 -210.00000000 165 239 53 0.000000 0.000000 0.000000 0.000000 -60.708740 0.000000 41.000000 0.777575 0.544462 -0.314543
-6280.00000000 19070.00000000 -330.00000000 165 239 53 0.000000 0.000000 0.000000 0.000000 -60.708740 0.000000 41.000000 0.681355 0.642141 -0.351298
-6090.00000000 19100.00000000 -440.00000000 165 239 53 0.000000 0.000000 0.000000 0.000000 -60.708740 0.000000 41.000000 -0.678405 0.717865 0.156322
-6080.00000000 19090.00000000 -420.00000000 165 239 53 0.000000 0.000000 0.000000 0.000000 -60.708740 0.000000 41.000000 0.882626 -0.467915 0.045018
-6100.00000000 19100.00000000 -360.00000000 165 239 53 0.000000 0.000000 0.000000 0.000000 -60.708740 0.000000 41.000000 -0.601083 0.742137 -0.296534
-6080.00000000 19120.00000000 -520.00000000 165 239 53 0.000000 0.000000 0.000000 0.000000 -60.708740 0.000000 41.000000 0.966514 -0.143235 0.212917
-6080.00000000 19120.00000000 -470.00000000 165 239 53 0.000000 0.000000 0.000000 0.000000 -60.708740 0.000000 41.000000 0.855991 -0.514705 0.048557
-6080.00000000 19110.00000000 -520.00000000 165 239 53 0.000000 0.000000 0.000000 0.000000 -60.708740 0.000000 41.000000 0.839751 -0.473034 0.266563
-6080.00000000 19110.00000000 -490.00000000 165 239 53 0.000000 0.000000 0.000000 0.000000 -60.708740 0.000000 41.000000 0.915429 -0.348121 -0.201996
-6120.00000000 19050.00000000 -420.00000000 165 239 53 0.000000 0.000000 0.000000 0.000000 -60.708740 0.000000 41.000000 -0.482597 0.848704 -0.216336
-6120.00000000 19050.00000000 -400.00000000 165 239 53 0.000000 0.000000 0.000000 0.000000 -60.708740 0.000000 41.000000 -0.639228 0.769006 0.004142
-6140.00000000 19050.00000000 -480.00000000 165 239 53 0.000000 0.000000 0.000000 0.000000 -60.708740 0.000000 41.000000 -0.264771 0.794313 -0.546776
-6150.00000000 19000.00000000 -510.00000000 165 239 53 0.000000 0.000000 0.000000 0.000000 -60.708740 0.000000 41.000000 -0.003345 0.988939 -0.148285
-6150.00000000 19050.00000000 -480.00000000 165 239 53 0.000000 0.000000 0.000000 0.000000 -60.708740 0.000000 41.000000 -0.272629 0.878137 -0.393128
-6110.00000000 19080.00000000 -460.00000000 165 239 53 0.000000 0.000000 0.000000 0.000000 -60.708740 0.000000 41.000000 0.822841 -0.567524 -0.029139
-6140.00000000 19050.00000000 -480.00000000 165 239 53 0.000000 0.000000 0.000000 0.000000 -60.708740 0.000000 41.000000 -0.264771 0.794313 -0.546776
-6190.00000000 19060.00000000 -370.00000000 165 239 53 0.000000 0.000000 0.000000 0.000000 -60.708740 0.000000 41.000000 -0.150327 0.943946 -0.293883
-6190.00000000 19060.00000000 -370.00000000 165 239 53 0.000000 0.000000 0.000000 0.000000 -60.708740 0.000000 41.000000 -0.150327 0.943946 -0.293883
-6190.00000000 19060.00000000 -380.00000000 165 239 53 0.000000 0.000000 0.000000 0.000000 -60.708740 0.000000 41.000000 -0.352320 0.889045 -0.292351
-6220.00000000 19040.00000000 -410.00000000 165 239 53 0.000000 0.000000 0.000000 0.000000 -60.708740 0.000000 41.000000 -0.140355 0.967036 -0.212465
-6180.00000000 19030.00000000 -510.00000000 165 239 53 0.000000 0.000000 0.000000 0.000000 -60.708740 0.000000 41.000000 -0.029997 0.924694 -0.379529
-6230.00000000 19030.00000000 -470.00000000 165 239 53 0.000000 0.000000 0.000000 0.000000 -60.708740 0.000000 41.000000 -0.017217 0.999626 -0.021269
-6090.00000000 19160.00000000 -600.00000000 165 239 53 0.000000 0.000000 0.000000 0.000000 -60.708740 0.000000 41.000000 0.911924 -0.154108 -0.380322
-6090.00000000 19100.00000000 -530.00000000 165 239 53 0.000000 0.000000 0.000000 0.000000 -60.708740 0.000000 41.000000 -0.614361 0.787461 0.049660
-6110.00000000 19100.00000000 -620.00000000 165 239 53 0.000000 0.000000 0.000000 0.000000 -60.708740 0.000000 41.000000 0.961873 -0.263022 0.074968
-6110.00000000 19150.00000000 -660.00000000 165 239 53 0.000000 0.000000 0.000000 0.000000 -60.708740 0.000000 41.000000 0.972399 -0.078239 -0.219814
-6110.00000000 19140.00000000 -660.00000000 165 239 53 0.000000 0.000000 0.000000 0.000000 -60.708740 0.000000 41.000000 0.966044 -0.100550 -0.238011
-6120.00000000 19060.00000000 -550.00000000 165 239 53 0.000000 0.000000 0.000000 0.000000 -60.708740 0.000000 41.000000 -0.681894 0.706523 0.189330
-6120.00000000 19060.00000000 -530.00000000 165 239 53 0.000000 0.000000 0.000000 0.000000 -60.708740 0.000000 41.000000 -0.504284 0.846424 -0.171070
-6130.00000000 19050.00000000 -540.00000000 165 239 53 0.000000 0.000000 0.000000 0.000000 -60.708740 0.000000 41.000000 -0.563056 0.825908 -0.029052
-6120.00000000 19080.00000000 -670.00000000 165 239 53 0.000000 0.000000 0.000000 0.000000 -60.708740 0.000000 41.000000 0.919544 -0.388371 -0.060057
-6190.00000000 19020.00000000 -570.00000000 165 239 53 0.000000 0.000000 0.000000 0.000000 -60.708740 0.000000 41.000000 -0.414300 0.904808 -0.098379
-6210.00000000 19020.00000000 -540.00000000 165 239 53 0.000000 0.000000 0.000000 0.000000 -60.708740 0.000000 41.000000 -0.070490 0.996616 -0.042294
-6210.00000000 19050.00000000 -530.00000000 165 239 53 0.000000 0.000000 0.000000 0.000000 -60.708740 0.000000 41.000000 0.334638 0.872502 -0.356030
-6190.00000000 19020.00000000 -570.00000000 165 239 53 0.000000 0.000000 0.000000 0.000000 -60.708740 0.000000 41.000000 -0.414300 0.904808 -0.098379
-6210.00000000 19010.00000000 -670.00000000 165 239 53 0.000000 0.000000 0.000000 0.000000 -60.708740 0.000000 41.000000 -0.219694 0.957334 -0.187739
-6210.00000000 19010.00000000 -650.00000000 165 239 53 0.000000 0.000000 0.000000 0.000000 -60.708740 0.000000 41.000000 -0.115598 0.989004 -0.092245
-6200.00000000 19040.00000000 -620.00000000 165 239 53 0.000000 0.000000 0.000000 0.000000 -60.708740 0.000000 41.000000 -0.237175 0.962956 -0.128308
-6170.00000000 19020.00000000 -630.00000000 165 239 53 0.000000 0.000000 0.000000 0.000000 -60.708740 0.000000 41.000000 -0.503276 0.842799 -0.190794
-6220.00000000 18990.00000000 -690.00000000 165 239 53 0.000000 0.000000 0.000000 0.000000 -60.708740 0.000000 41.000000 0.141877 0.988523 0.051906
-6220.00000000 18990.00000000 -690.00000000 165 239 53 0.000000 0.000000 0.000000 0.000000 -60.708740 0.000000 41.000000 0.141877 0.988523 0.051906
-6310.00000000 19150.00000000 -430.00000000 165 239 53 0.000000 0.000000 0.000000 0.000000 -60.708740 0.000000 41.000000 0.949038 0.313825 0.028988
-6310.00000000 19160.00000000 -400.00000000 165 239 53 0.000000 0.000000 0.000000 0.000000 -60.708740 0.000000 41.000000 0.849467 0.225616 -0.476973
-6280.00000000 19140.00000000 -390.00000000 165 239 53 0.000000 0.000000 0.000000 0.000000 -60.708740 0.000000 41.000000 0.618940 0.672039 -0.406542
-6310.00000000 19090.00000000 -490.00000000 165 239 53 0.000000 0.000000 0.000000 0.000000 -60.708740 0.000000 41.000000 0.844469 0.515493 -0.145395
-6320.00000000 19150.00000000 -460.00000000 165 239 53 0.000000 0.000000 0.000000 0.000000 -60.708740 0.000000 41.000000 0.981259 -0.100923 -0.164151
-6270.00000000 19080.00000000 -400.00000000 165 239 53 0.000000 0.000000 0.000000 0.000000 -60.708740 0.000000 41.000000 0.771773 0.525841 -0.357572
-6240.00000000 19010.00000000 -480.00000000 165 239 53 0.000000 0.000000 0.000000 0.000000 -60.708740 0.000000 41.000000 -0.064785 0.959071 -0.275654
-6250.00000000 19020.00000000 -460.00000000 165 239 53 0.000000 0.000000 0.000000 0.000000 -60.708740 0.000000 41.000000 0.184150 0.979289 0.084148
-6340.00000000 19090.00000000 -480.00000000 165 239 53 0.000000 0.000000 0.000000 0.000000 -60.708740 0.000000 41.000000 0.989714 0.128189 -0.063517
-6320.00000000 19090.00000000 -630.00000000 165 239 53 0.000000 0.000000 0.000000 0.000000 -60.708740 0.000000 41.000000 0.877353 0.437939 -0.196114
-6250.00000000 19030.00000000 -570.00000000 165 239 53 0.000000 0.000000 0.000000 0.000000 -60.708740 0.000000 41.000000 0.528471 0.841210 -0.114381
-6280.00000000 19050.00000000 -570.00000000 165 239 53 0.000000 0.000000 0.000000 0.000000 -60.708740 0.000000 41.000000 0.408302 0.900542 -0.149379
-6260.00000000 19040.00000000 -590.00000000 165 239 53 0.000000 0.000000 0.000000 0.000000 -60.708740 0.000000 41.000000 0.148381 0.883081 -0.445142
-6270.00000000 19030.00000000 -570.00000000 165 239 53 0.000000 0.000000 0.000000 0.000000 -60.708740 0.000000 41.000000 0.120769 0.982009 -0.145167
-6250.00000000 19040.00000000 -600.00000000 165 239 53 0.000000 0.000000 0.000000 0.000000 -60.708740 0.000000 41.000000 0.451261 0.835380 -0.313853
-6240.00000000 19030.00000000 -680.00000000 165 239 53 0.000000 0.000000 0.000000 0.000000 -60.708740 0.000000 41.000000 0.082422 0.782286 -0.617442
-6250.00000000 19010.00000000 -660.00000000 165 239 53 0.000000 0.000000 0.000000 0.000000 -60.708740 0.000000 41.000000 0.140528 0.867796 -0.476636
-6270.00000000 19020.00000000 -650.00000000 165 239 53 0.000000 0.000000 0.000000 0.000000 -60.708740 0.000000 41.000000 0.578691 0.685424 -0.441940
-6290.00000000 19040.00000000 -610.00000000 165 239 53 0.000000 0.000000 0.000000 0.000000 -60.708740 0.000000 41.000000 0.454553 0.845931 -0.278895
-6350.00000000 19120.00000000 -560.00000000 165 239 53 0.000000 0.000000 0.000000 0.000000 -60.708740 0.000000 41.000000 0.833859 0.162015 -0.527665
-6330.00000000 19110.00000000 -530.00000000 165 239 53 0.000000 0.000000 0.000000 0.000000 -60.708740 0.000000 41.000000 0.849323 0.488548 -0.199929
-6360.00000000 19120.00000000 -630.00000000 165 239 53 0.000000 0.000000 0.000000 0.000000 -60.708740 0.000000 41.000000 0.954089 0.276909 0.114176
-6360.00000000 19120.00000000 -610.00000000 165 239 53 0.000000 0.000000 0.000000 0.000000 -60.708740 0.000000 41.000000 0.879231 0.154988 -0.450479
-6360.00000000 19110.00000000 -640.00000000 165 239 53 0.000000 0.000000 0.000000 0.000000 -60.708740 0.000000 41.000000 0.972132 0.203000 0.117261
-6370.00000000 19110.00000000 -690.00000000 165 239 53 0.000000 0.000000 0.000000 0.000000 -60.708740 0.000000 41.000000 0.938282 0.345683 -0.011396
-6360.00000000 19100.00000000 -680.00000000 165 239 53 0.000000 0.000000 0.000000 0.000000 -60.708740 0.000000 41.000000 0.806717 0.332552 -0.488485
-6330.00000000 19080.00000000 -570.00000000 165 239 53 0.000000 0.000000 0.000000 0.000000 -60.708740 0.000000 41.000000 0.952846 0.267863 -0.142594
-5960.00000000 19020.00000000 -800.00000000 165 239 53 0.000000 0.000000 0.000000 0.000000 -60.708740 0.000000 41.000000 0.910760 -0.217947 -0.350736
-6040.00000000 19110.00000000 -710.00000000 165 239 53 0.000000 0.000000 0.000000 0.000000 -60.708740 0.000000 41.000000 0.979045 0.081689 -0.186543
-5950.00000000 18990.00000000 -790.00000000 165 239 53 0.000000 0.000000 0.000000 0.000000 -60.708740 0.000000 41.000000 0.888934 -0.331289 -0.316298
-6010.00000000 18920.00000000 -740.00000000 165 239 53 0.000000 0.000000 0.000000 0.000000 -60.708740 0.000000 41.000000 -0.408351 0.912552 0.022321
-6060.00000000 18900.00000000 -750.00000000 165 239 53 0.000000 0.000000 0.000000 0.000000 -60.708740 0.000000 41.000000 -0.407999 0.912386 -0.033010
-6120.00000000 19160.00000000 -720.00000000 165 239 53 0.000000 0.000000 0.000000 0.000000 -60.708740 0.000000 41.000000 0.853048 0.160591 -0.496507
-6270.00000000 19020.00000000 -700.00000000 165 239 53 0.000000 0.000000 0.000000 0.000000 -60.708740 0.000000 41.000000 0.547630 0.836002 -0.034660
-6380.00000000 19150.00000000 -740.00000000 165 239 53 0.000000 0.000000 0.000000 0.000000 -60.708740 0.000000 41.000000 0.994356 0.034212 0.100429
-6070.00000000 19460.00000000 0.00000000 165 239 53 0.000000 0.000000 0.000000 0.000000 -60.708740 0.000000 41.000000 0.340865 0.699671 -0.627910
-5970.00000000 19350.00000000 80.00000000 165 239 53 0.000000 0.000000 0.000000 0.000000 -60.708740 0.000000 41.000000 0.920272 0.389901 0.032820
-6020.00000000 19400.00000000 60.00000000 165 239 53 0.000000 0.000000 0.000000 0.000000 -60.708740 0.000000 41.000000 0.822532 0.543860 0.166304
-5960.00000000 19280.00000000 90.00000000 165 239 53 0.000000 0.000000 0.000000 0.000000 -60.708740 0.000000 41.000000 0.994767 -0.072246 0.072246
-5980.00000000 19310.00000000 40.00000000 165 239 53 0.000000 0.000000 0.000000 0.000000 -60.708740 0.000000 41.000000 0.960555 0.013460 -0.277765
-5980.00000000 19290.00000000 10.00000000 165 239 53 0.000000 0.000000 0.000000 0.000000 -60.708740 0.000000 41.000000 0.968933 0.089459 -0.230578
-5990.00000000 19270.00000000 50.00000000 165 239 53 0.000000 0.000000 0.000000 0.000000 -60.708740 0.000000 41.000000 0.997869 -0.032943 0.056323
-5990.00000000 19320.00000000 -10.00000000 165 239 53 0.000000 0.000000 0.000000 0.000000 -60.708740 0.000000 41.000000 0.903860 0.009156 -0.427731
-5990.00000000 19320.00000000 50.00000000 165 239 53 0.000000 0.000000 0.000000 0.000000 -60.708740 0.000000 41.000000 0.901373 0.003925 -0.433025
-5990.00000000 19200.00000000 100.00000000 165 239 53 0.000000 0.000000 0.000000 0.000000 -60.708740 0.000000 41.000000 0.890007 -0.431388 0.147618
-6020.00000000 19170.00000000 90.00000000 165 239 53 0.000000 0.000000 0.000000 0.000000 -60.708740 0.000000 41.000000 -0.417252 0.900534 0.122225
-6000.00000000 19200.00000000 50.00000000 165 239 53 0.000000 0.000000 0.000000 0.000000 -60.708740 0.000000 41.000000 0.566081 -0.714616 0.410945
-6020.00000000 19180.00000000 10.00000000 165 239 53 0.000000 0.000000 0.000000 0.000000 -60.708740 0.000000 41.000000 -0.604075 0.789266 0.110233
-5990.00000000 19220.00000000 50.00000000 165 239 53 0.000000 0.000000 0.000000 0.000000 -60.708740 0.000000 41.000000 0.731305 -0.664686 -0.152923
-6110.00000000 19480.00000000 80.00000000 165 239 53 0.000000 0.000000 0.000000 0.000000 -60.708740 0.000000 41.000000 0.222283 0.817082 -0.531946
-6180.00000000 19380.00000000 10.00000000 165 239 53 0.000000 0.000000 0.000000 0.000000 -60.708740 0.000000 41.000000 -0.661332 0.654768 -0.365948
-6090.00000000 19480.00000000 90.00000000 165 239 53 0.000000 0.000000 0.000000 0.000000 -60.708740 0.000000 41.000000 0.131153 0.901146 -0.413201
-6210.00000000 19440.00000000 60.00000000 165 239 53 0.000000 0.000000 0.000000 0.000000 -60.708740 0.000000 41.000000 -0.512919 0.858436 0.001339
-6230.00000000 19340.00000000 -10.00000000 165 239 53 0.000000 0.000000 0.000000 0.000000 -60.708740 0.000000 41.000000 0.798334 -0.594751 0.094520
-6140.00000000 19180.00000000 10.00000000 165 239 53 0.000000 0.000000 0.000000 0.000000 -60.708740 0.000000 41.000000 0.297885 0.932814 -0.202786
-6190.00000000 19210.00000000 110.00000000 165 239 53 0.000000 0.000000 0.000000 0.000000 -60.708740 0.000000 41.000000 0.263451 0.949775 -0.168879
-6220.00000000 19250.00000000 70.00000000 165 239 53 0.000000 0.000000 0.000000 0.000000 -60.708740 0.000000 41.000000 0.802957 0.574827 -0.157590
-6170.00000000 19210.00000000 100.00000000 165 239 53 0.000000 0.000000 0.000000 0.000000 -60.708740 0.000000 41.000000 0.295618 0.904503 -0.307384
-6150.00000000 19200.00000000 120.00000000 165 239 53 0.000000 0.000000 0.000000 0.000000 -60.708740 0.000000 41.000000 0.334109 0.863757 -0.377220
-6230.00000000 19300.00000000 10.00000000 165 239 53 0.000000 0.000000 0.000000 0.000000 -60.708740 0.000000 41.000000 0.970179 0.239806 0.035301
-6190.00000000 19220.00000000 0.00000000 165 239 53 0.000000 0.000000 0.000000 0.000000 -60.708740 0.000000 41.000000 0.565116 0.802739 -0.190403
-6210.00000000 19240.00000000 110.00000000 165 239 53 0.000000 0.000000 0.000000 0.000000 -60.708740 0.000000 41.000000 0.679374 0.541822 -0.494853
-6230.00000000 19300.00000000 50.00000000 165 239 53 0.000000 0.000000 0.000000 0.000000 -60.708740 0.000000 41.000000 0.903693 0.395455 -0.164178
-6240.00000000 19360.00000000 20.00000000 165 239 53 0.000000 0.000000 0.000000 0.000000 -60.708740 0.000000 41.000000 0.946286 -0.138645 0.292097
-6090.00000000 19160.00000000 20.00000000 165 239 53 0.000000 0.000000 0.000000 0.000000 -60.708740 0.000000 41.000000 -0.454993 0.866725 -0.204374
-6030.00000000 19410.00000000 -40.00000000 165 239 53 0.000000 0.000000 0.000000 0.000000 -60.708740 0.000000 41.000000 0.572270 0.779228 -0.255562
-5990.00000000 19350.00000000 -30.00000000 165 239 53 0.000000 0.000000 0.000000 0.000000 -60.708740 0.000000 41.000000 0.968727 -0.110458 -0.222185
-6020.00000000 19380.00000000 -30.00000000 165 239 53 0.000000 0.000000 0.000000 0.000000 -60.708740 0.000000 41.000000 0.800096 0.233684 -0.552484
-6070.00000000 19400.00000000 -80.00000000 165 239 53 0.000000 0.000000 0.000000 0.000000 -60.708740 0.000000 41.000000 0.558837 0.818350 -0.134180
-6040.00000000 19360.00000000 -220.00000000 165 239 53 0.000000 0.000000 0.000000 0.000000 -60.708740 0.000000 41.000000 0.798268 0.437031 -0.414454
-6050.00000000 19340.00000000 -220.00000000 165 239 53 0.000000 0.000000 0.000000 0.000000 -60.708740 0.000000 41.000000 0.582974 0.689271 -0.430171
-6030.00000000 19360.00000000 -210.00000000 165 239 53 0.000000 0.000000 0.000000 0.000000 -60.708740 0.000000 41.000000 0.825046 0.279174 -0.491285
-6010.00000000 19220.00000000 -100.00000000 165 239 53 0.000000 0.000000 0.000000 0.000000 -60.708740 0.000000 41.000000 0.948571 -0.271213 0.163268
-6000.00000000 19280.00000000 -100.00000000 165 239 53 0.000000 0.000000 0.000000 0.000000 -60.708740 0.000000 41.000000 0.967826 -0.013225 0.251274
-6010.00000000 19260.00000000 -100.00000000 165 239 53 0.000000 0.000000 0.000000 0.000000 -60.708740 0.000000 41.000000 0.980693 -0.071170 0.182146
-6000.00000000 19220.00000000 -40.00000000 165 239 53 0.000000 0.000000 0.000000 0.000000 -60.708740 0.000000 41.000000 0.930836 -0.328775 -0.159532
-6050.00000000 19320.00000000 -220.00000000 165 239 53 0.000000 0.000000 0.000000 0.000000 -60.708740 0.000000 41.000000 0.864328 0.289129 -0.411512
-6010.00000000 19330.00000000 -190.00000000 165 239 53 0.000000 0.000000 0.000000 0.000000 -60.708740 0.000000 41.000000 0.975848 0.212141 -0.052126
-6030.00000000 19310.00000000 -200.00000000 165 239 53 0.000000 0.000000 0.000000 0.000000 -60.708740 0.000000 41.000000 0.913640 0.404441 -0.041107
-6030.00000000 19310.00000000 -330.00000000 165 239 53 0.000000 0.000000 0.000000 0.000000 -60.708740 0.000000 41.000000 0.935683 0.352001 -0.024320
-6060.00000000 19330.00000000 -290.00000000 165 239 53 0.000000 0.000000 0.000000 0.000000 -60.708740 0.000000 41.000000 0.772560 0.486306 -0.408237
-6050.00000000 19300.00000000 -290.00000000 165 239 53 0.000000 0.000000 0.000000 0.000000 -60.708740 0.000000 41.000000 0.869284 0.377352 -0.319298
-6020.00000000 19250.00000000 -190.00000000 165 239 53 0.000000 0.000000 0.000000 0.000000 -60.708740 0.000000 41.000000 0.998125 -0.019984 -0.057847
-6030.00000000 19200.00000000 -220.00000000 165 239 53 0.000000 0.000000 0.000000 0.000000 -60.708740 0.000000 41.000000 0.921102 -0.381657 0.076871
-6010.00000000 19180.00000000 -190.00000000 165 239 53 0.000000 0.000000 0.000000 0.000000 -60.708740 0.000000 41.000000 0.862512 -0.491013 -0.122393
-6020.00000000 19250.00000000 -220.00000000 165 239 53 0.000000 0.000000 0.000000 0.000000 -60.708740 0.000000 41.000000 0.973953 -0.001175 -0.226747
-6040.00000000 19220.00000000 -310.00000000 165 239 53 0.000000 0.000000 0.000000 0.000000 -60.708740 0.000000 41.000000 0.975099 0.054644 0.214935
-6030.00000000 19220.00000000 -340.00000000 165 239 53 0.000000 0.000000 0.000000 0.000000 -60.708740 0.000000 41.000000 0.966240 -0.188566 -0.175562
-6010.00000000 19210.00000000 -310.00000000 165 239 53 0.000000 0.000000 0.000000 0.000000 -60.708740 0.000000 41.000000 0.879101 -0.142908 -0.454707
-6050.00000000 19200.00000000 -320.00000000 165 239 53 0.000000 0.000000 0.000000 0.000000 -60.708740 0.000000 41.000000 0.848094 -0.526740 0.057285
-6030.00000000 19210.00000000 -340.00000000 165 239 53 0.000000 0.000000 0.000000 0.000000 -60.708740 0.000000 41.000000 0.857970 -0.237568 -0.455466
-6050.00000000 19210.00000000 -480.00000000 165 239 53 0.000000 0.000000 0.000000 0.000000 -60.708740 0.000000 41.000000 0.989344 0.014599 -0.144864
-6060.00000000 19280.00000000 -440.00000000 165 239 53 0.000000 0.000000 0.000000 0.000000 -60.708740 0.000000 41.000000 0.961894 0.231640 -0.145266
-6040.00000000 19240.00000000 -390.00000000 165 239 53 0.000000 0.000000 0.000000 0.000000 -60.708740 0.000000 41.000000 0.870767 0.465284 -0.158984
-6070.00000000 19210.00000000 -530.00000000 165 239 53 0.000000 0.000000 0.000000 0.000000 -60.708740 0.000000 41.000000 0.970155 0.086375 -0.226578
-6040.00000000 19210.00000000 -390.00000000 165 239 53 0.000000 0.000000 0.000000 0.000000 -60.708740 0.000000 41.000000 0.997802 -0.062429 0.022220
-6030.00000000 19210.00000000 -410.00000000 165 239 53 0.000000 0.000000 0.000000 0.000000 -60.708740 0.000000 41.000000 0.995536 -0.011839 -0.093634
-6040.00000000 19200.00000000 -400.00000000 165 239 53 0.000000 0.000000 0.000000 0.000000 -60.708740 0.000000 41.000000 0.988360 -0.151796 0.010120
-6060.00000000 19190.00000000 -440.00000000 165 239 53 0.000000 0.000000 0.000000 0.000000 -60.708740 0.000000 41.000000 0.983225 -0.117599 0.139422
-6050.00000000 19180.00000000 -400.00000000 165 239 53 0.000000 0.000000 0.000000 0.000000 -60.708740 0.000000 41.000000 0.974958 -0.157251 -0.157251
-6070.00000000 19270.00000000 -480.00000000 165 239 53 0.000000 0.000000 0.000000 0.000000 -60.708740 0.000000 41.000000 0.656382 0.732883 -0.179013
-6070.00000000 19210.00000000 -500.00000000 165 239 53 0.000000 0.000000 0.000000 0.000000 -60.708740 0.000000 41.000000 0.965887 0.035592 -0.256506
-6040.00000000 19320.00000000 -370.00000000 165 239 53 0.000000 0.000000 0.000000 0.000000 -60.708740 0.000000 41.000000 0.795993 0.603025 -0.052499
-6050.00000000 19260.00000000 -410.00000000 165 239 53 0.000000 0.000000 0.000000 0.000000 -60.708740 0.000000 41.000000 0.931457 0.253006 -0.261487
-6100.00000000 19440.00000000 -50.00000000 165 239 53 0.000000 0.000000 0.000000 0.000000 -60.708740 0.000000 41.000000 0.150568 0.913260 -0.378531
-6140.00000000 19440.00000000 -30.00000000 165 239 53 0.000000 0.000000 0.000000 0.000000 -60.708740 0.000000 41.000000 -0.199711 0.851398 -0.485012
-6140.00000000 19430.00000000 -30.00000000 165 239 53 0.000000 0.000000 0.000000 0.000000 -60.708740 0.000000 41.000000 -0.027298 0.924226 -0.380869
-6080.00000000 19400.00000000 -100.00000000 165 239 53 0.000000 0.000000 0.000000 0.000000 -60.708740 0.000000 41.000000 0.555504 0.672983 -0.488374
-6090.00000000 19410.00000000 -140.00000000 165 239 53 0.000000 0.000000 0.000000 0.000000 -60.708740 0.000000 41.000000 0.501177 0.855632 -0.129289
-6120.00000000 19420.00000000 -110.00000000 165 239 53 0.000000 0.000000 0.000000 0.000000 -60.708740 0.000000 41.000000 0.396499 0.914265 0.083115
-6130.00000000 19380.00000000 -180.00000000 165 239 53 0.000000 0.000000 0.000000 0.000000 -60.708740 0.000000 41.000000 0.072264 0.939428 -0.335041
-6180.00000000 19400.00000000 -140.00000000 165 239 53 0.000000 0.000000 0.000000 0.000000 -60.708740 0.000000 41.000000 -0.501674 0.862990 0.059756
-6220.00000000 19370.00000000 -160.00000000 165 239 53 0.000000 0.000000 0.000000 0.000000 -60.708740 0.000000 41.000000 -0.435219 0.859748 -0.267240
-6210.00000000 19380.00000000 -120.00000000 165 239 53 0.000000 0.000000 0.000000 0.000000 -60.708740 0.000000 41.000000 0.839064 -0.529705 0.124036
-6080.00000000 19360.00000000 -260.00000000 165 239 53 0.000000 0.000000 0.000000 0.000000 -60.708740 0.000000 41.000000 0.797770 0.452875 -0.398079
-6120.00000000 19390.00000000 -280.00000000 165 239 53 0.000000 0.000000 0.000000 0.000000 -60.708740 0.000000 41.000000 0.069908 0.996996 -0.033341
-6130.00000000 19380.00000000 -320.00000000 165 239 53 0.000000 0.000000 0.000000 0.000000 -60.708740 0.000000 41.000000 0.162130 0.981314 -0.103617
-6110.00000000 19350.00000000 -340.00000000 165 239 53 0.000000 0.000000 0.000000 0.000000 -60.708740 0.000000 41.000000 0.263220 0.811464 -0.521767
-6110.00000000 19380.00000000 -320.00000000 165 239 53 0.000000 0.000000 0.000000 0.000000 -60.708740 0.000000 41.000000 0.120973 0.838065 -0.531989
-6080.00000000 19370.00000000 -320.00000000 165 239 53 0.000000 0.000000 0.000000 0.000000 -60.708740 0.000000 41.000000 0.505369 0.730715 -0.458975
-6080.00000000 19360.00000000 -280.00000000 165 239 53 0.000000 0.000000 0.000000 0.000000 -60.708740 0.000000 41.000000 0.820311 0.571313 -0.026283
-6190.00000000 19380.00000000 -270.00000000 165 239 53 0.000000 0.000000 0.000000 0.000000 -60.708740 0.000000 41.000000 -0.487636 0.756903 -0.435096
-6220.00000000 19360.00000000 -230.00000000 165 239 53 0.000000 0.000000 0.000000 0.000000 -60.708740 0.000000 41.000000 -0.411769 0.905337 -0.103982
-6220.00000000 19380.00000000 -290.00000000 165 239 53 0.000000 0.000000 0.000000 0.000000 -60.708740 0.000000 41.000000 -0.275374 0.949704 0.149105
-6190.00000000 19190.00000000 -60.00000000 165 239 53 0.000000 0.000000 0.000000 0.000000 -60.708740 0.000000 41.000000 0.571302 0.820647 0.012330
-6180.00000000 19180.00000000 -70.00000000 165 239 53 0.000000 0.000000 0.000000 0.000000 -60.708740 0.000000 41.000000 0.496854 0.722848 -0.480237
-6220.00000000 19270.00000000 -120.00000000 165 239 53 0.000000 0.000000 0.000000 0.000000 -60.708740 0.000000 41.000000 0.979615 0.131848 0.151563
-6240.00000000 19290.00000000 -120.00000000 165 239 53 0.000000 0.000000 0.000000 0.000000 -60.708740 0.000000 41.000000 0.910886 -0.257963 -0.322089
-6240.00000000 19310.00000000 -150.00000000 165 239 53 0.000000 0.000000 0.000000 0.000000 -60.708740 0.000000 41.000000 0.939247 -0.276086 0.203943
-6250.00000000 19330.00000000 -180.00000000 165 239 53 0.000000 0.000000 0.000000 0.000000 -60.708740 0.000000 41.000000 0.924556 -0.311026 0.220132
-6250.00000000 19230.00000000 -130.00000000 165 239 53 0.000000 0.000000 0.000000 0.000000 -60.708740 0.000000 41.000000 0.810309 0.578378 -0.094222
-6270.00000000 19300.00000000 -250.00000000 165 239 53 0.000000 0.000000 0.000000 0.000000 -60.708740 0.000000 41.000000 0.865768 -0.467544 -0.178463
-6280.00000000 19280.00000000 -270.00000000 165 239 53 0.000000 0.000000 0.000000 0.000000 -60.708740 0.000000 41.000000 0.850690 -0.368580 -0.374801
-6250.00000000 19300.00000000 -190.00000000 165 239 53 0.000000 0.000000 0.000000 0.000000 -60.708740 0.000000 41.000000 0.931223 -0.348362 -0.107084
-6270.00000000 19300.00000000 -300.00000000 165 239 53 0.000000 0.000000 0.000000 0.000000 -60.708740 0.000000 41.000000 0.719181 -0.601764 0.347360
-6260.00000000 19310.00000000 -300.00000000 165 239 53 0.000000 0.000000 0.000000 0.000000 -60.708740 0.000000 41.000000 0.907366 -0.367851 -0.203400
-6240.00000000 19170.00000000 -240.00000000 165 239 53 0.000000 0.000000 0.000000 0.000000 -60.708740 0.000000 41.000000 0.783873 0.410600 -0.465780
-6250.00000000 19210.00000000 -250.00000000 165 239 53 0.000000 0.000000 0.000000 0.000000 -60.708740 0.000000 41.000000 0.733901 0.417251 -0.535995
-6250.00000000 19240.00000000 -190.00000000 165 239 53 0.000000 0.000000 0.000000 0.000000 -60.708740 0.000000 41.000000 0.999904 0.004965 0.012908
-6300.00000000 19210.00000000 -350.00000000 165 239 53 0.000000 0.000000 0.000000 0.000000 -60.708740 0.000000 41.000000 0.987329 0.095777 -0.126520
-6300.00000000 19220.00000000 -350.00000000 165 239 53 0.000000 0.000000 0.000000 0.000000 -60.708740 0.000000 41.000000 0.972717 -0.166570 -0.161484
-6290.00000000 19240.00000000 -350.00000000 165 239 53 0.000000 0.000000 0.000000 0.000000 -60.708740 0.000000 41.000000 0.936458 -0.343763 -0.069806
-6150.00000000 19340.00000000 -510.00000000 165 239 53 0.000000 0.000000 0.000000 0.000000 -60.708740 0.000000 41.000000 0.112045 0.978854 -0.171146
-6140.00000000 19360.00000000 -410.00000000 165 239 53 0.000000 0.000000 0.000000 0.000000 -60.708740 0.000000 41.000000 0.117249 0.920061 -0.373818
-6130.00000000 19370.00000000 -410.00000000 165 239 53 0.000000 0.000000 0.000000 0.000000 -60.708740 0.000000 41.000000 -0.056900 0.927610 -0.369191
-6080.00000000 19280.00000000 -490.00000000 165 239 53 0.000000 0.000000 0.000000 0.000000 -60.708740 0.000000 41.000000 0.785639 0.474623 -0.396869
-6080.00000000 19230.00000000 -530.00000000 165 239 53 0.000000 0.000000 0.000000 0.000000 -60.708740 0.000000 41.000000 0.814493 0.431952 -0.387322
-6170.00000000 19280.00000000 -690.00000000 165 239 53 0.000000 0.000000 0.000000 0.000000 -60.708740 0.000000 41.000000 0.116548 0.966968 -0.226693
-6120.00000000 19260.00000000 -660.00000000 165 239 53 0.000000 0.000000 0.000000 0.000000 -60.708740 0.000000 41.000000 0.385308 0.872654 -0.300022
-6170.00000000 19290.00000000 -650.00000000 165 239 53 0.000000 0.000000 0.000000 0.000000 -60.708740 0.000000 41.000000 0.036970 0.998185 -0.047533
-6160.00000000 19250.00000000 -680.00000000 165 239 53 0.000000 0.000000 0.000000 0.000000 -60.708740 0.000000 41.000000 0.341521 0.932040 -0.121097
-6080.00000000 19180.00000000 -600.00000000 165 239 53 0.000000 0.000000 0.000000 0.000000 -60.708740 0.000000 41.000000 0.940726 0.171665 -0.292518
-6190.00000000 19300.00000000 -650.00000000 165 239 53 0.000000 0.000000 0.000000 0.000000 -60.708740 0.000000 41.000000 0.086416 0.906679 -0.412875
-6280.00000000 19300.00000000 -360.00000000 165 239 53 0.000000 0.000000 0.000000 0.000000 -60.708740 0.000000 41.000000 -0.710821 0.692939 0.120705
-6260.00000000 19290.00000000 -390.00000000 165 239 53 0.000000 0.000000 0.000000 0.000000 -60.708740 0.000000 41.000000 0.826925 -0.448902 0.338646
-6240.00000000 19280.00000000 -430.00000000 165 239 53 0.000000 0.000000 0.000000 0.000000 -60.708740 0.000000 41.000000 0.823861 -0.555559 0.112278
-6280.00000000 19300.00000000 -460.00000000 165 239 53 0.000000 0.000000 0.000000 0.000000 -60.708740 0.000000 41.000000 0.826897 -0.549806 0.118128
-6290.00000000 19260.00000000 -510.00000000 165 239 53 0.000000 0.000000 0.000000 0.000000 -60.708740 0.000000 41.000000 -0.519995 0.853987 0.017650
-6320.00000000 19190.00000000 -430.00000000 165 239 53 0.000000 0.000000 0.000000 0.000000 -60.708740 0.000000 41.000000 0.986909 0.122031 -0.105444
-6310.00000000 19230.00000000 -390.00000000 165 239 53 0.000000 0.000000 0.000000 0.000000 -60.708740 0.000000 41.000000 0.951226 0.268912 -0.151179
-6320.00000000 19200.00000000 -420.00000000 165 239 53 0.000000 0.000000 0.000000 0.000000 -60.708740 0.000000 41.000000 0.993920 -0.059255 -0.092796
-6360.00000000 19220.00000000 -630.00000000 165 239 53 0.000000 0.000000 0.000000 0.000000 -60.708740 0.000000 41.000000 0.880263 -0.457965 0.124121
-6340.00000000 19230.00000000 -650.00000000 165 239 53 0.000000 0.000000 0.000000 0.000000 -60.708740 0.000000 41.000000 0.766546 -0.635138 0.094906
-6340.00000000 19220.00000000 -530.00000000 165 239 53 0.000000 0.000000 0.000000 0.000000 -60.708740 0.000000 41.000000 0.925698 -0.286695 -0.246758
-6330.00000000 19240.00000000 -620.00000000 165 239 53 0.000000 0.000000 0.000000 0.000000 -60.708740 0.000000 41.000000 0.804229 -0.532509 -0.263912
-6150.00000000 19180.00000000 -770.00000000 165 239 53 0.000000 0.000000 0.000000 0.000000 -60.708740 0.000000 41.000000 0.856457 0.391833 -0.336078
-6130.00000000 19250.00000000 -710.00000000 165 239 53 0.000000 0.000000 0.000000 0.000000 -60.708740 0.000000 41.000000 0.473117 0.836099 -0.277666
-6180.00000000 19250.00000000 -710.00000000 165 239 53 0.000000 0.000000 0.000000 0.000000 -60.708740 0.000000 41.000000 0.461635 0.736300 -0.494727
-6300.00000000 19260.00000000 -790.00000000 165 239 53 0.000000 0.000000 0.000000 0.000000 -60.708740 0.000000 41.000000 -0.373334 0.845078 -0.382706
-6300.00000000 19250.00000000 -710.00000000 165 239 53 0.000000 0.000000 0.000000 0.000000 -60.708740 0.000000 41.000000 -0.351668 0.906166 -0.234932
-6310.00000000 19250.00000000 -710.00000000 165 239 53 0.000000 0.000000 0.000000 0.000000 -60.708740 0.000000 41.000000 -0.444805 0.860765 -0.247451
-6260.00000000 19250.00000000 -820.00000000 165 239 53 0.000000 0.000000 0.000000 0.000000 -60.708740 0.000000 41.000000 -0.517129 0.855515 -0.025925
-6290.00000000 19250.00000000 -800.00000000 165 239 53 0.000000 0.000000 0.000000 0.000000 -60.708740 0.000000 41.000000 -0.223822 0.955600 -0.191656
-6000.00000000 19160.00000000 -130.00000000 165 239 53 0.000000 0.000000 0.000000 0.000000 -60.708740 0.000000 41.000000 -0.611151 0.791309 -0.018016
-6070.00000000 19150.00000000 -120.00000000 165 239 53 0.000000 0.000000 0.000000 0.000000 -60.708740 0.000000 41.000000 -0.683455 0.716501 -0.139695
-6020.00000000 19160.00000000 -50.00000000 165 239 53 0.000000 0.000000 0.000000 0.000000 -60.708740 0.000000 41.000000 -0.687800 0.547228 -0.476941
-6050.00000000 19130.00000000 -300.00000000 165 239 53 0.000000 0.000000 0.000000 0.000000 -60.708740 0.000000 41.000000 0.781310 -0.621917 0.052657
-6070.00000000 19140.00000000 -520.00000000 165 239 53 0.000000 0.000000 0.000000 0.000000 -60.708740 0.000000 41.000000 0.830494 -0.456850 0.318696
-6060.00000000 19160.00000000 -520.00000000 165 239 53 0.000000 0.000000 0.000000 0.000000 -60.708740 0.000000 41.000000 0.928571 -0.224723 -0.295390
-6070.00000000 19120.00000000 -430.00000000 165 239 53 0.000000 0.000000 0.000000 0.000000 -60.708740 0.000000 41.000000 0.888559 -0.454580 0.061801
-6050.00000000 19160.00000000 -380.00000000 165 239 53 0.000000 0.000000 0.000000 0.000000 -60.708740 0.000000 41.000000 0.966143 -0.148737 0.210818
-6070.00000000 19110.00000000 -420.00000000 165 239 53 0.000000 0.000000 0.000000 0.000000 -60.708740 0.000000 41.000000 0.886710 -0.457790 -0.064613
-6070.00000000 19120.00000000 -470.00000000 165 239 53 0.000000 0.000000 0.000000 0.000000 -60.708740 0.000000 41.000000 0.918015 -0.379630 -0.114579
-6100.00000000 19150.00000000 -30.00000000 165 239 53 0.000000 0.000000 0.000000 0.000000 -60.708740 0.000000 41.000000 -0.347717 0.936361 0.048185
-6130.00000000 19090.00000000 -260.00000000 165 239 53 0.000000 0.000000 0.000000 0.000000 -60.708740 0.000000 41.000000 -0.554268 0.731897 -0.396376
-6090.00000000 19110.00000000 -270.00000000 165 239 53 0.000000 0.000000 0.000000 0.000000 -60.708740 0.000000 41.000000 -0.441428 0.840741 -0.313523
-6080.00000000 19090.00000000 -350.00000000 165 239 53 0.000000 0.000000 0.000000 0.000000 -60.708740 0.000000 41.000000 -0.710965 0.643863 -0.282788
-6090.00000000 19090.00000000 -350.00000000 165 239 53 0.000000 0.000000 0.000000 0.000000 -60.708740 0.000000 41.000000 -0.320705 0.947139 0.008735
-6200.00000000 19110.00000000 -250.00000000 165 239 53 0.000000 0.000000 0.000000 0.000000 -60.708740 0.000000 41.000000 -0.009086 0.912538 -0.408890
-6210.00000000 19110.00000000 -260.00000000 165 239 53 0.000000 0.000000 0.000000 0.000000 -60.708740 0.000000 41.000000 0.296441 0.909766 -0.290600
-6180.00000000 19110.00000000 -260.00000000 165 239 53 0.000000 0.000000 0.000000 0.000000 -60.708740 0.000000 41.000000 0.221149 0.784072 -0.579935
-6230.00000000 19140.00000000 -270.00000000 165 239 53 0.000000 0.000000 0.000000 0.000000 -60.708740 0.000000 41.000000 0.437189 0.854436 -0.280721
-6170.00000000 19100.00000000 -310.00000000 165 239 53 0.000000 0.000000 0.000000 0.000000 -60.708740 0.000000 41.000000 -0.194206 0.960462 -0.199491
-6160.00000000 19100.00000000 -280.00000000 165 239 53 0.000000 0.000000 0.000000 0.000000 -60.708740 0.000000 41.000000 -0.161398 0.981736 -0.100722
-6220.00000000 19060.00000000 -340.00000000 165 239 53 0.000000 0.000000 0.000000 0.000000 -60.708740 0.000000 41.000000 0.578947 0.796619 -0.173835
-6280.00000000 19160.00000000 -330.00000000 165 239 53 0.000000 0.000000 0.000000 0.000000 -60.708740 0.000000 41.000000 0.934461 0.326993 -0.140922
-6100.00000000 19090.00000000 -390.00000000 165 239 53 0.000000 0.000000 0.000000 0.000000 -60.708740 0.000000 41.000000 -0.188387 0.980333 -0.058796
-6080.00000000 19140.00000000 -520.00000000 165 239 53 0.000000 0.000000 0.000000 0.000000 -60.708740 0.000000 41.000000 0.818779 -0.544345 0.182454
-6100.00000000 19110.00000000 -510.00000000 165 239 53 0.000000 0.000000 0.000000 0.000000 -60.708740 0.000000 41.000000 0.961042 -0.274052 -0.035962
-6100.00000000 19080.00000000 -380.00000000 165 239 53 0.000000 0.000000 0.000000 0.000000 -60.708740 0.000000 41.000000 -0.546431 0.779023 -0.307467
-6120.00000000 19080.00000000 -360.00000000 165 239 53 0.000000 0.000000 0.000000 0.000000 -60.708740 0.000000 41.000000 -0.393979 0.907987 -0.142623
-6150.00000000 19060.00000000 -360.00000000 165 239 53 0.000000 0.000000 0.000000 0.000000 -60.708740 0.000000 41.000000 -0.088589 0.788589 -0.608506
-6120.00000000 19060.00000000 -470.00000000 165 239 53 0.000000 0.000000 0.000000 0.000000 -60.708740 0.000000 41.000000 -0.615893 0.758619 -0.212538
-6130.00000000 19050.00000000 -490.00000000 165 239 53 0.000000 0.000000 0.000000 0.000000 -60.708740 0.000000 41.000000 -0.350311 0.878052 -0.326047
-6180.00000000 19070.00000000 -390.00000000 165 239 53 0.000000 0.000000 0.000000 0.000000 -60.708740 0.000000 41.000000 -0.337207 0.941423 0.003761
-6220.00000000 19070.00000000 -360.00000000 165 239 53 0.000000 0.000000 0.000000 0.000000 -60.708740 0.000000 41.000000 0.494144 0.813049 -0.307853
-6090.00000000 19160.00000000 -670.00000000 165 239 53 0.000000 0.000000 0.000000 0.000000 -60.708740 0.000000 41.000000 0.995794 0.009647 0.091111
