//X Y Z R G B PointSourceId ScanDirectionFlag NumberOfReturns ReturnNumber GpsTime Intensity Classification Nx Ny Nz
4610.00000000 -11260.00000000 -500.00000000 254 159 49 0.000000 0.000000 0.000000 0.000000 -60.708740 0.000000 74.000000 0.849608 0.514957 0.113954
4620.00000000 -11310.00000000 -480.00000000 254 159 49 0.000000 0.000000 0.000000 0.000000 -60.708740 0.000000 74.000000 0.713265 0.625926 -0.315389
4610.00000000 -11280.00000000 -450.00000000 254 159 49 0.000000 0.000000 0.000000 0.000000 -60.708740 0.000000 74.000000 0.798374 0.601894 -0.017988
4600.00000000 -11290.00000000 -510.00000000 254 159 49 0.000000 0.000000 0.000000 0.000000 -60.708740 0.000000 74.000000 0.845279 0.533932 -0.020483
4620.00000000 -11290.00000000 -490.00000000 254 159 49 0.000000 0.000000 0.000000 0.000000 -60.708740 0.000000 74.000000 0.727145 0.475377 -0.495254
4670.00000000 -11160.00000000 -540.00000000 254 159 49 0.000000 0.000000 0.000000 0.000000 -60.708740 0.000000 74.000000 -0.293254 0.922677 -0.250339
4670.00000000 -11180.00000000 -560.00000000 254 159 49 0.000000 0.000000 0.000000 0.000000 -60.708740 0.000000 74.000000 -0.407933 0.906363 -0.109989
4700.00000000 -11180.00000000 -600.00000000 254 159 49 0.000000 0.000000 0.000000 0.000000 -60.708740 0.000000 74.000000 0.107976 0.922576 -0.370397
4660.00000000 -11190.00000000 -580.00000000 254 159 49 0.000000 0.000000 0.000000 0.000000 -60.708740 0.000000 74.000000 -0.407028 0.907131 -0.106966
4630.00000000 -11210.00000000 -550.00000000 254 159 49 0.000000 0.000000 0.000000 0.000000 -60.708740 0.000000 74.000000 0.804519 -0.589407 -0.073138
4650.00000000 -11200.00000000 -600.00000000 254 159 49 0.000000 0.000000 0.000000 0.000000 -60.708740 0.000000 74.000000 -0.490752 0.867605 -0.080151
4660.00000000 -11200.00000000 -600.00000000 254 159 49 0.000000 0.000000 0.000000 0.000000 -60.708740 0.000000 74.000000 -0.455792 0.888315 -0.056119
4680.00000000 -11170.00000000 -620.00000000 254 159 49 0.000000 0.000000 0.000000 0.000000 -60.708740 0.000000 74.000000 -0.211424 0.958720 -0.190148
4700.00000000 -11180.00000000 -640.00000000 254 159 49 0.000000 0.000000 0.000000 0.000000 -60.708740 0.000000 74.000000 0.233138 0.922541 -0.307514
4650.00000000 -11190.00000000 -650.00000000 254 159 49 0.000000 0.000000 0.000000 0.000000 -60.708740 0.000000 74.000000 -0.175608 0.974054 0.142760
4630.00000000 -11190.00000000 -610.00000000 254 159 49 0.000000 0.000000 0.000000 0.000000 -60.708740 0.000000 74.000000 -0.298516 0.941893 -0.154029
4650.00000000 -11170.00000000 -690.00000000 254 159 49 0.000000 0.000000 0.000000 0.000000 -60.708740 0.000000 74.000000 -0.397674 0.912311 -0.097698
4640.00000000 -11210.00000000 -620.00000000 254 159 49 0.000000 0.000000 0.000000 0.000000 -60.708740 0.000000 74.000000 0.814215 -0.546361 0.196325
4630.00000000 -11210.00000000 -650.00000000 254 159 49 0.000000 0.000000 0.000000 0.000000 -60.708740 0.000000 74.000000 -0.469000 0.882903 -0.022845
4640.00000000 -11200.00000000 -650.00000000 254 159 49 0.000000 0.000000 0.000000 0.000000 -60.708740 0.000000 74.000000 -0.370408 0.927983 0.040575
4660.00000000 -11200.00000000 -650.00000000 254 159 49 0.000000 0.000000 0.000000 0.000000 -60.708740 0.000000 74.000000 0.101550 0.985628 0.135001
4640.00000000 -11210.00000000 -670.00000000 254 159 49 0.000000 0.000000 0.000000 0.000000 -60.708740 0.000000 74.000000 -0.614302 0.735567 -0.285611
4660.00000000 -11200.00000000 -660.00000000 254 159 49 0.000000 0.000000 0.000000 0.000000 -60.708740 0.000000 74.000000 0.138523 0.988288 0.064023
4650.00000000 -11250.00000000 -560.00000000 254 159 49 0.000000 0.000000 0.000000 0.000000 -60.708740 0.000000 74.000000 0.648975 0.591959 -0.477928
4640.00000000 -11310.00000000 -650.00000000 254 159 49 0.000000 0.000000 0.000000 0.000000 -60.708740 0.000000 74.000000 0.261783 0.948117 -0.180400
4610.00000000 -11210.00000000 -540.00000000 254 159 49 0.000000 0.000000 0.000000 0.000000 -60.708740 0.000000 74.000000 0.984864 -0.024190 -0.171631
4610.00000000 -11230.00000000 -640.00000000 254 159 49 0.000000 0.000000 0.000000 0.000000 -60.708740 0.000000 74.000000 0.918276 -0.375344 -0.126038
4620.00000000 -11210.00000000 -640.00000000 254 159 49 0.000000 0.000000 0.000000 0.000000 -60.708740 0.000000 74.000000 -0.468970 0.882845 0.025531
4600.00000000 -11230.00000000 -690.00000000 254 159 49 0.000000 0.000000 0.000000 0.000000 -60.708740 0.000000 74.000000 0.916566 -0.352087 -0.189585
4620.00000000 -11230.00000000 -660.00000000 254 159 49 0.000000 0.000000 0.000000 0.000000 -60.708740 0.000000 74.000000 0.812640 -0.579237 -0.064043
4580.00000000 -11230.00000000 -690.00000000 254 159 49 0.000000 0.000000 0.000000 0.000000 -60.708740 0.000000 74.000000 0.838839 -0.474261 -0.267255
4610.00000000 -11260.00000000 -530.00000000 254 159 49 0.000000 0.000000 0.000000 0.000000 -60.708740 0.000000 74.000000 0.947610 0.107352 -0.300850
4610.00000000 -11260.00000000 -550.00000000 254 159 49 0.000000 0.000000 0.000000 0.000000 -60.708740 0.000000 74.000000 0.905177 0.287007 -0.313500
4620.00000000 -11240.00000000 -530.00000000 254 159 49 0.000000 0.000000 0.000000 0.000000 -60.708740 0.000000 74.000000 0.989554 0.141365 0.028273
4600.00000000 -11250.00000000 -570.00000000 254 159 49 0.000000 0.000000 0.000000 0.000000 -60.708740 0.000000 74.000000 0.925631 0.369447 0.081950
4610.00000000 -11250.00000000 -570.00000000 254 159 49 0.000000 0.000000 0.000000 0.000000 -60.708740 0.000000 74.000000 0.996565 0.080282 0.020338
4620.00000000 -11310.00000000 -560.00000000 254 159 49 0.000000 0.000000 0.000000 0.000000 -60.708740 0.000000 74.000000 0.485658 0.745773 -0.456025
4620.00000000 -11300.00000000 -540.00000000 254 159 49 0.000000 0.000000 0.000000 0.000000 -60.708740 0.000000 74.000000 0.659675 0.691776 -0.293724
4620.00000000 -11310.00000000 -540.00000000 254 159 49 0.000000 0.000000 0.000000 0.000000 -60.708740 0.000000 74.000000 0.630552 0.748296 -0.206053
4610.00000000 -11310.00000000 -600.00000000 254 159 49 0.000000 0.000000 0.000000 0.000000 -60.708740 0.000000 74.000000 0.574835 0.661982 -0.480984
4610.00000000 -11300.00000000 -580.00000000 254 159 49 0.000000 0.000000 0.000000 0.000000 -60.708740 0.000000 74.000000 0.795696 0.552783 -0.247585
4620.00000000 -11300.00000000 -580.00000000 254 159 49 0.000000 0.000000 0.000000 0.000000 -60.708740 0.000000 74.000000 0.526882 0.755252 -0.389860
4610.00000000 -11310.00000000 -600.00000000 254 159 49 0.000000 0.000000 0.000000 0.000000 -60.708740 0.000000 74.000000 0.574835 0.661982 -0.480984
4590.00000000 -11250.00000000 -630.00000000 254 159 49 0.000000 0.000000 0.000000 0.000000 -60.708740 0.000000 74.000000 0.899068 -0.152942 -0.410227
4610.00000000 -11250.00000000 -660.00000000 254 159 49 0.000000 0.000000 0.000000 0.000000 -60.708740 0.000000 74.000000 0.985788 -0.167527 -0.012536
4600.00000000 -11280.00000000 -630.00000000 254 159 49 0.000000 0.000000 0.000000 0.000000 -60.708740 0.000000 74.000000 0.905867 0.259028 -0.335127
4590.00000000 -11290.00000000 -610.00000000 254 159 49 0.000000 0.000000 0.000000 0.000000 -60.708740 0.000000 74.000000 0.710223 0.629332 -0.315475
4560.00000000 -11250.00000000 -650.00000000 254 159 49 0.000000 0.000000 0.000000 0.000000 -60.708740 0.000000 74.000000 0.967460 -0.252954 0.005994
4570.00000000 -11270.00000000 -620.00000000 254 159 49 0.000000 0.000000 0.000000 0.000000 -60.708740 0.000000 74.000000 0.763566 0.436557 -0.475798
4580.00000000 -11270.00000000 -650.00000000 254 159 49 0.000000 0.000000 0.000000 0.000000 -60.708740 0.000000 74.000000 0.983451 -0.176998 -0.038682
4580.00000000 -11290.00000000 -670.00000000 254 159 49 0.000000 0.000000 0.000000 0.000000 -60.708740 0.000000 74.000000 0.835585 0.274394 -0.475927
4680.00000000 -11320.00000000 -370.00000000 254 159 49 0.000000 0.000000 0.000000 0.000000 -60.708740 0.000000 74.000000 0.290217 0.885688 -0.362395
4690.00000000 -11340.00000000 -390.00000000 254 159 49 0.000000 0.000000 0.000000 0.000000 -60.708740 0.000000 74.000000 0.252654 0.942965 -0.216758
4700.00000000 -11320.00000000 -370.00000000 254 159 49 0.000000 0.000000 0.000000 0.000000 -60.708740 0.000000 74.000000 -0.103578 0.974629 -0.198420
4690.00000000 -11340.00000000 -390.00000000 254 159 49 0.000000 0.000000 0.000000 0.000000 -60.708740 0.000000 74.000000 0.252654 0.942965 -0.216758
4680.00000000 -11330.00000000 -420.00000000 254 159 49 0.000000 0.000000 0.000000 0.000000 -60.708740 0.000000 74.000000 -0.000993 0.999857 0.016879
4680.00000000 -11330.00000000 -420.00000000 254 159 49 0.000000 0.000000 0.000000 0.000000 -60.708740 0.000000 74.000000 -0.000993 0.999857 0.016879
4700.00000000 -11340.00000000 -410.00000000 254 159 49 0.000000 0.000000 0.000000 0.000000 -60.708740 0.000000 74.000000 -0.093834 0.990473 -0.100785
4660.00000000 -11330.00000000 -370.00000000 254 159 49 0.000000 0.000000 0.000000 0.000000 -60.708740 0.000000 74.000000 0.556653 0.650830 -0.516292
4640.00000000 -11320.00000000 -440.00000000 254 159 49 0.000000 0.000000 0.000000 0.000000 -60.708740 0.000000 74.000000 0.717549 0.674710 -0.172885
4640.00000000 -11330.00000000 -420.00000000 254 159 49 0.000000 0.000000 0.000000 0.000000 -60.708740 0.000000 74.000000 0.514095 0.853028 -0.089717
4690.00000000 -11330.00000000 -470.00000000 254 159 49 0.000000 0.000000 0.000000 0.000000 -60.708740 0.000000 74.000000 -0.296049 0.955037 0.016103
4700.00000000 -11330.00000000 -470.00000000 254 159 49 0.000000 0.000000 0.000000 0.000000 -60.708740 0.000000 74.000000 0.141532 0.944896 -0.295196
4700.00000000 -11330.00000000 -470.00000000 254 159 49 0.000000 0.000000 0.000000 0.000000 -60.708740 0.000000 74.000000 0.141532 0.944896 -0.295196
4670.00000000 -11350.00000000 -520.00000000 254 159 49 0.000000 0.000000 0.000000 0.000000 -60.708740 0.000000 74.000000 0.025963 0.989974 -0.138845
4680.00000000 -11330.00000000 -490.00000000 254 159 49 0.000000 0.000000 0.000000 0.000000 -60.708740 0.000000 74.000000 0.436228 0.852418 -0.288250
4700.00000000 -11340.00000000 -500.00000000 254 159 49 0.000000 0.000000 0.000000 0.000000 -60.708740 0.000000 74.000000 -0.316419 0.793433 -0.519945
4650.00000000 -11330.00000000 -460.00000000 254 159 49 0.000000 0.000000 0.000000 0.000000 -60.708740 0.000000 74.000000 0.430591 0.730849 -0.529577
4640.00000000 -11350.00000000 -500.00000000 254 159 49 0.000000 0.000000 0.000000 0.000000 -60.708740 0.000000 74.000000 0.057950 0.991962 -0.112490
4690.00000000 -11360.00000000 -560.00000000 254 159 49 0.000000 0.000000 0.000000 0.000000 -60.708740 0.000000 74.000000 -0.078869 0.892470 -0.444159
4690.00000000 -11360.00000000 -560.00000000 254 159 49 0.000000 0.000000 0.000000 0.000000 -60.708740 0.000000 74.000000 -0.078869 0.892470 -0.444159
4680.00000000 -11350.00000000 -560.00000000 254 159 49 0.000000 0.000000 0.000000 0.000000 -60.708740 0.000000 74.000000 0.044327 0.953654 -0.297621
4690.00000000 -11340.00000000 -550.00000000 254 159 49 0.000000 0.000000 0.000000 0.000000 -60.708740 0.000000 74.000000 -0.119142 0.798693 -0.589826
4700.00000000 -11330.00000000 -550.00000000 254 159 49 0.000000 0.000000 0.000000 0.000000 -60.708740 0.000000 74.000000 -0.290802 0.956552 -0.021037
4700.00000000 -11360.00000000 -560.00000000 254 159 49 0.000000 0.000000 0.000000 0.000000 -60.708740 0.000000 74.000000 -0.576563 0.767163 -0.281134
4670.00000000 -11330.00000000 -550.00000000 254 159 49 0.000000 0.000000 0.000000 0.000000 -60.708740 0.000000 74.000000 0.442304 0.864984 -0.237003
4690.00000000 -11380.00000000 -590.00000000 254 159 49 0.000000 0.000000 0.000000 0.000000 -60.708740 0.000000 74.000000 -0.214866 0.783720 -0.582766
4690.00000000 -11370.00000000 -580.00000000 254 159 49 0.000000 0.000000 0.000000 0.000000 -60.708740 0.000000 74.000000 0.020219 0.997096 -0.073425
4650.00000000 -11340.00000000 -530.00000000 254 159 49 0.000000 0.000000 0.000000 0.000000 -60.708740 0.000000 74.000000 0.062495 0.974192 -0.216896
4650.00000000 -11340.00000000 -530.00000000 254 159 49 0.000000 0.000000 0.000000 0.000000 -60.708740 0.000000 74.000000 0.062495 0.974192 -0.216896
4640.00000000 -11340.00000000 -560.00000000 254 159 49 0.000000 0.000000 0.000000 0.000000 -60.708740 0.000000 74.000000 0.639026 0.741146 -0.205788
4650.00000000 -11340.00000000 -560.00000000 254 159 49 0.000000 0.000000 0.000000 0.000000 -60.708740 0.000000 74.000000 0.043805 0.778601 -0.625989
4650.00000000 -11350.00000000 -580.00000000 254 159 49 0.000000 0.000000 0.000000 0.000000 -60.708740 0.000000 74.000000 -0.052804 -0.763511 0.643633
4630.00000000 -11350.00000000 -590.00000000 254 159 49 0.000000 0.000000 0.000000 0.000000 -60.708740 0.000000 74.000000 0.395321 0.686436 -0.610349
4660.00000000 -11350.00000000 -580.00000000 254 159 49 0.000000 0.000000 0.000000 0.000000 -60.708740 0.000000 74.000000 -0.190418 0.872381 -0.450214
4650.00000000 -11350.00000000 -600.00000000 254 159 49 0.000000 0.000000 0.000000 0.000000 -60.708740 0.000000 74.000000 0.402092 0.895635 -0.190159
4630.00000000 -11330.00000000 -600.00000000 254 159 49 0.000000 0.000000 0.000000 0.000000 -60.708740 0.000000 74.000000 0.529444 0.836197 -0.143053
4640.00000000 -11330.00000000 -570.00000000 254 159 49 0.000000 0.000000 0.000000 0.000000 -60.708740 0.000000 74.000000 0.452772 0.881108 -0.136550
4660.00000000 -11370.00000000 -560.00000000 254 159 49 0.000000 0.000000 0.000000 0.000000 -60.708740 0.000000 74.000000 0.150670 0.813021 -0.562402
4700.00000000 -11380.00000000 -620.00000000 254 159 49 0.000000 0.000000 0.000000 0.000000 -60.708740 0.000000 74.000000 -0.411475 0.910071 -0.049591
4690.00000000 -11390.00000000 -650.00000000 254 159 49 0.000000 0.000000 0.000000 0.000000 -60.708740 0.000000 74.000000 -0.165244 0.985683 0.033511
4670.00000000 -11380.00000000 -650.00000000 254 159 49 0.000000 0.000000 0.000000 0.000000 -60.708740 0.000000 74.000000 -0.112135 0.878628 -0.464154
4700.00000000 -11380.00000000 -670.00000000 254 159 49 0.000000 0.000000 0.000000 0.000000 -60.708740 0.000000 74.000000 -0.193773 0.874196 -0.445234
4630.00000000 -11330.00000000 -610.00000000 254 159 49 0.000000 0.000000 0.000000 0.000000 -60.708740 0.000000 74.000000 0.662814 0.675778 -0.322494
4640.00000000 -11360.00000000 -650.00000000 254 159 49 0.000000 0.000000 0.000000 0.000000 -60.708740 0.000000 74.000000 -0.258053 0.946196 -0.195247
4630.00000000 -11340.00000000 -620.00000000 254 159 49 0.000000 0.000000 0.000000 0.000000 -60.708740 0.000000 74.000000 0.438113 0.889069 -0.132718
4640.00000000 -11360.00000000 -650.00000000 254 159 49 0.000000 0.000000 0.000000 0.000000 -60.708740 0.000000 74.000000 -0.258053 0.946196 -0.195247
4640.00000000 -11360.00000000 -670.00000000 254 159 49 0.000000 0.000000 0.000000 0.000000 -60.708740 0.000000 74.000000 -0.094848 0.870617 -0.482732
4640.00000000 -11370.00000000 -620.00000000 254 159 49 0.000000 0.000000 0.000000 0.000000 -60.708740 0.000000 74.000000 -0.117452 0.938269 -0.325356
4660.00000000 -11370.00000000 -630.00000000 254 159 49 0.000000 0.000000 0.000000 0.000000 -60.708740 0.000000 74.000000 0.144749 0.912061 -0.383656
4640.00000000 -11380.00000000 -690.00000000 254 159 49 0.000000 0.000000 0.000000 0.000000 -60.708740 0.000000 74.000000 -0.232618 0.849891 -0.472837
4610.00000000 -11320.00000000 -610.00000000 254 159 49 0.000000 0.000000 0.000000 0.000000 -60.708740 0.000000 74.000000 0.540258 0.536892 -0.647973
4600.00000000 -11320.00000000 -630.00000000 254 159 49 0.000000 0.000000 0.000000 0.000000 -60.708740 0.000000 74.000000 0.839318 0.378085 -0.390636
4620.00000000 -11330.00000000 -620.00000000 254 159 49 0.000000 0.000000 0.000000 0.000000 -60.708740 0.000000 74.000000 0.436166 0.718098 -0.542305
4600.00000000 -11360.00000000 -650.00000000 254 159 49 0.000000 0.000000 0.000000 0.000000 -60.708740 0.000000 74.000000 0.269528 0.821049 -0.503223
4600.00000000 -11320.00000000 -630.00000000 254 159 49 0.000000 0.000000 0.000000 0.000000 -60.708740 0.000000 74.000000 0.839318 0.378085 -0.390636
4610.00000000 -11320.00000000 -610.00000000 254 159 49 0.000000 0.000000 0.000000 0.000000 -60.708740 0.000000 74.000000 0.540258 0.536892 -0.647973
4620.00000000 -11360.00000000 -690.00000000 254 159 49 0.000000 0.000000 0.000000 0.000000 -60.708740 0.000000 74.000000 0.495890 0.841648 -0.213824
4620.00000000 -11360.00000000 -690.00000000 254 159 49 0.000000 0.000000 0.000000 0.000000 -60.708740 0.000000 74.000000 0.495890 0.841648 -0.213824
4590.00000000 -11340.00000000 -680.00000000 254 159 49 0.000000 0.000000 0.000000 0.000000 -60.708740 0.000000 74.000000 0.323035 0.942735 -0.083066
4620.00000000 -11380.00000000 -620.00000000 254 159 49 0.000000 0.000000 0.000000 0.000000 -60.708740 0.000000 74.000000 0.397032 0.779478 -0.484541
4600.00000000 -11380.00000000 -690.00000000 254 159 49 0.000000 0.000000 0.000000 0.000000 -60.708740 0.000000 74.000000 0.592004 0.722474 -0.357160
4610.00000000 -11370.00000000 -670.00000000 254 159 49 0.000000 0.000000 0.000000 0.000000 -60.708740 0.000000 74.000000 0.102819 0.883113 -0.457754
4620.00000000 -11390.00000000 -670.00000000 254 159 49 0.000000 0.000000 0.000000 0.000000 -60.708740 0.000000 74.000000 0.214854 0.774400 -0.595098
4590.00000000 -11390.00000000 -690.00000000 254 159 49 0.000000 0.000000 0.000000 0.000000 -60.708740 0.000000 74.000000 0.665979 0.688446 -0.287254
4570.00000000 -11370.00000000 -690.00000000 254 159 49 0.000000 0.000000 0.000000 0.000000 -60.708740 0.000000 74.000000 0.535563 0.702406 -0.468827
4620.00000000 -11410.00000000 -690.00000000 254 159 49 0.000000 0.000000 0.000000 0.000000 -60.708740 0.000000 74.000000 -0.241260 0.938544 -0.246838
4760.00000000 -11200.00000000 -710.00000000 254 159 49 0.000000 0.000000 0.000000 0.000000 -60.708740 0.000000 74.000000 0.844699 0.416885 -0.335694
4760.00000000 -11210.00000000 -730.00000000 254 159 49 0.000000 0.000000 0.000000 0.000000 -60.708740 0.000000 74.000000 0.930728 0.360410 0.062049
4760.00000000 -11210.00000000 -710.00000000 254 159 49 0.000000 0.000000 0.000000 0.000000 -60.708740 0.000000 74.000000 0.807057 0.577729 -0.122014
4790.00000000 -11220.00000000 -710.00000000 254 159 49 0.000000 0.000000 0.000000 0.000000 -60.708740 0.000000 74.000000 0.737239 0.423871 -0.526128
4760.00000000 -11230.00000000 -760.00000000 254 159 49 0.000000 0.000000 0.000000 0.000000 -60.708740 0.000000 74.000000 0.995794 0.091111 0.009647
4770.00000000 -11200.00000000 -760.00000000 254 159 49 0.000000 0.000000 0.000000 0.000000 -60.708740 0.000000 74.000000 0.986245 0.118063 -0.115678
4740.00000000 -11190.00000000 -730.00000000 254 159 49 0.000000 0.000000 0.000000 0.000000 -60.708740 0.000000 74.000000 0.480074 0.865873 -0.140686
4730.00000000 -11190.00000000 -830.00000000 254 159 49 0.000000 0.000000 0.000000 0.000000 -60.708740 0.000000 74.000000 0.777914 0.414130 -0.472595
4750.00000000 -11200.00000000 -820.00000000 254 159 49 0.000000 0.000000 0.000000 0.000000 -60.708740 0.000000 74.000000 0.506804 0.601093 -0.617930
4720.00000000 -11220.00000000 -830.00000000 254 159 49 0.000000 0.000000 0.000000 0.000000 -60.708740 0.000000 74.000000 0.540944 0.809104 -0.229631
4780.00000000 -11250.00000000 -700.00000000 254 159 49 0.000000 0.000000 0.000000 0.000000 -60.708740 0.000000 74.000000 0.991841 -0.046369 0.118749
4780.00000000 -11240.00000000 -720.00000000 254 159 49 0.000000 0.000000 0.000000 0.000000 -60.708740 0.000000 74.000000 0.878597 -0.012036 -0.477411
4770.00000000 -11270.00000000 -730.00000000 254 159 49 0.000000 0.000000 0.000000 0.000000 -60.708740 0.000000 74.000000 0.966292 -0.151347 -0.208264
4770.00000000 -11270.00000000 -700.00000000 254 159 49 0.000000 0.000000 0.000000 0.000000 -60.708740 0.000000 74.000000 0.955291 -0.231789 -0.183555
4760.00000000 -11270.00000000 -730.00000000 254 159 49 0.000000 0.000000 0.000000 0.000000 -60.708740 0.000000 74.000000 0.912036 -0.306921 -0.272011
4770.00000000 -11250.00000000 -740.00000000 254 159 49 0.000000 0.000000 0.000000 0.000000 -60.708740 0.000000 74.000000 0.952768 0.139527 -0.269752
4770.00000000 -11260.00000000 -750.00000000 254 159 49 0.000000 0.000000 0.000000 0.000000 -60.708740 0.000000 74.000000 0.946588 0.090841 -0.309385
4760.00000000 -11260.00000000 -760.00000000 254 159 49 0.000000 0.000000 0.000000 0.000000 -60.708740 0.000000 74.000000 0.985788 0.012536 0.167527
4770.00000000 -11270.00000000 -740.00000000 254 159 49 0.000000 0.000000 0.000000 0.000000 -60.708740 0.000000 74.000000 0.966731 -0.068784 -0.246373
4770.00000000 -11250.00000000 -740.00000000 254 159 49 0.000000 0.000000 0.000000 0.000000 -60.708740 0.000000 74.000000 0.952768 0.139527 -0.269752
4760.00000000 -11270.00000000 -750.00000000 254 159 49 0.000000 0.000000 0.000000 0.000000 -60.708740 0.000000 74.000000 0.848800 -0.028796 -0.527929
4770.00000000 -11250.00000000 -740.00000000 254 159 49 0.000000 0.000000 0.000000 0.000000 -60.708740 0.000000 74.000000 0.952768 0.139527 -0.269752
4760.00000000 -11240.00000000 -760.00000000 254 159 49 0.000000 0.000000 0.000000 0.000000 -60.708740 0.000000 74.000000 0.998995 -0.019629 0.040290
4760.00000000 -11310.00000000 -760.00000000 254 159 49 0.000000 0.000000 0.000000 0.000000 -60.708740 0.000000 74.000000 0.861497 -0.400803 -0.311736
4770.00000000 -11310.00000000 -740.00000000 254 159 49 0.000000 0.000000 0.000000 0.000000 -60.708740 0.000000 74.000000 0.938416 -0.296269 -0.177762
4770.00000000 -11280.00000000 -740.00000000 254 159 49 0.000000 0.000000 0.000000 0.000000 -60.708740 0.000000 74.000000 0.965532 -0.053434 -0.254741
4760.00000000 -11280.00000000 -760.00000000 254 159 49 0.000000 0.000000 0.000000 0.000000 -60.708740 0.000000 74.000000 0.991904 0.110465 -0.062635
4750.00000000 -11270.00000000 -750.00000000 254 159 49 0.000000 0.000000 0.000000 0.000000 -60.708740 0.000000 74.000000 0.883635 0.390235 -0.258661
4750.00000000 -11300.00000000 -760.00000000 254 159 49 0.000000 0.000000 0.000000 0.000000 -60.708740 0.000000 74.000000 0.990252 -0.138924 0.010003
4750.00000000 -11280.00000000 -770.00000000 254 159 49 0.000000 0.000000 0.000000 0.000000 -60.708740 0.000000 74.000000 0.996678 0.081383 0.003171
4760.00000000 -11270.00000000 -780.00000000 254 159 49 0.000000 0.000000 0.000000 0.000000 -60.708740 0.000000 74.000000 0.935185 -0.048259 -0.350857
4770.00000000 -11270.00000000 -780.00000000 254 159 49 0.000000 0.000000 0.000000 0.000000 -60.708740 0.000000 74.000000 0.885294 0.036493 -0.463597
4760.00000000 -11310.00000000 -810.00000000 254 159 49 0.000000 0.000000 0.000000 0.000000 -60.708740 0.000000 74.000000 0.904451 0.176303 -0.388441
4750.00000000 -11250.00000000 -780.00000000 254 159 49 0.000000 0.000000 0.000000 0.000000 -60.708740 0.000000 74.000000 0.965969 -0.033140 -0.256528
4750.00000000 -11270.00000000 -780.00000000 254 159 49 0.000000 0.000000 0.000000 0.000000 -60.708740 0.000000 74.000000 0.970566 0.052895 -0.234953
4750.00000000 -11240.00000000 -800.00000000 254 159 49 0.000000 0.000000 0.000000 0.000000 -60.708740 0.000000 74.000000 0.981527 0.180525 0.063363
4730.00000000 -11270.00000000 -830.00000000 254 159 49 0.000000 0.000000 0.000000 0.000000 -60.708740 0.000000 74.000000 0.982610 0.180479 0.043645
4750.00000000 -11310.00000000 -810.00000000 254 159 49 0.000000 0.000000 0.000000 0.000000 -60.708740 0.000000 74.000000 0.819282 -0.102954 -0.564072
4750.00000000 -11280.00000000 -820.00000000 254 159 49 0.000000 0.000000 0.000000 0.000000 -60.708740 0.000000 74.000000 0.992680 -0.036849 -0.115012
4740.00000000 -11280.00000000 -820.00000000 254 159 49 0.000000 0.000000 0.000000 0.000000 -60.708740 0.000000 74.000000 0.999667 0.017218 0.019244
4750.00000000 -11290.00000000 -790.00000000 254 159 49 0.000000 0.000000 0.000000 0.000000 -60.708740 0.000000 74.000000 0.840705 -0.133051 -0.524893
4750.00000000 -11300.00000000 -800.00000000 254 159 49 0.000000 0.000000 0.000000 0.000000 -60.708740 0.000000 74.000000 0.989903 -0.065686 0.125610
4750.00000000 -11280.00000000 -790.00000000 254 159 49 0.000000 0.000000 0.000000 0.000000 -60.708740 0.000000 74.000000 0.892801 -0.025356 -0.449737
4740.00000000 -11300.00000000 -790.00000000 254 159 49 0.000000 0.000000 0.000000 0.000000 -60.708740 0.000000 74.000000 0.947743 -0.149644 -0.281761
4730.00000000 -11300.00000000 -850.00000000 254 159 49 0.000000 0.000000 0.000000 0.000000 -60.708740 0.000000 74.000000 0.912075 -0.060625 -0.405516
4730.00000000 -11290.00000000 -860.00000000 254 159 49 0.000000 0.000000 0.000000 0.000000 -60.708740 0.000000 74.000000 0.907171 -0.136427 -0.398030
4730.00000000 -11300.00000000 -830.00000000 254 159 49 0.000000 0.000000 0.000000 0.000000 -60.708740 0.000000 74.000000 0.969660 -0.229557 -0.084046
4720.00000000 -11200.00000000 -870.00000000 254 159 49 0.000000 0.000000 0.000000 0.000000 -60.708740 0.000000 74.000000 0.686072 0.726010 0.047069
4720.00000000 -11260.00000000 -920.00000000 254 159 49 0.000000 0.000000 0.000000 0.000000 -60.708740 0.000000 74.000000 0.775802 0.252332 -0.578325
4720.00000000 -11310.00000000 -880.00000000 254 159 49 0.000000 0.000000 0.000000 0.000000 -60.708740 0.000000 74.000000 0.998590 0.044963 -0.028232
4720.00000000 -11310.00000000 -890.00000000 254 159 49 0.000000 0.000000 0.000000 0.000000 -60.708740 0.000000 74.000000 0.994924 0.070034 0.072257
4710.00000000 -11300.00000000 -880.00000000 254 159 49 0.000000 0.000000 0.000000 0.000000 -60.708740 0.000000 74.000000 0.940720 0.145669 -0.306312
4720.00000000 -11300.00000000 -900.00000000 254 159 49 0.000000 0.000000 0.000000 0.000000 -60.708740 0.000000 74.000000 0.994665 0.063489 0.081311
4710.00000000 -11290.00000000 -890.00000000 254 159 49 0.000000 0.000000 0.000000 0.000000 -60.708740 0.000000 74.000000 0.819011 0.115333 -0.562067
4710.00000000 -11290.00000000 -940.00000000 254 159 49 0.000000 0.000000 0.000000 0.000000 -60.708740 0.000000 74.000000 0.958658 -0.168395 -0.229388
4730.00000000 -11300.00000000 -910.00000000 254 159 49 0.000000 0.000000 0.000000 0.000000 -60.708740 0.000000 74.000000 0.993983 -0.072840 -0.081805
4720.00000000 -11300.00000000 -930.00000000 254 159 49 0.000000 0.000000 0.000000 0.000000 -60.708740 0.000000 74.000000 0.853759 -0.042896 -0.518898
4710.00000000 -11290.00000000 -990.00000000 254 159 49 0.000000 0.000000 0.000000 0.000000 -60.708740 0.000000 74.000000 0.942644 -0.013844 -0.333512
4760.00000000 -11320.00000000 -730.00000000 254 159 49 0.000000 0.000000 0.000000 0.000000 -60.708740 0.000000 74.000000 0.771194 -0.461412 -0.438586
4760.00000000 -11360.00000000 -710.00000000 254 159 49 0.000000 0.000000 0.000000 0.000000 -60.708740 0.000000 74.000000 0.860200 -0.506082 0.062737
4780.00000000 -11320.00000000 -700.00000000 254 159 49 0.000000 0.000000 0.000000 0.000000 -60.708740 0.000000 74.000000 0.785102 -0.607678 -0.119761
4770.00000000 -11350.00000000 -700.00000000 254 159 49 0.000000 0.000000 0.000000 0.000000 -60.708740 0.000000 74.000000 -0.707090 0.707090 0.006946
4770.00000000 -11350.00000000 -750.00000000 254 159 49 0.000000 0.000000 0.000000 0.000000 -60.708740 0.000000 74.000000 0.884644 -0.463515 0.050590
4750.00000000 -11330.00000000 -730.00000000 254 159 49 0.000000 0.000000 0.000000 0.000000 -60.708740 0.000000 74.000000 0.763732 -0.593664 -0.253528
4750.00000000 -11340.00000000 -730.00000000 254 159 49 0.000000 0.000000 0.000000 0.000000 -60.708740 0.000000 74.000000 0.837609 -0.476650 -0.266863
4740.00000000 -11350.00000000 -730.00000000 254 159 49 0.000000 0.000000 0.000000 0.000000 -60.708740 0.000000 74.000000 0.938461 -0.338267 0.069759
4730.00000000 -11360.00000000 -720.00000000 254 159 49 0.000000 0.000000 0.000000 0.000000 -60.708740 0.000000 74.000000 -0.744843 0.636895 -0.198933
4740.00000000 -11320.00000000 -770.00000000 254 159 49 0.000000 0.000000 0.000000 0.000000 -60.708740 0.000000 74.000000 0.975205 -0.171947 -0.139315
4740.00000000 -11360.00000000 -750.00000000 254 159 49 0.000000 0.000000 0.000000 0.000000 -60.708740 0.000000 74.000000 0.833004 -0.547239 -0.081443
4730.00000000 -11360.00000000 -770.00000000 254 159 49 0.000000 0.000000 0.000000 0.000000 -60.708740 0.000000 74.000000 0.874822 -0.414073 -0.251455
4750.00000000 -11340.00000000 -750.00000000 254 159 49 0.000000 0.000000 0.000000 0.000000 -60.708740 0.000000 74.000000 0.971406 -0.236547 0.020413
4720.00000000 -11380.00000000 -720.00000000 254 159 49 0.000000 0.000000 0.000000 0.000000 -60.708740 0.000000 74.000000 -0.574766 0.813892 -0.084991
4710.00000000 -11380.00000000 -700.00000000 254 159 49 0.000000 0.000000 0.000000 0.000000 -60.708740 0.000000 74.000000 -0.240255 0.959709 -0.145729
4720.00000000 -11390.00000000 -730.00000000 254 159 49 0.000000 0.000000 0.000000 0.000000 -60.708740 0.000000 74.000000 -0.307742 0.887196 -0.343770
4740.00000000 -11380.00000000 -730.00000000 254 159 49 0.000000 0.000000 0.000000 0.000000 -60.708740 0.000000 74.000000 0.734451 -0.581372 -0.350126
4750.00000000 -11370.00000000 -720.00000000 254 159 49 0.000000 0.000000 0.000000 0.000000 -60.708740 0.000000 74.000000 -0.416868 0.908692 -0.022356
4730.00000000 -11370.00000000 -710.00000000 254 159 49 0.000000 0.000000 0.000000 0.000000 -60.708740 0.000000 74.000000 -0.682525 0.730373 0.026738
4710.00000000 -11390.00000000 -730.00000000 254 159 49 0.000000 0.000000 0.000000 0.000000 -60.708740 0.000000 74.000000 -0.453756 0.847525 -0.275330
4730.00000000 -11370.00000000 -710.00000000 254 159 49 0.000000 0.000000 0.000000 0.000000 -60.708740 0.000000 74.000000 -0.682525 0.730373 0.026738
4710.00000000 -11390.00000000 -750.00000000 254 159 49 0.000000 0.000000 0.000000 0.000000 -60.708740 0.000000 74.000000 -0.543876 0.808881 -0.223405
4750.00000000 -11370.00000000 -740.00000000 254 159 49 0.000000 0.000000 0.000000 0.000000 -60.708740 0.000000 74.000000 0.919404 -0.392157 0.030166
4760.00000000 -11330.00000000 -810.00000000 254 159 49 0.000000 0.000000 0.000000 0.000000 -60.708740 0.000000 74.000000 0.901717 -0.104527 -0.419500
4760.00000000 -11350.00000000 -780.00000000 254 159 49 0.000000 0.000000 0.000000 0.000000 -60.708740 0.000000 74.000000 0.973169 -0.186028 -0.135408
4730.00000000 -11340.00000000 -820.00000000 254 159 49 0.000000 0.000000 0.000000 0.000000 -60.708740 0.000000 74.000000 0.898122 -0.386996 -0.208832
4720.00000000 -11340.00000000 -790.00000000 254 159 49 0.000000 0.000000 0.000000 0.000000 -60.708740 0.000000 74.000000 0.839505 -0.542724 0.026106
4750.00000000 -11360.00000000 -820.00000000 254 159 49 0.000000 0.000000 0.000000 0.000000 -60.708740 0.000000 74.000000 0.956205 -0.169370 -0.238718
4730.00000000 -11320.00000000 -830.00000000 254 159 49 0.000000 0.000000 0.000000 0.000000 -60.708740 0.000000 74.000000 0.964101 -0.257680 0.064106
4720.00000000 -11360.00000000 -840.00000000 254 159 49 0.000000 0.000000 0.000000 0.000000 -60.708740 0.000000 74.000000 0.963287 -0.247556 0.103896
4730.00000000 -11320.00000000 -860.00000000 254 159 49 0.000000 0.000000 0.000000 0.000000 -60.708740 0.000000 74.000000 0.847215 -0.158206 -0.507146
4730.00000000 -11340.00000000 -840.00000000 254 159 49 0.000000 0.000000 0.000000 0.000000 -60.708740 0.000000 74.000000 0.992466 -0.113521 0.046083
4730.00000000 -11330.00000000 -840.00000000 254 159 49 0.000000 0.000000 0.000000 0.000000 -60.708740 0.000000 74.000000 0.990098 -0.135272 0.037512
4740.00000000 -11350.00000000 -860.00000000 254 159 49 0.000000 0.000000 0.000000 0.000000 -60.708740 0.000000 74.000000 0.925228 -0.101897 -0.365472
4730.00000000 -11320.00000000 -830.00000000 254 159 49 0.000000 0.000000 0.000000 0.000000 -60.708740 0.000000 74.000000 0.964101 -0.257680 0.064106
4740.00000000 -11360.00000000 -850.00000000 254 159 49 0.000000 0.000000 0.000000 0.000000 -60.708740 0.000000 74.000000 0.942511 -0.299705 -0.147818
4710.00000000 -11330.00000000 -860.00000000 254 159 49 0.000000 0.000000 0.000000 0.000000 -60.708740 0.000000 74.000000 0.871148 -0.428803 -0.239227
4720.00000000 -11330.00000000 -860.00000000 254 159 49 0.000000 0.000000 0.000000 0.000000 -60.708740 0.000000 74.000000 0.984778 -0.157992 -0.072463
4710.00000000 -11370.00000000 -780.00000000 254 159 49 0.000000 0.000000 0.000000 0.000000 -60.708740 0.000000 74.000000 -0.505127 0.860536 -0.065765
4720.00000000 -11370.00000000 -820.00000000 254 159 49 0.000000 0.000000 0.000000 0.000000 -60.708740 0.000000 74.000000 0.899597 -0.403169 -0.167867
4750.00000000 -11390.00000000 -820.00000000 254 159 49 0.000000 0.000000 0.000000 0.000000 -60.708740 0.000000 74.000000 -0.626261 0.755514 0.192341
4710.00000000 -11380.00000000 -810.00000000 254 159 49 0.000000 0.000000 0.000000 0.000000 -60.708740 0.000000 74.000000 0.789209 -0.598247 -0.138746
4710.00000000 -11380.00000000 -850.00000000 254 159 49 0.000000 0.000000 0.000000 0.000000 -60.708740 0.000000 74.000000 -0.465583 0.885003 -0.001319
4720.00000000 -11380.00000000 -830.00000000 254 159 49 0.000000 0.000000 0.000000 0.000000 -60.708740 0.000000 74.000000 0.869289 -0.432384 -0.239544
4710.00000000 -11380.00000000 -850.00000000 254 159 49 0.000000 0.000000 0.000000 0.000000 -60.708740 0.000000 74.000000 -0.465583 0.885003 -0.001319
4730.00000000 -11410.00000000 -720.00000000 254 159 49 0.000000 0.000000 0.000000 0.000000 -60.708740 0.000000 74.000000 0.797846 -0.602847 -0.004120
4720.00000000 -11410.00000000 -710.00000000 254 159 49 0.000000 0.000000 0.000000 0.000000 -60.708740 0.000000 74.000000 -0.626876 0.717120 -0.304575
4720.00000000 -11410.00000000 -760.00000000 254 159 49 0.000000 0.000000 0.000000 0.000000 -60.708740 0.000000 74.000000 0.815883 -0.567761 0.109465
4720.00000000 -11410.00000000 -770.00000000 254 159 49 0.000000 0.000000 0.000000 0.000000 -60.708740 0.000000 74.000000 0.820282 -0.569836 -0.049245
4720.00000000 -11410.00000000 -790.00000000 254 159 49 0.000000 0.000000 0.000000 0.000000 -60.708740 0.000000 74.000000 0.776613 -0.582850 -0.239078
4710.00000000 -11350.00000000 -940.00000000 254 159 49 0.000000 0.000000 0.000000 0.000000 -60.708740 0.000000 74.000000 0.866786 -0.089082 -0.490660
4710.00000000 -11350.00000000 -910.00000000 254 159 49 0.000000 0.000000 0.000000 0.000000 -60.708740 0.000000 74.000000 0.835081 -0.548847 -0.037516
4720.00000000 -11350.00000000 -930.00000000 254 159 49 0.000000 0.000000 0.000000 0.000000 -60.708740 0.000000 74.000000 0.920144 -0.164362 -0.355415
4720.00000000 -11330.00000000 -930.00000000 254 159 49 0.000000 0.000000 0.000000 0.000000 -60.708740 0.000000 74.000000 0.863136 0.037050 -0.503610
4720.00000000 -11370.00000000 -920.00000000 254 159 49 0.000000 0.000000 0.000000 0.000000 -60.708740 0.000000 74.000000 0.872908 -0.483092 -0.068218
4720.00000000 -11350.00000000 -900.00000000 254 159 49 0.000000 0.000000 0.000000 0.000000 -60.708740 0.000000 74.000000 0.819952 -0.557921 0.128072
4720.00000000 -11330.00000000 -890.00000000 254 159 49 0.000000 0.000000 0.000000 0.000000 -60.708740 0.000000 74.000000 0.983522 0.001137 0.180786
4730.00000000 -11330.00000000 -910.00000000 254 159 49 0.000000 0.000000 0.000000 0.000000 -60.708740 0.000000 74.000000 0.964175 -0.144431 -0.222502
4710.00000000 -11370.00000000 -910.00000000 254 159 49 0.000000 0.000000 0.000000 0.000000 -60.708740 0.000000 74.000000 0.868498 -0.416818 -0.268279
4750.00000000 -11330.00000000 -920.00000000 254 159 49 0.000000 0.000000 0.000000 0.000000 -60.708740 0.000000 74.000000 0.921549 -0.182052 -0.342935
4730.00000000 -11350.00000000 -910.00000000 254 159 49 0.000000 0.000000 0.000000 0.000000 -60.708740 0.000000 74.000000 0.891429 -0.426336 -0.153596
4720.00000000 -11330.00000000 -880.00000000 254 159 49 0.000000 0.000000 0.000000 0.000000 -60.708740 0.000000 74.000000 0.996962 -0.024630 0.073889
4710.00000000 -11320.00000000 -990.00000000 254 159 49 0.000000 0.000000 0.000000 0.000000 -60.708740 0.000000 74.000000 0.934043 -0.219857 -0.281473
4670.00000000 -11180.00000000 -700.00000000 254 159 49 0.000000 0.000000 0.000000 0.000000 -60.708740 0.000000 74.000000 -0.072805 0.996445 -0.042379
4680.00000000 -11180.00000000 -710.00000000 254 159 49 0.000000 0.000000 0.000000 0.000000 -60.708740 0.000000 74.000000 -0.061577 0.893549 -0.444722
4680.00000000 -11180.00000000 -710.00000000 254 159 49 0.000000 0.000000 0.000000 0.000000 -60.708740 0.000000 74.000000 -0.061577 0.893549 -0.444722
4700.00000000 -11180.00000000 -740.00000000 254 159 49 0.000000 0.000000 0.000000 0.000000 -60.708740 0.000000 74.000000 0.367214 0.924178 -0.105113
4670.00000000 -11210.00000000 -720.00000000 254 159 49 0.000000 0.000000 0.000000 0.000000 -60.708740 0.000000 74.000000 0.253031 0.966895 -0.033004
4660.00000000 -11200.00000000 -710.00000000 254 159 49 0.000000 0.000000 0.000000 0.000000 -60.708740 0.000000 74.000000 -0.027708 0.972200 -0.232509
4630.00000000 -11210.00000000 -760.00000000 254 159 49 0.000000 0.000000 0.000000 0.000000 -60.708740 0.000000 74.000000 -0.033715 0.984711 -0.170900
4630.00000000 -11230.00000000 -760.00000000 254 159 49 0.000000 0.000000 0.000000 0.000000 -60.708740 0.000000 74.000000 0.079083 0.991397 -0.104297
4630.00000000 -11200.00000000 -750.00000000 254 159 49 0.000000 0.000000 0.000000 0.000000 -60.708740 0.000000 74.000000 -0.434173 0.892388 -0.123039
4700.00000000 -11220.00000000 -800.00000000 254 159 49 0.000000 0.000000 0.000000 0.000000 -60.708740 0.000000 74.000000 0.493367 0.591031 -0.638178
4690.00000000 -11210.00000000 -800.00000000 254 159 49 0.000000 0.000000 0.000000 0.000000 -60.708740 0.000000 74.000000 0.491413 0.858879 -0.144362
4680.00000000 -11200.00000000 -800.00000000 254 159 49 0.000000 0.000000 0.000000 0.000000 -60.708740 0.000000 74.000000 0.124689 0.945225 -0.301667
4680.00000000 -11220.00000000 -860.00000000 254 159 49 0.000000 0.000000 0.000000 0.000000 -60.708740 0.000000 74.000000 0.558811 0.766964 -0.315432
4680.00000000 -11220.00000000 -850.00000000 254 159 49 0.000000 0.000000 0.000000 0.000000 -60.708740 0.000000 74.000000 0.465363 0.797075 -0.384850
4680.00000000 -11230.00000000 -860.00000000 254 159 49 0.000000 0.000000 0.000000 0.000000 -60.708740 0.000000 74.000000 0.417104 0.823106 -0.385385
4640.00000000 -11200.00000000 -790.00000000 254 159 49 0.000000 0.000000 0.000000 0.000000 -60.708740 0.000000 74.000000 -0.112818 0.960900 -0.252869
4630.00000000 -11260.00000000 -780.00000000 254 159 49 0.000000 0.000000 0.000000 0.000000 -60.708740 0.000000 74.000000 0.289365 0.951894 -0.100820
4610.00000000 -11230.00000000 -720.00000000 254 159 49 0.000000 0.000000 0.000000 0.000000 -60.708740 0.000000 74.000000 0.714466 -0.674517 0.185915
4600.00000000 -11230.00000000 -710.00000000 254 159 49 0.000000 0.000000 0.000000 0.000000 -60.708740 0.000000 74.000000 -0.472185 0.880044 -0.050640
4620.00000000 -11230.00000000 -700.00000000 254 159 49 0.000000 0.000000 0.000000 0.000000 -60.708740 0.000000 74.000000 -0.409669 0.908397 0.083578
4610.00000000 -11220.00000000 -760.00000000 254 159 49 0.000000 0.000000 0.000000 0.000000 -60.708740 0.000000 74.000000 -0.439092 0.724087 -0.531881
4580.00000000 -11230.00000000 -710.00000000 254 159 49 0.000000 0.000000 0.000000 0.000000 -60.708740 0.000000 74.000000 0.982788 -0.153523 -0.102752
4570.00000000 -11210.00000000 -750.00000000 254 159 49 0.000000 0.000000 0.000000 0.000000 -60.708740 0.000000 74.000000 -0.453748 0.860765 -0.230643
4570.00000000 -11210.00000000 -750.00000000 254 159 49 0.000000 0.000000 0.000000 0.000000 -60.708740 0.000000 74.000000 -0.453748 0.860765 -0.230643
4620.00000000 -11200.00000000 -810.00000000 254 159 49 0.000000 0.000000 0.000000 0.000000 -60.708740 0.000000 74.000000 -0.256257 0.940531 -0.223012
4620.00000000 -11230.00000000 -850.00000000 254 159 49 0.000000 0.000000 0.000000 0.000000 -60.708740 0.000000 74.000000 -0.273259 0.859468 -0.432024
4620.00000000 -11230.00000000 -860.00000000 254 159 49 0.000000 0.000000 0.000000 0.000000 -60.708740 0.000000 74.000000 0.080121 0.913927 -0.397891
4620.00000000 -11230.00000000 -860.00000000 254 159 49 0.000000 0.000000 0.000000 0.000000 -60.708740 0.000000 74.000000 0.080121 0.913927 -0.397891
4620.00000000 -11220.00000000 -850.00000000 254 159 49 0.000000 0.000000 0.000000 0.000000 -60.708740 0.000000 74.000000 -0.393280 0.898303 -0.195914
4560.00000000 -11220.00000000 -790.00000000 254 159 49 0.000000 0.000000 0.000000 0.000000 -60.708740 0.000000 74.000000 -0.559448 0.799872 0.217306
4570.00000000 -11230.00000000 -790.00000000 254 159 49 0.000000 0.000000 0.000000 0.000000 -60.708740 0.000000 74.000000 0.761276 -0.636623 0.123169
4570.00000000 -11220.00000000 -790.00000000 254 159 49 0.000000 0.000000 0.000000 0.000000 -60.708740 0.000000 74.000000 -0.377770 0.925856 -0.008964
4580.00000000 -11220.00000000 -840.00000000 254 159 49 0.000000 0.000000 0.000000 0.000000 -60.708740 0.000000 74.000000 -0.578186 0.804110 -0.138230
4620.00000000 -11250.00000000 -720.00000000 254 159 49 0.000000 0.000000 0.000000 0.000000 -60.708740 0.000000 74.000000 0.717851 -0.671736 -0.182921
4600.00000000 -11240.00000000 -750.00000000 254 159 49 0.000000 0.000000 0.000000 0.000000 -60.708740 0.000000 74.000000 -0.558418 0.828576 0.040384
4580.00000000 -11260.00000000 -720.00000000 254 159 49 0.000000 0.000000 0.000000 0.000000 -60.708740 0.000000 74.000000 0.995271 -0.094426 0.022792
4570.00000000 -11240.00000000 -730.00000000 254 159 49 0.000000 0.000000 0.000000 0.000000 -60.708740 0.000000 74.000000 0.820473 -0.562899 0.099846
4570.00000000 -11260.00000000 -720.00000000 254 159 49 0.000000 0.000000 0.000000 0.000000 -60.708740 0.000000 74.000000 0.989995 0.137216 -0.032886
4580.00000000 -11270.00000000 -720.00000000 254 159 49 0.000000 0.000000 0.000000 0.000000 -60.708740 0.000000 74.000000 0.985089 -0.168243 0.035969
4560.00000000 -11240.00000000 -770.00000000 254 159 49 0.000000 0.000000 0.000000 0.000000 -60.708740 0.000000 74.000000 0.803429 -0.595386 -0.004106
4580.00000000 -11300.00000000 -720.00000000 254 159 49 0.000000 0.000000 0.000000 0.000000 -60.708740 0.000000 74.000000 0.975435 0.220032 0.010590
4570.00000000 -11310.00000000 -700.00000000 254 159 49 0.000000 0.000000 0.000000 0.000000 -60.708740 0.000000 74.000000 0.810349 0.560779 -0.169888
4570.00000000 -11290.00000000 -720.00000000 254 159 49 0.000000 0.000000 0.000000 0.000000 -60.708740 0.000000 74.000000 0.926145 0.363114 -0.101998
4580.00000000 -11290.00000000 -700.00000000 254 159 49 0.000000 0.000000 0.000000 0.000000 -60.708740 0.000000 74.000000 0.989675 0.016812 -0.142343
4550.00000000 -11310.00000000 -770.00000000 254 159 49 0.000000 0.000000 0.000000 0.000000 -60.708740 0.000000 74.000000 0.788492 0.085360 -0.609092
4560.00000000 -11300.00000000 -750.00000000 254 159 49 0.000000 0.000000 0.000000 0.000000 -60.708740 0.000000 74.000000 0.986803 0.103312 0.124686
4570.00000000 -11290.00000000 -760.00000000 254 159 49 0.000000 0.000000 0.000000 0.000000 -60.708740 0.000000 74.000000 0.983931 -0.038608 -0.174323
4550.00000000 -11290.00000000 -750.00000000 254 159 49 0.000000 0.000000 0.000000 0.000000 -60.708740 0.000000 74.000000 0.972049 0.177084 0.154152
4590.00000000 -11240.00000000 -860.00000000 254 159 49 0.000000 0.000000 0.000000 0.000000 -60.708740 0.000000 74.000000 -0.255941 0.966208 0.030615
4550.00000000 -11270.00000000 -800.00000000 254 159 49 0.000000 0.000000 0.000000 0.000000 -60.708740 0.000000 74.000000 0.948663 -0.280439 -0.146258
4560.00000000 -11270.00000000 -820.00000000 254 159 49 0.000000 0.000000 0.000000 0.000000 -60.708740 0.000000 74.000000 -0.655172 0.755325 0.015301
4560.00000000 -11270.00000000 -850.00000000 254 159 49 0.000000 0.000000 0.000000 0.000000 -60.708740 0.000000 74.000000 0.852198 -0.498955 -0.157487
4570.00000000 -11260.00000000 -850.00000000 254 159 49 0.000000 0.000000 0.000000 0.000000 -60.708740 0.000000 74.000000 0.829628 -0.558113 -0.015084
4560.00000000 -11270.00000000 -860.00000000 254 159 49 0.000000 0.000000 0.000000 0.000000 -60.708740 0.000000 74.000000 0.783778 -0.604629 -0.141827
4550.00000000 -11290.00000000 -810.00000000 254 159 49 0.000000 0.000000 0.000000 0.000000 -60.708740 0.000000 74.000000 0.919790 0.308510 -0.242503
4550.00000000 -11300.00000000 -790.00000000 254 159 49 0.000000 0.000000 0.000000 0.000000 -60.708740 0.000000 74.000000 0.992154 0.012113 0.124432
4570.00000000 -11300.00000000 -780.00000000 254 159 49 0.000000 0.000000 0.000000 0.000000 -60.708740 0.000000 74.000000 0.938387 -0.181044 -0.294369
4550.00000000 -11290.00000000 -800.00000000 254 159 49 0.000000 0.000000 0.000000 0.000000 -60.708740 0.000000 74.000000 0.944434 0.204834 -0.257073
4550.00000000 -11280.00000000 -810.00000000 254 159 49 0.000000 0.000000 0.000000 0.000000 -60.708740 0.000000 74.000000 0.862019 -0.506351 0.023078
4550.00000000 -11300.00000000 -830.00000000 254 159 49 0.000000 0.000000 0.000000 0.000000 -60.708740 0.000000 74.000000 0.965588 -0.191554 -0.175917
4560.00000000 -11280.00000000 -850.00000000 254 159 49 0.000000 0.000000 0.000000 0.000000 -60.708740 0.000000 74.000000 0.891220 -0.291102 -0.347830
4700.00000000 -11170.00000000 -870.00000000 254 159 49 0.000000 0.000000 0.000000 0.000000 -60.708740 0.000000 74.000000 0.250981 0.889571 -0.381669
4700.00000000 -11180.00000000 -910.00000000 254 159 49 0.000000 0.000000 0.000000 0.000000 -60.708740 0.000000 74.000000 0.676518 0.660294 -0.326091
4680.00000000 -11220.00000000 -890.00000000 254 159 49 0.000000 0.000000 0.000000 0.000000 -60.708740 0.000000 74.000000 0.343261 0.926944 -0.151480
4690.00000000 -11210.00000000 -880.00000000 254 159 49 0.000000 0.000000 0.000000 0.000000 -60.708740 0.000000 74.000000 0.603769 0.586857 -0.539502
4700.00000000 -11230.00000000 -900.00000000 254 159 49 0.000000 0.000000 0.000000 0.000000 -60.708740 0.000000 74.000000 0.728680 0.675253 -0.114274
4640.00000000 -11230.00000000 -910.00000000 254 159 49 0.000000 0.000000 0.000000 0.000000 -60.708740 0.000000 74.000000 0.058324 0.981985 -0.179733
4640.00000000 -11200.00000000 -960.00000000 254 159 49 0.000000 0.000000 0.000000 0.000000 -60.708740 0.000000 74.000000 0.582324 0.790188 -0.191051
4630.00000000 -11220.00000000 -1010.00000000 254 159 49 0.000000 0.000000 0.000000 0.000000 -60.708740 0.000000 74.000000 0.097588 0.977116 -0.189000
4630.00000000 -11230.00000000 -950.00000000 254 159 49 0.000000 0.000000 0.000000 0.000000 -60.708740 0.000000 74.000000 0.025723 0.870527 -0.491448
4680.00000000 -11250.00000000 -920.00000000 254 159 49 0.000000 0.000000 0.000000 0.000000 -60.708740 0.000000 74.000000 0.837365 0.538614 -0.093360
4690.00000000 -11290.00000000 -1010.00000000 254 159 49 0.000000 0.000000 0.000000 0.000000 -60.708740 0.000000 74.000000 0.912108 -0.017012 -0.409598
4690.00000000 -11280.00000000 -1000.00000000 254 159 49 0.000000 0.000000 0.000000 0.000000 -60.708740 0.000000 74.000000 0.980829 0.194783 -0.005763
4690.00000000 -11310.00000000 -960.00000000 254 159 49 0.000000 0.000000 0.000000 0.000000 -60.708740 0.000000 74.000000 0.892719 -0.044704 -0.448391
4700.00000000 -11300.00000000 -1000.00000000 254 159 49 0.000000 0.000000 0.000000 0.000000 -60.708740 0.000000 74.000000 0.914809 -0.123548 -0.384525
4580.00000000 -11210.00000000 -870.00000000 254 159 49 0.000000 0.000000 0.000000 0.000000 -60.708740 0.000000 74.000000 -0.373857 0.926054 -0.051521
4560.00000000 -11220.00000000 -1000.00000000 254 159 49 0.000000 0.000000 0.000000 0.000000 -60.708740 0.000000 74.000000 -0.310622 0.942624 0.122366
4620.00000000 -11230.00000000 -950.00000000 254 159 49 0.000000 0.000000 0.000000 0.000000 -60.708740 0.000000 74.000000 0.495034 0.774201 -0.394404
4610.00000000 -11240.00000000 -900.00000000 254 159 49 0.000000 0.000000 0.000000 0.000000 -60.708740 0.000000 74.000000 -0.157576 0.964992 -0.209668
4620.00000000 -11240.00000000 -880.00000000 254 159 49 0.000000 0.000000 0.000000 0.000000 -60.708740 0.000000 74.000000 -0.198418 0.977483 -0.071820
4610.00000000 -11250.00000000 -900.00000000 254 159 49 0.000000 0.000000 0.000000 0.000000 -60.708740 0.000000 74.000000 0.056555 0.873148 -0.484163
4610.00000000 -11240.00000000 -890.00000000 254 159 49 0.000000 0.000000 0.000000 0.000000 -60.708740 0.000000 74.000000 -0.248319 0.960772 -0.123509
