//X Y Z R G B PointSourceId ScanDirectionFlag NumberOfReturns ReturnNumber GpsTime Intensity Classification Nx Ny Nz
12150.00000000 -7360.00000000 620.00000000 34 105 186 97.000000 1.000000 4.000000 1.000000 -60.708740 114.000000 96.000000 -0.573582 0.809503 -0.125333
12200.00000000 -7350.00000000 630.00000000 34 105 186 97.000000 1.000000 4.000000 1.000000 -60.708740 114.000000 96.000000 -0.120868 0.992445 0.021069
12180.00000000 -7360.00000000 650.00000000 34 105 186 97.000000 1.000000 4.000000 1.000000 -60.708740 114.000000 96.000000 -0.349047 0.924765 -0.151578
12180.00000000 -7330.00000000 560.00000000 34 105 186 97.000000 1.000000 4.000000 1.000000 -60.708740 114.000000 96.000000 -0.125987 0.987880 -0.090664
12180.00000000 -7340.00000000 550.00000000 34 105 186 97.000000 1.000000 4.000000 1.000000 -60.708740 114.000000 96.000000 -0.221426 0.881244 -0.417588
12200.00000000 -7350.00000000 520.00000000 34 105 186 97.000000 1.000000 4.000000 1.000000 -60.708740 114.000000 96.000000 0.661332 -0.654768 0.365948
12140.00000000 -7330.00000000 520.00000000 34 105 186 97.000000 1.000000 4.000000 1.000000 -60.708740 114.000000 96.000000 -0.589880 0.720601 -0.364385
12130.00000000 -7400.00000000 650.00000000 34 105 186 97.000000 1.000000 4.000000 1.000000 -60.708740 114.000000 96.000000 0.505795 -0.653669 -0.562928
12130.00000000 -7380.00000000 590.00000000 34 105 186 97.000000 1.000000 4.000000 1.000000 -60.708740 114.000000 96.000000 -0.504629 0.854543 -0.122904
12140.00000000 -7400.00000000 580.00000000 34 105 186 97.000000 1.000000 4.000000 1.000000 -60.708740 114.000000 96.000000 0.714832 -0.697710 -0.047085
12190.00000000 -7400.00000000 560.00000000 34 105 186 97.000000 1.000000 4.000000 1.000000 -60.708740 114.000000 96.000000 0.717760 -0.658337 0.226743
12270.00000000 -7340.00000000 450.00000000 34 105 186 97.000000 1.000000 4.000000 1.000000 -60.708740 114.000000 96.000000 -0.038305 -0.716449 0.696587
12280.00000000 -7410.00000000 330.00000000 34 105 186 97.000000 1.000000 4.000000 1.000000 -60.708740 114.000000 96.000000 0.387427 -0.621531 0.680882
12160.00000000 -7330.00000000 460.00000000 34 105 186 97.000000 1.000000 4.000000 1.000000 -60.708740 114.000000 96.000000 -0.210649 0.867993 -0.449683
12140.00000000 -7330.00000000 470.00000000 34 105 186 97.000000 1.000000 4.000000 1.000000 -60.708740 114.000000 96.000000 -0.543165 0.748687 -0.380052
12150.00000000 -7380.00000000 390.00000000 34 105 186 97.000000 1.000000 4.000000 1.000000 -60.708740 114.000000 96.000000 -0.467746 0.845010 -0.259177
12340.00000000 -7230.00000000 170.00000000 34 105 186 97.000000 1.000000 4.000000 1.000000 -60.708740 114.000000 96.000000 -0.261851 -0.494264 0.828937
12310.00000000 -7250.00000000 190.00000000 34 105 186 97.000000 1.000000 4.000000 1.000000 -60.708740 114.000000 96.000000 0.006795 0.833075 -0.553118
12300.00000000 -7240.00000000 140.00000000 34 105 186 97.000000 1.000000 4.000000 1.000000 -60.708740 114.000000 96.000000 0.189525 -0.728826 0.657946
12360.00000000 -7200.00000000 80.00000000 34 105 186 97.000000 1.000000 4.000000 1.000000 -60.708740 114.000000 96.000000 0.049773 -0.647052 0.760819
12350.00000000 -7330.00000000 280.00000000 34 105 186 97.000000 1.000000 4.000000 1.000000 -60.708740 114.000000 96.000000 0.019968 -0.205555 0.978442
12360.00000000 -7390.00000000 290.00000000 34 105 186 97.000000 1.000000 4.000000 1.000000 -60.708740 114.000000 96.000000 0.064786 -0.689607 0.721280
12280.00000000 -7240.00000000 210.00000000 34 105 186 97.000000 1.000000 4.000000 1.000000 -60.708740 114.000000 96.000000 -0.161393 0.779815 -0.604847
12220.00000000 -7250.00000000 210.00000000 34 105 186 97.000000 1.000000 4.000000 1.000000 -60.708740 114.000000 96.000000 -0.046263 0.825728 -0.562168
12170.00000000 -7260.00000000 70.00000000 34 105 186 97.000000 1.000000 4.000000 1.000000 -60.708740 114.000000 96.000000 0.054870 -0.297317 0.953201
12210.00000000 -7350.00000000 220.00000000 34 105 186 97.000000 1.000000 4.000000 1.000000 -60.708740 114.000000 96.000000 -0.344358 0.703405 -0.621803
12210.00000000 -7330.00000000 150.00000000 34 105 186 97.000000 1.000000 4.000000 1.000000 -60.708740 114.000000 96.000000 -0.365795 0.706984 -0.605283
12250.00000000 -7390.00000000 260.00000000 34 105 186 97.000000 1.000000 4.000000 1.000000 -60.708740 114.000000 96.000000 0.386943 0.604290 -0.696498
12230.00000000 -7370.00000000 170.00000000 34 105 186 97.000000 1.000000 4.000000 1.000000 -60.708740 114.000000 96.000000 0.278182 -0.605642 0.745528
12160.00000000 -7320.00000000 290.00000000 34 105 186 97.000000 1.000000 4.000000 1.000000 -60.708740 114.000000 96.000000 0.052820 0.740906 -0.669528
12200.00000000 -7340.00000000 190.00000000 34 105 186 97.000000 1.000000 4.000000 1.000000 -60.708740 114.000000 96.000000 0.017556 -0.495626 0.868359
12200.00000000 -7370.00000000 180.00000000 34 105 186 97.000000 1.000000 4.000000 1.000000 -60.708740 114.000000 96.000000 0.306731 -0.336656 0.890269
12200.00000000 -7380.00000000 180.00000000 34 105 186 97.000000 1.000000 4.000000 1.000000 -60.708740 114.000000 96.000000 0.319300 -0.563187 0.762147
12150.00000000 -7360.00000000 20.00000000 34 105 186 97.000000 1.000000 4.000000 1.000000 -60.708740 114.000000 96.000000 -0.295618 -0.307384 0.904503
12140.00000000 -7430.00000000 70.00000000 34 105 186 97.000000 1.000000 4.000000 1.000000 -60.708740 114.000000 96.000000 0.283487 -0.648656 0.706315
12160.00000000 -7380.00000000 110.00000000 34 105 186 97.000000 1.000000 4.000000 1.000000 -60.708740 114.000000 96.000000 -0.011115 -0.297624 0.954619
12180.00000000 -7380.00000000 -10.00000000 34 105 186 97.000000 1.000000 4.000000 1.000000 -60.708740 114.000000 96.000000 -0.331593 -0.412545 0.848441
12180.00000000 -7430.00000000 0.00000000 34 105 186 97.000000 1.000000 4.000000 1.000000 -60.708740 114.000000 96.000000 -0.058189 -0.594660 0.801869
12140.00000000 -7370.00000000 60.00000000 34 105 186 97.000000 1.000000 4.000000 1.000000 -60.708740 114.000000 96.000000 -0.037193 -0.516569 0.855438
12160.00000000 -7380.00000000 20.00000000 34 105 186 97.000000 1.000000 4.000000 1.000000 -60.708740 114.000000 96.000000 0.336146 -0.398108 0.853531
12160.00000000 -7440.00000000 40.00000000 34 105 186 97.000000 1.000000 4.000000 1.000000 -60.708740 114.000000 96.000000 -0.065033 -0.112952 0.991470
12150.00000000 -7430.00000000 60.00000000 34 105 186 97.000000 1.000000 4.000000 1.000000 -60.708740 114.000000 96.000000 0.358403 -0.457162 0.813972
12420.00000000 -7500.00000000 170.00000000 34 105 186 97.000000 1.000000 4.000000 1.000000 -60.708740 114.000000 96.000000 -0.322186 -0.006220 0.946656
12440.00000000 -7490.00000000 220.00000000 34 105 186 97.000000 1.000000 4.000000 1.000000 -60.708740 114.000000 96.000000 -0.252341 -0.260800 0.931830
12450.00000000 -7550.00000000 200.00000000 34 105 186 97.000000 1.000000 4.000000 1.000000 -60.708740 114.000000 96.000000 -0.630224 -0.004137 0.776403
12290.00000000 -7460.00000000 300.00000000 34 105 186 97.000000 1.000000 4.000000 1.000000 -60.708740 114.000000 96.000000 -0.383829 -0.261362 0.885644
12310.00000000 -7460.00000000 310.00000000 34 105 186 97.000000 1.000000 4.000000 1.000000 -60.708740 114.000000 96.000000 -0.110485 -0.182486 0.976981
12300.00000000 -7450.00000000 300.00000000 34 105 186 97.000000 1.000000 4.000000 1.000000 -60.708740 114.000000 96.000000 -0.260691 -0.211036 0.942074
12310.00000000 -7490.00000000 230.00000000 34 105 186 97.000000 1.000000 4.000000 1.000000 -60.708740 114.000000 96.000000 0.290562 0.643731 -0.707944
12290.00000000 -7530.00000000 250.00000000 34 105 186 97.000000 1.000000 4.000000 1.000000 -60.708740 114.000000 96.000000 -0.205575 -0.629092 0.749655
12300.00000000 -7530.00000000 100.00000000 34 105 186 97.000000 1.000000 4.000000 1.000000 -60.708740 114.000000 96.000000 -0.388659 -0.562489 0.729760
12320.00000000 -7540.00000000 60.00000000 34 105 186 97.000000 1.000000 4.000000 1.000000 -60.708740 114.000000 96.000000 -0.219244 -0.184696 0.958029
12290.00000000 -7570.00000000 40.00000000 34 105 186 97.000000 1.000000 4.000000 1.000000 -60.708740 114.000000 96.000000 -0.342446 -0.003763 0.939530
12240.00000000 -7480.00000000 200.00000000 34 105 186 97.000000 1.000000 4.000000 1.000000 -60.708740 114.000000 96.000000 -0.444366 -0.310277 0.840397
12270.00000000 -7460.00000000 150.00000000 34 105 186 97.000000 1.000000 4.000000 1.000000 -60.708740 114.000000 96.000000 -0.045058 -0.149037 0.987804
12140.00000000 -7450.00000000 10.00000000 34 105 186 97.000000 1.000000 4.000000 1.000000 -60.708740 114.000000 96.000000 0.246815 0.759311 -0.602104
12170.00000000 -7510.00000000 -10.00000000 34 105 186 97.000000 1.000000 4.000000 1.000000 -60.708740 114.000000 96.000000 0.153758 -0.295270 0.942960
12010.00000000 -7260.00000000 490.00000000 34 105 186 97.000000 1.000000 4.000000 1.000000 -60.708740 114.000000 96.000000 -0.669331 0.715705 -0.199408
12020.00000000 -7250.00000000 480.00000000 34 105 186 97.000000 1.000000 4.000000 1.000000 -60.708740 114.000000 96.000000 -0.361855 0.932128 0.014065
12090.00000000 -7290.00000000 620.00000000 34 105 186 97.000000 1.000000 4.000000 1.000000 -60.708740 114.000000 96.000000 -0.738664 0.660752 0.133349
12040.00000000 -7360.00000000 580.00000000 34 105 186 97.000000 1.000000 4.000000 1.000000 -60.708740 114.000000 96.000000 -0.590306 0.805478 0.052377
12060.00000000 -7360.00000000 570.00000000 34 105 186 97.000000 1.000000 4.000000 1.000000 -60.708740 114.000000 96.000000 -0.389272 0.863168 -0.321572
12060.00000000 -7360.00000000 570.00000000 34 105 186 97.000000 1.000000 4.000000 1.000000 -60.708740 114.000000 96.000000 -0.389272 0.863168 -0.321572
12110.00000000 -7300.00000000 560.00000000 34 105 186 97.000000 1.000000 4.000000 1.000000 -60.708740 114.000000 96.000000 -0.581356 0.784908 0.214346
12090.00000000 -7390.00000000 650.00000000 34 105 186 97.000000 1.000000 4.000000 1.000000 -60.708740 114.000000 96.000000 -0.270079 0.917114 0.293188
12120.00000000 -7370.00000000 580.00000000 34 105 186 97.000000 1.000000 4.000000 1.000000 -60.708740 114.000000 96.000000 -0.565021 0.740878 0.363112
12050.00000000 -7370.00000000 630.00000000 34 105 186 97.000000 1.000000 4.000000 1.000000 -60.708740 114.000000 96.000000 -0.677996 0.722896 0.133204
12040.00000000 -7380.00000000 640.00000000 34 105 186 97.000000 1.000000 4.000000 1.000000 -60.708740 114.000000 96.000000 -0.484633 0.867764 0.110079
12060.00000000 -7390.00000000 630.00000000 34 105 186 97.000000 1.000000 4.000000 1.000000 -60.708740 114.000000 96.000000 -0.516036 0.834985 -0.191069
12060.00000000 -7390.00000000 630.00000000 34 105 186 97.000000 1.000000 4.000000 1.000000 -60.708740 114.000000 96.000000 -0.516036 0.834985 -0.191069
12060.00000000 -7420.00000000 610.00000000 34 105 186 97.000000 1.000000 4.000000 1.000000 -60.708740 114.000000 96.000000 -0.660397 0.743131 0.107850
12110.00000000 -7380.00000000 550.00000000 34 105 186 97.000000 1.000000 4.000000 1.000000 -60.708740 114.000000 96.000000 -0.453951 0.890390 -0.033676
11960.00000000 -7360.00000000 520.00000000 34 105 186 97.000000 1.000000 4.000000 1.000000 -60.708740 114.000000 96.000000 -0.264713 0.953765 0.142333
12030.00000000 -7360.00000000 550.00000000 34 105 186 97.000000 1.000000 4.000000 1.000000 -60.708740 114.000000 96.000000 -0.460530 0.849149 0.258570
11960.00000000 -7330.00000000 490.00000000 34 105 186 97.000000 1.000000 4.000000 1.000000 -60.708740 114.000000 96.000000 0.786749 -0.607340 0.110292
12030.00000000 -7370.00000000 570.00000000 34 105 186 97.000000 1.000000 4.000000 1.000000 -60.708740 114.000000 96.000000 -0.652542 0.730041 -0.203048
11980.00000000 -7380.00000000 620.00000000 34 105 186 97.000000 1.000000 4.000000 1.000000 -60.708740 114.000000 96.000000 0.606585 -0.737825 -0.296090
12020.00000000 -7370.00000000 610.00000000 34 105 186 97.000000 1.000000 4.000000 1.000000 -60.708740 114.000000 96.000000 -0.361616 0.913332 0.187240
12010.00000000 -7370.00000000 610.00000000 34 105 186 97.000000 1.000000 4.000000 1.000000 -60.708740 114.000000 96.000000 -0.238700 0.903544 0.355853
12020.00000000 -7370.00000000 530.00000000 34 105 186 97.000000 1.000000 4.000000 1.000000 -60.708740 114.000000 96.000000 -0.348625 0.913885 0.208027
12010.00000000 -7420.00000000 490.00000000 34 105 186 97.000000 1.000000 4.000000 1.000000 -60.708740 114.000000 96.000000 -0.321375 0.905425 -0.277351
11990.00000000 -7380.00000000 530.00000000 34 105 186 97.000000 1.000000 4.000000 1.000000 -60.708740 114.000000 96.000000 -0.477573 0.832253 0.281566
11960.00000000 -7390.00000000 520.00000000 34 105 186 97.000000 1.000000 4.000000 1.000000 -60.708740 114.000000 96.000000 -0.149110 0.965970 -0.211347
11990.00000000 -7380.00000000 520.00000000 34 105 186 97.000000 1.000000 4.000000 1.000000 -60.708740 114.000000 96.000000 -0.586681 0.787829 0.187433
11960.00000000 -7350.00000000 450.00000000 34 105 186 97.000000 1.000000 4.000000 1.000000 -60.708740 114.000000 96.000000 -0.372162 0.921478 -0.111237
11960.00000000 -7350.00000000 450.00000000 34 105 186 97.000000 1.000000 4.000000 1.000000 -60.708740 114.000000 96.000000 -0.372162 0.921478 -0.111237
12030.00000000 -7290.00000000 440.00000000 34 105 186 97.000000 1.000000 4.000000 1.000000 -60.708740 114.000000 96.000000 0.645548 -0.721309 0.250959
11980.00000000 -7360.00000000 430.00000000 34 105 186 97.000000 1.000000 4.000000 1.000000 -60.708740 114.000000 96.000000 -0.265366 0.786676 -0.557425
11960.00000000 -7350.00000000 450.00000000 34 105 186 97.000000 1.000000 4.000000 1.000000 -60.708740 114.000000 96.000000 -0.372162 0.921478 -0.111237
11960.00000000 -7350.00000000 470.00000000 34 105 186 97.000000 1.000000 4.000000 1.000000 -60.708740 114.000000 96.000000 -0.671844 0.715090 -0.193059
11970.00000000 -7390.00000000 420.00000000 34 105 186 97.000000 1.000000 4.000000 1.000000 -60.708740 114.000000 96.000000 -0.001227 0.953712 -0.300720
11970.00000000 -7430.00000000 460.00000000 34 105 186 97.000000 1.000000 4.000000 1.000000 -60.708740 114.000000 96.000000 -0.280976 0.959696 -0.006082
11970.00000000 -7410.00000000 360.00000000 34 105 186 97.000000 1.000000 4.000000 1.000000 -60.708740 114.000000 96.000000 0.538261 -0.672407 0.508078
11900.00000000 -7350.00000000 550.00000000 34 105 186 97.000000 1.000000 4.000000 1.000000 -60.708740 114.000000 96.000000 -0.208091 0.954533 -0.213461
11920.00000000 -7390.00000000 630.00000000 34 105 186 97.000000 1.000000 4.000000 1.000000 -60.708740 114.000000 96.000000 -0.514414 0.802485 0.302317
11920.00000000 -7390.00000000 630.00000000 34 105 186 97.000000 1.000000 4.000000 1.000000 -60.708740 114.000000 96.000000 -0.514414 0.802485 0.302317
11860.00000000 -7310.00000000 650.00000000 34 105 186 97.000000 1.000000 4.000000 1.000000 -60.708740 114.000000 96.000000 -0.385563 0.883645 0.265543
11930.00000000 -7350.00000000 420.00000000 34 105 186 97.000000 1.000000 4.000000 1.000000 -60.708740 114.000000 96.000000 -0.263526 0.963788 0.040828
11950.00000000 -7390.00000000 410.00000000 34 105 186 97.000000 1.000000 4.000000 1.000000 -60.708740 114.000000 96.000000 -0.467900 0.882906 0.039331
11870.00000000 -7400.00000000 440.00000000 34 105 186 97.000000 1.000000 4.000000 1.000000 -60.708740 114.000000 96.000000 -0.532019 0.839343 -0.111622
11890.00000000 -7410.00000000 410.00000000 34 105 186 97.000000 1.000000 4.000000 1.000000 -60.708740 114.000000 96.000000 -0.243251 0.897817 -0.367088
11950.00000000 -7380.00000000 380.00000000 34 105 186 97.000000 1.000000 4.000000 1.000000 -60.708740 114.000000 96.000000 -0.319380 0.936208 -0.146668
11900.00000000 -7380.00000000 380.00000000 34 105 186 97.000000 1.000000 4.000000 1.000000 -60.708740 114.000000 96.000000 -0.118758 0.980673 -0.155488
11910.00000000 -7370.00000000 380.00000000 34 105 186 97.000000 1.000000 4.000000 1.000000 -60.708740 114.000000 96.000000 -0.143372 0.950007 -0.277365
11890.00000000 -7380.00000000 400.00000000 34 105 186 97.000000 1.000000 4.000000 1.000000 -60.708740 114.000000 96.000000 -0.245602 0.969098 0.022987
11830.00000000 -7410.00000000 430.00000000 34 105 186 97.000000 1.000000 4.000000 1.000000 -60.708740 114.000000 96.000000 -0.416181 0.878605 0.234195
11830.00000000 -7410.00000000 430.00000000 34 105 186 97.000000 1.000000 4.000000 1.000000 -60.708740 114.000000 96.000000 -0.416181 0.878605 0.234195
11850.00000000 -7410.00000000 350.00000000 34 105 186 97.000000 1.000000 4.000000 1.000000 -60.708740 114.000000 96.000000 -0.330030 0.767923 -0.548976
11860.00000000 -7430.00000000 320.00000000 34 105 186 97.000000 1.000000 4.000000 1.000000 -60.708740 114.000000 96.000000 -0.022608 0.894995 -0.445503
11810.00000000 -7410.00000000 360.00000000 34 105 186 97.000000 1.000000 4.000000 1.000000 -60.708740 114.000000 96.000000 -0.311395 0.944787 -0.102032
12010.00000000 -7420.00000000 290.00000000 34 105 186 97.000000 1.000000 4.000000 1.000000 -60.708740 114.000000 96.000000 -0.581111 0.703624 -0.408930
12090.00000000 -7370.00000000 90.00000000 34 105 186 97.000000 1.000000 4.000000 1.000000 -60.708740 114.000000 96.000000 0.124404 -0.395578 0.909968
12090.00000000 -7430.00000000 90.00000000 34 105 186 97.000000 1.000000 4.000000 1.000000 -60.708740 114.000000 96.000000 -0.250959 -0.645548 0.721309
12110.00000000 -7420.00000000 100.00000000 34 105 186 97.000000 1.000000 4.000000 1.000000 -60.708740 114.000000 96.000000 0.257224 -0.537833 0.802852
12110.00000000 -7370.00000000 100.00000000 34 105 186 97.000000 1.000000 4.000000 1.000000 -60.708740 114.000000 96.000000 -0.365008 -0.527234 0.767329
12120.00000000 -7440.00000000 30.00000000 34 105 186 97.000000 1.000000 4.000000 1.000000 -60.708740 114.000000 96.000000 0.109926 -0.486816 0.866560
12120.00000000 -7370.00000000 60.00000000 34 105 186 97.000000 1.000000 4.000000 1.000000 -60.708740 114.000000 96.000000 0.321672 -0.495977 0.806557
12090.00000000 -7440.00000000 60.00000000 34 105 186 97.000000 1.000000 4.000000 1.000000 -60.708740 114.000000 96.000000 0.177979 0.836052 -0.518980
11900.00000000 -7240.00000000 170.00000000 34 105 186 97.000000 1.000000 4.000000 1.000000 -60.708740 114.000000 96.000000 0.343470 -0.616944 0.708102
11900.00000000 -7250.00000000 160.00000000 34 105 186 97.000000 1.000000 4.000000 1.000000 -60.708740 114.000000 96.000000 -0.356056 0.850492 -0.387153
11850.00000000 -7230.00000000 170.00000000 34 105 186 97.000000 1.000000 4.000000 1.000000 -60.708740 114.000000 96.000000 -0.325851 0.805885 -0.494339
11830.00000000 -7230.00000000 230.00000000 34 105 186 97.000000 1.000000 4.000000 1.000000 -60.708740 114.000000 96.000000 -0.077976 0.982501 -0.169149
11850.00000000 -7230.00000000 150.00000000 34 105 186 97.000000 1.000000 4.000000 1.000000 -60.708740 114.000000 96.000000 -0.591255 0.654903 -0.470659
11870.00000000 -7320.00000000 150.00000000 34 105 186 97.000000 1.000000 4.000000 1.000000 -60.708740 114.000000 96.000000 -0.222905 0.957022 -0.185531
11900.00000000 -7440.00000000 310.00000000 34 105 186 97.000000 1.000000 4.000000 1.000000 -60.708740 114.000000 96.000000 0.669089 -0.592336 0.448840
11820.00000000 -7360.00000000 240.00000000 34 105 186 97.000000 1.000000 4.000000 1.000000 -60.708740 114.000000 96.000000 -0.032200 0.788189 -0.614591
11860.00000000 -7350.00000000 220.00000000 34 105 186 97.000000 1.000000 4.000000 1.000000 -60.708740 114.000000 96.000000 0.622499 -0.561767 0.544897
11850.00000000 -7360.00000000 220.00000000 34 105 186 97.000000 1.000000 4.000000 1.000000 -60.708740 114.000000 96.000000 -0.540480 0.757970 -0.365189
11860.00000000 -7390.00000000 310.00000000 34 105 186 97.000000 1.000000 4.000000 1.000000 -60.708740 114.000000 96.000000 0.009497 0.842504 -0.538606
11850.00000000 -7380.00000000 200.00000000 34 105 186 97.000000 1.000000 4.000000 1.000000 -60.708740 114.000000 96.000000 -0.411557 0.889022 -0.200652
11920.00000000 -7300.00000000 140.00000000 34 105 186 97.000000 1.000000 4.000000 1.000000 -60.708740 114.000000 96.000000 0.149583 -0.540573 0.827892
12010.00000000 -7470.00000000 210.00000000 34 105 186 97.000000 1.000000 4.000000 1.000000 -60.708740 114.000000 96.000000 -0.383719 0.844182 -0.374322
11970.00000000 -7540.00000000 310.00000000 34 105 186 97.000000 1.000000 4.000000 1.000000 -60.708740 114.000000 96.000000 -0.451825 0.575202 -0.681906
11990.00000000 -7540.00000000 300.00000000 34 105 186 97.000000 1.000000 4.000000 1.000000 -60.708740 114.000000 96.000000 -0.011503 0.929206 -0.369382
12120.00000000 -7450.00000000 30.00000000 34 105 186 97.000000 1.000000 4.000000 1.000000 -60.708740 114.000000 96.000000 0.030455 -0.247293 0.968462
11940.00000000 -7450.00000000 300.00000000 34 105 186 97.000000 1.000000 4.000000 1.000000 -60.708740 114.000000 96.000000 0.004115 0.794195 -0.607649
11930.00000000 -7490.00000000 250.00000000 34 105 186 97.000000 1.000000 4.000000 1.000000 -60.708740 114.000000 96.000000 0.101329 0.765109 -0.635878
11890.00000000 -7460.00000000 280.00000000 34 105 186 97.000000 1.000000 4.000000 1.000000 -60.708740 114.000000 96.000000 -0.431561 0.790386 -0.434793
11900.00000000 -7480.00000000 270.00000000 34 105 186 97.000000 1.000000 4.000000 1.000000 -60.708740 114.000000 96.000000 -0.023267 0.844446 -0.535135
11910.00000000 -7510.00000000 240.00000000 34 105 186 97.000000 1.000000 4.000000 1.000000 -60.708740 114.000000 96.000000 -0.397382 0.849306 -0.347514
11940.00000000 -7500.00000000 230.00000000 34 105 186 97.000000 1.000000 4.000000 1.000000 -60.708740 114.000000 96.000000 0.057968 0.907259 -0.416557
11870.00000000 -7500.00000000 230.00000000 34 105 186 97.000000 1.000000 4.000000 1.000000 -60.708740 114.000000 96.000000 -0.380053 0.871526 -0.309842
11820.00000000 -7460.00000000 240.00000000 34 105 186 97.000000 1.000000 4.000000 1.000000 -60.708740 114.000000 96.000000 -0.100435 0.807845 -0.580775
11590.00000000 -7530.00000000 660.00000000 34 105 186 97.000000 1.000000 4.000000 1.000000 -60.708740 114.000000 96.000000 0.757159 -0.610411 -0.232612
11760.00000000 -7260.00000000 370.00000000 34 105 186 97.000000 1.000000 4.000000 1.000000 -60.708740 114.000000 96.000000 -0.201934 0.974982 -0.092914
11700.00000000 -7410.00000000 330.00000000 34 105 186 97.000000 1.000000 4.000000 1.000000 -60.708740 114.000000 96.000000 -0.700058 0.713976 -0.012526
11570.00000000 -7420.00000000 240.00000000 34 105 186 97.000000 1.000000 4.000000 1.000000 -60.708740 114.000000 96.000000 -0.291998 0.947994 -0.126666
11570.00000000 -7390.00000000 210.00000000 34 105 186 97.000000 1.000000 4.000000 1.000000 -60.708740 114.000000 96.000000 -0.611130 0.789790 0.052464
11510.00000000 -7430.00000000 280.00000000 34 105 186 0.000000 0.000000 0.000000 0.000000 -60.708740 0.000000 96.000000 0.713232 -0.689308 -0.127096
11520.00000000 -7380.00000000 220.00000000 34 105 186 97.000000 1.000000 4.000000 1.000000 -60.708740 114.000000 96.000000 -0.422427 0.906321 0.011770
11490.00000000 -7400.00000000 90.00000000 34 105 186 0.000000 0.000000 0.000000 0.000000 -60.708740 0.000000 96.000000 -0.140140 0.960027 -0.242299
11660.00000000 -7490.00000000 630.00000000 34 105 186 97.000000 1.000000 4.000000 1.000000 -60.708740 114.000000 96.000000 0.620384 -0.610296 -0.492608
11690.00000000 -7520.00000000 620.00000000 34 105 186 97.000000 1.000000 4.000000 1.000000 -60.708740 114.000000 96.000000 -0.482183 0.579627 0.656911
11640.00000000 -7510.00000000 640.00000000 34 105 186 97.000000 1.000000 4.000000 1.000000 -60.708740 114.000000 96.000000 -0.290835 0.666831 0.686113
11620.00000000 -7490.00000000 550.00000000 34 105 186 97.000000 1.000000 4.000000 1.000000 -60.708740 114.000000 96.000000 0.756584 -0.541812 -0.366089
11670.00000000 -7540.00000000 650.00000000 34 105 186 97.000000 1.000000 4.000000 1.000000 -60.708740 114.000000 96.000000 -0.409059 0.892359 0.190700
11620.00000000 -7530.00000000 590.00000000 34 105 186 97.000000 1.000000 4.000000 1.000000 -60.708740 114.000000 96.000000 -0.682635 0.579155 0.445632
11580.00000000 -7520.00000000 550.00000000 34 105 186 97.000000 1.000000 4.000000 1.000000 -60.708740 114.000000 96.000000 -0.515568 0.805674 0.291682
11570.00000000 -7540.00000000 640.00000000 34 105 186 97.000000 1.000000 4.000000 1.000000 -60.708740 114.000000 96.000000 -0.694404 0.714785 0.082979
11570.00000000 -7550.00000000 580.00000000 34 105 186 97.000000 1.000000 4.000000 1.000000 -60.708740 114.000000 96.000000 0.844794 -0.527460 -0.090054
11600.00000000 -7550.00000000 620.00000000 34 105 186 97.000000 1.000000 4.000000 1.000000 -60.708740 114.000000 96.000000 -0.564123 0.754858 0.334595
11580.00000000 -7560.00000000 550.00000000 34 105 186 97.000000 1.000000 4.000000 1.000000 -60.708740 114.000000 96.000000 -0.395650 0.624101 0.673764
11570.00000000 -7530.00000000 540.00000000 34 105 186 97.000000 1.000000 4.000000 1.000000 -60.708740 114.000000 96.000000 0.592578 -0.541931 -0.595955
11560.00000000 -7540.00000000 560.00000000 34 105 186 97.000000 1.000000 4.000000 1.000000 -60.708740 114.000000 96.000000 -0.776848 0.579901 0.245403
11590.00000000 -7560.00000000 560.00000000 34 105 186 97.000000 1.000000 4.000000 1.000000 -60.708740 114.000000 96.000000 -0.810780 0.502212 0.300697
11530.00000000 -7540.00000000 510.00000000 34 105 186 97.000000 1.000000 4.000000 1.000000 -60.708740 114.000000 96.000000 -0.586300 0.566025 0.579542
11550.00000000 -7500.00000000 480.00000000 34 105 186 97.000000 1.000000 4.000000 1.000000 -60.708740 114.000000 96.000000 -0.455997 0.888992 0.041946
11550.00000000 -7490.00000000 450.00000000 34 105 186 97.000000 1.000000 4.000000 1.000000 -60.708740 114.000000 96.000000 0.748907 -0.659786 0.061810
11560.00000000 -7460.00000000 410.00000000 34 105 186 97.000000 1.000000 4.000000 1.000000 -60.708740 114.000000 96.000000 -0.468173 0.867368 -0.168777
11560.00000000 -7500.00000000 450.00000000 34 105 186 97.000000 1.000000 4.000000 1.000000 -60.708740 114.000000 96.000000 -0.571901 0.819585 0.034787
11430.00000000 -7450.00000000 90.00000000 34 105 186 0.000000 0.000000 0.000000 0.000000 -60.708740 0.000000 96.000000 -0.271957 0.962216 0.013415
11230.00000000 -7570.00000000 0.00000000 34 105 186 0.000000 0.000000 0.000000 0.000000 -60.708740 0.000000 96.000000 -0.463641 0.885379 -0.033793
11230.00000000 -7570.00000000 0.00000000 34 105 186 0.000000 0.000000 0.000000 0.000000 -60.708740 0.000000 96.000000 -0.463641 0.885379 -0.033793
11240.00000000 -7580.00000000 -10.00000000 34 105 186 0.000000 0.000000 0.000000 0.000000 -60.708740 0.000000 96.000000 -0.428555 0.621989 -0.655340
12150.00000000 -7430.00000000 -20.00000000 34 105 186 97.000000 1.000000 4.000000 1.000000 -60.708740 114.000000 96.000000 0.248738 -0.564745 0.786888
12260.00000000 -7490.00000000 -70.00000000 34 105 186 97.000000 1.000000 4.000000 1.000000 -60.708740 114.000000 96.000000 -0.526463 -0.324839 0.785695
12230.00000000 -7550.00000000 -80.00000000 34 105 186 97.000000 1.000000 4.000000 1.000000 -60.708740 114.000000 96.000000 0.081507 -0.559109 0.825078
12190.00000000 -7450.00000000 -60.00000000 34 105 186 97.000000 1.000000 4.000000 1.000000 -60.708740 114.000000 96.000000 0.131728 -0.490724 0.861300
12180.00000000 -7520.00000000 -40.00000000 34 105 186 97.000000 1.000000 4.000000 1.000000 -60.708740 114.000000 96.000000 -0.426823 -0.426823 0.797273
12180.00000000 -7500.00000000 -70.00000000 34 105 186 97.000000 1.000000 4.000000 1.000000 -60.708740 114.000000 96.000000 0.123182 -0.377850 0.917636
12200.00000000 -7520.00000000 -80.00000000 34 105 186 97.000000 1.000000 4.000000 1.000000 -60.708740 114.000000 96.000000 -0.010702 -0.236641 0.971538
12140.00000000 -7450.00000000 -60.00000000 34 105 186 97.000000 1.000000 4.000000 1.000000 -60.708740 114.000000 96.000000 -0.301370 -0.553309 0.776547
12140.00000000 -7480.00000000 -40.00000000 34 105 186 97.000000 1.000000 4.000000 1.000000 -60.708740 114.000000 96.000000 -0.205575 -0.629092 0.749655
12170.00000000 -7520.00000000 -110.00000000 34 105 186 97.000000 1.000000 4.000000 1.000000 -60.708740 114.000000 96.000000 -0.052195 -0.408191 0.911403
12150.00000000 -7520.00000000 -120.00000000 34 105 186 97.000000 1.000000 4.000000 1.000000 -60.708740 114.000000 96.000000 -0.374524 -0.111123 0.920534
12140.00000000 -7500.00000000 -120.00000000 34 105 186 97.000000 1.000000 4.000000 1.000000 -60.708740 114.000000 96.000000 -0.269671 -0.572459 0.774318
12170.00000000 -7530.00000000 -50.00000000 34 105 186 97.000000 1.000000 4.000000 1.000000 -60.708740 114.000000 96.000000 -0.151672 -0.596177 0.788396
12180.00000000 -7570.00000000 -130.00000000 34 105 186 97.000000 1.000000 4.000000 1.000000 -60.708740 114.000000 96.000000 -0.503960 -0.447781 0.738591
12170.00000000 -7530.00000000 -110.00000000 34 105 186 97.000000 1.000000 4.000000 1.000000 -60.708740 114.000000 96.000000 -0.495091 -0.329530 0.803925
12170.00000000 -7610.00000000 -120.00000000 34 105 186 97.000000 1.000000 4.000000 1.000000 -60.708740 114.000000 96.000000 -0.247433 -0.644585 0.723386
12130.00000000 -7530.00000000 -130.00000000 34 105 186 97.000000 1.000000 4.000000 1.000000 -60.708740 114.000000 96.000000 -0.316419 -0.519945 0.793433
12140.00000000 -7590.00000000 -160.00000000 34 105 186 97.000000 1.000000 4.000000 1.000000 -60.708740 114.000000 96.000000 -0.466325 -0.140042 0.873458
12170.00000000 -7620.00000000 -130.00000000 34 105 186 97.000000 1.000000 4.000000 1.000000 -60.708740 114.000000 96.000000 -0.239048 -0.595275 0.767140
12110.00000000 -7390.00000000 -50.00000000 34 105 186 97.000000 1.000000 4.000000 1.000000 -60.708740 114.000000 96.000000 -0.229780 -0.443039 0.866555
12110.00000000 -7420.00000000 -30.00000000 34 105 186 97.000000 1.000000 4.000000 1.000000 -60.708740 114.000000 96.000000 -0.216190 -0.645461 0.732559
12080.00000000 -7580.00000000 -140.00000000 34 105 186 97.000000 1.000000 4.000000 1.000000 -60.708740 114.000000 96.000000 -0.353147 -0.154938 0.922649
11250.00000000 -7580.00000000 -20.00000000 34 105 186 0.000000 0.000000 0.000000 0.000000 -60.708740 0.000000 96.000000 0.427024 -0.679583 0.596504
13160.00000000 -7340.00000000 670.00000000 34 105 186 97.000000 1.000000 4.000000 1.000000 -60.708740 114.000000 96.000000 -0.572146 0.345232 0.743951
13200.00000000 -7320.00000000 690.00000000 34 105 186 97.000000 1.000000 4.000000 1.000000 -60.708740 114.000000 96.000000 -0.265537 0.504676 0.821457
13220.00000000 -7270.00000000 700.00000000 34 105 186 97.000000 1.000000 4.000000 1.000000 -60.708740 114.000000 96.000000 -0.400777 0.212867 0.891104
13180.00000000 -7310.00000000 650.00000000 34 105 186 97.000000 1.000000 4.000000 1.000000 -60.708740 114.000000 96.000000 -0.381120 0.464741 0.799227
13180.00000000 -7430.00000000 280.00000000 34 105 186 97.000000 1.000000 4.000000 1.000000 -60.708740 114.000000 96.000000 0.745068 0.038172 -0.665896
13190.00000000 -7530.00000000 320.00000000 34 105 186 97.000000 1.000000 4.000000 1.000000 -60.708740 114.000000 96.000000 0.626144 -0.585638 -0.514754
13210.00000000 -7470.00000000 330.00000000 34 105 186 97.000000 1.000000 4.000000 1.000000 -60.708740 114.000000 96.000000 -0.463614 0.020041 0.885810
13180.00000000 -7480.00000000 310.00000000 34 105 186 97.000000 1.000000 4.000000 1.000000 -60.708740 114.000000 96.000000 -0.666545 0.196406 0.719126
12630.00000000 -7010.00000000 420.00000000 34 105 186 97.000000 1.000000 4.000000 1.000000 -60.708740 114.000000 96.000000 -0.280074 0.660974 -0.696184
12720.00000000 -7100.00000000 430.00000000 34 105 186 97.000000 1.000000 4.000000 1.000000 -60.708740 114.000000 96.000000 -0.062532 -0.287137 0.955846
12680.00000000 -7070.00000000 370.00000000 34 105 186 97.000000 1.000000 4.000000 1.000000 -60.708740 114.000000 96.000000 -0.020897 -0.279042 0.960052
12590.00000000 -6810.00000000 480.00000000 34 105 186 97.000000 1.000000 4.000000 1.000000 -60.708740 114.000000 96.000000 -0.001382 -0.676037 0.736866
12590.00000000 -6810.00000000 470.00000000 34 105 186 97.000000 1.000000 4.000000 1.000000 -60.708740 114.000000 96.000000 0.098307 0.758574 -0.644128
12470.00000000 -6910.00000000 420.00000000 34 105 186 97.000000 1.000000 4.000000 1.000000 -60.708740 114.000000 96.000000 0.612802 -0.558781 0.558781
12460.00000000 -6940.00000000 330.00000000 34 105 186 97.000000 1.000000 4.000000 1.000000 -60.708740 114.000000 96.000000 -0.004139 0.773951 -0.633232
12560.00000000 -6970.00000000 480.00000000 34 105 186 97.000000 1.000000 4.000000 1.000000 -60.708740 114.000000 96.000000 0.071608 0.860694 -0.504061
12520.00000000 -7030.00000000 460.00000000 34 105 186 97.000000 1.000000 4.000000 1.000000 -60.708740 114.000000 96.000000 -0.197884 -0.786933 0.584447
12520.00000000 -7030.00000000 470.00000000 34 105 186 97.000000 1.000000 4.000000 1.000000 -60.708740 114.000000 96.000000 -0.394132 0.890118 -0.228803
13090.00000000 -7480.00000000 870.00000000 34 105 186 97.000000 1.000000 4.000000 1.000000 -60.708740 114.000000 96.000000 -0.400757 0.828442 0.391253
13130.00000000 -7520.00000000 760.00000000 34 105 186 97.000000 1.000000 4.000000 1.000000 -60.708740 114.000000 96.000000 0.660713 -0.719789 -0.212983
13090.00000000 -7520.00000000 750.00000000 34 105 186 97.000000 1.000000 4.000000 1.000000 -60.708740 114.000000 96.000000 -0.357656 0.907896 0.218648
13060.00000000 -7520.00000000 750.00000000 34 105 186 97.000000 1.000000 4.000000 1.000000 -60.708740 114.000000 96.000000 -0.406617 0.900265 0.155513
13090.00000000 -7530.00000000 760.00000000 34 105 186 97.000000 1.000000 4.000000 1.000000 -60.708740 114.000000 96.000000 -0.724477 0.485748 0.489063
12890.00000000 -7500.00000000 710.00000000 34 105 186 97.000000 1.000000 4.000000 1.000000 -60.708740 114.000000 96.000000 0.698949 -0.704910 -0.120714
12850.00000000 -7520.00000000 780.00000000 34 105 186 97.000000 1.000000 4.000000 1.000000 -60.708740 114.000000 96.000000 -0.215713 0.976072 -0.027411
12830.00000000 -7550.00000000 760.00000000 34 105 186 97.000000 1.000000 4.000000 1.000000 -60.708740 114.000000 96.000000 0.711499 -0.647831 -0.272184
12860.00000000 -7630.00000000 940.00000000 34 105 186 97.000000 1.000000 4.000000 1.000000 -60.708740 114.000000 96.000000 -0.067154 0.986100 -0.151980
12740.00000000 -7610.00000000 960.00000000 34 105 186 97.000000 1.000000 4.000000 1.000000 -60.708740 114.000000 96.000000 0.493619 -0.608180 0.621657
12760.00000000 -7610.00000000 970.00000000 34 105 186 97.000000 1.000000 4.000000 1.000000 -60.708740 114.000000 96.000000 0.046964 0.755700 -0.653232
12760.00000000 -7540.00000000 900.00000000 34 105 186 97.000000 1.000000 4.000000 1.000000 -60.708740 114.000000 96.000000 -0.464910 0.629390 -0.622677
12780.00000000 -7540.00000000 900.00000000 34 105 186 97.000000 1.000000 4.000000 1.000000 -60.708740 114.000000 96.000000 -0.120458 0.843207 -0.523920
12730.00000000 -7550.00000000 660.00000000 34 105 186 97.000000 1.000000 4.000000 1.000000 -60.708740 114.000000 96.000000 -0.656466 0.747519 0.101334
12790.00000000 -7530.00000000 790.00000000 34 105 186 97.000000 1.000000 4.000000 1.000000 -60.708740 114.000000 96.000000 -0.368035 0.923508 0.108085
12730.00000000 -7620.00000000 950.00000000 34 105 186 97.000000 1.000000 4.000000 1.000000 -60.708740 114.000000 96.000000 -0.263999 0.937265 -0.227681
13040.00000000 -7350.00000000 620.00000000 34 105 186 97.000000 1.000000 4.000000 1.000000 -60.708740 114.000000 96.000000 0.677753 -0.064753 -0.732433
13040.00000000 -7420.00000000 580.00000000 34 105 186 97.000000 1.000000 4.000000 1.000000 -60.708740 114.000000 96.000000 -0.339442 0.370160 0.864732
13020.00000000 -7430.00000000 590.00000000 34 105 186 97.000000 1.000000 4.000000 1.000000 -60.708740 114.000000 96.000000 -0.482854 0.157038 0.861505
12850.00000000 -7270.00000000 340.00000000 34 105 186 97.000000 1.000000 4.000000 1.000000 -60.708740 114.000000 96.000000 -0.053193 -0.456916 0.887918
12820.00000000 -7190.00000000 430.00000000 34 105 186 97.000000 1.000000 4.000000 1.000000 -60.708740 114.000000 96.000000 0.076623 -0.188518 0.979076
12900.00000000 -7360.00000000 380.00000000 34 105 186 97.000000 1.000000 4.000000 1.000000 -60.708740 114.000000 96.000000 -0.081057 -0.175422 0.981151
12840.00000000 -7290.00000000 390.00000000 34 105 186 97.000000 1.000000 4.000000 1.000000 -60.708740 114.000000 96.000000 -0.229609 -0.189327 0.954691
12910.00000000 -7410.00000000 360.00000000 34 105 186 97.000000 1.000000 4.000000 1.000000 -60.708740 114.000000 96.000000 -0.373537 0.144099 0.916355
12930.00000000 -7410.00000000 370.00000000 34 105 186 97.000000 1.000000 4.000000 1.000000 -60.708740 114.000000 96.000000 -0.410726 -0.197324 0.890150
13060.00000000 -7450.00000000 630.00000000 34 105 186 97.000000 1.000000 4.000000 1.000000 -60.708740 114.000000 96.000000 -0.265699 0.456143 0.849316
13090.00000000 -7600.00000000 570.00000000 34 105 186 97.000000 1.000000 4.000000 1.000000 -60.708740 114.000000 96.000000 0.746893 -0.561390 -0.356361
13050.00000000 -7590.00000000 600.00000000 34 105 186 97.000000 1.000000 4.000000 1.000000 -60.708740 114.000000 96.000000 0.766233 -0.319665 -0.557406
13040.00000000 -7600.00000000 520.00000000 34 105 186 97.000000 1.000000 4.000000 1.000000 -60.708740 114.000000 96.000000 0.711806 -0.308288 -0.631103
13130.00000000 -7450.00000000 340.00000000 34 105 186 97.000000 1.000000 4.000000 1.000000 -60.708740 114.000000 96.000000 0.820985 -0.131181 -0.555676
13070.00000000 -7610.00000000 410.00000000 34 105 186 97.000000 1.000000 4.000000 1.000000 -60.708740 114.000000 96.000000 -0.279371 0.704014 0.652929
13020.00000000 -7580.00000000 420.00000000 34 105 186 97.000000 1.000000 4.000000 1.000000 -60.708740 114.000000 96.000000 -0.536207 0.136623 0.832957
12970.00000000 -7570.00000000 440.00000000 34 105 186 97.000000 1.000000 4.000000 1.000000 -60.708740 114.000000 96.000000 0.539887 -0.486400 -0.686977
13100.00000000 -7620.00000000 580.00000000 34 105 186 97.000000 1.000000 4.000000 1.000000 -60.708740 114.000000 96.000000 0.822253 -0.396018 -0.408741
12990.00000000 -7720.00000000 490.00000000 34 105 186 97.000000 1.000000 4.000000 1.000000 -60.708740 114.000000 96.000000 -0.356670 0.581422 0.731256
13030.00000000 -7620.00000000 420.00000000 34 105 186 97.000000 1.000000 4.000000 1.000000 -60.708740 114.000000 96.000000 0.757664 -0.209171 -0.618217
13010.00000000 -7620.00000000 400.00000000 34 105 186 97.000000 1.000000 4.000000 1.000000 -60.708740 114.000000 96.000000 0.853647 -0.205535 -0.478583
12970.00000000 -7760.00000000 460.00000000 34 105 186 97.000000 1.000000 4.000000 1.000000 -60.708740 114.000000 96.000000 -0.522758 0.657230 0.542929
12970.00000000 -7770.00000000 470.00000000 34 105 186 97.000000 1.000000 4.000000 1.000000 -60.708740 114.000000 96.000000 -0.220619 0.800710 0.556948
12820.00000000 -7520.00000000 600.00000000 34 105 186 97.000000 1.000000 4.000000 1.000000 -60.708740 114.000000 96.000000 -0.453678 0.286452 0.843873
12810.00000000 -7530.00000000 630.00000000 34 105 186 97.000000 1.000000 4.000000 1.000000 -60.708740 114.000000 96.000000 -0.488501 0.582508 0.649655
12810.00000000 -7540.00000000 640.00000000 34 105 186 97.000000 1.000000 4.000000 1.000000 -60.708740 114.000000 96.000000 -0.539221 0.797041 0.271969
12950.00000000 -7510.00000000 410.00000000 34 105 186 97.000000 1.000000 4.000000 1.000000 -60.708740 114.000000 96.000000 -0.382305 0.394891 0.835407
12920.00000000 -7490.00000000 370.00000000 34 105 186 97.000000 1.000000 4.000000 1.000000 -60.708740 114.000000 96.000000 -0.359046 0.087408 0.929218
12890.00000000 -7520.00000000 360.00000000 34 105 186 97.000000 1.000000 4.000000 1.000000 -60.708740 114.000000 96.000000 -0.377850 -0.123182 0.917636
12900.00000000 -7560.00000000 380.00000000 34 105 186 97.000000 1.000000 4.000000 1.000000 -60.708740 114.000000 96.000000 0.446050 -0.589722 -0.673252
12850.00000000 -7610.00000000 410.00000000 34 105 186 97.000000 1.000000 4.000000 1.000000 -60.708740 114.000000 96.000000 -0.418403 0.292729 0.859796
12840.00000000 -7610.00000000 410.00000000 34 105 186 97.000000 1.000000 4.000000 1.000000 -60.708740 114.000000 96.000000 -0.172301 0.466834 0.867398
12820.00000000 -7610.00000000 390.00000000 34 105 186 97.000000 1.000000 4.000000 1.000000 -60.708740 114.000000 96.000000 -0.389624 0.580326 0.715133
12900.00000000 -7630.00000000 410.00000000 34 105 186 97.000000 1.000000 4.000000 1.000000 -60.708740 114.000000 96.000000 -0.537541 0.028870 0.842743
12880.00000000 -7620.00000000 430.00000000 34 105 186 97.000000 1.000000 4.000000 1.000000 -60.708740 114.000000 96.000000 0.770727 -0.517604 -0.371572
12890.00000000 -7690.00000000 480.00000000 34 105 186 97.000000 1.000000 4.000000 1.000000 -60.708740 114.000000 96.000000 -0.330030 0.548976 0.767923
12960.00000000 -7730.00000000 460.00000000 34 105 186 97.000000 1.000000 4.000000 1.000000 -60.708740 114.000000 96.000000 -0.349612 0.477325 0.806184
12940.00000000 -7740.00000000 460.00000000 34 105 186 97.000000 1.000000 4.000000 1.000000 -60.708740 114.000000 96.000000 0.518833 -0.492141 -0.699006
12950.00000000 -7740.00000000 480.00000000 34 105 186 97.000000 1.000000 4.000000 1.000000 -60.708740 114.000000 96.000000 0.492758 -0.486122 -0.721717
12850.00000000 -7650.00000000 450.00000000 34 105 186 97.000000 1.000000 4.000000 1.000000 -60.708740 114.000000 96.000000 -0.487967 0.335378 0.805860
12840.00000000 -7780.00000000 470.00000000 34 105 186 97.000000 1.000000 4.000000 1.000000 -60.708740 114.000000 96.000000 0.736711 -0.416975 -0.532343
13040.00000000 -7490.00000000 250.00000000 34 105 186 97.000000 1.000000 4.000000 1.000000 -60.708740 114.000000 96.000000 -0.464670 -0.011983 0.885403
12740.00000000 -7120.00000000 410.00000000 34 105 186 97.000000 1.000000 4.000000 1.000000 -60.708740 114.000000 96.000000 -0.139739 -0.310682 0.940186
12760.00000000 -7140.00000000 400.00000000 34 105 186 97.000000 1.000000 4.000000 1.000000 -60.708740 114.000000 96.000000 -0.239858 -0.435968 0.867410
12740.00000000 -7130.00000000 390.00000000 34 105 186 97.000000 1.000000 4.000000 1.000000 -60.708740 114.000000 96.000000 -0.195753 -0.258722 0.945909
12700.00000000 -7170.00000000 430.00000000 34 105 186 97.000000 1.000000 4.000000 1.000000 -60.708740 114.000000 96.000000 -0.258286 -0.235948 0.936812
12710.00000000 -7260.00000000 410.00000000 34 105 186 97.000000 1.000000 4.000000 1.000000 -60.708740 114.000000 96.000000 -0.030531 -0.420798 0.906640
12640.00000000 -7220.00000000 420.00000000 34 105 186 97.000000 1.000000 4.000000 1.000000 -60.708740 114.000000 96.000000 0.116535 -0.360572 0.925423
12680.00000000 -7220.00000000 390.00000000 34 105 186 97.000000 1.000000 4.000000 1.000000 -60.708740 114.000000 96.000000 -0.065896 -0.306222 0.949677
12620.00000000 -7220.00000000 450.00000000 34 105 186 97.000000 1.000000 4.000000 1.000000 -60.708740 114.000000 96.000000 0.312290 -0.351515 0.882560
12560.00000000 -7240.00000000 450.00000000 34 105 186 97.000000 1.000000 4.000000 1.000000 -60.708740 114.000000 96.000000 -0.303959 -0.628826 0.715672
12590.00000000 -7210.00000000 430.00000000 34 105 186 97.000000 1.000000 4.000000 1.000000 -60.708740 114.000000 96.000000 -0.215359 -0.529997 0.820197
12490.00000000 -7230.00000000 460.00000000 34 105 186 97.000000 1.000000 4.000000 1.000000 -60.708740 114.000000 96.000000 -0.032682 -0.380415 0.924238
12470.00000000 -7230.00000000 480.00000000 34 105 186 97.000000 1.000000 4.000000 1.000000 -60.708740 114.000000 96.000000 0.049804 -0.755596 0.653142
12510.00000000 -7400.00000000 550.00000000 34 105 186 97.000000 1.000000 4.000000 1.000000 -60.708740 114.000000 96.000000 0.358563 -0.374085 0.855274
12490.00000000 -7430.00000000 330.00000000 34 105 186 97.000000 1.000000 4.000000 1.000000 -60.708740 114.000000 96.000000 0.016646 -0.364928 0.930887
12490.00000000 -7320.00000000 250.00000000 34 105 186 97.000000 1.000000 4.000000 1.000000 -60.708740 114.000000 96.000000 -0.403726 -0.478310 0.779888
12490.00000000 -7440.00000000 260.00000000 34 105 186 97.000000 1.000000 4.000000 1.000000 -60.708740 114.000000 96.000000 -0.002944 0.002944 0.999991
12660.00000000 -7520.00000000 570.00000000 34 105 186 97.000000 1.000000 4.000000 1.000000 -60.708740 114.000000 96.000000 -0.524778 0.243039 0.815806
12680.00000000 -7520.00000000 610.00000000 34 105 186 97.000000 1.000000 4.000000 1.000000 -60.708740 114.000000 96.000000 0.525580 -0.420134 -0.739766
12640.00000000 -7500.00000000 560.00000000 34 105 186 97.000000 1.000000 4.000000 1.000000 -60.708740 114.000000 96.000000 -0.495510 0.369615 0.786037
12640.00000000 -7530.00000000 570.00000000 34 105 186 97.000000 1.000000 4.000000 1.000000 -60.708740 114.000000 96.000000 -0.607852 -0.082298 0.789774
12630.00000000 -7550.00000000 490.00000000 34 105 186 97.000000 1.000000 4.000000 1.000000 -60.708740 114.000000 96.000000 -0.532971 0.405058 0.742880
12760.00000000 -7660.00000000 520.00000000 34 105 186 97.000000 1.000000 4.000000 1.000000 -60.708740 114.000000 96.000000 -0.407024 0.561924 0.720120
12630.00000000 -7770.00000000 570.00000000 34 105 186 97.000000 1.000000 4.000000 1.000000 -60.708740 114.000000 96.000000 -0.600607 0.791509 0.113073
12520.00000000 -7500.00000000 320.00000000 34 105 186 97.000000 1.000000 4.000000 1.000000 -60.708740 114.000000 96.000000 0.035654 0.007131 0.999339
12590.00000000 -7520.00000000 370.00000000 34 105 186 97.000000 1.000000 4.000000 1.000000 -60.708740 114.000000 96.000000 -0.607909 -0.035099 0.793230
12570.00000000 -7730.00000000 590.00000000 34 105 186 97.000000 1.000000 4.000000 1.000000 -60.708740 114.000000 96.000000 -0.393116 0.906863 0.151853
12540.00000000 -7760.00000000 560.00000000 34 105 186 97.000000 1.000000 4.000000 1.000000 -60.708740 114.000000 96.000000 0.615555 -0.585198 -0.527859
12540.00000000 -7520.00000000 180.00000000 34 105 186 97.000000 1.000000 4.000000 1.000000 -60.708740 114.000000 96.000000 0.688264 -0.029557 -0.724858
12510.00000000 -7480.00000000 130.00000000 34 105 186 97.000000 1.000000 4.000000 1.000000 -60.708740 114.000000 96.000000 -0.254231 -0.407673 0.877023
12510.00000000 -7520.00000000 110.00000000 34 105 186 97.000000 1.000000 4.000000 1.000000 -60.708740 114.000000 96.000000 -0.051592 -0.077937 0.995622
13030.00000000 -7790.00000000 490.00000000 34 105 186 97.000000 1.000000 4.000000 1.000000 -60.708740 114.000000 96.000000 0.437525 -0.563958 -0.700373
12900.00000000 -7850.00000000 490.00000000 34 105 186 97.000000 1.000000 4.000000 1.000000 -60.708740 114.000000 96.000000 0.334043 -0.659939 -0.672975
12840.00000000 -7940.00000000 570.00000000 34 105 186 97.000000 1.000000 4.000000 1.000000 -60.708740 114.000000 96.000000 0.765359 -0.643566 -0.006920
12830.00000000 -7880.00000000 520.00000000 34 105 186 97.000000 1.000000 4.000000 1.000000 -60.708740 114.000000 96.000000 -0.625169 0.770696 0.123252
12790.00000000 -8090.00000000 540.00000000 34 105 186 97.000000 1.000000 4.000000 1.000000 -60.708740 114.000000 96.000000 0.729043 -0.613169 -0.304170
12780.00000000 -8080.00000000 540.00000000 34 105 186 97.000000 1.000000 4.000000 1.000000 -60.708740 114.000000 96.000000 0.762245 -0.625859 -0.165178
12780.00000000 -8100.00000000 650.00000000 34 105 186 97.000000 1.000000 4.000000 1.000000 -60.708740 114.000000 96.000000 0.641056 -0.696235 -0.322962
12770.00000000 -8110.00000000 590.00000000 34 105 186 97.000000 1.000000 4.000000 1.000000 -60.708740 114.000000 96.000000 0.803378 -0.575979 -0.151101
12780.00000000 -8040.00000000 630.00000000 34 105 186 97.000000 1.000000 4.000000 1.000000 -60.708740 114.000000 96.000000 -0.588716 0.808283 -0.009606
12710.00000000 -8160.00000000 580.00000000 34 105 186 97.000000 1.000000 4.000000 1.000000 -60.708740 114.000000 96.000000 0.636110 -0.704091 0.315627
12730.00000000 -8120.00000000 510.00000000 34 105 186 97.000000 1.000000 4.000000 1.000000 -60.708740 114.000000 96.000000 0.835203 -0.542954 -0.087388
12380.00000000 -7070.00000000 430.00000000 34 105 186 97.000000 1.000000 4.000000 1.000000 -60.708740 114.000000 96.000000 0.092195 0.750730 -0.654145
12150.00000000 -7360.00000000 690.00000000 34 105 186 97.000000 1.000000 4.000000 1.000000 -60.708740 114.000000 96.000000 -0.502562 0.788364 0.354844
