//X Y Z R G B PointSourceId ScanDirectionFlag NumberOfReturns ReturnNumber GpsTime Intensity Classification Nx Ny Nz
9340.00000000 -9050.00000000 270.00000000 94 134 141 0.000000 0.000000 0.000000 0.000000 -60.708740 0.000000 130.000000 0.989398 0.054135 -0.134761
9340.00000000 -9060.00000000 270.00000000 94 134 141 0.000000 0.000000 0.000000 0.000000 -60.708740 0.000000 130.000000 0.979902 0.031838 -0.196924
9330.00000000 -9070.00000000 220.00000000 94 134 141 0.000000 0.000000 0.000000 0.000000 -60.708740 0.000000 130.000000 0.940389 0.322381 0.108352
9330.00000000 -9080.00000000 230.00000000 94 134 141 0.000000 0.000000 0.000000 0.000000 -60.708740 0.000000 130.000000 0.986403 -0.145302 0.076786
9340.00000000 -9080.00000000 220.00000000 94 134 141 0.000000 0.000000 0.000000 0.000000 -60.708740 0.000000 130.000000 0.928436 0.067740 0.365264
9340.00000000 -9090.00000000 190.00000000 94 134 141 0.000000 0.000000 0.000000 0.000000 -60.708740 0.000000 130.000000 0.953024 0.278130 0.119952
9270.00000000 -9110.00000000 210.00000000 94 134 141 0.000000 0.000000 0.000000 0.000000 -60.708740 0.000000 130.000000 0.955838 -0.260443 0.136171
9360.00000000 -8980.00000000 100.00000000 94 134 141 0.000000 0.000000 0.000000 0.000000 -60.708740 0.000000 130.000000 0.920070 0.380296 0.094052
9360.00000000 -9030.00000000 140.00000000 94 134 141 0.000000 0.000000 0.000000 0.000000 -60.708740 0.000000 130.000000 0.959911 0.051581 0.275518
9360.00000000 -9030.00000000 140.00000000 94 134 141 0.000000 0.000000 0.000000 0.000000 -60.708740 0.000000 130.000000 0.959911 0.051581 0.275518
9370.00000000 -9050.00000000 70.00000000 94 134 141 0.000000 0.000000 0.000000 0.000000 -60.708740 0.000000 130.000000 0.992389 0.036921 -0.117476
9370.00000000 -9080.00000000 10.00000000 94 134 141 0.000000 0.000000 0.000000 0.000000 -60.708740 0.000000 130.000000 0.932748 0.179321 0.312770
9260.00000000 -8990.00000000 60.00000000 94 134 141 0.000000 0.000000 0.000000 0.000000 -60.708740 0.000000 130.000000 0.385435 0.915925 0.111900
9340.00000000 -9110.00000000 80.00000000 94 134 141 0.000000 0.000000 0.000000 0.000000 -60.708740 0.000000 130.000000 0.974241 0.150369 0.168060
9180.00000000 -8800.00000000 10.00000000 94 134 141 0.000000 0.000000 0.000000 0.000000 -60.708740 0.000000 130.000000 0.409277 0.911991 0.027636
9180.00000000 -8870.00000000 0.00000000 94 134 141 0.000000 0.000000 0.000000 0.000000 -60.708740 0.000000 130.000000 0.141517 0.932915 -0.331123
9190.00000000 -8870.00000000 -10.00000000 94 134 141 0.000000 0.000000 0.000000 0.000000 -60.708740 0.000000 130.000000 -0.259157 0.930417 0.259157
9250.00000000 -8810.00000000 -10.00000000 94 134 141 0.000000 0.000000 0.000000 0.000000 -60.708740 0.000000 130.000000 0.135639 0.987213 -0.083742
9250.00000000 -8920.00000000 0.00000000 94 134 141 0.000000 0.000000 0.000000 0.000000 -60.708740 0.000000 130.000000 0.172786 0.984533 -0.028991
9220.00000000 -8950.00000000 10.00000000 94 134 141 0.000000 0.000000 0.000000 0.000000 -60.708740 0.000000 130.000000 0.073903 0.992572 0.096642
9150.00000000 -8870.00000000 40.00000000 94 134 141 0.000000 0.000000 0.000000 0.000000 -60.708740 0.000000 130.000000 0.042344 0.943112 0.329768
9090.00000000 -8820.00000000 20.00000000 94 134 141 0.000000 0.000000 0.000000 0.000000 -60.708740 0.000000 130.000000 0.126246 0.976217 0.176244
9120.00000000 -8800.00000000 20.00000000 94 134 141 0.000000 0.000000 0.000000 0.000000 -60.708740 0.000000 130.000000 0.043134 0.998391 -0.036822
9110.00000000 -8800.00000000 10.00000000 94 134 141 0.000000 0.000000 0.000000 0.000000 -60.708740 0.000000 130.000000 -0.218550 0.944299 0.246040
9120.00000000 -8800.00000000 20.00000000 94 134 141 0.000000 0.000000 0.000000 0.000000 -60.708740 0.000000 130.000000 0.043134 0.998391 -0.036822
9120.00000000 -8860.00000000 30.00000000 94 134 141 0.000000 0.000000 0.000000 0.000000 -60.708740 0.000000 130.000000 0.097244 0.968654 -0.228587
9230.00000000 -9010.00000000 270.00000000 94 134 141 0.000000 0.000000 0.000000 0.000000 -60.708740 0.000000 130.000000 0.383020 0.871331 0.306721
9230.00000000 -9030.00000000 250.00000000 94 134 141 0.000000 0.000000 0.000000 0.000000 -60.708740 0.000000 130.000000 0.246666 0.968254 0.040497
9180.00000000 -9010.00000000 250.00000000 94 134 141 0.000000 0.000000 0.000000 0.000000 -60.708740 0.000000 130.000000 -0.220790 0.970215 0.099671
9230.00000000 -9000.00000000 200.00000000 94 134 141 0.000000 0.000000 0.000000 0.000000 -60.708740 0.000000 130.000000 0.297559 0.929343 0.218586
9230.00000000 -9000.00000000 150.00000000 94 134 141 0.000000 0.000000 0.000000 0.000000 -60.708740 0.000000 130.000000 0.430426 0.846867 0.312331
9230.00000000 -8990.00000000 180.00000000 94 134 141 0.000000 0.000000 0.000000 0.000000 -60.708740 0.000000 130.000000 0.479009 0.871313 -0.106604
9240.00000000 -9000.00000000 150.00000000 94 134 141 0.000000 0.000000 0.000000 0.000000 -60.708740 0.000000 130.000000 0.582015 0.812015 -0.043476
9230.00000000 -9020.00000000 200.00000000 94 134 141 0.000000 0.000000 0.000000 0.000000 -60.708740 0.000000 130.000000 0.237088 0.971219 0.022866
9230.00000000 -9020.00000000 200.00000000 94 134 141 0.000000 0.000000 0.000000 0.000000 -60.708740 0.000000 130.000000 0.237088 0.971219 0.022866
9220.00000000 -9040.00000000 210.00000000 94 134 141 0.000000 0.000000 0.000000 0.000000 -60.708740 0.000000 130.000000 0.426522 0.891819 -0.150791
9250.00000000 -9010.00000000 150.00000000 94 134 141 0.000000 0.000000 0.000000 0.000000 -60.708740 0.000000 130.000000 0.683750 0.690037 -0.237348
9250.00000000 -9010.00000000 150.00000000 94 134 141 0.000000 0.000000 0.000000 0.000000 -60.708740 0.000000 130.000000 0.683750 0.690037 -0.237348
9210.00000000 -9000.00000000 220.00000000 94 134 141 0.000000 0.000000 0.000000 0.000000 -60.708740 0.000000 130.000000 0.536915 0.804594 -0.253673
9200.00000000 -8990.00000000 200.00000000 94 134 141 0.000000 0.000000 0.000000 0.000000 -60.708740 0.000000 130.000000 -0.072135 0.963064 -0.259432
9190.00000000 -9000.00000000 170.00000000 94 134 141 0.000000 0.000000 0.000000 0.000000 -60.708740 0.000000 130.000000 -0.049104 0.996272 0.070928
9190.00000000 -9000.00000000 150.00000000 94 134 141 0.000000 0.000000 0.000000 0.000000 -60.708740 0.000000 130.000000 -0.170782 0.969477 0.175918
9180.00000000 -9000.00000000 160.00000000 94 134 141 0.000000 0.000000 0.000000 0.000000 -60.708740 0.000000 130.000000 -0.340264 0.921961 0.184957
9250.00000000 -9050.00000000 190.00000000 94 134 141 0.000000 0.000000 0.000000 0.000000 -60.708740 0.000000 130.000000 0.588049 0.805527 0.072970
9220.00000000 -8970.00000000 110.00000000 94 134 141 0.000000 0.000000 0.000000 0.000000 -60.708740 0.000000 130.000000 0.531706 0.836374 -0.133293
9240.00000000 -8980.00000000 130.00000000 94 134 141 0.000000 0.000000 0.000000 0.000000 -60.708740 0.000000 130.000000 0.433339 0.852799 -0.291463
9200.00000000 -8990.00000000 140.00000000 94 134 141 0.000000 0.000000 0.000000 0.000000 -60.708740 0.000000 130.000000 -0.148662 0.986790 0.064381
9190.00000000 -9010.00000000 90.00000000 94 134 141 0.000000 0.000000 0.000000 0.000000 -60.708740 0.000000 130.000000 0.028402 0.998267 0.051544
9190.00000000 -9010.00000000 90.00000000 94 134 141 0.000000 0.000000 0.000000 0.000000 -60.708740 0.000000 130.000000 0.028402 0.998267 0.051544
9240.00000000 -8980.00000000 -10.00000000 94 134 141 0.000000 0.000000 0.000000 0.000000 -60.708740 0.000000 130.000000 0.610527 0.741240 0.278961
9240.00000000 -8970.00000000 0.00000000 94 134 141 0.000000 0.000000 0.000000 0.000000 -60.708740 0.000000 130.000000 0.621206 0.696602 0.358955
9220.00000000 -8980.00000000 0.00000000 94 134 141 0.000000 0.000000 0.000000 0.000000 -60.708740 0.000000 130.000000 0.230898 0.951949 -0.201192
9230.00000000 -9010.00000000 -10.00000000 94 134 141 0.000000 0.000000 0.000000 0.000000 -60.708740 0.000000 130.000000 0.752227 0.653288 0.085844
9200.00000000 -8980.00000000 50.00000000 94 134 141 0.000000 0.000000 0.000000 0.000000 -60.708740 0.000000 130.000000 -0.041459 0.956064 0.290211
9180.00000000 -9020.00000000 40.00000000 94 134 141 0.000000 0.000000 0.000000 0.000000 -60.708740 0.000000 130.000000 -0.248116 0.956638 -0.152584
9190.00000000 -9020.00000000 10.00000000 94 134 141 0.000000 0.000000 0.000000 0.000000 -60.708740 0.000000 130.000000 0.505631 0.824163 -0.255135
9130.00000000 -9050.00000000 0.00000000 94 134 141 0.000000 0.000000 0.000000 0.000000 -60.708740 0.000000 130.000000 0.593544 -0.747129 -0.299172
9080.00000000 -8800.00000000 0.00000000 94 134 141 0.000000 0.000000 0.000000 0.000000 -60.708740 0.000000 130.000000 -0.211535 0.913773 -0.346802
8990.00000000 -8800.00000000 10.00000000 94 134 141 0.000000 0.000000 0.000000 0.000000 -60.708740 0.000000 130.000000 -0.642124 0.763333 0.070706
9000.00000000 -8830.00000000 -10.00000000 94 134 141 0.000000 0.000000 0.000000 0.000000 -60.708740 0.000000 130.000000 -0.285932 0.887737 0.360784
9540.00000000 -9380.00000000 660.00000000 94 134 141 0.000000 0.000000 0.000000 0.000000 -60.708740 0.000000 130.000000 0.869142 -0.493738 -0.028563
9520.00000000 -9440.00000000 700.00000000 94 134 141 0.000000 0.000000 0.000000 0.000000 -60.708740 0.000000 130.000000 -0.685073 0.649273 -0.330332
9530.00000000 -9430.00000000 720.00000000 94 134 141 0.000000 0.000000 0.000000 0.000000 -60.708740 0.000000 130.000000 0.832241 -0.554373 0.006810
9460.00000000 -9410.00000000 760.00000000 94 134 141 0.000000 0.000000 0.000000 0.000000 -60.708740 0.000000 130.000000 0.872970 -0.468951 -0.134192
9450.00000000 -9480.00000000 750.00000000 94 134 141 0.000000 0.000000 0.000000 0.000000 -60.708740 0.000000 130.000000 0.821377 -0.552025 0.143556
9200.00000000 -9170.00000000 1160.00000000 94 134 141 0.000000 0.000000 0.000000 0.000000 -60.708740 0.000000 130.000000 0.057129 0.993599 0.097456
9190.00000000 -9160.00000000 1140.00000000 94 134 141 0.000000 0.000000 0.000000 0.000000 -60.708740 0.000000 130.000000 0.317684 0.893394 -0.317684
9190.00000000 -9150.00000000 1080.00000000 94 134 141 0.000000 0.000000 0.000000 0.000000 -60.708740 0.000000 130.000000 0.283180 0.888494 -0.361091
9190.00000000 -9170.00000000 1120.00000000 94 134 141 0.000000 0.000000 0.000000 0.000000 -60.708740 0.000000 130.000000 0.081636 0.994169 -0.070453
9180.00000000 -9170.00000000 1130.00000000 94 134 141 0.000000 0.000000 0.000000 0.000000 -60.708740 0.000000 130.000000 0.285034 0.950555 -0.123294
9190.00000000 -9170.00000000 1100.00000000 94 134 141 0.000000 0.000000 0.000000 0.000000 -60.708740 0.000000 130.000000 -0.005472 0.992580 0.121473
9180.00000000 -9170.00000000 1040.00000000 94 134 141 0.000000 0.000000 0.000000 0.000000 -60.708740 0.000000 130.000000 0.098469 0.990484 0.096152
9190.00000000 -9170.00000000 1050.00000000 94 134 141 0.000000 0.000000 0.000000 0.000000 -60.708740 0.000000 130.000000 -0.017004 0.987361 -0.157570
9190.00000000 -9170.00000000 1060.00000000 94 134 141 0.000000 0.000000 0.000000 0.000000 -60.708740 0.000000 130.000000 0.001040 0.997710 -0.067624
9190.00000000 -9170.00000000 1070.00000000 94 134 141 0.000000 0.000000 0.000000 0.000000 -60.708740 0.000000 130.000000 -0.234436 0.955161 0.180851
9210.00000000 -9130.00000000 1020.00000000 94 134 141 0.000000 0.000000 0.000000 0.000000 -60.708740 0.000000 130.000000 0.977864 -0.208282 -0.020004
9180.00000000 -9170.00000000 1020.00000000 94 134 141 0.000000 0.000000 0.000000 0.000000 -60.708740 0.000000 130.000000 0.259572 0.958721 0.116090
9190.00000000 -9170.00000000 1010.00000000 94 134 141 0.000000 0.000000 0.000000 0.000000 -60.708740 0.000000 130.000000 -0.142123 0.974736 -0.172308
9200.00000000 -9170.00000000 1010.00000000 94 134 141 0.000000 0.000000 0.000000 0.000000 -60.708740 0.000000 130.000000 0.031001 0.997390 -0.065210
9180.00000000 -9170.00000000 1010.00000000 94 134 141 0.000000 0.000000 0.000000 0.000000 -60.708740 0.000000 130.000000 0.558909 0.821581 0.112365
9210.00000000 -9150.00000000 1010.00000000 94 134 141 0.000000 0.000000 0.000000 0.000000 -60.708740 0.000000 130.000000 0.695446 -0.682943 -0.223480
9200.00000000 -9170.00000000 1030.00000000 94 134 141 0.000000 0.000000 0.000000 0.000000 -60.708740 0.000000 130.000000 -0.138866 0.986302 0.089016
9170.00000000 -9170.00000000 1120.00000000 94 134 141 0.000000 0.000000 0.000000 0.000000 -60.708740 0.000000 130.000000 0.498192 0.859991 -0.110550
9170.00000000 -9170.00000000 1150.00000000 94 134 141 0.000000 0.000000 0.000000 0.000000 -60.708740 0.000000 130.000000 0.233652 0.966528 0.105973
9170.00000000 -9130.00000000 1090.00000000 94 134 141 0.000000 0.000000 0.000000 0.000000 -60.708740 0.000000 130.000000 0.968605 0.187014 0.163799
9170.00000000 -9170.00000000 1110.00000000 94 134 141 0.000000 0.000000 0.000000 0.000000 -60.708740 0.000000 130.000000 0.570651 0.820571 0.031934
9170.00000000 -9170.00000000 1070.00000000 94 134 141 0.000000 0.000000 0.000000 0.000000 -60.708740 0.000000 130.000000 0.409741 0.904787 -0.116070
9390.00000000 -9460.00000000 860.00000000 94 134 141 0.000000 0.000000 0.000000 0.000000 -60.708740 0.000000 130.000000 -0.628338 0.732798 -0.261148
9290.00000000 -9430.00000000 920.00000000 94 134 141 0.000000 0.000000 0.000000 0.000000 -60.708740 0.000000 125.000000 0.031867 0.994477 -0.099997
9340.00000000 -9420.00000000 880.00000000 94 134 141 0.000000 0.000000 0.000000 0.000000 -60.708740 0.000000 130.000000 -0.520158 0.785839 -0.334502
9240.00000000 -9140.00000000 960.00000000 94 134 141 0.000000 0.000000 0.000000 0.000000 -60.708740 0.000000 130.000000 0.974459 -0.134538 0.179803
9190.00000000 -9170.00000000 980.00000000 94 134 141 0.000000 0.000000 0.000000 0.000000 -60.708740 0.000000 130.000000 -0.206644 0.962146 -0.177688
9190.00000000 -9160.00000000 950.00000000 94 134 141 0.000000 0.000000 0.000000 0.000000 -60.708740 0.000000 130.000000 -0.210655 0.977107 0.029754
9210.00000000 -9150.00000000 920.00000000 94 134 141 0.000000 0.000000 0.000000 0.000000 -60.708740 0.000000 130.000000 -0.402348 0.915375 -0.014323
9200.00000000 -9170.00000000 920.00000000 94 134 141 0.000000 0.000000 0.000000 0.000000 -60.708740 0.000000 130.000000 -0.081965 0.951060 -0.297938
9210.00000000 -9170.00000000 920.00000000 94 134 141 0.000000 0.000000 0.000000 0.000000 -60.708740 0.000000 130.000000 0.038097 0.987046 0.155849
9210.00000000 -9150.00000000 930.00000000 94 134 141 0.000000 0.000000 0.000000 0.000000 -60.708740 0.000000 130.000000 -0.468358 0.768629 0.435719
9180.00000000 -9200.00000000 950.00000000 94 134 141 0.000000 0.000000 0.000000 0.000000 -60.708740 0.000000 130.000000 0.348898 0.910609 0.221499
9210.00000000 -9180.00000000 930.00000000 94 134 141 0.000000 0.000000 0.000000 0.000000 -60.708740 0.000000 130.000000 -0.020293 0.972887 0.230389
9220.00000000 -9160.00000000 900.00000000 94 134 141 0.000000 0.000000 0.000000 0.000000 -60.708740 0.000000 130.000000 0.747800 -0.662983 0.035340
9220.00000000 -9150.00000000 830.00000000 94 134 141 0.000000 0.000000 0.000000 0.000000 -60.708740 0.000000 130.000000 -0.640928 0.734494 0.222999
9200.00000000 -9140.00000000 900.00000000 94 134 141 0.000000 0.000000 0.000000 0.000000 -60.708740 0.000000 130.000000 -0.200952 0.971900 -0.122593
9210.00000000 -9150.00000000 880.00000000 94 134 141 0.000000 0.000000 0.000000 0.000000 -60.708740 0.000000 130.000000 -0.662692 0.748829 -0.009725
9200.00000000 -9170.00000000 890.00000000 94 134 141 0.000000 0.000000 0.000000 0.000000 -60.708740 0.000000 130.000000 -0.522856 0.847682 -0.089755
9210.00000000 -9150.00000000 830.00000000 94 134 141 0.000000 0.000000 0.000000 0.000000 -60.708740 0.000000 130.000000 -0.501617 0.851718 -0.151515
9180.00000000 -9150.00000000 830.00000000 94 134 141 0.000000 0.000000 0.000000 0.000000 -60.708740 0.000000 130.000000 0.042028 0.976248 0.212541
9210.00000000 -9140.00000000 860.00000000 94 134 141 0.000000 0.000000 0.000000 0.000000 -60.708740 0.000000 130.000000 -0.550838 0.774366 0.311343
9190.00000000 -9160.00000000 860.00000000 94 134 141 0.000000 0.000000 0.000000 0.000000 -60.708740 0.000000 130.000000 0.326543 0.943202 -0.061146
9160.00000000 -9170.00000000 950.00000000 94 134 141 0.000000 0.000000 0.000000 0.000000 -60.708740 0.000000 130.000000 0.619126 0.694669 0.366220
9160.00000000 -9160.00000000 930.00000000 94 134 141 0.000000 0.000000 0.000000 0.000000 -60.708740 0.000000 130.000000 0.505982 0.828949 0.238381
9160.00000000 -9170.00000000 910.00000000 94 134 141 0.000000 0.000000 0.000000 0.000000 -60.708740 0.000000 130.000000 0.684412 0.684412 -0.251320
9160.00000000 -9190.00000000 960.00000000 94 134 141 0.000000 0.000000 0.000000 0.000000 -60.708740 0.000000 130.000000 0.220037 0.975457 0.008237
9160.00000000 -9190.00000000 960.00000000 94 134 141 0.000000 0.000000 0.000000 0.000000 -60.708740 0.000000 130.000000 0.220037 0.975457 0.008237
9100.00000000 -9140.00000000 920.00000000 94 134 141 0.000000 0.000000 0.000000 0.000000 -60.708740 0.000000 130.000000 0.996124 0.081294 -0.033602
9140.00000000 -9160.00000000 880.00000000 94 134 141 0.000000 0.000000 0.000000 0.000000 -60.708740 0.000000 130.000000 0.948412 0.316137 0.023931
9170.00000000 -9160.00000000 880.00000000 94 134 141 0.000000 0.000000 0.000000 0.000000 -60.708740 0.000000 130.000000 0.361203 0.902275 0.235440
9150.00000000 -9130.00000000 900.00000000 94 134 141 0.000000 0.000000 0.000000 0.000000 -60.708740 0.000000 130.000000 0.923095 0.122437 -0.364561
9160.00000000 -9180.00000000 890.00000000 94 134 141 0.000000 0.000000 0.000000 0.000000 -60.708740 0.000000 130.000000 0.455036 0.889938 0.030873
9230.00000000 -9130.00000000 760.00000000 94 134 141 0.000000 0.000000 0.000000 0.000000 -60.708740 0.000000 130.000000 0.972875 -0.193061 0.127445
9230.00000000 -9140.00000000 770.00000000 94 134 141 0.000000 0.000000 0.000000 0.000000 -60.708740 0.000000 130.000000 0.658615 -0.734668 0.162753
9230.00000000 -9140.00000000 740.00000000 94 134 141 0.000000 0.000000 0.000000 0.000000 -60.708740 0.000000 130.000000 0.889441 -0.404292 -0.213172
9180.00000000 -9150.00000000 820.00000000 94 134 141 0.000000 0.000000 0.000000 0.000000 -60.708740 0.000000 130.000000 0.204421 0.964815 -0.165360
9180.00000000 -9150.00000000 800.00000000 94 134 141 0.000000 0.000000 0.000000 0.000000 -60.708740 0.000000 130.000000 0.044996 0.995407 0.084505
9180.00000000 -9150.00000000 800.00000000 94 134 141 0.000000 0.000000 0.000000 0.000000 -60.708740 0.000000 130.000000 0.044996 0.995407 0.084505
9180.00000000 -9160.00000000 800.00000000 94 134 141 0.000000 0.000000 0.000000 0.000000 -60.708740 0.000000 130.000000 0.244032 0.932401 0.266602
9200.00000000 -9140.00000000 770.00000000 94 134 141 0.000000 0.000000 0.000000 0.000000 -60.708740 0.000000 130.000000 -0.166761 0.962487 -0.214032
9190.00000000 -9130.00000000 740.00000000 94 134 141 0.000000 0.000000 0.000000 0.000000 -60.708740 0.000000 130.000000 0.015091 0.980913 0.193861
9200.00000000 -9150.00000000 780.00000000 94 134 141 0.000000 0.000000 0.000000 0.000000 -60.708740 0.000000 130.000000 -0.219919 0.904434 -0.365560
9220.00000000 -9130.00000000 710.00000000 94 134 141 0.000000 0.000000 0.000000 0.000000 -60.708740 0.000000 130.000000 0.894885 -0.444068 -0.044542
9180.00000000 -9130.00000000 730.00000000 94 134 141 0.000000 0.000000 0.000000 0.000000 -60.708740 0.000000 130.000000 0.177082 0.968134 0.177082
9180.00000000 -9130.00000000 730.00000000 94 134 141 0.000000 0.000000 0.000000 0.000000 -60.708740 0.000000 130.000000 0.177082 0.968134 0.177082
9160.00000000 -9140.00000000 800.00000000 94 134 141 0.000000 0.000000 0.000000 0.000000 -60.708740 0.000000 130.000000 0.553449 0.829462 0.075406
9220.00000000 -9440.00000000 900.00000000 94 134 141 0.000000 0.000000 0.000000 0.000000 -60.708740 0.000000 125.000000 -0.042105 0.975632 -0.215337
9160.00000000 -9450.00000000 980.00000000 94 134 141 0.000000 0.000000 0.000000 0.000000 -60.708740 0.000000 125.000000 0.467848 0.882188 0.053508
9150.00000000 -9430.00000000 960.00000000 94 134 141 0.000000 0.000000 0.000000 0.000000 -60.708740 0.000000 125.000000 -0.215945 0.972375 0.088625
9140.00000000 -9430.00000000 990.00000000 94 134 141 0.000000 0.000000 0.000000 0.000000 -60.708740 0.000000 125.000000 -0.177681 0.974096 0.139877
9120.00000000 -9460.00000000 720.00000000 94 134 141 0.000000 0.000000 0.000000 0.000000 -60.708740 0.000000 125.000000 -0.209284 0.977058 -0.039465
9190.00000000 -9510.00000000 890.00000000 94 134 141 0.000000 0.000000 0.000000 0.000000 -60.708740 0.000000 125.000000 -0.279520 0.916769 -0.285313
9210.00000000 -9570.00000000 890.00000000 94 134 141 0.000000 0.000000 0.000000 0.000000 -60.708740 0.000000 125.000000 -0.289761 0.954280 -0.073406
9140.00000000 -9490.00000000 920.00000000 94 134 141 0.000000 0.000000 0.000000 0.000000 -60.708740 0.000000 125.000000 0.502649 0.850523 -0.154775
9130.00000000 -9490.00000000 910.00000000 94 134 141 0.000000 0.000000 0.000000 0.000000 -60.708740 0.000000 125.000000 -0.248802 0.966453 0.063763
9130.00000000 -9530.00000000 920.00000000 94 134 141 0.000000 0.000000 0.000000 0.000000 -60.708740 0.000000 125.000000 0.173920 0.950495 -0.257510
9140.00000000 -9520.00000000 900.00000000 94 134 141 0.000000 0.000000 0.000000 0.000000 -60.708740 0.000000 125.000000 0.097231 0.991753 -0.083504
9140.00000000 -9550.00000000 850.00000000 94 134 141 0.000000 0.000000 0.000000 0.000000 -60.708740 0.000000 125.000000 -0.296473 0.945762 0.132809
9120.00000000 -9520.00000000 870.00000000 94 134 141 0.000000 0.000000 0.000000 0.000000 -60.708740 0.000000 125.000000 -0.003401 0.985231 -0.171197
9090.00000000 -9510.00000000 890.00000000 94 134 141 0.000000 0.000000 0.000000 0.000000 -60.708740 0.000000 125.000000 0.307384 0.904503 -0.295618
9160.00000000 -9570.00000000 920.00000000 94 134 141 0.000000 0.000000 0.000000 0.000000 -60.708740 0.000000 125.000000 -0.054306 0.997747 -0.039399
9150.00000000 -9590.00000000 850.00000000 94 134 141 0.000000 0.000000 0.000000 0.000000 -60.708740 0.000000 125.000000 -0.195947 0.969491 0.147281
9130.00000000 -9610.00000000 870.00000000 94 134 141 0.000000 0.000000 0.000000 0.000000 -60.708740 0.000000 125.000000 -0.210705 0.975574 0.062115
9180.00000000 -9540.00000000 800.00000000 94 134 141 0.000000 0.000000 0.000000 0.000000 -60.708740 0.000000 125.000000 0.394905 0.917923 0.038302
9180.00000000 -9540.00000000 810.00000000 94 134 141 0.000000 0.000000 0.000000 0.000000 -60.708740 0.000000 125.000000 0.165879 0.981956 -0.090810
9230.00000000 -9500.00000000 680.00000000 94 134 141 0.000000 0.000000 0.000000 0.000000 -60.708740 0.000000 125.000000 0.011074 0.999715 0.021142
9250.00000000 -9500.00000000 690.00000000 94 134 141 0.000000 0.000000 0.000000 0.000000 -60.708740 0.000000 125.000000 -0.173755 0.980563 0.091130
9240.00000000 -9520.00000000 730.00000000 94 134 141 0.000000 0.000000 0.000000 0.000000 -60.708740 0.000000 125.000000 -0.466179 0.865761 -0.182032
9240.00000000 -9540.00000000 700.00000000 94 134 141 0.000000 0.000000 0.000000 0.000000 -60.708740 0.000000 125.000000 0.042933 0.932820 -0.357776
9240.00000000 -9520.00000000 730.00000000 94 134 141 0.000000 0.000000 0.000000 0.000000 -60.708740 0.000000 125.000000 -0.466179 0.865761 -0.182032
9190.00000000 -9470.00000000 690.00000000 94 134 141 0.000000 0.000000 0.000000 0.000000 -60.708740 0.000000 125.000000 0.093442 0.994881 -0.038476
9180.00000000 -9580.00000000 770.00000000 94 134 141 0.000000 0.000000 0.000000 0.000000 -60.708740 0.000000 125.000000 -0.002944 0.999995 -0.000981
9180.00000000 -9590.00000000 670.00000000 94 134 141 0.000000 0.000000 0.000000 0.000000 -60.708740 0.000000 125.000000 0.216442 -0.948803 0.230054
9150.00000000 -9480.00000000 760.00000000 94 134 141 0.000000 0.000000 0.000000 0.000000 -60.708740 0.000000 125.000000 -0.024000 0.998609 0.046957
9090.00000000 -9540.00000000 800.00000000 94 134 141 0.000000 0.000000 0.000000 0.000000 -60.708740 0.000000 125.000000 0.562148 0.809312 -0.170302
9150.00000000 -9550.00000000 720.00000000 94 134 141 0.000000 0.000000 0.000000 0.000000 -60.708740 0.000000 125.000000 0.069985 0.997548 -0.001045
9110.00000000 -9480.00000000 700.00000000 94 134 141 0.000000 0.000000 0.000000 0.000000 -60.708740 0.000000 125.000000 -0.082678 0.983751 0.159365
9110.00000000 -9480.00000000 700.00000000 94 134 141 0.000000 0.000000 0.000000 0.000000 -60.708740 0.000000 125.000000 -0.082678 0.983751 0.159365
9100.00000000 -9530.00000000 720.00000000 94 134 141 0.000000 0.000000 0.000000 0.000000 -60.708740 0.000000 125.000000 0.260630 0.957388 -0.124421
9100.00000000 -9520.00000000 670.00000000 94 134 141 0.000000 0.000000 0.000000 0.000000 -60.708740 0.000000 125.000000 -0.025643 0.965897 0.257654
9150.00000000 -9590.00000000 810.00000000 94 134 141 0.000000 0.000000 0.000000 0.000000 -60.708740 0.000000 125.000000 0.106126 0.986133 -0.127589
9170.00000000 -9590.00000000 810.00000000 94 134 141 0.000000 0.000000 0.000000 0.000000 -60.708740 0.000000 125.000000 -0.190656 0.981350 0.024563
9150.00000000 -9590.00000000 750.00000000 94 134 141 0.000000 0.000000 0.000000 0.000000 -60.708740 0.000000 125.000000 -0.035429 0.922459 -0.384467
9140.00000000 -9570.00000000 740.00000000 94 134 141 0.000000 0.000000 0.000000 0.000000 -60.708740 0.000000 125.000000 0.459836 0.867923 -0.187779
9160.00000000 -9600.00000000 820.00000000 94 134 141 0.000000 0.000000 0.000000 0.000000 -60.708740 0.000000 125.000000 -0.192597 0.970636 0.144129
9170.00000000 -9580.00000000 680.00000000 94 134 141 0.000000 0.000000 0.000000 0.000000 -60.708740 0.000000 125.000000 0.099508 0.922831 -0.372131
9150.00000000 -9580.00000000 670.00000000 94 134 141 0.000000 0.000000 0.000000 0.000000 -60.708740 0.000000 125.000000 -0.338135 0.940953 -0.016464
9130.00000000 -9580.00000000 680.00000000 94 134 141 0.000000 0.000000 0.000000 0.000000 -60.708740 0.000000 125.000000 -0.078270 0.995468 -0.054018
9120.00000000 -9560.00000000 660.00000000 94 134 141 0.000000 0.000000 0.000000 0.000000 -60.708740 0.000000 125.000000 0.372531 0.925318 -0.070767
9130.00000000 -9580.00000000 670.00000000 94 134 141 0.000000 0.000000 0.000000 0.000000 -60.708740 0.000000 125.000000 0.042873 0.998620 0.030325
9650.00000000 -9260.00000000 510.00000000 94 134 141 0.000000 0.000000 0.000000 0.000000 -60.708740 0.000000 130.000000 0.960546 -0.030985 0.276389
9620.00000000 -9270.00000000 520.00000000 94 134 141 0.000000 0.000000 0.000000 0.000000 -60.708740 0.000000 130.000000 0.791119 -0.589196 0.164251
9650.00000000 -9190.00000000 410.00000000 94 134 141 0.000000 0.000000 0.000000 0.000000 -60.708740 0.000000 130.000000 0.983108 0.175850 0.050749
9650.00000000 -9170.00000000 330.00000000 94 134 141 0.000000 0.000000 0.000000 0.000000 -60.708740 0.000000 130.000000 0.981436 0.024507 -0.190219
9640.00000000 -9190.00000000 340.00000000 94 134 141 0.000000 0.000000 0.000000 0.000000 -60.708740 0.000000 130.000000 0.992648 -0.036931 0.115268
9650.00000000 -9240.00000000 390.00000000 94 134 141 0.000000 0.000000 0.000000 0.000000 -60.708740 0.000000 130.000000 0.991633 0.127702 -0.018878
9640.00000000 -9250.00000000 340.00000000 94 134 141 0.000000 0.000000 0.000000 0.000000 -60.708740 0.000000 130.000000 0.958773 -0.256977 0.121314
9620.00000000 -9260.00000000 370.00000000 94 134 141 0.000000 0.000000 0.000000 0.000000 -60.708740 0.000000 130.000000 0.842564 -0.508521 -0.177460
9620.00000000 -9330.00000000 580.00000000 94 134 141 0.000000 0.000000 0.000000 0.000000 -60.708740 0.000000 130.000000 0.853625 -0.520370 -0.023219
9600.00000000 -9320.00000000 440.00000000 94 134 141 0.000000 0.000000 0.000000 0.000000 -60.708740 0.000000 130.000000 0.791404 -0.594671 -0.141588
9630.00000000 -9300.00000000 480.00000000 94 134 141 0.000000 0.000000 0.000000 0.000000 -60.708740 0.000000 130.000000 0.940343 -0.148332 0.306190
9580.00000000 -9290.00000000 470.00000000 94 134 141 0.000000 0.000000 0.000000 0.000000 -60.708740 0.000000 130.000000 0.936068 -0.337092 0.100725
9580.00000000 -9360.00000000 620.00000000 94 134 141 0.000000 0.000000 0.000000 0.000000 -60.708740 0.000000 130.000000 0.852837 -0.475476 0.215851
9580.00000000 -9370.00000000 620.00000000 94 134 141 0.000000 0.000000 0.000000 0.000000 -60.708740 0.000000 130.000000 0.842660 -0.528643 0.102272
9540.00000000 -9380.00000000 640.00000000 94 134 141 0.000000 0.000000 0.000000 0.000000 -60.708740 0.000000 130.000000 -0.671736 0.717851 -0.182921
9650.00000000 -9140.00000000 280.00000000 94 134 141 0.000000 0.000000 0.000000 0.000000 -60.708740 0.000000 130.000000 0.977643 -0.183693 -0.102326
9660.00000000 -9130.00000000 300.00000000 94 134 141 0.000000 0.000000 0.000000 0.000000 -60.708740 0.000000 130.000000 0.969270 0.065776 0.237043
9650.00000000 -9180.00000000 290.00000000 94 134 141 0.000000 0.000000 0.000000 0.000000 -60.708740 0.000000 130.000000 0.959902 -0.072469 -0.270807
9650.00000000 -9210.00000000 310.00000000 94 134 141 0.000000 0.000000 0.000000 0.000000 -60.708740 0.000000 130.000000 0.988111 -0.140826 -0.061684
9660.00000000 -9180.00000000 310.00000000 94 134 141 0.000000 0.000000 0.000000 0.000000 -60.708740 0.000000 130.000000 0.982788 0.153523 -0.102752
9660.00000000 -9180.00000000 310.00000000 94 134 141 0.000000 0.000000 0.000000 0.000000 -60.708740 0.000000 130.000000 0.982788 0.153523 -0.102752
9660.00000000 -9180.00000000 300.00000000 94 134 141 0.000000 0.000000 0.000000 0.000000 -60.708740 0.000000 130.000000 0.966850 0.137754 -0.214999
9600.00000000 -9140.00000000 250.00000000 94 134 141 0.000000 0.000000 0.000000 0.000000 -60.708740 0.000000 130.000000 0.928208 0.081704 0.362979
9620.00000000 -9200.00000000 300.00000000 94 134 141 0.000000 0.000000 0.000000 0.000000 -60.708740 0.000000 130.000000 0.897571 -0.386758 -0.211622
9630.00000000 -9210.00000000 240.00000000 94 134 141 0.000000 0.000000 0.000000 0.000000 -60.708740 0.000000 130.000000 0.942648 -0.238767 -0.233247
9640.00000000 -9160.00000000 170.00000000 94 134 141 0.000000 0.000000 0.000000 0.000000 -60.708740 0.000000 130.000000 0.875854 -0.345772 -0.336633
9640.00000000 -9160.00000000 170.00000000 94 134 141 0.000000 0.000000 0.000000 0.000000 -60.708740 0.000000 130.000000 0.875854 -0.345772 -0.336633
9630.00000000 -9160.00000000 160.00000000 94 134 141 0.000000 0.000000 0.000000 0.000000 -60.708740 0.000000 130.000000 0.956973 -0.288215 -0.033687
9630.00000000 -9130.00000000 160.00000000 94 134 141 0.000000 0.000000 0.000000 0.000000 -60.708740 0.000000 130.000000 0.926332 0.014133 -0.376443
9620.00000000 -9210.00000000 180.00000000 94 134 141 0.000000 0.000000 0.000000 0.000000 -60.708740 0.000000 130.000000 0.970474 0.005939 -0.241134
9620.00000000 -9200.00000000 150.00000000 94 134 141 0.000000 0.000000 0.000000 0.000000 -60.708740 0.000000 130.000000 0.997948 0.063610 -0.007300
9630.00000000 -9180.00000000 150.00000000 94 134 141 0.000000 0.000000 0.000000 0.000000 -60.708740 0.000000 130.000000 0.991785 0.122429 0.037066
9620.00000000 -9200.00000000 170.00000000 94 134 141 0.000000 0.000000 0.000000 0.000000 -60.708740 0.000000 130.000000 0.946315 -0.314568 -0.074400
9630.00000000 -9190.00000000 180.00000000 94 134 141 0.000000 0.000000 0.000000 0.000000 -60.708740 0.000000 130.000000 0.855572 -0.517164 -0.023197
9640.00000000 -9220.00000000 290.00000000 94 134 141 0.000000 0.000000 0.000000 0.000000 -60.708740 0.000000 130.000000 0.997537 0.030940 -0.062946
9620.00000000 -9230.00000000 240.00000000 94 134 141 0.000000 0.000000 0.000000 0.000000 -60.708740 0.000000 130.000000 0.824099 -0.566311 -0.012341
9610.00000000 -9250.00000000 240.00000000 94 134 141 0.000000 0.000000 0.000000 0.000000 -60.708740 0.000000 130.000000 0.904169 -0.370085 0.213343
9630.00000000 -9280.00000000 310.00000000 94 134 141 0.000000 0.000000 0.000000 0.000000 -60.708740 0.000000 130.000000 -0.718809 0.682943 -0.130013
9610.00000000 -9270.00000000 260.00000000 94 134 141 0.000000 0.000000 0.000000 0.000000 -60.708740 0.000000 130.000000 0.901529 -0.401473 -0.161447
9620.00000000 -9270.00000000 240.00000000 94 134 141 0.000000 0.000000 0.000000 0.000000 -60.708740 0.000000 130.000000 0.857049 -0.373506 0.354908
9610.00000000 -9290.00000000 250.00000000 94 134 141 0.000000 0.000000 0.000000 0.000000 -60.708740 0.000000 130.000000 0.943327 -0.311766 -0.113734
9630.00000000 -9250.00000000 190.00000000 94 134 141 0.000000 0.000000 0.000000 0.000000 -60.708740 0.000000 130.000000 0.960203 -0.189392 0.205285
9630.00000000 -9240.00000000 190.00000000 94 134 141 0.000000 0.000000 0.000000 0.000000 -60.708740 0.000000 130.000000 0.999536 -0.027454 -0.013219
9610.00000000 -9280.00000000 160.00000000 94 134 141 0.000000 0.000000 0.000000 0.000000 -60.708740 0.000000 130.000000 0.949562 -0.137560 -0.281797
9650.00000000 -9160.00000000 130.00000000 94 134 141 0.000000 0.000000 0.000000 0.000000 -60.708740 0.000000 130.000000 0.937385 -0.268819 0.221462
9610.00000000 -9140.00000000 110.00000000 94 134 141 0.000000 0.000000 0.000000 0.000000 -60.708740 0.000000 130.000000 0.940272 0.315228 -0.128526
9620.00000000 -9150.00000000 110.00000000 94 134 141 0.000000 0.000000 0.000000 0.000000 -60.708740 0.000000 130.000000 0.940892 0.214784 -0.261898
9630.00000000 -9170.00000000 140.00000000 94 134 141 0.000000 0.000000 0.000000 0.000000 -60.708740 0.000000 130.000000 0.976519 0.102726 -0.189363
9610.00000000 -9130.00000000 90.00000000 94 134 141 0.000000 0.000000 0.000000 0.000000 -60.708740 0.000000 130.000000 0.977803 0.112491 0.176771
9600.00000000 -9170.00000000 90.00000000 94 134 141 0.000000 0.000000 0.000000 0.000000 -60.708740 0.000000 130.000000 0.939840 -0.242942 0.240166
9600.00000000 -9180.00000000 80.00000000 94 134 141 0.000000 0.000000 0.000000 0.000000 -60.708740 0.000000 130.000000 0.898651 -0.174537 -0.402446
9600.00000000 -9130.00000000 -10.00000000 94 134 141 0.000000 0.000000 0.000000 0.000000 -60.708740 0.000000 130.000000 0.987878 0.109764 -0.109764
9600.00000000 -9130.00000000 50.00000000 94 134 141 0.000000 0.000000 0.000000 0.000000 -60.708740 0.000000 130.000000 0.961433 0.139964 0.236761
9630.00000000 -9150.00000000 60.00000000 94 134 141 0.000000 0.000000 0.000000 0.000000 -60.708740 0.000000 130.000000 0.952748 0.241219 0.184620
9600.00000000 -9270.00000000 130.00000000 94 134 141 0.000000 0.000000 0.000000 0.000000 -60.708740 0.000000 130.000000 0.795962 -0.440766 -0.414934
9620.00000000 -9300.00000000 200.00000000 94 134 141 0.000000 0.000000 0.000000 0.000000 -60.708740 0.000000 130.000000 0.784581 -0.588818 -0.194233
9580.00000000 -9160.00000000 210.00000000 94 134 141 0.000000 0.000000 0.000000 0.000000 -60.708740 0.000000 130.000000 0.944986 -0.150062 0.290661
9580.00000000 -9210.00000000 180.00000000 94 134 141 0.000000 0.000000 0.000000 0.000000 -60.708740 0.000000 130.000000 0.808477 -0.495212 -0.318011
9580.00000000 -9200.00000000 160.00000000 94 134 141 0.000000 0.000000 0.000000 0.000000 -60.708740 0.000000 130.000000 0.996229 -0.066561 0.055649
9540.00000000 -9200.00000000 160.00000000 94 134 141 0.000000 0.000000 0.000000 0.000000 -60.708740 0.000000 130.000000 0.936525 -0.349755 0.024342
9540.00000000 -9210.00000000 150.00000000 94 134 141 0.000000 0.000000 0.000000 0.000000 -60.708740 0.000000 130.000000 0.876480 -0.329629 0.350896
9570.00000000 -9220.00000000 170.00000000 94 134 141 0.000000 0.000000 0.000000 0.000000 -60.708740 0.000000 130.000000 0.892762 -0.440094 -0.096402
9530.00000000 -9240.00000000 230.00000000 94 134 141 0.000000 0.000000 0.000000 0.000000 -60.708740 0.000000 130.000000 0.996627 0.007430 0.081726
9540.00000000 -9240.00000000 160.00000000 94 134 141 0.000000 0.000000 0.000000 0.000000 -60.708740 0.000000 130.000000 0.936308 -0.169611 -0.307506
9500.00000000 -9190.00000000 150.00000000 94 134 141 0.000000 0.000000 0.000000 0.000000 -60.708740 0.000000 130.000000 0.889544 -0.456142 0.025416
9590.00000000 -9160.00000000 110.00000000 94 134 141 0.000000 0.000000 0.000000 0.000000 -60.708740 0.000000 130.000000 0.956081 0.268857 0.116723
9580.00000000 -9210.00000000 100.00000000 94 134 141 0.000000 0.000000 0.000000 0.000000 -60.708740 0.000000 130.000000 0.874882 -0.295671 -0.383614
9510.00000000 -9150.00000000 90.00000000 94 134 141 0.000000 0.000000 0.000000 0.000000 -60.708740 0.000000 130.000000 0.987055 -0.153902 0.045129
9590.00000000 -9170.00000000 60.00000000 94 134 141 0.000000 0.000000 0.000000 0.000000 -60.708740 0.000000 130.000000 0.988643 0.030788 0.147099
9590.00000000 -9150.00000000 0.00000000 94 134 141 0.000000 0.000000 0.000000 0.000000 -60.708740 0.000000 130.000000 0.965103 0.194063 0.175829
9590.00000000 -9160.00000000 0.00000000 94 134 141 0.000000 0.000000 0.000000 0.000000 -60.708740 0.000000 130.000000 0.939932 -0.145547 -0.308777
9580.00000000 -9160.00000000 20.00000000 94 134 141 0.000000 0.000000 0.000000 0.000000 -60.708740 0.000000 130.000000 0.956154 0.266254 -0.121978
9590.00000000 -9200.00000000 30.00000000 94 134 141 0.000000 0.000000 0.000000 0.000000 -60.708740 0.000000 130.000000 0.820780 -0.535555 -0.198747
9580.00000000 -9250.00000000 70.00000000 94 134 141 0.000000 0.000000 0.000000 0.000000 -60.708740 0.000000 130.000000 0.956051 -0.212604 -0.201907
9590.00000000 -9250.00000000 90.00000000 94 134 141 0.000000 0.000000 0.000000 0.000000 -60.708740 0.000000 130.000000 0.741051 -0.671273 -0.015351
9560.00000000 -9270.00000000 90.00000000 94 134 141 0.000000 0.000000 0.000000 0.000000 -60.708740 0.000000 130.000000 0.990787 -0.109575 0.079586
9580.00000000 -9260.00000000 90.00000000 94 134 141 0.000000 0.000000 0.000000 0.000000 -60.708740 0.000000 130.000000 0.990110 -0.121309 -0.070475
9540.00000000 -9220.00000000 70.00000000 94 134 141 0.000000 0.000000 0.000000 0.000000 -60.708740 0.000000 130.000000 0.769084 -0.617391 -0.165345
9540.00000000 -9270.00000000 70.00000000 94 134 141 0.000000 0.000000 0.000000 0.000000 -60.708740 0.000000 130.000000 0.986887 -0.093594 -0.131506
9560.00000000 -9220.00000000 10.00000000 94 134 141 0.000000 0.000000 0.000000 0.000000 -60.708740 0.000000 130.000000 0.935276 -0.267823 -0.231365
9580.00000000 -9260.00000000 10.00000000 94 134 141 0.000000 0.000000 0.000000 0.000000 -60.708740 0.000000 130.000000 0.843336 -0.525096 -0.114277
9530.00000000 -9230.00000000 60.00000000 94 134 141 0.000000 0.000000 0.000000 0.000000 -60.708740 0.000000 130.000000 0.976248 -0.042028 0.212541
9550.00000000 -9240.00000000 10.00000000 94 134 141 0.000000 0.000000 0.000000 0.000000 -60.708740 0.000000 130.000000 0.913466 -0.395790 0.094497
9530.00000000 -9290.00000000 20.00000000 94 134 141 0.000000 0.000000 0.000000 0.000000 -60.708740 0.000000 130.000000 0.738521 -0.607157 0.293166
9480.00000000 -9200.00000000 140.00000000 94 134 141 0.000000 0.000000 0.000000 0.000000 -60.708740 0.000000 130.000000 0.799022 -0.561933 -0.213996
9480.00000000 -9160.00000000 30.00000000 94 134 141 0.000000 0.000000 0.000000 0.000000 -60.708740 0.000000 130.000000 0.979686 0.146645 -0.136786
9470.00000000 -9200.00000000 -10.00000000 94 134 141 0.000000 0.000000 0.000000 0.000000 -60.708740 0.000000 130.000000 0.973457 -0.210108 -0.090757
9500.00000000 -9230.00000000 10.00000000 94 134 141 0.000000 0.000000 0.000000 0.000000 -60.708740 0.000000 130.000000 0.790101 -0.591447 0.161030
9590.00000000 -9310.00000000 210.00000000 94 134 141 0.000000 0.000000 0.000000 0.000000 -60.708740 0.000000 130.000000 0.886837 -0.298613 -0.352634
9510.00000000 -9320.00000000 40.00000000 94 134 141 0.000000 0.000000 0.000000 0.000000 -60.708740 0.000000 130.000000 0.759690 -0.581314 0.291453
9350.00000000 -9150.00000000 590.00000000 94 134 141 0.000000 0.000000 0.000000 0.000000 -60.708740 0.000000 130.000000 0.979724 0.071275 0.187247
9330.00000000 -9160.00000000 600.00000000 94 134 141 0.000000 0.000000 0.000000 0.000000 -60.708740 0.000000 130.000000 0.945256 -0.307108 0.110346
9270.00000000 -9130.00000000 260.00000000 94 134 141 0.000000 0.000000 0.000000 0.000000 -60.708740 0.000000 130.000000 0.978611 -0.041719 0.201444
9110.00000000 -9450.00000000 120.00000000 94 134 141 0.000000 0.000000 0.000000 0.000000 -60.708740 0.000000 125.000000 0.134175 0.988228 0.073505
9230.00000000 -9520.00000000 580.00000000 94 134 141 0.000000 0.000000 0.000000 0.000000 -60.708740 0.000000 125.000000 -0.236064 0.965949 0.105910
9220.00000000 -9510.00000000 600.00000000 94 134 141 0.000000 0.000000 0.000000 0.000000 -60.708740 0.000000 125.000000 -0.278677 0.958190 0.064897
9210.00000000 -9490.00000000 580.00000000 94 134 141 0.000000 0.000000 0.000000 0.000000 -60.708740 0.000000 125.000000 -0.016557 0.992328 0.122523
9240.00000000 -9510.00000000 560.00000000 94 134 141 0.000000 0.000000 0.000000 0.000000 -60.708740 0.000000 125.000000 0.283223 0.957923 -0.046574
9210.00000000 -9500.00000000 540.00000000 94 134 141 0.000000 0.000000 0.000000 0.000000 -60.708740 0.000000 125.000000 0.020580 0.967245 -0.253009
9200.00000000 -9530.00000000 520.00000000 94 134 141 0.000000 0.000000 0.000000 0.000000 -60.708740 0.000000 125.000000 -0.169192 0.948828 0.266646
9210.00000000 -9570.00000000 530.00000000 94 134 141 0.000000 0.000000 0.000000 0.000000 -60.708740 0.000000 125.000000 -0.411419 0.906772 -0.092191
9110.00000000 -9530.00000000 620.00000000 94 134 141 0.000000 0.000000 0.000000 0.000000 -60.708740 0.000000 125.000000 0.201515 0.969068 -0.142472
9130.00000000 -9550.00000000 630.00000000 94 134 141 0.000000 0.000000 0.000000 0.000000 -60.708740 0.000000 125.000000 0.330404 0.943832 -0.003740
9170.00000000 -9530.00000000 520.00000000 94 134 141 0.000000 0.000000 0.000000 0.000000 -60.708740 0.000000 125.000000 -0.224875 0.961307 -0.159122
9140.00000000 -9560.00000000 640.00000000 94 134 141 0.000000 0.000000 0.000000 0.000000 -60.708740 0.000000 125.000000 0.325691 0.936191 -0.132184
9140.00000000 -9560.00000000 630.00000000 94 134 141 0.000000 0.000000 0.000000 0.000000 -60.708740 0.000000 125.000000 0.488581 0.871188 0.048170
9150.00000000 -9560.00000000 630.00000000 94 134 141 0.000000 0.000000 0.000000 0.000000 -60.708740 0.000000 125.000000 -0.046094 0.992717 -0.111301
9140.00000000 -9560.00000000 640.00000000 94 134 141 0.000000 0.000000 0.000000 0.000000 -60.708740 0.000000 125.000000 0.325691 0.936191 -0.132184
9150.00000000 -9560.00000000 640.00000000 94 134 141 0.000000 0.000000 0.000000 0.000000 -60.708740 0.000000 125.000000 -0.099474 0.959859 -0.262250
9150.00000000 -9590.00000000 570.00000000 94 134 141 0.000000 0.000000 0.000000 0.000000 -60.708740 0.000000 125.000000 -0.244307 0.968634 0.045424
9150.00000000 -9600.00000000 580.00000000 94 134 141 0.000000 0.000000 0.000000 0.000000 -60.708740 0.000000 125.000000 -0.314973 0.942238 -0.113926
9150.00000000 -9560.00000000 560.00000000 94 134 141 0.000000 0.000000 0.000000 0.000000 -60.708740 0.000000 125.000000 -0.096702 0.944502 -0.313951
9110.00000000 -9580.00000000 530.00000000 94 134 141 0.000000 0.000000 0.000000 0.000000 -60.708740 0.000000 125.000000 0.042077 0.990518 -0.130780
9180.00000000 -9550.00000000 350.00000000 94 134 141 0.000000 0.000000 0.000000 0.000000 -60.708740 0.000000 125.000000 0.354032 0.917072 0.183414
9190.00000000 -9550.00000000 350.00000000 94 134 141 0.000000 0.000000 0.000000 0.000000 -60.708740 0.000000 125.000000 0.279419 0.929031 0.242541
9180.00000000 -9550.00000000 340.00000000 94 134 141 0.000000 0.000000 0.000000 0.000000 -60.708740 0.000000 125.000000 0.170086 0.970640 0.170086
9180.00000000 -9560.00000000 420.00000000 94 134 141 0.000000 0.000000 0.000000 0.000000 -60.708740 0.000000 125.000000 0.005919 0.971841 0.235562
9180.00000000 -9560.00000000 430.00000000 94 134 141 0.000000 0.000000 0.000000 0.000000 -60.708740 0.000000 125.000000 0.269002 0.959995 -0.077768
9130.00000000 -9530.00000000 470.00000000 94 134 141 0.000000 0.000000 0.000000 0.000000 -60.708740 0.000000 125.000000 -0.017292 0.983333 0.180989
9130.00000000 -9550.00000000 420.00000000 94 134 141 0.000000 0.000000 0.000000 0.000000 -60.708740 0.000000 125.000000 0.035772 0.912844 0.406739
9090.00000000 -9530.00000000 400.00000000 94 134 141 0.000000 0.000000 0.000000 0.000000 -60.708740 0.000000 125.000000 0.005327 0.996069 0.088421
9130.00000000 -9540.00000000 390.00000000 94 134 141 0.000000 0.000000 0.000000 0.000000 -60.708740 0.000000 125.000000 0.307135 0.879042 0.364628
9110.00000000 -9530.00000000 330.00000000 94 134 141 0.000000 0.000000 0.000000 0.000000 -60.708740 0.000000 125.000000 0.484070 0.857114 -0.176160
9110.00000000 -9530.00000000 330.00000000 94 134 141 0.000000 0.000000 0.000000 0.000000 -60.708740 0.000000 125.000000 0.484070 0.857114 -0.176160
9160.00000000 -9570.00000000 460.00000000 94 134 141 0.000000 0.000000 0.000000 0.000000 -60.708740 0.000000 125.000000 0.118622 0.968110 -0.220663
9170.00000000 -9560.00000000 470.00000000 94 134 141 0.000000 0.000000 0.000000 0.000000 -60.708740 0.000000 125.000000 0.309326 0.919346 -0.243145
9140.00000000 -9580.00000000 440.00000000 94 134 141 0.000000 0.000000 0.000000 0.000000 -60.708740 0.000000 125.000000 0.406755 0.896019 -0.178046
9120.00000000 -9560.00000000 470.00000000 94 134 141 0.000000 0.000000 0.000000 0.000000 -60.708740 0.000000 125.000000 0.213237 0.906621 0.364099
9150.00000000 -9570.00000000 400.00000000 94 134 141 0.000000 0.000000 0.000000 0.000000 -60.708740 0.000000 125.000000 0.260278 0.959533 0.107478
9130.00000000 -9570.00000000 390.00000000 94 134 141 0.000000 0.000000 0.000000 0.000000 -60.708740 0.000000 125.000000 0.081008 0.970852 0.225577
9120.00000000 -9560.00000000 360.00000000 94 134 141 0.000000 0.000000 0.000000 0.000000 -60.708740 0.000000 125.000000 0.130937 0.953594 -0.271133
9190.00000000 -9540.00000000 290.00000000 94 134 141 0.000000 0.000000 0.000000 0.000000 -60.708740 0.000000 125.000000 0.209036 0.968233 0.137220
9190.00000000 -9540.00000000 150.00000000 94 134 141 0.000000 0.000000 0.000000 0.000000 -60.708740 0.000000 125.000000 -0.180551 0.981673 0.060981
9180.00000000 -9470.00000000 210.00000000 94 134 141 0.000000 0.000000 0.000000 0.000000 -60.708740 0.000000 125.000000 0.391976 0.912764 0.114961
9180.00000000 -9570.00000000 250.00000000 94 134 141 0.000000 0.000000 0.000000 0.000000 -60.708740 0.000000 125.000000 0.136612 0.990155 0.030484
9150.00000000 -9540.00000000 310.00000000 94 134 141 0.000000 0.000000 0.000000 0.000000 -60.708740 0.000000 125.000000 0.091254 0.994996 0.040679
9140.00000000 -9540.00000000 250.00000000 94 134 141 0.000000 0.000000 0.000000 0.000000 -60.708740 0.000000 125.000000 -0.240769 0.959128 -0.148671
9110.00000000 -9510.00000000 280.00000000 94 134 141 0.000000 0.000000 0.000000 0.000000 -60.708740 0.000000 125.000000 0.207344 0.978150 -0.015229
9130.00000000 -9540.00000000 280.00000000 94 134 141 0.000000 0.000000 0.000000 0.000000 -60.708740 0.000000 125.000000 0.230054 0.948803 -0.216442
9100.00000000 -9520.00000000 300.00000000 94 134 141 0.000000 0.000000 0.000000 0.000000 -60.708740 0.000000 125.000000 -0.212938 0.971453 -0.104579
9130.00000000 -9520.00000000 250.00000000 94 134 141 0.000000 0.000000 0.000000 0.000000 -60.708740 0.000000 125.000000 0.330993 0.932549 0.144209
9150.00000000 -9530.00000000 230.00000000 94 134 141 0.000000 0.000000 0.000000 0.000000 -60.708740 0.000000 125.000000 -0.265564 0.934392 -0.237462
9140.00000000 -9540.00000000 220.00000000 94 134 141 0.000000 0.000000 0.000000 0.000000 -60.708740 0.000000 125.000000 -0.097920 0.975485 -0.197080
9110.00000000 -9540.00000000 220.00000000 94 134 141 0.000000 0.000000 0.000000 0.000000 -60.708740 0.000000 125.000000 -0.169096 0.975744 -0.139034
9090.00000000 -9550.00000000 220.00000000 94 134 141 0.000000 0.000000 0.000000 0.000000 -60.708740 0.000000 125.000000 0.356222 0.892791 0.275737
9110.00000000 -9540.00000000 220.00000000 94 134 141 0.000000 0.000000 0.000000 0.000000 -60.708740 0.000000 125.000000 -0.169096 0.975744 -0.139034
9120.00000000 -9540.00000000 230.00000000 94 134 141 0.000000 0.000000 0.000000 0.000000 -60.708740 0.000000 125.000000 -0.031544 0.982528 -0.183421
