//X Y Z R G B PointSourceId ScanDirectionFlag NumberOfReturns ReturnNumber GpsTime Intensity Classification Nx Ny Nz
-6790.00000000 19420.00000000 -480.00000000 66 78 183 0.000000 0.000000 0.000000 0.000000 -60.708740 0.000000 41.000000 0.633342 -0.545519 0.548896
-6800.00000000 19410.00000000 -460.00000000 66 78 183 0.000000 0.000000 0.000000 0.000000 -60.708740 0.000000 41.000000 0.773781 -0.483817 0.408882
-6800.00000000 19410.00000000 -490.00000000 66 78 183 0.000000 0.000000 0.000000 0.000000 -60.708740 0.000000 41.000000 0.312762 -0.519153 0.795399
-6800.00000000 19410.00000000 -490.00000000 66 78 183 0.000000 0.000000 0.000000 0.000000 -60.708740 0.000000 41.000000 0.312762 -0.519153 0.795399
-6820.00000000 19390.00000000 -490.00000000 66 78 183 0.000000 0.000000 0.000000 0.000000 -60.708740 0.000000 41.000000 -0.534252 0.814464 -0.226326
-6810.00000000 19340.00000000 -470.00000000 66 78 183 0.000000 0.000000 0.000000 0.000000 -60.708740 0.000000 41.000000 -0.615036 0.763014 -0.198846
-6840.00000000 19390.00000000 -430.00000000 66 78 183 0.000000 0.000000 0.000000 0.000000 -60.708740 0.000000 41.000000 0.667261 -0.725284 0.169487
-6830.00000000 19410.00000000 -440.00000000 66 78 183 0.000000 0.000000 0.000000 0.000000 -60.708740 0.000000 41.000000 -0.675923 0.669471 -0.308118
-6830.00000000 19420.00000000 -410.00000000 66 78 183 0.000000 0.000000 0.000000 0.000000 -60.708740 0.000000 41.000000 0.696178 -0.408446 0.590346
-6770.00000000 19400.00000000 -540.00000000 66 78 183 0.000000 0.000000 0.000000 0.000000 -60.708740 0.000000 41.000000 0.100885 -0.618472 0.779304
-6780.00000000 19400.00000000 -550.00000000 66 78 183 0.000000 0.000000 0.000000 0.000000 -60.708740 0.000000 41.000000 0.111102 -0.674019 0.730311
-6770.00000000 19410.00000000 -540.00000000 66 78 183 0.000000 0.000000 0.000000 0.000000 -60.708740 0.000000 41.000000 0.460327 -0.533447 0.709601
-6770.00000000 19390.00000000 -550.00000000 66 78 183 0.000000 0.000000 0.000000 0.000000 -60.708740 0.000000 41.000000 -0.282500 0.723009 -0.630438
-6780.00000000 19390.00000000 -540.00000000 66 78 183 0.000000 0.000000 0.000000 0.000000 -60.708740 0.000000 41.000000 -0.405953 0.690948 -0.598159
-6770.00000000 19390.00000000 -550.00000000 66 78 183 0.000000 0.000000 0.000000 0.000000 -60.708740 0.000000 41.000000 -0.282500 0.723009 -0.630438
-6770.00000000 19380.00000000 -600.00000000 66 78 183 0.000000 0.000000 0.000000 0.000000 -60.708740 0.000000 41.000000 -0.445389 0.665582 -0.598857
-6760.00000000 19380.00000000 -580.00000000 66 78 183 0.000000 0.000000 0.000000 0.000000 -60.708740 0.000000 41.000000 -0.178576 0.889978 -0.419582
-6810.00000000 19380.00000000 -530.00000000 66 78 183 0.000000 0.000000 0.000000 0.000000 -60.708740 0.000000 41.000000 -0.612805 0.756260 -0.229217
-6800.00000000 19370.00000000 -580.00000000 66 78 183 0.000000 0.000000 0.000000 0.000000 -60.708740 0.000000 41.000000 0.554694 -0.422230 0.716963
-6820.00000000 19340.00000000 -600.00000000 66 78 183 0.000000 0.000000 0.000000 0.000000 -60.708740 0.000000 41.000000 0.564145 -0.377732 0.734206
-6820.00000000 19350.00000000 -590.00000000 66 78 183 0.000000 0.000000 0.000000 0.000000 -60.708740 0.000000 41.000000 -0.280300 0.815846 -0.505793
-6820.00000000 19360.00000000 -580.00000000 66 78 183 0.000000 0.000000 0.000000 0.000000 -60.708740 0.000000 41.000000 -0.165166 0.834759 -0.525259
-6750.00000000 19350.00000000 -640.00000000 66 78 183 0.000000 0.000000 0.000000 0.000000 -60.708740 0.000000 41.000000 -0.166150 0.727098 -0.666125
-6750.00000000 19350.00000000 -630.00000000 66 78 183 0.000000 0.000000 0.000000 0.000000 -60.708740 0.000000 41.000000 -0.262904 -0.508695 0.819824
-6810.00000000 19340.00000000 -640.00000000 66 78 183 0.000000 0.000000 0.000000 0.000000 -60.708740 0.000000 41.000000 -0.182824 0.919789 -0.347224
-6810.00000000 19340.00000000 -650.00000000 66 78 183 0.000000 0.000000 0.000000 0.000000 -60.708740 0.000000 41.000000 -0.375515 0.726434 -0.575571
-6780.00000000 19350.00000000 -630.00000000 66 78 183 0.000000 0.000000 0.000000 0.000000 -60.708740 0.000000 41.000000 -0.406583 0.725923 -0.554730
-6830.00000000 19350.00000000 -590.00000000 66 78 183 0.000000 0.000000 0.000000 0.000000 -60.708740 0.000000 41.000000 -0.407853 0.775083 -0.482599
-6810.00000000 19280.00000000 -370.00000000 66 78 183 0.000000 0.000000 0.000000 0.000000 -60.708740 0.000000 41.000000 0.243047 0.754231 -0.609970
-6760.00000000 19250.00000000 -390.00000000 66 78 183 0.000000 0.000000 0.000000 0.000000 -60.708740 0.000000 41.000000 0.001368 0.805708 -0.592312
-6750.00000000 19240.00000000 -390.00000000 66 78 183 0.000000 0.000000 0.000000 0.000000 -60.708740 0.000000 41.000000 0.164113 0.802497 -0.573642
-6780.00000000 19220.00000000 -430.00000000 66 78 183 0.000000 0.000000 0.000000 0.000000 -60.708740 0.000000 41.000000 0.472811 0.556347 -0.683321
-6780.00000000 19180.00000000 -440.00000000 66 78 183 0.000000 0.000000 0.000000 0.000000 -60.708740 0.000000 41.000000 -0.040649 -0.578900 0.814385
-6750.00000000 19190.00000000 -430.00000000 66 78 183 0.000000 0.000000 0.000000 0.000000 -60.708740 0.000000 41.000000 0.023879 -0.729022 0.684073
-6820.00000000 19250.00000000 -370.00000000 66 78 183 0.000000 0.000000 0.000000 0.000000 -60.708740 0.000000 41.000000 0.425680 0.814692 -0.393794
-6810.00000000 19220.00000000 -380.00000000 66 78 183 0.000000 0.000000 0.000000 0.000000 -60.708740 0.000000 41.000000 -0.418315 -0.364644 0.831894
-6800.00000000 19240.00000000 -390.00000000 66 78 183 0.000000 0.000000 0.000000 0.000000 -60.708740 0.000000 41.000000 0.311705 0.667015 -0.676706
-6810.00000000 19230.00000000 -440.00000000 66 78 183 0.000000 0.000000 0.000000 0.000000 -60.708740 0.000000 41.000000 0.426572 0.736207 -0.525391
-6820.00000000 19240.00000000 -420.00000000 66 78 183 0.000000 0.000000 0.000000 0.000000 -60.708740 0.000000 41.000000 -0.402930 -0.406115 0.820194
-6800.00000000 19220.00000000 -420.00000000 66 78 183 0.000000 0.000000 0.000000 0.000000 -60.708740 0.000000 41.000000 -0.250337 -0.539547 0.803878
-6810.00000000 19230.00000000 -420.00000000 66 78 183 0.000000 0.000000 0.000000 0.000000 -60.708740 0.000000 41.000000 -0.341591 -0.517999 0.784215
-6800.00000000 19220.00000000 -420.00000000 66 78 183 0.000000 0.000000 0.000000 0.000000 -60.708740 0.000000 41.000000 -0.250337 -0.539547 0.803878
-6790.00000000 19210.00000000 -400.00000000 66 78 183 0.000000 0.000000 0.000000 0.000000 -60.708740 0.000000 41.000000 0.247469 0.903482 -0.349971
-6810.00000000 19210.00000000 -460.00000000 66 78 183 0.000000 0.000000 0.000000 0.000000 -60.708740 0.000000 41.000000 0.479050 0.539140 -0.692704
-6790.00000000 19200.00000000 -450.00000000 66 78 183 0.000000 0.000000 0.000000 0.000000 -60.708740 0.000000 41.000000 -0.299039 -0.406387 0.863380
-6800.00000000 19190.00000000 -450.00000000 66 78 183 0.000000 0.000000 0.000000 0.000000 -60.708740 0.000000 41.000000 -0.459822 -0.446731 0.767460
-6810.00000000 19180.00000000 -480.00000000 66 78 183 0.000000 0.000000 0.000000 0.000000 -60.708740 0.000000 41.000000 0.463476 0.712657 -0.526602
-6750.00000000 19170.00000000 -450.00000000 66 78 183 0.000000 0.000000 0.000000 0.000000 -60.708740 0.000000 41.000000 0.220240 0.799333 -0.559071
-6840.00000000 19310.00000000 -450.00000000 66 78 183 0.000000 0.000000 0.000000 0.000000 -60.708740 0.000000 41.000000 0.956082 -0.177349 0.233353
-6860.00000000 19320.00000000 -490.00000000 66 78 183 0.000000 0.000000 0.000000 0.000000 -60.708740 0.000000 41.000000 0.743567 -0.567845 0.353072
-6840.00000000 19330.00000000 -520.00000000 66 78 183 0.000000 0.000000 0.000000 0.000000 -60.708740 0.000000 41.000000 0.827774 -0.560573 0.023415
-6840.00000000 19270.00000000 -480.00000000 66 78 183 0.000000 0.000000 0.000000 0.000000 -60.708740 0.000000 41.000000 0.960656 -0.276757 0.023371
-6870.00000000 19270.00000000 -450.00000000 66 78 183 0.000000 0.000000 0.000000 0.000000 -60.708740 0.000000 41.000000 0.777567 0.055642 -0.626334
-6870.00000000 19290.00000000 -470.00000000 66 78 183 0.000000 0.000000 0.000000 0.000000 -60.708740 0.000000 41.000000 0.919328 -0.392124 -0.032786
-6840.00000000 19270.00000000 -480.00000000 66 78 183 0.000000 0.000000 0.000000 0.000000 -60.708740 0.000000 41.000000 0.960656 -0.276757 0.023371
-6850.00000000 19250.00000000 -510.00000000 66 78 183 0.000000 0.000000 0.000000 0.000000 -60.708740 0.000000 41.000000 0.954984 0.092250 0.281948
-6770.00000000 19320.00000000 -630.00000000 66 78 183 0.000000 0.000000 0.000000 0.000000 -60.708740 0.000000 41.000000 -0.020599 0.830816 -0.556166
-6800.00000000 19320.00000000 -640.00000000 66 78 183 0.000000 0.000000 0.000000 0.000000 -60.708740 0.000000 41.000000 -0.326033 0.840822 -0.432111
-6820.00000000 19280.00000000 -680.00000000 66 78 183 0.000000 0.000000 0.000000 0.000000 -60.708740 0.000000 41.000000 -0.616052 0.649443 -0.445762
-6820.00000000 19290.00000000 -660.00000000 66 78 183 0.000000 0.000000 0.000000 0.000000 -60.708740 0.000000 41.000000 0.625957 -0.659164 0.416751
-6820.00000000 19270.00000000 -690.00000000 66 78 183 0.000000 0.000000 0.000000 0.000000 -60.708740 0.000000 41.000000 -0.451618 0.819250 -0.353371
-6820.00000000 19240.00000000 -690.00000000 66 78 183 0.000000 0.000000 0.000000 0.000000 -60.708740 0.000000 41.000000 -0.526352 0.654157 -0.543169
-6840.00000000 19310.00000000 -550.00000000 66 78 183 0.000000 0.000000 0.000000 0.000000 -60.708740 0.000000 41.000000 0.598073 -0.703519 0.383887
-6840.00000000 19330.00000000 -540.00000000 66 78 183 0.000000 0.000000 0.000000 0.000000 -60.708740 0.000000 41.000000 0.853372 -0.468369 0.228880
-6840.00000000 19330.00000000 -540.00000000 66 78 183 0.000000 0.000000 0.000000 0.000000 -60.708740 0.000000 41.000000 0.853372 -0.468369 0.228880
-6850.00000000 19330.00000000 -580.00000000 66 78 183 0.000000 0.000000 0.000000 0.000000 -60.708740 0.000000 41.000000 0.698029 -0.376115 0.609338
-6850.00000000 19260.00000000 -560.00000000 66 78 183 0.000000 0.000000 0.000000 0.000000 -60.708740 0.000000 41.000000 0.876155 -0.468707 -0.112547
-6840.00000000 19280.00000000 -560.00000000 66 78 183 0.000000 0.000000 0.000000 0.000000 -60.708740 0.000000 41.000000 0.902627 -0.299891 0.308755
-6850.00000000 19280.00000000 -550.00000000 66 78 183 0.000000 0.000000 0.000000 0.000000 -60.708740 0.000000 41.000000 0.937254 -0.271567 0.218646
-6850.00000000 19260.00000000 -580.00000000 66 78 183 0.000000 0.000000 0.000000 0.000000 -60.708740 0.000000 41.000000 0.871313 -0.479009 0.106604
-6830.00000000 19300.00000000 -610.00000000 66 78 183 0.000000 0.000000 0.000000 0.000000 -60.708740 0.000000 41.000000 -0.432484 0.815496 -0.384608
-6850.00000000 19260.00000000 -650.00000000 66 78 183 0.000000 0.000000 0.000000 0.000000 -60.708740 0.000000 41.000000 0.865054 -0.427206 0.263013
-6840.00000000 19270.00000000 -650.00000000 66 78 183 0.000000 0.000000 0.000000 0.000000 -60.708740 0.000000 41.000000 0.203594 -0.869363 0.450286
-6860.00000000 19280.00000000 -630.00000000 66 78 183 0.000000 0.000000 0.000000 0.000000 -60.708740 0.000000 41.000000 -0.580705 0.787109 -0.207945
-6860.00000000 19240.00000000 -550.00000000 66 78 183 0.000000 0.000000 0.000000 0.000000 -60.708740 0.000000 41.000000 0.980485 -0.106495 0.165250
-6860.00000000 19240.00000000 -540.00000000 66 78 183 0.000000 0.000000 0.000000 0.000000 -60.708740 0.000000 41.000000 0.949960 -0.021277 0.311647
-6860.00000000 19240.00000000 -590.00000000 66 78 183 0.000000 0.000000 0.000000 0.000000 -60.708740 0.000000 41.000000 0.866322 -0.499441 -0.006695
-6870.00000000 19240.00000000 -570.00000000 66 78 183 0.000000 0.000000 0.000000 0.000000 -60.708740 0.000000 41.000000 0.899189 -0.436977 -0.022579
-6860.00000000 19250.00000000 -580.00000000 66 78 183 0.000000 0.000000 0.000000 0.000000 -60.708740 0.000000 41.000000 0.908254 -0.221631 0.354900
-6840.00000000 19250.00000000 -630.00000000 66 78 183 0.000000 0.000000 0.000000 0.000000 -60.708740 0.000000 41.000000 0.616049 -0.410146 0.672506
-6870.00000000 19230.00000000 -640.00000000 66 78 183 0.000000 0.000000 0.000000 0.000000 -60.708740 0.000000 41.000000 0.896244 -0.442075 0.036280
-6860.00000000 19230.00000000 -650.00000000 66 78 183 0.000000 0.000000 0.000000 0.000000 -60.708740 0.000000 41.000000 0.698050 -0.646462 0.307916
-6850.00000000 19250.00000000 -690.00000000 66 78 183 0.000000 0.000000 0.000000 0.000000 -60.708740 0.000000 41.000000 -0.655337 0.638747 -0.403157
-6860.00000000 19230.00000000 -660.00000000 66 78 183 0.000000 0.000000 0.000000 0.000000 -60.708740 0.000000 41.000000 0.800953 -0.454248 0.390043
-6870.00000000 19200.00000000 -630.00000000 66 78 183 0.000000 0.000000 0.000000 0.000000 -60.708740 0.000000 41.000000 0.895430 -0.424300 -0.134811
-6880.00000000 19220.00000000 -640.00000000 66 78 183 0.000000 0.000000 0.000000 0.000000 -60.708740 0.000000 41.000000 0.964353 -0.187113 0.187113
-6880.00000000 19210.00000000 -680.00000000 66 78 183 0.000000 0.000000 0.000000 0.000000 -60.708740 0.000000 41.000000 0.737328 -0.670430 0.082895
-6640.00000000 19240.00000000 -700.00000000 66 78 183 0.000000 0.000000 0.000000 0.000000 -60.708740 0.000000 41.000000 -0.429447 -0.552146 0.714640
-6660.00000000 19170.00000000 -750.00000000 66 78 183 0.000000 0.000000 0.000000 0.000000 -60.708740 0.000000 41.000000 0.546042 0.562948 -0.620426
-6700.00000000 19280.00000000 -710.00000000 66 78 183 0.000000 0.000000 0.000000 0.000000 -60.708740 0.000000 41.000000 0.534661 0.675449 -0.507844
-6710.00000000 19280.00000000 -760.00000000 66 78 183 0.000000 0.000000 0.000000 0.000000 -60.708740 0.000000 41.000000 0.343977 0.862257 -0.371742
-6720.00000000 19270.00000000 -850.00000000 66 78 183 0.000000 0.000000 0.000000 0.000000 -60.708740 0.000000 41.000000 -0.247797 -0.636065 0.730765
-6670.00000000 19170.00000000 -750.00000000 66 78 183 0.000000 0.000000 0.000000 0.000000 -60.708740 0.000000 41.000000 0.453985 0.533807 -0.713406
-6680.00000000 19220.00000000 -810.00000000 66 78 183 0.000000 0.000000 0.000000 0.000000 -60.708740 0.000000 41.000000 0.712968 0.645977 -0.272746
-6700.00000000 19240.00000000 -780.00000000 66 78 183 0.000000 0.000000 0.000000 0.000000 -60.708740 0.000000 41.000000 0.638178 0.591031 -0.493367
-6730.00000000 19250.00000000 -820.00000000 66 78 183 0.000000 0.000000 0.000000 0.000000 -60.708740 0.000000 41.000000 0.236023 0.845115 -0.479660
-6690.00000000 19190.00000000 -910.00000000 66 78 183 0.000000 0.000000 0.000000 0.000000 -60.708740 0.000000 41.000000 0.663451 0.485411 -0.569393
-6700.00000000 19220.00000000 -950.00000000 66 78 183 0.000000 0.000000 0.000000 0.000000 -60.708740 0.000000 41.000000 0.286184 0.897106 -0.336600
-6720.00000000 19220.00000000 -950.00000000 66 78 183 0.000000 0.000000 0.000000 0.000000 -60.708740 0.000000 41.000000 0.192452 0.854844 -0.481875
-6770.00000000 19340.00000000 -710.00000000 66 78 183 0.000000 0.000000 0.000000 0.000000 -60.708740 0.000000 41.000000 -0.022048 0.924722 -0.380005
-6750.00000000 19310.00000000 -700.00000000 66 78 183 0.000000 0.000000 0.000000 0.000000 -60.708740 0.000000 41.000000 -0.011740 -0.416132 0.909229
-6750.00000000 19310.00000000 -760.00000000 66 78 183 0.000000 0.000000 0.000000 0.000000 -60.708740 0.000000 41.000000 -0.130055 0.843168 -0.521683
-6780.00000000 19270.00000000 -710.00000000 66 78 183 0.000000 0.000000 0.000000 0.000000 -60.708740 0.000000 41.000000 -0.029523 0.763373 -0.645282
-6810.00000000 19310.00000000 -720.00000000 66 78 183 0.000000 0.000000 0.000000 0.000000 -60.708740 0.000000 41.000000 -0.063151 -0.529067 0.846227
-6810.00000000 19310.00000000 -720.00000000 66 78 183 0.000000 0.000000 0.000000 0.000000 -60.708740 0.000000 41.000000 -0.063151 -0.529067 0.846227
-6790.00000000 19310.00000000 -750.00000000 66 78 183 0.000000 0.000000 0.000000 0.000000 -60.708740 0.000000 41.000000 -0.136056 -0.641409 0.755039
-6790.00000000 19290.00000000 -730.00000000 66 78 183 0.000000 0.000000 0.000000 0.000000 -60.708740 0.000000 41.000000 -0.303591 0.783615 -0.542014
-6820.00000000 19260.00000000 -750.00000000 66 78 183 0.000000 0.000000 0.000000 0.000000 -60.708740 0.000000 41.000000 0.527967 -0.595439 0.605560
-6810.00000000 19260.00000000 -750.00000000 66 78 183 0.000000 0.000000 0.000000 0.000000 -60.708740 0.000000 41.000000 0.479085 -0.724429 0.495662
-6800.00000000 19270.00000000 -750.00000000 66 78 183 0.000000 0.000000 0.000000 0.000000 -60.708740 0.000000 41.000000 -0.434399 0.755690 -0.490133
-6750.00000000 19300.00000000 -780.00000000 66 78 183 0.000000 0.000000 0.000000 0.000000 -60.708740 0.000000 41.000000 0.206577 0.803355 -0.558523
-6760.00000000 19270.00000000 -860.00000000 66 78 183 0.000000 0.000000 0.000000 0.000000 -60.708740 0.000000 41.000000 0.048822 -0.534248 0.843917
-6760.00000000 19270.00000000 -830.00000000 66 78 183 0.000000 0.000000 0.000000 0.000000 -60.708740 0.000000 41.000000 -0.023397 0.835405 -0.549137
-6760.00000000 19280.00000000 -860.00000000 66 78 183 0.000000 0.000000 0.000000 0.000000 -60.708740 0.000000 41.000000 0.067944 -0.701123 0.709796
-6840.00000000 19220.00000000 -710.00000000 66 78 183 0.000000 0.000000 0.000000 0.000000 -60.708740 0.000000 41.000000 0.354942 -0.539707 0.763369
-6840.00000000 19250.00000000 -760.00000000 66 78 183 0.000000 0.000000 0.000000 0.000000 -60.708740 0.000000 41.000000 0.289298 -0.542236 0.788851
-6880.00000000 19210.00000000 -700.00000000 66 78 183 0.000000 0.000000 0.000000 0.000000 -60.708740 0.000000 41.000000 0.843494 -0.532659 0.069231
-6840.00000000 19220.00000000 -830.00000000 66 78 183 0.000000 0.000000 0.000000 0.000000 -60.708740 0.000000 41.000000 -0.065215 0.875549 -0.478707
-6810.00000000 19270.00000000 -900.00000000 66 78 183 0.000000 0.000000 0.000000 0.000000 -60.708740 0.000000 41.000000 0.361713 -0.617039 0.698875
-6820.00000000 19210.00000000 -940.00000000 66 78 183 0.000000 0.000000 0.000000 0.000000 -60.708740 0.000000 41.000000 0.055689 -0.632566 0.772502
-6770.00000000 19220.00000000 -950.00000000 66 78 183 0.000000 0.000000 0.000000 0.000000 -60.708740 0.000000 41.000000 -0.152588 0.753874 -0.639055
-6790.00000000 19250.00000000 -1000.00000000 66 78 183 0.000000 0.000000 0.000000 0.000000 -60.708740 0.000000 41.000000 0.145376 -0.441887 0.885213
-6800.00000000 19190.00000000 -1030.00000000 66 78 183 0.000000 0.000000 0.000000 0.000000 -60.708740 0.000000 41.000000 0.185106 -0.622628 0.760310
-6870.00000000 19170.00000000 -900.00000000 66 78 183 0.000000 0.000000 0.000000 0.000000 -60.708740 0.000000 41.000000 -0.389376 0.731106 -0.560241
-6830.00000000 19200.00000000 -950.00000000 66 78 183 0.000000 0.000000 0.000000 0.000000 -60.708740 0.000000 41.000000 0.304909 -0.510288 0.804138
-6830.00000000 19200.00000000 -950.00000000 66 78 183 0.000000 0.000000 0.000000 0.000000 -60.708740 0.000000 41.000000 0.304909 -0.510288 0.804138
-6830.00000000 19180.00000000 -1120.00000000 66 78 183 0.000000 0.000000 0.000000 0.000000 -60.708740 0.000000 41.000000 0.145899 -0.630222 0.762584
-6720.00000000 19150.00000000 -460.00000000 66 78 183 0.000000 0.000000 0.000000 0.000000 -60.708740 0.000000 41.000000 -0.057760 0.826958 -0.559289
-6710.00000000 19140.00000000 -490.00000000 66 78 183 0.000000 0.000000 0.000000 0.000000 -60.708740 0.000000 41.000000 -0.185976 0.814967 -0.548855
-6680.00000000 19120.00000000 -680.00000000 66 78 183 0.000000 0.000000 0.000000 0.000000 -60.708740 0.000000 41.000000 0.974303 -0.155434 0.163016
-6720.00000000 19110.00000000 -660.00000000 66 78 183 0.000000 0.000000 0.000000 0.000000 -60.708740 0.000000 41.000000 0.967721 0.156334 0.197679
-6720.00000000 19110.00000000 -660.00000000 66 78 183 0.000000 0.000000 0.000000 0.000000 -60.708740 0.000000 41.000000 0.967721 0.156334 0.197679
-6760.00000000 19150.00000000 -520.00000000 66 78 183 0.000000 0.000000 0.000000 0.000000 -60.708740 0.000000 41.000000 0.035242 -0.635757 0.771084
-6760.00000000 19110.00000000 -590.00000000 66 78 183 0.000000 0.000000 0.000000 0.000000 -60.708740 0.000000 41.000000 0.018195 -0.689995 0.723585
-6760.00000000 19110.00000000 -590.00000000 66 78 183 0.000000 0.000000 0.000000 0.000000 -60.708740 0.000000 41.000000 0.018195 -0.689995 0.723585
-6790.00000000 19140.00000000 -550.00000000 66 78 183 0.000000 0.000000 0.000000 0.000000 -60.708740 0.000000 41.000000 0.165775 0.895185 -0.413717
-6790.00000000 19140.00000000 -570.00000000 66 78 183 0.000000 0.000000 0.000000 0.000000 -60.708740 0.000000 41.000000 0.328833 0.843122 -0.425457
-6780.00000000 19120.00000000 -620.00000000 66 78 183 0.000000 0.000000 0.000000 0.000000 -60.708740 0.000000 41.000000 0.451900 -0.481479 0.750976
-6810.00000000 19120.00000000 -620.00000000 66 78 183 0.000000 0.000000 0.000000 0.000000 -60.708740 0.000000 41.000000 0.627744 0.383896 -0.677172
-6770.00000000 19070.00000000 -690.00000000 66 78 183 0.000000 0.000000 0.000000 0.000000 -60.708740 0.000000 41.000000 0.930054 -0.230044 0.286496
-6830.00000000 19160.00000000 -530.00000000 66 78 183 0.000000 0.000000 0.000000 0.000000 -60.708740 0.000000 41.000000 0.693011 0.175930 -0.699131
-6870.00000000 19150.00000000 -530.00000000 66 78 183 0.000000 0.000000 0.000000 0.000000 -60.708740 0.000000 41.000000 0.911527 -0.049525 -0.408246
-6420.00000000 19010.00000000 -980.00000000 66 78 183 0.000000 0.000000 0.000000 0.000000 -60.708740 0.000000 41.000000 0.889714 -0.070350 -0.451065
-6450.00000000 19060.00000000 -1010.00000000 66 78 183 0.000000 0.000000 0.000000 0.000000 -60.708740 0.000000 41.000000 0.809081 0.549074 -0.209535
-6410.00000000 18920.00000000 -1030.00000000 66 78 183 0.000000 0.000000 0.000000 0.000000 -60.708740 0.000000 41.000000 0.947750 0.189006 -0.256994
-6450.00000000 18980.00000000 -1030.00000000 66 78 183 0.000000 0.000000 0.000000 0.000000 -60.708740 0.000000 41.000000 0.935453 -0.109339 -0.336115
-6690.00000000 19090.00000000 -780.00000000 66 78 183 0.000000 0.000000 0.000000 0.000000 -60.708740 0.000000 41.000000 0.665714 0.384892 -0.639284
-6650.00000000 19110.00000000 -910.00000000 66 78 183 0.000000 0.000000 0.000000 0.000000 -60.708740 0.000000 41.000000 0.686113 0.290835 -0.666831
-6630.00000000 19090.00000000 -980.00000000 66 78 183 0.000000 0.000000 0.000000 0.000000 -60.708740 0.000000 41.000000 0.755514 0.192341 -0.626261
-6650.00000000 19100.00000000 -990.00000000 66 78 183 0.000000 0.000000 0.000000 0.000000 -60.708740 0.000000 41.000000 -0.241659 -0.562831 0.790457
-6640.00000000 19080.00000000 -910.00000000 66 78 183 0.000000 0.000000 0.000000 0.000000 -60.708740 0.000000 41.000000 -0.417729 -0.634082 0.650725
-6680.00000000 19100.00000000 -940.00000000 66 78 183 0.000000 0.000000 0.000000 0.000000 -60.708740 0.000000 41.000000 0.759717 0.369284 -0.535218
-6670.00000000 19150.00000000 -980.00000000 66 78 183 0.000000 0.000000 0.000000 0.000000 -60.708740 0.000000 41.000000 0.359104 0.827363 -0.431874
-6680.00000000 19140.00000000 -980.00000000 66 78 183 0.000000 0.000000 0.000000 0.000000 -60.708740 0.000000 41.000000 0.447523 0.843946 -0.295768
-6680.00000000 19140.00000000 -980.00000000 66 78 183 0.000000 0.000000 0.000000 0.000000 -60.708740 0.000000 41.000000 0.447523 0.843946 -0.295768
-6440.00000000 18920.00000000 -1100.00000000 66 78 183 0.000000 0.000000 0.000000 0.000000 -60.708740 0.000000 41.000000 0.768115 0.211734 -0.604292
-6500.00000000 18980.00000000 -1150.00000000 66 78 183 0.000000 0.000000 0.000000 0.000000 -60.708740 0.000000 41.000000 -0.558581 -0.348101 0.752870
-6570.00000000 18960.00000000 -1260.00000000 66 78 183 0.000000 0.000000 0.000000 0.000000 -60.708740 0.000000 41.000000 -0.544648 -0.172547 0.820723
-6510.00000000 18890.00000000 -1260.00000000 66 78 183 0.000000 0.000000 0.000000 0.000000 -60.708740 0.000000 41.000000 0.947540 0.299013 -0.112961
-6670.00000000 19130.00000000 -1170.00000000 66 78 183 0.000000 0.000000 0.000000 0.000000 -60.708740 0.000000 41.000000 -0.417813 -0.414611 0.808412
-6680.00000000 19000.00000000 -1090.00000000 66 78 183 0.000000 0.000000 0.000000 0.000000 -60.708740 0.000000 41.000000 -0.261512 -0.448088 0.854885
-6720.00000000 19000.00000000 -1070.00000000 66 78 183 0.000000 0.000000 0.000000 0.000000 -60.708740 0.000000 41.000000 -0.591446 -0.415835 0.690849
-6710.00000000 18980.00000000 -1160.00000000 66 78 183 0.000000 0.000000 0.000000 0.000000 -60.708740 0.000000 41.000000 0.275445 0.823222 -0.496423
-6710.00000000 18950.00000000 -1190.00000000 66 78 183 0.000000 0.000000 0.000000 0.000000 -60.708740 0.000000 41.000000 -0.101507 -0.684070 0.722319
-6590.00000000 18960.00000000 -1320.00000000 66 78 183 0.000000 0.000000 0.000000 0.000000 -60.708740 0.000000 41.000000 0.416503 0.695278 -0.585759
-6610.00000000 18960.00000000 -1290.00000000 66 78 183 0.000000 0.000000 0.000000 0.000000 -60.708740 0.000000 41.000000 0.515267 0.708701 -0.481916
-6590.00000000 18960.00000000 -1320.00000000 66 78 183 0.000000 0.000000 0.000000 0.000000 -60.708740 0.000000 41.000000 0.416503 0.695278 -0.585759
-6610.00000000 18930.00000000 -1360.00000000 66 78 183 0.000000 0.000000 0.000000 0.000000 -60.708740 0.000000 41.000000 0.318517 0.779485 -0.539397
-6600.00000000 18940.00000000 -1350.00000000 66 78 183 0.000000 0.000000 0.000000 0.000000 -60.708740 0.000000 41.000000 -0.537833 -0.257224 0.802852
-6700.00000000 18950.00000000 -1310.00000000 66 78 183 0.000000 0.000000 0.000000 0.000000 -60.708740 0.000000 41.000000 0.417832 0.830934 -0.367377
-6780.00000000 19080.00000000 -780.00000000 66 78 183 0.000000 0.000000 0.000000 0.000000 -60.708740 0.000000 41.000000 0.202772 0.897159 -0.392416
-6810.00000000 19050.00000000 -810.00000000 66 78 183 0.000000 0.000000 0.000000 0.000000 -60.708740 0.000000 41.000000 -0.365759 0.680673 -0.634748
-6820.00000000 19060.00000000 -860.00000000 66 78 183 0.000000 0.000000 0.000000 0.000000 -60.708740 0.000000 41.000000 0.004133 -0.637872 0.770131
-6800.00000000 19040.00000000 -820.00000000 66 78 183 0.000000 0.000000 0.000000 0.000000 -60.708740 0.000000 41.000000 -0.116059 -0.356370 0.927109
-6860.00000000 19130.00000000 -710.00000000 66 78 183 0.000000 0.000000 0.000000 0.000000 -60.708740 0.000000 41.000000 0.839883 -0.541994 -0.028961
-6900.00000000 19160.00000000 -710.00000000 66 78 183 0.000000 0.000000 0.000000 0.000000 -60.708740 0.000000 41.000000 0.771883 -0.561804 0.297613
-6870.00000000 19160.00000000 -830.00000000 66 78 183 0.000000 0.000000 0.000000 0.000000 -60.708740 0.000000 41.000000 0.670720 -0.587089 0.453279
-6830.00000000 19080.00000000 -760.00000000 66 78 183 0.000000 0.000000 0.000000 0.000000 -60.708740 0.000000 41.000000 0.527236 -0.328521 0.783643
-6910.00000000 19080.00000000 -810.00000000 66 78 183 0.000000 0.000000 0.000000 0.000000 -60.708740 0.000000 41.000000 -0.499040 0.742795 -0.446336
-6890.00000000 19130.00000000 -950.00000000 66 78 183 0.000000 0.000000 0.000000 0.000000 -60.708740 0.000000 41.000000 -0.152809 0.934752 -0.320762
-6870.00000000 19050.00000000 -980.00000000 66 78 183 0.000000 0.000000 0.000000 0.000000 -60.708740 0.000000 41.000000 -0.199568 0.734844 -0.648210
-6850.00000000 19010.00000000 -950.00000000 66 78 183 0.000000 0.000000 0.000000 0.000000 -60.708740 0.000000 41.000000 -0.464287 0.713903 -0.524195
-6770.00000000 19010.00000000 -1070.00000000 66 78 183 0.000000 0.000000 0.000000 0.000000 -60.708740 0.000000 41.000000 0.001345 -0.520416 0.853912
-6810.00000000 19000.00000000 -1110.00000000 66 78 183 0.000000 0.000000 0.000000 0.000000 -60.708740 0.000000 41.000000 0.180234 0.880657 -0.438131
-6870.00000000 19030.00000000 -1040.00000000 66 78 183 0.000000 0.000000 0.000000 0.000000 -60.708740 0.000000 41.000000 0.127058 0.721991 -0.680136
-6840.00000000 19030.00000000 -1040.00000000 66 78 183 0.000000 0.000000 0.000000 0.000000 -60.708740 0.000000 41.000000 -0.186323 -0.712957 0.676000
-6790.00000000 19160.00000000 -1200.00000000 66 78 183 0.000000 0.000000 0.000000 0.000000 -60.708740 0.000000 41.000000 0.162605 0.712727 -0.682334
-6850.00000000 19080.00000000 -1220.00000000 66 78 183 0.000000 0.000000 0.000000 0.000000 -60.708740 0.000000 41.000000 0.044981 0.944593 -0.325146
-6780.00000000 18960.00000000 -1150.00000000 66 78 183 0.000000 0.000000 0.000000 0.000000 -60.708740 0.000000 41.000000 0.241485 0.559310 -0.793005
-6810.00000000 18990.00000000 -1130.00000000 66 78 183 0.000000 0.000000 0.000000 0.000000 -60.708740 0.000000 41.000000 0.143889 0.864786 -0.481083
-6800.00000000 18970.00000000 -1150.00000000 66 78 183 0.000000 0.000000 0.000000 0.000000 -60.708740 0.000000 41.000000 0.072076 -0.414775 0.907065
-6800.00000000 18960.00000000 -1150.00000000 66 78 183 0.000000 0.000000 0.000000 0.000000 -60.708740 0.000000 41.000000 0.015348 -0.668346 0.743692
-6760.00000000 18980.00000000 -1290.00000000 66 78 183 0.000000 0.000000 0.000000 0.000000 -60.708740 0.000000 41.000000 -0.216848 -0.408619 0.886571
-6790.00000000 18970.00000000 -1290.00000000 66 78 183 0.000000 0.000000 0.000000 0.000000 -60.708740 0.000000 41.000000 -0.111877 -0.451755 0.885100
-6630.00000000 18920.00000000 -1380.00000000 66 78 183 0.000000 0.000000 0.000000 0.000000 -60.708740 0.000000 41.000000 0.408446 0.696178 -0.590346
-6640.00000000 18920.00000000 -1390.00000000 66 78 183 0.000000 0.000000 0.000000 0.000000 -60.708740 0.000000 41.000000 0.583954 0.683775 -0.437549
-6640.00000000 18930.00000000 -1380.00000000 66 78 183 0.000000 0.000000 0.000000 0.000000 -60.708740 0.000000 41.000000 0.495288 0.549014 -0.673256
-6620.00000000 18930.00000000 -1370.00000000 66 78 183 0.000000 0.000000 0.000000 0.000000 -60.708740 0.000000 41.000000 0.250002 0.753149 -0.608494
-6640.00000000 18910.00000000 -1390.00000000 66 78 183 0.000000 0.000000 0.000000 0.000000 -60.708740 0.000000 41.000000 0.531052 0.738212 -0.415964
-6690.00000000 18920.00000000 -1430.00000000 66 78 183 0.000000 0.000000 0.000000 0.000000 -60.708740 0.000000 41.000000 0.113520 0.771052 -0.626572
-6680.00000000 18930.00000000 -1410.00000000 66 78 183 0.000000 0.000000 0.000000 0.000000 -60.708740 0.000000 41.000000 0.448583 0.819497 -0.356648
-6690.00000000 18920.00000000 -1430.00000000 66 78 183 0.000000 0.000000 0.000000 0.000000 -60.708740 0.000000 41.000000 0.113520 0.771052 -0.626572
-6710.00000000 18930.00000000 -1420.00000000 66 78 183 0.000000 0.000000 0.000000 0.000000 -60.708740 0.000000 41.000000 0.180327 0.850967 -0.493293
-6710.00000000 18920.00000000 -1430.00000000 66 78 183 0.000000 0.000000 0.000000 0.000000 -60.708740 0.000000 41.000000 -0.308493 -0.461957 0.831522
-6670.00000000 18910.00000000 -1420.00000000 66 78 183 0.000000 0.000000 0.000000 0.000000 -60.708740 0.000000 41.000000 0.476856 0.674291 -0.563861
-6590.00000000 19710.00000000 -10.00000000 66 78 183 0.000000 0.000000 0.000000 0.000000 -60.708740 0.000000 41.000000 0.917045 -0.267171 -0.296054
-6620.00000000 19680.00000000 30.00000000 66 78 183 0.000000 0.000000 0.000000 0.000000 -60.708740 0.000000 41.000000 0.848795 -0.365994 0.381569
-6690.00000000 19790.00000000 30.00000000 66 78 183 0.000000 0.000000 0.000000 0.000000 -60.708740 0.000000 41.000000 0.046943 -0.672851 0.738287
-6700.00000000 19800.00000000 30.00000000 66 78 183 0.000000 0.000000 0.000000 0.000000 -60.708740 0.000000 41.000000 0.649443 -0.445762 0.616052
-6740.00000000 19730.00000000 0.00000000 66 78 183 0.000000 0.000000 0.000000 0.000000 -60.708740 0.000000 41.000000 0.787561 0.282512 -0.547663
-6650.00000000 19590.00000000 80.00000000 66 78 183 0.000000 0.000000 0.000000 0.000000 -60.708740 0.000000 41.000000 -0.073464 -0.629485 0.773532
-6600.00000000 19620.00000000 0.00000000 66 78 183 0.000000 0.000000 0.000000 0.000000 -60.708740 0.000000 41.000000 0.852002 -0.512925 0.104884
-6620.00000000 19600.00000000 10.00000000 66 78 183 0.000000 0.000000 0.000000 0.000000 -60.708740 0.000000 41.000000 -0.638272 0.523754 -0.564172
-6620.00000000 19580.00000000 -10.00000000 66 78 183 0.000000 0.000000 0.000000 0.000000 -60.708740 0.000000 41.000000 0.682792 -0.391820 0.616662
-6650.00000000 19580.00000000 40.00000000 66 78 183 0.000000 0.000000 0.000000 0.000000 -60.708740 0.000000 41.000000 -0.196154 0.810466 -0.551968
-6720.00000000 19600.00000000 50.00000000 66 78 183 0.000000 0.000000 0.000000 0.000000 -60.708740 0.000000 41.000000 0.179770 0.881312 -0.437002
-6710.00000000 19610.00000000 60.00000000 66 78 183 0.000000 0.000000 0.000000 0.000000 -60.708740 0.000000 41.000000 -0.273903 -0.587388 0.761546
-6720.00000000 19600.00000000 40.00000000 66 78 183 0.000000 0.000000 0.000000 0.000000 -60.708740 0.000000 41.000000 0.410708 0.754329 -0.512158
-6740.00000000 19600.00000000 60.00000000 66 78 183 0.000000 0.000000 0.000000 0.000000 -60.708740 0.000000 41.000000 0.463082 0.743238 -0.482858
-6700.00000000 19530.00000000 10.00000000 66 78 183 0.000000 0.000000 0.000000 0.000000 -60.708740 0.000000 41.000000 0.365182 -0.702525 0.610820
-6800.00000000 19700.00000000 40.00000000 66 78 183 0.000000 0.000000 0.000000 0.000000 -60.708740 0.000000 41.000000 0.877136 -0.059397 -0.476554
-6800.00000000 19680.00000000 0.00000000 66 78 183 0.000000 0.000000 0.000000 0.000000 -60.708740 0.000000 41.000000 0.856103 0.303878 -0.418025
-6810.00000000 19680.00000000 0.00000000 66 78 183 0.000000 0.000000 0.000000 0.000000 -60.708740 0.000000 41.000000 0.899048 0.168302 -0.404212
-6760.00000000 19620.00000000 40.00000000 66 78 183 0.000000 0.000000 0.000000 0.000000 -60.708740 0.000000 41.000000 0.317966 0.778139 -0.541661
-6770.00000000 19590.00000000 0.00000000 66 78 183 0.000000 0.000000 0.000000 0.000000 -60.708740 0.000000 41.000000 -0.561390 -0.356361 0.746893
-6790.00000000 19670.00000000 50.00000000 66 78 183 0.000000 0.000000 0.000000 0.000000 -60.708740 0.000000 41.000000 -0.484279 -0.264574 0.833951
-6790.00000000 19660.00000000 0.00000000 66 78 183 0.000000 0.000000 0.000000 0.000000 -60.708740 0.000000 41.000000 0.846843 0.138947 -0.513371
-6340.00000000 19200.00000000 -420.00000000 66 78 183 0.000000 0.000000 0.000000 0.000000 -60.708740 0.000000 41.000000 0.960634 0.140229 0.239831
-6360.00000000 19110.00000000 -640.00000000 66 78 183 0.000000 0.000000 0.000000 0.000000 -60.708740 0.000000 41.000000 0.972132 0.203000 0.117261
-6400.00000000 19030.00000000 -940.00000000 66 78 183 0.000000 0.000000 0.000000 0.000000 -60.708740 0.000000 41.000000 0.848226 0.054499 -0.526823
-6390.00000000 18970.00000000 -850.00000000 66 78 183 0.000000 0.000000 0.000000 0.000000 -60.708740 0.000000 41.000000 0.894985 0.113805 -0.431335
-6620.00000000 19700.00000000 -140.00000000 66 78 183 0.000000 0.000000 0.000000 0.000000 -60.708740 0.000000 41.000000 0.568211 0.514256 -0.642399
-6680.00000000 19760.00000000 -30.00000000 66 78 183 0.000000 0.000000 0.000000 0.000000 -60.708740 0.000000 41.000000 0.350126 0.734451 -0.581372
-6670.00000000 19700.00000000 -90.00000000 66 78 183 0.000000 0.000000 0.000000 0.000000 -60.708740 0.000000 41.000000 0.605560 0.527967 -0.595439
-6690.00000000 19740.00000000 -90.00000000 66 78 183 0.000000 0.000000 0.000000 0.000000 -60.708740 0.000000 41.000000 0.114065 -0.650318 0.751050
-6670.00000000 19700.00000000 -90.00000000 66 78 183 0.000000 0.000000 0.000000 0.000000 -60.708740 0.000000 41.000000 0.605560 0.527967 -0.595439
-6740.00000000 19680.00000000 -140.00000000 66 78 183 0.000000 0.000000 0.000000 0.000000 -60.708740 0.000000 41.000000 -0.344325 0.764629 -0.544778
-6670.00000000 19690.00000000 -190.00000000 66 78 183 0.000000 0.000000 0.000000 0.000000 -60.708740 0.000000 41.000000 0.331080 0.860808 -0.386517
-6600.00000000 19610.00000000 -70.00000000 66 78 183 0.000000 0.000000 0.000000 0.000000 -60.708740 0.000000 41.000000 0.977679 -0.186166 -0.097398
-6600.00000000 19590.00000000 -110.00000000 66 78 183 0.000000 0.000000 0.000000 0.000000 -60.708740 0.000000 41.000000 0.940762 -0.211983 -0.264633
-6660.00000000 19660.00000000 -170.00000000 66 78 183 0.000000 0.000000 0.000000 0.000000 -60.708740 0.000000 41.000000 0.491558 0.729889 -0.475007
-6640.00000000 19650.00000000 -150.00000000 66 78 183 0.000000 0.000000 0.000000 0.000000 -60.708740 0.000000 41.000000 0.735099 0.265144 -0.623961
-6590.00000000 19570.00000000 -70.00000000 66 78 183 0.000000 0.000000 0.000000 0.000000 -60.708740 0.000000 41.000000 0.868314 -0.495601 -0.020256
-6650.00000000 19520.00000000 -50.00000000 66 78 183 0.000000 0.000000 0.000000 0.000000 -60.708740 0.000000 41.000000 -0.355692 0.680241 -0.640902
-6630.00000000 19520.00000000 -60.00000000 66 78 183 0.000000 0.000000 0.000000 0.000000 -60.708740 0.000000 41.000000 0.551802 -0.619301 0.558552
-6600.00000000 19530.00000000 -170.00000000 66 78 183 0.000000 0.000000 0.000000 0.000000 -60.708740 0.000000 41.000000 0.927187 -0.296757 -0.228602
-6630.00000000 19520.00000000 -110.00000000 66 78 183 0.000000 0.000000 0.000000 0.000000 -60.708740 0.000000 41.000000 0.850656 -0.268225 0.452150
-6610.00000000 19530.00000000 -120.00000000 66 78 183 0.000000 0.000000 0.000000 0.000000 -60.708740 0.000000 41.000000 0.589996 -0.606901 0.532518
-6580.00000000 19540.00000000 -120.00000000 66 78 183 0.000000 0.000000 0.000000 0.000000 -60.708740 0.000000 41.000000 0.824342 -0.405024 0.395494
-6730.00000000 19670.00000000 -180.00000000 66 78 183 0.000000 0.000000 0.000000 0.000000 -60.708740 0.000000 41.000000 -0.055423 0.797233 -0.601122
-6730.00000000 19670.00000000 -180.00000000 66 78 183 0.000000 0.000000 0.000000 0.000000 -60.708740 0.000000 41.000000 -0.055423 0.797233 -0.601122
-6720.00000000 19660.00000000 -160.00000000 66 78 183 0.000000 0.000000 0.000000 0.000000 -60.708740 0.000000 41.000000 0.123252 0.770696 -0.625169
-6720.00000000 19520.00000000 -70.00000000 66 78 183 0.000000 0.000000 0.000000 0.000000 -60.708740 0.000000 41.000000 -0.179265 -0.687949 0.703271
-6740.00000000 19530.00000000 -70.00000000 66 78 183 0.000000 0.000000 0.000000 0.000000 -60.708740 0.000000 41.000000 -0.118461 -0.397192 0.910058
-6630.00000000 19600.00000000 -220.00000000 66 78 183 0.000000 0.000000 0.000000 0.000000 -60.708740 0.000000 41.000000 0.946851 0.052674 -0.317330
-6660.00000000 19630.00000000 -220.00000000 66 78 183 0.000000 0.000000 0.000000 0.000000 -60.708740 0.000000 41.000000 0.490066 0.684085 -0.540243
-6660.00000000 19640.00000000 -220.00000000 66 78 183 0.000000 0.000000 0.000000 0.000000 -60.708740 0.000000 41.000000 0.771419 0.194772 -0.605786
-6630.00000000 19600.00000000 -210.00000000 66 78 183 0.000000 0.000000 0.000000 0.000000 -60.708740 0.000000 41.000000 0.796799 0.040753 -0.602869
-6650.00000000 19580.00000000 -270.00000000 66 78 183 0.000000 0.000000 0.000000 0.000000 -60.708740 0.000000 41.000000 0.873818 0.159009 -0.459520
-6600.00000000 19580.00000000 -220.00000000 66 78 183 0.000000 0.000000 0.000000 0.000000 -60.708740 0.000000 41.000000 0.867597 -0.023010 -0.496736
-6610.00000000 19530.00000000 -240.00000000 66 78 183 0.000000 0.000000 0.000000 0.000000 -60.708740 0.000000 41.000000 0.862806 0.031449 -0.504557
-6630.00000000 19540.00000000 -300.00000000 66 78 183 0.000000 0.000000 0.000000 0.000000 -60.708740 0.000000 41.000000 0.609510 0.602756 -0.514960
-6650.00000000 19520.00000000 -330.00000000 66 78 183 0.000000 0.000000 0.000000 0.000000 -60.708740 0.000000 41.000000 0.565841 0.682681 -0.462354
-6650.00000000 19510.00000000 -340.00000000 66 78 183 0.000000 0.000000 0.000000 0.000000 -60.708740 0.000000 41.000000 -0.552681 -0.366824 0.748321
-6690.00000000 19670.00000000 -200.00000000 66 78 183 0.000000 0.000000 0.000000 0.000000 -60.708740 0.000000 41.000000 0.032342 0.774804 -0.631374
-6700.00000000 19660.00000000 -250.00000000 66 78 183 0.000000 0.000000 0.000000 0.000000 -60.708740 0.000000 41.000000 -0.331593 -0.412545 0.848441
-6670.00000000 19620.00000000 -230.00000000 66 78 183 0.000000 0.000000 0.000000 0.000000 -60.708740 0.000000 41.000000 -0.519414 -0.529500 0.670700
-6680.00000000 19630.00000000 -230.00000000 66 78 183 0.000000 0.000000 0.000000 0.000000 -60.708740 0.000000 41.000000 -0.429456 -0.350801 0.832169
-6730.00000000 19650.00000000 -200.00000000 66 78 183 0.000000 0.000000 0.000000 0.000000 -60.708740 0.000000 41.000000 0.190598 -0.499757 0.844935
-6730.00000000 19650.00000000 -200.00000000 66 78 183 0.000000 0.000000 0.000000 0.000000 -60.708740 0.000000 41.000000 0.190598 -0.499757 0.844935
-6730.00000000 19650.00000000 -200.00000000 66 78 183 0.000000 0.000000 0.000000 0.000000 -60.708740 0.000000 41.000000 0.190598 -0.499757 0.844935
-6740.00000000 19670.00000000 -220.00000000 66 78 183 0.000000 0.000000 0.000000 0.000000 -60.708740 0.000000 41.000000 0.027709 0.909111 -0.415631
-6730.00000000 19620.00000000 -260.00000000 66 78 183 0.000000 0.000000 0.000000 0.000000 -60.708740 0.000000 41.000000 0.088542 -0.605280 0.791073
-6720.00000000 19630.00000000 -260.00000000 66 78 183 0.000000 0.000000 0.000000 0.000000 -60.708740 0.000000 41.000000 -0.222785 0.743136 -0.630964
-6720.00000000 19610.00000000 -280.00000000 66 78 183 0.000000 0.000000 0.000000 0.000000 -60.708740 0.000000 41.000000 0.172817 0.906933 -0.384197
-6740.00000000 19610.00000000 -290.00000000 66 78 183 0.000000 0.000000 0.000000 0.000000 -60.708740 0.000000 41.000000 -0.040947 -0.619857 0.783646
-6730.00000000 19600.00000000 -290.00000000 66 78 183 0.000000 0.000000 0.000000 0.000000 -60.708740 0.000000 41.000000 -0.064484 0.783836 -0.617611
-6710.00000000 19550.00000000 -340.00000000 66 78 183 0.000000 0.000000 0.000000 0.000000 -60.708740 0.000000 41.000000 -0.097283 -0.588055 0.802949
-6680.00000000 19550.00000000 -350.00000000 66 78 183 0.000000 0.000000 0.000000 0.000000 -60.708740 0.000000 41.000000 -0.387941 -0.609151 0.691691
-6730.00000000 19580.00000000 -290.00000000 66 78 183 0.000000 0.000000 0.000000 0.000000 -60.708740 0.000000 41.000000 -0.304812 0.708003 -0.637041
-6740.00000000 19560.00000000 -330.00000000 66 78 183 0.000000 0.000000 0.000000 0.000000 -60.708740 0.000000 41.000000 -0.183061 0.883087 -0.432025
-6740.00000000 19510.00000000 -380.00000000 66 78 183 0.000000 0.000000 0.000000 0.000000 -60.708740 0.000000 41.000000 0.289248 0.820839 -0.492503
-6640.00000000 19500.00000000 -100.00000000 66 78 183 0.000000 0.000000 0.000000 0.000000 -60.708740 0.000000 41.000000 -0.291929 0.863560 -0.411146
-6680.00000000 19500.00000000 -80.00000000 66 78 183 0.000000 0.000000 0.000000 0.000000 -60.708740 0.000000 41.000000 -0.362226 0.706422 -0.608080
-6670.00000000 19490.00000000 -120.00000000 66 78 183 0.000000 0.000000 0.000000 0.000000 -60.708740 0.000000 41.000000 0.376074 -0.538877 0.753777
-6740.00000000 19480.00000000 -110.00000000 66 78 183 0.000000 0.000000 0.000000 0.000000 -60.708740 0.000000 41.000000 0.004122 -0.605914 0.795520
-6710.00000000 19450.00000000 -150.00000000 66 78 183 0.000000 0.000000 0.000000 0.000000 -60.708740 0.000000 41.000000 0.232707 -0.598167 0.766840
-6710.00000000 19440.00000000 -170.00000000 66 78 183 0.000000 0.000000 0.000000 0.000000 -60.708740 0.000000 41.000000 0.062217 0.875189 -0.479764
-6610.00000000 19500.00000000 -260.00000000 66 78 183 0.000000 0.000000 0.000000 0.000000 -60.708740 0.000000 41.000000 0.875510 -0.237959 -0.420544
-6650.00000000 19490.00000000 -350.00000000 66 78 183 0.000000 0.000000 0.000000 0.000000 -60.708740 0.000000 41.000000 0.633030 0.639711 -0.435939
-6660.00000000 19400.00000000 -220.00000000 66 78 183 0.000000 0.000000 0.000000 0.000000 -60.708740 0.000000 41.000000 -0.304801 0.777163 -0.550557
-6720.00000000 19380.00000000 -250.00000000 66 78 183 0.000000 0.000000 0.000000 0.000000 -60.708740 0.000000 41.000000 0.380188 -0.597438 0.706063
-6710.00000000 19410.00000000 -220.00000000 66 78 183 0.000000 0.000000 0.000000 0.000000 -60.708740 0.000000 41.000000 -0.400455 0.802517 -0.442269
-6710.00000000 19390.00000000 -240.00000000 66 78 183 0.000000 0.000000 0.000000 0.000000 -60.708740 0.000000 41.000000 0.426925 -0.489083 0.760614
-6680.00000000 19360.00000000 -260.00000000 66 78 183 0.000000 0.000000 0.000000 0.000000 -60.708740 0.000000 41.000000 -0.406185 0.605132 -0.684711
-6700.00000000 19340.00000000 -270.00000000 66 78 183 0.000000 0.000000 0.000000 0.000000 -60.708740 0.000000 41.000000 0.186323 -0.676000 0.712957
-6720.00000000 19340.00000000 -270.00000000 66 78 183 0.000000 0.000000 0.000000 0.000000 -60.708740 0.000000 41.000000 0.003929 0.899854 -0.436174
-6680.00000000 19420.00000000 -200.00000000 66 78 183 0.000000 0.000000 0.000000 0.000000 -60.708740 0.000000 41.000000 -0.151583 0.884956 -0.440313
-6730.00000000 19420.00000000 -220.00000000 66 78 183 0.000000 0.000000 0.000000 0.000000 -60.708740 0.000000 41.000000 -0.001273 -0.378186 0.925729
-6700.00000000 19410.00000000 -230.00000000 66 78 183 0.000000 0.000000 0.000000 0.000000 -60.708740 0.000000 41.000000 -0.549336 0.670291 -0.498938
-6720.00000000 19360.00000000 -260.00000000 66 78 183 0.000000 0.000000 0.000000 0.000000 -60.708740 0.000000 41.000000 0.442265 -0.632522 0.635860
-6670.00000000 19360.00000000 -280.00000000 66 78 183 0.000000 0.000000 0.000000 0.000000 -60.708740 0.000000 41.000000 -0.467603 0.809129 -0.355889
-6730.00000000 19340.00000000 -280.00000000 66 78 183 0.000000 0.000000 0.000000 0.000000 -60.708740 0.000000 41.000000 0.149771 0.715574 -0.682292
-6720.00000000 19340.00000000 -280.00000000 66 78 183 0.000000 0.000000 0.000000 0.000000 -60.708740 0.000000 41.000000 -0.125524 -0.592178 0.795970
-6690.00000000 19340.00000000 -300.00000000 66 78 183 0.000000 0.000000 0.000000 0.000000 -60.708740 0.000000 41.000000 0.520152 -0.712925 0.470298
-6730.00000000 19360.00000000 -280.00000000 66 78 183 0.000000 0.000000 0.000000 0.000000 -60.708740 0.000000 41.000000 -0.058931 -0.691358 0.720105
-6690.00000000 19300.00000000 -350.00000000 66 78 183 0.000000 0.000000 0.000000 0.000000 -60.708740 0.000000 41.000000 -0.315779 0.771013 -0.553013
-6710.00000000 19290.00000000 -340.00000000 66 78 183 0.000000 0.000000 0.000000 0.000000 -60.708740 0.000000 41.000000 0.299717 -0.537587 0.788144
-6710.00000000 19300.00000000 -350.00000000 66 78 183 0.000000 0.000000 0.000000 0.000000 -60.708740 0.000000 41.000000 -0.224645 0.832867 -0.505833
-6690.00000000 19290.00000000 -340.00000000 66 78 183 0.000000 0.000000 0.000000 0.000000 -60.708740 0.000000 41.000000 0.209926 -0.654660 0.726190
-6660.00000000 19310.00000000 -330.00000000 66 78 183 0.000000 0.000000 0.000000 0.000000 -60.708740 0.000000 41.000000 0.578416 -0.378510 0.722610
-6660.00000000 19430.00000000 -440.00000000 66 78 183 0.000000 0.000000 0.000000 0.000000 -60.708740 0.000000 41.000000 0.755519 0.306378 -0.579071
-6660.00000000 19450.00000000 -410.00000000 66 78 183 0.000000 0.000000 0.000000 0.000000 -60.708740 0.000000 41.000000 0.829696 0.188225 -0.525524
-6640.00000000 19440.00000000 -420.00000000 66 78 183 0.000000 0.000000 0.000000 0.000000 -60.708740 0.000000 41.000000 0.866720 0.143727 -0.477639
-6650.00000000 19400.00000000 -410.00000000 66 78 183 0.000000 0.000000 0.000000 0.000000 -60.708740 0.000000 41.000000 0.781886 0.238780 -0.575880
-6660.00000000 19410.00000000 -480.00000000 66 78 183 0.000000 0.000000 0.000000 0.000000 -60.708740 0.000000 41.000000 0.751122 0.461849 -0.471711
-6660.00000000 19410.00000000 -480.00000000 66 78 183 0.000000 0.000000 0.000000 0.000000 -60.708740 0.000000 41.000000 0.751122 0.461849 -0.471711
-6670.00000000 19480.00000000 -370.00000000 66 78 183 0.000000 0.000000 0.000000 0.000000 -60.708740 0.000000 41.000000 0.464287 0.524195 -0.713903
-6680.00000000 19470.00000000 -440.00000000 66 78 183 0.000000 0.000000 0.000000 0.000000 -60.708740 0.000000 41.000000 0.450408 0.641287 -0.621195
-6740.00000000 19490.00000000 -430.00000000 66 78 183 0.000000 0.000000 0.000000 0.000000 -60.708740 0.000000 41.000000 -0.235759 0.847210 -0.476080
-6740.00000000 19500.00000000 -420.00000000 66 78 183 0.000000 0.000000 0.000000 0.000000 -60.708740 0.000000 41.000000 0.020283 -0.493559 0.869476
-6670.00000000 19480.00000000 -410.00000000 66 78 183 0.000000 0.000000 0.000000 0.000000 -60.708740 0.000000 41.000000 0.588994 0.688542 -0.423080
