//X Y Z R G B PointSourceId ScanDirectionFlag NumberOfReturns ReturnNumber GpsTime Intensity Classification Nx Ny Nz
-16610.00000000 6420.00000000 -900.00000000 210 109 96 0.000000 0.000000 0.000000 0.000000 -60.708740 0.000000 89.000000 -0.003520 0.975092 0.221772
-16630.00000000 6420.00000000 -900.00000000 210 109 96 0.000000 0.000000 0.000000 0.000000 -60.708740 0.000000 89.000000 -0.094759 0.995500 0.001065
-16610.00000000 6420.00000000 -900.00000000 210 109 96 0.000000 0.000000 0.000000 0.000000 -60.708740 0.000000 89.000000 -0.003520 0.975092 0.221772
-16610.00000000 6410.00000000 -900.00000000 210 109 96 0.000000 0.000000 0.000000 0.000000 -60.708740 0.000000 89.000000 0.265540 0.946411 0.183835
-16600.00000000 6420.00000000 -870.00000000 210 109 96 0.000000 0.000000 0.000000 0.000000 -60.708740 0.000000 89.000000 -0.205921 0.971490 0.117488
-16630.00000000 6410.00000000 -880.00000000 210 109 96 0.000000 0.000000 0.000000 0.000000 -60.708740 0.000000 89.000000 0.470922 0.882150 -0.006633
-16640.00000000 6430.00000000 -880.00000000 210 109 96 0.000000 0.000000 0.000000 0.000000 -60.708740 0.000000 89.000000 0.407681 0.913049 0.011722
-16640.00000000 6430.00000000 -880.00000000 210 109 96 0.000000 0.000000 0.000000 0.000000 -60.708740 0.000000 89.000000 0.407681 0.913049 0.011722
-16600.00000000 6410.00000000 -870.00000000 210 109 96 0.000000 0.000000 0.000000 0.000000 -60.708740 0.000000 89.000000 -0.101969 0.994468 0.025218
-16630.00000000 6420.00000000 -930.00000000 210 109 96 0.000000 0.000000 0.000000 0.000000 -60.708740 0.000000 89.000000 0.254673 0.939369 -0.229624
-16620.00000000 6410.00000000 -910.00000000 210 109 96 0.000000 0.000000 0.000000 0.000000 -60.708740 0.000000 89.000000 -0.023017 0.999735 0.001001
-16630.00000000 6410.00000000 -910.00000000 210 109 96 0.000000 0.000000 0.000000 0.000000 -60.708740 0.000000 89.000000 0.001069 0.995256 0.097281
-16600.00000000 6420.00000000 -910.00000000 210 109 96 0.000000 0.000000 0.000000 0.000000 -60.708740 0.000000 89.000000 -0.387058 0.912450 0.132745
-16620.00000000 6430.00000000 -920.00000000 210 109 96 0.000000 0.000000 0.000000 0.000000 -60.708740 0.000000 89.000000 0.149204 0.984746 0.089522
-16670.00000000 6440.00000000 -890.00000000 210 109 96 0.000000 0.000000 0.000000 0.000000 -60.708740 0.000000 89.000000 0.007047 0.999707 -0.023155
-16650.00000000 6430.00000000 -890.00000000 210 109 96 0.000000 0.000000 0.000000 0.000000 -60.708740 0.000000 89.000000 0.543102 0.834101 -0.096519
-16660.00000000 6440.00000000 -900.00000000 210 109 96 0.000000 0.000000 0.000000 0.000000 -60.708740 0.000000 89.000000 0.186078 0.975346 -0.118640
-16680.00000000 6450.00000000 -880.00000000 210 109 96 0.000000 0.000000 0.000000 0.000000 -60.708740 0.000000 89.000000 0.652022 0.749604 0.113845
-16670.00000000 6430.00000000 -940.00000000 210 109 96 0.000000 0.000000 0.000000 0.000000 -60.708740 0.000000 89.000000 0.537009 0.840227 0.075096
-16680.00000000 6450.00000000 -920.00000000 210 109 96 0.000000 0.000000 0.000000 0.000000 -60.708740 0.000000 89.000000 0.455792 0.888315 0.056119
-16650.00000000 6440.00000000 -930.00000000 210 109 96 0.000000 0.000000 0.000000 0.000000 -60.708740 0.000000 89.000000 0.234610 0.971262 0.040115
-16680.00000000 6440.00000000 -940.00000000 210 109 96 0.000000 0.000000 0.000000 0.000000 -60.708740 0.000000 89.000000 0.493884 0.868743 -0.036939
-16670.00000000 6440.00000000 -910.00000000 210 109 96 0.000000 0.000000 0.000000 0.000000 -60.708740 0.000000 89.000000 0.382726 0.900788 0.205188
-16650.00000000 6430.00000000 -920.00000000 210 109 96 0.000000 0.000000 0.000000 0.000000 -60.708740 0.000000 89.000000 0.481672 0.871529 0.091814
-16660.00000000 6430.00000000 -940.00000000 210 109 96 0.000000 0.000000 0.000000 0.000000 -60.708740 0.000000 89.000000 0.561857 0.808894 -0.173227
-16640.00000000 6440.00000000 -970.00000000 210 109 96 0.000000 0.000000 0.000000 0.000000 -60.708740 0.000000 89.000000 -0.160834 0.963693 -0.213137
-16630.00000000 6450.00000000 -970.00000000 210 109 96 0.000000 0.000000 0.000000 0.000000 -60.708740 0.000000 89.000000 0.006106 0.958645 -0.284540
-16620.00000000 6450.00000000 -990.00000000 210 109 96 0.000000 0.000000 0.000000 0.000000 -60.708740 0.000000 89.000000 0.294858 0.955534 -0.003670
-16630.00000000 6440.00000000 -1010.00000000 210 109 96 0.000000 0.000000 0.000000 0.000000 -60.708740 0.000000 89.000000 0.069654 0.900036 -0.430214
-16640.00000000 6440.00000000 -1020.00000000 210 109 96 0.000000 0.000000 0.000000 0.000000 -60.708740 0.000000 89.000000 0.321766 0.890468 -0.321766
-16610.00000000 6400.00000000 -1000.00000000 210 109 96 0.000000 0.000000 0.000000 0.000000 -60.708740 0.000000 89.000000 -0.211827 0.940069 0.267207
-16680.00000000 6450.00000000 -980.00000000 210 109 96 0.000000 0.000000 0.000000 0.000000 -60.708740 0.000000 89.000000 0.390491 0.873667 0.290210
-16680.00000000 6450.00000000 -980.00000000 210 109 96 0.000000 0.000000 0.000000 0.000000 -60.708740 0.000000 89.000000 0.390491 0.873667 0.290210
-16680.00000000 6450.00000000 -950.00000000 210 109 96 0.000000 0.000000 0.000000 0.000000 -60.708740 0.000000 89.000000 0.324849 0.943235 0.069144
-16670.00000000 6450.00000000 -990.00000000 210 109 96 0.000000 0.000000 0.000000 0.000000 -60.708740 0.000000 89.000000 0.406615 0.898001 0.168106
-16660.00000000 6450.00000000 -1030.00000000 210 109 96 0.000000 0.000000 0.000000 0.000000 -60.708740 0.000000 89.000000 0.482128 0.868403 0.115882
-16660.00000000 6440.00000000 -1000.00000000 210 109 96 0.000000 0.000000 0.000000 0.000000 -60.708740 0.000000 89.000000 0.384934 0.922537 0.027402
-16670.00000000 6450.00000000 -1030.00000000 210 109 96 0.000000 0.000000 0.000000 0.000000 -60.708740 0.000000 89.000000 0.591469 0.804228 0.058154
-16650.00000000 6440.00000000 -990.00000000 210 109 96 0.000000 0.000000 0.000000 0.000000 -60.708740 0.000000 89.000000 0.282349 0.956919 0.067713
-16650.00000000 6440.00000000 -1000.00000000 210 109 96 0.000000 0.000000 0.000000 0.000000 -60.708740 0.000000 89.000000 0.273596 0.951581 0.140135
-16680.00000000 6450.00000000 -1030.00000000 210 109 96 0.000000 0.000000 0.000000 0.000000 -60.708740 0.000000 89.000000 0.568802 0.822215 0.020659
-16680.00000000 6450.00000000 -1010.00000000 210 109 96 0.000000 0.000000 0.000000 0.000000 -60.708740 0.000000 89.000000 0.461807 0.883153 -0.082316
-16650.00000000 6430.00000000 -1030.00000000 210 109 96 0.000000 0.000000 0.000000 0.000000 -60.708740 0.000000 89.000000 0.485321 0.860675 -0.153954
-16710.00000000 6690.00000000 -730.00000000 210 109 96 0.000000 0.000000 0.000000 0.000000 -60.708740 0.000000 89.000000 0.938927 -0.331621 0.091895
-16750.00000000 6680.00000000 -760.00000000 210 109 96 0.000000 0.000000 0.000000 0.000000 -60.708740 0.000000 89.000000 0.914791 -0.398962 -0.063135
-16760.00000000 6680.00000000 -770.00000000 210 109 96 0.000000 0.000000 0.000000 0.000000 -60.708740 0.000000 89.000000 0.869114 -0.392552 -0.300906
-16760.00000000 6660.00000000 -760.00000000 210 109 96 0.000000 0.000000 0.000000 0.000000 -60.708740 0.000000 89.000000 0.889993 -0.452516 -0.056052
-16760.00000000 6660.00000000 -750.00000000 210 109 96 0.000000 0.000000 0.000000 0.000000 -60.708740 0.000000 89.000000 0.984159 -0.160655 -0.074972
-16730.00000000 6700.00000000 -790.00000000 210 109 96 0.000000 0.000000 0.000000 0.000000 -60.708740 0.000000 89.000000 0.784908 -0.581356 0.214346
-16750.00000000 6670.00000000 -810.00000000 210 109 96 0.000000 0.000000 0.000000 0.000000 -60.708740 0.000000 89.000000 0.952019 -0.228214 0.203908
-16760.00000000 6670.00000000 -780.00000000 210 109 96 0.000000 0.000000 0.000000 0.000000 -60.708740 0.000000 89.000000 0.958652 -0.135077 0.250482
-16740.00000000 6630.00000000 -820.00000000 210 109 96 0.000000 0.000000 0.000000 0.000000 -60.708740 0.000000 89.000000 0.917617 0.153170 -0.366766
-16760.00000000 6650.00000000 -850.00000000 210 109 96 0.000000 0.000000 0.000000 0.000000 -60.708740 0.000000 89.000000 0.958392 -0.001215 -0.285453
-16770.00000000 6650.00000000 -700.00000000 210 109 96 0.000000 0.000000 0.000000 0.000000 -60.708740 0.000000 89.000000 0.977026 -0.207903 -0.046868
-16770.00000000 6640.00000000 -770.00000000 210 109 96 0.000000 0.000000 0.000000 0.000000 -60.708740 0.000000 89.000000 0.950675 -0.303132 -0.065786
-16790.00000000 6620.00000000 -820.00000000 210 109 96 0.000000 0.000000 0.000000 0.000000 -60.708740 0.000000 89.000000 0.968810 -0.213164 -0.126367
-16780.00000000 6630.00000000 -800.00000000 210 109 96 0.000000 0.000000 0.000000 0.000000 -60.708740 0.000000 89.000000 0.964462 -0.157490 0.212156
-16770.00000000 6620.00000000 -850.00000000 210 109 96 0.000000 0.000000 0.000000 0.000000 -60.708740 0.000000 89.000000 0.952143 -0.289441 0.098227
-16770.00000000 6640.00000000 -860.00000000 210 109 96 0.000000 0.000000 0.000000 0.000000 -60.708740 0.000000 89.000000 0.949740 -0.307156 0.060403
-16770.00000000 6660.00000000 -850.00000000 210 109 96 0.000000 0.000000 0.000000 0.000000 -60.708740 0.000000 89.000000 0.889991 -0.418048 -0.182077
-16790.00000000 6580.00000000 -740.00000000 210 109 96 0.000000 0.000000 0.000000 0.000000 -60.708740 0.000000 89.000000 0.992849 -0.064383 -0.100527
-16800.00000000 6560.00000000 -720.00000000 210 109 96 0.000000 0.000000 0.000000 0.000000 -60.708740 0.000000 89.000000 0.997674 0.052284 0.043748
-16790.00000000 6570.00000000 -750.00000000 210 109 96 0.000000 0.000000 0.000000 0.000000 -60.708740 0.000000 89.000000 0.954256 0.275089 -0.117143
-16820.00000000 6570.00000000 -720.00000000 210 109 96 0.000000 0.000000 0.000000 0.000000 -60.708740 0.000000 89.000000 0.862089 0.485745 -0.144411
-16780.00000000 6610.00000000 -810.00000000 210 109 96 0.000000 0.000000 0.000000 0.000000 -60.708740 0.000000 89.000000 0.976411 0.214739 -0.022542
-16790.00000000 6590.00000000 -780.00000000 210 109 96 0.000000 0.000000 0.000000 0.000000 -60.708740 0.000000 89.000000 0.991782 -0.023375 0.125782
-16770.00000000 6610.00000000 -820.00000000 210 109 96 0.000000 0.000000 0.000000 0.000000 -60.708740 0.000000 89.000000 0.986138 -0.024108 0.164165
-16790.00000000 6580.00000000 -810.00000000 210 109 96 0.000000 0.000000 0.000000 0.000000 -60.708740 0.000000 89.000000 0.968356 0.078922 0.236765
-16790.00000000 6580.00000000 -800.00000000 210 109 96 0.000000 0.000000 0.000000 0.000000 -60.708740 0.000000 89.000000 0.991232 -0.060455 -0.117488
-16790.00000000 6590.00000000 -860.00000000 210 109 96 0.000000 0.000000 0.000000 0.000000 -60.708740 0.000000 89.000000 0.933686 0.042973 -0.355504
-16780.00000000 6600.00000000 -850.00000000 210 109 96 0.000000 0.000000 0.000000 0.000000 -60.708740 0.000000 89.000000 0.986216 -0.159142 -0.045303
-16780.00000000 6540.00000000 -800.00000000 210 109 96 0.000000 0.000000 0.000000 0.000000 -60.708740 0.000000 89.000000 0.839679 0.460970 0.287136
-16800.00000000 6560.00000000 -790.00000000 210 109 96 0.000000 0.000000 0.000000 0.000000 -60.708740 0.000000 89.000000 0.961249 0.274467 0.025847
-16790.00000000 6550.00000000 -810.00000000 210 109 96 0.000000 0.000000 0.000000 0.000000 -60.708740 0.000000 89.000000 0.767178 0.573398 0.287493
-16790.00000000 6550.00000000 -800.00000000 210 109 96 0.000000 0.000000 0.000000 0.000000 -60.708740 0.000000 89.000000 0.884236 0.464599 -0.047686
-16770.00000000 6540.00000000 -820.00000000 210 109 96 0.000000 0.000000 0.000000 0.000000 -60.708740 0.000000 89.000000 0.949820 0.291947 0.112287
-16780.00000000 6540.00000000 -820.00000000 210 109 96 0.000000 0.000000 0.000000 0.000000 -60.708740 0.000000 89.000000 0.626876 0.717120 -0.304575
-16790.00000000 6570.00000000 -780.00000000 210 109 96 0.000000 0.000000 0.000000 0.000000 -60.708740 0.000000 89.000000 0.896659 0.423540 -0.128904
-16790.00000000 6560.00000000 -840.00000000 210 109 96 0.000000 0.000000 0.000000 0.000000 -60.708740 0.000000 89.000000 0.838625 0.427934 0.337018
-16780.00000000 6550.00000000 -860.00000000 210 109 96 0.000000 0.000000 0.000000 0.000000 -60.708740 0.000000 89.000000 0.993752 0.054774 -0.097251
-16790.00000000 6570.00000000 -860.00000000 210 109 96 0.000000 0.000000 0.000000 0.000000 -60.708740 0.000000 89.000000 0.989149 0.087587 -0.117950
-16780.00000000 6560.00000000 -860.00000000 210 109 96 0.000000 0.000000 0.000000 0.000000 -60.708740 0.000000 89.000000 0.984753 0.173106 0.017196
-16780.00000000 6560.00000000 -850.00000000 210 109 96 0.000000 0.000000 0.000000 0.000000 -60.708740 0.000000 89.000000 0.895616 0.370345 0.246405
-16780.00000000 6560.00000000 -840.00000000 210 109 96 0.000000 0.000000 0.000000 0.000000 -60.708740 0.000000 89.000000 0.766887 0.601999 0.222444
-16810.00000000 6570.00000000 -810.00000000 210 109 96 0.000000 0.000000 0.000000 0.000000 -60.708740 0.000000 89.000000 0.952786 0.070911 -0.295248
-16700.00000000 6700.00000000 -870.00000000 210 109 96 0.000000 0.000000 0.000000 0.000000 -60.708740 0.000000 89.000000 -0.553166 0.824640 0.118223
-16740.00000000 6690.00000000 -900.00000000 210 109 96 0.000000 0.000000 0.000000 0.000000 -60.708740 0.000000 89.000000 0.813549 -0.544910 -0.203006
-16730.00000000 6690.00000000 -890.00000000 210 109 96 0.000000 0.000000 0.000000 0.000000 -60.708740 0.000000 89.000000 0.910216 -0.406808 -0.077552
-16750.00000000 6670.00000000 -880.00000000 210 109 96 0.000000 0.000000 0.000000 0.000000 -60.708740 0.000000 89.000000 0.846244 -0.531491 0.037273
-16740.00000000 6700.00000000 -940.00000000 210 109 96 0.000000 0.000000 0.000000 0.000000 -60.708740 0.000000 89.000000 -0.682619 0.710107 -0.172564
-16740.00000000 6680.00000000 -910.00000000 210 109 96 0.000000 0.000000 0.000000 0.000000 -60.708740 0.000000 89.000000 0.993685 -0.110653 -0.018625
-16750.00000000 6660.00000000 -890.00000000 210 109 96 0.000000 0.000000 0.000000 0.000000 -60.708740 0.000000 89.000000 0.907521 -0.375377 0.188408
-16760.00000000 6650.00000000 -940.00000000 210 109 96 0.000000 0.000000 0.000000 0.000000 -60.708740 0.000000 89.000000 0.950885 -0.264957 0.160050
-16720.00000000 6700.00000000 -1010.00000000 210 109 96 0.000000 0.000000 0.000000 0.000000 -60.708740 0.000000 89.000000 0.803612 -0.582434 0.122385
-16740.00000000 6680.00000000 -960.00000000 210 109 96 0.000000 0.000000 0.000000 0.000000 -60.708740 0.000000 89.000000 0.934571 -0.231191 0.270423
-16730.00000000 6700.00000000 -970.00000000 210 109 96 0.000000 0.000000 0.000000 0.000000 -60.708740 0.000000 89.000000 0.776794 -0.629495 -0.018065
-16750.00000000 6670.00000000 -1020.00000000 210 109 96 0.000000 0.000000 0.000000 0.000000 -60.708740 0.000000 89.000000 0.846244 -0.531491 -0.037273
-16750.00000000 6690.00000000 -1000.00000000 210 109 96 0.000000 0.000000 0.000000 0.000000 -60.708740 0.000000 89.000000 0.708194 -0.654085 0.265772
-16750.00000000 6670.00000000 -1000.00000000 210 109 96 0.000000 0.000000 0.000000 0.000000 -60.708740 0.000000 89.000000 0.945717 -0.158750 0.283579
-16750.00000000 6690.00000000 -990.00000000 210 109 96 0.000000 0.000000 0.000000 0.000000 -60.708740 0.000000 89.000000 -0.680088 0.729391 -0.073954
-16750.00000000 6670.00000000 -1010.00000000 210 109 96 0.000000 0.000000 0.000000 0.000000 -60.708740 0.000000 89.000000 0.870967 -0.490513 -0.028534
-16750.00000000 6650.00000000 -980.00000000 210 109 96 0.000000 0.000000 0.000000 0.000000 -60.708740 0.000000 89.000000 0.862308 -0.501732 0.068482
-16760.00000000 6660.00000000 -980.00000000 210 109 96 0.000000 0.000000 0.000000 0.000000 -60.708740 0.000000 89.000000 0.968727 0.110458 0.222185
-16750.00000000 6660.00000000 -1020.00000000 210 109 96 0.000000 0.000000 0.000000 0.000000 -60.708740 0.000000 89.000000 0.802443 -0.596689 -0.006858
-16750.00000000 6660.00000000 -1010.00000000 210 109 96 0.000000 0.000000 0.000000 0.000000 -60.708740 0.000000 89.000000 0.797640 -0.564034 -0.213626
-16750.00000000 6650.00000000 -1000.00000000 210 109 96 0.000000 0.000000 0.000000 0.000000 -60.708740 0.000000 89.000000 0.874935 -0.476088 -0.088477
-16750.00000000 6650.00000000 -990.00000000 210 109 96 0.000000 0.000000 0.000000 0.000000 -60.708740 0.000000 89.000000 0.879041 -0.476427 0.017447
-16760.00000000 6650.00000000 -1020.00000000 210 109 96 0.000000 0.000000 0.000000 0.000000 -60.708740 0.000000 89.000000 0.902937 -0.412971 -0.118992
-16760.00000000 6640.00000000 -1030.00000000 210 109 96 0.000000 0.000000 0.000000 0.000000 -60.708740 0.000000 89.000000 0.925465 -0.378658 -0.011552
-16750.00000000 6660.00000000 -990.00000000 210 109 96 0.000000 0.000000 0.000000 0.000000 -60.708740 0.000000 89.000000 0.987488 -0.141739 0.069112
-16760.00000000 6660.00000000 -1020.00000000 210 109 96 0.000000 0.000000 0.000000 0.000000 -60.708740 0.000000 89.000000 0.848667 -0.475193 -0.232283
-16760.00000000 6620.00000000 -990.00000000 210 109 96 0.000000 0.000000 0.000000 0.000000 -60.708740 0.000000 89.000000 0.923412 0.065481 -0.378184
-16760.00000000 6570.00000000 -1030.00000000 210 109 96 0.000000 0.000000 0.000000 0.000000 -60.708740 0.000000 89.000000 0.809171 0.587100 -0.023595
-16740.00000000 6560.00000000 -1020.00000000 210 109 96 0.000000 0.000000 0.000000 0.000000 -60.708740 0.000000 89.000000 0.972049 0.177084 0.154152
-16770.00000000 6640.00000000 -880.00000000 210 109 96 0.000000 0.000000 0.000000 0.000000 -60.708740 0.000000 89.000000 0.923473 -0.366370 -0.113890
-16770.00000000 6640.00000000 -880.00000000 210 109 96 0.000000 0.000000 0.000000 0.000000 -60.708740 0.000000 89.000000 0.923473 -0.366370 -0.113890
-16770.00000000 6620.00000000 -930.00000000 210 109 96 0.000000 0.000000 0.000000 0.000000 -60.708740 0.000000 89.000000 0.967050 -0.185125 -0.174768
-16790.00000000 6680.00000000 -960.00000000 210 109 96 0.000000 0.000000 0.000000 0.000000 -60.708740 0.000000 89.000000 0.793535 -0.604802 0.067200
-16770.00000000 6630.00000000 -980.00000000 210 109 96 0.000000 0.000000 0.000000 0.000000 -60.708740 0.000000 89.000000 0.965737 0.208703 -0.154259
-16770.00000000 6640.00000000 -1000.00000000 210 109 96 0.000000 0.000000 0.000000 0.000000 -60.708740 0.000000 89.000000 0.887649 -0.383405 0.255106
-16770.00000000 6630.00000000 -990.00000000 210 109 96 0.000000 0.000000 0.000000 0.000000 -60.708740 0.000000 89.000000 0.978107 0.199490 -0.059243
-16770.00000000 6650.00000000 -1020.00000000 210 109 96 0.000000 0.000000 0.000000 0.000000 -60.708740 0.000000 89.000000 0.841806 -0.420122 -0.338909
-16790.00000000 6590.00000000 -890.00000000 210 109 96 0.000000 0.000000 0.000000 0.000000 -60.708740 0.000000 89.000000 0.993878 -0.088519 0.066109
-16790.00000000 6590.00000000 -900.00000000 210 109 96 0.000000 0.000000 0.000000 0.000000 -60.708740 0.000000 89.000000 0.998801 0.042702 0.023955
-16770.00000000 6590.00000000 -870.00000000 210 109 96 0.000000 0.000000 0.000000 0.000000 -60.708740 0.000000 89.000000 0.967107 0.153653 0.202718
-16790.00000000 6590.00000000 -920.00000000 210 109 96 0.000000 0.000000 0.000000 0.000000 -60.708740 0.000000 89.000000 0.936687 0.199029 0.288104
-16780.00000000 6580.00000000 -930.00000000 210 109 96 0.000000 0.000000 0.000000 0.000000 -60.708740 0.000000 89.000000 0.979553 0.008134 0.201023
-16780.00000000 6590.00000000 -940.00000000 210 109 96 0.000000 0.000000 0.000000 0.000000 -60.708740 0.000000 89.000000 0.983163 -0.060630 -0.172380
-16780.00000000 6590.00000000 -930.00000000 210 109 96 0.000000 0.000000 0.000000 0.000000 -60.708740 0.000000 89.000000 0.988525 -0.111400 0.102019
-16780.00000000 6570.00000000 -890.00000000 210 109 96 0.000000 0.000000 0.000000 0.000000 -60.708740 0.000000 89.000000 0.994962 -0.045276 0.089447
-16780.00000000 6560.00000000 -900.00000000 210 109 96 0.000000 0.000000 0.000000 0.000000 -60.708740 0.000000 89.000000 0.979090 0.134919 0.152248
-16780.00000000 6540.00000000 -870.00000000 210 109 96 0.000000 0.000000 0.000000 0.000000 -60.708740 0.000000 89.000000 0.958821 0.198148 -0.203467
-16790.00000000 6570.00000000 -870.00000000 210 109 96 0.000000 0.000000 0.000000 0.000000 -60.708740 0.000000 89.000000 0.954003 0.175773 -0.242862
-16780.00000000 6560.00000000 -920.00000000 210 109 96 0.000000 0.000000 0.000000 0.000000 -60.708740 0.000000 89.000000 0.944449 0.226833 0.237831
-16780.00000000 6560.00000000 -940.00000000 210 109 96 0.000000 0.000000 0.000000 0.000000 -60.708740 0.000000 89.000000 0.955880 0.086663 -0.280685
-16790.00000000 6560.00000000 -910.00000000 210 109 96 0.000000 0.000000 0.000000 0.000000 -60.708740 0.000000 89.000000 0.962488 0.125994 0.240297
-16770.00000000 6550.00000000 -930.00000000 210 109 96 0.000000 0.000000 0.000000 0.000000 -60.708740 0.000000 89.000000 0.920277 0.369495 0.128700
-16790.00000000 6610.00000000 -980.00000000 210 109 96 0.000000 0.000000 0.000000 0.000000 -60.708740 0.000000 89.000000 0.903324 0.423731 -0.066762
-16790.00000000 6610.00000000 -980.00000000 210 109 96 0.000000 0.000000 0.000000 0.000000 -60.708740 0.000000 89.000000 0.903324 0.423731 -0.066762
-16770.00000000 6610.00000000 -1030.00000000 210 109 96 0.000000 0.000000 0.000000 0.000000 -60.708740 0.000000 89.000000 0.941644 0.116866 0.315672
-16780.00000000 6590.00000000 -1030.00000000 210 109 96 0.000000 0.000000 0.000000 0.000000 -60.708740 0.000000 89.000000 0.984600 -0.138253 0.106996
-16770.00000000 6540.00000000 -950.00000000 210 109 96 0.000000 0.000000 0.000000 0.000000 -60.708740 0.000000 89.000000 0.992008 0.126056 0.005481
-16790.00000000 6550.00000000 -960.00000000 210 109 96 0.000000 0.000000 0.000000 0.000000 -60.708740 0.000000 89.000000 0.998535 0.051127 0.017738
-16780.00000000 6540.00000000 -960.00000000 210 109 96 0.000000 0.000000 0.000000 0.000000 -60.708740 0.000000 89.000000 0.981660 0.156920 0.108262
-16850.00000000 6610.00000000 -950.00000000 210 109 96 0.000000 0.000000 0.000000 0.000000 -60.708740 0.000000 89.000000 0.953983 -0.186503 -0.234806
-16840.00000000 6570.00000000 -950.00000000 210 109 96 0.000000 0.000000 0.000000 0.000000 -60.708740 0.000000 89.000000 0.961173 0.129113 -0.243880
-16750.00000000 6470.00000000 -750.00000000 210 109 96 0.000000 0.000000 0.000000 0.000000 -60.708740 0.000000 89.000000 0.550753 0.832468 0.060569
-16750.00000000 6480.00000000 -730.00000000 210 109 96 0.000000 0.000000 0.000000 0.000000 -60.708740 0.000000 89.000000 0.630097 0.640126 -0.439564
-16730.00000000 6460.00000000 -740.00000000 210 109 96 0.000000 0.000000 0.000000 0.000000 -60.708740 0.000000 89.000000 0.754142 0.653205 0.067772
-16760.00000000 6510.00000000 -730.00000000 210 109 96 0.000000 0.000000 0.000000 0.000000 -60.708740 0.000000 89.000000 0.815526 0.550216 -0.179386
-16720.00000000 6460.00000000 -800.00000000 210 109 96 0.000000 0.000000 0.000000 0.000000 -60.708740 0.000000 89.000000 0.629392 0.722279 0.286669
-16720.00000000 6480.00000000 -820.00000000 210 109 96 0.000000 0.000000 0.000000 0.000000 -60.708740 0.000000 89.000000 0.704085 0.698105 -0.130054
-16750.00000000 6500.00000000 -840.00000000 210 109 96 0.000000 0.000000 0.000000 0.000000 -60.708740 0.000000 89.000000 0.828470 0.536944 0.159150
-16750.00000000 6500.00000000 -840.00000000 210 109 96 0.000000 0.000000 0.000000 0.000000 -60.708740 0.000000 89.000000 0.828470 0.536944 0.159150
-16740.00000000 6500.00000000 -860.00000000 210 109 96 0.000000 0.000000 0.000000 0.000000 -60.708740 0.000000 89.000000 0.628406 0.768051 -0.123304
-16740.00000000 6500.00000000 -860.00000000 210 109 96 0.000000 0.000000 0.000000 0.000000 -60.708740 0.000000 89.000000 0.628406 0.768051 -0.123304
-16730.00000000 6470.00000000 -810.00000000 210 109 96 0.000000 0.000000 0.000000 0.000000 -60.708740 0.000000 89.000000 0.574584 0.806200 0.141048
-16740.00000000 6480.00000000 -810.00000000 210 109 96 0.000000 0.000000 0.000000 0.000000 -60.708740 0.000000 89.000000 0.685677 0.685677 -0.244322
-16740.00000000 6470.00000000 -800.00000000 210 109 96 0.000000 0.000000 0.000000 0.000000 -60.708740 0.000000 89.000000 0.683379 0.704976 0.189742
-16730.00000000 6470.00000000 -810.00000000 210 109 96 0.000000 0.000000 0.000000 0.000000 -60.708740 0.000000 89.000000 0.574584 0.806200 0.141048
-16760.00000000 6480.00000000 -810.00000000 210 109 96 0.000000 0.000000 0.000000 0.000000 -60.708740 0.000000 89.000000 0.790964 0.610495 0.040888
-16740.00000000 6470.00000000 -790.00000000 210 109 96 0.000000 0.000000 0.000000 0.000000 -60.708740 0.000000 89.000000 0.637173 0.717019 0.282656
-16740.00000000 6470.00000000 -830.00000000 210 109 96 0.000000 0.000000 0.000000 0.000000 -60.708740 0.000000 89.000000 0.312461 0.949832 -0.013694
-16750.00000000 6450.00000000 -720.00000000 210 109 96 0.000000 0.000000 0.000000 0.000000 -60.708740 0.000000 89.000000 0.282507 0.936586 -0.207357
-16730.00000000 6450.00000000 -760.00000000 210 109 96 0.000000 0.000000 0.000000 0.000000 -60.708740 0.000000 89.000000 0.499644 0.862765 -0.077410
-16750.00000000 6440.00000000 -720.00000000 210 109 96 0.000000 0.000000 0.000000 0.000000 -60.708740 0.000000 89.000000 0.381950 0.910149 0.160447
-16720.00000000 6450.00000000 -730.00000000 210 109 96 0.000000 0.000000 0.000000 0.000000 -60.708740 0.000000 89.000000 0.770809 0.636512 0.026580
-16720.00000000 6440.00000000 -730.00000000 210 109 96 0.000000 0.000000 0.000000 0.000000 -60.708740 0.000000 89.000000 0.546776 0.794313 -0.264771
-16740.00000000 6450.00000000 -760.00000000 210 109 96 0.000000 0.000000 0.000000 0.000000 -60.708740 0.000000 89.000000 0.426943 0.895019 0.129076
-16720.00000000 6440.00000000 -720.00000000 210 109 96 0.000000 0.000000 0.000000 0.000000 -60.708740 0.000000 89.000000 0.591413 0.788046 -0.170920
-16690.00000000 6430.00000000 -780.00000000 210 109 96 0.000000 0.000000 0.000000 0.000000 -60.708740 0.000000 89.000000 0.599667 0.797171 0.070128
-16700.00000000 6430.00000000 -780.00000000 210 109 96 0.000000 0.000000 0.000000 0.000000 -60.708740 0.000000 89.000000 0.564566 0.776476 -0.279911
-16710.00000000 6440.00000000 -820.00000000 210 109 96 0.000000 0.000000 0.000000 0.000000 -60.708740 0.000000 89.000000 0.571352 0.820368 0.023518
-16690.00000000 6430.00000000 -780.00000000 210 109 96 0.000000 0.000000 0.000000 0.000000 -60.708740 0.000000 89.000000 0.599667 0.797171 0.070128
-16720.00000000 6450.00000000 -800.00000000 210 109 96 0.000000 0.000000 0.000000 0.000000 -60.708740 0.000000 89.000000 0.593288 0.780320 0.197763
-16690.00000000 6440.00000000 -800.00000000 210 109 96 0.000000 0.000000 0.000000 0.000000 -60.708740 0.000000 89.000000 0.423792 0.899334 -0.107696
-16720.00000000 6450.00000000 -840.00000000 210 109 96 0.000000 0.000000 0.000000 0.000000 -60.708740 0.000000 89.000000 0.350982 0.932837 0.081406
-16700.00000000 6440.00000000 -820.00000000 210 109 96 0.000000 0.000000 0.000000 0.000000 -60.708740 0.000000 89.000000 0.202765 0.964116 0.171369
-16730.00000000 6450.00000000 -840.00000000 210 109 96 0.000000 0.000000 0.000000 0.000000 -60.708740 0.000000 89.000000 0.656889 0.727987 -0.196294
-16700.00000000 6450.00000000 -800.00000000 210 109 96 0.000000 0.000000 0.000000 0.000000 -60.708740 0.000000 89.000000 0.566927 0.790591 -0.231430
-16800.00000000 6520.00000000 -730.00000000 210 109 96 0.000000 0.000000 0.000000 0.000000 -60.708740 0.000000 89.000000 0.973953 0.226747 0.001175
-16800.00000000 6530.00000000 -720.00000000 210 109 96 0.000000 0.000000 0.000000 0.000000 -60.708740 0.000000 89.000000 0.787832 0.615537 0.020842
-16800.00000000 6500.00000000 -720.00000000 210 109 96 0.000000 0.000000 0.000000 0.000000 -60.708740 0.000000 89.000000 0.903690 0.342374 0.257148
-16780.00000000 6510.00000000 -740.00000000 210 109 96 0.000000 0.000000 0.000000 0.000000 -60.708740 0.000000 89.000000 0.548109 0.816879 -0.179683
-16790.00000000 6530.00000000 -750.00000000 210 109 96 0.000000 0.000000 0.000000 0.000000 -60.708740 0.000000 89.000000 0.810648 0.556089 0.183343
-16770.00000000 6500.00000000 -760.00000000 210 109 96 0.000000 0.000000 0.000000 0.000000 -60.708740 0.000000 89.000000 0.656222 0.700928 0.279413
-16780.00000000 6510.00000000 -740.00000000 210 109 96 0.000000 0.000000 0.000000 0.000000 -60.708740 0.000000 89.000000 0.548109 0.816879 -0.179683
-16770.00000000 6520.00000000 -750.00000000 210 109 96 0.000000 0.000000 0.000000 0.000000 -60.708740 0.000000 89.000000 0.871318 0.487441 0.056615
-16770.00000000 6470.00000000 -730.00000000 210 109 96 0.000000 0.000000 0.000000 0.000000 -60.708740 0.000000 89.000000 0.800122 0.529747 0.281379
-16770.00000000 6470.00000000 -710.00000000 210 109 96 0.000000 0.000000 0.000000 0.000000 -60.708740 0.000000 89.000000 0.843494 0.532659 -0.069231
-16770.00000000 6490.00000000 -750.00000000 210 109 96 0.000000 0.000000 0.000000 0.000000 -60.708740 0.000000 89.000000 0.699779 0.713859 0.026752
-16830.00000000 6530.00000000 -700.00000000 210 109 96 0.000000 0.000000 0.000000 0.000000 -60.708740 0.000000 89.000000 0.932288 0.229205 0.279827
-16820.00000000 6530.00000000 -720.00000000 210 109 96 0.000000 0.000000 0.000000 0.000000 -60.708740 0.000000 89.000000 0.736892 0.673934 0.052942
-16770.00000000 6520.00000000 -790.00000000 210 109 96 0.000000 0.000000 0.000000 0.000000 -60.708740 0.000000 89.000000 0.685430 0.709747 0.162619
-16780.00000000 6530.00000000 -780.00000000 210 109 96 0.000000 0.000000 0.000000 0.000000 -60.708740 0.000000 89.000000 0.792607 0.533151 0.295843
-16790.00000000 6500.00000000 -780.00000000 210 109 96 0.000000 0.000000 0.000000 0.000000 -60.708740 0.000000 89.000000 0.671150 0.658087 0.341291
-16780.00000000 6500.00000000 -810.00000000 210 109 96 0.000000 0.000000 0.000000 0.000000 -60.708740 0.000000 89.000000 0.779278 0.603751 -0.167961
-16720.00000000 6470.00000000 -880.00000000 210 109 96 0.000000 0.000000 0.000000 0.000000 -60.708740 0.000000 89.000000 0.700752 0.632465 -0.330052
-16720.00000000 6460.00000000 -890.00000000 210 109 96 0.000000 0.000000 0.000000 0.000000 -60.708740 0.000000 89.000000 0.690722 0.668389 0.275970
-16710.00000000 6470.00000000 -900.00000000 210 109 96 0.000000 0.000000 0.000000 0.000000 -60.708740 0.000000 89.000000 0.400205 0.879852 0.256311
-16720.00000000 6470.00000000 -900.00000000 210 109 96 0.000000 0.000000 0.000000 0.000000 -60.708740 0.000000 89.000000 0.480374 0.862323 0.160125
-16720.00000000 6460.00000000 -890.00000000 210 109 96 0.000000 0.000000 0.000000 0.000000 -60.708740 0.000000 89.000000 0.690722 0.668389 0.275970
-16710.00000000 6460.00000000 -920.00000000 210 109 96 0.000000 0.000000 0.000000 0.000000 -60.708740 0.000000 89.000000 0.612990 0.788535 0.049549
-16720.00000000 6470.00000000 -940.00000000 210 109 96 0.000000 0.000000 0.000000 0.000000 -60.708740 0.000000 89.000000 0.599149 0.787410 0.144931
-16710.00000000 6460.00000000 -910.00000000 210 109 96 0.000000 0.000000 0.000000 0.000000 -60.708740 0.000000 89.000000 0.544208 0.838816 -0.015003
-16690.00000000 6460.00000000 -940.00000000 210 109 96 0.000000 0.000000 0.000000 0.000000 -60.708740 0.000000 89.000000 0.511212 0.848114 0.139155
-16740.00000000 6500.00000000 -890.00000000 210 109 96 0.000000 0.000000 0.000000 0.000000 -60.708740 0.000000 89.000000 0.737809 0.655998 0.159076
-16740.00000000 6500.00000000 -890.00000000 210 109 96 0.000000 0.000000 0.000000 0.000000 -60.708740 0.000000 89.000000 0.737809 0.655998 0.159076
-16740.00000000 6510.00000000 -930.00000000 210 109 96 0.000000 0.000000 0.000000 0.000000 -60.708740 0.000000 89.000000 0.740415 0.648817 0.175562
-16730.00000000 6500.00000000 -940.00000000 210 109 96 0.000000 0.000000 0.000000 0.000000 -60.708740 0.000000 89.000000 0.343042 0.895472 -0.283640
-16750.00000000 6510.00000000 -940.00000000 210 109 96 0.000000 0.000000 0.000000 0.000000 -60.708740 0.000000 89.000000 0.841684 0.516252 0.158278
-16750.00000000 6490.00000000 -870.00000000 210 109 96 0.000000 0.000000 0.000000 0.000000 -60.708740 0.000000 89.000000 0.498446 0.828685 0.254624
-16730.00000000 6490.00000000 -870.00000000 210 109 96 0.000000 0.000000 0.000000 0.000000 -60.708740 0.000000 89.000000 0.619870 0.774465 0.126352
-16730.00000000 6480.00000000 -880.00000000 210 109 96 0.000000 0.000000 0.000000 0.000000 -60.708740 0.000000 89.000000 0.778152 0.531069 -0.335328
-16730.00000000 6480.00000000 -940.00000000 210 109 96 0.000000 0.000000 0.000000 0.000000 -60.708740 0.000000 89.000000 0.700305 0.694202 0.166303
-16730.00000000 6470.00000000 -920.00000000 210 109 96 0.000000 0.000000 0.000000 0.000000 -60.708740 0.000000 89.000000 0.330497 0.943739 0.011310
-16740.00000000 6480.00000000 -920.00000000 210 109 96 0.000000 0.000000 0.000000 0.000000 -60.708740 0.000000 89.000000 0.877910 0.463936 -0.118482
-16740.00000000 6470.00000000 -910.00000000 210 109 96 0.000000 0.000000 0.000000 0.000000 -60.708740 0.000000 89.000000 0.870380 0.482601 -0.097652
-16740.00000000 6470.00000000 -910.00000000 210 109 96 0.000000 0.000000 0.000000 0.000000 -60.708740 0.000000 89.000000 0.870380 0.482601 -0.097652
-16720.00000000 6460.00000000 -970.00000000 210 109 96 0.000000 0.000000 0.000000 0.000000 -60.708740 0.000000 89.000000 0.470062 0.881875 -0.036575
-16710.00000000 6460.00000000 -980.00000000 210 109 96 0.000000 0.000000 0.000000 0.000000 -60.708740 0.000000 89.000000 0.170495 0.985209 0.017164
-16720.00000000 6470.00000000 -970.00000000 210 109 96 0.000000 0.000000 0.000000 0.000000 -60.708740 0.000000 89.000000 0.658914 0.751640 0.029504
-16700.00000000 6460.00000000 -980.00000000 210 109 96 0.000000 0.000000 0.000000 0.000000 -60.708740 0.000000 89.000000 0.499423 0.860037 -0.104464
-16690.00000000 6470.00000000 -1000.00000000 210 109 96 0.000000 0.000000 0.000000 0.000000 -60.708740 0.000000 89.000000 0.332150 0.878149 0.344283
-16690.00000000 6480.00000000 -1010.00000000 210 109 96 0.000000 0.000000 0.000000 0.000000 -60.708740 0.000000 89.000000 0.614658 0.741719 -0.268417
-16710.00000000 6480.00000000 -990.00000000 210 109 96 0.000000 0.000000 0.000000 0.000000 -60.708740 0.000000 89.000000 0.552136 0.788091 0.272135
-16690.00000000 6470.00000000 -1020.00000000 210 109 96 0.000000 0.000000 0.000000 0.000000 -60.708740 0.000000 89.000000 0.533178 0.827552 0.175723
-16700.00000000 6480.00000000 -1010.00000000 210 109 96 0.000000 0.000000 0.000000 0.000000 -60.708740 0.000000 89.000000 0.468942 0.883107 0.014696
-16690.00000000 6460.00000000 -990.00000000 210 109 96 0.000000 0.000000 0.000000 0.000000 -60.708740 0.000000 89.000000 0.340416 0.871648 0.352628
-16700.00000000 6470.00000000 -1010.00000000 210 109 96 0.000000 0.000000 0.000000 0.000000 -60.708740 0.000000 89.000000 0.545923 0.812004 0.206442
-16720.00000000 6470.00000000 -1000.00000000 210 109 96 0.000000 0.000000 0.000000 0.000000 -60.708740 0.000000 89.000000 0.454996 0.883061 0.114812
-16700.00000000 6470.00000000 -1020.00000000 210 109 96 0.000000 0.000000 0.000000 0.000000 -60.708740 0.000000 89.000000 0.373344 0.927586 -0.014113
-16760.00000000 6510.00000000 -970.00000000 210 109 96 0.000000 0.000000 0.000000 0.000000 -60.708740 0.000000 89.000000 0.901246 0.380008 -0.208204
-16750.00000000 6500.00000000 -960.00000000 210 109 96 0.000000 0.000000 0.000000 0.000000 -60.708740 0.000000 89.000000 0.374963 0.924731 -0.065385
-16750.00000000 6500.00000000 -950.00000000 210 109 96 0.000000 0.000000 0.000000 0.000000 -60.708740 0.000000 89.000000 0.821377 0.552025 -0.143556
-16750.00000000 6510.00000000 -950.00000000 210 109 96 0.000000 0.000000 0.000000 0.000000 -60.708740 0.000000 89.000000 0.775728 0.548608 -0.311891
-16740.00000000 6510.00000000 -1000.00000000 210 109 96 0.000000 0.000000 0.000000 0.000000 -60.708740 0.000000 89.000000 0.679646 0.718828 0.146177
-16740.00000000 6530.00000000 -1030.00000000 210 109 96 0.000000 0.000000 0.000000 0.000000 -60.708740 0.000000 89.000000 0.673626 0.654054 0.344153
-16760.00000000 6530.00000000 -1000.00000000 210 109 96 0.000000 0.000000 0.000000 0.000000 -60.708740 0.000000 89.000000 0.678190 0.671747 0.298017
-16760.00000000 6530.00000000 -1030.00000000 210 109 96 0.000000 0.000000 0.000000 0.000000 -60.708740 0.000000 89.000000 0.800158 0.599071 0.029325
-16760.00000000 6530.00000000 -1030.00000000 210 109 96 0.000000 0.000000 0.000000 0.000000 -60.708740 0.000000 89.000000 0.800158 0.599071 0.029325
-16760.00000000 6520.00000000 -990.00000000 210 109 96 0.000000 0.000000 0.000000 0.000000 -60.708740 0.000000 89.000000 0.810054 0.554727 0.189975
-16730.00000000 6490.00000000 -990.00000000 210 109 96 0.000000 0.000000 0.000000 0.000000 -60.708740 0.000000 89.000000 0.782269 0.576982 0.234836
-16740.00000000 6490.00000000 -990.00000000 210 109 96 0.000000 0.000000 0.000000 0.000000 -60.708740 0.000000 89.000000 0.535470 0.808637 -0.243677
-16710.00000000 6450.00000000 -920.00000000 210 109 96 0.000000 0.000000 0.000000 0.000000 -60.708740 0.000000 89.000000 0.477621 0.877679 0.039462
-16690.00000000 6450.00000000 -880.00000000 210 109 96 0.000000 0.000000 0.000000 0.000000 -60.708740 0.000000 89.000000 0.655151 0.739881 0.152818
-16690.00000000 6440.00000000 -950.00000000 210 109 96 0.000000 0.000000 0.000000 0.000000 -60.708740 0.000000 89.000000 0.341722 0.904903 -0.253725
-16770.00000000 6530.00000000 -890.00000000 210 109 96 0.000000 0.000000 0.000000 0.000000 -60.708740 0.000000 89.000000 0.915826 0.401405 -0.011691
-16780.00000000 6530.00000000 -880.00000000 210 109 96 0.000000 0.000000 0.000000 0.000000 -60.708740 0.000000 89.000000 0.719085 0.683205 0.127073
-16780.00000000 6530.00000000 -870.00000000 210 109 96 0.000000 0.000000 0.000000 0.000000 -60.708740 0.000000 89.000000 0.810552 0.585627 -0.006857
-16780.00000000 6530.00000000 -910.00000000 210 109 96 0.000000 0.000000 0.000000 0.000000 -60.708740 0.000000 89.000000 0.650132 0.646824 -0.398682
-16780.00000000 6530.00000000 -980.00000000 210 109 96 0.000000 0.000000 0.000000 0.000000 -60.708740 0.000000 89.000000 0.875977 0.457600 0.152533
-16520.00000000 6700.00000000 -1150.00000000 210 109 96 0.000000 0.000000 0.000000 0.000000 -60.708740 0.000000 89.000000 0.963584 0.266782 -0.018273
-16520.00000000 6490.00000000 -1060.00000000 210 109 96 0.000000 0.000000 0.000000 0.000000 -60.708740 0.000000 89.000000 0.861735 -0.501859 -0.074506
-16520.00000000 6480.00000000 -1040.00000000 210 109 96 0.000000 0.000000 0.000000 0.000000 -60.708740 0.000000 89.000000 -0.609831 0.781948 -0.129088
-16540.00000000 6480.00000000 -1060.00000000 210 109 96 0.000000 0.000000 0.000000 0.000000 -60.708740 0.000000 89.000000 -0.290150 0.946024 0.144400
-16520.00000000 6470.00000000 -1100.00000000 210 109 96 0.000000 0.000000 0.000000 0.000000 -60.708740 0.000000 89.000000 -0.642958 0.730563 -0.229963
-16520.00000000 6490.00000000 -1090.00000000 210 109 96 0.000000 0.000000 0.000000 0.000000 -60.708740 0.000000 89.000000 0.700453 -0.709190 0.080093
-16520.00000000 6490.00000000 -1120.00000000 210 109 96 0.000000 0.000000 0.000000 0.000000 -60.708740 0.000000 89.000000 0.841639 -0.531939 -0.093197
-16540.00000000 6460.00000000 -1170.00000000 210 109 96 0.000000 0.000000 0.000000 0.000000 -60.708740 0.000000 89.000000 -0.201880 0.971311 -0.125699
-16580.00000000 6460.00000000 -1170.00000000 210 109 96 0.000000 0.000000 0.000000 0.000000 -60.708740 0.000000 89.000000 -0.263706 0.861237 -0.434430
-16530.00000000 6470.00000000 -1160.00000000 210 109 96 0.000000 0.000000 0.000000 0.000000 -60.708740 0.000000 89.000000 -0.472396 0.875281 -0.103558
-16540.00000000 6500.00000000 -1180.00000000 210 109 96 0.000000 0.000000 0.000000 0.000000 -60.708740 0.000000 89.000000 -0.369382 0.929206 0.011503
-16550.00000000 6450.00000000 -1060.00000000 210 109 96 0.000000 0.000000 0.000000 0.000000 -60.708740 0.000000 89.000000 -0.552073 0.804274 -0.219907
-16540.00000000 6450.00000000 -1040.00000000 210 109 96 0.000000 0.000000 0.000000 0.000000 -60.708740 0.000000 89.000000 -0.121497 0.991276 0.051097
-16520.00000000 6440.00000000 -1070.00000000 210 109 96 0.000000 0.000000 0.000000 0.000000 -60.708740 0.000000 89.000000 -0.269574 0.957185 0.105486
-16550.00000000 6430.00000000 -1110.00000000 210 109 96 0.000000 0.000000 0.000000 0.000000 -60.708740 0.000000 89.000000 -0.539637 0.794509 -0.278472
-16590.00000000 6440.00000000 -1070.00000000 210 109 96 0.000000 0.000000 0.000000 0.000000 -60.708740 0.000000 89.000000 -0.322801 0.897001 -0.301975
-16570.00000000 6420.00000000 -1040.00000000 210 109 96 0.000000 0.000000 0.000000 0.000000 -60.708740 0.000000 89.000000 -0.148994 0.948998 0.277854
-16570.00000000 6430.00000000 -1080.00000000 210 109 96 0.000000 0.000000 0.000000 0.000000 -60.708740 0.000000 89.000000 -0.003220 0.995000 0.099822
-16580.00000000 6440.00000000 -1080.00000000 210 109 96 0.000000 0.000000 0.000000 0.000000 -60.708740 0.000000 89.000000 -0.261805 0.915594 -0.305198
-16590.00000000 6430.00000000 -1110.00000000 210 109 96 0.000000 0.000000 0.000000 0.000000 -60.708740 0.000000 89.000000 -0.181161 0.982947 0.031557
-16580.00000000 6430.00000000 -1090.00000000 210 109 96 0.000000 0.000000 0.000000 0.000000 -60.708740 0.000000 89.000000 -0.137216 0.989995 0.032886
-16550.00000000 6440.00000000 -1120.00000000 210 109 96 0.000000 0.000000 0.000000 0.000000 -60.708740 0.000000 89.000000 -0.611399 0.776641 -0.151723
-16560.00000000 6410.00000000 -1180.00000000 210 109 96 0.000000 0.000000 0.000000 0.000000 -60.708740 0.000000 89.000000 -0.511813 0.855841 0.074727
-16580.00000000 6430.00000000 -1190.00000000 210 109 96 0.000000 0.000000 0.000000 0.000000 -60.708740 0.000000 89.000000 -0.571089 0.813546 0.109544
-16620.00000000 6470.00000000 -1110.00000000 210 109 96 0.000000 0.000000 0.000000 0.000000 -60.708740 0.000000 89.000000 -0.187892 0.892851 -0.409284
-16670.00000000 6490.00000000 -1080.00000000 210 109 96 0.000000 0.000000 0.000000 0.000000 -60.708740 0.000000 89.000000 0.520649 0.803782 0.287852
-16680.00000000 6460.00000000 -1060.00000000 210 109 96 0.000000 0.000000 0.000000 0.000000 -60.708740 0.000000 89.000000 0.592805 0.767988 0.242440
-16640.00000000 6460.00000000 -1190.00000000 210 109 96 0.000000 0.000000 0.000000 0.000000 -60.708740 0.000000 89.000000 0.185495 0.933053 -0.308228
-16600.00000000 6470.00000000 -1170.00000000 210 109 96 0.000000 0.000000 0.000000 0.000000 -60.708740 0.000000 89.000000 -0.109864 0.905331 -0.410250
-16630.00000000 6470.00000000 -1180.00000000 210 109 96 0.000000 0.000000 0.000000 0.000000 -60.708740 0.000000 89.000000 0.295928 0.946702 0.127209
-16660.00000000 6490.00000000 -1120.00000000 210 109 96 0.000000 0.000000 0.000000 0.000000 -60.708740 0.000000 89.000000 0.078433 0.981012 0.177379
-16680.00000000 6490.00000000 -1120.00000000 210 109 96 0.000000 0.000000 0.000000 0.000000 -60.708740 0.000000 89.000000 0.449729 0.880658 0.148946
-16670.00000000 6480.00000000 -1190.00000000 210 109 96 0.000000 0.000000 0.000000 0.000000 -60.708740 0.000000 89.000000 0.384376 0.839351 -0.384376
-16640.00000000 6450.00000000 -1050.00000000 210 109 96 0.000000 0.000000 0.000000 0.000000 -60.708740 0.000000 89.000000 0.152564 0.987654 -0.035560
-16630.00000000 6450.00000000 -1050.00000000 210 109 96 0.000000 0.000000 0.000000 0.000000 -60.708740 0.000000 89.000000 0.311606 0.934818 0.170345
-16630.00000000 6450.00000000 -1060.00000000 210 109 96 0.000000 0.000000 0.000000 0.000000 -60.708740 0.000000 89.000000 0.228588 0.940675 0.250754
-16610.00000000 6440.00000000 -1080.00000000 210 109 96 0.000000 0.000000 0.000000 0.000000 -60.708740 0.000000 89.000000 0.186357 0.972353 -0.140719
-16600.00000000 6430.00000000 -1090.00000000 210 109 96 0.000000 0.000000 0.000000 0.000000 -60.708740 0.000000 89.000000 -0.114935 0.971267 -0.208399
-16600.00000000 6430.00000000 -1150.00000000 210 109 96 0.000000 0.000000 0.000000 0.000000 -60.708740 0.000000 89.000000 -0.099840 0.977441 0.186121
-16620.00000000 6450.00000000 -1140.00000000 210 109 96 0.000000 0.000000 0.000000 0.000000 -60.708740 0.000000 89.000000 0.292438 0.933282 -0.208484
-16630.00000000 6450.00000000 -1120.00000000 210 109 96 0.000000 0.000000 0.000000 0.000000 -60.708740 0.000000 89.000000 0.293876 0.950157 0.104109
-16600.00000000 6440.00000000 -1140.00000000 210 109 96 0.000000 0.000000 0.000000 0.000000 -60.708740 0.000000 89.000000 0.104042 0.930970 -0.349958
-16640.00000000 6440.00000000 -1120.00000000 210 109 96 0.000000 0.000000 0.000000 0.000000 -60.708740 0.000000 89.000000 0.479302 0.855576 -0.195603
-16640.00000000 6440.00000000 -1160.00000000 210 109 96 0.000000 0.000000 0.000000 0.000000 -60.708740 0.000000 89.000000 0.286855 0.954019 -0.086965
-16600.00000000 6430.00000000 -1160.00000000 210 109 96 0.000000 0.000000 0.000000 0.000000 -60.708740 0.000000 89.000000 -0.033281 0.999445 0.001009
-16600.00000000 6440.00000000 -1170.00000000 210 109 96 0.000000 0.000000 0.000000 0.000000 -60.708740 0.000000 89.000000 0.123547 0.969274 0.212705
-16630.00000000 6370.00000000 -1140.00000000 210 109 96 0.000000 0.000000 0.000000 0.000000 -60.708740 0.000000 89.000000 -0.218577 0.896312 -0.385810
-16530.00000000 6480.00000000 -1240.00000000 210 109 96 0.000000 0.000000 0.000000 0.000000 -60.708740 0.000000 89.000000 0.689048 -0.679544 -0.251859
-16520.00000000 6490.00000000 -1210.00000000 210 109 96 0.000000 0.000000 0.000000 0.000000 -60.708740 0.000000 89.000000 0.782539 -0.618249 -0.073498
-16520.00000000 6460.00000000 -1280.00000000 210 109 96 0.000000 0.000000 0.000000 0.000000 -60.708740 0.000000 89.000000 -0.335769 0.915078 -0.223365
-16520.00000000 6480.00000000 -1260.00000000 210 109 96 0.000000 0.000000 0.000000 0.000000 -60.708740 0.000000 89.000000 -0.626876 0.717120 -0.304575
-16520.00000000 6480.00000000 -1250.00000000 210 109 96 0.000000 0.000000 0.000000 0.000000 -60.708740 0.000000 89.000000 -0.538758 0.810453 0.230014
-16540.00000000 6450.00000000 -1240.00000000 210 109 96 0.000000 0.000000 0.000000 0.000000 -60.708740 0.000000 89.000000 -0.445280 0.855365 0.264719
-16550.00000000 6440.00000000 -1230.00000000 210 109 96 0.000000 0.000000 0.000000 0.000000 -60.708740 0.000000 89.000000 -0.640404 0.749927 0.165805
-16550.00000000 6440.00000000 -1230.00000000 210 109 96 0.000000 0.000000 0.000000 0.000000 -60.708740 0.000000 89.000000 -0.640404 0.749927 0.165805
-16530.00000000 6450.00000000 -1260.00000000 210 109 96 0.000000 0.000000 0.000000 0.000000 -60.708740 0.000000 89.000000 0.597750 -0.775999 -0.201299
-16530.00000000 6450.00000000 -1260.00000000 210 109 96 0.000000 0.000000 0.000000 0.000000 -60.708740 0.000000 89.000000 0.597750 -0.775999 -0.201299
-16580.00000000 6430.00000000 -1210.00000000 210 109 96 0.000000 0.000000 0.000000 0.000000 -60.708740 0.000000 89.000000 -0.502657 0.856965 -0.113782
-16570.00000000 6440.00000000 -1200.00000000 210 109 96 0.000000 0.000000 0.000000 0.000000 -60.708740 0.000000 89.000000 -0.496328 0.865428 0.068507
-16580.00000000 6430.00000000 -1270.00000000 210 109 96 0.000000 0.000000 0.000000 0.000000 -60.708740 0.000000 89.000000 0.046776 0.954486 -0.294563
-16550.00000000 6450.00000000 -1330.00000000 210 109 96 0.000000 0.000000 0.000000 0.000000 -60.708740 0.000000 89.000000 -0.109537 0.988187 -0.107181
-16520.00000000 6450.00000000 -1330.00000000 210 109 96 0.000000 0.000000 0.000000 0.000000 -60.708740 0.000000 89.000000 -0.366974 0.929753 -0.029825
-16600.00000000 6460.00000000 -1210.00000000 210 109 96 0.000000 0.000000 0.000000 0.000000 -60.708740 0.000000 89.000000 -0.127430 0.945667 0.299126
-16670.00000000 6530.00000000 -1280.00000000 210 109 96 0.000000 0.000000 0.000000 0.000000 -60.708740 0.000000 89.000000 0.177819 0.982179 0.060864
-16650.00000000 6470.00000000 -1240.00000000 210 109 96 0.000000 0.000000 0.000000 0.000000 -60.708740 0.000000 89.000000 0.547910 0.836284 0.020598
-16660.00000000 6460.00000000 -1240.00000000 210 109 96 0.000000 0.000000 0.000000 0.000000 -60.708740 0.000000 89.000000 0.511912 0.858646 -0.025937
-16670.00000000 6480.00000000 -1210.00000000 210 109 96 0.000000 0.000000 0.000000 0.000000 -60.708740 0.000000 89.000000 0.515067 0.852769 -0.086554
-16670.00000000 6470.00000000 -1220.00000000 210 109 96 0.000000 0.000000 0.000000 0.000000 -60.708740 0.000000 89.000000 0.544026 0.799672 -0.254087
-16650.00000000 6460.00000000 -1200.00000000 210 109 96 0.000000 0.000000 0.000000 0.000000 -60.708740 0.000000 89.000000 0.428871 0.900217 -0.075361
