//X Y Z R G B PointSourceId ScanDirectionFlag NumberOfReturns ReturnNumber GpsTime Intensity Classification Nx Ny Nz
-8290.00000000 -19900.00000000 500.00000000 12 89 205 0.000000 0.000000 0.000000 0.000000 -60.708740 0.000000 234.000000 -0.615552 0.055442 0.786144
-8330.00000000 -19890.00000000 510.00000000 12 89 205 0.000000 0.000000 0.000000 0.000000 -60.708740 0.000000 234.000000 -0.543156 0.034552 0.838921
-8280.00000000 -19780.00000000 480.00000000 12 89 205 0.000000 0.000000 0.000000 0.000000 -60.708740 0.000000 234.000000 -0.308880 -0.279602 0.909074
-8270.00000000 -19780.00000000 480.00000000 12 89 205 0.000000 0.000000 0.000000 0.000000 -60.708740 0.000000 234.000000 0.001063 0.090344 0.995910
-8290.00000000 -19780.00000000 470.00000000 12 89 205 0.000000 0.000000 0.000000 0.000000 -60.708740 0.000000 234.000000 -0.233569 -0.032675 0.971791
-8300.00000000 -19810.00000000 460.00000000 12 89 205 0.000000 0.000000 0.000000 0.000000 -60.708740 0.000000 234.000000 -0.434708 -0.113953 0.893333
-8290.00000000 -19800.00000000 480.00000000 12 89 205 0.000000 0.000000 0.000000 0.000000 -60.708740 0.000000 234.000000 -0.274261 -0.046336 0.960538
-8290.00000000 -19790.00000000 470.00000000 12 89 205 0.000000 0.000000 0.000000 0.000000 -60.708740 0.000000 234.000000 -0.410646 -0.240415 0.879529
-8320.00000000 -19810.00000000 450.00000000 12 89 205 0.000000 0.000000 0.000000 0.000000 -60.708740 0.000000 234.000000 0.725734 -0.393312 -0.564460
-8310.00000000 -19810.00000000 440.00000000 12 89 205 0.000000 0.000000 0.000000 0.000000 -60.708740 0.000000 234.000000 0.651174 -0.405948 -0.641232
-8270.00000000 -19820.00000000 330.00000000 12 89 205 0.000000 0.000000 0.000000 0.000000 -60.708740 0.000000 234.000000 0.759932 -0.212038 -0.614446
-8270.00000000 -19810.00000000 330.00000000 12 89 205 0.000000 0.000000 0.000000 0.000000 -60.708740 0.000000 234.000000 -0.582699 -0.100265 0.806479
-8270.00000000 -19860.00000000 470.00000000 12 89 205 0.000000 0.000000 0.000000 0.000000 -60.708740 0.000000 234.000000 -0.486730 0.116298 0.865776
-8270.00000000 -19830.00000000 480.00000000 12 89 205 0.000000 0.000000 0.000000 0.000000 -60.708740 0.000000 234.000000 -0.406604 0.359507 0.839897
-8300.00000000 -19890.00000000 460.00000000 12 89 205 0.000000 0.000000 0.000000 0.000000 -60.708740 0.000000 234.000000 0.710831 0.038308 -0.702318
-8330.00000000 -19850.00000000 450.00000000 12 89 205 0.000000 0.000000 0.000000 0.000000 -60.708740 0.000000 234.000000 -0.545521 -0.060613 0.835902
-8320.00000000 -19850.00000000 450.00000000 12 89 205 0.000000 0.000000 0.000000 0.000000 -60.708740 0.000000 234.000000 0.739979 -0.114185 -0.662867
-8330.00000000 -19850.00000000 470.00000000 12 89 205 0.000000 0.000000 0.000000 0.000000 -60.708740 0.000000 234.000000 -0.575846 0.214591 0.788893
-8330.00000000 -19860.00000000 420.00000000 12 89 205 0.000000 0.000000 0.000000 0.000000 -60.708740 0.000000 234.000000 -0.461610 -0.248325 0.851617
-8320.00000000 -19870.00000000 430.00000000 12 89 205 0.000000 0.000000 0.000000 0.000000 -60.708740 0.000000 234.000000 -0.598803 0.204732 0.774287
-8320.00000000 -19870.00000000 420.00000000 12 89 205 0.000000 0.000000 0.000000 0.000000 -60.708740 0.000000 234.000000 -0.584429 0.088025 0.806656
-8270.00000000 -19840.00000000 330.00000000 12 89 205 0.000000 0.000000 0.000000 0.000000 -60.708740 0.000000 234.000000 0.890929 -0.084784 -0.446159
-8320.00000000 -19840.00000000 320.00000000 12 89 205 0.000000 0.000000 0.000000 0.000000 -60.708740 0.000000 234.000000 0.777683 0.110258 -0.618912
-8330.00000000 -19870.00000000 360.00000000 12 89 205 0.000000 0.000000 0.000000 0.000000 -60.708740 0.000000 234.000000 0.754921 -0.229758 -0.614252
-8420.00000000 -19770.00000000 320.00000000 12 89 205 0.000000 0.000000 0.000000 0.000000 -60.708740 0.000000 44.000000 -0.687223 -0.206322 0.696531
-8410.00000000 -19760.00000000 340.00000000 12 89 205 0.000000 0.000000 0.000000 0.000000 -60.708740 0.000000 44.000000 0.733656 -0.101447 -0.671906
-8390.00000000 -19800.00000000 350.00000000 12 89 205 0.000000 0.000000 0.000000 0.000000 -60.708740 0.000000 44.000000 0.807941 0.170014 -0.564205
-8230.00000000 -19580.00000000 110.00000000 12 89 205 0.000000 0.000000 0.000000 0.000000 -60.708740 0.000000 44.000000 0.967817 0.158934 0.195114
-8260.00000000 -19620.00000000 140.00000000 12 89 205 0.000000 0.000000 0.000000 0.000000 -60.708740 0.000000 44.000000 0.999900 -0.008972 -0.010966
-8260.00000000 -19820.00000000 180.00000000 12 89 205 0.000000 0.000000 0.000000 0.000000 -60.708740 0.000000 234.000000 0.848499 0.353412 -0.393890
-8250.00000000 -19820.00000000 200.00000000 12 89 205 0.000000 0.000000 0.000000 0.000000 -60.708740 0.000000 234.000000 0.888254 0.314120 -0.335162
-8240.00000000 -19860.00000000 200.00000000 12 89 205 0.000000 0.000000 0.000000 0.000000 -60.708740 0.000000 234.000000 0.829594 -0.191910 -0.524352
-8230.00000000 -19800.00000000 80.00000000 12 89 205 0.000000 0.000000 0.000000 0.000000 -60.708740 0.000000 234.000000 0.804138 0.304909 0.510288
-8400.00000000 -19580.00000000 190.00000000 12 89 205 0.000000 0.000000 0.000000 0.000000 -60.708740 0.000000 44.000000 0.942074 0.260691 -0.211036
-8280.00000000 -19610.00000000 90.00000000 12 89 205 0.000000 0.000000 0.000000 0.000000 -60.708740 0.000000 44.000000 0.978545 0.176015 0.107086
-8280.00000000 -19590.00000000 90.00000000 12 89 205 0.000000 0.000000 0.000000 0.000000 -60.708740 0.000000 44.000000 0.954692 -0.083972 0.285503
-8300.00000000 -19620.00000000 90.00000000 12 89 205 0.000000 0.000000 0.000000 0.000000 -60.708740 0.000000 44.000000 0.993724 0.097468 -0.054896
-8330.00000000 -19580.00000000 100.00000000 12 89 205 0.000000 0.000000 0.000000 0.000000 -60.708740 0.000000 44.000000 0.864536 0.333222 0.376219
-8320.00000000 -19580.00000000 80.00000000 12 89 205 0.000000 0.000000 0.000000 0.000000 -60.708740 0.000000 44.000000 0.889804 0.438516 0.126304
-8310.00000000 -19600.00000000 30.00000000 12 89 205 0.000000 0.000000 0.000000 0.000000 -60.708740 0.000000 44.000000 0.945949 0.298369 0.127108
-8290.00000000 -19850.00000000 250.00000000 12 89 205 0.000000 0.000000 0.000000 0.000000 -60.708740 0.000000 234.000000 0.921492 0.308119 -0.236464
-8290.00000000 -19860.00000000 250.00000000 12 89 205 0.000000 0.000000 0.000000 0.000000 -60.708740 0.000000 234.000000 0.914630 -0.322216 -0.244190
-8330.00000000 -19840.00000000 310.00000000 12 89 205 0.000000 0.000000 0.000000 0.000000 -60.708740 0.000000 234.000000 -0.527238 0.083847 0.845571
-8320.00000000 -19840.00000000 310.00000000 12 89 205 0.000000 0.000000 0.000000 0.000000 -60.708740 0.000000 234.000000 0.753032 -0.029558 -0.657320
-8340.00000000 -19840.00000000 270.00000000 12 89 205 0.000000 0.000000 0.000000 0.000000 -60.708740 0.000000 234.000000 0.682047 -0.089090 -0.725861
-8300.00000000 -19900.00000000 180.00000000 12 89 205 0.000000 0.000000 0.000000 0.000000 -60.708740 0.000000 234.000000 0.947994 0.126666 0.291998
-8290.00000000 -19880.00000000 180.00000000 12 89 205 0.000000 0.000000 0.000000 0.000000 -60.708740 0.000000 234.000000 0.930131 0.345555 -0.124291
-8340.00000000 -19840.00000000 170.00000000 12 89 205 0.000000 0.000000 0.000000 0.000000 -60.708740 0.000000 234.000000 0.936526 -0.324862 0.131848
-8310.00000000 -19850.00000000 190.00000000 12 89 205 0.000000 0.000000 0.000000 0.000000 -60.708740 0.000000 234.000000 0.990257 0.137941 -0.019065
-8310.00000000 -19870.00000000 150.00000000 12 89 205 0.000000 0.000000 0.000000 0.000000 -60.708740 0.000000 234.000000 0.994073 0.066122 -0.086295
-8340.00000000 -19900.00000000 170.00000000 12 89 205 0.000000 0.000000 0.000000 0.000000 -60.708740 0.000000 234.000000 0.955928 -0.266923 0.122285
-8340.00000000 -19900.00000000 170.00000000 12 89 205 0.000000 0.000000 0.000000 0.000000 -60.708740 0.000000 234.000000 0.955928 -0.266923 0.122285
-8410.00000000 -19820.00000000 180.00000000 12 89 205 0.000000 0.000000 0.000000 0.000000 -60.708740 0.000000 234.000000 0.978888 -0.114800 0.169114
-8350.00000000 -19850.00000000 280.00000000 12 89 205 0.000000 0.000000 0.000000 0.000000 -60.708740 0.000000 234.000000 0.810410 -0.283722 -0.512580
-8350.00000000 -19850.00000000 270.00000000 12 89 205 0.000000 0.000000 0.000000 0.000000 -60.708740 0.000000 234.000000 -0.769412 0.242890 0.590770
-8350.00000000 -19860.00000000 240.00000000 12 89 205 0.000000 0.000000 0.000000 0.000000 -60.708740 0.000000 234.000000 0.977171 -0.211504 0.020087
-8350.00000000 -19850.00000000 270.00000000 12 89 205 0.000000 0.000000 0.000000 0.000000 -60.708740 0.000000 234.000000 -0.769412 0.242890 0.590770
-8350.00000000 -19860.00000000 200.00000000 12 89 205 0.000000 0.000000 0.000000 0.000000 -60.708740 0.000000 234.000000 0.974788 0.181910 -0.129219
-8350.00000000 -19850.00000000 200.00000000 12 89 205 0.000000 0.000000 0.000000 0.000000 -60.708740 0.000000 234.000000 0.916745 0.288203 -0.276617
-8350.00000000 -19850.00000000 210.00000000 12 89 205 0.000000 0.000000 0.000000 0.000000 -60.708740 0.000000 234.000000 0.984631 -0.036037 -0.170886
-8350.00000000 -19870.00000000 190.00000000 12 89 205 0.000000 0.000000 0.000000 0.000000 -60.708740 0.000000 234.000000 0.954945 0.136421 -0.263570
-8310.00000000 -19810.00000000 70.00000000 12 89 205 0.000000 0.000000 0.000000 0.000000 -60.708740 0.000000 234.000000 0.941810 0.145417 0.303064
-8330.00000000 -19810.00000000 140.00000000 12 89 205 0.000000 0.000000 0.000000 0.000000 -60.708740 0.000000 234.000000 0.910405 0.406892 -0.074846
-8290.00000000 -19840.00000000 70.00000000 12 89 205 0.000000 0.000000 0.000000 0.000000 -60.708740 0.000000 234.000000 0.850950 -0.107989 0.514026
-8320.00000000 -19840.00000000 120.00000000 12 89 205 0.000000 0.000000 0.000000 0.000000 -60.708740 0.000000 234.000000 0.975053 -0.116406 -0.189003
-8330.00000000 -19830.00000000 140.00000000 12 89 205 0.000000 0.000000 0.000000 0.000000 -60.708740 0.000000 234.000000 0.954292 -0.226829 -0.194616
-8320.00000000 -19830.00000000 120.00000000 12 89 205 0.000000 0.000000 0.000000 0.000000 -60.708740 0.000000 234.000000 0.994329 -0.105410 0.014127
-8320.00000000 -19850.00000000 90.00000000 12 89 205 0.000000 0.000000 0.000000 0.000000 -60.708740 0.000000 234.000000 0.970173 -0.211789 0.117943
-8320.00000000 -19850.00000000 80.00000000 12 89 205 0.000000 0.000000 0.000000 0.000000 -60.708740 0.000000 234.000000 0.897461 0.104681 0.428492
-8310.00000000 -19880.00000000 140.00000000 12 89 205 0.000000 0.000000 0.000000 0.000000 -60.708740 0.000000 234.000000 0.950976 0.229265 0.207560
-8310.00000000 -19890.00000000 140.00000000 12 89 205 0.000000 0.000000 0.000000 0.000000 -60.708740 0.000000 234.000000 0.913770 0.399351 0.074455
-8310.00000000 -19830.00000000 60.00000000 12 89 205 0.000000 0.000000 0.000000 0.000000 -60.708740 0.000000 234.000000 0.700851 -0.186380 0.688528
-8370.00000000 -19820.00000000 90.00000000 12 89 205 0.000000 0.000000 0.000000 0.000000 -60.708740 0.000000 234.000000 0.791436 0.177731 0.584842
-8390.00000000 -19800.00000000 100.00000000 12 89 205 0.000000 0.000000 0.000000 0.000000 -60.708740 0.000000 234.000000 0.880690 0.306655 0.361037
-8360.00000000 -19840.00000000 70.00000000 12 89 205 0.000000 0.000000 0.000000 0.000000 -60.708740 0.000000 234.000000 0.915489 0.043848 0.399945
-8370.00000000 -19830.00000000 90.00000000 12 89 205 0.000000 0.000000 0.000000 0.000000 -60.708740 0.000000 234.000000 0.764686 0.067684 0.640839
-8380.00000000 -19850.00000000 -10.00000000 12 89 205 0.000000 0.000000 0.000000 0.000000 -60.708740 0.000000 234.000000 0.968571 0.134702 0.209109
-8400.00000000 -19860.00000000 0.00000000 12 89 205 0.000000 0.000000 0.000000 0.000000 -60.708740 0.000000 234.000000 0.878379 -0.250751 0.406907
-8400.00000000 -19840.00000000 10.00000000 12 89 205 0.000000 0.000000 0.000000 0.000000 -60.708740 0.000000 234.000000 0.816566 -0.252562 0.519069
-8460.00000000 -18810.00000000 580.00000000 12 89 205 0.000000 0.000000 0.000000 0.000000 -60.708740 0.000000 44.000000 -0.419414 0.204556 0.884448
-8460.00000000 -18810.00000000 580.00000000 12 89 205 0.000000 0.000000 0.000000 0.000000 -60.708740 0.000000 44.000000 -0.419414 0.204556 0.884448
-8490.00000000 -18890.00000000 590.00000000 12 89 205 0.000000 0.000000 0.000000 0.000000 -60.708740 0.000000 44.000000 -0.217709 0.239617 0.946143
-8450.00000000 -18850.00000000 500.00000000 12 89 205 0.000000 0.000000 0.000000 0.000000 -60.708740 0.000000 44.000000 0.830427 -0.066491 -0.553146
-8440.00000000 -18890.00000000 560.00000000 12 89 205 0.000000 0.000000 0.000000 0.000000 -60.708740 0.000000 44.000000 -0.490073 0.402153 0.773371
-8450.00000000 -18870.00000000 490.00000000 12 89 205 0.000000 0.000000 0.000000 0.000000 -60.708740 0.000000 44.000000 -0.550931 -0.099775 0.828565
-8480.00000000 -18880.00000000 550.00000000 12 89 205 0.000000 0.000000 0.000000 0.000000 -60.708740 0.000000 44.000000 0.640480 0.035191 -0.767168
-8510.00000000 -18860.00000000 510.00000000 12 89 205 0.000000 0.000000 0.000000 0.000000 -60.708740 0.000000 44.000000 -0.241548 -0.032773 0.969835
-8580.00000000 -18860.00000000 500.00000000 12 89 205 0.000000 0.000000 0.000000 0.000000 -60.708740 0.000000 44.000000 -0.576847 -0.147566 0.803412
-8460.00000000 -18870.00000000 480.00000000 12 89 205 0.000000 0.000000 0.000000 0.000000 -60.708740 0.000000 44.000000 0.676950 0.095448 -0.729814
-8440.00000000 -18880.00000000 450.00000000 12 89 205 0.000000 0.000000 0.000000 0.000000 -60.708740 0.000000 44.000000 -0.221535 0.017770 0.974990
-8490.00000000 -18880.00000000 410.00000000 12 89 205 0.000000 0.000000 0.000000 0.000000 -60.708740 0.000000 44.000000 0.886089 0.001321 -0.463513
-8480.00000000 -18880.00000000 420.00000000 12 89 205 0.000000 0.000000 0.000000 0.000000 -60.708740 0.000000 44.000000 0.855542 0.063010 -0.513885
-8430.00000000 -18870.00000000 380.00000000 12 89 205 0.000000 0.000000 0.000000 0.000000 -60.708740 0.000000 44.000000 0.775646 0.020888 -0.630822
-8440.00000000 -18880.00000000 360.00000000 12 89 205 0.000000 0.000000 0.000000 0.000000 -60.708740 0.000000 44.000000 -0.532505 -0.188564 0.825156
-8510.00000000 -18870.00000000 380.00000000 12 89 205 0.000000 0.000000 0.000000 0.000000 -60.708740 0.000000 44.000000 -0.494277 0.183674 0.849679
-8510.00000000 -18880.00000000 380.00000000 12 89 205 0.000000 0.000000 0.000000 0.000000 -60.708740 0.000000 44.000000 -0.497409 0.290286 0.817508
-8490.00000000 -18890.00000000 400.00000000 12 89 205 0.000000 0.000000 0.000000 0.000000 -60.708740 0.000000 44.000000 -0.566778 0.037600 0.823012
-8510.00000000 -18870.00000000 380.00000000 12 89 205 0.000000 0.000000 0.000000 0.000000 -60.708740 0.000000 44.000000 -0.494277 0.183674 0.849679
-8510.00000000 -18870.00000000 380.00000000 12 89 205 0.000000 0.000000 0.000000 0.000000 -60.708740 0.000000 44.000000 -0.494277 0.183674 0.849679
-8490.00000000 -18890.00000000 400.00000000 12 89 205 0.000000 0.000000 0.000000 0.000000 -60.708740 0.000000 44.000000 -0.566778 0.037600 0.823012
-8530.00000000 -18850.00000000 370.00000000 12 89 205 0.000000 0.000000 0.000000 0.000000 -60.708740 0.000000 44.000000 0.927541 -0.181018 -0.326955
-8540.00000000 -18870.00000000 370.00000000 12 89 205 0.000000 0.000000 0.000000 0.000000 -60.708740 0.000000 44.000000 0.671514 0.234322 -0.702967
-8530.00000000 -18860.00000000 370.00000000 12 89 205 0.000000 0.000000 0.000000 0.000000 -60.708740 0.000000 44.000000 0.702617 -0.026753 -0.711065
-8460.00000000 -18900.00000000 600.00000000 12 89 205 0.000000 0.000000 0.000000 0.000000 -60.708740 0.000000 44.000000 -0.458576 -0.276381 0.844583
-8440.00000000 -18970.00000000 570.00000000 12 89 205 0.000000 0.000000 0.000000 0.000000 -60.708740 0.000000 44.000000 -0.525112 -0.095865 0.845616
-8450.00000000 -18970.00000000 570.00000000 12 89 205 0.000000 0.000000 0.000000 0.000000 -60.708740 0.000000 44.000000 -0.408351 0.022321 0.912552
-8460.00000000 -18960.00000000 600.00000000 12 89 205 0.000000 0.000000 0.000000 0.000000 -60.708740 0.000000 44.000000 -0.157053 0.340513 0.927030
-8450.00000000 -18950.00000000 610.00000000 12 89 205 0.000000 0.000000 0.000000 0.000000 -60.708740 0.000000 44.000000 -0.577038 0.029199 0.816195
-8510.00000000 -18960.00000000 570.00000000 12 89 205 0.000000 0.000000 0.000000 0.000000 -60.708740 0.000000 44.000000 -0.204156 0.056777 0.977291
-8510.00000000 -18980.00000000 590.00000000 12 89 205 0.000000 0.000000 0.000000 0.000000 -60.708740 0.000000 44.000000 -0.588092 -0.187884 0.786669
-8430.00000000 -18930.00000000 490.00000000 12 89 205 0.000000 0.000000 0.000000 0.000000 -60.708740 0.000000 44.000000 -0.293774 0.018593 0.955694
-8470.00000000 -18950.00000000 530.00000000 12 89 205 0.000000 0.000000 0.000000 0.000000 -60.708740 0.000000 44.000000 -0.550536 0.226691 0.803443
-8470.00000000 -18970.00000000 490.00000000 12 89 205 0.000000 0.000000 0.000000 0.000000 -60.708740 0.000000 44.000000 -0.387580 0.353336 0.851431
-8470.00000000 -18970.00000000 490.00000000 12 89 205 0.000000 0.000000 0.000000 0.000000 -60.708740 0.000000 44.000000 -0.387580 0.353336 0.851431
-8500.00000000 -18940.00000000 540.00000000 12 89 205 0.000000 0.000000 0.000000 0.000000 -60.708740 0.000000 44.000000 0.577559 -0.408759 -0.706641
-8480.00000000 -18910.00000000 550.00000000 12 89 205 0.000000 0.000000 0.000000 0.000000 -60.708740 0.000000 44.000000 -0.323663 -0.270940 0.906550
-8490.00000000 -18920.00000000 510.00000000 12 89 205 0.000000 0.000000 0.000000 0.000000 -60.708740 0.000000 44.000000 -0.625664 -0.064428 0.777427
-8490.00000000 -18920.00000000 510.00000000 12 89 205 0.000000 0.000000 0.000000 0.000000 -60.708740 0.000000 44.000000 -0.625664 -0.064428 0.777427
-8490.00000000 -18940.00000000 510.00000000 12 89 205 0.000000 0.000000 0.000000 0.000000 -60.708740 0.000000 44.000000 -0.372130 -0.046023 0.927039
-8490.00000000 -18900.00000000 510.00000000 12 89 205 0.000000 0.000000 0.000000 0.000000 -60.708740 0.000000 44.000000 -0.291987 0.141284 0.945929
-8490.00000000 -18940.00000000 520.00000000 12 89 205 0.000000 0.000000 0.000000 0.000000 -60.708740 0.000000 44.000000 0.828521 -0.231251 -0.509977
-8490.00000000 -18970.00000000 530.00000000 12 89 205 0.000000 0.000000 0.000000 0.000000 -60.708740 0.000000 44.000000 -0.327520 0.126387 0.936353
-8490.00000000 -18970.00000000 530.00000000 12 89 205 0.000000 0.000000 0.000000 0.000000 -60.708740 0.000000 44.000000 -0.327520 0.126387 0.936353
-8440.00000000 -19010.00000000 570.00000000 12 89 205 0.000000 0.000000 0.000000 0.000000 -60.708740 0.000000 44.000000 -0.494418 0.122523 0.860546
-8450.00000000 -19020.00000000 570.00000000 12 89 205 0.000000 0.000000 0.000000 0.000000 -60.708740 0.000000 44.000000 -0.396758 0.343857 0.851085
-8460.00000000 -19000.00000000 610.00000000 12 89 205 0.000000 0.000000 0.000000 0.000000 -60.708740 0.000000 44.000000 -0.534780 -0.066318 0.842385
-8440.00000000 -19010.00000000 570.00000000 12 89 205 0.000000 0.000000 0.000000 0.000000 -60.708740 0.000000 44.000000 -0.494418 0.122523 0.860546
-8490.00000000 -19010.00000000 600.00000000 12 89 205 0.000000 0.000000 0.000000 0.000000 -60.708740 0.000000 44.000000 -0.541041 0.014991 0.840863
-8490.00000000 -19020.00000000 600.00000000 12 89 205 0.000000 0.000000 0.000000 0.000000 -60.708740 0.000000 44.000000 -0.356285 -0.048288 0.933129
-8500.00000000 -18990.00000000 600.00000000 12 89 205 0.000000 0.000000 0.000000 0.000000 -60.708740 0.000000 44.000000 -0.481478 -0.134467 0.866082
-8490.00000000 -19020.00000000 600.00000000 12 89 205 0.000000 0.000000 0.000000 0.000000 -60.708740 0.000000 44.000000 -0.356285 -0.048288 0.933129
-8500.00000000 -19000.00000000 600.00000000 12 89 205 0.000000 0.000000 0.000000 0.000000 -60.708740 0.000000 44.000000 -0.542295 0.230205 0.808035
-8470.00000000 -18990.00000000 550.00000000 12 89 205 0.000000 0.000000 0.000000 0.000000 -60.708740 0.000000 44.000000 0.692686 -0.373491 -0.617001
-8450.00000000 -18990.00000000 500.00000000 12 89 205 0.000000 0.000000 0.000000 0.000000 -60.708740 0.000000 44.000000 -0.578554 0.193869 0.792269
-8450.00000000 -18990.00000000 500.00000000 12 89 205 0.000000 0.000000 0.000000 0.000000 -60.708740 0.000000 44.000000 -0.578554 0.193869 0.792269
-8440.00000000 -19040.00000000 500.00000000 12 89 205 0.000000 0.000000 0.000000 0.000000 -60.708740 0.000000 44.000000 -0.539891 0.114963 0.833847
-8490.00000000 -19030.00000000 490.00000000 12 89 205 0.000000 0.000000 0.000000 0.000000 -60.708740 0.000000 44.000000 -0.483977 -0.082767 0.871158
-8500.00000000 -19060.00000000 490.00000000 12 89 205 0.000000 0.000000 0.000000 0.000000 -60.708740 0.000000 44.000000 -0.512468 -0.012169 0.858620
-8490.00000000 -19030.00000000 490.00000000 12 89 205 0.000000 0.000000 0.000000 0.000000 -60.708740 0.000000 44.000000 -0.483977 -0.082767 0.871158
-8530.00000000 -18920.00000000 520.00000000 12 89 205 0.000000 0.000000 0.000000 0.000000 -60.708740 0.000000 44.000000 -0.481185 0.202367 0.852941
-8550.00000000 -18900.00000000 490.00000000 12 89 205 0.000000 0.000000 0.000000 0.000000 -60.708740 0.000000 44.000000 -0.766955 0.158837 0.621733
-8530.00000000 -18920.00000000 520.00000000 12 89 205 0.000000 0.000000 0.000000 0.000000 -60.708740 0.000000 44.000000 -0.481185 0.202367 0.852941
-8520.00000000 -19000.00000000 560.00000000 12 89 205 0.000000 0.000000 0.000000 0.000000 -60.708740 0.000000 44.000000 -0.541194 0.172403 0.823035
-8530.00000000 -18990.00000000 540.00000000 12 89 205 0.000000 0.000000 0.000000 0.000000 -60.708740 0.000000 44.000000 0.650031 -0.340492 -0.679356
-8530.00000000 -19020.00000000 520.00000000 12 89 205 0.000000 0.000000 0.000000 0.000000 -60.708740 0.000000 44.000000 0.628297 -0.326325 -0.706226
-8530.00000000 -18990.00000000 520.00000000 12 89 205 0.000000 0.000000 0.000000 0.000000 -60.708740 0.000000 44.000000 0.748456 0.079932 -0.658350
-8530.00000000 -19000.00000000 510.00000000 12 89 205 0.000000 0.000000 0.000000 0.000000 -60.708740 0.000000 44.000000 0.780675 0.151923 -0.606189
-8520.00000000 -19050.00000000 530.00000000 12 89 205 0.000000 0.000000 0.000000 0.000000 -60.708740 0.000000 44.000000 -0.568523 -0.049132 0.821199
-8580.00000000 -19000.00000000 510.00000000 12 89 205 0.000000 0.000000 0.000000 0.000000 -60.708740 0.000000 44.000000 -0.413313 0.378474 0.828209
-8570.00000000 -19010.00000000 490.00000000 12 89 205 0.000000 0.000000 0.000000 0.000000 -60.708740 0.000000 44.000000 -0.589963 0.270466 0.760784
-8450.00000000 -18940.00000000 480.00000000 12 89 205 0.000000 0.000000 0.000000 0.000000 -60.708740 0.000000 44.000000 -0.608341 0.116365 0.785099
-8450.00000000 -18940.00000000 480.00000000 12 89 205 0.000000 0.000000 0.000000 0.000000 -60.708740 0.000000 44.000000 -0.608341 0.116365 0.785099
-8460.00000000 -18940.00000000 470.00000000 12 89 205 0.000000 0.000000 0.000000 0.000000 -60.708740 0.000000 44.000000 0.691132 0.123896 -0.712030
-8430.00000000 -18970.00000000 450.00000000 12 89 205 0.000000 0.000000 0.000000 0.000000 -60.708740 0.000000 44.000000 0.789947 0.144849 -0.595820
-8430.00000000 -18950.00000000 460.00000000 12 89 205 0.000000 0.000000 0.000000 0.000000 -60.708740 0.000000 44.000000 -0.695703 0.018197 0.718099
-8450.00000000 -18950.00000000 480.00000000 12 89 205 0.000000 0.000000 0.000000 0.000000 -60.708740 0.000000 44.000000 0.756676 0.073787 -0.649613
-8460.00000000 -18960.00000000 430.00000000 12 89 205 0.000000 0.000000 0.000000 0.000000 -60.708740 0.000000 44.000000 -0.567184 0.190075 0.801357
-8500.00000000 -18950.00000000 460.00000000 12 89 205 0.000000 0.000000 0.000000 0.000000 -60.708740 0.000000 44.000000 0.690166 0.079914 -0.719225
-8430.00000000 -18920.00000000 370.00000000 12 89 205 0.000000 0.000000 0.000000 0.000000 -60.708740 0.000000 44.000000 -0.425201 0.322405 0.845730
-8460.00000000 -18970.00000000 370.00000000 12 89 205 0.000000 0.000000 0.000000 0.000000 -60.708740 0.000000 44.000000 -0.551236 -0.268551 0.789949
-8450.00000000 -18960.00000000 400.00000000 12 89 205 0.000000 0.000000 0.000000 0.000000 -60.708740 0.000000 44.000000 -0.460538 0.460538 0.758822
-8480.00000000 -18950.00000000 360.00000000 12 89 205 0.000000 0.000000 0.000000 0.000000 -60.708740 0.000000 44.000000 -0.507733 0.422289 0.750919
-8480.00000000 -18960.00000000 400.00000000 12 89 205 0.000000 0.000000 0.000000 0.000000 -60.708740 0.000000 44.000000 -0.430646 0.141641 0.891337
-8500.00000000 -18980.00000000 380.00000000 12 89 205 0.000000 0.000000 0.000000 0.000000 -60.708740 0.000000 44.000000 0.888261 -0.216541 -0.405094
-8490.00000000 -18970.00000000 400.00000000 12 89 205 0.000000 0.000000 0.000000 0.000000 -60.708740 0.000000 44.000000 0.719589 -0.120676 -0.683833
-8500.00000000 -18970.00000000 390.00000000 12 89 205 0.000000 0.000000 0.000000 0.000000 -60.708740 0.000000 44.000000 0.905185 0.046935 -0.422419
-8440.00000000 -19000.00000000 420.00000000 12 89 205 0.000000 0.000000 0.000000 0.000000 -60.708740 0.000000 44.000000 0.834455 0.054695 -0.548356
-8440.00000000 -19050.00000000 430.00000000 12 89 205 0.000000 0.000000 0.000000 0.000000 -60.708740 0.000000 44.000000 -0.470731 -0.228554 0.852159
-8500.00000000 -18990.00000000 480.00000000 12 89 205 0.000000 0.000000 0.000000 0.000000 -60.708740 0.000000 44.000000 -0.432383 0.270430 0.860182
-8490.00000000 -19000.00000000 460.00000000 12 89 205 0.000000 0.000000 0.000000 0.000000 -60.708740 0.000000 44.000000 0.479521 -0.404749 -0.778613
-8480.00000000 -19000.00000000 480.00000000 12 89 205 0.000000 0.000000 0.000000 0.000000 -60.708740 0.000000 44.000000 0.693095 0.149491 -0.705175
-8480.00000000 -18990.00000000 410.00000000 12 89 205 0.000000 0.000000 0.000000 0.000000 -60.708740 0.000000 44.000000 0.690358 -0.359117 -0.628045
-8490.00000000 -19030.00000000 480.00000000 12 89 205 0.000000 0.000000 0.000000 0.000000 -60.708740 0.000000 44.000000 0.881603 -0.106132 -0.459905
-8510.00000000 -19050.00000000 480.00000000 12 89 205 0.000000 0.000000 0.000000 0.000000 -60.708740 0.000000 44.000000 -0.380795 0.230830 0.895384
-8490.00000000 -19040.00000000 430.00000000 12 89 205 0.000000 0.000000 0.000000 0.000000 -60.708740 0.000000 44.000000 0.879754 0.045011 -0.473294
-8500.00000000 -19040.00000000 420.00000000 12 89 205 0.000000 0.000000 0.000000 0.000000 -60.708740 0.000000 44.000000 0.799003 -0.377798 -0.467827
-8490.00000000 -19040.00000000 430.00000000 12 89 205 0.000000 0.000000 0.000000 0.000000 -60.708740 0.000000 44.000000 0.879754 0.045011 -0.473294
-8500.00000000 -19040.00000000 420.00000000 12 89 205 0.000000 0.000000 0.000000 0.000000 -60.708740 0.000000 44.000000 0.799003 -0.377798 -0.467827
-8490.00000000 -19060.00000000 430.00000000 12 89 205 0.000000 0.000000 0.000000 0.000000 -60.708740 0.000000 44.000000 0.798693 0.119142 -0.589826
-8470.00000000 -19020.00000000 380.00000000 12 89 205 0.000000 0.000000 0.000000 0.000000 -60.708740 0.000000 44.000000 -0.618142 -0.191732 0.762325
-8470.00000000 -19010.00000000 380.00000000 12 89 205 0.000000 0.000000 0.000000 0.000000 -60.708740 0.000000 44.000000 -0.489229 0.306751 0.816430
-8430.00000000 -19010.00000000 340.00000000 12 89 205 0.000000 0.000000 0.000000 0.000000 -60.708740 0.000000 44.000000 0.701902 -0.311419 -0.640587
-8450.00000000 -19030.00000000 380.00000000 12 89 205 0.000000 0.000000 0.000000 0.000000 -60.708740 0.000000 44.000000 0.770441 -0.191461 -0.608082
-8460.00000000 -19050.00000000 400.00000000 12 89 205 0.000000 0.000000 0.000000 0.000000 -60.708740 0.000000 44.000000 0.675463 0.179205 -0.715287
-8450.00000000 -19050.00000000 350.00000000 12 89 205 0.000000 0.000000 0.000000 0.000000 -60.708740 0.000000 44.000000 0.721773 -0.219806 -0.656299
-8440.00000000 -19030.00000000 340.00000000 12 89 205 0.000000 0.000000 0.000000 0.000000 -60.708740 0.000000 44.000000 -0.532629 -0.233122 0.813610
-8440.00000000 -19030.00000000 340.00000000 12 89 205 0.000000 0.000000 0.000000 0.000000 -60.708740 0.000000 44.000000 -0.532629 -0.233122 0.813610
-8430.00000000 -19060.00000000 330.00000000 12 89 205 0.000000 0.000000 0.000000 0.000000 -60.708740 0.000000 44.000000 -0.679501 -0.082937 0.728972
-8480.00000000 -18990.00000000 400.00000000 12 89 205 0.000000 0.000000 0.000000 0.000000 -60.708740 0.000000 44.000000 -0.366360 0.256600 0.894392
-8480.00000000 -19010.00000000 370.00000000 12 89 205 0.000000 0.000000 0.000000 0.000000 -60.708740 0.000000 44.000000 -0.662216 -0.021001 0.749018
-8490.00000000 -19000.00000000 360.00000000 12 89 205 0.000000 0.000000 0.000000 0.000000 -60.708740 0.000000 44.000000 -0.648874 -0.044015 0.759622
-8490.00000000 -19010.00000000 360.00000000 12 89 205 0.000000 0.000000 0.000000 0.000000 -60.708740 0.000000 44.000000 0.720853 0.293800 -0.627736
-8490.00000000 -19010.00000000 360.00000000 12 89 205 0.000000 0.000000 0.000000 0.000000 -60.708740 0.000000 44.000000 0.720853 0.293800 -0.627736
-8500.00000000 -19020.00000000 360.00000000 12 89 205 0.000000 0.000000 0.000000 0.000000 -60.708740 0.000000 44.000000 0.644586 -0.450373 -0.617798
-8510.00000000 -19050.00000000 360.00000000 12 89 205 0.000000 0.000000 0.000000 0.000000 -60.708740 0.000000 44.000000 0.810397 -0.263886 -0.523088
-8510.00000000 -19050.00000000 360.00000000 12 89 205 0.000000 0.000000 0.000000 0.000000 -60.708740 0.000000 44.000000 0.810397 -0.263886 -0.523088
-8540.00000000 -18920.00000000 360.00000000 12 89 205 0.000000 0.000000 0.000000 0.000000 -60.708740 0.000000 44.000000 -0.475125 0.291306 0.830300
-8530.00000000 -18900.00000000 380.00000000 12 89 205 0.000000 0.000000 0.000000 0.000000 -60.708740 0.000000 44.000000 0.825060 0.093593 -0.557240
-8540.00000000 -18920.00000000 360.00000000 12 89 205 0.000000 0.000000 0.000000 0.000000 -60.708740 0.000000 44.000000 -0.475125 0.291306 0.830300
-8550.00000000 -18990.00000000 440.00000000 12 89 205 0.000000 0.000000 0.000000 0.000000 -60.708740 0.000000 44.000000 0.586477 -0.270317 -0.763527
-8550.00000000 -19060.00000000 480.00000000 12 89 205 0.000000 0.000000 0.000000 0.000000 -60.708740 0.000000 44.000000 -0.480478 0.352776 0.802926
-8540.00000000 -19050.00000000 430.00000000 12 89 205 0.000000 0.000000 0.000000 0.000000 -60.708740 0.000000 44.000000 -0.489521 0.183012 0.852570
-8570.00000000 -18990.00000000 460.00000000 12 89 205 0.000000 0.000000 0.000000 0.000000 -60.708740 0.000000 44.000000 -0.591421 -0.151224 0.792056
-8560.00000000 -19060.00000000 470.00000000 12 89 205 0.000000 0.000000 0.000000 0.000000 -60.708740 0.000000 44.000000 -0.362127 -0.027063 0.931736
-8590.00000000 -19050.00000000 460.00000000 12 89 205 0.000000 0.000000 0.000000 0.000000 -60.708740 0.000000 44.000000 -0.548963 -0.233503 0.802568
-8580.00000000 -19030.00000000 410.00000000 12 89 205 0.000000 0.000000 0.000000 0.000000 -60.708740 0.000000 44.000000 0.911833 -0.233394 -0.337770
-8520.00000000 -19040.00000000 350.00000000 12 89 205 0.000000 0.000000 0.000000 0.000000 -60.708740 0.000000 44.000000 -0.647647 -0.079688 0.757762
-8570.00000000 -19000.00000000 370.00000000 12 89 205 0.000000 0.000000 0.000000 0.000000 -60.708740 0.000000 44.000000 0.814891 -0.406648 -0.413027
-8560.00000000 -19030.00000000 390.00000000 12 89 205 0.000000 0.000000 0.000000 0.000000 -60.708740 0.000000 44.000000 0.733318 0.282783 -0.618287
-8460.00000000 -19070.00000000 530.00000000 12 89 205 0.000000 0.000000 0.000000 0.000000 -60.708740 0.000000 44.000000 -0.638411 0.261384 0.723954
-8440.00000000 -19070.00000000 510.00000000 12 89 205 0.000000 0.000000 0.000000 0.000000 -60.708740 0.000000 44.000000 -0.578566 0.266424 0.770896
-8430.00000000 -19070.00000000 520.00000000 12 89 205 0.000000 0.000000 0.000000 0.000000 -60.708740 0.000000 44.000000 0.814164 -0.166431 -0.556271
-8440.00000000 -19070.00000000 510.00000000 12 89 205 0.000000 0.000000 0.000000 0.000000 -60.708740 0.000000 44.000000 -0.578566 0.266424 0.770896
-8470.00000000 -19120.00000000 530.00000000 12 89 205 0.000000 0.000000 0.000000 0.000000 -60.708740 0.000000 44.000000 -0.602596 -0.318261 0.731839
-8490.00000000 -19080.00000000 490.00000000 12 89 205 0.000000 0.000000 0.000000 0.000000 -60.708740 0.000000 44.000000 -0.470089 -0.208762 0.857575
-8450.00000000 -19070.00000000 450.00000000 12 89 205 0.000000 0.000000 0.000000 0.000000 -60.708740 0.000000 44.000000 -0.491943 0.397776 0.774446
-8440.00000000 -19070.00000000 460.00000000 12 89 205 0.000000 0.000000 0.000000 0.000000 -60.708740 0.000000 44.000000 -0.340563 -0.230423 0.911549
-8450.00000000 -19080.00000000 440.00000000 12 89 205 0.000000 0.000000 0.000000 0.000000 -60.708740 0.000000 44.000000 0.825479 -0.127561 -0.549830
-8460.00000000 -19120.00000000 470.00000000 12 89 205 0.000000 0.000000 0.000000 0.000000 -60.708740 0.000000 44.000000 0.812668 0.134705 -0.566943
-8510.00000000 -19070.00000000 480.00000000 12 89 205 0.000000 0.000000 0.000000 0.000000 -60.708740 0.000000 44.000000 0.730270 -0.035313 -0.682245
-8510.00000000 -19070.00000000 480.00000000 12 89 205 0.000000 0.000000 0.000000 0.000000 -60.708740 0.000000 44.000000 0.730270 -0.035313 -0.682245
-8450.00000000 -19070.00000000 360.00000000 12 89 205 0.000000 0.000000 0.000000 0.000000 -60.708740 0.000000 44.000000 0.784992 0.161217 -0.598161
-8450.00000000 -19070.00000000 350.00000000 12 89 205 0.000000 0.000000 0.000000 0.000000 -60.708740 0.000000 44.000000 -0.571092 -0.259587 0.778761
-8500.00000000 -19100.00000000 320.00000000 12 89 205 0.000000 0.000000 0.000000 0.000000 -60.708740 0.000000 44.000000 -0.642247 0.085924 0.761667
-8530.00000000 -19070.00000000 460.00000000 12 89 205 0.000000 0.000000 0.000000 0.000000 -60.708740 0.000000 44.000000 -0.468061 0.188710 0.863312
-8530.00000000 -19090.00000000 450.00000000 12 89 205 0.000000 0.000000 0.000000 0.000000 -60.708740 0.000000 44.000000 0.859132 -0.059875 -0.508239
-8580.00000000 -19100.00000000 450.00000000 12 89 205 0.000000 0.000000 0.000000 0.000000 -60.708740 0.000000 44.000000 -0.522313 -0.054321 0.851022
-8580.00000000 -19070.00000000 470.00000000 12 89 205 0.000000 0.000000 0.000000 0.000000 -60.708740 0.000000 44.000000 0.826244 0.106003 -0.553249
-8580.00000000 -19070.00000000 470.00000000 12 89 205 0.000000 0.000000 0.000000 0.000000 -60.708740 0.000000 44.000000 0.826244 0.106003 -0.553249
-8580.00000000 -19070.00000000 450.00000000 12 89 205 0.000000 0.000000 0.000000 0.000000 -60.708740 0.000000 44.000000 0.850506 -0.183209 -0.493025
-8560.00000000 -19080.00000000 480.00000000 12 89 205 0.000000 0.000000 0.000000 0.000000 -60.708740 0.000000 44.000000 0.669268 -0.279527 -0.688436
-8580.00000000 -19080.00000000 450.00000000 12 89 205 0.000000 0.000000 0.000000 0.000000 -60.708740 0.000000 44.000000 0.734859 0.257596 -0.627396
-8570.00000000 -19070.00000000 410.00000000 12 89 205 0.000000 0.000000 0.000000 0.000000 -60.708740 0.000000 44.000000 0.829328 0.292061 -0.476356
-8590.00000000 -19080.00000000 430.00000000 12 89 205 0.000000 0.000000 0.000000 0.000000 -60.708740 0.000000 44.000000 -0.579309 -0.214731 0.786315
-8610.00000000 -18930.00000000 490.00000000 12 89 205 0.000000 0.000000 0.000000 0.000000 -60.708740 0.000000 44.000000 -0.644613 0.136101 0.752297
-8620.00000000 -18940.00000000 490.00000000 12 89 205 0.000000 0.000000 0.000000 0.000000 -60.708740 0.000000 44.000000 -0.503885 0.107668 0.857034
-8610.00000000 -18960.00000000 500.00000000 12 89 205 0.000000 0.000000 0.000000 0.000000 -60.708740 0.000000 44.000000 -0.459354 0.017309 0.888085
-8620.00000000 -18960.00000000 490.00000000 12 89 205 0.000000 0.000000 0.000000 0.000000 -60.708740 0.000000 44.000000 -0.610658 0.155303 0.776516
-8640.00000000 -18960.00000000 490.00000000 12 89 205 0.000000 0.000000 0.000000 0.000000 -60.708740 0.000000 44.000000 -0.491453 0.103989 0.864673
-8600.00000000 -19040.00000000 440.00000000 12 89 205 0.000000 0.000000 0.000000 0.000000 -60.708740 0.000000 44.000000 -0.564687 0.147504 0.812017
-8610.00000000 -19040.00000000 440.00000000 12 89 205 0.000000 0.000000 0.000000 0.000000 -60.708740 0.000000 44.000000 0.845862 -0.302648 -0.439228
-8460.00000000 -18980.00000000 280.00000000 12 89 205 0.000000 0.000000 0.000000 0.000000 -60.708740 0.000000 44.000000 0.942070 -0.193915 -0.273682
-8450.00000000 -18980.00000000 250.00000000 12 89 205 0.000000 0.000000 0.000000 0.000000 -60.708740 0.000000 44.000000 -0.508374 0.095409 0.855834
-8500.00000000 -18970.00000000 240.00000000 12 89 205 0.000000 0.000000 0.000000 0.000000 -60.708740 0.000000 44.000000 0.889746 0.036454 -0.454999
-8430.00000000 -18940.00000000 230.00000000 12 89 205 0.000000 0.000000 0.000000 0.000000 -60.708740 0.000000 44.000000 -0.700285 0.297822 0.648770
-8430.00000000 -18930.00000000 230.00000000 12 89 205 0.000000 0.000000 0.000000 0.000000 -60.708740 0.000000 44.000000 0.713775 -0.351171 -0.605974
-8450.00000000 -18960.00000000 160.00000000 12 89 205 0.000000 0.000000 0.000000 0.000000 -60.708740 0.000000 44.000000 0.825802 -0.352111 -0.440533
-8440.00000000 -19030.00000000 310.00000000 12 89 205 0.000000 0.000000 0.000000 0.000000 -60.708740 0.000000 44.000000 0.843257 -0.148637 -0.516550
-8440.00000000 -19060.00000000 310.00000000 12 89 205 0.000000 0.000000 0.000000 0.000000 -60.708740 0.000000 44.000000 0.778829 -0.006892 -0.627199
-8460.00000000 -19060.00000000 290.00000000 12 89 205 0.000000 0.000000 0.000000 0.000000 -60.708740 0.000000 44.000000 0.863340 -0.311293 -0.397167
-8470.00000000 -19040.00000000 260.00000000 12 89 205 0.000000 0.000000 0.000000 0.000000 -60.708740 0.000000 44.000000 0.987565 0.010158 -0.156882
-8470.00000000 -19060.00000000 260.00000000 12 89 205 0.000000 0.000000 0.000000 0.000000 -60.708740 0.000000 44.000000 0.670157 0.133432 -0.730127
-8430.00000000 -19050.00000000 270.00000000 12 89 205 0.000000 0.000000 0.000000 0.000000 -60.708740 0.000000 44.000000 0.783413 0.345860 -0.516377
-8480.00000000 -19010.00000000 300.00000000 12 89 205 0.000000 0.000000 0.000000 0.000000 -60.708740 0.000000 44.000000 -0.567577 0.112348 0.815619
-8480.00000000 -19040.00000000 250.00000000 12 89 205 0.000000 0.000000 0.000000 0.000000 -60.708740 0.000000 44.000000 0.865345 -0.153223 -0.477180
-8480.00000000 -19050.00000000 250.00000000 12 89 205 0.000000 0.000000 0.000000 0.000000 -60.708740 0.000000 44.000000 0.765121 0.098017 -0.636382
-8480.00000000 -19060.00000000 250.00000000 12 89 205 0.000000 0.000000 0.000000 0.000000 -60.708740 0.000000 44.000000 -0.626297 0.182223 0.757988
-8480.00000000 -19040.00000000 250.00000000 12 89 205 0.000000 0.000000 0.000000 0.000000 -60.708740 0.000000 44.000000 0.865345 -0.153223 -0.477180
-8440.00000000 -19050.00000000 180.00000000 12 89 205 0.000000 0.000000 0.000000 0.000000 -60.708740 0.000000 44.000000 0.842083 -0.365373 -0.396735
-8460.00000000 -19060.00000000 180.00000000 12 89 205 0.000000 0.000000 0.000000 0.000000 -60.708740 0.000000 44.000000 0.876610 -0.410488 -0.251105
-8570.00000000 -19030.00000000 240.00000000 12 89 205 0.000000 0.000000 0.000000 0.000000 -60.708740 0.000000 44.000000 0.726277 -0.265401 -0.634102
-8440.00000000 -18920.00000000 140.00000000 12 89 205 0.000000 0.000000 0.000000 0.000000 -60.708740 0.000000 44.000000 0.862780 -0.412234 -0.292701
-8500.00000000 -18940.00000000 100.00000000 12 89 205 0.000000 0.000000 0.000000 0.000000 -60.708740 0.000000 44.000000 -0.862964 0.339955 0.373797
-8510.00000000 -18970.00000000 100.00000000 12 89 205 0.000000 0.000000 0.000000 0.000000 -60.708740 0.000000 44.000000 0.914896 -0.117649 -0.386166
-8480.00000000 -18960.00000000 90.00000000 12 89 205 0.000000 0.000000 0.000000 0.000000 -60.708740 0.000000 44.000000 0.893929 0.399415 -0.203365
-8430.00000000 -18970.00000000 30.00000000 12 89 205 0.000000 0.000000 0.000000 0.000000 -60.708740 0.000000 44.000000 0.905657 0.337976 0.256042
-8480.00000000 -18970.00000000 50.00000000 12 89 205 0.000000 0.000000 0.000000 0.000000 -60.708740 0.000000 44.000000 0.937865 0.252234 -0.238299
-8500.00000000 -18980.00000000 10.00000000 12 89 205 0.000000 0.000000 0.000000 0.000000 -60.708740 0.000000 44.000000 0.977391 -0.211359 0.005839
-8450.00000000 -19050.00000000 80.00000000 12 89 205 0.000000 0.000000 0.000000 0.000000 -60.708740 0.000000 44.000000 0.983740 -0.065266 -0.167319
-8490.00000000 -19020.00000000 70.00000000 12 89 205 0.000000 0.000000 0.000000 0.000000 -60.708740 0.000000 44.000000 0.961672 -0.059083 -0.267760
-8480.00000000 -19030.00000000 120.00000000 12 89 205 0.000000 0.000000 0.000000 0.000000 -60.708740 0.000000 44.000000 0.941502 0.319176 -0.108173
-8510.00000000 -18990.00000000 50.00000000 12 89 205 0.000000 0.000000 0.000000 0.000000 -60.708740 0.000000 44.000000 0.908970 0.369045 0.193856
-8480.00000000 -19000.00000000 50.00000000 12 89 205 0.000000 0.000000 0.000000 0.000000 -60.708740 0.000000 44.000000 0.942141 0.069256 -0.327985
-8510.00000000 -18990.00000000 10.00000000 12 89 205 0.000000 0.000000 0.000000 0.000000 -60.708740 0.000000 44.000000 0.984979 -0.163575 -0.055309
-8470.00000000 -19070.00000000 290.00000000 12 89 205 0.000000 0.000000 0.000000 0.000000 -60.708740 0.000000 44.000000 -0.646975 0.319434 0.692377
-8460.00000000 -19090.00000000 280.00000000 12 89 205 0.000000 0.000000 0.000000 0.000000 -60.708740 0.000000 44.000000 0.829060 0.127661 -0.544392
-8450.00000000 -19080.00000000 260.00000000 12 89 205 0.000000 0.000000 0.000000 0.000000 -60.708740 0.000000 44.000000 0.953741 0.150731 -0.260111
-8470.00000000 -19100.00000000 240.00000000 12 89 205 0.000000 0.000000 0.000000 0.000000 -60.708740 0.000000 44.000000 0.843165 -0.373871 -0.386385
-8470.00000000 -19100.00000000 240.00000000 12 89 205 0.000000 0.000000 0.000000 0.000000 -60.708740 0.000000 44.000000 0.843165 -0.373871 -0.386385
-8460.00000000 -19110.00000000 250.00000000 12 89 205 0.000000 0.000000 0.000000 0.000000 -60.708740 0.000000 44.000000 0.779059 -0.249236 -0.575281
-8460.00000000 -19110.00000000 250.00000000 12 89 205 0.000000 0.000000 0.000000 0.000000 -60.708740 0.000000 44.000000 0.779059 -0.249236 -0.575281
-8480.00000000 -19100.00000000 270.00000000 12 89 205 0.000000 0.000000 0.000000 0.000000 -60.708740 0.000000 44.000000 0.758619 -0.212538 -0.615893
-8490.00000000 -19150.00000000 280.00000000 12 89 205 0.000000 0.000000 0.000000 0.000000 -60.708740 0.000000 44.000000 0.937129 0.161005 -0.309624
-8510.00000000 -19120.00000000 250.00000000 12 89 205 0.000000 0.000000 0.000000 0.000000 -60.708740 0.000000 44.000000 -0.643533 0.055649 0.763393
-8470.00000000 -19100.00000000 220.00000000 12 89 205 0.000000 0.000000 0.000000 0.000000 -60.708740 0.000000 44.000000 0.968150 0.073895 -0.239219
-8430.00000000 -19090.00000000 150.00000000 12 89 205 0.000000 0.000000 0.000000 0.000000 -60.708740 0.000000 44.000000 0.859400 -0.185535 -0.476455
-8470.00000000 -19110.00000000 220.00000000 12 89 205 0.000000 0.000000 0.000000 0.000000 -60.708740 0.000000 44.000000 0.725174 -0.278913 -0.629547
-8470.00000000 -19120.00000000 230.00000000 12 89 205 0.000000 0.000000 0.000000 0.000000 -60.708740 0.000000 44.000000 0.936579 -0.250594 -0.244994
-8470.00000000 -19110.00000000 220.00000000 12 89 205 0.000000 0.000000 0.000000 0.000000 -60.708740 0.000000 44.000000 0.725174 -0.278913 -0.629547
-8500.00000000 -19090.00000000 220.00000000 12 89 205 0.000000 0.000000 0.000000 0.000000 -60.708740 0.000000 44.000000 0.977234 -0.141031 -0.158504
-8490.00000000 -19080.00000000 170.00000000 12 89 205 0.000000 0.000000 0.000000 0.000000 -60.708740 0.000000 44.000000 0.881510 -0.118199 -0.457132
-8490.00000000 -19090.00000000 180.00000000 12 89 205 0.000000 0.000000 0.000000 0.000000 -60.708740 0.000000 44.000000 0.947395 0.008715 -0.319948
-8490.00000000 -19110.00000000 190.00000000 12 89 205 0.000000 0.000000 0.000000 0.000000 -60.708740 0.000000 44.000000 0.905885 -0.371312 -0.203716
-8510.00000000 -19110.00000000 190.00000000 12 89 205 0.000000 0.000000 0.000000 0.000000 -60.708740 0.000000 44.000000 0.847805 0.388773 -0.360669
-8460.00000000 -19190.00000000 240.00000000 12 89 205 0.000000 0.000000 0.000000 0.000000 -60.708740 0.000000 44.000000 0.971597 -0.172360 -0.162146
-8470.00000000 -19190.00000000 240.00000000 12 89 205 0.000000 0.000000 0.000000 0.000000 -60.708740 0.000000 44.000000 0.824155 -0.248947 -0.508718
-8440.00000000 -19170.00000000 260.00000000 12 89 205 0.000000 0.000000 0.000000 0.000000 -60.708740 0.000000 44.000000 0.727773 -0.264789 -0.632640
-8470.00000000 -19200.00000000 240.00000000 12 89 205 0.000000 0.000000 0.000000 0.000000 -60.708740 0.000000 44.000000 0.837349 -0.178255 -0.516790
-8470.00000000 -19200.00000000 250.00000000 12 89 205 0.000000 0.000000 0.000000 0.000000 -60.708740 0.000000 44.000000 0.726297 -0.126766 -0.675591
-8460.00000000 -19200.00000000 250.00000000 12 89 205 0.000000 0.000000 0.000000 0.000000 -60.708740 0.000000 44.000000 0.756982 -0.348503 -0.552742
-8480.00000000 -19170.00000000 200.00000000 12 89 205 0.000000 0.000000 0.000000 0.000000 -60.708740 0.000000 44.000000 0.872168 -0.293767 -0.391182
-8520.00000000 -19080.00000000 290.00000000 12 89 205 0.000000 0.000000 0.000000 0.000000 -60.708740 0.000000 44.000000 0.925561 -0.016781 -0.378228
-8520.00000000 -19070.00000000 270.00000000 12 89 205 0.000000 0.000000 0.000000 0.000000 -60.708740 0.000000 44.000000 0.907056 -0.309190 -0.285745
-8520.00000000 -19200.00000000 210.00000000 12 89 205 0.000000 0.000000 0.000000 0.000000 -60.708740 0.000000 44.000000 0.714909 -0.156339 -0.681516
-8520.00000000 -19160.00000000 210.00000000 12 89 205 0.000000 0.000000 0.000000 0.000000 -60.708740 0.000000 44.000000 0.975719 -0.095464 -0.197127
-8470.00000000 -19070.00000000 110.00000000 12 89 205 0.000000 0.000000 0.000000 0.000000 -60.708740 0.000000 44.000000 0.943519 0.329786 0.031833
-8460.00000000 -19090.00000000 140.00000000 12 89 205 0.000000 0.000000 0.000000 0.000000 -60.708740 0.000000 44.000000 0.890875 0.297957 -0.342875
-8470.00000000 -19080.00000000 130.00000000 12 89 205 0.000000 0.000000 0.000000 0.000000 -60.708740 0.000000 44.000000 0.833929 -0.139724 -0.533891
-8470.00000000 -19080.00000000 100.00000000 12 89 205 0.000000 0.000000 0.000000 0.000000 -60.708740 0.000000 44.000000 0.938582 0.160313 -0.305553
-8450.00000000 -19130.00000000 120.00000000 12 89 205 0.000000 0.000000 0.000000 0.000000 -60.708740 0.000000 44.000000 0.946964 0.044728 -0.318211
-8460.00000000 -19120.00000000 100.00000000 12 89 205 0.000000 0.000000 0.000000 0.000000 -60.708740 0.000000 44.000000 0.885001 0.088081 -0.457181
-8460.00000000 -19110.00000000 90.00000000 12 89 205 0.000000 0.000000 0.000000 0.000000 -60.708740 0.000000 44.000000 0.953703 0.133969 -0.269265
-8500.00000000 -19080.00000000 110.00000000 12 89 205 0.000000 0.000000 0.000000 0.000000 -60.708740 0.000000 44.000000 0.888694 -0.393162 -0.235897
-8500.00000000 -19070.00000000 120.00000000 12 89 205 0.000000 0.000000 0.000000 0.000000 -60.708740 0.000000 44.000000 0.904409 -0.313234 -0.289705
-8450.00000000 -19070.00000000 -10.00000000 12 89 205 0.000000 0.000000 0.000000 0.000000 -60.708740 0.000000 44.000000 0.994811 -0.001071 -0.101730
-8470.00000000 -19080.00000000 0.00000000 12 89 205 0.000000 0.000000 0.000000 0.000000 -60.708740 0.000000 44.000000 0.910810 0.388743 0.138937
-8440.00000000 -19130.00000000 60.00000000 12 89 205 0.000000 0.000000 0.000000 0.000000 -60.708740 0.000000 44.000000 0.924946 -0.377610 -0.043419
-8490.00000000 -19110.00000000 10.00000000 12 89 205 0.000000 0.000000 0.000000 0.000000 -60.708740 0.000000 44.000000 0.889090 0.456048 0.039244
-8470.00000000 -19440.00000000 680.00000000 12 89 205 0.000000 0.000000 0.000000 0.000000 -60.708740 0.000000 44.000000 -0.156603 -0.064760 0.985536
-8430.00000000 -19390.00000000 580.00000000 12 89 205 0.000000 0.000000 0.000000 0.000000 -60.708740 0.000000 44.000000 0.731095 0.064890 -0.679183
-8450.00000000 -19440.00000000 600.00000000 12 89 205 0.000000 0.000000 0.000000 0.000000 -60.708740 0.000000 44.000000 -0.678459 -0.052848 0.732735
-8490.00000000 -19540.00000000 520.00000000 12 89 205 0.000000 0.000000 0.000000 0.000000 -60.708740 0.000000 44.000000 -0.581606 -0.157800 0.798018
