//X Y Z R G B PointSourceId ScanDirectionFlag NumberOfReturns ReturnNumber GpsTime Intensity Classification Nx Ny Nz
-3530.00000000 -21040.00000000 -700.00000000 65 107 169 0.000000 0.000000 0.000000 0.000000 -60.708740 0.000000 89.000000 -0.072596 0.273828 0.959035
-3490.00000000 -21010.00000000 -710.00000000 65 107 169 0.000000 0.000000 0.000000 0.000000 -60.708740 0.000000 89.000000 -0.328167 -0.258158 0.908659
-3540.00000000 -21120.00000000 -720.00000000 65 107 169 0.000000 0.000000 0.000000 0.000000 -60.708740 0.000000 89.000000 0.730769 -0.542716 -0.414048
-3640.00000000 -21090.00000000 -720.00000000 65 107 169 0.000000 0.000000 0.000000 0.000000 -60.708740 0.000000 89.000000 -0.044086 -0.666978 0.743772
-3630.00000000 -21120.00000000 -730.00000000 65 107 169 0.000000 0.000000 0.000000 0.000000 -60.708740 0.000000 89.000000 0.049644 -0.034856 0.998159
-3690.00000000 -21120.00000000 -710.00000000 65 107 169 0.000000 0.000000 0.000000 0.000000 -60.708740 0.000000 89.000000 -0.528898 0.717909 -0.452631
-3640.00000000 -21090.00000000 -730.00000000 65 107 169 0.000000 0.000000 0.000000 0.000000 -60.708740 0.000000 89.000000 -0.020747 -0.579542 0.814678
-3630.00000000 -21100.00000000 -730.00000000 65 107 169 0.000000 0.000000 0.000000 0.000000 -60.708740 0.000000 89.000000 -0.165104 -0.607401 0.777049
-3660.00000000 -21100.00000000 -710.00000000 65 107 169 0.000000 0.000000 0.000000 0.000000 -60.708740 0.000000 89.000000 -0.428803 0.788027 -0.441748
-3690.00000000 -21110.00000000 -720.00000000 65 107 169 0.000000 0.000000 0.000000 0.000000 -60.708740 0.000000 89.000000 -0.351779 0.695378 -0.626658
-3670.00000000 -21220.00000000 -710.00000000 65 107 169 0.000000 0.000000 0.000000 0.000000 -60.708740 0.000000 89.000000 0.667159 -0.660634 0.344182
-3680.00000000 -21230.00000000 -710.00000000 65 107 169 0.000000 0.000000 0.000000 0.000000 -60.708740 0.000000 89.000000 -0.456602 0.795423 -0.398518
-3660.00000000 -21210.00000000 -700.00000000 65 107 169 0.000000 0.000000 0.000000 0.000000 -60.708740 0.000000 89.000000 -0.533937 0.777656 -0.331907
-3670.00000000 -21220.00000000 -750.00000000 65 107 169 0.000000 0.000000 0.000000 0.000000 -60.708740 0.000000 89.000000 -0.486487 0.289389 0.824369
-3700.00000000 -21250.00000000 -700.00000000 65 107 169 0.000000 0.000000 0.000000 0.000000 -60.708740 0.000000 89.000000 0.702042 -0.660651 0.265852
-3360.00000000 -21270.00000000 -540.00000000 65 107 169 0.000000 0.000000 0.000000 0.000000 -60.708740 0.000000 111.000000 -0.522664 0.849506 -0.071849
-3750.00000000 -21170.00000000 -680.00000000 65 107 169 0.000000 0.000000 0.000000 0.000000 -60.708740 0.000000 89.000000 0.706599 -0.393653 -0.588009
-3730.00000000 -21140.00000000 -680.00000000 65 107 169 0.000000 0.000000 0.000000 0.000000 -60.708740 0.000000 89.000000 -0.570236 0.644249 0.509680
-3750.00000000 -21150.00000000 -680.00000000 65 107 169 0.000000 0.000000 0.000000 0.000000 -60.708740 0.000000 89.000000 0.720816 -0.668561 -0.182894
-3760.00000000 -21190.00000000 -670.00000000 65 107 169 0.000000 0.000000 0.000000 0.000000 -60.708740 0.000000 89.000000 0.771255 -0.256038 -0.582761
-3760.00000000 -21180.00000000 -680.00000000 65 107 169 0.000000 0.000000 0.000000 0.000000 -60.708740 0.000000 89.000000 0.840887 -0.253650 -0.478091
-3760.00000000 -21190.00000000 -670.00000000 65 107 169 0.000000 0.000000 0.000000 0.000000 -60.708740 0.000000 89.000000 0.771255 -0.256038 -0.582761
-3760.00000000 -21190.00000000 -650.00000000 65 107 169 0.000000 0.000000 0.000000 0.000000 -60.708740 0.000000 89.000000 -0.374396 0.343582 0.861266
-3740.00000000 -21200.00000000 -650.00000000 65 107 169 0.000000 0.000000 0.000000 0.000000 -60.708740 0.000000 89.000000 -0.412575 -0.299079 0.860426
-3750.00000000 -21180.00000000 -660.00000000 65 107 169 0.000000 0.000000 0.000000 0.000000 -60.708740 0.000000 89.000000 -0.482343 0.232803 0.844481
-3820.00000000 -21220.00000000 -690.00000000 65 107 169 0.000000 0.000000 0.000000 0.000000 -60.708740 0.000000 89.000000 -0.394495 0.357073 0.846683
-3740.00000000 -21140.00000000 -720.00000000 65 107 169 0.000000 0.000000 0.000000 0.000000 -60.708740 0.000000 89.000000 -0.584586 0.802517 0.119273
-3730.00000000 -21120.00000000 -770.00000000 65 107 169 0.000000 0.000000 0.000000 0.000000 -60.708740 0.000000 89.000000 0.418167 -0.563616 0.712371
-3750.00000000 -21140.00000000 -710.00000000 65 107 169 0.000000 0.000000 0.000000 0.000000 -60.708740 0.000000 89.000000 -0.444275 0.895262 -0.033556
-3780.00000000 -21180.00000000 -770.00000000 65 107 169 0.000000 0.000000 0.000000 0.000000 -60.708740 0.000000 89.000000 -0.300035 0.882014 -0.363360
-3770.00000000 -21180.00000000 -700.00000000 65 107 169 0.000000 0.000000 0.000000 0.000000 -60.708740 0.000000 89.000000 -0.441130 0.803658 0.399423
-3810.00000000 -21160.00000000 -750.00000000 65 107 169 0.000000 0.000000 0.000000 0.000000 -60.708740 0.000000 89.000000 0.720596 -0.576148 0.385740
-3810.00000000 -21180.00000000 -730.00000000 65 107 169 0.000000 0.000000 0.000000 0.000000 -60.708740 0.000000 89.000000 0.816115 -0.440670 -0.373854
-3820.00000000 -21190.00000000 -720.00000000 65 107 169 0.000000 0.000000 0.000000 0.000000 -60.708740 0.000000 89.000000 0.945305 -0.308915 -0.104739
-3810.00000000 -21190.00000000 -710.00000000 65 107 169 0.000000 0.000000 0.000000 0.000000 -60.708740 0.000000 89.000000 -0.544798 0.534678 0.645999
-3850.00000000 -21250.00000000 -730.00000000 65 107 169 0.000000 0.000000 0.000000 0.000000 -60.708740 0.000000 89.000000 0.768138 -0.339784 -0.542689
-3820.00000000 -21190.00000000 -790.00000000 65 107 169 0.000000 0.000000 0.000000 0.000000 -60.708740 0.000000 89.000000 -0.602279 0.796927 -0.046546
-3870.00000000 -21220.00000000 -790.00000000 65 107 169 0.000000 0.000000 0.000000 0.000000 -60.708740 0.000000 89.000000 -0.398921 0.904316 -0.151902
-3880.00000000 -21250.00000000 -810.00000000 65 107 169 0.000000 0.000000 0.000000 0.000000 -60.708740 0.000000 89.000000 -0.302946 0.742137 -0.597877
-3870.00000000 -21230.00000000 -800.00000000 65 107 169 0.000000 0.000000 0.000000 0.000000 -60.708740 0.000000 89.000000 -0.243863 0.799933 -0.548304
-3810.00000000 -21280.00000000 -680.00000000 65 107 169 0.000000 0.000000 0.000000 0.000000 -60.708740 0.000000 89.000000 0.724889 -0.004158 -0.688853
-3740.00000000 -21260.00000000 -710.00000000 65 107 169 0.000000 0.000000 0.000000 0.000000 -60.708740 0.000000 89.000000 0.231839 -0.511274 0.827557
-3720.00000000 -21270.00000000 -730.00000000 65 107 169 0.000000 0.000000 0.000000 0.000000 -60.708740 0.000000 89.000000 0.859679 -0.463597 0.214545
-3720.00000000 -21270.00000000 -720.00000000 65 107 169 0.000000 0.000000 0.000000 0.000000 -60.708740 0.000000 89.000000 -0.661088 0.747504 -0.064813
-3730.00000000 -21290.00000000 -760.00000000 65 107 169 0.000000 0.000000 0.000000 0.000000 -60.708740 0.000000 89.000000 -0.682838 0.728647 0.052966
-3740.00000000 -21300.00000000 -740.00000000 65 107 169 0.000000 0.000000 0.000000 0.000000 -60.708740 0.000000 89.000000 0.457162 -0.813972 0.358403
-3780.00000000 -21310.00000000 -720.00000000 65 107 169 0.000000 0.000000 0.000000 0.000000 -60.708740 0.000000 89.000000 0.503370 -0.340374 0.794206
-3740.00000000 -21310.00000000 -780.00000000 65 107 169 0.000000 0.000000 0.000000 0.000000 -60.708740 0.000000 89.000000 0.812520 -0.486245 -0.321523
-3770.00000000 -21330.00000000 -800.00000000 65 107 169 0.000000 0.000000 0.000000 0.000000 -60.708740 0.000000 89.000000 -0.424222 0.543071 0.724644
-3790.00000000 -21340.00000000 -800.00000000 65 107 169 0.000000 0.000000 0.000000 0.000000 -60.708740 0.000000 89.000000 0.536479 -0.533115 -0.654201
-3780.00000000 -21360.00000000 -770.00000000 65 107 169 0.000000 0.000000 0.000000 0.000000 -60.708740 0.000000 89.000000 0.905004 -0.384159 -0.182727
-3820.00000000 -21290.00000000 -740.00000000 65 107 169 0.000000 0.000000 0.000000 0.000000 -60.708740 0.000000 89.000000 -0.630030 0.616589 0.472102
-3830.00000000 -21330.00000000 -710.00000000 65 107 169 0.000000 0.000000 0.000000 0.000000 -60.708740 0.000000 89.000000 -0.194664 -0.373466 0.906989
-3840.00000000 -21310.00000000 -720.00000000 65 107 169 0.000000 0.000000 0.000000 0.000000 -60.708740 0.000000 89.000000 -0.619033 0.015233 0.785217
-3880.00000000 -21310.00000000 -730.00000000 65 107 169 0.000000 0.000000 0.000000 0.000000 -60.708740 0.000000 89.000000 -0.392692 0.506752 0.767460
-3820.00000000 -21320.00000000 -820.00000000 65 107 169 0.000000 0.000000 0.000000 0.000000 -60.708740 0.000000 89.000000 -0.472256 -0.106364 0.875021
-3830.00000000 -21350.00000000 -730.00000000 65 107 169 0.000000 0.000000 0.000000 0.000000 -60.708740 0.000000 89.000000 -0.052023 -0.290565 0.955440
-3820.00000000 -21370.00000000 -750.00000000 65 107 169 0.000000 0.000000 0.000000 0.000000 -60.708740 0.000000 89.000000 -0.384121 0.647895 -0.657787
-3800.00000000 -21380.00000000 -750.00000000 65 107 169 0.000000 0.000000 0.000000 0.000000 -60.708740 0.000000 89.000000 -0.514556 0.747996 -0.419207
-3830.00000000 -21400.00000000 -740.00000000 65 107 169 0.000000 0.000000 0.000000 0.000000 -60.708740 0.000000 89.000000 -0.231088 0.896384 -0.378277
-3860.00000000 -21370.00000000 -720.00000000 65 107 169 0.000000 0.000000 0.000000 0.000000 -60.708740 0.000000 89.000000 0.198064 -0.141839 0.969872
-3880.00000000 -21390.00000000 -730.00000000 65 107 169 0.000000 0.000000 0.000000 0.000000 -60.708740 0.000000 89.000000 -0.103989 -0.491453 0.864673
-3870.00000000 -21420.00000000 -760.00000000 65 107 169 0.000000 0.000000 0.000000 0.000000 -60.708740 0.000000 89.000000 0.156631 -0.376760 0.912973
-3850.00000000 -21420.00000000 -770.00000000 65 107 169 0.000000 0.000000 0.000000 0.000000 -60.708740 0.000000 89.000000 -0.409577 0.638409 -0.651675
-3880.00000000 -21410.00000000 -740.00000000 65 107 169 0.000000 0.000000 0.000000 0.000000 -60.708740 0.000000 89.000000 -0.218308 -0.221020 0.950522
-3840.00000000 -21410.00000000 -740.00000000 65 107 169 0.000000 0.000000 0.000000 0.000000 -60.708740 0.000000 89.000000 -0.450944 0.831183 -0.325245
-3880.00000000 -21390.00000000 -740.00000000 65 107 169 0.000000 0.000000 0.000000 0.000000 -60.708740 0.000000 89.000000 0.132353 -0.380341 0.915327
-3880.00000000 -21390.00000000 -740.00000000 65 107 169 0.000000 0.000000 0.000000 0.000000 -60.708740 0.000000 89.000000 0.132353 -0.380341 0.915327
-3820.00000000 -21420.00000000 -790.00000000 65 107 169 0.000000 0.000000 0.000000 0.000000 -60.708740 0.000000 89.000000 0.740648 -0.620629 0.257411
-3800.00000000 -21370.00000000 -780.00000000 65 107 169 0.000000 0.000000 0.000000 0.000000 -60.708740 0.000000 89.000000 -0.695965 0.686624 0.210191
-3860.00000000 -21430.00000000 -760.00000000 65 107 169 0.000000 0.000000 0.000000 0.000000 -60.708740 0.000000 89.000000 0.491148 -0.441869 0.750684
-3880.00000000 -21430.00000000 -750.00000000 65 107 169 0.000000 0.000000 0.000000 0.000000 -60.708740 0.000000 89.000000 0.635314 -0.381189 0.671618
-3840.00000000 -21460.00000000 -760.00000000 65 107 169 0.000000 0.000000 0.000000 0.000000 -60.708740 0.000000 89.000000 0.855130 -0.491810 0.163937
-3900.00000000 -21320.00000000 -750.00000000 65 107 169 0.000000 0.000000 0.000000 0.000000 -60.708740 0.000000 89.000000 0.935917 -0.317470 -0.152550
-3900.00000000 -21320.00000000 -730.00000000 65 107 169 0.000000 0.000000 0.000000 0.000000 -60.708740 0.000000 89.000000 -0.482703 0.309747 0.819179
-3890.00000000 -21310.00000000 -750.00000000 65 107 169 0.000000 0.000000 0.000000 0.000000 -60.708740 0.000000 89.000000 0.717770 -0.346678 -0.603838
-3900.00000000 -21260.00000000 -780.00000000 65 107 169 0.000000 0.000000 0.000000 0.000000 -60.708740 0.000000 89.000000 -0.451860 0.774851 -0.442073
-3890.00000000 -21270.00000000 -790.00000000 65 107 169 0.000000 0.000000 0.000000 0.000000 -60.708740 0.000000 89.000000 -0.639055 0.753874 -0.152588
-3920.00000000 -21270.00000000 -840.00000000 65 107 169 0.000000 0.000000 0.000000 0.000000 -60.708740 0.000000 89.000000 0.432718 -0.416632 0.799483
-3910.00000000 -21280.00000000 -840.00000000 65 107 169 0.000000 0.000000 0.000000 0.000000 -60.708740 0.000000 89.000000 0.387452 -0.595192 0.704008
-3910.00000000 -21280.00000000 -840.00000000 65 107 169 0.000000 0.000000 0.000000 0.000000 -60.708740 0.000000 89.000000 0.387452 -0.595192 0.704008
-3920.00000000 -21310.00000000 -850.00000000 65 107 169 0.000000 0.000000 0.000000 0.000000 -60.708740 0.000000 89.000000 0.279674 -0.360435 0.889870
-3930.00000000 -21310.00000000 -790.00000000 65 107 169 0.000000 0.000000 0.000000 0.000000 -60.708740 0.000000 89.000000 0.928193 -0.368914 0.048576
-3930.00000000 -21370.00000000 -750.00000000 65 107 169 0.000000 0.000000 0.000000 0.000000 -60.708740 0.000000 89.000000 -0.548414 0.084482 0.831928
-3920.00000000 -21390.00000000 -750.00000000 65 107 169 0.000000 0.000000 0.000000 0.000000 -60.708740 0.000000 89.000000 0.683137 -0.156016 -0.713431
-3900.00000000 -21380.00000000 -750.00000000 65 107 169 0.000000 0.000000 0.000000 0.000000 -60.708740 0.000000 89.000000 -0.404584 -0.109836 0.907881
-3930.00000000 -21390.00000000 -770.00000000 65 107 169 0.000000 0.000000 0.000000 0.000000 -60.708740 0.000000 89.000000 0.792031 -0.459733 -0.401661
-3890.00000000 -21370.00000000 -730.00000000 65 107 169 0.000000 0.000000 0.000000 0.000000 -60.708740 0.000000 89.000000 -0.581375 -0.020714 0.813372
-3940.00000000 -21380.00000000 -770.00000000 65 107 169 0.000000 0.000000 0.000000 0.000000 -60.708740 0.000000 89.000000 0.824541 -0.127870 -0.551164
-3890.00000000 -21360.00000000 -740.00000000 65 107 169 0.000000 0.000000 0.000000 0.000000 -60.708740 0.000000 89.000000 -0.494811 0.173853 0.851432
-3930.00000000 -21400.00000000 -790.00000000 65 107 169 0.000000 0.000000 0.000000 0.000000 -60.708740 0.000000 89.000000 0.882679 -0.464203 -0.073441
-3940.00000000 -21430.00000000 -750.00000000 65 107 169 0.000000 0.000000 0.000000 0.000000 -60.708740 0.000000 89.000000 0.044013 -0.118496 0.991979
-3930.00000000 -21440.00000000 -750.00000000 65 107 169 0.000000 0.000000 0.000000 0.000000 -60.708740 0.000000 89.000000 -0.088446 0.097635 0.991284
-3940.00000000 -21500.00000000 -750.00000000 65 107 169 0.000000 0.000000 0.000000 0.000000 -60.708740 0.000000 89.000000 -0.184012 -0.573325 0.798397
-3910.00000000 -21450.00000000 -760.00000000 65 107 169 0.000000 0.000000 0.000000 0.000000 -60.708740 0.000000 89.000000 -0.015960 -0.283592 0.958812
-3960.00000000 -21500.00000000 -770.00000000 65 107 169 0.000000 0.000000 0.000000 0.000000 -60.708740 0.000000 89.000000 0.209195 -0.542074 0.813875
-3940.00000000 -21440.00000000 -750.00000000 65 107 169 0.000000 0.000000 0.000000 0.000000 -60.708740 0.000000 89.000000 -0.207022 -0.140158 0.968245
-3920.00000000 -21440.00000000 -760.00000000 65 107 169 0.000000 0.000000 0.000000 0.000000 -60.708740 0.000000 89.000000 -0.007472 -0.090726 0.995848
-3940.00000000 -21440.00000000 -750.00000000 65 107 169 0.000000 0.000000 0.000000 0.000000 -60.708740 0.000000 89.000000 -0.207022 -0.140158 0.968245
-3940.00000000 -21500.00000000 -750.00000000 65 107 169 0.000000 0.000000 0.000000 0.000000 -60.708740 0.000000 89.000000 -0.184012 -0.573325 0.798397
-3900.00000000 -21510.00000000 -810.00000000 65 107 169 0.000000 0.000000 0.000000 0.000000 -60.708740 0.000000 89.000000 -0.639907 0.768168 -0.020912
-3950.00000000 -21470.00000000 -820.00000000 65 107 169 0.000000 0.000000 0.000000 0.000000 -60.708740 0.000000 89.000000 -0.574445 0.790055 0.214069
-3890.00000000 -21460.00000000 -850.00000000 65 107 169 0.000000 0.000000 0.000000 0.000000 -60.708740 0.000000 89.000000 0.734997 -0.578545 -0.353646
-3940.00000000 -21500.00000000 -780.00000000 65 107 169 0.000000 0.000000 0.000000 0.000000 -60.708740 0.000000 89.000000 0.290799 -0.372162 0.881437
-3900.00000000 -21500.00000000 -830.00000000 65 107 169 0.000000 0.000000 0.000000 0.000000 -60.708740 0.000000 89.000000 0.921492 -0.308119 -0.236464
-3890.00000000 -21440.00000000 -790.00000000 65 107 169 0.000000 0.000000 0.000000 0.000000 -60.708740 0.000000 89.000000 0.627937 -0.723806 0.286007
-3960.00000000 -21550.00000000 -770.00000000 65 107 169 0.000000 0.000000 0.000000 0.000000 -60.708740 0.000000 89.000000 0.649592 -0.395045 0.649592
-3900.00000000 -21520.00000000 -790.00000000 65 107 169 0.000000 0.000000 0.000000 0.000000 -60.708740 0.000000 89.000000 0.707424 -0.561632 0.429093
-3910.00000000 -21520.00000000 -820.00000000 65 107 169 0.000000 0.000000 0.000000 0.000000 -60.708740 0.000000 89.000000 0.749107 -0.650814 0.123610
-3930.00000000 -21530.00000000 -810.00000000 65 107 169 0.000000 0.000000 0.000000 0.000000 -60.708740 0.000000 89.000000 -0.460257 0.872297 -0.165108
-3930.00000000 -21530.00000000 -860.00000000 65 107 169 0.000000 0.000000 0.000000 0.000000 -60.708740 0.000000 89.000000 -0.624332 0.293709 0.723840
-3910.00000000 -21520.00000000 -850.00000000 65 107 169 0.000000 0.000000 0.000000 0.000000 -60.708740 0.000000 89.000000 0.940017 -0.285732 -0.186347
-3950.00000000 -21570.00000000 -820.00000000 65 107 169 0.000000 0.000000 0.000000 0.000000 -60.708740 0.000000 89.000000 -0.537411 0.837093 -0.102295
-3980.00000000 -21440.00000000 -800.00000000 65 107 169 0.000000 0.000000 0.000000 0.000000 -60.708740 0.000000 89.000000 -0.529808 0.460052 0.712500
-3970.00000000 -21430.00000000 -830.00000000 65 107 169 0.000000 0.000000 0.000000 0.000000 -60.708740 0.000000 89.000000 0.841992 -0.399828 0.362198
-3990.00000000 -21580.00000000 -800.00000000 65 107 169 0.000000 0.000000 0.000000 0.000000 -60.708740 0.000000 89.000000 0.159533 -0.727776 0.667001
-3980.00000000 -21560.00000000 -800.00000000 65 107 169 0.000000 0.000000 0.000000 0.000000 -60.708740 0.000000 89.000000 -0.293285 0.885873 -0.359463
-3970.00000000 -21590.00000000 -810.00000000 65 107 169 0.000000 0.000000 0.000000 0.000000 -60.708740 0.000000 89.000000 0.661766 -0.577998 0.477477
-3970.00000000 -21590.00000000 -840.00000000 65 107 169 0.000000 0.000000 0.000000 0.000000 -60.708740 0.000000 89.000000 0.847387 -0.480540 0.225869
-4010.00000000 -21520.00000000 -800.00000000 65 107 169 0.000000 0.000000 0.000000 0.000000 -60.708740 0.000000 89.000000 -0.469897 -0.062010 0.880540
-4000.00000000 -21620.00000000 -820.00000000 65 107 169 0.000000 0.000000 0.000000 0.000000 -60.708740 0.000000 89.000000 0.500797 -0.537645 0.678337
-4000.00000000 -21600.00000000 -800.00000000 65 107 169 0.000000 0.000000 0.000000 0.000000 -60.708740 0.000000 89.000000 0.696178 -0.408446 0.590346
-3980.00000000 -21630.00000000 -840.00000000 65 107 169 0.000000 0.000000 0.000000 0.000000 -60.708740 0.000000 89.000000 -0.497257 0.866412 -0.045456
-4020.00000000 -21620.00000000 -800.00000000 65 107 169 0.000000 0.000000 0.000000 0.000000 -60.708740 0.000000 89.000000 0.551676 -0.498017 0.669054
-4010.00000000 -21610.00000000 -810.00000000 65 107 169 0.000000 0.000000 0.000000 0.000000 -60.708740 0.000000 89.000000 -0.221420 0.778840 -0.586840
-4040.00000000 -21630.00000000 -800.00000000 65 107 169 0.000000 0.000000 0.000000 0.000000 -60.708740 0.000000 89.000000 -0.281302 0.764441 -0.580085
-4010.00000000 -21620.00000000 -830.00000000 65 107 169 0.000000 0.000000 0.000000 0.000000 -60.708740 0.000000 89.000000 0.813124 -0.536447 0.225953
-4020.00000000 -21640.00000000 -840.00000000 65 107 169 0.000000 0.000000 0.000000 0.000000 -60.708740 0.000000 89.000000 -0.411106 0.908257 -0.077851
-4050.00000000 -21540.00000000 -820.00000000 65 107 169 0.000000 0.000000 0.000000 0.000000 -60.708740 0.000000 89.000000 0.723767 -0.182863 -0.665374
-4060.00000000 -21670.00000000 -830.00000000 65 107 169 0.000000 0.000000 0.000000 0.000000 -60.708740 0.000000 89.000000 -0.456748 0.802915 -0.383027
-4050.00000000 -21620.00000000 -790.00000000 65 107 169 0.000000 0.000000 0.000000 0.000000 -60.708740 0.000000 89.000000 0.018396 -0.278398 0.960290
-3020.00000000 -20430.00000000 -130.00000000 65 107 169 0.000000 0.000000 0.000000 0.000000 -60.708740 0.000000 125.000000 0.016212 -0.094032 0.995437
-3020.00000000 -20620.00000000 -430.00000000 65 107 169 0.000000 0.000000 0.000000 0.000000 -60.708740 0.000000 125.000000 -0.388830 0.881247 -0.268728
-3020.00000000 -20640.00000000 -460.00000000 65 107 169 0.000000 0.000000 0.000000 0.000000 -60.708740 0.000000 125.000000 -0.409574 0.908186 -0.086298
-3100.00000000 -20680.00000000 -300.00000000 65 107 169 0.000000 0.000000 0.000000 0.000000 -60.708740 0.000000 112.000000 0.391658 -0.495666 0.775190
-3280.00000000 -20760.00000000 -210.00000000 65 107 169 0.000000 0.000000 0.000000 0.000000 -60.708740 0.000000 89.000000 -0.345285 -0.518730 0.782111
-3250.00000000 -20830.00000000 -350.00000000 65 107 169 0.000000 0.000000 0.000000 0.000000 -60.708740 0.000000 89.000000 0.073980 -0.689032 0.720945
-3050.00000000 -20660.00000000 -500.00000000 65 107 169 0.000000 0.000000 0.000000 0.000000 -60.708740 0.000000 125.000000 -0.402348 0.915375 -0.014323
-3050.00000000 -20650.00000000 -510.00000000 65 107 169 0.000000 0.000000 0.000000 0.000000 -60.708740 0.000000 125.000000 0.757629 -0.578232 -0.302731
-3040.00000000 -20670.00000000 -480.00000000 65 107 169 0.000000 0.000000 0.000000 0.000000 -60.708740 0.000000 125.000000 -0.462349 0.884912 0.056250
-3040.00000000 -20630.00000000 -490.00000000 65 107 169 0.000000 0.000000 0.000000 0.000000 -60.708740 0.000000 125.000000 0.851985 -0.486634 0.193156
-3200.00000000 -20860.00000000 -510.00000000 65 107 169 0.000000 0.000000 0.000000 0.000000 -60.708740 0.000000 89.000000 0.836958 -0.521798 0.165013
-3140.00000000 -20780.00000000 -460.00000000 65 107 169 0.000000 0.000000 0.000000 0.000000 -60.708740 0.000000 89.000000 -0.604321 0.724213 -0.332133
-3160.00000000 -20810.00000000 -510.00000000 65 107 169 0.000000 0.000000 0.000000 0.000000 -60.708740 0.000000 89.000000 -0.329479 0.930047 -0.162654
-3180.00000000 -20810.00000000 -530.00000000 65 107 169 0.000000 0.000000 0.000000 0.000000 -60.708740 0.000000 89.000000 0.810772 -0.527547 0.253658
-3190.00000000 -20890.00000000 -600.00000000 65 107 169 0.000000 0.000000 0.000000 0.000000 -60.708740 0.000000 89.000000 -0.419849 0.856616 0.299892
-3200.00000000 -20860.00000000 -560.00000000 65 107 169 0.000000 0.000000 0.000000 0.000000 -60.708740 0.000000 89.000000 0.806557 -0.495977 0.321672
-3210.00000000 -20790.00000000 -490.00000000 65 107 169 0.000000 0.000000 0.000000 0.000000 -60.708740 0.000000 89.000000 0.703078 -0.433814 0.563460
-3270.00000000 -20840.00000000 -430.00000000 65 107 169 0.000000 0.000000 0.000000 0.000000 -60.708740 0.000000 89.000000 0.400455 -0.442269 0.802517
-3230.00000000 -20840.00000000 -360.00000000 65 107 169 0.000000 0.000000 0.000000 0.000000 -60.708740 0.000000 89.000000 0.018148 0.735699 -0.677066
-3210.00000000 -20860.00000000 -520.00000000 65 107 169 0.000000 0.000000 0.000000 0.000000 -60.708740 0.000000 89.000000 -0.619222 0.760582 -0.195139
-3270.00000000 -20920.00000000 -490.00000000 65 107 169 0.000000 0.000000 0.000000 0.000000 -60.708740 0.000000 89.000000 -0.328484 0.777145 -0.536791
-3310.00000000 -20880.00000000 -480.00000000 65 107 169 0.000000 0.000000 0.000000 0.000000 -60.708740 0.000000 89.000000 0.393756 -0.293416 0.871128
-3270.00000000 -20870.00000000 -550.00000000 65 107 169 0.000000 0.000000 0.000000 0.000000 -60.708740 0.000000 89.000000 0.835542 -0.462115 0.297185
-3220.00000000 -20890.00000000 -550.00000000 65 107 169 0.000000 0.000000 0.000000 0.000000 -60.708740 0.000000 89.000000 0.833637 -0.507498 0.217934
-3220.00000000 -20890.00000000 -660.00000000 65 107 169 0.000000 0.000000 0.000000 0.000000 -60.708740 0.000000 89.000000 -0.636844 0.685958 0.351983
-3360.00000000 -20890.00000000 -580.00000000 65 107 169 0.000000 0.000000 0.000000 0.000000 -60.708740 0.000000 89.000000 -0.457630 0.700590 -0.547492
-3320.00000000 -20920.00000000 -620.00000000 65 107 169 0.000000 0.000000 0.000000 0.000000 -60.708740 0.000000 89.000000 -0.623753 0.705183 0.337120
-3190.00000000 -21090.00000000 -450.00000000 65 107 169 0.000000 0.000000 0.000000 0.000000 -60.708740 0.000000 126.000000 -0.459836 0.867923 -0.187779
-3310.00000000 -21030.00000000 -610.00000000 65 107 169 0.000000 0.000000 0.000000 0.000000 -60.708740 0.000000 89.000000 -0.486566 0.865484 0.119130
-3340.00000000 -21040.00000000 -640.00000000 65 107 169 0.000000 0.000000 0.000000 0.000000 -60.708740 0.000000 89.000000 -0.667567 0.742220 0.058861
-3210.00000000 -21100.00000000 -480.00000000 65 107 169 0.000000 0.000000 0.000000 0.000000 -60.708740 0.000000 126.000000 -0.611849 0.747816 -0.257704
-3230.00000000 -21130.00000000 -600.00000000 65 107 169 0.000000 0.000000 0.000000 0.000000 -60.708740 0.000000 126.000000 -0.639380 0.756175 -0.139256
-3270.00000000 -21220.00000000 -670.00000000 65 107 169 0.000000 0.000000 0.000000 0.000000 -60.708740 0.000000 111.000000 0.899723 -0.407664 0.155914
-3320.00000000 -21210.00000000 -580.00000000 65 107 169 0.000000 0.000000 0.000000 0.000000 -60.708740 0.000000 111.000000 -0.689030 0.718413 -0.095495
-3300.00000000 -21210.00000000 -560.00000000 65 107 169 0.000000 0.000000 0.000000 0.000000 -60.708740 0.000000 111.000000 -0.360030 0.860672 -0.360030
-3520.00000000 -20780.00000000 -460.00000000 65 107 169 0.000000 0.000000 0.000000 0.000000 -60.708740 0.000000 89.000000 0.636789 -0.682625 -0.358501
-3430.00000000 -20870.00000000 -570.00000000 65 107 169 0.000000 0.000000 0.000000 0.000000 -60.708740 0.000000 89.000000 -0.367756 0.583506 0.724070
-3420.00000000 -20890.00000000 -560.00000000 65 107 169 0.000000 0.000000 0.000000 0.000000 -60.708740 0.000000 89.000000 0.682967 -0.114075 -0.721486
-3490.00000000 -20800.00000000 -560.00000000 65 107 169 0.000000 0.000000 0.000000 0.000000 -60.708740 0.000000 89.000000 0.638922 -0.712582 -0.289837
-3500.00000000 -20840.00000000 -570.00000000 65 107 169 0.000000 0.000000 0.000000 0.000000 -60.708740 0.000000 89.000000 0.828093 -0.446382 -0.339124
-3550.00000000 -20750.00000000 -430.00000000 65 107 169 0.000000 0.000000 0.000000 0.000000 -60.708740 0.000000 89.000000 -0.424461 0.343015 0.837958
-3580.00000000 -20760.00000000 -400.00000000 65 107 169 0.000000 0.000000 0.000000 0.000000 -60.708740 0.000000 89.000000 0.433227 -0.479002 -0.763460
-3450.00000000 -20960.00000000 -570.00000000 65 107 169 0.000000 0.000000 0.000000 0.000000 -60.708740 0.000000 89.000000 0.168616 -0.235000 0.957259
-3430.00000000 -21010.00000000 -550.00000000 65 107 169 0.000000 0.000000 0.000000 0.000000 -60.708740 0.000000 89.000000 -0.413239 0.739220 -0.531778
-3450.00000000 -21050.00000000 -580.00000000 65 107 169 0.000000 0.000000 0.000000 0.000000 -60.708740 0.000000 89.000000 0.482432 -0.482432 0.731108
-3450.00000000 -21010.00000000 -530.00000000 65 107 169 0.000000 0.000000 0.000000 0.000000 -60.708740 0.000000 89.000000 -0.043728 -0.183185 0.982106
-3430.00000000 -21060.00000000 -560.00000000 65 107 169 0.000000 0.000000 0.000000 0.000000 -60.708740 0.000000 89.000000 -0.543089 0.786925 -0.292920
-3440.00000000 -21050.00000000 -560.00000000 65 107 169 0.000000 0.000000 0.000000 0.000000 -60.708740 0.000000 89.000000 0.495771 -0.351372 0.794197
-3450.00000000 -21040.00000000 -560.00000000 65 107 169 0.000000 0.000000 0.000000 0.000000 -60.708740 0.000000 89.000000 -0.226790 0.739804 -0.633448
-3430.00000000 -21020.00000000 -560.00000000 65 107 169 0.000000 0.000000 0.000000 0.000000 -60.708740 0.000000 89.000000 0.514112 -0.256279 0.818541
-3380.00000000 -21060.00000000 -600.00000000 65 107 169 0.000000 0.000000 0.000000 0.000000 -60.708740 0.000000 89.000000 -0.558088 0.829590 -0.017826
-3490.00000000 -20940.00000000 -560.00000000 65 107 169 0.000000 0.000000 0.000000 0.000000 -60.708740 0.000000 89.000000 -0.246526 0.095800 0.964390
-3480.00000000 -20970.00000000 -540.00000000 65 107 169 0.000000 0.000000 0.000000 0.000000 -60.708740 0.000000 89.000000 -0.157977 -0.095269 0.982836
-3540.00000000 -21050.00000000 -540.00000000 65 107 169 0.000000 0.000000 0.000000 0.000000 -60.708740 0.000000 89.000000 0.080618 0.024723 0.996438
-3520.00000000 -21070.00000000 -570.00000000 65 107 169 0.000000 0.000000 0.000000 0.000000 -60.708740 0.000000 89.000000 0.402149 -0.318945 0.858225
-3520.00000000 -21040.00000000 -540.00000000 65 107 169 0.000000 0.000000 0.000000 0.000000 -60.708740 0.000000 89.000000 -0.187527 -0.577828 0.794323
-3510.00000000 -21060.00000000 -540.00000000 65 107 169 0.000000 0.000000 0.000000 0.000000 -60.708740 0.000000 89.000000 -0.066275 -0.540067 0.839008
-3540.00000000 -21060.00000000 -530.00000000 65 107 169 0.000000 0.000000 0.000000 0.000000 -60.708740 0.000000 89.000000 0.245436 -0.332572 0.910581
-3540.00000000 -21020.00000000 -550.00000000 65 107 169 0.000000 0.000000 0.000000 0.000000 -60.708740 0.000000 89.000000 -0.608722 -0.215299 0.763613
-3460.00000000 -21060.00000000 -570.00000000 65 107 169 0.000000 0.000000 0.000000 0.000000 -60.708740 0.000000 89.000000 -0.257596 0.734859 -0.627396
-3470.00000000 -21040.00000000 -560.00000000 65 107 169 0.000000 0.000000 0.000000 0.000000 -60.708740 0.000000 89.000000 -0.452127 0.582260 -0.675688
-3510.00000000 -21090.00000000 -590.00000000 65 107 169 0.000000 0.000000 0.000000 0.000000 -60.708740 0.000000 89.000000 0.496448 -0.476524 0.725578
-3520.00000000 -21090.00000000 -540.00000000 65 107 169 0.000000 0.000000 0.000000 0.000000 -60.708740 0.000000 89.000000 -0.129391 -0.626131 0.768907
-3560.00000000 -20980.00000000 -560.00000000 65 107 169 0.000000 0.000000 0.000000 0.000000 -60.708740 0.000000 89.000000 -0.300878 0.456773 0.837157
-3570.00000000 -21010.00000000 -660.00000000 65 107 169 0.000000 0.000000 0.000000 0.000000 -60.708740 0.000000 89.000000 0.813631 -0.495732 0.303734
-3620.00000000 -21030.00000000 -650.00000000 65 107 169 0.000000 0.000000 0.000000 0.000000 -60.708740 0.000000 89.000000 -0.456922 0.851189 0.258260
-3590.00000000 -21050.00000000 -670.00000000 65 107 169 0.000000 0.000000 0.000000 0.000000 -60.708740 0.000000 89.000000 0.848070 -0.466056 0.252129
-3630.00000000 -21060.00000000 -600.00000000 65 107 169 0.000000 0.000000 0.000000 0.000000 -60.708740 0.000000 89.000000 0.561614 -0.541375 -0.625702
-3560.00000000 -21100.00000000 -550.00000000 65 107 169 0.000000 0.000000 0.000000 0.000000 -60.708740 0.000000 89.000000 -0.050916 0.015587 0.998581
-3600.00000000 -21150.00000000 -600.00000000 65 107 169 0.000000 0.000000 0.000000 0.000000 -60.708740 0.000000 89.000000 0.247639 -0.657743 0.711372
-3600.00000000 -21150.00000000 -660.00000000 65 107 169 0.000000 0.000000 0.000000 0.000000 -60.708740 0.000000 89.000000 0.267169 -0.595992 0.757242
-3610.00000000 -21160.00000000 -610.00000000 65 107 169 0.000000 0.000000 0.000000 0.000000 -60.708740 0.000000 89.000000 0.339463 -0.605837 0.719532
-3650.00000000 -21090.00000000 -600.00000000 65 107 169 0.000000 0.000000 0.000000 0.000000 -60.708740 0.000000 89.000000 0.708442 -0.012526 -0.705658
-3700.00000000 -21120.00000000 -640.00000000 65 107 169 0.000000 0.000000 0.000000 0.000000 -60.708740 0.000000 89.000000 -0.663940 0.463253 0.587010
-3680.00000000 -21120.00000000 -610.00000000 65 107 169 0.000000 0.000000 0.000000 0.000000 -60.708740 0.000000 89.000000 0.713137 -0.055960 -0.698788
-3670.00000000 -21160.00000000 -640.00000000 65 107 169 0.000000 0.000000 0.000000 0.000000 -60.708740 0.000000 89.000000 0.005711 -0.181595 0.983357
-3680.00000000 -21190.00000000 -690.00000000 65 107 169 0.000000 0.000000 0.000000 0.000000 -60.708740 0.000000 89.000000 0.047952 -0.480891 0.875468
-3140.00000000 -20910.00000000 -830.00000000 65 107 169 0.000000 0.000000 0.000000 0.000000 -60.708740 0.000000 89.000000 -0.180539 0.397185 0.899805
-3140.00000000 -20920.00000000 -780.00000000 65 107 169 0.000000 0.000000 0.000000 0.000000 -60.708740 0.000000 89.000000 0.696574 -0.261810 -0.668012
-3210.00000000 -20890.00000000 -780.00000000 65 107 169 0.000000 0.000000 0.000000 0.000000 -60.708740 0.000000 89.000000 0.752542 -0.390146 -0.530534
-3130.00000000 -20960.00000000 -770.00000000 65 107 169 0.000000 0.000000 0.000000 0.000000 -60.708740 0.000000 89.000000 -0.504550 0.707702 0.494559
-3360.00000000 -20990.00000000 -770.00000000 65 107 169 0.000000 0.000000 0.000000 0.000000 -60.708740 0.000000 89.000000 0.742578 -0.237060 -0.626403
-3320.00000000 -21020.00000000 -760.00000000 65 107 169 0.000000 0.000000 0.000000 0.000000 -60.708740 0.000000 89.000000 -0.618395 0.198935 0.760271
-3290.00000000 -21170.00000000 -700.00000000 65 107 169 0.000000 0.000000 0.000000 0.000000 -60.708740 0.000000 111.000000 0.823205 -0.553205 0.127663
-3410.00000000 -21000.00000000 -760.00000000 65 107 169 0.000000 0.000000 0.000000 0.000000 -60.708740 0.000000 89.000000 -0.249578 -0.030436 0.967876
-3450.00000000 -20970.00000000 -700.00000000 65 107 169 0.000000 0.000000 0.000000 0.000000 -60.708740 0.000000 89.000000 0.036130 0.090871 0.995207
-3390.00000000 -21050.00000000 -810.00000000 65 107 169 0.000000 0.000000 0.000000 0.000000 -60.708740 0.000000 89.000000 -0.268065 0.353965 0.896019
-3530.00000000 -20970.00000000 -710.00000000 65 107 169 0.000000 0.000000 0.000000 0.000000 -60.708740 0.000000 89.000000 0.107455 -0.643257 0.758072
-3520.00000000 -21000.00000000 -720.00000000 65 107 169 0.000000 0.000000 0.000000 0.000000 -60.708740 0.000000 89.000000 0.028035 -0.254753 0.966600
-3540.00000000 -21130.00000000 -720.00000000 65 107 169 0.000000 0.000000 0.000000 0.000000 -60.708740 0.000000 89.000000 -0.565848 0.666593 0.485253
-3350.00000000 -21270.00000000 -520.00000000 65 107 169 0.000000 0.000000 0.000000 0.000000 -60.708740 0.000000 111.000000 -0.626261 0.755514 -0.192341
-3340.00000000 -21270.00000000 -570.00000000 65 107 169 0.000000 0.000000 0.000000 0.000000 -60.708740 0.000000 111.000000 -0.599012 0.716530 -0.357449
-3350.00000000 -21290.00000000 -580.00000000 65 107 169 0.000000 0.000000 0.000000 0.000000 -60.708740 0.000000 111.000000 -0.472933 0.810515 -0.345544
-3400.00000000 -21260.00000000 -470.00000000 65 107 169 0.000000 0.000000 0.000000 0.000000 -60.708740 0.000000 111.000000 -0.641129 0.737376 -0.212675
-3770.00000000 -21200.00000000 -680.00000000 65 107 169 0.000000 0.000000 0.000000 0.000000 -60.708740 0.000000 89.000000 -0.457506 0.608332 0.648552
-3750.00000000 -21180.00000000 -670.00000000 65 107 169 0.000000 0.000000 0.000000 0.000000 -60.708740 0.000000 89.000000 0.763262 -0.388954 -0.515893
-3720.00000000 -21190.00000000 -650.00000000 65 107 169 0.000000 0.000000 0.000000 0.000000 -60.708740 0.000000 89.000000 -0.219118 0.246680 0.944000
-3720.00000000 -21180.00000000 -650.00000000 65 107 169 0.000000 0.000000 0.000000 0.000000 -60.708740 0.000000 89.000000 -0.175495 -0.120731 0.977049
-3760.00000000 -21230.00000000 -670.00000000 65 107 169 0.000000 0.000000 0.000000 0.000000 -60.708740 0.000000 89.000000 -0.225555 0.326121 0.918025
-3740.00000000 -21140.00000000 -720.00000000 65 107 169 0.000000 0.000000 0.000000 0.000000 -60.708740 0.000000 89.000000 -0.584586 0.802517 0.119273
-3750.00000000 -21170.00000000 -710.00000000 65 107 169 0.000000 0.000000 0.000000 0.000000 -60.708740 0.000000 89.000000 0.708740 -0.559357 -0.429892
-3830.00000000 -21230.00000000 -710.00000000 65 107 169 0.000000 0.000000 0.000000 0.000000 -60.708740 0.000000 89.000000 0.809104 -0.229631 -0.540944
-3800.00000000 -21180.00000000 -740.00000000 65 107 169 0.000000 0.000000 0.000000 0.000000 -60.708740 0.000000 89.000000 0.726789 -0.610761 0.314244
-3800.00000000 -21200.00000000 -730.00000000 65 107 169 0.000000 0.000000 0.000000 0.000000 -60.708740 0.000000 89.000000 -0.455583 0.838086 0.300094
-3820.00000000 -21220.00000000 -700.00000000 65 107 169 0.000000 0.000000 0.000000 0.000000 -60.708740 0.000000 89.000000 -0.470765 0.567933 0.675154
-3810.00000000 -21240.00000000 -700.00000000 65 107 169 0.000000 0.000000 0.000000 0.000000 -60.708740 0.000000 89.000000 -0.585814 0.225313 0.778496
-3800.00000000 -21190.00000000 -750.00000000 65 107 169 0.000000 0.000000 0.000000 0.000000 -60.708740 0.000000 89.000000 0.802721 -0.579329 -0.141481
-3850.00000000 -21220.00000000 -810.00000000 65 107 169 0.000000 0.000000 0.000000 0.000000 -60.708740 0.000000 89.000000 0.237299 -0.636463 0.733897
-3730.00000000 -21290.00000000 -740.00000000 65 107 169 0.000000 0.000000 0.000000 0.000000 -60.708740 0.000000 89.000000 -0.577101 0.801946 -0.154393
-3740.00000000 -21310.00000000 -740.00000000 65 107 169 0.000000 0.000000 0.000000 0.000000 -60.708740 0.000000 89.000000 -0.386668 0.880159 -0.275332
-3720.00000000 -21290.00000000 -760.00000000 65 107 169 0.000000 0.000000 0.000000 0.000000 -60.708740 0.000000 89.000000 -0.626727 0.710938 0.319031
-3790.00000000 -21290.00000000 -710.00000000 65 107 169 0.000000 0.000000 0.000000 0.000000 -60.708740 0.000000 89.000000 -0.159347 -0.261115 0.952065
-3750.00000000 -21280.00000000 -720.00000000 65 107 169 0.000000 0.000000 0.000000 0.000000 -60.708740 0.000000 89.000000 0.255711 -0.460892 0.849818
-3790.00000000 -21300.00000000 -800.00000000 65 107 169 0.000000 0.000000 0.000000 0.000000 -60.708740 0.000000 89.000000 -0.146349 -0.066735 0.986979
-3840.00000000 -21400.00000000 -740.00000000 65 107 169 0.000000 0.000000 0.000000 0.000000 -60.708740 0.000000 89.000000 0.052804 -0.643633 0.763511
-3800.00000000 -21350.00000000 -750.00000000 65 107 169 0.000000 0.000000 0.000000 0.000000 -60.708740 0.000000 89.000000 0.760045 -0.643339 0.091906
-3880.00000000 -21390.00000000 -730.00000000 65 107 169 0.000000 0.000000 0.000000 0.000000 -60.708740 0.000000 89.000000 -0.103989 -0.491453 0.864673
-3860.00000000 -21420.00000000 -760.00000000 65 107 169 0.000000 0.000000 0.000000 0.000000 -60.708740 0.000000 89.000000 0.335378 -0.487967 0.805860
-3810.00000000 -21380.00000000 -790.00000000 65 107 169 0.000000 0.000000 0.000000 0.000000 -60.708740 0.000000 89.000000 0.915325 -0.300273 -0.268360
-3800.00000000 -21370.00000000 -800.00000000 65 107 169 0.000000 0.000000 0.000000 0.000000 -60.708740 0.000000 89.000000 0.644475 -0.489667 -0.587263
-3900.00000000 -21320.00000000 -750.00000000 65 107 169 0.000000 0.000000 0.000000 0.000000 -60.708740 0.000000 89.000000 0.935917 -0.317470 -0.152550
-3890.00000000 -21270.00000000 -770.00000000 65 107 169 0.000000 0.000000 0.000000 0.000000 -60.708740 0.000000 89.000000 0.830827 -0.548605 -0.093594
-3930.00000000 -21330.00000000 -800.00000000 65 107 169 0.000000 0.000000 0.000000 0.000000 -60.708740 0.000000 89.000000 0.812716 -0.490786 0.314040
-3930.00000000 -21360.00000000 -750.00000000 65 107 169 0.000000 0.000000 0.000000 0.000000 -60.708740 0.000000 89.000000 0.798820 -0.029276 -0.600857
-3930.00000000 -21420.00000000 -750.00000000 65 107 169 0.000000 0.000000 0.000000 0.000000 -60.708740 0.000000 89.000000 -0.317557 -0.270729 0.908770
-3960.00000000 -21380.00000000 -750.00000000 65 107 169 0.000000 0.000000 0.000000 0.000000 -60.708740 0.000000 89.000000 0.706002 -0.509056 -0.492365
-3910.00000000 -21420.00000000 -740.00000000 65 107 169 0.000000 0.000000 0.000000 0.000000 -60.708740 0.000000 89.000000 -0.328051 -0.450482 0.830330
-3960.00000000 -21420.00000000 -800.00000000 65 107 169 0.000000 0.000000 0.000000 0.000000 -60.708740 0.000000 89.000000 -0.685658 0.718379 -0.117499
-3970.00000000 -21420.00000000 -820.00000000 65 107 169 0.000000 0.000000 0.000000 0.000000 -60.708740 0.000000 89.000000 -0.510486 0.852727 0.110725
-3920.00000000 -21450.00000000 -760.00000000 65 107 169 0.000000 0.000000 0.000000 0.000000 -60.708740 0.000000 89.000000 -0.100099 -0.385311 0.917342
-3900.00000000 -21470.00000000 -850.00000000 65 107 169 0.000000 0.000000 0.000000 0.000000 -60.708740 0.000000 89.000000 -0.528666 0.626629 0.572580
-3930.00000000 -21530.00000000 -780.00000000 65 107 169 0.000000 0.000000 0.000000 0.000000 -60.708740 0.000000 89.000000 -0.645524 0.694059 -0.318717
-4000.00000000 -21500.00000000 -850.00000000 65 107 169 0.000000 0.000000 0.000000 0.000000 -60.708740 0.000000 89.000000 0.170509 -0.170509 0.970491
-3980.00000000 -21570.00000000 -780.00000000 65 107 169 0.000000 0.000000 0.000000 0.000000 -60.708740 0.000000 89.000000 0.293724 -0.659675 0.691776
-3970.00000000 -21580.00000000 -860.00000000 65 107 169 0.000000 0.000000 0.000000 0.000000 -60.708740 0.000000 89.000000 -0.775821 0.424506 0.466794
-3970.00000000 -21570.00000000 -790.00000000 65 107 169 0.000000 0.000000 0.000000 0.000000 -60.708740 0.000000 89.000000 0.474997 -0.736494 0.481617
-4010.00000000 -21550.00000000 -790.00000000 65 107 169 0.000000 0.000000 0.000000 0.000000 -60.708740 0.000000 89.000000 0.085318 -0.594336 0.799678
-3990.00000000 -21590.00000000 -810.00000000 65 107 169 0.000000 0.000000 0.000000 0.000000 -60.708740 0.000000 89.000000 -0.367402 0.729906 -0.576414
-4020.00000000 -21650.00000000 -830.00000000 65 107 169 0.000000 0.000000 0.000000 0.000000 -60.708740 0.000000 89.000000 -0.401263 0.879173 -0.256989
-4040.00000000 -21660.00000000 -810.00000000 65 107 169 0.000000 0.000000 0.000000 0.000000 -60.708740 0.000000 89.000000 0.341146 -0.564265 0.751814
-4040.00000000 -21660.00000000 -830.00000000 65 107 169 0.000000 0.000000 0.000000 0.000000 -60.708740 0.000000 89.000000 -0.596929 0.596929 -0.536052
-4060.00000000 -21610.00000000 -870.00000000 65 107 169 0.000000 0.000000 0.000000 0.000000 -60.708740 0.000000 89.000000 -0.577103 0.730780 0.364572
-3030.00000000 -20620.00000000 -420.00000000 65 107 169 0.000000 0.000000 0.000000 0.000000 -60.708740 0.000000 125.000000 -0.576222 0.579601 -0.576222
-3030.00000000 -20700.00000000 -480.00000000 65 107 169 0.000000 0.000000 0.000000 0.000000 -60.708740 0.000000 125.000000 -0.673238 0.738435 0.038268
-3100.00000000 -20550.00000000 -240.00000000 65 107 169 0.000000 0.000000 0.000000 0.000000 -60.708740 0.000000 125.000000 -0.215817 -0.003500 0.976427
-3080.00000000 -20630.00000000 -170.00000000 65 107 169 0.000000 0.000000 0.000000 0.000000 -60.708740 0.000000 112.000000 -0.112013 -0.455142 0.883345
-3120.00000000 -20630.00000000 -220.00000000 65 107 169 0.000000 0.000000 0.000000 0.000000 -60.708740 0.000000 112.000000 0.065574 0.120794 0.990509
-3060.00000000 -20640.00000000 -480.00000000 65 107 169 0.000000 0.000000 0.000000 0.000000 -60.708740 0.000000 125.000000 0.886054 -0.461401 0.044915
-3180.00000000 -20820.00000000 -490.00000000 65 107 169 0.000000 0.000000 0.000000 0.000000 -60.708740 0.000000 89.000000 -0.467149 0.857691 -0.214798
-3190.00000000 -20900.00000000 -680.00000000 65 107 169 0.000000 0.000000 0.000000 0.000000 -60.708740 0.000000 89.000000 0.807109 -0.335897 -0.485539
-3200.00000000 -20860.00000000 -540.00000000 65 107 169 0.000000 0.000000 0.000000 0.000000 -60.708740 0.000000 89.000000 0.834884 -0.514820 -0.194756
-3170.00000000 -20850.00000000 -610.00000000 65 107 169 0.000000 0.000000 0.000000 0.000000 -60.708740 0.000000 89.000000 -0.459766 0.847260 0.266018
-3200.00000000 -20850.00000000 -570.00000000 65 107 169 0.000000 0.000000 0.000000 0.000000 -60.708740 0.000000 89.000000 0.879767 -0.384804 -0.279171
-3240.00000000 -20870.00000000 -460.00000000 65 107 169 0.000000 0.000000 0.000000 0.000000 -60.708740 0.000000 89.000000 0.402930 -0.412486 0.817008
-3280.00000000 -20880.00000000 -560.00000000 65 107 169 0.000000 0.000000 0.000000 0.000000 -60.708740 0.000000 89.000000 0.813669 -0.577120 0.069824
-3210.00000000 -20860.00000000 -550.00000000 65 107 169 0.000000 0.000000 0.000000 0.000000 -60.708740 0.000000 89.000000 0.840000 -0.514742 -0.171581
-3230.00000000 -20900.00000000 -560.00000000 65 107 169 0.000000 0.000000 0.000000 0.000000 -60.708740 0.000000 89.000000 -0.356615 0.929890 -0.090163
-3330.00000000 -20830.00000000 -600.00000000 65 107 169 0.000000 0.000000 0.000000 0.000000 -60.708740 0.000000 89.000000 -0.668888 -0.001379 0.743362
-3290.00000000 -20980.00000000 -590.00000000 65 107 169 0.000000 0.000000 0.000000 0.000000 -60.708740 0.000000 89.000000 -0.549027 0.786358 -0.283215
-3340.00000000 -21040.00000000 -630.00000000 65 107 169 0.000000 0.000000 0.000000 0.000000 -60.708740 0.000000 89.000000 0.855790 -0.502469 -0.123083
-3360.00000000 -21210.00000000 -520.00000000 65 107 169 0.000000 0.000000 0.000000 0.000000 -60.708740 0.000000 111.000000 0.660470 -0.593587 0.459821
-3280.00000000 -21240.00000000 -640.00000000 65 107 169 0.000000 0.000000 0.000000 0.000000 -60.708740 0.000000 111.000000 -0.698426 0.669919 -0.251813
-3320.00000000 -21250.00000000 -590.00000000 65 107 169 0.000000 0.000000 0.000000 0.000000 -60.708740 0.000000 111.000000 0.744964 -0.666987 -0.012532
-3280.00000000 -21240.00000000 -660.00000000 65 107 169 0.000000 0.000000 0.000000 0.000000 -60.708740 0.000000 111.000000 -0.709525 0.638734 0.297647
-3230.00000000 -21130.00000000 -560.00000000 65 107 169 0.000000 0.000000 0.000000 0.000000 -60.708740 0.000000 126.000000 -0.522358 0.852411 -0.023186
-3400.00000000 -20920.00000000 -560.00000000 65 107 169 0.000000 0.000000 0.000000 0.000000 -60.708740 0.000000 89.000000 0.279322 -0.707084 0.649624
-3430.00000000 -20900.00000000 -590.00000000 65 107 169 0.000000 0.000000 0.000000 0.000000 -60.708740 0.000000 89.000000 0.777193 -0.485137 -0.400765
-3450.00000000 -20870.00000000 -690.00000000 65 107 169 0.000000 0.000000 0.000000 0.000000 -60.708740 0.000000 89.000000 0.425579 -0.467974 0.774521
-3530.00000000 -20840.00000000 -610.00000000 65 107 169 0.000000 0.000000 0.000000 0.000000 -60.708740 0.000000 89.000000 -0.652973 0.745615 -0.132985
-3580.00000000 -20790.00000000 -450.00000000 65 107 169 0.000000 0.000000 0.000000 0.000000 -60.708740 0.000000 89.000000 0.852570 -0.183012 -0.489521
-3610.00000000 -20850.00000000 -480.00000000 65 107 169 0.000000 0.000000 0.000000 0.000000 -60.708740 0.000000 89.000000 -0.556001 0.736415 0.385429
-3500.00000000 -21030.00000000 -500.00000000 65 107 169 0.000000 0.000000 0.000000 0.000000 -60.708740 0.000000 89.000000 0.266978 -0.516782 0.813424
-3430.00000000 -21060.00000000 -600.00000000 65 107 169 0.000000 0.000000 0.000000 0.000000 -60.708740 0.000000 89.000000 0.621058 -0.600861 0.503242
-3390.00000000 -21020.00000000 -590.00000000 65 107 169 0.000000 0.000000 0.000000 0.000000 -60.708740 0.000000 89.000000 0.684361 -0.530422 0.500303
-3450.00000000 -21060.00000000 -570.00000000 65 107 169 0.000000 0.000000 0.000000 0.000000 -60.708740 0.000000 89.000000 -0.271507 0.795689 -0.541445
-3480.00000000 -21060.00000000 -560.00000000 65 107 169 0.000000 0.000000 0.000000 0.000000 -60.708740 0.000000 89.000000 0.370192 -0.184381 0.910473
-3510.00000000 -21080.00000000 -660.00000000 65 107 169 0.000000 0.000000 0.000000 0.000000 -60.708740 0.000000 89.000000 0.778139 -0.541661 -0.317966
-3530.00000000 -21120.00000000 -650.00000000 65 107 169 0.000000 0.000000 0.000000 0.000000 -60.708740 0.000000 89.000000 -0.609542 0.725953 -0.318514
-3520.00000000 -21120.00000000 -660.00000000 65 107 169 0.000000 0.000000 0.000000 0.000000 -60.708740 0.000000 89.000000 0.728867 -0.574904 0.371804
-3610.00000000 -21000.00000000 -560.00000000 65 107 169 0.000000 0.000000 0.000000 0.000000 -60.708740 0.000000 89.000000 0.840536 -0.322803 -0.435083
-3550.00000000 -20940.00000000 -590.00000000 65 107 169 0.000000 0.000000 0.000000 0.000000 -60.708740 0.000000 89.000000 0.792321 -0.569915 -0.217772
-3680.00000000 -21120.00000000 -660.00000000 65 107 169 0.000000 0.000000 0.000000 0.000000 -60.708740 0.000000 89.000000 -0.339998 0.600284 0.723920
-3570.00000000 -21140.00000000 -680.00000000 65 107 169 0.000000 0.000000 0.000000 0.000000 -60.708740 0.000000 89.000000 -0.387147 0.914443 -0.117948
-3660.00000000 -21190.00000000 -650.00000000 65 107 169 0.000000 0.000000 0.000000 0.000000 -60.708740 0.000000 89.000000 -0.269463 0.693588 -0.668076
-3680.00000000 -21130.00000000 -610.00000000 65 107 169 0.000000 0.000000 0.000000 0.000000 -60.708740 0.000000 89.000000 -0.527133 -0.031655 0.849193
-3700.00000000 -21150.00000000 -630.00000000 65 107 169 0.000000 0.000000 0.000000 0.000000 -60.708740 0.000000 89.000000 -0.366823 -0.246022 0.897170
