//X Y Z R G B PointSourceId ScanDirectionFlag NumberOfReturns ReturnNumber GpsTime Intensity Classification Nx Ny Nz
830.00000000 4840.00000000 -350.00000000 193 138 90 97.000000 1.000000 4.000000 1.000000 -60.708740 114.000000 149.000000 0.684528 -0.351250 0.638784
780.00000000 4820.00000000 -320.00000000 193 138 90 97.000000 1.000000 4.000000 1.000000 -60.708740 114.000000 149.000000 0.737490 -0.251094 0.626945
750.00000000 4800.00000000 -280.00000000 193 138 90 97.000000 1.000000 4.000000 1.000000 -60.708740 114.000000 149.000000 0.832292 -0.227544 0.505484
750.00000000 4800.00000000 -280.00000000 193 138 90 97.000000 1.000000 4.000000 1.000000 -60.708740 114.000000 149.000000 0.832292 -0.227544 0.505484
690.00000000 4710.00000000 -240.00000000 193 138 90 97.000000 1.000000 4.000000 1.000000 -60.708740 114.000000 149.000000 0.808817 0.498586 0.311814
880.00000000 4980.00000000 -360.00000000 193 138 90 97.000000 1.000000 4.000000 1.000000 -60.708740 114.000000 149.000000 0.630890 -0.088878 0.770765
900.00000000 4950.00000000 -370.00000000 193 138 90 97.000000 1.000000 4.000000 1.000000 -60.708740 114.000000 149.000000 0.538508 -0.133527 0.831973
910.00000000 4950.00000000 -360.00000000 193 138 90 97.000000 1.000000 4.000000 1.000000 -60.708740 114.000000 149.000000 0.662825 -0.061825 0.746217
910.00000000 4930.00000000 -380.00000000 193 138 90 97.000000 1.000000 4.000000 1.000000 -60.708740 114.000000 149.000000 0.603881 -0.364947 0.708619
880.00000000 4890.00000000 -430.00000000 193 138 90 97.000000 1.000000 4.000000 1.000000 -60.708740 114.000000 149.000000 0.535570 -0.505350 0.676598
890.00000000 4820.00000000 -360.00000000 193 138 90 97.000000 1.000000 4.000000 1.000000 -60.708740 114.000000 149.000000 0.570494 -0.046256 0.819998
820.00000000 4710.00000000 -470.00000000 193 138 90 97.000000 1.000000 4.000000 1.000000 -60.708740 114.000000 149.000000 0.418310 -0.122535 0.900001
970.00000000 4630.00000000 -60.00000000 193 138 90 97.000000 1.000000 4.000000 1.000000 -60.708740 114.000000 149.000000 0.657173 0.751669 -0.055838
960.00000000 4660.00000000 -70.00000000 193 138 90 97.000000 1.000000 4.000000 1.000000 -60.708740 114.000000 149.000000 0.757970 0.540480 -0.365189
970.00000000 4530.00000000 -50.00000000 193 138 90 97.000000 1.000000 4.000000 1.000000 -60.708740 114.000000 149.000000 0.701069 0.694986 -0.159679
890.00000000 4620.00000000 -20.00000000 193 138 90 97.000000 1.000000 4.000000 1.000000 -60.708740 114.000000 149.000000 0.620820 0.772675 0.132501
990.00000000 4590.00000000 -260.00000000 193 138 90 97.000000 1.000000 4.000000 1.000000 -60.708740 114.000000 149.000000 0.845402 0.071979 0.529258
850.00000000 4510.00000000 -240.00000000 193 138 90 97.000000 1.000000 4.000000 1.000000 -60.708740 114.000000 149.000000 0.845255 0.531263 0.057472
900.00000000 4380.00000000 -340.00000000 193 138 90 97.000000 1.000000 4.000000 1.000000 -60.708740 114.000000 149.000000 0.724864 0.353473 0.591294
760.00000000 4590.00000000 -100.00000000 193 138 90 97.000000 1.000000 4.000000 1.000000 -60.708740 114.000000 149.000000 0.783953 0.600379 0.157994
760.00000000 4520.00000000 -20.00000000 193 138 90 97.000000 1.000000 4.000000 1.000000 -60.708740 114.000000 149.000000 0.899339 0.431190 -0.072549
670.00000000 4640.00000000 -80.00000000 193 138 90 97.000000 1.000000 4.000000 1.000000 -60.708740 114.000000 149.000000 0.809792 0.563399 0.163761
710.00000000 4540.00000000 -80.00000000 193 138 90 97.000000 1.000000 4.000000 1.000000 -60.708740 114.000000 149.000000 0.716412 0.571482 0.400202
740.00000000 4530.00000000 -70.00000000 193 138 90 97.000000 1.000000 4.000000 1.000000 -60.708740 114.000000 149.000000 0.700616 0.678771 0.220015
700.00000000 4560.00000000 -130.00000000 193 138 90 97.000000 1.000000 4.000000 1.000000 -60.708740 114.000000 149.000000 0.881411 0.455705 0.124283
800.00000000 4650.00000000 -190.00000000 193 138 90 97.000000 1.000000 4.000000 1.000000 -60.708740 114.000000 149.000000 0.945831 0.011275 0.324464
800.00000000 4600.00000000 -310.00000000 193 138 90 97.000000 1.000000 4.000000 1.000000 -60.708740 114.000000 149.000000 0.699450 0.469083 0.539194
800.00000000 4600.00000000 -310.00000000 193 138 90 97.000000 1.000000 4.000000 1.000000 -60.708740 114.000000 149.000000 0.699450 0.469083 0.539194
820.00000000 4570.00000000 -220.00000000 193 138 90 97.000000 1.000000 4.000000 1.000000 -60.708740 114.000000 149.000000 0.704840 0.508218 0.494888
780.00000000 4590.00000000 -220.00000000 193 138 90 97.000000 1.000000 4.000000 1.000000 -60.708740 114.000000 149.000000 0.679691 0.660225 0.319568
820.00000000 4580.00000000 -310.00000000 193 138 90 97.000000 1.000000 4.000000 1.000000 -60.708740 114.000000 149.000000 0.827942 0.463459 0.315781
730.00000000 4670.00000000 -210.00000000 193 138 90 97.000000 1.000000 4.000000 1.000000 -60.708740 114.000000 149.000000 0.766252 0.582983 0.270163
800.00000000 4490.00000000 -40.00000000 193 138 90 97.000000 1.000000 4.000000 1.000000 -60.708740 114.000000 149.000000 0.833637 0.507498 -0.217934
830.00000000 4500.00000000 -80.00000000 193 138 90 97.000000 1.000000 4.000000 1.000000 -60.708740 114.000000 149.000000 0.580344 0.795510 0.174255
770.00000000 4500.00000000 -60.00000000 193 138 90 97.000000 1.000000 4.000000 1.000000 -60.708740 114.000000 149.000000 0.612448 0.786192 0.082528
780.00000000 4450.00000000 -80.00000000 193 138 90 97.000000 1.000000 4.000000 1.000000 -60.708740 114.000000 149.000000 0.933409 0.345160 0.098042
800.00000000 4500.00000000 -150.00000000 193 138 90 97.000000 1.000000 4.000000 1.000000 -60.708740 114.000000 149.000000 0.651091 0.734209 0.192403
770.00000000 4420.00000000 -110.00000000 193 138 90 97.000000 1.000000 4.000000 1.000000 -60.708740 114.000000 149.000000 0.815545 0.517288 -0.259421
740.00000000 4460.00000000 -150.00000000 193 138 90 97.000000 1.000000 4.000000 1.000000 -60.708740 114.000000 149.000000 0.788063 0.574403 0.221401
870.00000000 4570.00000000 -390.00000000 193 138 90 97.000000 1.000000 4.000000 1.000000 -60.708740 114.000000 149.000000 0.800499 -0.174021 0.573514
850.00000000 4350.00000000 -390.00000000 193 138 90 97.000000 1.000000 4.000000 1.000000 -60.708740 114.000000 149.000000 0.727287 0.392374 0.563114
640.00000000 4520.00000000 -30.00000000 193 138 90 97.000000 1.000000 4.000000 1.000000 -60.708740 114.000000 149.000000 0.796996 0.583864 0.154596
660.00000000 4520.00000000 -70.00000000 193 138 90 97.000000 1.000000 4.000000 1.000000 -60.708740 114.000000 149.000000 0.881095 0.455542 0.127095
630.00000000 4520.00000000 -170.00000000 193 138 90 97.000000 1.000000 4.000000 1.000000 -60.708740 114.000000 149.000000 0.978242 0.193699 -0.074312
640.00000000 4500.00000000 -160.00000000 193 138 90 97.000000 1.000000 4.000000 1.000000 -60.708740 114.000000 149.000000 0.831167 0.490652 0.261578
650.00000000 4350.00000000 -150.00000000 193 138 90 97.000000 1.000000 4.000000 1.000000 -60.708740 114.000000 149.000000 0.852314 0.519226 0.062979
600.00000000 4470.00000000 -200.00000000 193 138 90 97.000000 1.000000 4.000000 1.000000 -60.708740 114.000000 149.000000 0.767178 0.573398 0.287493
620.00000000 4460.00000000 -200.00000000 193 138 90 97.000000 1.000000 4.000000 1.000000 -60.708740 114.000000 149.000000 0.936775 0.349543 0.016524
610.00000000 4420.00000000 -220.00000000 193 138 90 97.000000 1.000000 4.000000 1.000000 -60.708740 114.000000 149.000000 0.683338 0.607227 0.405370
2420.00000000 3770.00000000 -450.00000000 193 138 90 97.000000 1.000000 4.000000 1.000000 -60.708740 114.000000 195.000000 0.986874 0.144679 0.071751
2420.00000000 3770.00000000 -500.00000000 193 138 90 97.000000 1.000000 4.000000 1.000000 -60.708740 114.000000 195.000000 0.931582 0.347484 0.106814
2420.00000000 3770.00000000 -500.00000000 193 138 90 97.000000 1.000000 4.000000 1.000000 -60.708740 114.000000 195.000000 0.931582 0.347484 0.106814
2420.00000000 3770.00000000 -500.00000000 193 138 90 97.000000 1.000000 4.000000 1.000000 -60.708740 114.000000 195.000000 0.931582 0.347484 0.106814
2390.00000000 3770.00000000 -450.00000000 193 138 90 97.000000 1.000000 4.000000 1.000000 -60.708740 114.000000 195.000000 0.763282 0.343719 0.547045
2430.00000000 3720.00000000 -420.00000000 193 138 90 97.000000 1.000000 4.000000 1.000000 -60.708740 114.000000 195.000000 0.969843 0.218752 0.107479
2400.00000000 3750.00000000 -400.00000000 193 138 90 97.000000 1.000000 4.000000 1.000000 -60.708740 114.000000 195.000000 0.675400 0.248332 0.694381
2420.00000000 3750.00000000 -450.00000000 193 138 90 97.000000 1.000000 4.000000 1.000000 -60.708740 114.000000 195.000000 0.815934 -0.023550 0.577665
2400.00000000 3750.00000000 -480.00000000 193 138 90 97.000000 1.000000 4.000000 1.000000 -60.708740 114.000000 195.000000 0.825746 0.369288 0.426345
2440.00000000 3790.00000000 -560.00000000 193 138 90 97.000000 1.000000 4.000000 1.000000 -60.708740 114.000000 195.000000 0.904679 0.425186 -0.027816
2440.00000000 3760.00000000 -640.00000000 193 138 90 97.000000 1.000000 4.000000 1.000000 -60.708740 114.000000 195.000000 0.992111 0.099325 0.076492
2450.00000000 3720.00000000 -590.00000000 193 138 90 97.000000 1.000000 4.000000 1.000000 -60.708740 114.000000 195.000000 0.943946 0.293883 -0.150327
2440.00000000 3740.00000000 -650.00000000 193 138 90 97.000000 1.000000 4.000000 1.000000 -60.708740 114.000000 195.000000 0.950920 0.292490 -0.100994
2420.00000000 3750.00000000 -540.00000000 193 138 90 97.000000 1.000000 4.000000 1.000000 -60.708740 114.000000 195.000000 0.797266 0.554822 0.237781
2370.00000000 3940.00000000 -780.00000000 193 138 90 97.000000 1.000000 4.000000 1.000000 -60.708740 114.000000 149.000000 0.866965 0.389905 -0.310395
2360.00000000 3920.00000000 -720.00000000 193 138 90 97.000000 1.000000 4.000000 1.000000 -60.708740 114.000000 149.000000 0.512940 0.854899 -0.077718
2480.00000000 3690.00000000 -770.00000000 193 138 90 97.000000 1.000000 4.000000 1.000000 -60.708740 114.000000 195.000000 0.762028 0.504211 -0.406306
2440.00000000 3720.00000000 -700.00000000 193 138 90 97.000000 1.000000 4.000000 1.000000 -60.708740 114.000000 195.000000 0.965503 0.201417 0.165032
2460.00000000 3750.00000000 -720.00000000 193 138 90 97.000000 1.000000 4.000000 1.000000 -60.708740 114.000000 195.000000 0.910492 0.266592 0.316123
2470.00000000 3730.00000000 -770.00000000 193 138 90 97.000000 1.000000 4.000000 1.000000 -60.708740 114.000000 195.000000 0.875445 0.461599 0.143255
2440.00000000 3710.00000000 -730.00000000 193 138 90 97.000000 1.000000 4.000000 1.000000 -60.708740 114.000000 195.000000 0.950273 0.306498 -0.055144
2460.00000000 3700.00000000 -770.00000000 193 138 90 97.000000 1.000000 4.000000 1.000000 -60.708740 114.000000 195.000000 0.604993 0.763628 -0.225511
2460.00000000 3710.00000000 -810.00000000 193 138 90 97.000000 1.000000 4.000000 1.000000 -60.708740 114.000000 195.000000 0.853774 0.498157 0.151358
2470.00000000 3680.00000000 -790.00000000 193 138 90 97.000000 1.000000 4.000000 1.000000 -60.708740 114.000000 195.000000 0.731638 0.681659 -0.006942
2460.00000000 3690.00000000 -800.00000000 193 138 90 97.000000 1.000000 4.000000 1.000000 -60.708740 114.000000 195.000000 0.977805 0.207413 0.029630
2460.00000000 3690.00000000 -860.00000000 193 138 90 97.000000 1.000000 4.000000 1.000000 -60.708740 114.000000 195.000000 0.942012 0.323693 -0.088520
2470.00000000 3710.00000000 -850.00000000 193 138 90 97.000000 1.000000 4.000000 1.000000 -60.708740 114.000000 195.000000 0.962187 0.256839 0.090724
2490.00000000 3680.00000000 -880.00000000 193 138 90 97.000000 1.000000 4.000000 1.000000 -60.708740 114.000000 195.000000 0.858676 0.510228 -0.048396
2480.00000000 3710.00000000 -920.00000000 193 138 90 97.000000 1.000000 4.000000 1.000000 -60.708740 114.000000 195.000000 0.768112 0.628994 -0.119879
2470.00000000 3710.00000000 -910.00000000 193 138 90 97.000000 1.000000 4.000000 1.000000 -60.708740 114.000000 195.000000 0.743373 0.665427 0.067842
2460.00000000 3690.00000000 -870.00000000 193 138 90 97.000000 1.000000 4.000000 1.000000 -60.708740 114.000000 195.000000 0.622001 0.771162 0.135736
2470.00000000 3680.00000000 -970.00000000 193 138 90 97.000000 1.000000 4.000000 1.000000 -60.708740 114.000000 195.000000 0.731555 0.626821 -0.268184
2360.00000000 3510.00000000 -280.00000000 193 138 90 97.000000 1.000000 4.000000 1.000000 -60.708740 114.000000 191.000000 0.906740 0.148530 0.394665
2400.00000000 3440.00000000 -350.00000000 193 138 90 97.000000 1.000000 4.000000 1.000000 -60.708740 114.000000 191.000000 0.899782 0.204959 0.385206
2360.00000000 3450.00000000 -290.00000000 193 138 90 97.000000 1.000000 4.000000 1.000000 -60.708740 114.000000 191.000000 0.905821 0.014420 0.423416
2380.00000000 3450.00000000 -320.00000000 193 138 90 97.000000 1.000000 4.000000 1.000000 -60.708740 114.000000 191.000000 0.536570 0.321942 0.780029
2360.00000000 3440.00000000 -350.00000000 193 138 90 97.000000 1.000000 4.000000 1.000000 -60.708740 114.000000 191.000000 0.590884 0.467016 0.657839
2410.00000000 3400.00000000 -340.00000000 193 138 90 97.000000 1.000000 4.000000 1.000000 -60.708740 114.000000 191.000000 0.728445 0.378137 0.571297
2520.00000000 3570.00000000 -580.00000000 193 138 90 97.000000 1.000000 4.000000 1.000000 -60.708740 114.000000 191.000000 0.713280 0.216950 0.666457
2550.00000000 3570.00000000 -570.00000000 193 138 90 97.000000 1.000000 4.000000 1.000000 -60.708740 114.000000 191.000000 0.826433 0.254881 0.502039
2550.00000000 3550.00000000 -570.00000000 193 138 90 97.000000 1.000000 4.000000 1.000000 -60.708740 114.000000 191.000000 0.916783 -0.060227 0.394819
2550.00000000 3460.00000000 -490.00000000 193 138 90 97.000000 1.000000 4.000000 1.000000 -60.708740 114.000000 191.000000 0.805792 0.542866 0.236634
2560.00000000 3480.00000000 -510.00000000 193 138 90 97.000000 1.000000 4.000000 1.000000 -60.708740 114.000000 191.000000 0.834268 0.136838 0.534108
2610.00000000 3390.00000000 -600.00000000 193 138 90 97.000000 1.000000 4.000000 1.000000 -60.708740 114.000000 191.000000 0.682102 0.176274 0.709693
2570.00000000 3470.00000000 -600.00000000 193 138 90 97.000000 1.000000 4.000000 1.000000 -60.708740 114.000000 191.000000 0.810440 0.546932 0.209887
2600.00000000 3450.00000000 -570.00000000 193 138 90 97.000000 1.000000 4.000000 1.000000 -60.708740 114.000000 191.000000 0.592291 0.324388 0.737539
2550.00000000 3500.00000000 -570.00000000 193 138 90 97.000000 1.000000 4.000000 1.000000 -60.708740 114.000000 191.000000 0.851778 -0.089586 0.516186
2520.00000000 3420.00000000 -550.00000000 193 138 90 97.000000 1.000000 4.000000 1.000000 -60.708740 114.000000 191.000000 0.808823 -0.109696 0.577731
2580.00000000 3440.00000000 -690.00000000 193 138 90 97.000000 1.000000 4.000000 1.000000 -60.708740 114.000000 191.000000 0.790221 0.447630 0.418542
2530.00000000 3480.00000000 -660.00000000 193 138 90 97.000000 1.000000 4.000000 1.000000 -60.708740 114.000000 191.000000 0.641817 0.661616 0.387730
2530.00000000 3450.00000000 -620.00000000 193 138 90 97.000000 1.000000 4.000000 1.000000 -60.708740 114.000000 191.000000 0.894116 0.416102 0.165577
2520.00000000 3450.00000000 -610.00000000 193 138 90 97.000000 1.000000 4.000000 1.000000 -60.708740 114.000000 191.000000 0.961125 -0.033484 0.274076
2560.00000000 3420.00000000 -680.00000000 193 138 90 97.000000 1.000000 4.000000 1.000000 -60.708740 114.000000 191.000000 0.819280 0.370664 0.437480
2370.00000000 3620.00000000 -380.00000000 193 138 90 97.000000 1.000000 4.000000 1.000000 -60.708740 114.000000 191.000000 0.845078 0.382706 0.373334
2380.00000000 3600.00000000 -370.00000000 193 138 90 97.000000 1.000000 4.000000 1.000000 -60.708740 114.000000 191.000000 0.817363 0.461850 0.344403
2370.00000000 3540.00000000 -390.00000000 193 138 90 97.000000 1.000000 4.000000 1.000000 -60.708740 114.000000 191.000000 0.877691 0.222030 0.424689
2360.00000000 3570.00000000 -360.00000000 193 138 90 97.000000 1.000000 4.000000 1.000000 -60.708740 114.000000 191.000000 0.842215 0.390524 0.371704
2410.00000000 3510.00000000 -390.00000000 193 138 90 97.000000 1.000000 4.000000 1.000000 -60.708740 114.000000 191.000000 0.853452 -0.126062 0.505696
2380.00000000 3560.00000000 -400.00000000 193 138 90 97.000000 1.000000 4.000000 1.000000 -60.708740 114.000000 191.000000 0.672999 -0.136398 0.726958
2440.00000000 3460.00000000 -470.00000000 193 138 90 97.000000 1.000000 4.000000 1.000000 -60.708740 114.000000 191.000000 0.587388 0.235267 0.774355
2440.00000000 3450.00000000 -520.00000000 193 138 90 97.000000 1.000000 4.000000 1.000000 -60.708740 114.000000 191.000000 0.819698 0.153229 0.551920
2510.00000000 3380.00000000 -400.00000000 193 138 90 97.000000 1.000000 4.000000 1.000000 -60.708740 114.000000 191.000000 0.625173 -0.188934 0.757273
2490.00000000 3410.00000000 -400.00000000 193 138 90 97.000000 1.000000 4.000000 1.000000 -60.708740 114.000000 191.000000 0.833786 0.181780 0.521304
2500.00000000 3370.00000000 -410.00000000 193 138 90 97.000000 1.000000 4.000000 1.000000 -60.708740 114.000000 191.000000 0.924556 0.220132 0.311026
2450.00000000 3410.00000000 -380.00000000 193 138 90 97.000000 1.000000 4.000000 1.000000 -60.708740 114.000000 191.000000 0.788461 0.345253 0.509047
2450.00000000 3390.00000000 -370.00000000 193 138 90 97.000000 1.000000 4.000000 1.000000 -60.708740 114.000000 191.000000 0.753658 -0.086007 0.651615
2440.00000000 3370.00000000 -360.00000000 193 138 90 97.000000 1.000000 4.000000 1.000000 -60.708740 114.000000 191.000000 0.693054 -0.280103 0.664243
2440.00000000 3370.00000000 -360.00000000 193 138 90 97.000000 1.000000 4.000000 1.000000 -60.708740 114.000000 191.000000 0.693054 -0.280103 0.664243
2440.00000000 3370.00000000 -360.00000000 193 138 90 97.000000 1.000000 4.000000 1.000000 -60.708740 114.000000 191.000000 0.693054 -0.280103 0.664243
2400.00000000 3430.00000000 -390.00000000 193 138 90 97.000000 1.000000 4.000000 1.000000 -60.708740 114.000000 191.000000 0.643030 0.435924 0.629668
2360.00000000 3460.00000000 -360.00000000 193 138 90 97.000000 1.000000 4.000000 1.000000 -60.708740 114.000000 191.000000 0.327118 0.138238 0.934818
2390.00000000 3440.00000000 -390.00000000 193 138 90 97.000000 1.000000 4.000000 1.000000 -60.708740 114.000000 191.000000 0.747024 0.079779 0.659992
2390.00000000 3430.00000000 -400.00000000 193 138 90 97.000000 1.000000 4.000000 1.000000 -60.708740 114.000000 191.000000 0.724152 0.268971 0.635026
2430.00000000 3450.00000000 -460.00000000 193 138 90 97.000000 1.000000 4.000000 1.000000 -60.708740 114.000000 191.000000 0.865531 0.213767 0.452946
2430.00000000 3440.00000000 -470.00000000 193 138 90 97.000000 1.000000 4.000000 1.000000 -60.708740 114.000000 191.000000 0.856103 0.316218 0.408770
2410.00000000 3400.00000000 -410.00000000 193 138 90 97.000000 1.000000 4.000000 1.000000 -60.708740 114.000000 191.000000 0.795366 0.329941 0.508460
2490.00000000 3420.00000000 -550.00000000 193 138 90 97.000000 1.000000 4.000000 1.000000 -60.708740 114.000000 191.000000 0.890007 0.431388 0.147618
2490.00000000 3440.00000000 -540.00000000 193 138 90 97.000000 1.000000 4.000000 1.000000 -60.708740 114.000000 191.000000 0.740731 0.551052 0.384265
2510.00000000 3460.00000000 -560.00000000 193 138 90 97.000000 1.000000 4.000000 1.000000 -60.708740 114.000000 191.000000 0.600180 0.532555 0.596799
2490.00000000 3440.00000000 -540.00000000 193 138 90 97.000000 1.000000 4.000000 1.000000 -60.708740 114.000000 191.000000 0.740731 0.551052 0.384265
2490.00000000 3430.00000000 -540.00000000 193 138 90 97.000000 1.000000 4.000000 1.000000 -60.708740 114.000000 191.000000 0.808064 0.436835 0.395231
2460.00000000 3480.00000000 -580.00000000 193 138 90 97.000000 1.000000 4.000000 1.000000 -60.708740 114.000000 191.000000 0.788052 0.432053 0.438526
2450.00000000 3460.00000000 -530.00000000 193 138 90 97.000000 1.000000 4.000000 1.000000 -60.708740 114.000000 191.000000 0.610681 0.563315 0.556548
2500.00000000 3480.00000000 -610.00000000 193 138 90 97.000000 1.000000 4.000000 1.000000 -60.708740 114.000000 191.000000 0.687581 0.625223 0.369226
2500.00000000 3470.00000000 -640.00000000 193 138 90 97.000000 1.000000 4.000000 1.000000 -60.708740 114.000000 191.000000 0.952714 0.214867 0.214867
2500.00000000 3480.00000000 -660.00000000 193 138 90 97.000000 1.000000 4.000000 1.000000 -60.708740 114.000000 191.000000 0.764418 0.598716 0.239174
2480.00000000 3440.00000000 -610.00000000 193 138 90 97.000000 1.000000 4.000000 1.000000 -60.708740 114.000000 191.000000 0.879026 0.437305 0.189940
2510.00000000 3460.00000000 -660.00000000 193 138 90 97.000000 1.000000 4.000000 1.000000 -60.708740 114.000000 191.000000 0.586586 0.640370 0.495825
2410.00000000 3470.00000000 -600.00000000 193 138 90 97.000000 1.000000 4.000000 1.000000 -60.708740 114.000000 191.000000 0.709301 0.648732 0.275751
2380.00000000 3450.00000000 -610.00000000 193 138 90 97.000000 1.000000 4.000000 1.000000 -60.708740 114.000000 191.000000 0.709407 0.418368 0.567195
2550.00000000 3530.00000000 -860.00000000 193 138 90 97.000000 1.000000 4.000000 1.000000 -60.708740 114.000000 191.000000 0.873310 0.349019 0.339875
2600.00000000 3510.00000000 -910.00000000 193 138 90 97.000000 1.000000 4.000000 1.000000 -60.708740 114.000000 191.000000 0.804652 0.507452 -0.308265
2600.00000000 3530.00000000 -900.00000000 193 138 90 97.000000 1.000000 4.000000 1.000000 -60.708740 114.000000 191.000000 0.914393 0.404217 -0.022238
2520.00000000 3660.00000000 -1010.00000000 193 138 90 97.000000 1.000000 4.000000 1.000000 -60.708740 114.000000 195.000000 0.558042 0.826358 -0.075642
2590.00000000 3540.00000000 -900.00000000 193 138 90 97.000000 1.000000 4.000000 1.000000 -60.708740 114.000000 191.000000 0.659551 0.740312 0.130116
2600.00000000 3520.00000000 -900.00000000 193 138 90 97.000000 1.000000 4.000000 1.000000 -60.708740 114.000000 191.000000 0.880226 0.473342 0.033907
2610.00000000 3480.00000000 -810.00000000 193 138 90 97.000000 1.000000 4.000000 1.000000 -60.708740 114.000000 191.000000 0.916745 0.288203 0.276617
2600.00000000 3450.00000000 -710.00000000 193 138 90 97.000000 1.000000 4.000000 1.000000 -60.708740 114.000000 191.000000 0.676621 0.630526 0.380291
2560.00000000 3490.00000000 -760.00000000 193 138 90 97.000000 1.000000 4.000000 1.000000 -60.708740 114.000000 191.000000 0.976545 0.212084 0.037145
2560.00000000 3480.00000000 -740.00000000 193 138 90 97.000000 1.000000 4.000000 1.000000 -60.708740 114.000000 191.000000 0.949339 0.263330 0.171502
2570.00000000 3470.00000000 -820.00000000 193 138 90 97.000000 1.000000 4.000000 1.000000 -60.708740 114.000000 191.000000 0.739590 0.643860 -0.196092
2570.00000000 3460.00000000 -780.00000000 193 138 90 97.000000 1.000000 4.000000 1.000000 -60.708740 114.000000 191.000000 0.699131 0.505577 0.505577
2550.00000000 3480.00000000 -780.00000000 193 138 90 97.000000 1.000000 4.000000 1.000000 -60.708740 114.000000 191.000000 0.892458 0.419556 0.165804
2560.00000000 3480.00000000 -820.00000000 193 138 90 97.000000 1.000000 4.000000 1.000000 -60.708740 114.000000 191.000000 0.916845 0.337181 0.213787
2570.00000000 3470.00000000 -890.00000000 193 138 90 97.000000 1.000000 4.000000 1.000000 -60.708740 114.000000 191.000000 0.931125 0.306641 -0.197427
2600.00000000 3500.00000000 -900.00000000 193 138 90 97.000000 1.000000 4.000000 1.000000 -60.708740 114.000000 191.000000 0.662857 0.735004 -0.142792
2470.00000000 3670.00000000 -980.00000000 193 138 90 97.000000 1.000000 4.000000 1.000000 -60.708740 114.000000 195.000000 0.772885 0.548860 -0.318435
2500.00000000 3670.00000000 -1030.00000000 193 138 90 97.000000 1.000000 4.000000 1.000000 -60.708740 114.000000 195.000000 0.866681 0.496234 0.051144
2510.00000000 3660.00000000 -940.00000000 193 138 90 97.000000 1.000000 4.000000 1.000000 -60.708740 114.000000 195.000000 0.896653 0.417678 -0.146829
2500.00000000 3670.00000000 -1060.00000000 193 138 90 97.000000 1.000000 4.000000 1.000000 -60.708740 114.000000 195.000000 0.589778 0.698813 -0.404750
2540.00000000 3640.00000000 -1040.00000000 193 138 90 97.000000 1.000000 4.000000 1.000000 -60.708740 114.000000 195.000000 0.727552 0.670312 -0.146113
2020.00000000 4180.00000000 -30.00000000 193 138 90 97.000000 1.000000 4.000000 1.000000 -60.708740 114.000000 149.000000 0.666609 0.107899 0.737557
2030.00000000 4240.00000000 -80.00000000 193 138 90 97.000000 1.000000 4.000000 1.000000 -60.708740 114.000000 149.000000 0.618445 0.126062 0.775651
2040.00000000 4200.00000000 -50.00000000 193 138 90 97.000000 1.000000 4.000000 1.000000 -60.708740 114.000000 149.000000 0.724042 -0.152669 0.672648
2070.00000000 4180.00000000 -130.00000000 193 138 90 97.000000 1.000000 4.000000 1.000000 -60.708740 114.000000 149.000000 0.810294 0.394759 0.433116
2070.00000000 4200.00000000 -140.00000000 193 138 90 97.000000 1.000000 4.000000 1.000000 -60.708740 114.000000 149.000000 0.745657 -0.110741 0.657064
2070.00000000 4180.00000000 -140.00000000 193 138 90 97.000000 1.000000 4.000000 1.000000 -60.708740 114.000000 149.000000 0.498229 0.293908 0.815712
2090.00000000 4150.00000000 -170.00000000 193 138 90 97.000000 1.000000 4.000000 1.000000 -60.708740 114.000000 149.000000 0.708308 0.610159 0.354972
2100.00000000 4150.00000000 -170.00000000 193 138 90 97.000000 1.000000 4.000000 1.000000 -60.708740 114.000000 149.000000 0.805016 0.160404 0.571157
2170.00000000 4150.00000000 -260.00000000 193 138 90 97.000000 1.000000 4.000000 1.000000 -60.708740 114.000000 149.000000 0.709201 0.203294 0.675060
2180.00000000 4150.00000000 -260.00000000 193 138 90 97.000000 1.000000 4.000000 1.000000 -60.708740 114.000000 149.000000 0.690254 0.440765 0.573826
2120.00000000 4140.00000000 -200.00000000 193 138 90 97.000000 1.000000 4.000000 1.000000 -60.708740 114.000000 149.000000 0.767790 0.347526 0.538261
2080.00000000 4130.00000000 -190.00000000 193 138 90 97.000000 1.000000 4.000000 1.000000 -60.708740 114.000000 149.000000 0.847309 0.487845 0.209939
2040.00000000 4120.00000000 -340.00000000 193 138 90 97.000000 1.000000 4.000000 1.000000 -60.708740 114.000000 149.000000 0.931547 0.182958 0.314240
2080.00000000 4030.00000000 -290.00000000 193 138 90 97.000000 1.000000 4.000000 1.000000 -60.708740 114.000000 149.000000 0.879291 0.244164 0.408938
2020.00000000 4040.00000000 -310.00000000 193 138 90 97.000000 1.000000 4.000000 1.000000 -60.708740 114.000000 149.000000 0.658352 0.645152 0.387751
2150.00000000 4030.00000000 -440.00000000 193 138 90 97.000000 1.000000 4.000000 1.000000 -60.708740 114.000000 149.000000 0.748126 0.633979 0.195901
2040.00000000 4150.00000000 -360.00000000 193 138 90 97.000000 1.000000 4.000000 1.000000 -60.708740 114.000000 149.000000 0.869496 0.492760 0.034125
2070.00000000 4060.00000000 -410.00000000 193 138 90 97.000000 1.000000 4.000000 1.000000 -60.708740 114.000000 149.000000 0.800030 0.588646 0.115968
2070.00000000 4020.00000000 -480.00000000 193 138 90 97.000000 1.000000 4.000000 1.000000 -60.708740 114.000000 149.000000 0.659573 0.750353 0.043972
2080.00000000 4020.00000000 -500.00000000 193 138 90 97.000000 1.000000 4.000000 1.000000 -60.708740 114.000000 149.000000 0.868488 0.479613 0.125304
2040.00000000 4030.00000000 -470.00000000 193 138 90 97.000000 1.000000 4.000000 1.000000 -60.708740 114.000000 149.000000 0.761432 0.590466 0.267530
2040.00000000 4030.00000000 -470.00000000 193 138 90 97.000000 1.000000 4.000000 1.000000 -60.708740 114.000000 149.000000 0.761432 0.590466 0.267530
2040.00000000 4020.00000000 -450.00000000 193 138 90 97.000000 1.000000 4.000000 1.000000 -60.708740 114.000000 149.000000 0.831823 0.550283 -0.072518
2330.00000000 3840.00000000 -320.00000000 193 138 90 97.000000 1.000000 4.000000 1.000000 -60.708740 114.000000 195.000000 0.679691 0.319568 0.660225
2350.00000000 3780.00000000 -350.00000000 193 138 90 97.000000 1.000000 4.000000 1.000000 -60.708740 114.000000 195.000000 0.779978 -0.043883 0.624266
2040.00000000 3950.00000000 -350.00000000 193 138 90 97.000000 1.000000 4.000000 1.000000 -60.708740 114.000000 149.000000 0.801509 0.558441 0.213838
2090.00000000 3990.00000000 -330.00000000 193 138 90 97.000000 1.000000 4.000000 1.000000 -60.708740 114.000000 149.000000 0.756438 0.497182 0.424984
2290.00000000 3960.00000000 -580.00000000 193 138 90 97.000000 1.000000 4.000000 1.000000 -60.708740 114.000000 149.000000 0.895845 0.441842 -0.047292
2270.00000000 3970.00000000 -580.00000000 193 138 90 97.000000 1.000000 4.000000 1.000000 -60.708740 114.000000 149.000000 0.707150 0.629477 0.322020
2270.00000000 3980.00000000 -610.00000000 193 138 90 97.000000 1.000000 4.000000 1.000000 -60.708740 114.000000 149.000000 0.761489 0.648164 0.004146
2320.00000000 4000.00000000 -690.00000000 193 138 90 97.000000 1.000000 4.000000 1.000000 -60.708740 114.000000 149.000000 0.893891 0.358449 0.269208
2280.00000000 3880.00000000 -550.00000000 193 138 90 97.000000 1.000000 4.000000 1.000000 -60.708740 114.000000 149.000000 0.938666 0.111458 0.326317
2280.00000000 3880.00000000 -540.00000000 193 138 90 97.000000 1.000000 4.000000 1.000000 -60.708740 114.000000 149.000000 0.903018 0.416028 -0.107138
2250.00000000 3940.00000000 -560.00000000 193 138 90 97.000000 1.000000 4.000000 1.000000 -60.708740 114.000000 149.000000 0.852813 0.512830 0.098566
2260.00000000 3950.00000000 -550.00000000 193 138 90 97.000000 1.000000 4.000000 1.000000 -60.708740 114.000000 149.000000 0.801483 0.475131 0.363147
2110.00000000 3940.00000000 -400.00000000 193 138 90 97.000000 1.000000 4.000000 1.000000 -60.708740 114.000000 149.000000 0.855398 0.464792 0.228611
2120.00000000 3940.00000000 -400.00000000 193 138 90 97.000000 1.000000 4.000000 1.000000 -60.708740 114.000000 149.000000 0.820018 0.336539 0.462939
2100.00000000 3930.00000000 -480.00000000 193 138 90 97.000000 1.000000 4.000000 1.000000 -60.708740 114.000000 149.000000 0.690135 0.624564 0.365559
2100.00000000 3940.00000000 -450.00000000 193 138 90 97.000000 1.000000 4.000000 1.000000 -60.708740 114.000000 149.000000 0.916584 0.296840 0.267880
2120.00000000 3930.00000000 -470.00000000 193 138 90 97.000000 1.000000 4.000000 1.000000 -60.708740 114.000000 149.000000 0.623672 0.717142 0.311030
2110.00000000 3940.00000000 -490.00000000 193 138 90 97.000000 1.000000 4.000000 1.000000 -60.708740 114.000000 149.000000 0.825271 0.175877 0.536652
2110.00000000 3950.00000000 -490.00000000 193 138 90 97.000000 1.000000 4.000000 1.000000 -60.708740 114.000000 149.000000 0.789561 0.599234 0.132337
2130.00000000 3890.00000000 -410.00000000 193 138 90 97.000000 1.000000 4.000000 1.000000 -60.708740 114.000000 149.000000 0.975224 0.181524 0.126441
2110.00000000 3920.00000000 -470.00000000 193 138 90 97.000000 1.000000 4.000000 1.000000 -60.708740 114.000000 149.000000 0.804396 0.580051 0.128408
2120.00000000 3870.00000000 -500.00000000 193 138 90 97.000000 1.000000 4.000000 1.000000 -60.708740 114.000000 149.000000 0.807569 0.587707 0.049328
2090.00000000 4000.00000000 -410.00000000 193 138 90 97.000000 1.000000 4.000000 1.000000 -60.708740 114.000000 149.000000 0.940410 0.325885 0.097100
2060.00000000 4000.00000000 -380.00000000 193 138 90 97.000000 1.000000 4.000000 1.000000 -60.708740 114.000000 149.000000 0.840132 0.283138 0.462614
2070.00000000 3970.00000000 -510.00000000 193 138 90 97.000000 1.000000 4.000000 1.000000 -60.708740 114.000000 149.000000 0.908599 0.414708 0.049658
2070.00000000 3970.00000000 -490.00000000 193 138 90 97.000000 1.000000 4.000000 1.000000 -60.708740 114.000000 149.000000 0.805157 0.575962 -0.141386
2080.00000000 3960.00000000 -480.00000000 193 138 90 97.000000 1.000000 4.000000 1.000000 -60.708740 114.000000 149.000000 0.944790 0.077313 0.318424
2080.00000000 3960.00000000 -480.00000000 193 138 90 97.000000 1.000000 4.000000 1.000000 -60.708740 114.000000 149.000000 0.944790 0.077313 0.318424
2080.00000000 3950.00000000 -480.00000000 193 138 90 97.000000 1.000000 4.000000 1.000000 -60.708740 114.000000 149.000000 0.888291 0.459279 -0.001316
2090.00000000 3930.00000000 -510.00000000 193 138 90 97.000000 1.000000 4.000000 1.000000 -60.708740 114.000000 149.000000 0.589778 0.698813 0.404750
2050.00000000 3990.00000000 -510.00000000 193 138 90 97.000000 1.000000 4.000000 1.000000 -60.708740 114.000000 149.000000 0.743143 0.613212 0.267785
2040.00000000 4000.00000000 -490.00000000 193 138 90 97.000000 1.000000 4.000000 1.000000 -60.708740 114.000000 149.000000 0.918022 0.384447 -0.097138
2080.00000000 3920.00000000 -520.00000000 193 138 90 97.000000 1.000000 4.000000 1.000000 -60.708740 114.000000 149.000000 0.773986 0.597870 0.208559
2100.00000000 3980.00000000 -540.00000000 193 138 90 97.000000 1.000000 4.000000 1.000000 -60.708740 114.000000 149.000000 0.974020 0.225324 0.022652
2100.00000000 3940.00000000 -580.00000000 193 138 90 97.000000 1.000000 4.000000 1.000000 -60.708740 114.000000 149.000000 0.981285 0.176992 -0.075854
2130.00000000 3950.00000000 -610.00000000 193 138 90 97.000000 1.000000 4.000000 1.000000 -60.708740 114.000000 149.000000 0.840687 0.408602 0.355374
2150.00000000 3940.00000000 -620.00000000 193 138 90 97.000000 1.000000 4.000000 1.000000 -60.708740 114.000000 149.000000 0.877621 0.421675 0.227973
2170.00000000 3910.00000000 -610.00000000 193 138 90 97.000000 1.000000 4.000000 1.000000 -60.708740 114.000000 149.000000 0.903935 0.418156 0.089703
2180.00000000 3910.00000000 -660.00000000 193 138 90 97.000000 1.000000 4.000000 1.000000 -60.708740 114.000000 149.000000 0.984387 0.175986 0.003406
2080.00000000 3960.00000000 -540.00000000 193 138 90 97.000000 1.000000 4.000000 1.000000 -60.708740 114.000000 149.000000 0.820039 0.476914 -0.316368
1960.00000000 4240.00000000 -150.00000000 193 138 90 97.000000 1.000000 4.000000 1.000000 -60.708740 114.000000 149.000000 0.597821 0.467204 0.651407
1900.00000000 4340.00000000 -100.00000000 193 138 90 97.000000 1.000000 4.000000 1.000000 -60.708740 114.000000 149.000000 0.760310 0.185106 0.622628
1910.00000000 4270.00000000 -80.00000000 193 138 90 97.000000 1.000000 4.000000 1.000000 -60.708740 114.000000 149.000000 0.566168 0.193810 0.801181
2000.00000000 4220.00000000 -250.00000000 193 138 90 97.000000 1.000000 4.000000 1.000000 -60.708740 114.000000 149.000000 0.750684 0.441869 0.491148
1950.00000000 4250.00000000 -190.00000000 193 138 90 97.000000 1.000000 4.000000 1.000000 -60.708740 114.000000 149.000000 0.827550 0.312490 0.466380
1950.00000000 4220.00000000 -250.00000000 193 138 90 97.000000 1.000000 4.000000 1.000000 -60.708740 114.000000 149.000000 0.593004 0.565973 0.572731
1940.00000000 4180.00000000 -260.00000000 193 138 90 97.000000 1.000000 4.000000 1.000000 -60.708740 114.000000 149.000000 0.724386 0.566697 0.392581
1960.00000000 4180.00000000 -280.00000000 193 138 90 97.000000 1.000000 4.000000 1.000000 -60.708740 114.000000 149.000000 0.852570 0.183012 0.489521
1970.00000000 4180.00000000 -290.00000000 193 138 90 97.000000 1.000000 4.000000 1.000000 -60.708740 114.000000 149.000000 0.697610 0.551095 0.457859
1950.00000000 4190.00000000 -280.00000000 193 138 90 97.000000 1.000000 4.000000 1.000000 -60.708740 114.000000 149.000000 0.708583 0.255217 0.657856
1960.00000000 4210.00000000 -310.00000000 193 138 90 97.000000 1.000000 4.000000 1.000000 -60.708740 114.000000 149.000000 0.775728 0.548608 0.311891
1950.00000000 4210.00000000 -290.00000000 193 138 90 97.000000 1.000000 4.000000 1.000000 -60.708740 114.000000 149.000000 0.860556 0.508696 0.025912
1870.00000000 4300.00000000 -270.00000000 193 138 90 97.000000 1.000000 4.000000 1.000000 -60.708740 114.000000 149.000000 0.714645 0.364682 0.596900
1880.00000000 4310.00000000 -320.00000000 193 138 90 97.000000 1.000000 4.000000 1.000000 -60.708740 114.000000 149.000000 0.852038 0.523181 0.017666
1890.00000000 4280.00000000 -300.00000000 193 138 90 97.000000 1.000000 4.000000 1.000000 -60.708740 114.000000 149.000000 0.835684 0.512291 0.197965
1910.00000000 4230.00000000 -200.00000000 193 138 90 97.000000 1.000000 4.000000 1.000000 -60.708740 114.000000 149.000000 0.772185 0.361001 0.522884
1920.00000000 4180.00000000 -230.00000000 193 138 90 97.000000 1.000000 4.000000 1.000000 -60.708740 114.000000 149.000000 0.687105 0.055944 0.724401
1870.00000000 4240.00000000 -260.00000000 193 138 90 97.000000 1.000000 4.000000 1.000000 -60.708740 114.000000 149.000000 0.676522 0.501936 0.538868
1910.00000000 4230.00000000 -330.00000000 193 138 90 97.000000 1.000000 4.000000 1.000000 -60.708740 114.000000 149.000000 0.842234 0.535711 0.060461
1900.00000000 4260.00000000 -320.00000000 193 138 90 97.000000 1.000000 4.000000 1.000000 -60.708740 114.000000 149.000000 0.947938 0.249601 0.197771
1890.00000000 4200.00000000 -290.00000000 193 138 90 97.000000 1.000000 4.000000 1.000000 -60.708740 114.000000 149.000000 0.902717 0.409814 0.130971
1860.00000000 4220.00000000 -310.00000000 193 138 90 97.000000 1.000000 4.000000 1.000000 -60.708740 114.000000 149.000000 0.759802 0.474261 0.444722
1860.00000000 4250.00000000 -320.00000000 193 138 90 97.000000 1.000000 4.000000 1.000000 -60.708740 114.000000 149.000000 0.652023 0.721154 0.234100
1870.00000000 4210.00000000 -310.00000000 193 138 90 97.000000 1.000000 4.000000 1.000000 -60.708740 114.000000 149.000000 0.734097 0.286282 0.615746
1860.00000000 4190.00000000 -340.00000000 193 138 90 97.000000 1.000000 4.000000 1.000000 -60.708740 114.000000 149.000000 0.594430 0.703107 0.390249
1860.00000000 4180.00000000 -330.00000000 193 138 90 97.000000 1.000000 4.000000 1.000000 -60.708740 114.000000 149.000000 0.711715 0.542496 0.446273
1860.00000000 4190.00000000 -340.00000000 193 138 90 97.000000 1.000000 4.000000 1.000000 -60.708740 114.000000 149.000000 0.594430 0.703107 0.390249
1860.00000000 4150.00000000 -170.00000000 193 138 90 97.000000 1.000000 4.000000 1.000000 -60.708740 114.000000 149.000000 0.807781 -0.186411 0.559233
1960.00000000 4170.00000000 -210.00000000 193 138 90 97.000000 1.000000 4.000000 1.000000 -60.708740 114.000000 149.000000 0.633255 0.558953 0.535312
1950.00000000 4140.00000000 -250.00000000 193 138 90 97.000000 1.000000 4.000000 1.000000 -60.708740 114.000000 149.000000 0.668063 0.438156 0.601424
1960.00000000 4170.00000000 -260.00000000 193 138 90 97.000000 1.000000 4.000000 1.000000 -60.708740 114.000000 149.000000 0.896137 0.397797 0.196713
1980.00000000 4150.00000000 -280.00000000 193 138 90 97.000000 1.000000 4.000000 1.000000 -60.708740 114.000000 149.000000 0.620097 0.391902 0.679627
1960.00000000 4110.00000000 -350.00000000 193 138 90 97.000000 1.000000 4.000000 1.000000 -60.708740 114.000000 149.000000 0.954511 0.130701 0.268003
1940.00000000 4100.00000000 -330.00000000 193 138 90 97.000000 1.000000 4.000000 1.000000 -60.708740 114.000000 149.000000 0.653730 0.456441 0.603572
1960.00000000 4120.00000000 -350.00000000 193 138 90 97.000000 1.000000 4.000000 1.000000 -60.708740 114.000000 149.000000 0.833330 0.337412 0.437851
1990.00000000 4090.00000000 -320.00000000 193 138 90 97.000000 1.000000 4.000000 1.000000 -60.708740 114.000000 149.000000 0.726190 0.209926 0.654660
1890.00000000 4140.00000000 -190.00000000 193 138 90 97.000000 1.000000 4.000000 1.000000 -60.708740 114.000000 149.000000 0.691521 -0.149804 0.706653
1870.00000000 4170.00000000 -260.00000000 193 138 90 97.000000 1.000000 4.000000 1.000000 -60.708740 114.000000 149.000000 0.786362 0.348958 0.509768
1930.00000000 4130.00000000 -350.00000000 193 138 90 97.000000 1.000000 4.000000 1.000000 -60.708740 114.000000 149.000000 0.886981 0.460366 -0.036451
1920.00000000 4120.00000000 -320.00000000 193 138 90 97.000000 1.000000 4.000000 1.000000 -60.708740 114.000000 149.000000 0.877374 0.307611 0.368225
1870.00000000 4170.00000000 -310.00000000 193 138 90 97.000000 1.000000 4.000000 1.000000 -60.708740 114.000000 149.000000 0.659480 0.656191 0.366743
1840.00000000 4340.00000000 -80.00000000 193 138 90 97.000000 1.000000 4.000000 1.000000 -60.708740 114.000000 149.000000 0.690289 -0.098613 0.716782
1840.00000000 4270.00000000 -300.00000000 193 138 90 97.000000 1.000000 4.000000 1.000000 -60.708740 114.000000 149.000000 0.895889 0.084466 0.436175
1840.00000000 4190.00000000 -200.00000000 193 138 90 97.000000 1.000000 4.000000 1.000000 -60.708740 114.000000 149.000000 0.858740 -0.071679 0.507373
1800.00000000 4250.00000000 -270.00000000 193 138 90 97.000000 1.000000 4.000000 1.000000 -60.708740 114.000000 149.000000 0.593395 0.364537 0.717632
1740.00000000 4220.00000000 -240.00000000 193 138 90 97.000000 1.000000 4.000000 1.000000 -60.708740 114.000000 149.000000 0.783175 0.026525 0.621235
1760.00000000 4210.00000000 -250.00000000 193 138 90 97.000000 1.000000 4.000000 1.000000 -60.708740 114.000000 149.000000 0.902537 0.253884 0.347807
1790.00000000 4170.00000000 -160.00000000 193 138 90 97.000000 1.000000 4.000000 1.000000 -60.708740 114.000000 149.000000 0.447710 -0.011886 0.894100
1690.00000000 4110.00000000 -100.00000000 193 138 90 97.000000 1.000000 4.000000 1.000000 -60.708740 114.000000 149.000000 0.785885 -0.168079 0.595092
1680.00000000 4130.00000000 -150.00000000 193 138 90 97.000000 1.000000 4.000000 1.000000 -60.708740 114.000000 149.000000 0.765027 -0.277184 0.581294
1680.00000000 4120.00000000 -160.00000000 193 138 90 97.000000 1.000000 4.000000 1.000000 -60.708740 114.000000 149.000000 0.721662 -0.052874 0.690223
1680.00000000 4100.00000000 -160.00000000 193 138 90 97.000000 1.000000 4.000000 1.000000 -60.708740 114.000000 149.000000 0.505188 0.083490 0.858961
1840.00000000 4160.00000000 -190.00000000 193 138 90 97.000000 1.000000 4.000000 1.000000 -60.708740 114.000000 149.000000 0.650978 0.523137 0.550051
1840.00000000 4160.00000000 -200.00000000 193 138 90 97.000000 1.000000 4.000000 1.000000 -60.708740 114.000000 149.000000 0.637086 0.392180 0.663563
1830.00000000 4140.00000000 -260.00000000 193 138 90 97.000000 1.000000 4.000000 1.000000 -60.708740 114.000000 149.000000 0.959450 -0.056735 0.276110
1830.00000000 4130.00000000 -310.00000000 193 138 90 97.000000 1.000000 4.000000 1.000000 -60.708740 114.000000 149.000000 0.828093 0.291626 0.478766
1680.00000000 4140.00000000 -190.00000000 193 138 90 97.000000 1.000000 4.000000 1.000000 -60.708740 114.000000 149.000000 0.739147 0.240105 0.629295
1690.00000000 4140.00000000 -190.00000000 193 138 90 97.000000 1.000000 4.000000 1.000000 -60.708740 114.000000 149.000000 0.752729 0.306549 0.582603
1720.00000000 4130.00000000 -310.00000000 193 138 90 97.000000 1.000000 4.000000 1.000000 -60.708740 114.000000 149.000000 0.673364 0.283101 0.682961
1740.00000000 4150.00000000 -280.00000000 193 138 90 97.000000 1.000000 4.000000 1.000000 -60.708740 114.000000 149.000000 0.548034 0.551407 0.628975
1900.00000000 4220.00000000 -390.00000000 193 138 90 97.000000 1.000000 4.000000 1.000000 -60.708740 114.000000 149.000000 0.644580 0.739959 0.192297
1890.00000000 4220.00000000 -370.00000000 193 138 90 97.000000 1.000000 4.000000 1.000000 -60.708740 114.000000 149.000000 0.718599 0.686003 -0.114087
1910.00000000 4180.00000000 -370.00000000 193 138 90 97.000000 1.000000 4.000000 1.000000 -60.708740 114.000000 149.000000 0.970837 0.208850 0.117716
1990.00000000 4110.00000000 -410.00000000 193 138 90 97.000000 1.000000 4.000000 1.000000 -60.708740 114.000000 149.000000 0.670180 0.739360 0.064856
1970.00000000 4110.00000000 -370.00000000 193 138 90 97.000000 1.000000 4.000000 1.000000 -60.708740 114.000000 149.000000 0.985069 0.082188 0.151274
1940.00000000 4130.00000000 -420.00000000 193 138 90 97.000000 1.000000 4.000000 1.000000 -60.708740 114.000000 149.000000 0.730415 0.677930 0.083101
1950.00000000 4130.00000000 -400.00000000 193 138 90 97.000000 1.000000 4.000000 1.000000 -60.708740 114.000000 149.000000 0.839551 0.426811 0.336133
1950.00000000 4110.00000000 -500.00000000 193 138 90 97.000000 1.000000 4.000000 1.000000 -60.708740 114.000000 149.000000 0.820562 0.568299 -0.060940
1980.00000000 4090.00000000 -370.00000000 193 138 90 97.000000 1.000000 4.000000 1.000000 -60.708740 114.000000 149.000000 0.803010 0.594143 0.046572
2010.00000000 4070.00000000 -400.00000000 193 138 90 97.000000 1.000000 4.000000 1.000000 -60.708740 114.000000 149.000000 0.981938 0.031675 0.186533
1990.00000000 4050.00000000 -370.00000000 193 138 90 97.000000 1.000000 4.000000 1.000000 -60.708740 114.000000 149.000000 0.708866 0.505380 0.492036
1990.00000000 4010.00000000 -420.00000000 193 138 90 97.000000 1.000000 4.000000 1.000000 -60.708740 114.000000 149.000000 0.612521 0.739798 0.278419
1970.00000000 4090.00000000 -360.00000000 193 138 90 97.000000 1.000000 4.000000 1.000000 -60.708740 114.000000 149.000000 0.870626 0.106869 0.480198
1950.00000000 4080.00000000 -480.00000000 193 138 90 97.000000 1.000000 4.000000 1.000000 -60.708740 114.000000 149.000000 0.674905 0.733212 0.083088
1960.00000000 4040.00000000 -490.00000000 193 138 90 97.000000 1.000000 4.000000 1.000000 -60.708740 114.000000 149.000000 0.831935 0.547439 0.090521
1960.00000000 4040.00000000 -490.00000000 193 138 90 97.000000 1.000000 4.000000 1.000000 -60.708740 114.000000 149.000000 0.831935 0.547439 0.090521
1920.00000000 4160.00000000 -390.00000000 193 138 90 97.000000 1.000000 4.000000 1.000000 -60.708740 114.000000 149.000000 0.685432 0.616063 0.388136
1920.00000000 4160.00000000 -390.00000000 193 138 90 97.000000 1.000000 4.000000 1.000000 -60.708740 114.000000 149.000000 0.685432 0.616063 0.388136
1930.00000000 4170.00000000 -430.00000000 193 138 90 97.000000 1.000000 4.000000 1.000000 -60.708740 114.000000 149.000000 0.852635 0.509272 -0.116859
1930.00000000 4150.00000000 -430.00000000 193 138 90 97.000000 1.000000 4.000000 1.000000 -60.708740 114.000000 149.000000 0.951861 0.301060 -0.057650
1930.00000000 4140.00000000 -410.00000000 193 138 90 97.000000 1.000000 4.000000 1.000000 -60.708740 114.000000 149.000000 0.808153 0.588380 -0.026428
1930.00000000 4130.00000000 -360.00000000 193 138 90 97.000000 1.000000 4.000000 1.000000 -60.708740 114.000000 149.000000 0.855323 0.364793 0.367898
1930.00000000 4130.00000000 -360.00000000 193 138 90 97.000000 1.000000 4.000000 1.000000 -60.708740 114.000000 149.000000 0.855323 0.364793 0.367898
1890.00000000 4150.00000000 -500.00000000 193 138 90 97.000000 1.000000 4.000000 1.000000 -60.708740 114.000000 149.000000 0.897454 0.440033 -0.030762
1920.00000000 4140.00000000 -460.00000000 193 138 90 97.000000 1.000000 4.000000 1.000000 -60.708740 114.000000 149.000000 0.752003 0.652709 -0.091993
1910.00000000 4140.00000000 -510.00000000 193 138 90 97.000000 1.000000 4.000000 1.000000 -60.708740 114.000000 149.000000 0.740852 0.509852 -0.437251
1970.00000000 4110.00000000 -590.00000000 193 138 90 97.000000 1.000000 4.000000 1.000000 -60.708740 114.000000 149.000000 0.787109 0.580705 -0.207945
1960.00000000 4130.00000000 -580.00000000 193 138 90 97.000000 1.000000 4.000000 1.000000 -60.708740 114.000000 149.000000 0.510592 0.857515 -0.062950
1970.00000000 4050.00000000 -540.00000000 193 138 90 97.000000 1.000000 4.000000 1.000000 -60.708740 114.000000 149.000000 0.909495 0.275914 0.310951
1890.00000000 4070.00000000 -540.00000000 193 138 90 97.000000 1.000000 4.000000 1.000000 -60.708740 114.000000 149.000000 0.968613 0.246711 -0.030383
1720.00000000 4190.00000000 -550.00000000 193 138 90 97.000000 1.000000 4.000000 1.000000 -60.708740 114.000000 149.000000 0.418674 0.793702 -0.441305
1700.00000000 4010.00000000 -520.00000000 193 138 90 97.000000 1.000000 4.000000 1.000000 -60.708740 114.000000 149.000000 0.865747 0.320250 -0.384606
1730.00000000 4030.00000000 -640.00000000 193 138 90 97.000000 1.000000 4.000000 1.000000 -60.708740 114.000000 149.000000 -0.161328 -0.504706 0.848083
2010.00000000 3980.00000000 -330.00000000 193 138 90 97.000000 1.000000 4.000000 1.000000 -60.708740 114.000000 149.000000 0.733419 0.395423 0.552935
1940.00000000 3960.00000000 -330.00000000 193 138 90 97.000000 1.000000 4.000000 1.000000 -60.708740 114.000000 149.000000 0.937603 0.263309 0.227087
1990.00000000 3990.00000000 -320.00000000 193 138 90 97.000000 1.000000 4.000000 1.000000 -60.708740 114.000000 149.000000 0.846511 0.009481 0.532286
