//X Y Z R G B PointSourceId ScanDirectionFlag NumberOfReturns ReturnNumber GpsTime Intensity Classification Nx Ny Nz
-220.00000000 3220.00000000 590.00000000 30 222 129 97.000000 1.000000 4.000000 1.000000 -60.708740 114.000000 149.000000 -0.230020 0.901032 0.367738
-230.00000000 3330.00000000 370.00000000 30 222 129 97.000000 1.000000 4.000000 1.000000 -60.708740 114.000000 149.000000 -0.094202 0.881562 0.462574
-220.00000000 3190.00000000 430.00000000 30 222 129 97.000000 1.000000 4.000000 1.000000 -60.708740 114.000000 149.000000 -0.260149 0.903908 0.339517
-210.00000000 3200.00000000 410.00000000 30 222 129 97.000000 1.000000 4.000000 1.000000 -60.708740 114.000000 149.000000 -0.332496 0.879064 0.341605
-330.00000000 3260.00000000 390.00000000 30 222 129 97.000000 1.000000 4.000000 1.000000 -60.708740 114.000000 149.000000 -0.521019 0.645793 0.558114
-270.00000000 3240.00000000 370.00000000 30 222 129 97.000000 1.000000 4.000000 1.000000 -60.708740 114.000000 149.000000 0.665326 -0.568125 -0.484330
-270.00000000 3170.00000000 360.00000000 30 222 129 97.000000 1.000000 4.000000 1.000000 -60.708740 114.000000 149.000000 0.369900 -0.619788 -0.692124
-330.00000000 3180.00000000 320.00000000 30 222 129 97.000000 1.000000 4.000000 1.000000 -60.708740 114.000000 149.000000 0.871324 -0.489523 -0.034089
-180.00000000 3030.00000000 540.00000000 30 222 129 97.000000 1.000000 4.000000 1.000000 -60.708740 114.000000 149.000000 -0.199795 0.909856 0.363655
-240.00000000 3080.00000000 510.00000000 30 222 129 97.000000 1.000000 4.000000 1.000000 -60.708740 114.000000 149.000000 -0.127332 0.534209 0.835708
-220.00000000 3070.00000000 520.00000000 30 222 129 97.000000 1.000000 4.000000 1.000000 -60.708740 114.000000 149.000000 0.014975 0.848133 0.529572
-320.00000000 3120.00000000 500.00000000 30 222 129 97.000000 1.000000 4.000000 1.000000 -60.708740 114.000000 149.000000 0.560340 -0.503128 -0.657937
-200.00000000 3110.00000000 400.00000000 30 222 129 97.000000 1.000000 4.000000 1.000000 -60.708740 114.000000 149.000000 -0.486143 0.728385 0.482825
-200.00000000 3110.00000000 400.00000000 30 222 129 97.000000 1.000000 4.000000 1.000000 -60.708740 114.000000 149.000000 -0.486143 0.728385 0.482825
-190.00000000 3100.00000000 330.00000000 30 222 129 97.000000 1.000000 4.000000 1.000000 -60.708740 114.000000 149.000000 -0.089240 0.732936 0.674419
-190.00000000 3100.00000000 320.00000000 30 222 129 97.000000 1.000000 4.000000 1.000000 -60.708740 114.000000 149.000000 0.323339 -0.558202 -0.764109
-190.00000000 3100.00000000 330.00000000 30 222 129 97.000000 1.000000 4.000000 1.000000 -60.708740 114.000000 149.000000 -0.089240 0.732936 0.674419
-230.00000000 3090.00000000 340.00000000 30 222 129 97.000000 1.000000 4.000000 1.000000 -60.708740 114.000000 149.000000 -0.598341 0.753878 0.271396
-180.00000000 3080.00000000 370.00000000 30 222 129 97.000000 1.000000 4.000000 1.000000 -60.708740 114.000000 149.000000 0.335551 0.809456 0.481857
-210.00000000 3060.00000000 330.00000000 30 222 129 97.000000 1.000000 4.000000 1.000000 -60.708740 114.000000 149.000000 -0.571146 0.763128 0.302371
-180.00000000 3030.00000000 370.00000000 30 222 129 97.000000 1.000000 4.000000 1.000000 -60.708740 114.000000 149.000000 -0.052703 0.776297 0.628160
-230.00000000 3060.00000000 390.00000000 30 222 129 97.000000 1.000000 4.000000 1.000000 -60.708740 114.000000 149.000000 -0.476070 0.850881 0.222166
-240.00000000 3080.00000000 400.00000000 30 222 129 97.000000 1.000000 4.000000 1.000000 -60.708740 114.000000 149.000000 -0.648656 0.706315 0.283487
-340.00000000 3110.00000000 460.00000000 30 222 129 97.000000 1.000000 4.000000 1.000000 -60.708740 114.000000 149.000000 -0.500986 0.855307 0.132144
-300.00000000 3100.00000000 480.00000000 30 222 129 97.000000 1.000000 4.000000 1.000000 -60.708740 114.000000 149.000000 -0.347397 0.904405 0.247722
-310.00000000 3100.00000000 350.00000000 30 222 129 97.000000 1.000000 4.000000 1.000000 -60.708740 114.000000 149.000000 -0.666146 0.743505 0.058735
-330.00000000 3090.00000000 330.00000000 30 222 129 97.000000 1.000000 4.000000 1.000000 -60.708740 114.000000 149.000000 0.793542 -0.602047 -0.088494
-290.00000000 3130.00000000 390.00000000 30 222 129 97.000000 1.000000 4.000000 1.000000 -60.708740 114.000000 149.000000 0.810294 -0.394759 -0.433116
-320.00000000 3090.00000000 390.00000000 30 222 129 97.000000 1.000000 4.000000 1.000000 -60.708740 114.000000 149.000000 -0.669883 0.559075 0.488561
-280.00000000 3080.00000000 470.00000000 30 222 129 97.000000 1.000000 4.000000 1.000000 -60.708740 114.000000 149.000000 -0.648784 0.369561 0.665209
-340.00000000 3050.00000000 410.00000000 30 222 129 97.000000 1.000000 4.000000 1.000000 -60.708740 114.000000 149.000000 -0.683008 0.730304 -0.012519
-330.00000000 3080.00000000 370.00000000 30 222 129 97.000000 1.000000 4.000000 1.000000 -60.708740 114.000000 149.000000 -0.610062 0.782244 0.126168
-320.00000000 3060.00000000 320.00000000 30 222 129 97.000000 1.000000 4.000000 1.000000 -60.708740 114.000000 149.000000 -0.692670 0.623894 0.361891
-310.00000000 3070.00000000 320.00000000 30 222 129 97.000000 1.000000 4.000000 1.000000 -60.708740 114.000000 149.000000 0.799623 -0.597942 -0.055391
-80.00000000 3210.00000000 170.00000000 30 222 129 97.000000 1.000000 4.000000 1.000000 -60.708740 114.000000 149.000000 0.791728 0.313824 0.524101
-100.00000000 3330.00000000 190.00000000 30 222 129 97.000000 1.000000 4.000000 1.000000 -60.708740 114.000000 149.000000 0.284444 0.809329 0.513885
-170.00000000 3190.00000000 180.00000000 30 222 129 97.000000 1.000000 4.000000 1.000000 -60.708740 114.000000 149.000000 0.281898 0.609982 0.740578
-170.00000000 3270.00000000 140.00000000 30 222 129 97.000000 1.000000 4.000000 1.000000 -60.708740 114.000000 149.000000 0.382320 0.792064 0.475884
-160.00000000 3120.00000000 290.00000000 30 222 129 97.000000 1.000000 4.000000 1.000000 -60.708740 114.000000 149.000000 0.152127 0.760636 0.631102
-150.00000000 3140.00000000 270.00000000 30 222 129 97.000000 1.000000 4.000000 1.000000 -60.708740 114.000000 149.000000 0.384959 0.652613 0.652613
-160.00000000 3140.00000000 270.00000000 30 222 129 97.000000 1.000000 4.000000 1.000000 -60.708740 114.000000 149.000000 0.381231 0.734646 0.561211
-160.00000000 3130.00000000 280.00000000 30 222 129 97.000000 1.000000 4.000000 1.000000 -60.708740 114.000000 149.000000 0.192884 0.729873 0.655806
-140.00000000 3130.00000000 220.00000000 30 222 129 97.000000 1.000000 4.000000 1.000000 -60.708740 114.000000 149.000000 0.413658 0.676140 0.609689
-160.00000000 3130.00000000 160.00000000 30 222 129 97.000000 1.000000 4.000000 1.000000 -60.708740 114.000000 149.000000 0.399382 0.628073 0.667846
-160.00000000 3160.00000000 150.00000000 30 222 129 97.000000 1.000000 4.000000 1.000000 -60.708740 114.000000 149.000000 0.466423 0.506260 0.725362
-160.00000000 3160.00000000 150.00000000 30 222 129 97.000000 1.000000 4.000000 1.000000 -60.708740 114.000000 149.000000 0.466423 0.506260 0.725362
-170.00000000 3120.00000000 170.00000000 30 222 129 97.000000 1.000000 4.000000 1.000000 -60.708740 114.000000 149.000000 -0.012464 0.632887 0.774144
-160.00000000 3150.00000000 40.00000000 30 222 129 97.000000 1.000000 4.000000 1.000000 -60.708740 114.000000 149.000000 -0.137633 0.557930 0.818396
-120.00000000 3040.00000000 40.00000000 30 222 129 97.000000 1.000000 4.000000 1.000000 -60.708740 114.000000 149.000000 -0.058942 0.708747 0.702996
-130.00000000 3040.00000000 20.00000000 30 222 129 97.000000 1.000000 4.000000 1.000000 -60.708740 114.000000 149.000000 -0.056475 0.933805 0.353296
-200.00000000 3330.00000000 170.00000000 30 222 129 97.000000 1.000000 4.000000 1.000000 -60.708740 114.000000 149.000000 -0.335376 0.826630 0.451891
-250.00000000 3170.00000000 230.00000000 30 222 129 97.000000 1.000000 4.000000 1.000000 -60.708740 114.000000 149.000000 0.704652 -0.351509 -0.616366
-190.00000000 3140.00000000 240.00000000 30 222 129 97.000000 1.000000 4.000000 1.000000 -60.708740 114.000000 149.000000 -0.119426 0.864761 0.487777
-210.00000000 3140.00000000 180.00000000 30 222 129 97.000000 1.000000 4.000000 1.000000 -60.708740 114.000000 149.000000 -0.377256 0.749613 0.543837
-190.00000000 3150.00000000 210.00000000 30 222 129 97.000000 1.000000 4.000000 1.000000 -60.708740 114.000000 149.000000 0.218017 0.827856 0.516839
-200.00000000 3160.00000000 150.00000000 30 222 129 97.000000 1.000000 4.000000 1.000000 -60.708740 114.000000 149.000000 -0.354913 0.904079 0.238069
-340.00000000 3040.00000000 230.00000000 30 222 129 97.000000 1.000000 4.000000 1.000000 -60.708740 114.000000 149.000000 0.991695 -0.128492 0.005491
-270.00000000 3150.00000000 -10.00000000 30 222 129 97.000000 1.000000 4.000000 1.000000 -60.708740 114.000000 149.000000 0.881765 0.157820 0.444502
-380.00000000 3070.00000000 530.00000000 30 222 129 97.000000 1.000000 4.000000 1.000000 -60.708740 114.000000 149.000000 0.919519 -0.370304 -0.131756
-390.00000000 3020.00000000 440.00000000 30 222 129 97.000000 1.000000 4.000000 1.000000 -60.708740 114.000000 149.000000 0.720138 -0.579063 -0.382214
-390.00000000 3020.00000000 450.00000000 30 222 129 97.000000 1.000000 4.000000 1.000000 -60.708740 114.000000 149.000000 0.719447 -0.643215 -0.262050
-420.00000000 3020.00000000 440.00000000 30 222 129 97.000000 1.000000 4.000000 1.000000 -60.708740 114.000000 149.000000 0.910980 -0.239732 -0.335624
-390.00000000 3030.00000000 390.00000000 30 222 129 97.000000 1.000000 4.000000 1.000000 -60.708740 114.000000 149.000000 0.718479 -0.635270 -0.283231
-500.00000000 3040.00000000 400.00000000 30 222 129 97.000000 1.000000 4.000000 1.000000 -60.708740 114.000000 149.000000 0.825389 -0.238241 -0.511834
-530.00000000 3020.00000000 390.00000000 30 222 129 97.000000 1.000000 4.000000 1.000000 -60.708740 114.000000 149.000000 0.916090 -0.399389 -0.035589
-360.00000000 3030.00000000 310.00000000 30 222 129 97.000000 1.000000 4.000000 1.000000 -60.708740 114.000000 149.000000 0.967510 -0.174851 -0.182622
-360.00000000 3010.00000000 270.00000000 30 222 129 97.000000 1.000000 4.000000 1.000000 -60.708740 114.000000 149.000000 0.975207 -0.003512 0.221266
-400.00000000 3040.00000000 310.00000000 30 222 129 97.000000 1.000000 4.000000 1.000000 -60.708740 114.000000 149.000000 0.913071 -0.106364 -0.393684
-380.00000000 3040.00000000 180.00000000 30 222 129 97.000000 1.000000 4.000000 1.000000 -60.708740 114.000000 149.000000 0.871283 0.367739 0.325014
-460.00000000 3010.00000000 260.00000000 30 222 129 97.000000 1.000000 4.000000 1.000000 -60.708740 114.000000 149.000000 0.963636 -0.106500 -0.245079
-360.00000000 3060.00000000 20.00000000 30 222 129 97.000000 1.000000 4.000000 1.000000 -60.708740 114.000000 149.000000 0.854772 0.196104 0.480529
-170.00000000 2920.00000000 390.00000000 30 222 129 97.000000 1.000000 4.000000 1.000000 -60.708740 114.000000 149.000000 -0.530906 0.652256 0.541018
-230.00000000 2970.00000000 360.00000000 30 222 129 97.000000 1.000000 4.000000 1.000000 -60.708740 114.000000 149.000000 0.939188 0.143127 -0.312154
-230.00000000 2970.00000000 360.00000000 30 222 129 97.000000 1.000000 4.000000 1.000000 -60.708740 114.000000 149.000000 0.939188 0.143127 -0.312154
-270.00000000 2970.00000000 460.00000000 30 222 129 97.000000 1.000000 4.000000 1.000000 -60.708740 114.000000 149.000000 0.521363 -0.704590 -0.481387
-320.00000000 2940.00000000 420.00000000 30 222 129 97.000000 1.000000 4.000000 1.000000 -60.708740 114.000000 149.000000 0.967852 -0.235969 -0.087069
-310.00000000 2950.00000000 430.00000000 30 222 129 97.000000 1.000000 4.000000 1.000000 -60.708740 114.000000 149.000000 -0.804156 0.353317 0.478017
-290.00000000 2840.00000000 400.00000000 30 222 129 97.000000 1.000000 4.000000 1.000000 -60.708740 114.000000 149.000000 0.802270 0.193336 0.564786
-380.00000000 2940.00000000 460.00000000 30 222 129 97.000000 1.000000 4.000000 1.000000 -60.708740 114.000000 149.000000 0.957865 -0.041320 -0.284229
-390.00000000 2950.00000000 430.00000000 30 222 129 97.000000 1.000000 4.000000 1.000000 -60.708740 114.000000 149.000000 0.999876 -0.004984 0.014953
-420.00000000 2980.00000000 430.00000000 30 222 129 97.000000 1.000000 4.000000 1.000000 -60.708740 114.000000 149.000000 0.897745 -0.347562 -0.270655
-380.00000000 2990.00000000 430.00000000 30 222 129 97.000000 1.000000 4.000000 1.000000 -60.708740 114.000000 149.000000 0.989233 -0.073233 -0.126706
-380.00000000 2970.00000000 400.00000000 30 222 129 97.000000 1.000000 4.000000 1.000000 -60.708740 114.000000 149.000000 0.990050 -0.063391 -0.125629
-550.00000000 2940.00000000 330.00000000 30 222 129 97.000000 1.000000 4.000000 1.000000 -60.708740 114.000000 149.000000 0.947818 -0.238659 -0.211384
110.00000000 3780.00000000 -430.00000000 30 222 129 97.000000 1.000000 4.000000 1.000000 -60.708740 114.000000 149.000000 0.682397 0.398202 0.613000
80.00000000 3700.00000000 -430.00000000 30 222 129 97.000000 1.000000 4.000000 1.000000 -60.708740 114.000000 149.000000 0.690653 0.380766 0.614830
30.00000000 3700.00000000 -480.00000000 30 222 129 97.000000 1.000000 4.000000 1.000000 -60.708740 114.000000 149.000000 0.731508 0.332504 0.595263
40.00000000 3750.00000000 -530.00000000 30 222 129 97.000000 1.000000 4.000000 1.000000 -60.708740 114.000000 149.000000 0.488623 0.733763 0.472059
30.00000000 3690.00000000 -610.00000000 30 222 129 97.000000 1.000000 4.000000 1.000000 -60.708740 114.000000 149.000000 0.932202 0.308870 0.188677
-90.00000000 3800.00000000 -350.00000000 30 222 129 97.000000 1.000000 4.000000 1.000000 -60.708740 114.000000 149.000000 -0.126986 0.842198 0.524002
-140.00000000 3860.00000000 -400.00000000 30 222 129 97.000000 1.000000 4.000000 1.000000 -60.708740 114.000000 149.000000 -0.400755 0.720699 0.565675
-150.00000000 3860.00000000 -410.00000000 30 222 129 97.000000 1.000000 4.000000 1.000000 -60.708740 114.000000 149.000000 -0.235555 0.778424 0.581868
-40.00000000 3780.00000000 -390.00000000 30 222 129 97.000000 1.000000 4.000000 1.000000 -60.708740 114.000000 149.000000 0.267030 0.592522 0.760008
-230.00000000 3750.00000000 -1020.00000000 30 222 129 97.000000 1.000000 4.000000 1.000000 -60.708740 114.000000 149.000000 0.840038 0.307027 0.447293
-330.00000000 3690.00000000 -1120.00000000 30 222 129 97.000000 1.000000 4.000000 1.000000 -60.708740 114.000000 149.000000 0.497146 0.537319 0.681274
240.00000000 3660.00000000 -550.00000000 30 222 129 97.000000 1.000000 4.000000 1.000000 -60.708740 114.000000 149.000000 0.994299 -0.102403 0.029730
240.00000000 3650.00000000 -570.00000000 30 222 129 97.000000 1.000000 4.000000 1.000000 -60.708740 114.000000 149.000000 0.951284 -0.225981 0.209743
220.00000000 3640.00000000 -600.00000000 30 222 129 97.000000 1.000000 4.000000 1.000000 -60.708740 114.000000 149.000000 0.928371 -0.059596 -0.366846
220.00000000 3640.00000000 -560.00000000 30 222 129 97.000000 1.000000 4.000000 1.000000 -60.708740 114.000000 149.000000 0.929728 0.292039 -0.224320
190.00000000 3590.00000000 -630.00000000 30 222 129 97.000000 1.000000 4.000000 1.000000 -60.708740 114.000000 149.000000 0.981660 0.156920 -0.108262
230.00000000 3630.00000000 -640.00000000 30 222 129 97.000000 1.000000 4.000000 1.000000 -60.708740 114.000000 149.000000 0.916284 -0.259107 0.305428
190.00000000 3560.00000000 -660.00000000 30 222 129 97.000000 1.000000 4.000000 1.000000 -60.708740 114.000000 149.000000 0.888740 -0.157006 -0.430686
190.00000000 3560.00000000 -640.00000000 30 222 129 97.000000 1.000000 4.000000 1.000000 -60.708740 114.000000 149.000000 0.980563 0.091130 -0.173755
150.00000000 3500.00000000 -670.00000000 30 222 129 97.000000 1.000000 4.000000 1.000000 -60.708740 114.000000 149.000000 0.956013 -0.288200 -0.054593
-50.00000000 3360.00000000 -160.00000000 30 222 129 97.000000 1.000000 4.000000 1.000000 -60.708740 114.000000 149.000000 0.993475 0.055006 -0.099909
-120.00000000 3370.00000000 -80.00000000 30 222 129 97.000000 1.000000 4.000000 1.000000 -60.708740 114.000000 149.000000 0.476152 0.459676 0.749651
-140.00000000 3400.00000000 -130.00000000 30 222 129 97.000000 1.000000 4.000000 1.000000 -60.708740 114.000000 149.000000 0.367277 0.742716 0.559893
-130.00000000 3400.00000000 -160.00000000 30 222 129 97.000000 1.000000 4.000000 1.000000 -60.708740 114.000000 149.000000 0.601832 0.461013 0.652124
-80.00000000 3390.00000000 -320.00000000 30 222 129 97.000000 1.000000 4.000000 1.000000 -60.708740 114.000000 149.000000 0.881789 -0.471093 0.022816
-120.00000000 3350.00000000 -200.00000000 30 222 129 97.000000 1.000000 4.000000 1.000000 -60.708740 114.000000 149.000000 0.943027 -0.082860 -0.322234
-140.00000000 3390.00000000 -250.00000000 30 222 129 97.000000 1.000000 4.000000 1.000000 -60.708740 114.000000 149.000000 0.992402 0.076164 -0.096626
-330.00000000 3630.00000000 -300.00000000 30 222 129 97.000000 1.000000 4.000000 1.000000 -60.708740 114.000000 149.000000 0.751437 -0.379794 -0.539535
-300.00000000 3340.00000000 -210.00000000 30 222 129 97.000000 1.000000 4.000000 1.000000 -60.708740 114.000000 149.000000 0.982151 0.167508 0.085562
-310.00000000 3350.00000000 -210.00000000 30 222 129 97.000000 1.000000 4.000000 1.000000 -60.708740 114.000000 149.000000 0.979069 0.106875 -0.173210
-310.00000000 3350.00000000 -190.00000000 30 222 129 97.000000 1.000000 4.000000 1.000000 -60.708740 114.000000 149.000000 0.948354 0.175018 0.264562
-170.00000000 3540.00000000 -630.00000000 30 222 129 97.000000 1.000000 4.000000 1.000000 -60.708740 114.000000 149.000000 0.656200 0.589070 0.471591
-160.00000000 3390.00000000 -360.00000000 30 222 129 97.000000 1.000000 4.000000 1.000000 -60.708740 114.000000 149.000000 0.066275 0.540067 0.839008
-230.00000000 3580.00000000 -510.00000000 30 222 129 97.000000 1.000000 4.000000 1.000000 -60.708740 114.000000 149.000000 0.923412 -0.065481 -0.378184
-220.00000000 3540.00000000 -520.00000000 30 222 129 97.000000 1.000000 4.000000 1.000000 -60.708740 114.000000 149.000000 0.975296 -0.044716 0.216330
-270.00000000 3630.00000000 -420.00000000 30 222 129 97.000000 1.000000 4.000000 1.000000 -60.708740 114.000000 149.000000 0.683858 -0.315254 -0.657991
-290.00000000 3590.00000000 -490.00000000 30 222 129 97.000000 1.000000 4.000000 1.000000 -60.708740 114.000000 149.000000 0.898324 -0.371974 -0.233770
-290.00000000 3570.00000000 -490.00000000 30 222 129 97.000000 1.000000 4.000000 1.000000 -60.708740 114.000000 149.000000 0.895676 -0.087214 -0.436071
-240.00000000 3590.00000000 -690.00000000 30 222 129 97.000000 1.000000 4.000000 1.000000 -60.708740 114.000000 149.000000 0.905432 0.405690 0.124936
-210.00000000 3620.00000000 -650.00000000 30 222 129 97.000000 1.000000 4.000000 1.000000 -60.708740 114.000000 149.000000 0.855529 0.469258 0.218786
-220.00000000 3620.00000000 -630.00000000 30 222 129 97.000000 1.000000 4.000000 1.000000 -60.708740 114.000000 149.000000 0.809963 0.137709 0.570084
-210.00000000 3620.00000000 -650.00000000 30 222 129 97.000000 1.000000 4.000000 1.000000 -60.708740 114.000000 149.000000 0.855529 0.469258 0.218786
-230.00000000 3510.00000000 -650.00000000 30 222 129 97.000000 1.000000 4.000000 1.000000 -60.708740 114.000000 149.000000 0.717019 0.637173 0.282656
-230.00000000 3560.00000000 -660.00000000 30 222 129 97.000000 1.000000 4.000000 1.000000 -60.708740 114.000000 149.000000 0.922513 0.211794 0.322666
-330.00000000 3470.00000000 -430.00000000 30 222 129 97.000000 1.000000 4.000000 1.000000 -60.708740 114.000000 149.000000 0.966893 -0.015692 -0.254700
-220.00000000 3500.00000000 -660.00000000 30 222 129 97.000000 1.000000 4.000000 1.000000 -60.708740 114.000000 149.000000 0.577220 0.791573 0.200573
-270.00000000 3480.00000000 -620.00000000 30 222 129 97.000000 1.000000 4.000000 1.000000 -60.708740 114.000000 149.000000 0.857795 0.506170 0.089324
-140.00000000 3300.00000000 -60.00000000 30 222 129 97.000000 1.000000 4.000000 1.000000 -60.708740 114.000000 149.000000 0.530460 0.554036 0.641604
-170.00000000 3310.00000000 -160.00000000 30 222 129 97.000000 1.000000 4.000000 1.000000 -60.708740 114.000000 149.000000 0.418506 0.554148 0.719565
-160.00000000 3300.00000000 -240.00000000 30 222 129 97.000000 1.000000 4.000000 1.000000 -60.708740 114.000000 149.000000 0.009697 0.757752 0.652470
-200.00000000 3260.00000000 -170.00000000 30 222 129 97.000000 1.000000 4.000000 1.000000 -60.708740 114.000000 149.000000 0.662965 0.555548 0.501840
-180.00000000 3280.00000000 -180.00000000 30 222 129 97.000000 1.000000 4.000000 1.000000 -60.708740 114.000000 149.000000 0.514043 0.441316 0.735527
-210.00000000 3260.00000000 -150.00000000 30 222 129 97.000000 1.000000 4.000000 1.000000 -60.708740 114.000000 149.000000 0.893962 0.346578 0.284104
-210.00000000 3210.00000000 -170.00000000 30 222 129 97.000000 1.000000 4.000000 1.000000 -60.708740 114.000000 149.000000 0.329202 0.823792 0.461512
-310.00000000 3190.00000000 -90.00000000 30 222 129 97.000000 1.000000 4.000000 1.000000 -60.708740 114.000000 149.000000 0.895616 0.246405 0.370345
-270.00000000 3200.00000000 -20.00000000 30 222 129 97.000000 1.000000 4.000000 1.000000 -60.708740 114.000000 149.000000 0.960840 -0.273633 0.043731
-310.00000000 3240.00000000 -130.00000000 30 222 129 97.000000 1.000000 4.000000 1.000000 -60.708740 114.000000 149.000000 0.782901 0.570377 0.248466
-310.00000000 3220.00000000 -150.00000000 30 222 129 97.000000 1.000000 4.000000 1.000000 -60.708740 114.000000 149.000000 0.817320 0.131066 0.561079
-280.00000000 3330.00000000 -200.00000000 30 222 129 97.000000 1.000000 4.000000 1.000000 -60.708740 114.000000 149.000000 0.950007 0.044512 0.309039
-290.00000000 3310.00000000 -240.00000000 30 222 129 97.000000 1.000000 4.000000 1.000000 -60.708740 114.000000 149.000000 0.960921 0.241864 0.134660
-280.00000000 3300.00000000 -330.00000000 30 222 129 97.000000 1.000000 4.000000 1.000000 -60.708740 114.000000 149.000000 0.868047 0.216638 0.446723
-310.00000000 3280.00000000 -340.00000000 30 222 129 97.000000 1.000000 4.000000 1.000000 -60.708740 114.000000 149.000000 0.925228 0.365472 0.101897
-290.00000000 3290.00000000 -280.00000000 30 222 129 97.000000 1.000000 4.000000 1.000000 -60.708740 114.000000 149.000000 0.774549 0.579734 0.252946
-280.00000000 3310.00000000 -340.00000000 30 222 129 97.000000 1.000000 4.000000 1.000000 -60.708740 114.000000 149.000000 0.906061 0.262011 0.332271
-290.00000000 3230.00000000 -230.00000000 30 222 129 97.000000 1.000000 4.000000 1.000000 -60.708740 114.000000 149.000000 0.902561 0.161631 0.399072
-270.00000000 3180.00000000 -230.00000000 30 222 129 97.000000 1.000000 4.000000 1.000000 -60.708740 114.000000 149.000000 0.423215 0.685442 0.592501
-280.00000000 3190.00000000 -190.00000000 30 222 129 97.000000 1.000000 4.000000 1.000000 -60.708740 114.000000 149.000000 0.691864 0.568495 0.445127
-180.00000000 3080.00000000 -40.00000000 30 222 129 97.000000 1.000000 4.000000 1.000000 -60.708740 114.000000 149.000000 0.054192 0.860131 0.507186
-250.00000000 3040.00000000 -50.00000000 30 222 129 97.000000 1.000000 4.000000 1.000000 -60.708740 114.000000 149.000000 0.409174 0.431638 0.803906
-190.00000000 3130.00000000 -350.00000000 30 222 129 97.000000 1.000000 4.000000 1.000000 -60.708740 114.000000 149.000000 0.419776 0.681928 0.598968
-230.00000000 3160.00000000 -330.00000000 30 222 129 97.000000 1.000000 4.000000 1.000000 -60.708740 114.000000 149.000000 0.285324 0.891825 0.351053
-40.00000000 3240.00000000 -520.00000000 30 222 129 97.000000 1.000000 4.000000 1.000000 -60.708740 114.000000 149.000000 -0.484299 0.717295 0.500942
-140.00000000 3300.00000000 -400.00000000 30 222 129 97.000000 1.000000 4.000000 1.000000 -60.708740 114.000000 149.000000 0.346253 0.739648 0.577088
-120.00000000 3260.00000000 -600.00000000 30 222 129 97.000000 1.000000 4.000000 1.000000 -60.708740 114.000000 149.000000 -0.102454 0.838389 0.535357
-150.00000000 3190.00000000 -590.00000000 30 222 129 97.000000 1.000000 4.000000 1.000000 -60.708740 114.000000 149.000000 -0.129736 0.844010 0.520400
-160.00000000 3130.00000000 -400.00000000 30 222 129 97.000000 1.000000 4.000000 1.000000 -60.708740 114.000000 149.000000 0.226630 0.745535 0.626750
-160.00000000 3120.00000000 -450.00000000 30 222 129 97.000000 1.000000 4.000000 1.000000 -60.708740 114.000000 149.000000 0.391380 0.642391 0.658905
-170.00000000 3150.00000000 -570.00000000 30 222 129 97.000000 1.000000 4.000000 1.000000 -60.708740 114.000000 149.000000 0.371988 0.578465 0.725950
-210.00000000 3260.00000000 -500.00000000 30 222 129 97.000000 1.000000 4.000000 1.000000 -60.708740 114.000000 149.000000 0.463818 0.480324 0.744420
-310.00000000 3310.00000000 -500.00000000 30 222 129 97.000000 1.000000 4.000000 1.000000 -60.708740 114.000000 149.000000 0.436406 0.436406 0.786829
-290.00000000 3220.00000000 -400.00000000 30 222 129 97.000000 1.000000 4.000000 1.000000 -60.708740 114.000000 149.000000 0.613549 0.443026 0.653672
-200.00000000 3230.00000000 -590.00000000 30 222 129 97.000000 1.000000 4.000000 1.000000 -60.708740 114.000000 149.000000 0.009616 0.811835 0.583807
-180.00000000 3210.00000000 -630.00000000 30 222 129 97.000000 1.000000 4.000000 1.000000 -60.708740 114.000000 149.000000 0.015267 0.784151 0.620382
0.00000000 3640.00000000 -740.00000000 30 222 129 97.000000 1.000000 4.000000 1.000000 -60.708740 114.000000 149.000000 0.997154 -0.069619 -0.028919
0.00000000 3610.00000000 -750.00000000 30 222 129 97.000000 1.000000 4.000000 1.000000 -60.708740 114.000000 149.000000 0.920684 -0.348253 -0.176241
30.00000000 3610.00000000 -720.00000000 30 222 129 97.000000 1.000000 4.000000 1.000000 -60.708740 114.000000 149.000000 0.949882 -0.288286 0.120894
100.00000000 3500.00000000 -760.00000000 30 222 129 97.000000 1.000000 4.000000 1.000000 -60.708740 114.000000 149.000000 -0.655436 0.668512 0.351418
-70.00000000 3340.00000000 -830.00000000 30 222 129 97.000000 1.000000 4.000000 1.000000 -60.708740 114.000000 149.000000 -0.043166 0.930027 0.364947
-230.00000000 3510.00000000 -710.00000000 30 222 129 97.000000 1.000000 4.000000 1.000000 -60.708740 114.000000 149.000000 0.475114 0.535129 0.698501
-200.00000000 3340.00000000 -710.00000000 30 222 129 97.000000 1.000000 4.000000 1.000000 -60.708740 114.000000 149.000000 0.154184 0.950581 0.269488
-310.00000000 3460.00000000 -760.00000000 30 222 129 97.000000 1.000000 4.000000 1.000000 -60.708740 114.000000 149.000000 0.833696 0.538763 0.121185
-280.00000000 3490.00000000 -840.00000000 30 222 129 97.000000 1.000000 4.000000 1.000000 -60.708740 114.000000 149.000000 0.596212 0.360994 0.717088
-130.00000000 3260.00000000 -710.00000000 30 222 129 97.000000 1.000000 4.000000 1.000000 -60.708740 114.000000 149.000000 0.110510 0.776517 0.620330
-100.00000000 3320.00000000 -740.00000000 30 222 129 97.000000 1.000000 4.000000 1.000000 -60.708740 114.000000 149.000000 -0.369551 0.757009 0.538860
-240.00000000 3300.00000000 -720.00000000 30 222 129 97.000000 1.000000 4.000000 1.000000 -60.708740 114.000000 149.000000 -0.083088 0.733212 0.674905
-360.00000000 3520.00000000 -260.00000000 30 222 129 97.000000 1.000000 4.000000 1.000000 -60.708740 114.000000 149.000000 0.848292 -0.259243 -0.461729
-360.00000000 3530.00000000 -270.00000000 30 222 129 97.000000 1.000000 4.000000 1.000000 -60.708740 114.000000 149.000000 0.882491 -0.160848 -0.441970
-510.00000000 3440.00000000 -140.00000000 30 222 129 97.000000 1.000000 4.000000 1.000000 -60.708740 114.000000 149.000000 0.927854 0.003818 -0.372924
-350.00000000 3470.00000000 -390.00000000 30 222 129 97.000000 1.000000 4.000000 1.000000 -60.708740 114.000000 149.000000 0.923473 0.366370 -0.113890
-360.00000000 3440.00000000 -490.00000000 30 222 129 97.000000 1.000000 4.000000 1.000000 -60.708740 114.000000 149.000000 0.939071 0.343439 0.013940
-350.00000000 3460.00000000 -380.00000000 30 222 129 97.000000 1.000000 4.000000 1.000000 -60.708740 114.000000 149.000000 0.997037 -0.003159 -0.076857
-350.00000000 3470.00000000 -360.00000000 30 222 129 97.000000 1.000000 4.000000 1.000000 -60.708740 114.000000 149.000000 0.992573 -0.025565 0.118931
-400.00000000 3320.00000000 -160.00000000 30 222 129 97.000000 1.000000 4.000000 1.000000 -60.708740 114.000000 149.000000 0.941789 0.291148 0.168128
-370.00000000 3250.00000000 -140.00000000 30 222 129 97.000000 1.000000 4.000000 1.000000 -60.708740 114.000000 149.000000 0.894392 0.366360 0.256600
-370.00000000 3060.00000000 -110.00000000 30 222 129 97.000000 1.000000 4.000000 1.000000 -60.708740 114.000000 149.000000 0.861678 0.266891 0.431602
-350.00000000 3470.00000000 -730.00000000 30 222 129 97.000000 1.000000 4.000000 1.000000 -60.708740 114.000000 149.000000 0.845616 0.525112 0.095865
-350.00000000 3470.00000000 -730.00000000 30 222 129 97.000000 1.000000 4.000000 1.000000 -60.708740 114.000000 149.000000 0.845616 0.525112 0.095865
-410.00000000 3500.00000000 -860.00000000 30 222 129 97.000000 1.000000 4.000000 1.000000 -60.708740 114.000000 149.000000 0.708587 0.596792 0.376488
-430.00000000 3490.00000000 -810.00000000 30 222 129 97.000000 1.000000 4.000000 1.000000 -60.708740 114.000000 149.000000 0.499570 0.630771 0.593766
10.00000000 3150.00000000 390.00000000 30 222 129 97.000000 1.000000 4.000000 1.000000 -60.708740 114.000000 149.000000 0.421379 0.647892 0.634567
-70.00000000 3420.00000000 290.00000000 30 222 129 97.000000 1.000000 4.000000 1.000000 -60.708740 114.000000 149.000000 0.313560 0.787878 0.530027
-120.00000000 3360.00000000 270.00000000 30 222 129 97.000000 1.000000 4.000000 1.000000 -60.708740 114.000000 149.000000 0.154545 0.849262 0.504847
-90.00000000 3410.00000000 0.00000000 30 222 129 97.000000 1.000000 4.000000 1.000000 -60.708740 114.000000 149.000000 0.516695 0.543624 0.661437
-110.00000000 3420.00000000 60.00000000 30 222 129 97.000000 1.000000 4.000000 1.000000 -60.708740 114.000000 149.000000 0.290875 0.777258 0.557909
-100.00000000 3400.00000000 70.00000000 30 222 129 97.000000 1.000000 4.000000 1.000000 -60.708740 114.000000 149.000000 -0.004144 0.664444 0.747327
-180.00000000 3520.00000000 50.00000000 30 222 129 97.000000 1.000000 4.000000 1.000000 -60.708740 114.000000 149.000000 0.020513 0.846511 0.531976
-250.00000000 3350.00000000 290.00000000 30 222 129 97.000000 1.000000 4.000000 1.000000 -60.708740 114.000000 149.000000 -0.094741 0.968889 0.228643
-180.00000000 3500.00000000 30.00000000 30 222 129 97.000000 1.000000 4.000000 1.000000 -60.708740 114.000000 149.000000 -0.275885 0.700079 0.658617
-150.00000000 3150.00000000 510.00000000 30 222 129 97.000000 1.000000 4.000000 1.000000 -60.708740 114.000000 149.000000 0.178473 0.529420 0.829374
-190.00000000 3260.00000000 360.00000000 30 222 129 97.000000 1.000000 4.000000 1.000000 -60.708740 114.000000 149.000000 -0.326091 0.660294 0.676518
-210.00000000 3290.00000000 400.00000000 30 222 129 97.000000 1.000000 4.000000 1.000000 -60.708740 114.000000 149.000000 0.411984 -0.790040 -0.453990
-290.00000000 3230.00000000 390.00000000 30 222 129 97.000000 1.000000 4.000000 1.000000 -60.708740 114.000000 149.000000 -0.329721 0.667564 0.667564
-280.00000000 3200.00000000 320.00000000 30 222 129 97.000000 1.000000 4.000000 1.000000 -60.708740 114.000000 149.000000 -0.312761 0.890396 0.330719
-270.00000000 3200.00000000 390.00000000 30 222 129 97.000000 1.000000 4.000000 1.000000 -60.708740 114.000000 149.000000 -0.014527 0.896697 0.442406
-320.00000000 3050.00000000 510.00000000 30 222 129 97.000000 1.000000 4.000000 1.000000 -60.708740 114.000000 149.000000 -0.479109 0.702805 0.525852
-210.00000000 3150.00000000 340.00000000 30 222 129 97.000000 1.000000 4.000000 1.000000 -60.708740 114.000000 149.000000 -0.120054 0.854844 0.504806
-180.00000000 3100.00000000 400.00000000 30 222 129 97.000000 1.000000 4.000000 1.000000 -60.708740 114.000000 149.000000 0.338899 0.844905 0.413863
-190.00000000 3040.00000000 450.00000000 30 222 129 97.000000 1.000000 4.000000 1.000000 -60.708740 114.000000 149.000000 0.214970 0.824815 0.522942
-240.00000000 3000.00000000 480.00000000 30 222 129 97.000000 1.000000 4.000000 1.000000 -60.708740 114.000000 149.000000 -0.289902 0.709540 0.642270
-240.00000000 3080.00000000 340.00000000 30 222 129 97.000000 1.000000 4.000000 1.000000 -60.708740 114.000000 149.000000 -0.582688 0.596200 0.552287
-270.00000000 3140.00000000 430.00000000 30 222 129 97.000000 1.000000 4.000000 1.000000 -60.708740 114.000000 149.000000 0.405556 -0.677031 -0.614128
-330.00000000 3110.00000000 360.00000000 30 222 129 97.000000 1.000000 4.000000 1.000000 -60.708740 114.000000 149.000000 0.846581 -0.512057 -0.145254
-280.00000000 3150.00000000 400.00000000 30 222 129 97.000000 1.000000 4.000000 1.000000 -60.708740 114.000000 149.000000 -0.361037 0.892936 0.268921
-290.00000000 3070.00000000 440.00000000 30 222 129 97.000000 1.000000 4.000000 1.000000 -60.708740 114.000000 149.000000 -0.313277 0.796710 0.516828
-310.00000000 3060.00000000 420.00000000 30 222 129 97.000000 1.000000 4.000000 1.000000 -60.708740 114.000000 149.000000 -0.550476 0.817465 0.169493
-260.00000000 3000.00000000 480.00000000 30 222 129 97.000000 1.000000 4.000000 1.000000 -60.708740 114.000000 149.000000 0.662838 -0.498387 -0.558798
-310.00000000 3060.00000000 440.00000000 30 222 129 97.000000 1.000000 4.000000 1.000000 -60.708740 114.000000 149.000000 0.745866 -0.567118 -0.349371
-90.00000000 3170.00000000 140.00000000 30 222 129 97.000000 1.000000 4.000000 1.000000 -60.708740 114.000000 149.000000 0.670291 0.549336 0.498938
-130.00000000 3320.00000000 50.00000000 30 222 129 97.000000 1.000000 4.000000 1.000000 -60.708740 114.000000 149.000000 0.290628 0.892751 0.344283
-160.00000000 3120.00000000 290.00000000 30 222 129 97.000000 1.000000 4.000000 1.000000 -60.708740 114.000000 149.000000 0.152127 0.760636 0.631102
-140.00000000 3050.00000000 10.00000000 30 222 129 97.000000 1.000000 4.000000 1.000000 -60.708740 114.000000 149.000000 -0.293143 0.546673 0.784357
-160.00000000 3070.00000000 10.00000000 30 222 129 97.000000 1.000000 4.000000 1.000000 -60.708740 114.000000 149.000000 -0.035226 0.759481 0.649575
-190.00000000 3180.00000000 190.00000000 30 222 129 97.000000 1.000000 4.000000 1.000000 -60.708740 114.000000 149.000000 -0.353992 0.585637 0.729191
-240.00000000 3230.00000000 180.00000000 30 222 129 97.000000 1.000000 4.000000 1.000000 -60.708740 114.000000 149.000000 -0.531499 0.708110 0.464853
-330.00000000 3300.00000000 200.00000000 30 222 129 97.000000 1.000000 4.000000 1.000000 -60.708740 114.000000 149.000000 -0.640559 0.754569 0.142513
-300.00000000 3210.00000000 280.00000000 30 222 129 97.000000 1.000000 4.000000 1.000000 -60.708740 114.000000 149.000000 -0.497166 0.789995 0.358796
-250.00000000 3320.00000000 120.00000000 30 222 129 97.000000 1.000000 4.000000 1.000000 -60.708740 114.000000 149.000000 -0.282127 0.846381 0.451712
-180.00000000 3270.00000000 20.00000000 30 222 129 97.000000 1.000000 4.000000 1.000000 -60.708740 114.000000 149.000000 -0.219804 0.941424 0.255747
-310.00000000 3210.00000000 -10.00000000 30 222 129 97.000000 1.000000 4.000000 1.000000 -60.708740 114.000000 149.000000 0.919284 0.188972 0.345264
-230.00000000 3120.00000000 220.00000000 30 222 129 97.000000 1.000000 4.000000 1.000000 -60.708740 114.000000 149.000000 0.534310 -0.467729 -0.704090
-260.00000000 3130.00000000 180.00000000 30 222 129 97.000000 1.000000 4.000000 1.000000 -60.708740 114.000000 149.000000 0.984424 -0.116878 0.131337
-500.00000000 3000.00000000 390.00000000 30 222 129 97.000000 1.000000 4.000000 1.000000 -60.708740 114.000000 149.000000 0.943440 -0.184854 -0.275227
-520.00000000 3070.00000000 420.00000000 30 222 129 97.000000 1.000000 4.000000 1.000000 -60.708740 114.000000 149.000000 0.765590 -0.538988 -0.351232
-360.00000000 3080.00000000 290.00000000 30 222 129 97.000000 1.000000 4.000000 1.000000 -60.708740 114.000000 149.000000 0.781269 -0.407689 -0.472660
-350.00000000 3030.00000000 220.00000000 30 222 129 97.000000 1.000000 4.000000 1.000000 -60.708740 114.000000 149.000000 0.976571 -0.214254 -0.020123
-470.00000000 3020.00000000 300.00000000 30 222 129 97.000000 1.000000 4.000000 1.000000 -60.708740 114.000000 149.000000 0.958226 -0.170970 -0.229285
-460.00000000 3000.00000000 250.00000000 30 222 129 97.000000 1.000000 4.000000 1.000000 -60.708740 114.000000 149.000000 0.945674 0.178764 -0.271557
-140.00000000 2990.00000000 500.00000000 30 222 129 97.000000 1.000000 4.000000 1.000000 -60.708740 114.000000 149.000000 0.268092 0.734478 0.623433
-150.00000000 2980.00000000 510.00000000 30 222 129 97.000000 1.000000 4.000000 1.000000 -60.708740 114.000000 149.000000 0.056185 0.886622 0.459070
-180.00000000 2980.00000000 560.00000000 30 222 129 97.000000 1.000000 4.000000 1.000000 -60.708740 114.000000 149.000000 -0.151820 0.923457 0.352390
-270.00000000 2990.00000000 490.00000000 30 222 129 97.000000 1.000000 4.000000 1.000000 -60.708740 114.000000 149.000000 -0.717591 0.586224 0.376037
-290.00000000 2930.00000000 430.00000000 30 222 129 97.000000 1.000000 4.000000 1.000000 -60.708740 114.000000 149.000000 0.945136 -0.135788 0.297119
-300.00000000 2890.00000000 430.00000000 30 222 129 97.000000 1.000000 4.000000 1.000000 -60.708740 114.000000 149.000000 0.885563 0.123666 0.447756
-380.00000000 2940.00000000 450.00000000 30 222 129 97.000000 1.000000 4.000000 1.000000 -60.708740 114.000000 149.000000 0.993794 -0.050192 0.099268
-370.00000000 2980.00000000 400.00000000 30 222 129 97.000000 1.000000 4.000000 1.000000 -60.708740 114.000000 149.000000 0.938255 -0.160726 0.306341
-370.00000000 2880.00000000 400.00000000 30 222 129 97.000000 1.000000 4.000000 1.000000 -60.708740 114.000000 149.000000 0.830067 0.351243 0.433147
210.00000000 3610.00000000 -580.00000000 30 222 129 97.000000 1.000000 4.000000 1.000000 -60.708740 114.000000 149.000000 0.994865 -0.078922 0.063360
30.00000000 3650.00000000 -550.00000000 30 222 129 97.000000 1.000000 4.000000 1.000000 -60.708740 114.000000 149.000000 0.963623 0.251435 0.090619
-80.00000000 3360.00000000 -80.00000000 30 222 129 97.000000 1.000000 4.000000 1.000000 -60.708740 114.000000 149.000000 0.788851 0.542236 0.289298
-120.00000000 3380.00000000 -150.00000000 30 222 129 97.000000 1.000000 4.000000 1.000000 -60.708740 114.000000 149.000000 0.413139 0.658699 0.628834
-80.00000000 3390.00000000 -300.00000000 30 222 129 97.000000 1.000000 4.000000 1.000000 -60.708740 114.000000 149.000000 0.999414 0.007102 -0.033483
-110.00000000 3380.00000000 -270.00000000 30 222 129 97.000000 1.000000 4.000000 1.000000 -60.708740 114.000000 149.000000 0.996996 -0.069908 0.033341
-210.00000000 3620.00000000 -320.00000000 30 222 129 97.000000 1.000000 4.000000 1.000000 -60.708740 114.000000 149.000000 0.020800 0.797324 0.603193
-320.00000000 3530.00000000 -310.00000000 30 222 129 97.000000 1.000000 4.000000 1.000000 -60.708740 114.000000 149.000000 0.870651 -0.365704 -0.328980
-320.00000000 3510.00000000 -350.00000000 30 222 129 97.000000 1.000000 4.000000 1.000000 -60.708740 114.000000 149.000000 0.975224 0.118930 -0.186532
-340.00000000 3450.00000000 -240.00000000 30 222 129 97.000000 1.000000 4.000000 1.000000 -60.708740 114.000000 149.000000 0.985424 -0.160910 -0.055203
-250.00000000 3620.00000000 -450.00000000 30 222 129 97.000000 1.000000 4.000000 1.000000 -60.708740 114.000000 149.000000 0.898379 -0.298470 -0.322228
-250.00000000 3630.00000000 -460.00000000 30 222 129 97.000000 1.000000 4.000000 1.000000 -60.708740 114.000000 149.000000 0.794637 -0.506841 -0.334163
-230.00000000 3550.00000000 -500.00000000 30 222 129 97.000000 1.000000 4.000000 1.000000 -60.708740 114.000000 149.000000 0.904588 0.424983 0.033306
-340.00000000 3650.00000000 -460.00000000 30 222 129 97.000000 1.000000 4.000000 1.000000 -60.708740 114.000000 149.000000 0.951265 -0.154295 -0.266998
-280.00000000 3600.00000000 -490.00000000 30 222 129 97.000000 1.000000 4.000000 1.000000 -60.708740 114.000000 149.000000 0.944777 -0.213159 0.248915
-270.00000000 3510.00000000 -410.00000000 30 222 129 97.000000 1.000000 4.000000 1.000000 -60.708740 114.000000 149.000000 0.887564 -0.437330 -0.144821
-310.00000000 3530.00000000 -410.00000000 30 222 129 97.000000 1.000000 4.000000 1.000000 -60.708740 114.000000 149.000000 0.986133 0.127589 0.106126
-280.00000000 3510.00000000 -460.00000000 30 222 129 97.000000 1.000000 4.000000 1.000000 -60.708740 114.000000 149.000000 0.996381 0.011722 -0.084186
-260.00000000 3510.00000000 -560.00000000 30 222 129 97.000000 1.000000 4.000000 1.000000 -60.708740 114.000000 149.000000 0.813378 0.570098 0.115778
-300.00000000 3480.00000000 -450.00000000 30 222 129 97.000000 1.000000 4.000000 1.000000 -60.708740 114.000000 149.000000 0.985802 -0.050284 0.160207
-340.00000000 3490.00000000 -590.00000000 30 222 129 97.000000 1.000000 4.000000 1.000000 -60.708740 114.000000 149.000000 0.872456 0.475495 -0.112805
-160.00000000 3320.00000000 -40.00000000 30 222 129 97.000000 1.000000 4.000000 1.000000 -60.708740 114.000000 149.000000 0.026545 0.613337 0.789375
-170.00000000 3320.00000000 -180.00000000 30 222 129 97.000000 1.000000 4.000000 1.000000 -60.708740 114.000000 149.000000 0.703778 0.422267 0.571302
-160.00000000 3190.00000000 -30.00000000 30 222 129 97.000000 1.000000 4.000000 1.000000 -60.708740 114.000000 149.000000 -0.126230 0.961689 0.243350
-100.00000000 3250.00000000 -260.00000000 30 222 129 97.000000 1.000000 4.000000 1.000000 -60.708740 114.000000 149.000000 -0.043231 0.835326 0.548052
-210.00000000 3240.00000000 -170.00000000 30 222 129 97.000000 1.000000 4.000000 1.000000 -60.708740 114.000000 149.000000 0.840578 0.449033 0.302981
-210.00000000 3230.00000000 -140.00000000 30 222 129 97.000000 1.000000 4.000000 1.000000 -60.708740 114.000000 149.000000 0.856301 0.332920 0.394858
-320.00000000 3270.00000000 -80.00000000 30 222 129 97.000000 1.000000 4.000000 1.000000 -60.708740 114.000000 149.000000 0.906497 0.133515 0.400545
-260.00000000 3320.00000000 -160.00000000 30 222 129 97.000000 1.000000 4.000000 1.000000 -60.708740 114.000000 149.000000 0.921105 0.350160 0.170158
-260.00000000 3260.00000000 -150.00000000 30 222 129 97.000000 1.000000 4.000000 1.000000 -60.708740 114.000000 149.000000 0.818055 0.413014 0.400257
-260.00000000 3290.00000000 -170.00000000 30 222 129 97.000000 1.000000 4.000000 1.000000 -60.708740 114.000000 149.000000 0.769771 0.544786 0.332657
-260.00000000 3240.00000000 -70.00000000 30 222 129 97.000000 1.000000 4.000000 1.000000 -60.708740 114.000000 149.000000 0.891760 -0.200609 0.405611
-260.00000000 3200.00000000 -150.00000000 30 222 129 97.000000 1.000000 4.000000 1.000000 -60.708740 114.000000 149.000000 0.479002 0.763460 0.433227
-210.00000000 3290.00000000 -240.00000000 30 222 129 97.000000 1.000000 4.000000 1.000000 -60.708740 114.000000 149.000000 0.677710 0.387498 0.624944
-260.00000000 3180.00000000 -310.00000000 30 222 129 97.000000 1.000000 4.000000 1.000000 -60.708740 114.000000 149.000000 0.683338 0.405370 0.607227
-300.00000000 3080.00000000 -250.00000000 30 222 129 97.000000 1.000000 4.000000 1.000000 -60.708740 114.000000 149.000000 0.610931 0.683780 0.399009
-180.00000000 3080.00000000 -440.00000000 30 222 129 97.000000 1.000000 4.000000 1.000000 -60.708740 114.000000 149.000000 0.258429 0.724551 0.638937
190.00000000 3520.00000000 -720.00000000 30 222 129 97.000000 1.000000 4.000000 1.000000 -60.708740 114.000000 149.000000 0.871477 -0.331192 -0.361717
0.00000000 3640.00000000 -740.00000000 30 222 129 97.000000 1.000000 4.000000 1.000000 -60.708740 114.000000 149.000000 0.997154 -0.069619 -0.028919
110.00000000 3480.00000000 -780.00000000 30 222 129 97.000000 1.000000 4.000000 1.000000 -60.708740 114.000000 149.000000 0.835365 -0.423189 -0.350822
120.00000000 3440.00000000 -820.00000000 30 222 129 97.000000 1.000000 4.000000 1.000000 -60.708740 114.000000 149.000000 0.842065 -0.507034 -0.183968
50.00000000 3430.00000000 -890.00000000 30 222 129 97.000000 1.000000 4.000000 1.000000 -60.708740 114.000000 149.000000 -0.572308 0.808921 0.134574
-60.00000000 3530.00000000 -1010.00000000 30 222 129 97.000000 1.000000 4.000000 1.000000 -60.708740 114.000000 149.000000 -0.050751 0.938240 0.342243
-180.00000000 3620.00000000 -760.00000000 30 222 129 97.000000 1.000000 4.000000 1.000000 -60.708740 114.000000 149.000000 0.639216 0.478154 0.602306
-320.00000000 3470.00000000 -750.00000000 30 222 129 97.000000 1.000000 4.000000 1.000000 -60.708740 114.000000 149.000000 0.774019 0.610430 0.168133
-250.00000000 3670.00000000 -1040.00000000 30 222 129 97.000000 1.000000 4.000000 1.000000 -60.708740 114.000000 149.000000 0.485427 0.445934 0.752000
-250.00000000 3280.00000000 -700.00000000 30 222 129 97.000000 1.000000 4.000000 1.000000 -60.708740 114.000000 149.000000 0.021031 0.685607 0.727668
-360.00000000 3710.00000000 -1140.00000000 30 222 129 97.000000 1.000000 4.000000 1.000000 -60.708740 114.000000 149.000000 0.894693 0.374145 0.244007
-350.00000000 3470.00000000 -870.00000000 30 222 129 97.000000 1.000000 4.000000 1.000000 -60.708740 114.000000 149.000000 0.861389 0.423810 0.279990
-390.00000000 3490.00000000 -880.00000000 30 222 129 97.000000 1.000000 4.000000 1.000000 -60.708740 114.000000 149.000000 0.557930 0.818396 0.137633
-70.00000000 3400.00000000 310.00000000 30 222 129 97.000000 1.000000 4.000000 1.000000 -60.708740 114.000000 149.000000 -0.029052 0.825908 0.563056
-50.00000000 3400.00000000 290.00000000 30 222 129 97.000000 1.000000 4.000000 1.000000 -60.708740 114.000000 149.000000 0.148841 0.762246 0.629943
-130.00000000 3390.00000000 70.00000000 30 222 129 97.000000 1.000000 4.000000 1.000000 -60.708740 114.000000 149.000000 0.096447 0.830599 0.548455
-160.00000000 3100.00000000 340.00000000 30 222 129 97.000000 1.000000 4.000000 1.000000 -60.708740 114.000000 149.000000 0.558219 0.698191 0.448242
-240.00000000 3250.00000000 530.00000000 30 222 129 97.000000 1.000000 4.000000 1.000000 -60.708740 114.000000 149.000000 -0.415178 0.776627 0.473791
-220.00000000 3250.00000000 470.00000000 30 222 129 97.000000 1.000000 4.000000 1.000000 -60.708740 114.000000 149.000000 0.009407 0.866795 0.498575
-260.00000000 3200.00000000 410.00000000 30 222 129 97.000000 1.000000 4.000000 1.000000 -60.708740 114.000000 149.000000 -0.428901 0.865379 0.259159
-270.00000000 3040.00000000 490.00000000 30 222 129 97.000000 1.000000 4.000000 1.000000 -60.708740 114.000000 149.000000 0.663319 -0.413951 -0.623420
-180.00000000 3090.00000000 360.00000000 30 222 129 97.000000 1.000000 4.000000 1.000000 -60.708740 114.000000 149.000000 0.293296 -0.842645 -0.451583
-260.00000000 3110.00000000 330.00000000 30 222 129 97.000000 1.000000 4.000000 1.000000 -60.708740 114.000000 149.000000 -0.313577 0.593383 0.741327
-270.00000000 3060.00000000 440.00000000 30 222 129 97.000000 1.000000 4.000000 1.000000 -60.708740 114.000000 149.000000 0.724042 -0.672648 -0.152669
-330.00000000 3060.00000000 400.00000000 30 222 129 97.000000 1.000000 4.000000 1.000000 -60.708740 114.000000 149.000000 -0.780180 0.540861 0.314306
-130.00000000 3130.00000000 250.00000000 30 222 129 97.000000 1.000000 4.000000 1.000000 -60.708740 114.000000 149.000000 0.300656 0.899005 0.318428
-40.00000000 3140.00000000 200.00000000 30 222 129 97.000000 1.000000 4.000000 1.000000 -60.708740 114.000000 149.000000 0.810228 0.078872 0.580783
-320.00000000 3030.00000000 300.00000000 30 222 129 97.000000 1.000000 4.000000 1.000000 -60.708740 114.000000 149.000000 0.909116 -0.145177 -0.390426
-300.00000000 3140.00000000 170.00000000 30 222 129 97.000000 1.000000 4.000000 1.000000 -60.708740 114.000000 149.000000 0.923684 -0.381265 -0.037996
-200.00000000 3160.00000000 260.00000000 30 222 129 97.000000 1.000000 4.000000 1.000000 -60.708740 114.000000 149.000000 -0.569787 0.696037 0.436892
-250.00000000 3110.00000000 130.00000000 30 222 129 97.000000 1.000000 4.000000 1.000000 -60.708740 114.000000 149.000000 0.954838 0.128104 0.268094
-350.00000000 3290.00000000 450.00000000 30 222 129 97.000000 1.000000 4.000000 1.000000 -60.708740 114.000000 149.000000 -0.472196 0.841340 0.263015
