//X Y Z R G B PointSourceId ScanDirectionFlag NumberOfReturns ReturnNumber GpsTime Intensity Classification Nx Ny Nz
9240.00000000 9580.00000000 -660.00000000 129 83 149 97.000000 1.000000 4.000000 1.000000 -60.708740 114.000000 201.000000 -0.670970 0.722700 -0.165841
9190.00000000 9590.00000000 -640.00000000 129 83 149 97.000000 1.000000 4.000000 1.000000 -60.708740 114.000000 201.000000 -0.245195 0.921992 -0.299683
9090.00000000 9700.00000000 -600.00000000 129 83 149 97.000000 1.000000 4.000000 1.000000 -60.708740 114.000000 201.000000 0.899310 -0.435582 -0.038867
9090.00000000 9700.00000000 -620.00000000 129 83 149 97.000000 1.000000 4.000000 1.000000 -60.708740 114.000000 201.000000 0.801391 -0.562353 -0.203795
9090.00000000 9710.00000000 -610.00000000 129 83 149 97.000000 1.000000 4.000000 1.000000 -60.708740 114.000000 201.000000 0.755596 -0.653142 -0.049804
9120.00000000 9720.00000000 -680.00000000 129 83 149 97.000000 1.000000 4.000000 1.000000 -60.708740 114.000000 201.000000 -0.483986 0.848860 -0.212592
9100.00000000 9670.00000000 -690.00000000 129 83 149 97.000000 1.000000 4.000000 1.000000 -60.708740 114.000000 201.000000 0.767288 -0.626693 0.136108
9100.00000000 9580.00000000 -540.00000000 129 83 149 97.000000 1.000000 4.000000 1.000000 -60.708740 114.000000 201.000000 0.423563 0.760451 -0.492249
9090.00000000 9590.00000000 -540.00000000 129 83 149 97.000000 1.000000 4.000000 1.000000 -60.708740 114.000000 201.000000 0.587939 0.677879 -0.441371
9090.00000000 9570.00000000 -590.00000000 129 83 149 97.000000 1.000000 4.000000 1.000000 -60.708740 114.000000 201.000000 0.522781 0.848633 0.080755
9120.00000000 9580.00000000 -530.00000000 129 83 149 97.000000 1.000000 4.000000 1.000000 -60.708740 114.000000 201.000000 0.556548 0.563315 -0.610681
9120.00000000 9560.00000000 -500.00000000 129 83 149 97.000000 1.000000 4.000000 1.000000 -60.708740 114.000000 201.000000 0.527799 0.581759 -0.618857
9120.00000000 9550.00000000 -510.00000000 129 83 149 97.000000 1.000000 4.000000 1.000000 -60.708740 114.000000 201.000000 0.745803 0.612794 -0.261269
9110.00000000 9560.00000000 -520.00000000 129 83 149 97.000000 1.000000 4.000000 1.000000 -60.708740 114.000000 201.000000 0.633430 0.769682 -0.079722
9200.00000000 9560.00000000 -590.00000000 129 83 149 97.000000 1.000000 4.000000 1.000000 -60.708740 114.000000 201.000000 0.164299 0.882563 -0.440555
9190.00000000 9560.00000000 -530.00000000 129 83 149 97.000000 1.000000 4.000000 1.000000 -60.708740 114.000000 201.000000 0.045425 0.998283 -0.036973
9240.00000000 9530.00000000 -650.00000000 129 83 149 97.000000 1.000000 4.000000 1.000000 -60.708740 114.000000 201.000000 -0.171625 0.983590 0.055630
9210.00000000 9550.00000000 -670.00000000 129 83 149 97.000000 1.000000 4.000000 1.000000 -60.708740 114.000000 201.000000 -0.548976 0.767923 -0.330030
9120.00000000 9540.00000000 -580.00000000 129 83 149 97.000000 1.000000 4.000000 1.000000 -60.708740 114.000000 201.000000 0.692403 0.562264 -0.452147
9100.00000000 9540.00000000 -530.00000000 129 83 149 97.000000 1.000000 4.000000 1.000000 -60.708740 114.000000 201.000000 0.350101 0.769576 -0.534024
9170.00000000 9550.00000000 -630.00000000 129 83 149 97.000000 1.000000 4.000000 1.000000 -60.708740 114.000000 201.000000 -0.228833 0.946846 -0.226092
9150.00000000 9540.00000000 -620.00000000 129 83 149 97.000000 1.000000 4.000000 1.000000 -60.708740 114.000000 201.000000 0.261156 0.748647 -0.609364
9170.00000000 9540.00000000 -670.00000000 129 83 149 97.000000 1.000000 4.000000 1.000000 -60.708740 114.000000 201.000000 0.394396 0.890716 -0.226002
9160.00000000 9510.00000000 -680.00000000 129 83 149 97.000000 1.000000 4.000000 1.000000 -60.708740 114.000000 201.000000 0.368225 0.877374 -0.307611
9160.00000000 9510.00000000 -670.00000000 129 83 149 97.000000 1.000000 4.000000 1.000000 -60.708740 114.000000 201.000000 0.219351 0.958496 -0.182128
9090.00000000 9540.00000000 -660.00000000 129 83 149 97.000000 1.000000 4.000000 1.000000 -60.708740 114.000000 201.000000 0.821723 0.552257 -0.140655
9090.00000000 9530.00000000 -670.00000000 129 83 149 97.000000 1.000000 4.000000 1.000000 -60.708740 114.000000 201.000000 0.776972 0.397407 -0.488243
9130.00000000 9520.00000000 -650.00000000 129 83 149 97.000000 1.000000 4.000000 1.000000 -60.708740 114.000000 201.000000 0.163196 0.985049 -0.055182
9130.00000000 9520.00000000 -650.00000000 129 83 149 97.000000 1.000000 4.000000 1.000000 -60.708740 114.000000 201.000000 0.163196 0.985049 -0.055182
9260.00000000 9640.00000000 -760.00000000 129 83 149 97.000000 1.000000 4.000000 1.000000 -60.708740 114.000000 201.000000 0.951380 0.307099 0.023816
9200.00000000 9670.00000000 -770.00000000 129 83 149 97.000000 1.000000 4.000000 1.000000 -60.708740 114.000000 201.000000 0.429687 0.863929 -0.262671
9190.00000000 9680.00000000 -710.00000000 129 83 149 97.000000 1.000000 4.000000 1.000000 -60.708740 114.000000 201.000000 0.375247 0.824909 -0.422746
9210.00000000 9690.00000000 -710.00000000 129 83 149 97.000000 1.000000 4.000000 1.000000 -60.708740 114.000000 201.000000 0.397912 0.917155 -0.022179
9180.00000000 9700.00000000 -710.00000000 129 83 149 97.000000 1.000000 4.000000 1.000000 -60.708740 114.000000 201.000000 0.194512 0.890660 -0.410961
9200.00000000 9660.00000000 -710.00000000 129 83 149 97.000000 1.000000 4.000000 1.000000 -60.708740 114.000000 201.000000 0.382679 0.923393 -0.030040
9200.00000000 9680.00000000 -740.00000000 129 83 149 97.000000 1.000000 4.000000 1.000000 -60.708740 114.000000 201.000000 0.196367 0.875532 -0.441457
9200.00000000 9670.00000000 -840.00000000 129 83 149 97.000000 1.000000 4.000000 1.000000 -60.708740 114.000000 201.000000 0.457288 0.871935 -0.174975
9190.00000000 9670.00000000 -840.00000000 129 83 149 97.000000 1.000000 4.000000 1.000000 -60.708740 114.000000 201.000000 -0.013140 0.999643 -0.023248
9220.00000000 9590.00000000 -720.00000000 129 83 149 97.000000 1.000000 4.000000 1.000000 -60.708740 114.000000 201.000000 0.548509 -0.565386 0.616017
9230.00000000 9570.00000000 -710.00000000 129 83 149 97.000000 1.000000 4.000000 1.000000 -60.708740 114.000000 201.000000 -0.484611 0.858748 -0.166447
9240.00000000 9580.00000000 -710.00000000 129 83 149 97.000000 1.000000 4.000000 1.000000 -60.708740 114.000000 201.000000 -0.669399 0.732015 -0.126724
9250.00000000 9600.00000000 -770.00000000 129 83 149 97.000000 1.000000 4.000000 1.000000 -60.708740 114.000000 201.000000 0.963064 -0.259432 0.072135
9200.00000000 9650.00000000 -730.00000000 129 83 149 97.000000 1.000000 4.000000 1.000000 -60.708740 114.000000 201.000000 0.430904 0.898979 0.078471
9210.00000000 9590.00000000 -720.00000000 129 83 149 97.000000 1.000000 4.000000 1.000000 -60.708740 114.000000 201.000000 0.474707 -0.615610 0.629029
9230.00000000 9620.00000000 -800.00000000 129 83 149 97.000000 1.000000 4.000000 1.000000 -60.708740 114.000000 201.000000 0.973898 0.225849 0.022704
9230.00000000 9640.00000000 -800.00000000 129 83 149 97.000000 1.000000 4.000000 1.000000 -60.708740 114.000000 201.000000 0.834455 0.548356 -0.054695
9230.00000000 9640.00000000 -790.00000000 129 83 149 97.000000 1.000000 4.000000 1.000000 -60.708740 114.000000 201.000000 0.799764 0.551293 -0.237600
9230.00000000 9630.00000000 -820.00000000 129 83 149 97.000000 1.000000 4.000000 1.000000 -60.708740 114.000000 201.000000 0.979318 0.159309 -0.124730
9220.00000000 9640.00000000 -840.00000000 129 83 149 97.000000 1.000000 4.000000 1.000000 -60.708740 114.000000 201.000000 0.589200 0.701428 -0.401052
9240.00000000 9580.00000000 -800.00000000 129 83 149 97.000000 1.000000 4.000000 1.000000 -60.708740 114.000000 201.000000 0.943956 -0.289299 -0.158911
9220.00000000 9570.00000000 -830.00000000 129 83 149 97.000000 1.000000 4.000000 1.000000 -60.708740 114.000000 201.000000 0.909063 -0.405709 0.094895
9230.00000000 9590.00000000 -850.00000000 129 83 149 97.000000 1.000000 4.000000 1.000000 -60.708740 114.000000 201.000000 0.997014 0.015961 -0.075548
9240.00000000 9590.00000000 -850.00000000 129 83 149 97.000000 1.000000 4.000000 1.000000 -60.708740 114.000000 201.000000 0.944972 -0.250987 -0.209841
9170.00000000 9680.00000000 -770.00000000 129 83 149 97.000000 1.000000 4.000000 1.000000 -60.708740 114.000000 201.000000 -0.157576 0.964992 -0.209668
9120.00000000 9670.00000000 -760.00000000 129 83 149 97.000000 1.000000 4.000000 1.000000 -60.708740 114.000000 201.000000 0.756894 -0.650613 -0.061758
9140.00000000 9670.00000000 -840.00000000 129 83 149 97.000000 1.000000 4.000000 1.000000 -60.708740 114.000000 201.000000 -0.435083 0.840536 -0.322803
9110.00000000 9680.00000000 -790.00000000 129 83 149 97.000000 1.000000 4.000000 1.000000 -60.708740 114.000000 201.000000 -0.535602 0.826658 -0.172533
9130.00000000 9660.00000000 -850.00000000 129 83 149 97.000000 1.000000 4.000000 1.000000 -60.708740 114.000000 201.000000 -0.571319 0.820672 -0.009590
9140.00000000 9690.00000000 -820.00000000 129 83 149 97.000000 1.000000 4.000000 1.000000 -60.708740 114.000000 201.000000 -0.412031 0.911147 -0.006499
9090.00000000 9640.00000000 -820.00000000 129 83 149 97.000000 1.000000 4.000000 1.000000 -60.708740 114.000000 201.000000 0.919763 -0.353538 0.170431
9180.00000000 9670.00000000 -920.00000000 129 83 149 97.000000 1.000000 4.000000 1.000000 -60.708740 114.000000 201.000000 -0.068917 0.912140 -0.404044
9180.00000000 9680.00000000 -960.00000000 129 83 149 97.000000 1.000000 4.000000 1.000000 -60.708740 114.000000 201.000000 -0.137305 0.825304 -0.547742
9220.00000000 9650.00000000 -890.00000000 129 83 149 97.000000 1.000000 4.000000 1.000000 -60.708740 114.000000 201.000000 0.113492 0.985589 -0.125439
9230.00000000 9610.00000000 -900.00000000 129 83 149 97.000000 1.000000 4.000000 1.000000 -60.708740 114.000000 201.000000 0.965798 0.249927 -0.069075
9220.00000000 9640.00000000 -910.00000000 129 83 149 97.000000 1.000000 4.000000 1.000000 -60.708740 114.000000 201.000000 0.477670 0.877770 -0.036744
9240.00000000 9640.00000000 -920.00000000 129 83 149 97.000000 1.000000 4.000000 1.000000 -60.708740 114.000000 201.000000 0.722713 0.688092 0.064914
9230.00000000 9580.00000000 -880.00000000 129 83 149 97.000000 1.000000 4.000000 1.000000 -60.708740 114.000000 201.000000 0.981334 -0.166596 -0.096066
9220.00000000 9570.00000000 -900.00000000 129 83 149 97.000000 1.000000 4.000000 1.000000 -60.708740 114.000000 201.000000 0.956900 0.177007 0.230242
9190.00000000 9640.00000000 -930.00000000 129 83 149 97.000000 1.000000 4.000000 1.000000 -60.708740 114.000000 201.000000 0.201756 0.882132 -0.425603
9200.00000000 9640.00000000 -940.00000000 129 83 149 97.000000 1.000000 4.000000 1.000000 -60.708740 114.000000 201.000000 0.375536 0.903317 -0.207342
9190.00000000 9640.00000000 -930.00000000 129 83 149 97.000000 1.000000 4.000000 1.000000 -60.708740 114.000000 201.000000 0.201756 0.882132 -0.425603
9210.00000000 9630.00000000 -940.00000000 129 83 149 97.000000 1.000000 4.000000 1.000000 -60.708740 114.000000 201.000000 0.658339 0.737037 -0.152856
9190.00000000 9600.00000000 -910.00000000 129 83 149 97.000000 1.000000 4.000000 1.000000 -60.708740 114.000000 201.000000 -0.035134 0.788411 -0.614145
9230.00000000 9590.00000000 -960.00000000 129 83 149 97.000000 1.000000 4.000000 1.000000 -60.708740 114.000000 201.000000 0.864895 0.498391 -0.059696
9210.00000000 9630.00000000 -980.00000000 129 83 149 97.000000 1.000000 4.000000 1.000000 -60.708740 114.000000 201.000000 0.592907 0.650015 -0.475334
9160.00000000 9670.00000000 -920.00000000 129 83 149 97.000000 1.000000 4.000000 1.000000 -60.708740 114.000000 201.000000 -0.093064 0.929295 -0.357421
9150.00000000 9670.00000000 -890.00000000 129 83 149 97.000000 1.000000 4.000000 1.000000 -60.708740 114.000000 201.000000 -0.491348 0.714537 -0.498010
9130.00000000 9660.00000000 -870.00000000 129 83 149 97.000000 1.000000 4.000000 1.000000 -60.708740 114.000000 201.000000 -0.497483 0.768244 -0.402880
9160.00000000 9670.00000000 -920.00000000 129 83 149 97.000000 1.000000 4.000000 1.000000 -60.708740 114.000000 201.000000 -0.093064 0.929295 -0.357421
9170.00000000 9680.00000000 -880.00000000 129 83 149 97.000000 1.000000 4.000000 1.000000 -60.708740 114.000000 201.000000 -0.148097 0.909737 -0.387873
9140.00000000 9660.00000000 -880.00000000 129 83 149 97.000000 1.000000 4.000000 1.000000 -60.708740 114.000000 201.000000 -0.274392 0.941759 -0.194419
9160.00000000 9670.00000000 -900.00000000 129 83 149 97.000000 1.000000 4.000000 1.000000 -60.708740 114.000000 201.000000 -0.034581 0.998650 -0.038772
9150.00000000 9660.00000000 -890.00000000 129 83 149 97.000000 1.000000 4.000000 1.000000 -60.708740 114.000000 201.000000 -0.432592 0.707727 -0.558558
9160.00000000 9680.00000000 -880.00000000 129 83 149 97.000000 1.000000 4.000000 1.000000 -60.708740 114.000000 201.000000 0.014342 0.913986 -0.405492
9160.00000000 9660.00000000 -980.00000000 129 83 149 97.000000 1.000000 4.000000 1.000000 -60.708740 114.000000 201.000000 0.323339 -0.764109 0.558202
9110.00000000 9650.00000000 -910.00000000 129 83 149 97.000000 1.000000 4.000000 1.000000 -60.708740 114.000000 201.000000 -0.410854 0.906091 -0.100984
9110.00000000 9640.00000000 -930.00000000 129 83 149 97.000000 1.000000 4.000000 1.000000 -60.708740 114.000000 201.000000 0.778122 -0.570623 0.262518
9140.00000000 9650.00000000 -910.00000000 129 83 149 97.000000 1.000000 4.000000 1.000000 -60.708740 114.000000 201.000000 -0.482580 0.807486 -0.339240
9160.00000000 9640.00000000 -1030.00000000 129 83 149 97.000000 1.000000 4.000000 1.000000 -60.708740 114.000000 201.000000 -0.126482 0.934332 -0.333204
9110.00000000 9640.00000000 -980.00000000 129 83 149 97.000000 1.000000 4.000000 1.000000 -60.708740 114.000000 201.000000 0.838709 -0.516931 0.171317
9120.00000000 9630.00000000 -1030.00000000 129 83 149 97.000000 1.000000 4.000000 1.000000 -60.708740 114.000000 201.000000 -0.698512 0.712914 -0.061930
9100.00000000 9640.00000000 -990.00000000 129 83 149 97.000000 1.000000 4.000000 1.000000 -60.708740 114.000000 201.000000 -0.310895 0.915334 -0.255946
9090.00000000 9630.00000000 -1000.00000000 129 83 149 97.000000 1.000000 4.000000 1.000000 -60.708740 114.000000 201.000000 -0.647519 0.728654 -0.223121
9130.00000000 9640.00000000 -1010.00000000 129 83 149 97.000000 1.000000 4.000000 1.000000 -60.708740 114.000000 201.000000 -0.615717 0.785075 -0.067456
9220.00000000 9550.00000000 -770.00000000 129 83 149 97.000000 1.000000 4.000000 1.000000 -60.708740 114.000000 201.000000 -0.306385 0.951670 -0.021259
9220.00000000 9550.00000000 -770.00000000 129 83 149 97.000000 1.000000 4.000000 1.000000 -60.708740 114.000000 201.000000 -0.306385 0.951670 -0.021259
9180.00000000 9530.00000000 -710.00000000 129 83 149 97.000000 1.000000 4.000000 1.000000 -60.708740 114.000000 201.000000 0.121667 0.966936 -0.224124
9200.00000000 9550.00000000 -740.00000000 129 83 149 97.000000 1.000000 4.000000 1.000000 -60.708740 114.000000 201.000000 0.021144 0.991552 -0.127978
9180.00000000 9540.00000000 -760.00000000 129 83 149 97.000000 1.000000 4.000000 1.000000 -60.708740 114.000000 201.000000 0.215458 0.966334 -0.140628
9180.00000000 9510.00000000 -730.00000000 129 83 149 97.000000 1.000000 4.000000 1.000000 -60.708740 114.000000 201.000000 -0.149892 0.956389 -0.250704
9180.00000000 9490.00000000 -830.00000000 129 83 149 97.000000 1.000000 4.000000 1.000000 -60.708740 114.000000 201.000000 0.168447 0.950039 -0.262777
9210.00000000 9480.00000000 -800.00000000 129 83 149 97.000000 1.000000 4.000000 1.000000 -60.708740 114.000000 201.000000 -0.182824 0.919789 -0.347224
9220.00000000 9470.00000000 -860.00000000 129 83 149 97.000000 1.000000 4.000000 1.000000 -60.708740 114.000000 201.000000 0.090068 0.965373 -0.244832
9220.00000000 9470.00000000 -860.00000000 129 83 149 97.000000 1.000000 4.000000 1.000000 -60.708740 114.000000 201.000000 0.090068 0.965373 -0.244832
9160.00000000 9500.00000000 -720.00000000 129 83 149 97.000000 1.000000 4.000000 1.000000 -60.708740 114.000000 201.000000 0.389495 0.843124 -0.370724
9160.00000000 9510.00000000 -700.00000000 129 83 149 97.000000 1.000000 4.000000 1.000000 -60.708740 114.000000 201.000000 0.326078 0.937642 -0.120419
9090.00000000 9530.00000000 -770.00000000 129 83 149 97.000000 1.000000 4.000000 1.000000 -60.708740 114.000000 201.000000 0.846533 0.528203 -0.066201
9130.00000000 9520.00000000 -700.00000000 129 83 149 97.000000 1.000000 4.000000 1.000000 -60.708740 114.000000 201.000000 0.347879 0.755625 -0.554988
9130.00000000 9510.00000000 -730.00000000 129 83 149 97.000000 1.000000 4.000000 1.000000 -60.708740 114.000000 201.000000 0.359526 0.924299 -0.128107
9120.00000000 9510.00000000 -730.00000000 129 83 149 97.000000 1.000000 4.000000 1.000000 -60.708740 114.000000 201.000000 0.591500 0.784082 -0.187996
9120.00000000 9520.00000000 -760.00000000 129 83 149 97.000000 1.000000 4.000000 1.000000 -60.708740 114.000000 201.000000 0.320859 0.913215 -0.251171
9120.00000000 9500.00000000 -790.00000000 129 83 149 97.000000 1.000000 4.000000 1.000000 -60.708740 114.000000 201.000000 0.783627 0.619249 -0.049597
9090.00000000 9530.00000000 -780.00000000 129 83 149 97.000000 1.000000 4.000000 1.000000 -60.708740 114.000000 201.000000 0.812156 0.384537 -0.438787
9110.00000000 9490.00000000 -860.00000000 129 83 149 97.000000 1.000000 4.000000 1.000000 -60.708740 114.000000 201.000000 0.608548 0.793458 0.009659
9100.00000000 9500.00000000 -780.00000000 129 83 149 97.000000 1.000000 4.000000 1.000000 -60.708740 114.000000 201.000000 0.427396 0.895697 -0.122718
9150.00000000 9490.00000000 -810.00000000 129 83 149 97.000000 1.000000 4.000000 1.000000 -60.708740 114.000000 201.000000 0.013072 0.973256 -0.229351
9100.00000000 9490.00000000 -840.00000000 129 83 149 97.000000 1.000000 4.000000 1.000000 -60.708740 114.000000 201.000000 0.361422 0.912839 -0.189996
9100.00000000 9500.00000000 -820.00000000 129 83 149 97.000000 1.000000 4.000000 1.000000 -60.708740 114.000000 201.000000 0.722880 0.493552 -0.483582
9090.00000000 9510.00000000 -780.00000000 129 83 149 97.000000 1.000000 4.000000 1.000000 -60.708740 114.000000 201.000000 0.364698 0.896241 -0.252483
9100.00000000 9480.00000000 -740.00000000 129 83 149 97.000000 1.000000 4.000000 1.000000 -60.708740 114.000000 201.000000 0.290096 0.726041 -0.623465
9150.00000000 9450.00000000 -810.00000000 129 83 149 97.000000 1.000000 4.000000 1.000000 -60.708740 114.000000 201.000000 0.246640 0.968155 -0.042947
9130.00000000 9480.00000000 -790.00000000 129 83 149 97.000000 1.000000 4.000000 1.000000 -60.708740 114.000000 201.000000 0.069611 0.991666 -0.108410
9130.00000000 9460.00000000 -820.00000000 129 83 149 97.000000 1.000000 4.000000 1.000000 -60.708740 114.000000 201.000000 0.269574 0.957185 -0.105486
9130.00000000 9480.00000000 -790.00000000 129 83 149 97.000000 1.000000 4.000000 1.000000 -60.708740 114.000000 201.000000 0.069611 0.991666 -0.108410
9120.00000000 9480.00000000 -800.00000000 129 83 149 97.000000 1.000000 4.000000 1.000000 -60.708740 114.000000 201.000000 0.781072 0.619371 -0.079407
9110.00000000 9480.00000000 -840.00000000 129 83 149 97.000000 1.000000 4.000000 1.000000 -60.708740 114.000000 201.000000 0.418305 0.908283 -0.006516
9130.00000000 9480.00000000 -850.00000000 129 83 149 97.000000 1.000000 4.000000 1.000000 -60.708740 114.000000 201.000000 0.501402 0.856862 -0.119932
9230.00000000 9520.00000000 -880.00000000 129 83 149 97.000000 1.000000 4.000000 1.000000 -60.708740 114.000000 201.000000 0.670556 -0.627508 0.395711
9230.00000000 9540.00000000 -910.00000000 129 83 149 97.000000 1.000000 4.000000 1.000000 -60.708740 114.000000 201.000000 0.802239 -0.486447 0.346095
9220.00000000 9550.00000000 -940.00000000 129 83 149 97.000000 1.000000 4.000000 1.000000 -60.708740 114.000000 201.000000 0.997701 -0.067764 -0.001043
9190.00000000 9490.00000000 -900.00000000 129 83 149 97.000000 1.000000 4.000000 1.000000 -60.708740 114.000000 201.000000 -0.294369 0.938387 -0.181044
9220.00000000 9550.00000000 -950.00000000 129 83 149 97.000000 1.000000 4.000000 1.000000 -60.708740 114.000000 201.000000 0.991535 -0.067475 0.110933
9220.00000000 9540.00000000 -990.00000000 129 83 149 97.000000 1.000000 4.000000 1.000000 -60.708740 114.000000 201.000000 0.922358 -0.337586 -0.187862
9220.00000000 9540.00000000 -1020.00000000 129 83 149 97.000000 1.000000 4.000000 1.000000 -60.708740 114.000000 201.000000 0.886174 0.274399 -0.373363
9220.00000000 9550.00000000 -1000.00000000 129 83 149 97.000000 1.000000 4.000000 1.000000 -60.708740 114.000000 201.000000 0.995879 -0.005326 -0.090534
9220.00000000 9510.00000000 -970.00000000 129 83 149 97.000000 1.000000 4.000000 1.000000 -60.708740 114.000000 201.000000 0.647133 -0.736712 -0.196148
9220.00000000 9510.00000000 -1000.00000000 129 83 149 97.000000 1.000000 4.000000 1.000000 -60.708740 114.000000 201.000000 0.959910 -0.277639 0.038596
9220.00000000 9520.00000000 -1000.00000000 129 83 149 97.000000 1.000000 4.000000 1.000000 -60.708740 114.000000 201.000000 0.999756 -0.011075 -0.019129
9210.00000000 9540.00000000 -960.00000000 129 83 149 97.000000 1.000000 4.000000 1.000000 -60.708740 114.000000 201.000000 0.910759 -0.394709 -0.121342
9210.00000000 9530.00000000 -1000.00000000 129 83 149 97.000000 1.000000 4.000000 1.000000 -60.708740 114.000000 201.000000 0.921634 -0.366166 -0.128504
9210.00000000 9550.00000000 -1000.00000000 129 83 149 97.000000 1.000000 4.000000 1.000000 -60.708740 114.000000 201.000000 0.985386 -0.038301 -0.165972
9210.00000000 9500.00000000 -1000.00000000 129 83 149 97.000000 1.000000 4.000000 1.000000 -60.708740 114.000000 201.000000 0.854823 -0.510618 0.092452
9180.00000000 9440.00000000 -870.00000000 129 83 149 97.000000 1.000000 4.000000 1.000000 -60.708740 114.000000 201.000000 -0.296129 0.841875 -0.451170
9210.00000000 9480.00000000 -920.00000000 129 83 149 97.000000 1.000000 4.000000 1.000000 -60.708740 114.000000 201.000000 -0.021524 0.999326 -0.029724
9230.00000000 9480.00000000 -1030.00000000 129 83 149 97.000000 1.000000 4.000000 1.000000 -60.708740 114.000000 201.000000 0.702767 -0.566534 0.430300
9160.00000000 9450.00000000 -870.00000000 129 83 149 97.000000 1.000000 4.000000 1.000000 -60.708740 114.000000 201.000000 0.079980 0.871357 -0.484087
9140.00000000 9450.00000000 -910.00000000 129 83 149 97.000000 1.000000 4.000000 1.000000 -60.708740 114.000000 201.000000 0.508900 0.780313 -0.363500
9140.00000000 9450.00000000 -910.00000000 129 83 149 97.000000 1.000000 4.000000 1.000000 -60.708740 114.000000 201.000000 0.508900 0.780313 -0.363500
9160.00000000 9440.00000000 -930.00000000 129 83 149 97.000000 1.000000 4.000000 1.000000 -60.708740 114.000000 201.000000 0.008937 0.999920 0.008937
9100.00000000 9470.00000000 -900.00000000 129 83 149 97.000000 1.000000 4.000000 1.000000 -60.708740 114.000000 201.000000 0.701511 0.712624 0.006946
9090.00000000 9470.00000000 -930.00000000 129 83 149 97.000000 1.000000 4.000000 1.000000 -60.708740 114.000000 201.000000 0.706912 0.625657 -0.329892
9140.00000000 9450.00000000 -950.00000000 129 83 149 97.000000 1.000000 4.000000 1.000000 -60.708740 114.000000 201.000000 0.699530 0.624522 -0.347319
9160.00000000 9450.00000000 -970.00000000 129 83 149 97.000000 1.000000 4.000000 1.000000 -60.708740 114.000000 201.000000 0.474670 0.793262 -0.381345
9150.00000000 9440.00000000 -950.00000000 129 83 149 97.000000 1.000000 4.000000 1.000000 -60.708740 114.000000 201.000000 0.404186 0.903392 -0.143238
9150.00000000 9440.00000000 -1030.00000000 129 83 149 97.000000 1.000000 4.000000 1.000000 -60.708740 114.000000 201.000000 0.146645 0.979686 -0.136786
9140.00000000 9440.00000000 -1020.00000000 129 83 149 97.000000 1.000000 4.000000 1.000000 -60.708740 114.000000 201.000000 0.164113 0.962361 -0.216630
9160.00000000 9420.00000000 -1030.00000000 129 83 149 97.000000 1.000000 4.000000 1.000000 -60.708740 114.000000 201.000000 0.041534 0.997883 0.050054
9140.00000000 9440.00000000 -1020.00000000 129 83 149 97.000000 1.000000 4.000000 1.000000 -60.708740 114.000000 201.000000 0.164113 0.962361 -0.216630
9100.00000000 9450.00000000 -950.00000000 129 83 149 97.000000 1.000000 4.000000 1.000000 -60.708740 114.000000 201.000000 0.372130 0.927039 -0.046023
9120.00000000 9450.00000000 -960.00000000 129 83 149 97.000000 1.000000 4.000000 1.000000 -60.708740 114.000000 201.000000 0.504294 0.863145 -0.025826
9100.00000000 9460.00000000 -990.00000000 129 83 149 97.000000 1.000000 4.000000 1.000000 -60.708740 114.000000 201.000000 0.601368 0.788460 0.129183
9260.00000000 9530.00000000 -1140.00000000 129 83 149 97.000000 1.000000 4.000000 1.000000 -60.708740 114.000000 201.000000 0.862324 0.487148 0.138146
9280.00000000 9530.00000000 -1200.00000000 129 83 149 97.000000 1.000000 4.000000 1.000000 -60.708740 114.000000 201.000000 0.722880 0.493552 -0.483582
9190.00000000 9620.00000000 -1110.00000000 129 83 149 97.000000 1.000000 4.000000 1.000000 -60.708740 114.000000 201.000000 0.316550 0.870129 -0.377719
9200.00000000 9630.00000000 -1050.00000000 129 83 149 97.000000 1.000000 4.000000 1.000000 -60.708740 114.000000 201.000000 0.419655 0.685050 -0.595479
9180.00000000 9610.00000000 -1070.00000000 129 83 149 97.000000 1.000000 4.000000 1.000000 -60.708740 114.000000 201.000000 -0.129977 0.839736 -0.527208
9200.00000000 9610.00000000 -1080.00000000 129 83 149 97.000000 1.000000 4.000000 1.000000 -60.708740 114.000000 201.000000 -0.089452 0.859026 -0.504056
9190.00000000 9630.00000000 -1100.00000000 129 83 149 97.000000 1.000000 4.000000 1.000000 -60.708740 114.000000 201.000000 0.242188 0.848420 -0.470668
9190.00000000 9640.00000000 -1140.00000000 129 83 149 97.000000 1.000000 4.000000 1.000000 -60.708740 114.000000 201.000000 0.066497 0.907886 -0.413909
9210.00000000 9610.00000000 -1150.00000000 129 83 149 97.000000 1.000000 4.000000 1.000000 -60.708740 114.000000 201.000000 0.279055 0.960098 0.018440
9210.00000000 9610.00000000 -1150.00000000 129 83 149 97.000000 1.000000 4.000000 1.000000 -60.708740 114.000000 201.000000 0.279055 0.960098 0.018440
9130.00000000 9630.00000000 -1050.00000000 129 83 149 97.000000 1.000000 4.000000 1.000000 -60.708740 114.000000 201.000000 -0.444977 0.873692 -0.196618
9090.00000000 9640.00000000 -1050.00000000 129 83 149 97.000000 1.000000 4.000000 1.000000 -60.708740 114.000000 201.000000 0.732382 -0.624352 0.271664
9150.00000000 9650.00000000 -1050.00000000 129 83 149 97.000000 1.000000 4.000000 1.000000 -60.708740 114.000000 201.000000 -0.218332 0.970506 -0.102225
9150.00000000 9640.00000000 -1060.00000000 129 83 149 97.000000 1.000000 4.000000 1.000000 -60.708740 114.000000 201.000000 -0.012047 0.993294 -0.114990
9140.00000000 9640.00000000 -1100.00000000 129 83 149 97.000000 1.000000 4.000000 1.000000 -60.708740 114.000000 201.000000 -0.078485 0.932508 -0.352517
9130.00000000 9640.00000000 -1050.00000000 129 83 149 97.000000 1.000000 4.000000 1.000000 -60.708740 114.000000 201.000000 -0.375432 0.873982 -0.308554
9140.00000000 9650.00000000 -1150.00000000 129 83 149 97.000000 1.000000 4.000000 1.000000 -60.708740 114.000000 201.000000 -0.218639 0.967892 -0.124023
9100.00000000 9600.00000000 -1160.00000000 129 83 149 97.000000 1.000000 4.000000 1.000000 -60.708740 114.000000 201.000000 0.748364 -0.612871 0.253656
9130.00000000 9570.00000000 -1140.00000000 129 83 149 97.000000 1.000000 4.000000 1.000000 -60.708740 114.000000 201.000000 -0.352685 0.777840 -0.520171
9130.00000000 9650.00000000 -1170.00000000 129 83 149 97.000000 1.000000 4.000000 1.000000 -60.708740 114.000000 201.000000 -0.359040 0.693488 -0.624631
9200.00000000 9620.00000000 -1200.00000000 129 83 149 97.000000 1.000000 4.000000 1.000000 -60.708740 114.000000 201.000000 -0.053734 0.980340 -0.189859
9160.00000000 9670.00000000 -1230.00000000 129 83 149 97.000000 1.000000 4.000000 1.000000 -60.708740 114.000000 201.000000 0.044727 0.995992 -0.077454
9090.00000000 9620.00000000 -1230.00000000 129 83 149 97.000000 1.000000 4.000000 1.000000 -60.708740 114.000000 201.000000 -0.339802 0.840893 -0.421229
9220.00000000 9520.00000000 -1060.00000000 129 83 149 97.000000 1.000000 4.000000 1.000000 -60.708740 114.000000 201.000000 0.969846 0.013187 0.243361
9230.00000000 9560.00000000 -1080.00000000 129 83 149 97.000000 1.000000 4.000000 1.000000 -60.708740 114.000000 201.000000 0.824099 0.566311 0.012341
9220.00000000 9490.00000000 -1050.00000000 129 83 149 97.000000 1.000000 4.000000 1.000000 -60.708740 114.000000 201.000000 0.892953 -0.225077 0.389840
9250.00000000 9500.00000000 -1100.00000000 129 83 149 97.000000 1.000000 4.000000 1.000000 -60.708740 114.000000 201.000000 0.981970 0.176251 0.068342
9250.00000000 9530.00000000 -1110.00000000 129 83 149 97.000000 1.000000 4.000000 1.000000 -60.708740 114.000000 201.000000 0.923065 0.217610 -0.317170
9240.00000000 9520.00000000 -1120.00000000 129 83 149 97.000000 1.000000 4.000000 1.000000 -60.708740 114.000000 201.000000 0.957481 0.265169 0.113644
9240.00000000 9520.00000000 -1120.00000000 129 83 149 97.000000 1.000000 4.000000 1.000000 -60.708740 114.000000 201.000000 0.957481 0.265169 0.113644
9240.00000000 9500.00000000 -1170.00000000 129 83 149 97.000000 1.000000 4.000000 1.000000 -60.708740 114.000000 201.000000 0.849417 0.489875 0.196250
9240.00000000 9470.00000000 -1060.00000000 129 83 149 97.000000 1.000000 4.000000 1.000000 -60.708740 114.000000 201.000000 0.790084 -0.570530 -0.224192
9240.00000000 9470.00000000 -1100.00000000 129 83 149 97.000000 1.000000 4.000000 1.000000 -60.708740 114.000000 201.000000 0.714917 -0.691332 -0.104658
9220.00000000 9460.00000000 -1110.00000000 129 83 149 97.000000 1.000000 4.000000 1.000000 -60.708740 114.000000 201.000000 0.904330 -0.418544 -0.083709
9220.00000000 9430.00000000 -1080.00000000 129 83 149 97.000000 1.000000 4.000000 1.000000 -60.708740 114.000000 201.000000 -0.462562 0.886466 -0.014663
9200.00000000 9470.00000000 -1060.00000000 129 83 149 97.000000 1.000000 4.000000 1.000000 -60.708740 114.000000 201.000000 -0.265953 0.822744 -0.502356
9210.00000000 9470.00000000 -1050.00000000 129 83 149 97.000000 1.000000 4.000000 1.000000 -60.708740 114.000000 201.000000 -0.329971 0.884442 -0.329971
9180.00000000 9430.00000000 -1110.00000000 129 83 149 97.000000 1.000000 4.000000 1.000000 -60.708740 114.000000 201.000000 0.052581 0.788719 -0.612501
9210.00000000 9440.00000000 -1140.00000000 129 83 149 97.000000 1.000000 4.000000 1.000000 -60.708740 114.000000 201.000000 0.698851 -0.525389 0.485359
9200.00000000 9460.00000000 -1190.00000000 129 83 149 97.000000 1.000000 4.000000 1.000000 -60.708740 114.000000 201.000000 -0.648790 0.759524 -0.046849
9240.00000000 9480.00000000 -1140.00000000 129 83 149 97.000000 1.000000 4.000000 1.000000 -60.708740 114.000000 201.000000 0.946702 -0.295928 -0.127209
9210.00000000 9450.00000000 -1170.00000000 129 83 149 97.000000 1.000000 4.000000 1.000000 -60.708740 114.000000 201.000000 0.810552 -0.585627 0.006857
9210.00000000 9450.00000000 -1160.00000000 129 83 149 97.000000 1.000000 4.000000 1.000000 -60.708740 114.000000 201.000000 0.775222 -0.616892 0.135925
9220.00000000 9460.00000000 -1150.00000000 129 83 149 97.000000 1.000000 4.000000 1.000000 -60.708740 114.000000 201.000000 0.733197 -0.660333 0.162427
9220.00000000 9460.00000000 -1120.00000000 129 83 149 97.000000 1.000000 4.000000 1.000000 -60.708740 114.000000 201.000000 0.933196 -0.359312 -0.006348
9140.00000000 9430.00000000 -1090.00000000 129 83 149 97.000000 1.000000 4.000000 1.000000 -60.708740 114.000000 201.000000 0.449769 0.832150 -0.324398
9110.00000000 9420.00000000 -1110.00000000 129 83 149 97.000000 1.000000 4.000000 1.000000 -60.708740 114.000000 201.000000 0.776517 0.620330 0.110510
9130.00000000 9440.00000000 -1110.00000000 129 83 149 97.000000 1.000000 4.000000 1.000000 -60.708740 114.000000 201.000000 0.395315 0.917078 0.051910
9110.00000000 9440.00000000 -1060.00000000 129 83 149 97.000000 1.000000 4.000000 1.000000 -60.708740 114.000000 201.000000 0.691689 0.722184 -0.004158
9100.00000000 9460.00000000 -1100.00000000 129 83 149 97.000000 1.000000 4.000000 1.000000 -60.708740 114.000000 201.000000 0.830059 0.509042 -0.227769
9110.00000000 9440.00000000 -1100.00000000 129 83 149 97.000000 1.000000 4.000000 1.000000 -60.708740 114.000000 201.000000 0.542248 0.821634 -0.175742
9120.00000000 9400.00000000 -1120.00000000 129 83 149 97.000000 1.000000 4.000000 1.000000 -60.708740 114.000000 201.000000 0.666180 0.548717 -0.505088
9170.00000000 9420.00000000 -1160.00000000 129 83 149 97.000000 1.000000 4.000000 1.000000 -60.708740 114.000000 201.000000 0.265145 0.885315 -0.381989
9120.00000000 9430.00000000 -1140.00000000 129 83 149 97.000000 1.000000 4.000000 1.000000 -60.708740 114.000000 201.000000 0.423371 0.900879 -0.095779
9150.00000000 9400.00000000 -1180.00000000 129 83 149 97.000000 1.000000 4.000000 1.000000 -60.708740 114.000000 201.000000 0.402567 0.881457 -0.246928
9130.00000000 9420.00000000 -1140.00000000 129 83 149 97.000000 1.000000 4.000000 1.000000 -60.708740 114.000000 201.000000 0.296076 0.922556 -0.247445
9250.00000000 9550.00000000 -1200.00000000 129 83 149 97.000000 1.000000 4.000000 1.000000 -60.708740 114.000000 201.000000 0.829703 0.549769 -0.096678
9230.00000000 9480.00000000 -1200.00000000 129 83 149 97.000000 1.000000 4.000000 1.000000 -60.708740 114.000000 201.000000 0.976315 0.202123 -0.077174
9190.00000000 9450.00000000 -1220.00000000 129 83 149 97.000000 1.000000 4.000000 1.000000 -60.708740 114.000000 201.000000 0.878660 -0.465506 -0.106118
9160.00000000 9420.00000000 -1240.00000000 129 83 149 97.000000 1.000000 4.000000 1.000000 -60.708740 114.000000 201.000000 0.103661 0.992182 -0.069487
9090.00000000 9450.00000000 -1220.00000000 129 83 149 97.000000 1.000000 4.000000 1.000000 -60.708740 114.000000 201.000000 0.967368 -0.232626 0.100423
9110.00000000 9410.00000000 -1200.00000000 129 83 149 97.000000 1.000000 4.000000 1.000000 -60.708740 114.000000 201.000000 0.524896 0.789737 -0.317490
9020.00000000 9720.00000000 -60.00000000 129 83 149 97.000000 1.000000 4.000000 1.000000 -60.708740 114.000000 201.000000 0.739754 0.672631 -0.018179
9060.00000000 9720.00000000 -90.00000000 129 83 149 97.000000 1.000000 4.000000 1.000000 -60.708740 114.000000 201.000000 0.685219 0.706680 0.176287
9050.00000000 9730.00000000 -90.00000000 129 83 149 97.000000 1.000000 4.000000 1.000000 -60.708740 114.000000 201.000000 0.595693 0.803011 0.017968
9060.00000000 9710.00000000 -100.00000000 129 83 149 97.000000 1.000000 4.000000 1.000000 -60.708740 114.000000 201.000000 0.899329 0.411895 -0.146800
9080.00000000 9730.00000000 -40.00000000 129 83 149 97.000000 1.000000 4.000000 1.000000 -60.708740 114.000000 201.000000 0.749331 0.624702 -0.219658
9080.00000000 9720.00000000 -130.00000000 129 83 149 97.000000 1.000000 4.000000 1.000000 -60.708740 114.000000 201.000000 0.691244 0.419388 -0.588469
9060.00000000 9710.00000000 -160.00000000 129 83 149 97.000000 1.000000 4.000000 1.000000 -60.708740 114.000000 201.000000 0.850995 0.517439 -0.089803
9060.00000000 9730.00000000 -150.00000000 129 83 149 97.000000 1.000000 4.000000 1.000000 -60.708740 114.000000 201.000000 0.919991 0.381857 -0.088330
9080.00000000 9720.00000000 -120.00000000 129 83 149 97.000000 1.000000 4.000000 1.000000 -60.708740 114.000000 201.000000 0.485139 0.788149 -0.378763
9040.00000000 9710.00000000 -120.00000000 129 83 149 97.000000 1.000000 4.000000 1.000000 -60.708740 114.000000 201.000000 0.522463 0.833844 -0.178146
9070.00000000 9690.00000000 -140.00000000 129 83 149 97.000000 1.000000 4.000000 1.000000 -60.708740 114.000000 201.000000 0.695039 0.709859 0.114111
9070.00000000 9720.00000000 -200.00000000 129 83 149 97.000000 1.000000 4.000000 1.000000 -60.708740 114.000000 201.000000 0.677001 0.453006 -0.580048
9070.00000000 9700.00000000 -220.00000000 129 83 149 97.000000 1.000000 4.000000 1.000000 -60.708740 114.000000 201.000000 0.652173 0.753849 0.079888
9060.00000000 9700.00000000 -270.00000000 129 83 149 97.000000 1.000000 4.000000 1.000000 -60.708740 114.000000 201.000000 0.996338 0.084363 -0.013883
9060.00000000 9700.00000000 -270.00000000 129 83 149 97.000000 1.000000 4.000000 1.000000 -60.708740 114.000000 201.000000 0.996338 0.084363 -0.013883
9070.00000000 9690.00000000 -220.00000000 129 83 149 97.000000 1.000000 4.000000 1.000000 -60.708740 114.000000 201.000000 0.901084 0.426540 0.078176
9070.00000000 9680.00000000 -280.00000000 129 83 149 97.000000 1.000000 4.000000 1.000000 -60.708740 114.000000 201.000000 0.626986 0.778473 0.029456
9060.00000000 9680.00000000 -340.00000000 129 83 149 97.000000 1.000000 4.000000 1.000000 -60.708740 114.000000 201.000000 0.952039 0.081826 -0.294833
9060.00000000 9690.00000000 -330.00000000 129 83 149 97.000000 1.000000 4.000000 1.000000 -60.708740 114.000000 201.000000 0.825025 0.564345 0.029119
9070.00000000 9680.00000000 -340.00000000 129 83 149 97.000000 1.000000 4.000000 1.000000 -60.708740 114.000000 201.000000 0.867597 0.496736 -0.023010
9050.00000000 9680.00000000 -360.00000000 129 83 149 97.000000 1.000000 4.000000 1.000000 -60.708740 114.000000 201.000000 0.752592 0.653987 -0.076854
9060.00000000 9710.00000000 -400.00000000 129 83 149 97.000000 1.000000 4.000000 1.000000 -60.708740 114.000000 201.000000 0.979313 -0.089028 -0.181716
9060.00000000 9670.00000000 -370.00000000 129 83 149 97.000000 1.000000 4.000000 1.000000 -60.708740 114.000000 201.000000 0.802517 0.584586 -0.119273
9060.00000000 9730.00000000 -400.00000000 129 83 149 97.000000 1.000000 4.000000 1.000000 -60.708740 114.000000 201.000000 0.961061 -0.025908 -0.275118
9060.00000000 9660.00000000 -440.00000000 129 83 149 97.000000 1.000000 4.000000 1.000000 -60.708740 114.000000 201.000000 0.756473 0.345029 -0.555611
9060.00000000 9700.00000000 -470.00000000 129 83 149 97.000000 1.000000 4.000000 1.000000 -60.708740 114.000000 201.000000 0.993047 -0.071174 -0.093769
9050.00000000 9670.00000000 -450.00000000 129 83 149 97.000000 1.000000 4.000000 1.000000 -60.708740 114.000000 201.000000 0.967962 -0.063534 -0.242925
9050.00000000 9650.00000000 -380.00000000 129 83 149 97.000000 1.000000 4.000000 1.000000 -60.708740 114.000000 201.000000 0.932281 0.329122 0.150101
9050.00000000 9650.00000000 -490.00000000 129 83 149 97.000000 1.000000 4.000000 1.000000 -60.708740 114.000000 201.000000 0.875445 0.143255 -0.461599
9060.00000000 9650.00000000 -450.00000000 129 83 149 97.000000 1.000000 4.000000 1.000000 -60.708740 114.000000 201.000000 0.688216 0.537512 -0.487277
9060.00000000 9620.00000000 -490.00000000 129 83 149 97.000000 1.000000 4.000000 1.000000 -60.708740 114.000000 201.000000 0.889814 0.328616 -0.316612
9080.00000000 9590.00000000 -510.00000000 129 83 149 97.000000 1.000000 4.000000 1.000000 -60.708740 114.000000 201.000000 0.919180 0.342384 -0.194633
9070.00000000 9640.00000000 -520.00000000 129 83 149 97.000000 1.000000 4.000000 1.000000 -60.708740 114.000000 201.000000 0.950217 0.227019 -0.213425
9070.00000000 9610.00000000 -510.00000000 129 83 149 97.000000 1.000000 4.000000 1.000000 -60.708740 114.000000 201.000000 0.720857 0.692971 0.012549
9080.00000000 9730.00000000 -570.00000000 129 83 149 97.000000 1.000000 4.000000 1.000000 -60.708740 114.000000 201.000000 0.893362 -0.102059 0.437594
9040.00000000 9720.00000000 -580.00000000 129 83 149 97.000000 1.000000 4.000000 1.000000 -60.708740 114.000000 201.000000 0.952057 -0.305797 0.008666
9030.00000000 9670.00000000 -580.00000000 129 83 149 97.000000 1.000000 4.000000 1.000000 -60.708740 114.000000 201.000000 0.974317 -0.219616 -0.049747
9080.00000000 9720.00000000 -630.00000000 129 83 149 97.000000 1.000000 4.000000 1.000000 -60.708740 114.000000 201.000000 0.849133 -0.525654 0.051589
9080.00000000 9710.00000000 -630.00000000 129 83 149 97.000000 1.000000 4.000000 1.000000 -60.708740 114.000000 201.000000 0.784473 -0.619468 0.029365
9080.00000000 9660.00000000 -620.00000000 129 83 149 97.000000 1.000000 4.000000 1.000000 -60.708740 114.000000 201.000000 0.923510 0.102309 -0.369677
9060.00000000 9630.00000000 -550.00000000 129 83 149 97.000000 1.000000 4.000000 1.000000 -60.708740 114.000000 201.000000 0.960642 0.257292 0.104727
9060.00000000 9620.00000000 -540.00000000 129 83 149 97.000000 1.000000 4.000000 1.000000 -60.708740 114.000000 201.000000 0.695282 0.715519 0.067938
9060.00000000 9650.00000000 -540.00000000 129 83 149 97.000000 1.000000 4.000000 1.000000 -60.708740 114.000000 201.000000 0.998817 -0.048346 -0.005143
9050.00000000 9630.00000000 -590.00000000 129 83 149 97.000000 1.000000 4.000000 1.000000 -60.708740 114.000000 201.000000 0.936337 0.221874 -0.272110
9050.00000000 9650.00000000 -580.00000000 129 83 149 97.000000 1.000000 4.000000 1.000000 -60.708740 114.000000 201.000000 0.932837 0.350982 -0.081406
9050.00000000 9620.00000000 -580.00000000 129 83 149 97.000000 1.000000 4.000000 1.000000 -60.708740 114.000000 201.000000 0.963358 0.098511 -0.249475
9080.00000000 9590.00000000 -550.00000000 129 83 149 97.000000 1.000000 4.000000 1.000000 -60.708740 114.000000 201.000000 0.444528 0.830937 -0.334574
9080.00000000 9600.00000000 -540.00000000 129 83 149 97.000000 1.000000 4.000000 1.000000 -60.708740 114.000000 201.000000 0.815933 0.370589 -0.443753
9080.00000000 9600.00000000 -540.00000000 129 83 149 97.000000 1.000000 4.000000 1.000000 -60.708740 114.000000 201.000000 0.815933 0.370589 -0.443753
9080.00000000 9590.00000000 -570.00000000 129 83 149 97.000000 1.000000 4.000000 1.000000 -60.708740 114.000000 201.000000 0.788657 0.479000 -0.385458
9030.00000000 9620.00000000 -550.00000000 129 83 149 97.000000 1.000000 4.000000 1.000000 -60.708740 114.000000 201.000000 0.968855 -0.055681 -0.241286
9050.00000000 9630.00000000 -690.00000000 129 83 149 97.000000 1.000000 4.000000 1.000000 -60.708740 114.000000 201.000000 0.970981 -0.219821 0.094209
9060.00000000 9620.00000000 -670.00000000 129 83 149 97.000000 1.000000 4.000000 1.000000 -60.708740 114.000000 201.000000 0.953496 0.217133 -0.209041
9060.00000000 9600.00000000 -640.00000000 129 83 149 97.000000 1.000000 4.000000 1.000000 -60.708740 114.000000 201.000000 0.801445 0.597991 -0.009623
9030.00000000 9640.00000000 -620.00000000 129 83 149 97.000000 1.000000 4.000000 1.000000 -60.708740 114.000000 201.000000 0.990430 0.053815 -0.127096
9060.00000000 9580.00000000 -620.00000000 129 83 149 97.000000 1.000000 4.000000 1.000000 -60.708740 114.000000 201.000000 0.877960 0.409715 -0.247630
9050.00000000 9610.00000000 -680.00000000 129 83 149 97.000000 1.000000 4.000000 1.000000 -60.708740 114.000000 201.000000 0.960885 -0.204865 -0.186361
9040.00000000 9640.00000000 -640.00000000 129 83 149 97.000000 1.000000 4.000000 1.000000 -60.708740 114.000000 201.000000 0.958357 0.088761 0.271427
9070.00000000 9620.00000000 -670.00000000 129 83 149 97.000000 1.000000 4.000000 1.000000 -60.708740 114.000000 201.000000 0.893362 0.437594 -0.102059
9030.00000000 9640.00000000 -650.00000000 129 83 149 97.000000 1.000000 4.000000 1.000000 -60.708740 114.000000 201.000000 0.939520 0.094618 0.329165
9050.00000000 9640.00000000 -630.00000000 129 83 149 97.000000 1.000000 4.000000 1.000000 -60.708740 114.000000 201.000000 0.953258 0.235289 0.189576
9050.00000000 9530.00000000 -660.00000000 129 83 149 97.000000 1.000000 4.000000 1.000000 -60.708740 114.000000 201.000000 0.508322 0.859272 -0.057099
9080.00000000 9560.00000000 -650.00000000 129 83 149 97.000000 1.000000 4.000000 1.000000 -60.708740 114.000000 201.000000 0.691131 0.703337 -0.166299
9040.00000000 9560.00000000 -620.00000000 129 83 149 97.000000 1.000000 4.000000 1.000000 -60.708740 114.000000 201.000000 0.715033 0.532542 -0.452909
9070.00000000 9540.00000000 -600.00000000 129 83 149 97.000000 1.000000 4.000000 1.000000 -60.708740 114.000000 201.000000 0.444511 0.887602 -0.120714
9060.00000000 9560.00000000 -670.00000000 129 83 149 97.000000 1.000000 4.000000 1.000000 -60.708740 114.000000 201.000000 0.979890 0.187279 -0.068870
9070.00000000 9560.00000000 -660.00000000 129 83 149 97.000000 1.000000 4.000000 1.000000 -60.708740 114.000000 201.000000 0.649039 0.652342 -0.391405
9080.00000000 9680.00000000 -720.00000000 129 83 149 97.000000 1.000000 4.000000 1.000000 -60.708740 114.000000 201.000000 0.850751 -0.301083 0.430780
9080.00000000 9680.00000000 -720.00000000 129 83 149 97.000000 1.000000 4.000000 1.000000 -60.708740 114.000000 201.000000 0.850751 -0.301083 0.430780
9060.00000000 9580.00000000 -750.00000000 129 83 149 97.000000 1.000000 4.000000 1.000000 -60.708740 114.000000 201.000000 0.999075 -0.042012 -0.009222
9060.00000000 9650.00000000 -700.00000000 129 83 149 97.000000 1.000000 4.000000 1.000000 -60.708740 114.000000 201.000000 0.913372 -0.387870 0.123729
9060.00000000 9630.00000000 -770.00000000 129 83 149 97.000000 1.000000 4.000000 1.000000 -60.708740 114.000000 201.000000 0.893999 -0.299990 0.332824
9070.00000000 9650.00000000 -770.00000000 129 83 149 97.000000 1.000000 4.000000 1.000000 -60.708740 114.000000 201.000000 0.765819 -0.642616 0.023801
9050.00000000 9570.00000000 -780.00000000 129 83 149 97.000000 1.000000 4.000000 1.000000 -60.708740 114.000000 201.000000 0.965972 0.244342 -0.084823
9060.00000000 9630.00000000 -840.00000000 129 83 149 97.000000 1.000000 4.000000 1.000000 -60.708740 114.000000 201.000000 0.874156 -0.485642 0.001331
9070.00000000 9630.00000000 -790.00000000 129 83 149 97.000000 1.000000 4.000000 1.000000 -60.708740 114.000000 201.000000 0.827079 -0.515204 0.224733
9010.00000000 9600.00000000 -850.00000000 129 83 149 97.000000 1.000000 4.000000 1.000000 -60.708740 114.000000 201.000000 0.981865 0.083332 0.170287
9070.00000000 9630.00000000 -870.00000000 129 83 149 97.000000 1.000000 4.000000 1.000000 -60.708740 114.000000 201.000000 0.988872 -0.146458 0.026113
9050.00000000 9650.00000000 -920.00000000 129 83 149 97.000000 1.000000 4.000000 1.000000 -60.708740 114.000000 201.000000 -0.652286 0.751961 0.095278
9060.00000000 9600.00000000 -890.00000000 129 83 149 97.000000 1.000000 4.000000 1.000000 -60.708740 114.000000 201.000000 0.964763 -0.263117 0.001201
9070.00000000 9600.00000000 -920.00000000 129 83 149 97.000000 1.000000 4.000000 1.000000 -60.708740 114.000000 201.000000 0.779162 -0.553824 0.293574
9040.00000000 9580.00000000 -890.00000000 129 83 149 97.000000 1.000000 4.000000 1.000000 -60.708740 114.000000 201.000000 0.905138 -0.367576 -0.213572
9070.00000000 9590.00000000 -950.00000000 129 83 149 97.000000 1.000000 4.000000 1.000000 -60.708740 114.000000 201.000000 0.875282 -0.418874 -0.241716
9060.00000000 9550.00000000 -750.00000000 129 83 149 97.000000 1.000000 4.000000 1.000000 -60.708740 114.000000 201.000000 0.697178 0.642180 -0.318664
9060.00000000 9550.00000000 -750.00000000 129 83 149 97.000000 1.000000 4.000000 1.000000 -60.708740 114.000000 201.000000 0.697178 0.642180 -0.318664
9080.00000000 9530.00000000 -710.00000000 129 83 149 97.000000 1.000000 4.000000 1.000000 -60.708740 114.000000 201.000000 0.841380 0.435519 -0.320005
9050.00000000 9560.00000000 -820.00000000 129 83 149 97.000000 1.000000 4.000000 1.000000 -60.708740 114.000000 201.000000 0.932886 0.280007 -0.226538
9050.00000000 9560.00000000 -830.00000000 129 83 149 97.000000 1.000000 4.000000 1.000000 -60.708740 114.000000 201.000000 0.995463 -0.065041 -0.069451
9060.00000000 9540.00000000 -790.00000000 129 83 149 97.000000 1.000000 4.000000 1.000000 -60.708740 114.000000 201.000000 0.835866 0.283791 -0.469884
9060.00000000 9540.00000000 -790.00000000 129 83 149 97.000000 1.000000 4.000000 1.000000 -60.708740 114.000000 201.000000 0.835866 0.283791 -0.469884
9050.00000000 9560.00000000 -840.00000000 129 83 149 97.000000 1.000000 4.000000 1.000000 -60.708740 114.000000 201.000000 0.994429 -0.104961 -0.009739
9070.00000000 9520.00000000 -810.00000000 129 83 149 97.000000 1.000000 4.000000 1.000000 -60.708740 114.000000 201.000000 0.959024 0.269042 0.088822
9030.00000000 9520.00000000 -840.00000000 129 83 149 97.000000 1.000000 4.000000 1.000000 -60.708740 114.000000 201.000000 0.938604 0.154835 -0.308300
