//X Y Z R G B PointSourceId ScanDirectionFlag NumberOfReturns ReturnNumber GpsTime Intensity Classification Nx Ny Nz
11170.00000000 8950.00000000 -290.00000000 113 42 178 97.000000 1.000000 4.000000 1.000000 -60.708740 114.000000 144.000000 -0.662947 0.730004 0.166118
11170.00000000 8940.00000000 -310.00000000 113 42 178 97.000000 1.000000 4.000000 1.000000 -60.708740 114.000000 144.000000 -0.255384 0.925947 0.278212
11170.00000000 8950.00000000 -280.00000000 113 42 178 97.000000 1.000000 4.000000 1.000000 -60.708740 114.000000 144.000000 -0.465237 0.807370 0.362917
11190.00000000 8950.00000000 -280.00000000 113 42 178 97.000000 1.000000 4.000000 1.000000 -60.708740 114.000000 144.000000 0.124166 0.992232 -0.007692
11180.00000000 8950.00000000 -280.00000000 113 42 178 97.000000 1.000000 4.000000 1.000000 -60.708740 114.000000 144.000000 0.116106 0.968400 0.220729
11170.00000000 8940.00000000 -280.00000000 113 42 178 97.000000 1.000000 4.000000 1.000000 -60.708740 114.000000 144.000000 -0.216847 0.971423 0.096516
11160.00000000 8970.00000000 -290.00000000 113 42 178 97.000000 1.000000 4.000000 1.000000 -60.708740 114.000000 144.000000 -0.361097 0.930973 -0.053836
11170.00000000 8940.00000000 -320.00000000 113 42 178 97.000000 1.000000 4.000000 1.000000 -60.708740 114.000000 144.000000 -0.311764 0.945814 -0.090767
11160.00000000 8940.00000000 -350.00000000 113 42 178 97.000000 1.000000 4.000000 1.000000 -60.708740 114.000000 144.000000 -0.270196 0.960274 -0.069769
11190.00000000 8940.00000000 -340.00000000 113 42 178 97.000000 1.000000 4.000000 1.000000 -60.708740 114.000000 144.000000 0.019978 0.978912 -0.203303
11160.00000000 8930.00000000 -310.00000000 113 42 178 97.000000 1.000000 4.000000 1.000000 -60.708740 114.000000 144.000000 -0.526608 0.766417 0.367816
11150.00000000 8960.00000000 -280.00000000 113 42 178 97.000000 1.000000 4.000000 1.000000 -60.708740 114.000000 144.000000 -0.253013 0.966385 0.045666
11130.00000000 8960.00000000 -310.00000000 113 42 178 97.000000 1.000000 4.000000 1.000000 -60.708740 114.000000 144.000000 -0.170094 0.980180 -0.101567
11120.00000000 8940.00000000 -290.00000000 113 42 178 97.000000 1.000000 4.000000 1.000000 -60.708740 114.000000 144.000000 0.693327 -0.580267 -0.427303
11120.00000000 8950.00000000 -310.00000000 113 42 178 97.000000 1.000000 4.000000 1.000000 -60.708740 114.000000 144.000000 0.718104 -0.691991 0.073987
11130.00000000 8960.00000000 -300.00000000 113 42 178 97.000000 1.000000 4.000000 1.000000 -60.708740 114.000000 144.000000 -0.107754 0.926142 0.361455
11120.00000000 8940.00000000 -290.00000000 113 42 178 97.000000 1.000000 4.000000 1.000000 -60.708740 114.000000 144.000000 0.693327 -0.580267 -0.427303
11140.00000000 8960.00000000 -300.00000000 113 42 178 97.000000 1.000000 4.000000 1.000000 -60.708740 114.000000 144.000000 -0.103518 0.912341 0.396130
11120.00000000 8950.00000000 -320.00000000 113 42 178 97.000000 1.000000 4.000000 1.000000 -60.708740 114.000000 144.000000 -0.481844 0.875957 -0.022945
11150.00000000 8940.00000000 -330.00000000 113 42 178 97.000000 1.000000 4.000000 1.000000 -60.708740 114.000000 144.000000 -0.268442 0.963234 -0.010932
11150.00000000 8940.00000000 -350.00000000 113 42 178 97.000000 1.000000 4.000000 1.000000 -60.708740 114.000000 144.000000 -0.316093 0.931568 -0.179630
11120.00000000 8940.00000000 -330.00000000 113 42 178 97.000000 1.000000 4.000000 1.000000 -60.708740 114.000000 144.000000 -0.098041 0.990787 0.093427
11120.00000000 8930.00000000 -340.00000000 113 42 178 97.000000 1.000000 4.000000 1.000000 -60.708740 114.000000 144.000000 -0.286671 0.819283 0.496583
11270.00000000 8890.00000000 -270.00000000 113 42 178 97.000000 1.000000 4.000000 1.000000 -60.708740 114.000000 144.000000 -0.233400 0.943267 -0.236162
11200.00000000 8890.00000000 -230.00000000 113 42 178 97.000000 1.000000 4.000000 1.000000 -60.708740 114.000000 144.000000 -0.231485 0.927359 0.293972
11260.00000000 8880.00000000 -290.00000000 113 42 178 97.000000 1.000000 4.000000 1.000000 -60.708740 114.000000 144.000000 0.363219 0.930829 -0.040358
11270.00000000 8880.00000000 -300.00000000 113 42 178 97.000000 1.000000 4.000000 1.000000 -60.708740 114.000000 144.000000 0.363532 0.913819 0.181053
11270.00000000 8890.00000000 -350.00000000 113 42 178 97.000000 1.000000 4.000000 1.000000 -60.708740 114.000000 144.000000 0.431602 0.861678 0.266891
11270.00000000 8860.00000000 -330.00000000 113 42 178 97.000000 1.000000 4.000000 1.000000 -60.708740 114.000000 144.000000 0.367656 0.929954 -0.003817
11330.00000000 8820.00000000 -370.00000000 113 42 178 97.000000 1.000000 4.000000 1.000000 -60.708740 114.000000 144.000000 0.967488 0.221689 -0.121737
11280.00000000 8860.00000000 -390.00000000 113 42 178 97.000000 1.000000 4.000000 1.000000 -60.708740 114.000000 144.000000 0.528644 0.841486 -0.111522
11290.00000000 8860.00000000 -400.00000000 113 42 178 97.000000 1.000000 4.000000 1.000000 -60.708740 114.000000 144.000000 0.864926 0.491597 -0.101169
11280.00000000 8860.00000000 -400.00000000 113 42 178 97.000000 1.000000 4.000000 1.000000 -60.708740 114.000000 144.000000 0.575593 0.744217 -0.338870
11280.00000000 8870.00000000 -400.00000000 113 42 178 97.000000 1.000000 4.000000 1.000000 -60.708740 114.000000 144.000000 -0.379408 -0.721039 0.579787
11300.00000000 8820.00000000 -380.00000000 113 42 178 97.000000 1.000000 4.000000 1.000000 -60.708740 114.000000 144.000000 0.901368 0.416339 -0.119154
11310.00000000 8810.00000000 -380.00000000 113 42 178 97.000000 1.000000 4.000000 1.000000 -60.708740 114.000000 144.000000 0.890012 0.442897 -0.108264
11300.00000000 8810.00000000 -410.00000000 113 42 178 97.000000 1.000000 4.000000 1.000000 -60.708740 114.000000 144.000000 0.886953 0.438445 -0.145190
11290.00000000 8820.00000000 -410.00000000 113 42 178 97.000000 1.000000 4.000000 1.000000 -60.708740 114.000000 144.000000 0.810126 0.585783 0.023542
11280.00000000 8850.00000000 -420.00000000 113 42 178 97.000000 1.000000 4.000000 1.000000 -60.708740 114.000000 144.000000 0.756148 0.608989 -0.239525
11290.00000000 8810.00000000 -410.00000000 113 42 178 97.000000 1.000000 4.000000 1.000000 -60.708740 114.000000 144.000000 0.888024 0.454370 -0.070434
11290.00000000 8840.00000000 -440.00000000 113 42 178 97.000000 1.000000 4.000000 1.000000 -60.708740 114.000000 144.000000 0.792990 0.583750 -0.174367
11290.00000000 8850.00000000 -440.00000000 113 42 178 97.000000 1.000000 4.000000 1.000000 -60.708740 114.000000 144.000000 0.850038 0.436590 -0.294659
11300.00000000 8810.00000000 -400.00000000 113 42 178 97.000000 1.000000 4.000000 1.000000 -60.708740 114.000000 144.000000 0.798367 0.424183 -0.427409
11280.00000000 8830.00000000 -410.00000000 113 42 178 97.000000 1.000000 4.000000 1.000000 -60.708740 114.000000 144.000000 0.668004 0.651591 -0.359442
11310.00000000 8810.00000000 -400.00000000 113 42 178 97.000000 1.000000 4.000000 1.000000 -60.708740 114.000000 144.000000 0.858164 0.332442 -0.391199
11300.00000000 8810.00000000 -400.00000000 113 42 178 97.000000 1.000000 4.000000 1.000000 -60.708740 114.000000 144.000000 0.798367 0.424183 -0.427409
11290.00000000 8810.00000000 -440.00000000 113 42 178 97.000000 1.000000 4.000000 1.000000 -60.708740 114.000000 144.000000 0.966331 0.256473 -0.020664
11300.00000000 8820.00000000 -400.00000000 113 42 178 97.000000 1.000000 4.000000 1.000000 -60.708740 114.000000 144.000000 0.763014 0.615036 -0.198846
11290.00000000 8810.00000000 -440.00000000 113 42 178 97.000000 1.000000 4.000000 1.000000 -60.708740 114.000000 144.000000 0.966331 0.256473 -0.020664
11280.00000000 8890.00000000 -490.00000000 113 42 178 97.000000 1.000000 4.000000 1.000000 -60.708740 114.000000 144.000000 0.685354 0.725584 0.061782
11310.00000000 8820.00000000 -450.00000000 113 42 178 97.000000 1.000000 4.000000 1.000000 -60.708740 114.000000 144.000000 -0.690187 -0.347541 0.634711
11280.00000000 8850.00000000 -450.00000000 113 42 178 97.000000 1.000000 4.000000 1.000000 -60.708740 114.000000 144.000000 0.514097 0.857723 -0.004027
11290.00000000 8850.00000000 -460.00000000 113 42 178 97.000000 1.000000 4.000000 1.000000 -60.708740 114.000000 144.000000 0.780940 0.623911 -0.029443
11300.00000000 8820.00000000 -460.00000000 113 42 178 97.000000 1.000000 4.000000 1.000000 -60.708740 114.000000 144.000000 0.872133 0.085668 -0.481710
11280.00000000 8850.00000000 -450.00000000 113 42 178 97.000000 1.000000 4.000000 1.000000 -60.708740 114.000000 144.000000 0.514097 0.857723 -0.004027
11280.00000000 8820.00000000 -480.00000000 113 42 178 97.000000 1.000000 4.000000 1.000000 -60.708740 114.000000 144.000000 0.963176 0.241764 -0.117650
11300.00000000 8830.00000000 -450.00000000 113 42 178 97.000000 1.000000 4.000000 1.000000 -60.708740 114.000000 144.000000 0.772371 0.630890 0.073628
11290.00000000 8830.00000000 -460.00000000 113 42 178 97.000000 1.000000 4.000000 1.000000 -60.708740 114.000000 144.000000 0.949433 0.253272 -0.185553
11280.00000000 8810.00000000 -470.00000000 113 42 178 97.000000 1.000000 4.000000 1.000000 -60.708740 114.000000 144.000000 0.927616 0.373356 0.011547
11280.00000000 8820.00000000 -480.00000000 113 42 178 97.000000 1.000000 4.000000 1.000000 -60.708740 114.000000 144.000000 0.963176 0.241764 -0.117650
11300.00000000 8840.00000000 -450.00000000 113 42 178 97.000000 1.000000 4.000000 1.000000 -60.708740 114.000000 144.000000 0.749711 0.656543 -0.082978
11280.00000000 8820.00000000 -510.00000000 113 42 178 97.000000 1.000000 4.000000 1.000000 -60.708740 114.000000 144.000000 0.740397 0.543395 -0.395644
11300.00000000 8830.00000000 -490.00000000 113 42 178 97.000000 1.000000 4.000000 1.000000 -60.708740 114.000000 144.000000 0.745071 0.666198 -0.032394
11280.00000000 8810.00000000 -510.00000000 113 42 178 97.000000 1.000000 4.000000 1.000000 -60.708740 114.000000 144.000000 0.647869 0.450327 -0.614387
11280.00000000 8820.00000000 -500.00000000 113 42 178 97.000000 1.000000 4.000000 1.000000 -60.708740 114.000000 144.000000 0.952868 0.288076 -0.095156
11300.00000000 8810.00000000 -500.00000000 113 42 178 97.000000 1.000000 4.000000 1.000000 -60.708740 114.000000 144.000000 0.919277 0.001282 -0.393609
11280.00000000 8820.00000000 -490.00000000 113 42 178 97.000000 1.000000 4.000000 1.000000 -60.708740 114.000000 144.000000 0.903420 0.407314 -0.133892
11280.00000000 8840.00000000 -520.00000000 113 42 178 97.000000 1.000000 4.000000 1.000000 -60.708740 114.000000 144.000000 0.895944 0.439081 -0.067025
11330.00000000 8750.00000000 -380.00000000 113 42 178 97.000000 1.000000 4.000000 1.000000 -60.708740 114.000000 144.000000 0.936353 -0.126387 -0.327520
11330.00000000 8760.00000000 -380.00000000 113 42 178 97.000000 1.000000 4.000000 1.000000 -60.708740 114.000000 144.000000 0.797773 0.190672 -0.572017
11320.00000000 8770.00000000 -390.00000000 113 42 178 97.000000 1.000000 4.000000 1.000000 -60.708740 114.000000 144.000000 0.835548 0.155830 -0.526855
11310.00000000 8790.00000000 -390.00000000 113 42 178 97.000000 1.000000 4.000000 1.000000 -60.708740 114.000000 144.000000 0.972902 0.057517 -0.223951
11310.00000000 8800.00000000 -380.00000000 113 42 178 97.000000 1.000000 4.000000 1.000000 -60.708740 114.000000 144.000000 0.981475 0.058435 -0.182461
11300.00000000 8780.00000000 -360.00000000 113 42 178 97.000000 1.000000 4.000000 1.000000 -60.708740 114.000000 144.000000 0.984325 -0.014931 -0.175731
11300.00000000 8790.00000000 -360.00000000 113 42 178 97.000000 1.000000 4.000000 1.000000 -60.708740 114.000000 144.000000 0.841620 0.099268 -0.530868
11310.00000000 8800.00000000 -410.00000000 113 42 178 97.000000 1.000000 4.000000 1.000000 -60.708740 114.000000 144.000000 0.949310 0.211109 -0.232901
11290.00000000 8800.00000000 -430.00000000 113 42 178 97.000000 1.000000 4.000000 1.000000 -60.708740 114.000000 144.000000 0.844848 0.360739 -0.395095
11300.00000000 8800.00000000 -420.00000000 113 42 178 97.000000 1.000000 4.000000 1.000000 -60.708740 114.000000 144.000000 0.952082 0.274869 -0.134115
11310.00000000 8770.00000000 -400.00000000 113 42 178 97.000000 1.000000 4.000000 1.000000 -60.708740 114.000000 144.000000 0.725760 0.055828 -0.685679
11310.00000000 8790.00000000 -400.00000000 113 42 178 97.000000 1.000000 4.000000 1.000000 -60.708740 114.000000 144.000000 0.960076 -0.069939 -0.270856
11310.00000000 8790.00000000 -410.00000000 113 42 178 97.000000 1.000000 4.000000 1.000000 -60.708740 114.000000 144.000000 0.993723 0.016434 -0.110657
11290.00000000 8780.00000000 -440.00000000 113 42 178 97.000000 1.000000 4.000000 1.000000 -60.708740 114.000000 144.000000 0.995263 0.092659 0.029433
11310.00000000 8790.00000000 -430.00000000 113 42 178 97.000000 1.000000 4.000000 1.000000 -60.708740 114.000000 144.000000 0.905993 0.383360 -0.179476
11310.00000000 8770.00000000 -400.00000000 113 42 178 97.000000 1.000000 4.000000 1.000000 -60.708740 114.000000 144.000000 0.725760 0.055828 -0.685679
11300.00000000 8790.00000000 -430.00000000 113 42 178 97.000000 1.000000 4.000000 1.000000 -60.708740 114.000000 144.000000 0.920802 0.200669 -0.334449
11300.00000000 8800.00000000 -440.00000000 113 42 178 97.000000 1.000000 4.000000 1.000000 -60.708740 114.000000 144.000000 0.903276 0.414642 -0.110292
11300.00000000 8790.00000000 -440.00000000 113 42 178 97.000000 1.000000 4.000000 1.000000 -60.708740 114.000000 144.000000 0.989554 0.141365 0.028273
11300.00000000 8780.00000000 -410.00000000 113 42 178 97.000000 1.000000 4.000000 1.000000 -60.708740 114.000000 144.000000 0.910879 -0.172482 -0.374900
11300.00000000 8780.00000000 -410.00000000 113 42 178 97.000000 1.000000 4.000000 1.000000 -60.708740 114.000000 144.000000 0.910879 -0.172482 -0.374900
11310.00000000 8800.00000000 -410.00000000 113 42 178 97.000000 1.000000 4.000000 1.000000 -60.708740 114.000000 144.000000 0.949310 0.211109 -0.232901
11290.00000000 8790.00000000 -440.00000000 113 42 178 97.000000 1.000000 4.000000 1.000000 -60.708740 114.000000 144.000000 0.999034 0.021696 -0.038226
11300.00000000 8800.00000000 -410.00000000 113 42 178 97.000000 1.000000 4.000000 1.000000 -60.708740 114.000000 144.000000 0.878077 0.379342 -0.291685
11300.00000000 8800.00000000 -430.00000000 113 42 178 97.000000 1.000000 4.000000 1.000000 -60.708740 114.000000 144.000000 0.952651 0.222961 -0.206746
11300.00000000 8780.00000000 -440.00000000 113 42 178 97.000000 1.000000 4.000000 1.000000 -60.708740 114.000000 144.000000 0.943818 0.329768 0.021479
11300.00000000 8800.00000000 -440.00000000 113 42 178 97.000000 1.000000 4.000000 1.000000 -60.708740 114.000000 144.000000 0.903276 0.414642 -0.110292
11300.00000000 8780.00000000 -440.00000000 113 42 178 97.000000 1.000000 4.000000 1.000000 -60.708740 114.000000 144.000000 0.943818 0.329768 0.021479
11290.00000000 8770.00000000 -410.00000000 113 42 178 97.000000 1.000000 4.000000 1.000000 -60.708740 114.000000 144.000000 0.948893 0.106899 -0.296942
11300.00000000 8770.00000000 -430.00000000 113 42 178 97.000000 1.000000 4.000000 1.000000 -60.708740 114.000000 144.000000 0.950930 -0.095485 -0.294304
11310.00000000 8750.00000000 -360.00000000 113 42 178 97.000000 1.000000 4.000000 1.000000 -60.708740 114.000000 144.000000 0.770834 -0.474234 -0.425344
11290.00000000 8730.00000000 -360.00000000 113 42 178 97.000000 1.000000 4.000000 1.000000 -60.708740 114.000000 144.000000 0.835429 -0.457534 -0.304502
11300.00000000 8730.00000000 -380.00000000 113 42 178 97.000000 1.000000 4.000000 1.000000 -60.708740 114.000000 144.000000 0.985063 0.043133 -0.166703
11300.00000000 8740.00000000 -370.00000000 113 42 178 97.000000 1.000000 4.000000 1.000000 -60.708740 114.000000 144.000000 0.869268 -0.207252 -0.448799
11300.00000000 8740.00000000 -370.00000000 113 42 178 97.000000 1.000000 4.000000 1.000000 -60.708740 114.000000 144.000000 0.869268 -0.207252 -0.448799
11320.00000000 8740.00000000 -380.00000000 113 42 178 97.000000 1.000000 4.000000 1.000000 -60.708740 114.000000 144.000000 0.914187 -0.238295 -0.327837
11300.00000000 8730.00000000 -410.00000000 113 42 178 97.000000 1.000000 4.000000 1.000000 -60.708740 114.000000 144.000000 0.993783 -0.110420 -0.014213
11300.00000000 8730.00000000 -410.00000000 113 42 178 97.000000 1.000000 4.000000 1.000000 -60.708740 114.000000 144.000000 0.993783 -0.110420 -0.014213
11300.00000000 8750.00000000 -440.00000000 113 42 178 97.000000 1.000000 4.000000 1.000000 -60.708740 114.000000 144.000000 0.998261 0.034860 0.047536
11300.00000000 8760.00000000 -400.00000000 113 42 178 97.000000 1.000000 4.000000 1.000000 -60.708740 114.000000 144.000000 0.804546 0.166924 -0.569949
11300.00000000 8750.00000000 -420.00000000 113 42 178 97.000000 1.000000 4.000000 1.000000 -60.708740 114.000000 144.000000 0.974976 -0.077653 -0.208307
11300.00000000 8730.00000000 -420.00000000 113 42 178 97.000000 1.000000 4.000000 1.000000 -60.708740 114.000000 144.000000 0.989400 -0.075394 -0.124110
11300.00000000 8730.00000000 -420.00000000 113 42 178 97.000000 1.000000 4.000000 1.000000 -60.708740 114.000000 144.000000 0.989400 -0.075394 -0.124110
11320.00000000 8730.00000000 -400.00000000 113 42 178 97.000000 1.000000 4.000000 1.000000 -60.708740 114.000000 144.000000 0.827194 0.029097 -0.561162
11300.00000000 8730.00000000 -420.00000000 113 42 178 97.000000 1.000000 4.000000 1.000000 -60.708740 114.000000 144.000000 0.989400 -0.075394 -0.124110
11300.00000000 8760.00000000 -430.00000000 113 42 178 97.000000 1.000000 4.000000 1.000000 -60.708740 114.000000 144.000000 0.986394 -0.164210 0.007927
11300.00000000 8750.00000000 -440.00000000 113 42 178 97.000000 1.000000 4.000000 1.000000 -60.708740 114.000000 144.000000 0.998261 0.034860 0.047536
11320.00000000 8740.00000000 -400.00000000 113 42 178 97.000000 1.000000 4.000000 1.000000 -60.708740 114.000000 144.000000 0.991078 0.122031 -0.053603
11290.00000000 8780.00000000 -460.00000000 113 42 178 97.000000 1.000000 4.000000 1.000000 -60.708740 114.000000 144.000000 0.989041 -0.001110 -0.147635
11280.00000000 8770.00000000 -470.00000000 113 42 178 97.000000 1.000000 4.000000 1.000000 -60.708740 114.000000 144.000000 0.923388 -0.199996 -0.327654
11290.00000000 8770.00000000 -460.00000000 113 42 178 97.000000 1.000000 4.000000 1.000000 -60.708740 114.000000 144.000000 0.835181 0.200866 -0.511982
11300.00000000 8790.00000000 -460.00000000 113 42 178 97.000000 1.000000 4.000000 1.000000 -60.708740 114.000000 144.000000 0.760911 0.052821 -0.646703
11290.00000000 8770.00000000 -460.00000000 113 42 178 97.000000 1.000000 4.000000 1.000000 -60.708740 114.000000 144.000000 0.835181 0.200866 -0.511982
11290.00000000 8780.00000000 -450.00000000 113 42 178 97.000000 1.000000 4.000000 1.000000 -60.708740 114.000000 144.000000 0.969601 0.073625 -0.233353
11280.00000000 8800.00000000 -520.00000000 113 42 178 97.000000 1.000000 4.000000 1.000000 -60.708740 114.000000 144.000000 0.950837 0.202104 -0.234657
11290.00000000 8780.00000000 -490.00000000 113 42 178 97.000000 1.000000 4.000000 1.000000 -60.708740 114.000000 144.000000 0.917074 -0.129420 -0.377128
11280.00000000 8790.00000000 -520.00000000 113 42 178 97.000000 1.000000 4.000000 1.000000 -60.708740 114.000000 144.000000 0.990913 0.122293 -0.056003
11280.00000000 8770.00000000 -520.00000000 113 42 178 97.000000 1.000000 4.000000 1.000000 -60.708740 114.000000 144.000000 0.964894 -0.221472 -0.141172
11280.00000000 8770.00000000 -520.00000000 113 42 178 97.000000 1.000000 4.000000 1.000000 -60.708740 114.000000 144.000000 0.964894 -0.221472 -0.141172
11280.00000000 8770.00000000 -500.00000000 113 42 178 97.000000 1.000000 4.000000 1.000000 -60.708740 114.000000 144.000000 0.979090 -0.152248 -0.134919
11300.00000000 8800.00000000 -500.00000000 113 42 178 97.000000 1.000000 4.000000 1.000000 -60.708740 114.000000 144.000000 0.987298 -0.047455 -0.151625
11300.00000000 8800.00000000 -510.00000000 113 42 178 97.000000 1.000000 4.000000 1.000000 -60.708740 114.000000 144.000000 0.955743 0.225903 -0.188475
11280.00000000 8780.00000000 -500.00000000 113 42 178 97.000000 1.000000 4.000000 1.000000 -60.708740 114.000000 144.000000 0.962652 -0.106961 -0.248717
11290.00000000 8770.00000000 -490.00000000 113 42 178 97.000000 1.000000 4.000000 1.000000 -60.708740 114.000000 144.000000 0.735344 -0.058770 -0.675141
11300.00000000 8740.00000000 -450.00000000 113 42 178 97.000000 1.000000 4.000000 1.000000 -60.708740 114.000000 144.000000 0.994140 -0.020780 -0.106085
11300.00000000 8740.00000000 -450.00000000 113 42 178 97.000000 1.000000 4.000000 1.000000 -60.708740 114.000000 144.000000 0.994140 -0.020780 -0.106085
11290.00000000 8750.00000000 -470.00000000 113 42 178 97.000000 1.000000 4.000000 1.000000 -60.708740 114.000000 144.000000 0.979808 -0.197380 -0.031912
11290.00000000 8730.00000000 -450.00000000 113 42 178 97.000000 1.000000 4.000000 1.000000 -60.708740 114.000000 144.000000 0.908734 -0.410088 -0.077658
11300.00000000 8750.00000000 -460.00000000 113 42 178 97.000000 1.000000 4.000000 1.000000 -60.708740 114.000000 144.000000 0.994386 0.027469 -0.102186
11300.00000000 8750.00000000 -460.00000000 113 42 178 97.000000 1.000000 4.000000 1.000000 -60.708740 114.000000 144.000000 0.994386 0.027469 -0.102186
11290.00000000 8740.00000000 -470.00000000 113 42 178 97.000000 1.000000 4.000000 1.000000 -60.708740 114.000000 144.000000 0.979792 -0.058908 -0.191150
11290.00000000 8750.00000000 -470.00000000 113 42 178 97.000000 1.000000 4.000000 1.000000 -60.708740 114.000000 144.000000 0.979808 -0.197380 -0.031912
11290.00000000 8730.00000000 -480.00000000 113 42 178 97.000000 1.000000 4.000000 1.000000 -60.708740 114.000000 144.000000 0.955641 -0.228552 -0.185782
11290.00000000 8730.00000000 -460.00000000 113 42 178 97.000000 1.000000 4.000000 1.000000 -60.708740 114.000000 144.000000 0.919824 -0.388901 -0.051765
11300.00000000 8750.00000000 -450.00000000 113 42 178 97.000000 1.000000 4.000000 1.000000 -60.708740 114.000000 144.000000 0.994949 0.083005 -0.056443
11290.00000000 8730.00000000 -480.00000000 113 42 178 97.000000 1.000000 4.000000 1.000000 -60.708740 114.000000 144.000000 0.955641 -0.228552 -0.185782
11280.00000000 8750.00000000 -500.00000000 113 42 178 97.000000 1.000000 4.000000 1.000000 -60.708740 114.000000 144.000000 0.786527 -0.018033 -0.617292
11280.00000000 8750.00000000 -500.00000000 113 42 178 97.000000 1.000000 4.000000 1.000000 -60.708740 114.000000 144.000000 0.786527 -0.018033 -0.617292
11280.00000000 8760.00000000 -490.00000000 113 42 178 97.000000 1.000000 4.000000 1.000000 -60.708740 114.000000 144.000000 0.764951 0.205532 -0.610415
11280.00000000 8760.00000000 -510.00000000 113 42 178 97.000000 1.000000 4.000000 1.000000 -60.708740 114.000000 144.000000 0.920223 -0.182348 -0.346321
11300.00000000 8730.00000000 -520.00000000 113 42 178 97.000000 1.000000 4.000000 1.000000 -60.708740 114.000000 144.000000 0.943398 -0.331260 -0.016374
11280.00000000 8840.00000000 -540.00000000 113 42 178 97.000000 1.000000 4.000000 1.000000 -60.708740 114.000000 144.000000 0.569317 0.744492 -0.348727
11280.00000000 8830.00000000 -550.00000000 113 42 178 97.000000 1.000000 4.000000 1.000000 -60.708740 114.000000 144.000000 0.744076 0.628642 -0.226186
11290.00000000 8830.00000000 -530.00000000 113 42 178 97.000000 1.000000 4.000000 1.000000 -60.708740 114.000000 144.000000 0.758283 0.622930 -0.192262
11290.00000000 8830.00000000 -540.00000000 113 42 178 97.000000 1.000000 4.000000 1.000000 -60.708740 114.000000 144.000000 0.664767 0.705821 -0.244748
11280.00000000 8820.00000000 -590.00000000 113 42 178 97.000000 1.000000 4.000000 1.000000 -60.708740 114.000000 144.000000 0.942798 0.332079 -0.029264
11290.00000000 8820.00000000 -600.00000000 113 42 178 97.000000 1.000000 4.000000 1.000000 -60.708740 114.000000 144.000000 0.979176 0.188070 -0.076441
11280.00000000 8840.00000000 -580.00000000 113 42 178 97.000000 1.000000 4.000000 1.000000 -60.708740 114.000000 144.000000 0.682542 0.646704 -0.340456
11280.00000000 8830.00000000 -600.00000000 113 42 178 97.000000 1.000000 4.000000 1.000000 -60.708740 114.000000 144.000000 0.935283 0.352182 -0.034831
11280.00000000 8860.00000000 -630.00000000 113 42 178 97.000000 1.000000 4.000000 1.000000 -60.708740 114.000000 144.000000 0.849354 0.498307 -0.174036
11280.00000000 8810.00000000 -630.00000000 113 42 178 97.000000 1.000000 4.000000 1.000000 -60.708740 114.000000 144.000000 0.840217 0.233309 -0.489491
11280.00000000 8820.00000000 -630.00000000 113 42 178 97.000000 1.000000 4.000000 1.000000 -60.708740 114.000000 144.000000 0.981951 0.169884 -0.083135
11330.00000000 8800.00000000 -580.00000000 113 42 178 97.000000 1.000000 4.000000 1.000000 -60.708740 114.000000 144.000000 0.700752 0.330052 -0.632465
11280.00000000 8790.00000000 -560.00000000 113 42 178 97.000000 1.000000 4.000000 1.000000 -60.708740 114.000000 144.000000 0.978748 0.194782 0.064121
11280.00000000 8780.00000000 -540.00000000 113 42 178 97.000000 1.000000 4.000000 1.000000 -60.708740 114.000000 144.000000 0.993137 -0.084932 -0.080402
11300.00000000 8800.00000000 -530.00000000 113 42 178 97.000000 1.000000 4.000000 1.000000 -60.708740 114.000000 144.000000 0.858353 0.138444 -0.494027
11290.00000000 8790.00000000 -540.00000000 113 42 178 97.000000 1.000000 4.000000 1.000000 -60.708740 114.000000 144.000000 0.797834 0.006866 -0.602838
11290.00000000 8790.00000000 -540.00000000 113 42 178 97.000000 1.000000 4.000000 1.000000 -60.708740 114.000000 144.000000 0.797834 0.006866 -0.602838
11290.00000000 8800.00000000 -540.00000000 113 42 178 97.000000 1.000000 4.000000 1.000000 -60.708740 114.000000 144.000000 0.931529 0.153185 -0.329830
11280.00000000 8800.00000000 -550.00000000 113 42 178 97.000000 1.000000 4.000000 1.000000 -60.708740 114.000000 144.000000 0.849950 0.414875 -0.324752
11290.00000000 8790.00000000 -570.00000000 113 42 178 97.000000 1.000000 4.000000 1.000000 -60.708740 114.000000 144.000000 0.899114 0.429531 -0.084249
11280.00000000 8790.00000000 -570.00000000 113 42 178 97.000000 1.000000 4.000000 1.000000 -60.708740 114.000000 144.000000 0.975743 0.217492 0.024958
11280.00000000 8790.00000000 -600.00000000 113 42 178 97.000000 1.000000 4.000000 1.000000 -60.708740 114.000000 144.000000 0.948354 0.042008 -0.314421
11290.00000000 8780.00000000 -600.00000000 113 42 178 97.000000 1.000000 4.000000 1.000000 -60.708740 114.000000 144.000000 0.922759 0.206163 -0.325596
11280.00000000 8790.00000000 -590.00000000 113 42 178 97.000000 1.000000 4.000000 1.000000 -60.708740 114.000000 144.000000 0.938766 0.254510 -0.232258
11280.00000000 8740.00000000 -530.00000000 113 42 178 97.000000 1.000000 4.000000 1.000000 -60.708740 114.000000 144.000000 0.965438 -0.213822 -0.149027
11280.00000000 8740.00000000 -550.00000000 113 42 178 97.000000 1.000000 4.000000 1.000000 -60.708740 114.000000 144.000000 0.868881 0.271431 -0.413970
11280.00000000 8750.00000000 -560.00000000 113 42 178 97.000000 1.000000 4.000000 1.000000 -60.708740 114.000000 144.000000 0.960159 0.151051 -0.235114
11310.00000000 8740.00000000 -540.00000000 113 42 178 97.000000 1.000000 4.000000 1.000000 -60.708740 114.000000 144.000000 0.997524 0.005234 -0.070130
11280.00000000 8730.00000000 -590.00000000 113 42 178 97.000000 1.000000 4.000000 1.000000 -60.708740 114.000000 144.000000 0.909199 -0.415896 0.019680
11280.00000000 8730.00000000 -580.00000000 113 42 178 97.000000 1.000000 4.000000 1.000000 -60.708740 114.000000 144.000000 0.947397 -0.306163 -0.093294
11280.00000000 8730.00000000 -590.00000000 113 42 178 97.000000 1.000000 4.000000 1.000000 -60.708740 114.000000 144.000000 0.909199 -0.415896 0.019680
11290.00000000 8730.00000000 -570.00000000 113 42 178 97.000000 1.000000 4.000000 1.000000 -60.708740 114.000000 144.000000 0.881576 -0.396634 -0.255941
11280.00000000 8800.00000000 -650.00000000 113 42 178 97.000000 1.000000 4.000000 1.000000 -60.708740 114.000000 144.000000 0.787584 0.508481 -0.348077
11280.00000000 8790.00000000 -640.00000000 113 42 178 97.000000 1.000000 4.000000 1.000000 -60.708740 114.000000 144.000000 0.864636 0.490199 -0.110045
11280.00000000 8740.00000000 -630.00000000 113 42 178 97.000000 1.000000 4.000000 1.000000 -60.708740 114.000000 144.000000 0.788306 -0.100915 -0.606952
11290.00000000 8750.00000000 -620.00000000 113 42 178 97.000000 1.000000 4.000000 1.000000 -60.708740 114.000000 144.000000 0.891663 -0.114099 -0.438084
11280.00000000 8740.00000000 -630.00000000 113 42 178 97.000000 1.000000 4.000000 1.000000 -60.708740 114.000000 144.000000 0.788306 -0.100915 -0.606952
11290.00000000 8750.00000000 -620.00000000 113 42 178 97.000000 1.000000 4.000000 1.000000 -60.708740 114.000000 144.000000 0.891663 -0.114099 -0.438084
11280.00000000 8750.00000000 -690.00000000 113 42 178 97.000000 1.000000 4.000000 1.000000 -60.708740 114.000000 144.000000 0.970329 -0.152133 -0.187929
11290.00000000 8760.00000000 -670.00000000 113 42 178 97.000000 1.000000 4.000000 1.000000 -60.708740 114.000000 144.000000 0.977320 -0.211026 -0.017684
11280.00000000 8750.00000000 -690.00000000 113 42 178 97.000000 1.000000 4.000000 1.000000 -60.708740 114.000000 144.000000 0.970329 -0.152133 -0.187929
11270.00000000 8900.00000000 -380.00000000 113 42 178 97.000000 1.000000 4.000000 1.000000 -60.708740 114.000000 144.000000 0.618673 0.775938 -0.123141
11260.00000000 8910.00000000 -360.00000000 113 42 178 97.000000 1.000000 4.000000 1.000000 -60.708740 114.000000 144.000000 0.440570 0.876720 0.193026
11250.00000000 8910.00000000 -360.00000000 113 42 178 97.000000 1.000000 4.000000 1.000000 -60.708740 114.000000 144.000000 0.386323 0.894564 0.224743
11250.00000000 8910.00000000 -440.00000000 113 42 178 97.000000 1.000000 4.000000 1.000000 -60.708740 114.000000 144.000000 0.084913 0.925958 -0.367957
11250.00000000 8910.00000000 -440.00000000 113 42 178 97.000000 1.000000 4.000000 1.000000 -60.708740 114.000000 144.000000 0.084913 0.925958 -0.367957
11250.00000000 8930.00000000 -410.00000000 113 42 178 97.000000 1.000000 4.000000 1.000000 -60.708740 114.000000 144.000000 0.103198 0.880714 -0.462269
11260.00000000 8900.00000000 -440.00000000 113 42 178 97.000000 1.000000 4.000000 1.000000 -60.708740 114.000000 144.000000 0.488835 0.785685 -0.379129
11230.00000000 8940.00000000 -420.00000000 113 42 178 97.000000 1.000000 4.000000 1.000000 -60.708740 114.000000 144.000000 0.204586 0.956071 -0.209935
11230.00000000 8900.00000000 -370.00000000 113 42 178 97.000000 1.000000 4.000000 1.000000 -60.708740 114.000000 144.000000 0.434363 0.895263 -0.099163
11230.00000000 8910.00000000 -360.00000000 113 42 178 97.000000 1.000000 4.000000 1.000000 -60.708740 114.000000 144.000000 0.181874 0.964327 -0.192342
11220.00000000 8930.00000000 -390.00000000 113 42 178 97.000000 1.000000 4.000000 1.000000 -60.708740 114.000000 144.000000 0.351535 0.936167 0.003780
11200.00000000 8930.00000000 -360.00000000 113 42 178 97.000000 1.000000 4.000000 1.000000 -60.708740 114.000000 144.000000 -0.021087 0.956341 -0.291492
11230.00000000 8930.00000000 -370.00000000 113 42 178 97.000000 1.000000 4.000000 1.000000 -60.708740 114.000000 144.000000 -0.124925 0.988890 0.080559
11230.00000000 8900.00000000 -390.00000000 113 42 178 97.000000 1.000000 4.000000 1.000000 -60.708740 114.000000 144.000000 0.532735 0.845457 0.037361
11200.00000000 8930.00000000 -360.00000000 113 42 178 97.000000 1.000000 4.000000 1.000000 -60.708740 114.000000 144.000000 -0.021087 0.956341 -0.291492
11210.00000000 8930.00000000 -400.00000000 113 42 178 97.000000 1.000000 4.000000 1.000000 -60.708740 114.000000 144.000000 0.435465 0.897030 -0.075554
11230.00000000 8920.00000000 -400.00000000 113 42 178 97.000000 1.000000 4.000000 1.000000 -60.708740 114.000000 144.000000 0.231570 0.946832 -0.223348
11210.00000000 8930.00000000 -440.00000000 113 42 178 97.000000 1.000000 4.000000 1.000000 -60.708740 114.000000 144.000000 0.152884 0.978212 -0.140455
11210.00000000 8930.00000000 -400.00000000 113 42 178 97.000000 1.000000 4.000000 1.000000 -60.708740 114.000000 144.000000 0.435465 0.897030 -0.075554
11200.00000000 8930.00000000 -410.00000000 113 42 178 97.000000 1.000000 4.000000 1.000000 -60.708740 114.000000 144.000000 -0.123381 0.988226 0.090480
11200.00000000 8930.00000000 -400.00000000 113 42 178 97.000000 1.000000 4.000000 1.000000 -60.708740 114.000000 144.000000 0.073177 0.971148 -0.226973
11210.00000000 8930.00000000 -430.00000000 113 42 178 97.000000 1.000000 4.000000 1.000000 -60.708740 114.000000 144.000000 0.408474 0.900921 -0.146595
11210.00000000 8930.00000000 -410.00000000 113 42 178 97.000000 1.000000 4.000000 1.000000 -60.708740 114.000000 144.000000 0.343466 0.933421 0.103713
11220.00000000 8910.00000000 -410.00000000 113 42 178 97.000000 1.000000 4.000000 1.000000 -60.708740 114.000000 144.000000 0.150455 0.968315 0.199321
11200.00000000 8930.00000000 -410.00000000 113 42 178 97.000000 1.000000 4.000000 1.000000 -60.708740 114.000000 144.000000 -0.123381 0.988226 0.090480
11230.00000000 8920.00000000 -420.00000000 113 42 178 97.000000 1.000000 4.000000 1.000000 -60.708740 114.000000 144.000000 0.491481 0.870584 -0.023017
11200.00000000 8930.00000000 -430.00000000 113 42 178 97.000000 1.000000 4.000000 1.000000 -60.708740 114.000000 144.000000 0.161239 0.985088 -0.060023
11230.00000000 8910.00000000 -400.00000000 113 42 178 97.000000 1.000000 4.000000 1.000000 -60.708740 114.000000 144.000000 0.409425 0.885364 0.220232
11230.00000000 8910.00000000 -410.00000000 113 42 178 97.000000 1.000000 4.000000 1.000000 -60.708740 114.000000 144.000000 0.397201 0.904024 -0.158026
11210.00000000 8930.00000000 -420.00000000 113 42 178 97.000000 1.000000 4.000000 1.000000 -60.708740 114.000000 144.000000 0.356155 0.933773 -0.034968
11200.00000000 8930.00000000 -430.00000000 113 42 178 97.000000 1.000000 4.000000 1.000000 -60.708740 114.000000 144.000000 0.161239 0.985088 -0.060023
11240.00000000 8910.00000000 -450.00000000 113 42 178 97.000000 1.000000 4.000000 1.000000 -60.708740 114.000000 144.000000 0.311741 0.950127 -0.008694
11240.00000000 8910.00000000 -460.00000000 113 42 178 97.000000 1.000000 4.000000 1.000000 -60.708740 114.000000 144.000000 0.509812 0.798865 -0.319228
11240.00000000 8900.00000000 -450.00000000 113 42 178 97.000000 1.000000 4.000000 1.000000 -60.708740 114.000000 144.000000 0.605937 0.787865 -0.110037
11250.00000000 8900.00000000 -460.00000000 113 42 178 97.000000 1.000000 4.000000 1.000000 -60.708740 114.000000 144.000000 0.587815 0.769646 -0.249234
11250.00000000 8900.00000000 -460.00000000 113 42 178 97.000000 1.000000 4.000000 1.000000 -60.708740 114.000000 144.000000 0.587815 0.769646 -0.249234
11240.00000000 8910.00000000 -510.00000000 113 42 178 97.000000 1.000000 4.000000 1.000000 -60.708740 114.000000 144.000000 0.381147 0.776890 -0.501167
11220.00000000 8940.00000000 -450.00000000 113 42 178 97.000000 1.000000 4.000000 1.000000 -60.708740 114.000000 144.000000 -0.073154 0.956138 0.283633
11200.00000000 8910.00000000 -450.00000000 113 42 178 97.000000 1.000000 4.000000 1.000000 -60.708740 114.000000 144.000000 0.451821 0.891576 0.030836
11210.00000000 8910.00000000 -460.00000000 113 42 178 97.000000 1.000000 4.000000 1.000000 -60.708740 114.000000 144.000000 0.348293 0.936920 0.029560
11200.00000000 8910.00000000 -470.00000000 113 42 178 97.000000 1.000000 4.000000 1.000000 -60.708740 114.000000 144.000000 -0.009008 0.999847 -0.015013
11200.00000000 8910.00000000 -480.00000000 113 42 178 97.000000 1.000000 4.000000 1.000000 -60.708740 114.000000 144.000000 -0.064364 0.977602 -0.200378
11210.00000000 8910.00000000 -450.00000000 113 42 178 97.000000 1.000000 4.000000 1.000000 -60.708740 114.000000 144.000000 0.277675 0.872476 -0.402098
11230.00000000 8910.00000000 -460.00000000 113 42 178 97.000000 1.000000 4.000000 1.000000 -60.708740 114.000000 144.000000 -0.012159 0.991527 -0.129330
11230.00000000 8910.00000000 -450.00000000 113 42 178 97.000000 1.000000 4.000000 1.000000 -60.708740 114.000000 144.000000 0.190162 0.973478 0.127194
11230.00000000 8910.00000000 -470.00000000 113 42 178 97.000000 1.000000 4.000000 1.000000 -60.708740 114.000000 144.000000 0.314418 0.908156 -0.276395
11220.00000000 8910.00000000 -450.00000000 113 42 178 97.000000 1.000000 4.000000 1.000000 -60.708740 114.000000 144.000000 -0.109115 0.991222 -0.074657
11220.00000000 8910.00000000 -470.00000000 113 42 178 97.000000 1.000000 4.000000 1.000000 -60.708740 114.000000 144.000000 0.568025 0.812940 -0.128359
11230.00000000 8920.00000000 -450.00000000 113 42 178 97.000000 1.000000 4.000000 1.000000 -60.708740 114.000000 144.000000 0.418227 0.907272 0.044094
11230.00000000 8910.00000000 -470.00000000 113 42 178 97.000000 1.000000 4.000000 1.000000 -60.708740 114.000000 144.000000 0.314418 0.908156 -0.276395
11220.00000000 8910.00000000 -500.00000000 113 42 178 97.000000 1.000000 4.000000 1.000000 -60.708740 114.000000 144.000000 0.115733 0.993104 -0.018738
11200.00000000 8920.00000000 -490.00000000 113 42 178 97.000000 1.000000 4.000000 1.000000 -60.708740 114.000000 144.000000 0.071754 0.997063 -0.026774
11220.00000000 8900.00000000 -500.00000000 113 42 178 97.000000 1.000000 4.000000 1.000000 -60.708740 114.000000 144.000000 0.629092 0.749655 -0.205575
11210.00000000 8900.00000000 -510.00000000 113 42 178 97.000000 1.000000 4.000000 1.000000 -60.708740 114.000000 144.000000 0.402508 0.903153 -0.149340
11210.00000000 8900.00000000 -490.00000000 113 42 178 97.000000 1.000000 4.000000 1.000000 -60.708740 114.000000 144.000000 0.516330 0.835462 -0.188167
11160.00000000 8940.00000000 -380.00000000 113 42 178 97.000000 1.000000 4.000000 1.000000 -60.708740 114.000000 144.000000 -0.181581 0.975530 -0.123976
11160.00000000 8940.00000000 -370.00000000 113 42 178 97.000000 1.000000 4.000000 1.000000 -60.708740 114.000000 144.000000 -0.185278 0.982321 -0.026801
11160.00000000 8950.00000000 -370.00000000 113 42 178 97.000000 1.000000 4.000000 1.000000 -60.708740 114.000000 144.000000 -0.119341 0.973573 -0.194715
11170.00000000 8940.00000000 -370.00000000 113 42 178 97.000000 1.000000 4.000000 1.000000 -60.708740 114.000000 144.000000 0.186846 0.982373 0.005731
11180.00000000 8940.00000000 -370.00000000 113 42 178 97.000000 1.000000 4.000000 1.000000 -60.708740 114.000000 144.000000 0.143127 0.987924 -0.059345
11160.00000000 8940.00000000 -390.00000000 113 42 178 97.000000 1.000000 4.000000 1.000000 -60.708740 114.000000 144.000000 -0.166719 0.985160 -0.040805
11160.00000000 8940.00000000 -440.00000000 113 42 178 97.000000 1.000000 4.000000 1.000000 -60.708740 114.000000 144.000000 0.131896 0.979978 -0.149154
11190.00000000 8940.00000000 -430.00000000 113 42 178 97.000000 1.000000 4.000000 1.000000 -60.708740 114.000000 144.000000 0.265664 0.913131 -0.309216
11160.00000000 8940.00000000 -430.00000000 113 42 178 97.000000 1.000000 4.000000 1.000000 -60.708740 114.000000 144.000000 0.245605 0.969369 -0.001186
11180.00000000 8950.00000000 -420.00000000 113 42 178 97.000000 1.000000 4.000000 1.000000 -60.708740 114.000000 144.000000 0.134070 0.941196 -0.310121
11160.00000000 8940.00000000 -400.00000000 113 42 178 97.000000 1.000000 4.000000 1.000000 -60.708740 114.000000 144.000000 0.117118 0.984033 0.134022
11170.00000000 8940.00000000 -440.00000000 113 42 178 97.000000 1.000000 4.000000 1.000000 -60.708740 114.000000 144.000000 0.237843 0.969857 0.052991
11160.00000000 8950.00000000 -400.00000000 113 42 178 97.000000 1.000000 4.000000 1.000000 -60.708740 114.000000 144.000000 -0.130517 0.965310 0.226144
11160.00000000 8910.00000000 -370.00000000 113 42 178 97.000000 1.000000 4.000000 1.000000 -60.708740 114.000000 144.000000 -0.301116 0.923326 -0.238324
11180.00000000 8910.00000000 -370.00000000 113 42 178 97.000000 1.000000 4.000000 1.000000 -60.708740 114.000000 144.000000 -0.155365 0.978176 -0.137964
11190.00000000 8910.00000000 -390.00000000 113 42 178 97.000000 1.000000 4.000000 1.000000 -60.708740 114.000000 144.000000 0.155584 0.945677 -0.285462
11160.00000000 8910.00000000 -370.00000000 113 42 178 97.000000 1.000000 4.000000 1.000000 -60.708740 114.000000 144.000000 -0.301116 0.923326 -0.238324
11170.00000000 8910.00000000 -390.00000000 113 42 178 97.000000 1.000000 4.000000 1.000000 -60.708740 114.000000 144.000000 -0.249637 0.925796 -0.283873
11160.00000000 8930.00000000 -440.00000000 113 42 178 97.000000 1.000000 4.000000 1.000000 -60.708740 114.000000 144.000000 0.089626 0.968210 -0.233532
11190.00000000 8930.00000000 -430.00000000 113 42 178 97.000000 1.000000 4.000000 1.000000 -60.708740 114.000000 144.000000 0.063331 0.997202 0.039716
11180.00000000 8930.00000000 -440.00000000 113 42 178 97.000000 1.000000 4.000000 1.000000 -60.708740 114.000000 144.000000 0.345854 0.926443 -0.148620
11170.00000000 8910.00000000 -400.00000000 113 42 178 97.000000 1.000000 4.000000 1.000000 -60.708740 114.000000 144.000000 -0.265856 0.952539 0.148291
11190.00000000 8930.00000000 -440.00000000 113 42 178 97.000000 1.000000 4.000000 1.000000 -60.708740 114.000000 144.000000 0.310578 0.905239 -0.289971
11170.00000000 8910.00000000 -400.00000000 113 42 178 97.000000 1.000000 4.000000 1.000000 -60.708740 114.000000 144.000000 -0.265856 0.952539 0.148291
11180.00000000 8930.00000000 -440.00000000 113 42 178 97.000000 1.000000 4.000000 1.000000 -60.708740 114.000000 144.000000 0.345854 0.926443 -0.148620
11190.00000000 8930.00000000 -410.00000000 113 42 178 97.000000 1.000000 4.000000 1.000000 -60.708740 114.000000 144.000000 0.150659 0.981120 -0.121262
11190.00000000 8930.00000000 -440.00000000 113 42 178 97.000000 1.000000 4.000000 1.000000 -60.708740 114.000000 144.000000 0.310578 0.905239 -0.289971
11130.00000000 8940.00000000 -370.00000000 113 42 178 97.000000 1.000000 4.000000 1.000000 -60.708740 114.000000 144.000000 -0.131026 0.984498 -0.116601
11150.00000000 8940.00000000 -390.00000000 113 42 178 97.000000 1.000000 4.000000 1.000000 -60.708740 114.000000 144.000000 -0.192847 0.978790 -0.069134
11120.00000000 8940.00000000 -390.00000000 113 42 178 97.000000 1.000000 4.000000 1.000000 -60.708740 114.000000 144.000000 -0.039166 0.998196 -0.045517
11150.00000000 8940.00000000 -370.00000000 113 42 178 97.000000 1.000000 4.000000 1.000000 -60.708740 114.000000 144.000000 -0.007089 0.999544 -0.029369
11150.00000000 8940.00000000 -370.00000000 113 42 178 97.000000 1.000000 4.000000 1.000000 -60.708740 114.000000 144.000000 -0.007089 0.999544 -0.029369
11150.00000000 8940.00000000 -390.00000000 113 42 178 97.000000 1.000000 4.000000 1.000000 -60.708740 114.000000 144.000000 -0.192847 0.978790 -0.069134
11140.00000000 8950.00000000 -360.00000000 113 42 178 97.000000 1.000000 4.000000 1.000000 -60.708740 114.000000 144.000000 0.061658 0.998031 0.011496
11150.00000000 8940.00000000 -360.00000000 113 42 178 97.000000 1.000000 4.000000 1.000000 -60.708740 114.000000 144.000000 0.038090 0.967006 0.251889
11120.00000000 8940.00000000 -360.00000000 113 42 178 97.000000 1.000000 4.000000 1.000000 -60.708740 114.000000 144.000000 -0.118918 0.987847 -0.100080
11140.00000000 8940.00000000 -410.00000000 113 42 178 97.000000 1.000000 4.000000 1.000000 -60.708740 114.000000 144.000000 -0.188156 0.961833 0.198682
11130.00000000 8940.00000000 -440.00000000 113 42 178 97.000000 1.000000 4.000000 1.000000 -60.708740 114.000000 144.000000 -0.054951 0.998446 0.009331
11140.00000000 8940.00000000 -420.00000000 113 42 178 97.000000 1.000000 4.000000 1.000000 -60.708740 114.000000 144.000000 -0.134269 0.975021 -0.176934
11150.00000000 8940.00000000 -410.00000000 113 42 178 97.000000 1.000000 4.000000 1.000000 -60.708740 114.000000 144.000000 -0.001085 0.992979 0.118289
11130.00000000 8940.00000000 -420.00000000 113 42 178 97.000000 1.000000 4.000000 1.000000 -60.708740 114.000000 144.000000 -0.474330 0.878541 0.056370
11130.00000000 8940.00000000 -420.00000000 113 42 178 97.000000 1.000000 4.000000 1.000000 -60.708740 114.000000 144.000000 -0.474330 0.878541 0.056370
11120.00000000 8940.00000000 -430.00000000 113 42 178 97.000000 1.000000 4.000000 1.000000 -60.708740 114.000000 144.000000 -0.567569 0.781390 0.259415
11140.00000000 8940.00000000 -440.00000000 113 42 178 97.000000 1.000000 4.000000 1.000000 -60.708740 114.000000 144.000000 -0.058414 0.990741 0.122554
11130.00000000 8940.00000000 -420.00000000 113 42 178 97.000000 1.000000 4.000000 1.000000 -60.708740 114.000000 144.000000 -0.474330 0.878541 0.056370
11130.00000000 8940.00000000 -430.00000000 113 42 178 97.000000 1.000000 4.000000 1.000000 -60.708740 114.000000 144.000000 -0.290546 0.956431 -0.028680
11130.00000000 8940.00000000 -410.00000000 113 42 178 97.000000 1.000000 4.000000 1.000000 -60.708740 114.000000 144.000000 -0.220456 0.974586 -0.039754
11150.00000000 8900.00000000 -370.00000000 113 42 178 97.000000 1.000000 4.000000 1.000000 -60.708740 114.000000 144.000000 -0.257273 0.938700 -0.229460
11120.00000000 8930.00000000 -380.00000000 113 42 178 97.000000 1.000000 4.000000 1.000000 -60.708740 114.000000 144.000000 -0.313167 0.944787 -0.096461
11120.00000000 8930.00000000 -420.00000000 113 42 178 97.000000 1.000000 4.000000 1.000000 -60.708740 114.000000 144.000000 -0.535196 0.838138 0.105308
11150.00000000 8920.00000000 -440.00000000 113 42 178 97.000000 1.000000 4.000000 1.000000 -60.708740 114.000000 144.000000 -0.066770 0.900720 0.429239
11160.00000000 8940.00000000 -510.00000000 113 42 178 97.000000 1.000000 4.000000 1.000000 -60.708740 114.000000 144.000000 0.390728 0.920352 0.016875
11170.00000000 8930.00000000 -470.00000000 113 42 178 97.000000 1.000000 4.000000 1.000000 -60.708740 114.000000 144.000000 -0.247201 0.967895 0.045505
11170.00000000 8930.00000000 -470.00000000 113 42 178 97.000000 1.000000 4.000000 1.000000 -60.708740 114.000000 144.000000 -0.247201 0.967895 0.045505
11160.00000000 8920.00000000 -470.00000000 113 42 178 97.000000 1.000000 4.000000 1.000000 -60.708740 114.000000 144.000000 -0.405281 0.875347 0.263659
11180.00000000 8900.00000000 -470.00000000 113 42 178 97.000000 1.000000 4.000000 1.000000 -60.708740 114.000000 144.000000 0.020077 0.976680 0.213759
11180.00000000 8900.00000000 -450.00000000 113 42 178 97.000000 1.000000 4.000000 1.000000 -60.708740 114.000000 144.000000 -0.117979 0.992145 0.041573
11160.00000000 8930.00000000 -480.00000000 113 42 178 97.000000 1.000000 4.000000 1.000000 -60.708740 114.000000 144.000000 -0.148277 0.985747 0.079477
11160.00000000 8920.00000000 -470.00000000 113 42 178 97.000000 1.000000 4.000000 1.000000 -60.708740 114.000000 144.000000 -0.405281 0.875347 0.263659
11170.00000000 8930.00000000 -470.00000000 113 42 178 97.000000 1.000000 4.000000 1.000000 -60.708740 114.000000 144.000000 -0.247201 0.967895 0.045505
11180.00000000 8930.00000000 -450.00000000 113 42 178 97.000000 1.000000 4.000000 1.000000 -60.708740 114.000000 144.000000 0.247681 0.967074 -0.058497
11190.00000000 8910.00000000 -470.00000000 113 42 178 97.000000 1.000000 4.000000 1.000000 -60.708740 114.000000 144.000000 -0.120253 0.988874 -0.087563
11180.00000000 8930.00000000 -460.00000000 113 42 178 97.000000 1.000000 4.000000 1.000000 -60.708740 114.000000 144.000000 0.201441 0.968711 -0.144986
11160.00000000 8930.00000000 -520.00000000 113 42 178 97.000000 1.000000 4.000000 1.000000 -60.708740 114.000000 144.000000 0.229218 0.923993 -0.306099
11180.00000000 8930.00000000 -510.00000000 113 42 178 97.000000 1.000000 4.000000 1.000000 -60.708740 114.000000 144.000000 0.322231 0.904894 0.278089
11190.00000000 8930.00000000 -520.00000000 113 42 178 97.000000 1.000000 4.000000 1.000000 -60.708740 114.000000 144.000000 0.054846 0.973821 0.220603
11190.00000000 8910.00000000 -490.00000000 113 42 178 97.000000 1.000000 4.000000 1.000000 -60.708740 114.000000 144.000000 0.300808 0.935694 0.184366
11190.00000000 8930.00000000 -520.00000000 113 42 178 97.000000 1.000000 4.000000 1.000000 -60.708740 114.000000 144.000000 0.054846 0.973821 0.220603
11180.00000000 8930.00000000 -500.00000000 113 42 178 97.000000 1.000000 4.000000 1.000000 -60.708740 114.000000 144.000000 0.339470 0.935218 0.100633
