//X Y Z R G B PointSourceId ScanDirectionFlag NumberOfReturns ReturnNumber GpsTime Intensity Classification Nx Ny Nz
2970.00000000 -21710.00000000 110.00000000 248 205 29 0.000000 0.000000 0.000000 0.000000 -60.708740 0.000000 157.000000 0.029238 0.811689 0.583358
2970.00000000 -21710.00000000 110.00000000 248 205 29 0.000000 0.000000 0.000000 0.000000 -60.708740 0.000000 157.000000 0.029238 0.811689 0.583358
3020.00000000 -21730.00000000 10.00000000 248 205 29 0.000000 0.000000 0.000000 0.000000 -60.708740 0.000000 157.000000 -0.266330 0.927171 0.263482
2950.00000000 -21750.00000000 40.00000000 248 205 29 0.000000 0.000000 0.000000 0.000000 -60.708740 0.000000 157.000000 0.140206 0.871588 0.469762
2910.00000000 -21690.00000000 110.00000000 248 205 29 0.000000 0.000000 0.000000 0.000000 -60.708740 0.000000 157.000000 -0.122688 0.793779 0.595704
2920.00000000 -21680.00000000 100.00000000 248 205 29 0.000000 0.000000 0.000000 0.000000 -60.708740 0.000000 157.000000 -0.151203 0.800924 0.579360
2900.00000000 -21730.00000000 80.00000000 248 205 29 0.000000 0.000000 0.000000 0.000000 -60.708740 0.000000 157.000000 0.098350 0.930957 0.351635
2890.00000000 -21690.00000000 120.00000000 248 205 29 0.000000 0.000000 0.000000 0.000000 -60.708740 0.000000 157.000000 0.049270 0.914831 0.400821
2940.00000000 -21710.00000000 0.00000000 248 205 29 0.000000 0.000000 0.000000 0.000000 -60.708740 0.000000 157.000000 -0.362171 0.790339 0.494163
2940.00000000 -21710.00000000 0.00000000 248 205 29 0.000000 0.000000 0.000000 0.000000 -60.708740 0.000000 157.000000 -0.362171 0.790339 0.494163
2930.00000000 -21700.00000000 0.00000000 248 205 29 0.000000 0.000000 0.000000 0.000000 -60.708740 0.000000 157.000000 0.150791 0.891819 0.426522
2940.00000000 -21710.00000000 0.00000000 248 205 29 0.000000 0.000000 0.000000 0.000000 -60.708740 0.000000 157.000000 -0.362171 0.790339 0.494163
2860.00000000 -21690.00000000 50.00000000 248 205 29 0.000000 0.000000 0.000000 0.000000 -60.708740 0.000000 157.000000 0.068749 0.996315 0.051289
2890.00000000 -21710.00000000 20.00000000 248 205 29 0.000000 0.000000 0.000000 0.000000 -60.708740 0.000000 157.000000 0.159828 0.975329 0.152277
2860.00000000 -21740.00000000 60.00000000 248 205 29 0.000000 0.000000 0.000000 0.000000 -60.708740 0.000000 157.000000 0.069694 0.961772 0.264836
2870.00000000 -21760.00000000 0.00000000 248 205 29 0.000000 0.000000 0.000000 0.000000 -60.708740 0.000000 157.000000 0.017048 0.999814 -0.009025
2830.00000000 -21750.00000000 300.00000000 248 205 29 0.000000 0.000000 0.000000 0.000000 -60.708740 0.000000 157.000000 -0.021109 0.992142 0.123323
2840.00000000 -21760.00000000 260.00000000 248 205 29 0.000000 0.000000 0.000000 0.000000 -60.708740 0.000000 157.000000 -0.129841 0.988433 0.078373
2840.00000000 -21760.00000000 260.00000000 248 205 29 0.000000 0.000000 0.000000 0.000000 -60.708740 0.000000 157.000000 -0.129841 0.988433 0.078373
2840.00000000 -21760.00000000 240.00000000 248 205 29 0.000000 0.000000 0.000000 0.000000 -60.708740 0.000000 157.000000 0.112583 0.993570 -0.012023
2820.00000000 -21750.00000000 180.00000000 248 205 29 0.000000 0.000000 0.000000 0.000000 -60.708740 0.000000 157.000000 -0.085120 0.946800 0.310362
2840.00000000 -21750.00000000 150.00000000 248 205 29 0.000000 0.000000 0.000000 0.000000 -60.708740 0.000000 157.000000 -0.042962 0.998614 0.030388
2840.00000000 -21750.00000000 150.00000000 248 205 29 0.000000 0.000000 0.000000 0.000000 -60.708740 0.000000 157.000000 -0.042962 0.998614 0.030388
2820.00000000 -21740.00000000 170.00000000 248 205 29 0.000000 0.000000 0.000000 0.000000 -60.708740 0.000000 157.000000 -0.064903 0.991760 0.110449
2810.00000000 -21750.00000000 210.00000000 248 205 29 0.000000 0.000000 0.000000 0.000000 -60.708740 0.000000 157.000000 0.020974 0.999776 -0.002996
2850.00000000 -21730.00000000 130.00000000 248 205 29 0.000000 0.000000 0.000000 0.000000 -60.708740 0.000000 157.000000 0.137776 0.937152 0.320569
2840.00000000 -21740.00000000 90.00000000 248 205 29 0.000000 0.000000 0.000000 0.000000 -60.708740 0.000000 157.000000 -0.059893 0.996406 0.059893
2850.00000000 -21740.00000000 70.00000000 248 205 29 0.000000 0.000000 0.000000 0.000000 -60.708740 0.000000 157.000000 -0.027248 0.977387 0.209694
2850.00000000 -21740.00000000 -10.00000000 248 205 29 0.000000 0.000000 0.000000 0.000000 -60.708740 0.000000 157.000000 -0.034566 0.940976 0.336703
2780.00000000 -21750.00000000 30.00000000 248 205 29 0.000000 0.000000 0.000000 0.000000 -60.708740 0.000000 157.000000 -0.176887 0.963050 0.203092
2820.00000000 -21780.00000000 250.00000000 248 205 29 0.000000 0.000000 0.000000 0.000000 -60.708740 0.000000 157.000000 -0.223807 0.922312 0.315040
2800.00000000 -21780.00000000 300.00000000 248 205 29 0.000000 0.000000 0.000000 0.000000 -60.708740 0.000000 157.000000 -0.311253 0.928126 0.204216
2800.00000000 -21780.00000000 300.00000000 248 205 29 0.000000 0.000000 0.000000 0.000000 -60.708740 0.000000 157.000000 -0.311253 0.928126 0.204216
2800.00000000 -21780.00000000 310.00000000 248 205 29 0.000000 0.000000 0.000000 0.000000 -60.708740 0.000000 157.000000 -0.289254 0.941790 0.171359
2800.00000000 -21780.00000000 300.00000000 248 205 29 0.000000 0.000000 0.000000 0.000000 -60.708740 0.000000 157.000000 -0.311253 0.928126 0.204216
2800.00000000 -21780.00000000 250.00000000 248 205 29 0.000000 0.000000 0.000000 0.000000 -60.708740 0.000000 157.000000 -0.261619 0.964949 0.020686
2790.00000000 -21780.00000000 220.00000000 248 205 29 0.000000 0.000000 0.000000 0.000000 -60.708740 0.000000 157.000000 -0.035207 0.997528 -0.060812
2740.00000000 -21800.00000000 270.00000000 248 205 29 0.000000 0.000000 0.000000 0.000000 -60.708740 0.000000 157.000000 -0.171645 0.975995 0.134058
2760.00000000 -21810.00000000 240.00000000 248 205 29 0.000000 0.000000 0.000000 0.000000 -60.708740 0.000000 157.000000 -0.207706 0.978191 0.001160
2760.00000000 -21810.00000000 240.00000000 248 205 29 0.000000 0.000000 0.000000 0.000000 -60.708740 0.000000 157.000000 -0.207706 0.978191 0.001160
2730.00000000 -21820.00000000 240.00000000 248 205 29 0.000000 0.000000 0.000000 0.000000 -60.708740 0.000000 157.000000 -0.455811 0.868566 0.194499
2770.00000000 -21800.00000000 200.00000000 248 205 29 0.000000 0.000000 0.000000 0.000000 -60.708740 0.000000 157.000000 -0.241336 0.854543 0.459905
2760.00000000 -21800.00000000 180.00000000 248 205 29 0.000000 0.000000 0.000000 0.000000 -60.708740 0.000000 157.000000 -0.416591 0.903768 0.098266
2760.00000000 -21810.00000000 230.00000000 248 205 29 0.000000 0.000000 0.000000 0.000000 -60.708740 0.000000 157.000000 -0.198856 0.977199 -0.074418
2740.00000000 -21810.00000000 230.00000000 248 205 29 0.000000 0.000000 0.000000 0.000000 -60.708740 0.000000 157.000000 -0.433108 0.739413 0.515448
2750.00000000 -21830.00000000 190.00000000 248 205 29 0.000000 0.000000 0.000000 0.000000 -60.708740 0.000000 157.000000 -0.148186 0.951860 0.268336
2730.00000000 -21850.00000000 290.00000000 248 205 29 0.000000 0.000000 0.000000 0.000000 -60.708740 0.000000 157.000000 -0.436168 0.899842 0.006549
2730.00000000 -21850.00000000 290.00000000 248 205 29 0.000000 0.000000 0.000000 0.000000 -60.708740 0.000000 157.000000 -0.436168 0.899842 0.006549
2710.00000000 -21880.00000000 240.00000000 248 205 29 0.000000 0.000000 0.000000 0.000000 -60.708740 0.000000 157.000000 -0.503963 0.840942 0.197072
2700.00000000 -21900.00000000 300.00000000 248 205 29 0.000000 0.000000 0.000000 0.000000 -60.708740 0.000000 157.000000 -0.377759 0.925575 -0.024665
2720.00000000 -21900.00000000 300.00000000 248 205 29 0.000000 0.000000 0.000000 0.000000 -60.708740 0.000000 157.000000 -0.456773 0.837157 0.300878
2710.00000000 -21890.00000000 280.00000000 248 205 29 0.000000 0.000000 0.000000 0.000000 -60.708740 0.000000 157.000000 -0.630659 0.740203 0.233172
2710.00000000 -21900.00000000 280.00000000 248 205 29 0.000000 0.000000 0.000000 0.000000 -60.708740 0.000000 157.000000 -0.597706 0.798375 -0.073101
2710.00000000 -21900.00000000 290.00000000 248 205 29 0.000000 0.000000 0.000000 0.000000 -60.708740 0.000000 157.000000 -0.538787 0.823939 0.175594
2690.00000000 -21890.00000000 270.00000000 248 205 29 0.000000 0.000000 0.000000 0.000000 -60.708740 0.000000 157.000000 -0.547595 0.830783 0.099694
2710.00000000 -21880.00000000 230.00000000 248 205 29 0.000000 0.000000 0.000000 0.000000 -60.708740 0.000000 157.000000 -0.265169 0.957481 -0.113644
2710.00000000 -21880.00000000 150.00000000 248 205 29 0.000000 0.000000 0.000000 0.000000 -60.708740 0.000000 157.000000 -0.473197 0.865818 0.162616
2710.00000000 -21880.00000000 160.00000000 248 205 29 0.000000 0.000000 0.000000 0.000000 -60.708740 0.000000 157.000000 -0.642141 0.681355 0.351298
2720.00000000 -21880.00000000 160.00000000 248 205 29 0.000000 0.000000 0.000000 0.000000 -60.708740 0.000000 157.000000 -0.497305 0.850614 -0.170717
2720.00000000 -21880.00000000 160.00000000 248 205 29 0.000000 0.000000 0.000000 0.000000 -60.708740 0.000000 157.000000 -0.497305 0.850614 -0.170717
2720.00000000 -21900.00000000 220.00000000 248 205 29 0.000000 0.000000 0.000000 0.000000 -60.708740 0.000000 157.000000 -0.510920 0.773679 0.374675
2710.00000000 -21910.00000000 180.00000000 248 205 29 0.000000 0.000000 0.000000 0.000000 -60.708740 0.000000 157.000000 -0.477406 0.858142 -0.188880
2720.00000000 -21930.00000000 190.00000000 248 205 29 0.000000 0.000000 0.000000 0.000000 -60.708740 0.000000 157.000000 -0.496507 0.853048 -0.160591
2710.00000000 -21930.00000000 180.00000000 248 205 29 0.000000 0.000000 0.000000 0.000000 -60.708740 0.000000 157.000000 0.703083 -0.608028 -0.368750
2830.00000000 -21780.00000000 120.00000000 248 205 29 0.000000 0.000000 0.000000 0.000000 -60.708740 0.000000 157.000000 -0.085451 0.974641 0.206817
2790.00000000 -21770.00000000 110.00000000 248 205 29 0.000000 0.000000 0.000000 0.000000 -60.708740 0.000000 157.000000 -0.275200 0.961380 -0.003637
2790.00000000 -21790.00000000 130.00000000 248 205 29 0.000000 0.000000 0.000000 0.000000 -60.708740 0.000000 157.000000 -0.254611 0.967043 0.001195
2820.00000000 -21770.00000000 60.00000000 248 205 29 0.000000 0.000000 0.000000 0.000000 -60.708740 0.000000 157.000000 -0.106070 0.981448 0.159714
2810.00000000 -21770.00000000 30.00000000 248 205 29 0.000000 0.000000 0.000000 0.000000 -60.708740 0.000000 157.000000 -0.223803 0.974548 0.013026
2780.00000000 -21790.00000000 50.00000000 248 205 29 0.000000 0.000000 0.000000 0.000000 -60.708740 0.000000 157.000000 -0.269064 0.963029 0.013392
2790.00000000 -21770.00000000 30.00000000 248 205 29 0.000000 0.000000 0.000000 0.000000 -60.708740 0.000000 157.000000 -0.240899 0.969711 0.040354
2780.00000000 -21790.00000000 50.00000000 248 205 29 0.000000 0.000000 0.000000 0.000000 -60.708740 0.000000 157.000000 -0.269064 0.963029 0.013392
2800.00000000 -21770.00000000 60.00000000 248 205 29 0.000000 0.000000 0.000000 0.000000 -60.708740 0.000000 157.000000 -0.184775 0.963189 0.195259
2800.00000000 -21770.00000000 60.00000000 248 205 29 0.000000 0.000000 0.000000 0.000000 -60.708740 0.000000 157.000000 -0.184775 0.963189 0.195259
2800.00000000 -21780.00000000 10.00000000 248 205 29 0.000000 0.000000 0.000000 0.000000 -60.708740 0.000000 157.000000 -0.208007 0.971959 0.109676
2740.00000000 -21830.00000000 90.00000000 248 205 29 0.000000 0.000000 0.000000 0.000000 -60.708740 0.000000 157.000000 -0.344659 0.938727 -0.001253
2720.00000000 -21830.00000000 90.00000000 248 205 29 0.000000 0.000000 0.000000 0.000000 -60.708740 0.000000 157.000000 -0.310285 0.936372 0.164106
2720.00000000 -21830.00000000 90.00000000 248 205 29 0.000000 0.000000 0.000000 0.000000 -60.708740 0.000000 157.000000 -0.310285 0.936372 0.164106
2740.00000000 -21790.00000000 30.00000000 248 205 29 0.000000 0.000000 0.000000 0.000000 -60.708740 0.000000 157.000000 -0.336653 0.904112 0.263148
2770.00000000 -21790.00000000 50.00000000 248 205 29 0.000000 0.000000 0.000000 0.000000 -60.708740 0.000000 157.000000 -0.382496 0.900247 0.207973
2750.00000000 -21860.00000000 120.00000000 248 205 29 0.000000 0.000000 0.000000 0.000000 -60.708740 0.000000 157.000000 -0.586853 0.771516 0.245696
2770.00000000 -21910.00000000 110.00000000 248 205 29 0.000000 0.000000 0.000000 0.000000 -60.708740 0.000000 157.000000 -0.616366 0.704652 0.351509
2740.00000000 -21920.00000000 90.00000000 248 205 29 0.000000 0.000000 0.000000 0.000000 -60.708740 0.000000 157.000000 0.722506 -0.602359 -0.339334
2720.00000000 -21860.00000000 90.00000000 248 205 29 0.000000 0.000000 0.000000 0.000000 -60.708740 0.000000 157.000000 -0.448608 0.893198 0.030800
2730.00000000 -21890.00000000 80.00000000 248 205 29 0.000000 0.000000 0.000000 0.000000 -60.708740 0.000000 157.000000 -0.507478 0.812280 0.287519
2700.00000000 -21900.00000000 90.00000000 248 205 29 0.000000 0.000000 0.000000 0.000000 -60.708740 0.000000 157.000000 -0.549044 0.791316 0.269016
2700.00000000 -21880.00000000 60.00000000 248 205 29 0.000000 0.000000 0.000000 0.000000 -60.708740 0.000000 157.000000 0.686131 -0.670138 -0.283089
2710.00000000 -21870.00000000 40.00000000 248 205 29 0.000000 0.000000 0.000000 0.000000 -60.708740 0.000000 157.000000 -0.534766 0.844294 0.034546
2710.00000000 -21870.00000000 40.00000000 248 205 29 0.000000 0.000000 0.000000 0.000000 -60.708740 0.000000 157.000000 -0.534766 0.844294 0.034546
2680.00000000 -21910.00000000 20.00000000 248 205 29 0.000000 0.000000 0.000000 0.000000 -60.708740 0.000000 157.000000 0.730717 -0.629272 -0.264706
2700.00000000 -21960.00000000 920.00000000 248 205 29 0.000000 0.000000 0.000000 0.000000 -60.708740 0.000000 157.000000 -0.182844 0.970481 0.157272
2690.00000000 -21950.00000000 900.00000000 248 205 29 0.000000 0.000000 0.000000 0.000000 -60.708740 0.000000 157.000000 0.243934 0.969785 -0.003570
2700.00000000 -21990.00000000 880.00000000 248 205 29 0.000000 0.000000 0.000000 0.000000 -60.708740 0.000000 157.000000 -0.357483 0.858887 0.366768
2720.00000000 -21990.00000000 850.00000000 248 205 29 0.000000 0.000000 0.000000 0.000000 -60.708740 0.000000 157.000000 0.122059 0.902113 0.413877
2740.00000000 -22050.00000000 870.00000000 248 205 29 0.000000 0.000000 0.000000 0.000000 -60.708740 0.000000 157.000000 -0.347336 0.885632 0.308242
2750.00000000 -22070.00000000 840.00000000 248 205 29 0.000000 0.000000 0.000000 0.000000 -60.708740 0.000000 157.000000 0.235276 0.854583 0.462962
2710.00000000 -22020.00000000 880.00000000 248 205 29 0.000000 0.000000 0.000000 0.000000 -60.708740 0.000000 157.000000 -0.308834 0.799801 0.514723
2710.00000000 -21950.00000000 810.00000000 248 205 29 0.000000 0.000000 0.000000 0.000000 -60.708740 0.000000 157.000000 -0.129389 0.948406 0.289457
2710.00000000 -21950.00000000 810.00000000 248 205 29 0.000000 0.000000 0.000000 0.000000 -60.708740 0.000000 157.000000 -0.129389 0.948406 0.289457
2710.00000000 -21960.00000000 750.00000000 248 205 29 0.000000 0.000000 0.000000 0.000000 -60.708740 0.000000 157.000000 -0.263482 0.927171 0.266330
2710.00000000 -21960.00000000 760.00000000 248 205 29 0.000000 0.000000 0.000000 0.000000 -60.708740 0.000000 157.000000 0.204683 0.977931 0.041894
2700.00000000 -21980.00000000 770.00000000 248 205 29 0.000000 0.000000 0.000000 0.000000 -60.708740 0.000000 157.000000 -0.160518 0.964411 0.210108
2710.00000000 -22000.00000000 770.00000000 248 205 29 0.000000 0.000000 0.000000 0.000000 -60.708740 0.000000 157.000000 0.078314 0.996623 -0.024674
2700.00000000 -21980.00000000 770.00000000 248 205 29 0.000000 0.000000 0.000000 0.000000 -60.708740 0.000000 157.000000 -0.160518 0.964411 0.210108
2710.00000000 -21970.00000000 720.00000000 248 205 29 0.000000 0.000000 0.000000 0.000000 -60.708740 0.000000 157.000000 0.192121 0.946980 0.257524
2710.00000000 -21940.00000000 690.00000000 248 205 29 0.000000 0.000000 0.000000 0.000000 -60.708740 0.000000 157.000000 -0.601147 0.773342 0.201407
2700.00000000 -21960.00000000 680.00000000 248 205 29 0.000000 0.000000 0.000000 0.000000 -60.708740 0.000000 157.000000 -0.544648 0.820723 0.172547
2700.00000000 -21960.00000000 680.00000000 248 205 29 0.000000 0.000000 0.000000 0.000000 -60.708740 0.000000 157.000000 -0.544648 0.820723 0.172547
2710.00000000 -21990.00000000 710.00000000 248 205 29 0.000000 0.000000 0.000000 0.000000 -60.708740 0.000000 157.000000 -0.096519 0.834101 0.543102
2710.00000000 -21990.00000000 710.00000000 248 205 29 0.000000 0.000000 0.000000 0.000000 -60.708740 0.000000 157.000000 -0.096519 0.834101 0.543102
2720.00000000 -21990.00000000 700.00000000 248 205 29 0.000000 0.000000 0.000000 0.000000 -60.708740 0.000000 157.000000 -0.466179 0.880560 0.085396
2700.00000000 -21990.00000000 710.00000000 248 205 29 0.000000 0.000000 0.000000 0.000000 -60.708740 0.000000 157.000000 -0.095624 0.965170 0.243524
2700.00000000 -21990.00000000 660.00000000 248 205 29 0.000000 0.000000 0.000000 0.000000 -60.708740 0.000000 157.000000 -0.578652 0.813509 -0.058007
2700.00000000 -22000.00000000 690.00000000 248 205 29 0.000000 0.000000 0.000000 0.000000 -60.708740 0.000000 157.000000 -0.336686 0.908033 0.249235
2710.00000000 -22020.00000000 740.00000000 248 205 29 0.000000 0.000000 0.000000 0.000000 -60.708740 0.000000 157.000000 -0.101928 0.984504 -0.142699
2720.00000000 -22050.00000000 740.00000000 248 205 29 0.000000 0.000000 0.000000 0.000000 -60.708740 0.000000 157.000000 -0.124383 0.991702 -0.032496
2690.00000000 -22030.00000000 740.00000000 248 205 29 0.000000 0.000000 0.000000 0.000000 -60.708740 0.000000 157.000000 -0.339095 0.909589 0.240131
2710.00000000 -22020.00000000 740.00000000 248 205 29 0.000000 0.000000 0.000000 0.000000 -60.708740 0.000000 157.000000 -0.101928 0.984504 -0.142699
2730.00000000 -22060.00000000 810.00000000 248 205 29 0.000000 0.000000 0.000000 0.000000 -60.708740 0.000000 157.000000 -0.276908 0.958330 0.070184
2730.00000000 -22060.00000000 810.00000000 248 205 29 0.000000 0.000000 0.000000 0.000000 -60.708740 0.000000 157.000000 -0.276908 0.958330 0.070184
2720.00000000 -22060.00000000 810.00000000 248 205 29 0.000000 0.000000 0.000000 0.000000 -60.708740 0.000000 157.000000 -0.198756 0.856294 0.476715
2760.00000000 -22090.00000000 690.00000000 248 205 29 0.000000 0.000000 0.000000 0.000000 -60.708740 0.000000 157.000000 0.151902 0.904316 0.398921
2720.00000000 -22030.00000000 690.00000000 248 205 29 0.000000 0.000000 0.000000 0.000000 -60.708740 0.000000 157.000000 -0.171617 0.962891 -0.208299
2730.00000000 -22060.00000000 660.00000000 248 205 29 0.000000 0.000000 0.000000 0.000000 -60.708740 0.000000 157.000000 -0.070423 0.997490 -0.007358
2740.00000000 -22100.00000000 800.00000000 248 205 29 0.000000 0.000000 0.000000 0.000000 -60.708740 0.000000 157.000000 0.173209 0.883512 0.435206
2760.00000000 -22100.00000000 760.00000000 248 205 29 0.000000 0.000000 0.000000 0.000000 -60.708740 0.000000 157.000000 -0.222949 0.973422 -0.052387
2770.00000000 -22100.00000000 770.00000000 248 205 29 0.000000 0.000000 0.000000 0.000000 -60.708740 0.000000 157.000000 -0.222977 0.973543 0.049957
2770.00000000 -22110.00000000 710.00000000 248 205 29 0.000000 0.000000 0.000000 0.000000 -60.708740 0.000000 157.000000 -0.141586 0.988800 0.047195
2740.00000000 -22100.00000000 670.00000000 248 205 29 0.000000 0.000000 0.000000 0.000000 -60.708740 0.000000 157.000000 -0.075738 0.982196 -0.171914
2720.00000000 -22100.00000000 660.00000000 248 205 29 0.000000 0.000000 0.000000 0.000000 -60.708740 0.000000 157.000000 -0.099533 0.991898 -0.078940
2710.00000000 -22000.00000000 630.00000000 248 205 29 0.000000 0.000000 0.000000 0.000000 -60.708740 0.000000 157.000000 -0.212247 0.969728 0.120739
2710.00000000 -22000.00000000 630.00000000 248 205 29 0.000000 0.000000 0.000000 0.000000 -60.708740 0.000000 157.000000 -0.212247 0.969728 0.120739
2720.00000000 -21990.00000000 650.00000000 248 205 29 0.000000 0.000000 0.000000 0.000000 -60.708740 0.000000 157.000000 0.020865 0.993853 -0.108720
2740.00000000 -21940.00000000 540.00000000 248 205 29 0.000000 0.000000 0.000000 0.000000 -60.708740 0.000000 157.000000 -0.628881 0.777500 0.001376
2700.00000000 -21960.00000000 560.00000000 248 205 29 0.000000 0.000000 0.000000 0.000000 -60.708740 0.000000 157.000000 -0.552257 0.821723 0.140655
2720.00000000 -21940.00000000 540.00000000 248 205 29 0.000000 0.000000 0.000000 0.000000 -60.708740 0.000000 157.000000 -0.411950 0.908992 -0.063481
2700.00000000 -21990.00000000 540.00000000 248 205 29 0.000000 0.000000 0.000000 0.000000 -60.708740 0.000000 157.000000 -0.197188 0.973382 0.116806
2710.00000000 -22010.00000000 560.00000000 248 205 29 0.000000 0.000000 0.000000 0.000000 -60.708740 0.000000 157.000000 -0.344854 0.844189 0.410391
2710.00000000 -22010.00000000 560.00000000 248 205 29 0.000000 0.000000 0.000000 0.000000 -60.708740 0.000000 157.000000 -0.344854 0.844189 0.410391
2750.00000000 -22090.00000000 610.00000000 248 205 29 0.000000 0.000000 0.000000 0.000000 -60.708740 0.000000 157.000000 -0.092191 0.906772 0.411419
2700.00000000 -22020.00000000 630.00000000 248 205 29 0.000000 0.000000 0.000000 0.000000 -60.708740 0.000000 157.000000 -0.562499 0.717557 0.410740
2730.00000000 -22050.00000000 580.00000000 248 205 29 0.000000 0.000000 0.000000 0.000000 -60.708740 0.000000 157.000000 0.554622 -0.701189 -0.448028
2730.00000000 -22050.00000000 580.00000000 248 205 29 0.000000 0.000000 0.000000 0.000000 -60.708740 0.000000 157.000000 0.554622 -0.701189 -0.448028
2740.00000000 -22090.00000000 540.00000000 248 205 29 0.000000 0.000000 0.000000 0.000000 -60.708740 0.000000 157.000000 -0.444045 0.852750 -0.275031
2750.00000000 -22070.00000000 530.00000000 248 205 29 0.000000 0.000000 0.000000 0.000000 -60.708740 0.000000 157.000000 -0.328532 0.811014 0.484069
2740.00000000 -22090.00000000 540.00000000 248 205 29 0.000000 0.000000 0.000000 0.000000 -60.708740 0.000000 157.000000 -0.444045 0.852750 -0.275031
2690.00000000 -22040.00000000 510.00000000 248 205 29 0.000000 0.000000 0.000000 0.000000 -60.708740 0.000000 157.000000 0.830450 -0.546387 0.108698
2730.00000000 -22090.00000000 540.00000000 248 205 29 0.000000 0.000000 0.000000 0.000000 -60.708740 0.000000 157.000000 -0.399192 0.916712 -0.016904
2710.00000000 -21950.00000000 430.00000000 248 205 29 0.000000 0.000000 0.000000 0.000000 -60.708740 0.000000 157.000000 -0.427365 0.808313 0.404957
2700.00000000 -21940.00000000 440.00000000 248 205 29 0.000000 0.000000 0.000000 0.000000 -60.708740 0.000000 157.000000 -0.505631 0.824163 0.255135
2730.00000000 -22010.00000000 440.00000000 248 205 29 0.000000 0.000000 0.000000 0.000000 -60.708740 0.000000 157.000000 -0.362128 0.929860 -0.064997
2730.00000000 -22010.00000000 440.00000000 248 205 29 0.000000 0.000000 0.000000 0.000000 -60.708740 0.000000 157.000000 -0.362128 0.929860 -0.064997
2720.00000000 -21970.00000000 320.00000000 248 205 29 0.000000 0.000000 0.000000 0.000000 -60.708740 0.000000 157.000000 -0.485682 0.866777 0.113182
2720.00000000 -21970.00000000 320.00000000 248 205 29 0.000000 0.000000 0.000000 0.000000 -60.708740 0.000000 157.000000 -0.485682 0.866777 0.113182
2720.00000000 -21970.00000000 330.00000000 248 205 29 0.000000 0.000000 0.000000 0.000000 -60.708740 0.000000 157.000000 -0.357919 0.933647 0.014011
2710.00000000 -21980.00000000 380.00000000 248 205 29 0.000000 0.000000 0.000000 0.000000 -60.708740 0.000000 157.000000 -0.388969 0.917534 0.082673
2740.00000000 -22080.00000000 410.00000000 248 205 29 0.000000 0.000000 0.000000 0.000000 -60.708740 0.000000 157.000000 -0.498866 0.806104 -0.318324
2740.00000000 -22080.00000000 410.00000000 248 205 29 0.000000 0.000000 0.000000 0.000000 -60.708740 0.000000 157.000000 -0.498866 0.806104 -0.318324
2700.00000000 -22020.00000000 440.00000000 248 205 29 0.000000 0.000000 0.000000 0.000000 -60.708740 0.000000 157.000000 -0.650011 0.725193 0.227112
2720.00000000 -22070.00000000 450.00000000 248 205 29 0.000000 0.000000 0.000000 0.000000 -60.708740 0.000000 157.000000 0.768823 -0.590318 0.245836
2730.00000000 -22060.00000000 450.00000000 248 205 29 0.000000 0.000000 0.000000 0.000000 -60.708740 0.000000 157.000000 0.727612 -0.685875 -0.012521
2730.00000000 -22090.00000000 410.00000000 248 205 29 0.000000 0.000000 0.000000 0.000000 -60.708740 0.000000 157.000000 -0.709835 0.704256 -0.012551
2730.00000000 -22090.00000000 430.00000000 248 205 29 0.000000 0.000000 0.000000 0.000000 -60.708740 0.000000 157.000000 0.902878 -0.429880 0.003920
2740.00000000 -22080.00000000 400.00000000 248 205 29 0.000000 0.000000 0.000000 0.000000 -60.708740 0.000000 157.000000 0.889908 -0.440002 -0.120258
2710.00000000 -22030.00000000 360.00000000 248 205 29 0.000000 0.000000 0.000000 0.000000 -60.708740 0.000000 157.000000 0.707106 -0.707106 0.001384
2710.00000000 -22070.00000000 370.00000000 248 205 29 0.000000 0.000000 0.000000 0.000000 -60.708740 0.000000 157.000000 0.939796 -0.290332 -0.180254
2720.00000000 -22070.00000000 390.00000000 248 205 29 0.000000 0.000000 0.000000 0.000000 -60.708740 0.000000 157.000000 0.756798 -0.613240 0.226259
2720.00000000 -22070.00000000 390.00000000 248 205 29 0.000000 0.000000 0.000000 0.000000 -60.708740 0.000000 157.000000 0.756798 -0.613240 0.226259
2800.00000000 -22100.00000000 590.00000000 248 205 29 0.000000 0.000000 0.000000 0.000000 -60.708740 0.000000 157.000000 -0.077824 0.982978 0.166424
2780.00000000 -22110.00000000 620.00000000 248 205 29 0.000000 0.000000 0.000000 0.000000 -60.708740 0.000000 157.000000 -0.110245 0.989880 0.089356
2760.00000000 -22110.00000000 590.00000000 248 205 29 0.000000 0.000000 0.000000 0.000000 -60.708740 0.000000 157.000000 -0.267119 0.931383 0.247332
2760.00000000 -22110.00000000 600.00000000 248 205 29 0.000000 0.000000 0.000000 0.000000 -60.708740 0.000000 157.000000 -0.264612 0.953401 0.144938
2770.00000000 -22100.00000000 580.00000000 248 205 29 0.000000 0.000000 0.000000 0.000000 -60.708740 0.000000 157.000000 -0.362377 0.931270 -0.037666
2750.00000000 -22110.00000000 530.00000000 248 205 29 0.000000 0.000000 0.000000 0.000000 -60.708740 0.000000 157.000000 -0.367610 0.918326 -0.146764
2720.00000000 -22100.00000000 530.00000000 248 205 29 0.000000 0.000000 0.000000 0.000000 -60.708740 0.000000 157.000000 -0.684918 0.727459 0.041123
2710.00000000 -22100.00000000 520.00000000 248 205 29 0.000000 0.000000 0.000000 0.000000 -60.708740 0.000000 157.000000 0.800349 -0.598510 0.035042
2770.00000000 -22100.00000000 470.00000000 248 205 29 0.000000 0.000000 0.000000 0.000000 -60.708740 0.000000 157.000000 -0.314572 0.943716 0.102203
2740.00000000 -22100.00000000 330.00000000 248 205 29 0.000000 0.000000 0.000000 0.000000 -60.708740 0.000000 157.000000 0.810206 -0.304814 0.500654
2740.00000000 -22100.00000000 330.00000000 248 205 29 0.000000 0.000000 0.000000 0.000000 -60.708740 0.000000 157.000000 0.810206 -0.304814 0.500654
2700.00000000 -21960.00000000 290.00000000 248 205 29 0.000000 0.000000 0.000000 0.000000 -60.708740 0.000000 157.000000 -0.495510 0.786037 -0.369615
2720.00000000 -21970.00000000 310.00000000 248 205 29 0.000000 0.000000 0.000000 0.000000 -60.708740 0.000000 157.000000 -0.641255 0.740147 0.202420
2700.00000000 -21960.00000000 290.00000000 248 205 29 0.000000 0.000000 0.000000 0.000000 -60.708740 0.000000 157.000000 -0.495510 0.786037 -0.369615
2710.00000000 -21970.00000000 310.00000000 248 205 29 0.000000 0.000000 0.000000 0.000000 -60.708740 0.000000 157.000000 -0.372799 0.923186 -0.093539
2720.00000000 -21950.00000000 270.00000000 248 205 29 0.000000 0.000000 0.000000 0.000000 -60.708740 0.000000 157.000000 -0.440506 0.858149 -0.263694
2710.00000000 -21980.00000000 280.00000000 248 205 29 0.000000 0.000000 0.000000 0.000000 -60.708740 0.000000 157.000000 -0.585236 0.810433 0.026412
2720.00000000 -21950.00000000 210.00000000 248 205 29 0.000000 0.000000 0.000000 0.000000 -60.708740 0.000000 157.000000 0.779362 -0.583355 -0.228675
2720.00000000 -22000.00000000 200.00000000 248 205 29 0.000000 0.000000 0.000000 0.000000 -60.708740 0.000000 157.000000 0.730326 -0.683029 0.009738
2720.00000000 -22000.00000000 210.00000000 248 205 29 0.000000 0.000000 0.000000 0.000000 -60.708740 0.000000 157.000000 -0.586722 0.801413 -0.116168
2730.00000000 -21980.00000000 210.00000000 248 205 29 0.000000 0.000000 0.000000 0.000000 -60.708740 0.000000 157.000000 0.716223 -0.696288 0.046989
2760.00000000 -22050.00000000 310.00000000 248 205 29 0.000000 0.000000 0.000000 0.000000 -60.708740 0.000000 157.000000 0.762825 -0.646532 -0.009691
2740.00000000 -22070.00000000 270.00000000 248 205 29 0.000000 0.000000 0.000000 0.000000 -60.708740 0.000000 157.000000 0.736429 -0.468336 0.488195
2740.00000000 -22070.00000000 210.00000000 248 205 29 0.000000 0.000000 0.000000 0.000000 -60.708740 0.000000 157.000000 0.823106 -0.473719 0.313189
2710.00000000 -22040.00000000 210.00000000 248 205 29 0.000000 0.000000 0.000000 0.000000 -60.708740 0.000000 157.000000 0.804363 -0.291208 0.517878
2690.00000000 -21950.00000000 90.00000000 248 205 29 0.000000 0.000000 0.000000 0.000000 -60.708740 0.000000 157.000000 -0.703746 0.691586 0.162637
2720.00000000 -22090.00000000 70.00000000 248 205 29 0.000000 0.000000 0.000000 0.000000 -60.708740 0.000000 157.000000 0.806019 -0.301271 0.509480
2740.00000000 -22090.00000000 0.00000000 248 205 29 0.000000 0.000000 0.000000 0.000000 -60.708740 0.000000 157.000000 0.813549 0.203006 0.544910
2740.00000000 -22090.00000000 0.00000000 248 205 29 0.000000 0.000000 0.000000 0.000000 -60.708740 0.000000 157.000000 0.813549 0.203006 0.544910
2720.00000000 -22060.00000000 30.00000000 248 205 29 0.000000 0.000000 0.000000 0.000000 -60.708740 0.000000 157.000000 0.856095 0.144878 0.496096
2720.00000000 -22060.00000000 50.00000000 248 205 29 0.000000 0.000000 0.000000 0.000000 -60.708740 0.000000 157.000000 0.877107 0.224861 0.424407
2750.00000000 -22100.00000000 250.00000000 248 205 29 0.000000 0.000000 0.000000 0.000000 -60.708740 0.000000 157.000000 -0.779536 0.457306 -0.428012
2680.00000000 -22030.00000000 560.00000000 248 205 29 0.000000 0.000000 0.000000 0.000000 -60.708740 0.000000 157.000000 0.745250 -0.619203 0.247366
3370.00000000 -21750.00000000 -670.00000000 248 205 29 0.000000 0.000000 0.000000 0.000000 -60.708740 0.000000 157.000000 0.908923 0.074949 0.410174
3370.00000000 -21760.00000000 -690.00000000 248 205 29 0.000000 0.000000 0.000000 0.000000 -60.708740 0.000000 157.000000 0.596934 0.630564 0.496044
3450.00000000 -21830.00000000 -690.00000000 248 205 29 0.000000 0.000000 0.000000 0.000000 -60.708740 0.000000 157.000000 0.923030 -0.062601 0.379601
3420.00000000 -21840.00000000 -670.00000000 248 205 29 0.000000 0.000000 0.000000 0.000000 -60.708740 0.000000 157.000000 0.800704 0.196744 0.565831
3390.00000000 -21800.00000000 -640.00000000 248 205 29 0.000000 0.000000 0.000000 0.000000 -60.708740 0.000000 157.000000 0.701991 0.508569 0.498564
3400.00000000 -21800.00000000 -680.00000000 248 205 29 0.000000 0.000000 0.000000 0.000000 -60.708740 0.000000 157.000000 0.929663 0.168650 0.327542
3380.00000000 -21770.00000000 -690.00000000 248 205 29 0.000000 0.000000 0.000000 0.000000 -60.708740 0.000000 157.000000 0.613327 0.589673 0.525468
3390.00000000 -21800.00000000 -670.00000000 248 205 29 0.000000 0.000000 0.000000 0.000000 -60.708740 0.000000 157.000000 0.807321 0.260779 0.529365
3390.00000000 -21860.00000000 -600.00000000 248 205 29 0.000000 0.000000 0.000000 0.000000 -60.708740 0.000000 157.000000 0.851539 -0.298271 0.431179
3370.00000000 -21900.00000000 -550.00000000 248 205 29 0.000000 0.000000 0.000000 0.000000 -60.708740 0.000000 157.000000 0.951751 -0.296532 0.078989
3370.00000000 -21900.00000000 -560.00000000 248 205 29 0.000000 0.000000 0.000000 0.000000 -60.708740 0.000000 157.000000 0.906820 -0.405353 0.115616
3370.00000000 -21910.00000000 -600.00000000 248 205 29 0.000000 0.000000 0.000000 0.000000 -60.708740 0.000000 157.000000 0.930766 -0.252818 0.264117
3380.00000000 -21900.00000000 -600.00000000 248 205 29 0.000000 0.000000 0.000000 0.000000 -60.708740 0.000000 157.000000 0.855515 -0.025925 0.517129
3380.00000000 -21900.00000000 -570.00000000 248 205 29 0.000000 0.000000 0.000000 0.000000 -60.708740 0.000000 157.000000 0.960408 -0.204764 0.188911
3370.00000000 -21910.00000000 -600.00000000 248 205 29 0.000000 0.000000 0.000000 0.000000 -60.708740 0.000000 157.000000 0.930766 -0.252818 0.264117
3380.00000000 -21870.00000000 -620.00000000 248 205 29 0.000000 0.000000 0.000000 0.000000 -60.708740 0.000000 157.000000 0.890265 0.099541 0.444432
3390.00000000 -21850.00000000 -650.00000000 248 205 29 0.000000 0.000000 0.000000 0.000000 -60.708740 0.000000 157.000000 0.782287 -0.145089 0.605786
3380.00000000 -21860.00000000 -650.00000000 248 205 29 0.000000 0.000000 0.000000 0.000000 -60.708740 0.000000 157.000000 0.863409 -0.134953 0.486121
3380.00000000 -21870.00000000 -690.00000000 248 205 29 0.000000 0.000000 0.000000 0.000000 -60.708740 0.000000 157.000000 0.952557 -0.255891 0.164788
3200.00000000 -21760.00000000 -240.00000000 248 205 29 0.000000 0.000000 0.000000 0.000000 -60.708740 0.000000 157.000000 0.532261 0.676660 0.508754
3200.00000000 -21760.00000000 -240.00000000 248 205 29 0.000000 0.000000 0.000000 0.000000 -60.708740 0.000000 157.000000 0.532261 0.676660 0.508754
3200.00000000 -21760.00000000 -240.00000000 248 205 29 0.000000 0.000000 0.000000 0.000000 -60.708740 0.000000 157.000000 0.532261 0.676660 0.508754
3210.00000000 -21760.00000000 -340.00000000 248 205 29 0.000000 0.000000 0.000000 0.000000 -60.708740 0.000000 157.000000 0.435399 0.791487 0.428924
3200.00000000 -21760.00000000 -340.00000000 248 205 29 0.000000 0.000000 0.000000 0.000000 -60.708740 0.000000 157.000000 0.421913 0.819944 0.386886
3200.00000000 -21730.00000000 -350.00000000 248 205 29 0.000000 0.000000 0.000000 0.000000 -60.708740 0.000000 157.000000 0.225154 0.822503 0.522297
3230.00000000 -21750.00000000 -350.00000000 248 205 29 0.000000 0.000000 0.000000 0.000000 -60.708740 0.000000 157.000000 0.367483 0.873724 0.318688
3230.00000000 -21750.00000000 -350.00000000 248 205 29 0.000000 0.000000 0.000000 0.000000 -60.708740 0.000000 157.000000 0.367483 0.873724 0.318688
3290.00000000 -21880.00000000 -50.00000000 248 205 29 0.000000 0.000000 0.000000 0.000000 -60.708740 0.000000 157.000000 0.760760 0.485905 0.430279
3280.00000000 -21930.00000000 -170.00000000 248 205 29 0.000000 0.000000 0.000000 0.000000 -60.708740 0.000000 157.000000 0.744492 0.348727 0.569317
3210.00000000 -21840.00000000 -40.00000000 248 205 29 0.000000 0.000000 0.000000 0.000000 -60.708740 0.000000 157.000000 0.541455 0.744296 0.390960
3260.00000000 -21800.00000000 -180.00000000 248 205 29 0.000000 0.000000 0.000000 0.000000 -60.708740 0.000000 157.000000 0.595403 0.710219 0.375612
3250.00000000 -21840.00000000 -130.00000000 248 205 29 0.000000 0.000000 0.000000 0.000000 -60.708740 0.000000 157.000000 0.672649 0.561939 0.481422
3260.00000000 -21830.00000000 -140.00000000 248 205 29 0.000000 0.000000 0.000000 0.000000 -60.708740 0.000000 157.000000 0.742880 0.405058 0.532971
3270.00000000 -21840.00000000 -130.00000000 248 205 29 0.000000 0.000000 0.000000 0.000000 -60.708740 0.000000 157.000000 0.664699 0.577635 0.473828
3250.00000000 -21840.00000000 -130.00000000 248 205 29 0.000000 0.000000 0.000000 0.000000 -60.708740 0.000000 157.000000 0.672649 0.561939 0.481422
3230.00000000 -21800.00000000 -120.00000000 248 205 29 0.000000 0.000000 0.000000 0.000000 -60.708740 0.000000 157.000000 0.401873 0.739775 0.539658
3220.00000000 -21800.00000000 -120.00000000 248 205 29 0.000000 0.000000 0.000000 0.000000 -60.708740 0.000000 157.000000 0.507486 0.710481 0.487519
3230.00000000 -21800.00000000 -120.00000000 248 205 29 0.000000 0.000000 0.000000 0.000000 -60.708740 0.000000 157.000000 0.401873 0.739775 0.539658
3220.00000000 -21780.00000000 -180.00000000 248 205 29 0.000000 0.000000 0.000000 0.000000 -60.708740 0.000000 157.000000 0.509049 0.754572 0.414114
3260.00000000 -21880.00000000 -60.00000000 248 205 29 0.000000 0.000000 0.000000 0.000000 -60.708740 0.000000 157.000000 0.753709 0.467989 0.461421
3270.00000000 -21860.00000000 -20.00000000 248 205 29 0.000000 0.000000 0.000000 0.000000 -60.708740 0.000000 157.000000 0.685008 0.625871 0.372894
3270.00000000 -21880.00000000 -60.00000000 248 205 29 0.000000 0.000000 0.000000 0.000000 -60.708740 0.000000 157.000000 0.667229 0.644164 0.373977
3270.00000000 -21880.00000000 -60.00000000 248 205 29 0.000000 0.000000 0.000000 0.000000 -60.708740 0.000000 157.000000 0.667229 0.644164 0.373977
3260.00000000 -21860.00000000 -120.00000000 248 205 29 0.000000 0.000000 0.000000 0.000000 -60.708740 0.000000 157.000000 0.680389 0.677187 0.280160
3290.00000000 -21840.00000000 -210.00000000 248 205 29 0.000000 0.000000 0.000000 0.000000 -60.708740 0.000000 157.000000 0.690081 0.489573 0.533016
3280.00000000 -21840.00000000 -300.00000000 248 205 29 0.000000 0.000000 0.000000 0.000000 -60.708740 0.000000 157.000000 0.581376 0.625190 0.520711
3290.00000000 -21880.00000000 -240.00000000 248 205 29 0.000000 0.000000 0.000000 0.000000 -60.708740 0.000000 157.000000 0.701856 0.586257 0.404600
3290.00000000 -21920.00000000 -190.00000000 248 205 29 0.000000 0.000000 0.000000 0.000000 -60.708740 0.000000 157.000000 0.778506 0.433948 0.453451
3330.00000000 -21930.00000000 -350.00000000 248 205 29 0.000000 0.000000 0.000000 0.000000 -60.708740 0.000000 157.000000 0.801020 0.167445 0.574743
3310.00000000 -21850.00000000 -310.00000000 248 205 29 0.000000 0.000000 0.000000 0.000000 -60.708740 0.000000 157.000000 0.632317 0.391277 0.668638
3300.00000000 -21870.00000000 -340.00000000 248 205 29 0.000000 0.000000 0.000000 0.000000 -60.708740 0.000000 157.000000 0.873182 -0.100480 0.476924
3290.00000000 -21850.00000000 -330.00000000 248 205 29 0.000000 0.000000 0.000000 0.000000 -60.708740 0.000000 157.000000 0.969472 0.008368 0.245058
3290.00000000 -21890.00000000 -280.00000000 248 205 29 0.000000 0.000000 0.000000 0.000000 -60.708740 0.000000 157.000000 0.971546 -0.112442 0.208459
3270.00000000 -21770.00000000 -200.00000000 248 205 29 0.000000 0.000000 0.000000 0.000000 -60.708740 0.000000 157.000000 0.503151 0.594021 0.627677
3230.00000000 -21780.00000000 -270.00000000 248 205 29 0.000000 0.000000 0.000000 0.000000 -60.708740 0.000000 157.000000 0.470904 0.788076 0.396466
3250.00000000 -21790.00000000 -300.00000000 248 205 29 0.000000 0.000000 0.000000 0.000000 -60.708740 0.000000 157.000000 0.639978 0.333831 0.692088
3250.00000000 -21790.00000000 -300.00000000 248 205 29 0.000000 0.000000 0.000000 0.000000 -60.708740 0.000000 157.000000 0.639978 0.333831 0.692088
3250.00000000 -21810.00000000 -300.00000000 248 205 29 0.000000 0.000000 0.000000 0.000000 -60.708740 0.000000 157.000000 0.795245 0.320329 0.514758
3270.00000000 -21820.00000000 -310.00000000 248 205 29 0.000000 0.000000 0.000000 0.000000 -60.708740 0.000000 157.000000 0.775553 0.367538 0.513258
3270.00000000 -21820.00000000 -310.00000000 248 205 29 0.000000 0.000000 0.000000 0.000000 -60.708740 0.000000 157.000000 0.775553 0.367538 0.513258
3270.00000000 -21830.00000000 -310.00000000 248 205 29 0.000000 0.000000 0.000000 0.000000 -60.708740 0.000000 157.000000 0.691209 0.533888 0.487026
3230.00000000 -21780.00000000 -320.00000000 248 205 29 0.000000 0.000000 0.000000 0.000000 -60.708740 0.000000 157.000000 0.572964 0.683214 0.452692
3220.00000000 -21770.00000000 -330.00000000 248 205 29 0.000000 0.000000 0.000000 0.000000 -60.708740 0.000000 157.000000 0.367416 0.800615 0.473309
3270.00000000 -21870.00000000 -270.00000000 248 205 29 0.000000 0.000000 0.000000 0.000000 -60.708740 0.000000 157.000000 0.783652 0.073333 0.616856
3160.00000000 -21750.00000000 -20.00000000 248 205 29 0.000000 0.000000 0.000000 0.000000 -60.708740 0.000000 157.000000 0.263785 0.918204 0.295497
3170.00000000 -21750.00000000 -90.00000000 248 205 29 0.000000 0.000000 0.000000 0.000000 -60.708740 0.000000 157.000000 0.185016 0.775230 0.603976
3120.00000000 -21710.00000000 -60.00000000 248 205 29 0.000000 0.000000 0.000000 0.000000 -60.708740 0.000000 157.000000 0.040882 0.919193 0.391679
3120.00000000 -21700.00000000 -30.00000000 248 205 29 0.000000 0.000000 0.000000 0.000000 -60.708740 0.000000 157.000000 -0.056342 0.962826 0.264182
3120.00000000 -21720.00000000 -20.00000000 248 205 29 0.000000 0.000000 0.000000 0.000000 -60.708740 0.000000 157.000000 0.179386 0.815526 0.550216
3130.00000000 -21710.00000000 -100.00000000 248 205 29 0.000000 0.000000 0.000000 0.000000 -60.708740 0.000000 157.000000 0.283107 0.679776 0.676577
3130.00000000 -21690.00000000 -70.00000000 248 205 29 0.000000 0.000000 0.000000 0.000000 -60.708740 0.000000 157.000000 0.228554 0.852159 0.470731
3120.00000000 -21740.00000000 -90.00000000 248 205 29 0.000000 0.000000 0.000000 0.000000 -60.708740 0.000000 157.000000 0.309846 0.839231 0.446863
3150.00000000 -21750.00000000 -80.00000000 248 205 29 0.000000 0.000000 0.000000 0.000000 -60.708740 0.000000 157.000000 0.078294 0.832767 0.548060
3180.00000000 -21750.00000000 -140.00000000 248 205 29 0.000000 0.000000 0.000000 0.000000 -60.708740 0.000000 157.000000 0.451126 0.801110 0.393330
3170.00000000 -21740.00000000 -150.00000000 248 205 29 0.000000 0.000000 0.000000 0.000000 -60.708740 0.000000 157.000000 0.288225 0.849263 0.442356
3170.00000000 -21740.00000000 -180.00000000 248 205 29 0.000000 0.000000 0.000000 0.000000 -60.708740 0.000000 157.000000 0.118186 0.878562 0.462776
3140.00000000 -21720.00000000 -120.00000000 248 205 29 0.000000 0.000000 0.000000 0.000000 -60.708740 0.000000 157.000000 0.256606 0.760372 0.596648
3120.00000000 -21700.00000000 -110.00000000 248 205 29 0.000000 0.000000 0.000000 0.000000 -60.708740 0.000000 157.000000 0.175605 0.866220 0.467788
3140.00000000 -21720.00000000 -120.00000000 248 205 29 0.000000 0.000000 0.000000 0.000000 -60.708740 0.000000 157.000000 0.256606 0.760372 0.596648
3120.00000000 -21700.00000000 -170.00000000 248 205 29 0.000000 0.000000 0.000000 0.000000 -60.708740 0.000000 157.000000 0.232779 0.912319 0.336879
3140.00000000 -21730.00000000 -140.00000000 248 205 29 0.000000 0.000000 0.000000 0.000000 -60.708740 0.000000 157.000000 0.294164 0.705672 0.644589
3140.00000000 -21730.00000000 -140.00000000 248 205 29 0.000000 0.000000 0.000000 0.000000 -60.708740 0.000000 157.000000 0.294164 0.705672 0.644589
3140.00000000 -21740.00000000 -110.00000000 248 205 29 0.000000 0.000000 0.000000 0.000000 -60.708740 0.000000 157.000000 0.054547 0.846185 0.530090
3120.00000000 -21740.00000000 -140.00000000 248 205 29 0.000000 0.000000 0.000000 0.000000 -60.708740 0.000000 157.000000 0.211827 0.940069 0.267207
3040.00000000 -21690.00000000 -30.00000000 248 205 29 0.000000 0.000000 0.000000 0.000000 -60.708740 0.000000 157.000000 0.044015 -0.759622 -0.648874
3050.00000000 -21710.00000000 -50.00000000 248 205 29 0.000000 0.000000 0.000000 0.000000 -60.708740 0.000000 157.000000 -0.108960 0.829547 0.547704
3090.00000000 -21700.00000000 -170.00000000 248 205 29 0.000000 0.000000 0.000000 0.000000 -60.708740 0.000000 157.000000 0.032911 0.917554 0.396246
3180.00000000 -21760.00000000 -190.00000000 248 205 29 0.000000 0.000000 0.000000 0.000000 -60.708740 0.000000 157.000000 0.247728 0.855648 0.454420
3180.00000000 -21760.00000000 -190.00000000 248 205 29 0.000000 0.000000 0.000000 0.000000 -60.708740 0.000000 157.000000 0.247728 0.855648 0.454420
3180.00000000 -21750.00000000 -190.00000000 248 205 29 0.000000 0.000000 0.000000 0.000000 -60.708740 0.000000 157.000000 0.700294 0.499732 0.509761
3160.00000000 -21750.00000000 -260.00000000 248 205 29 0.000000 0.000000 0.000000 0.000000 -60.708740 0.000000 157.000000 0.604501 0.628075 0.490000
3140.00000000 -21710.00000000 -210.00000000 248 205 29 0.000000 0.000000 0.000000 0.000000 -60.708740 0.000000 157.000000 0.501178 0.773663 0.387642
3110.00000000 -21720.00000000 -270.00000000 248 205 29 0.000000 0.000000 0.000000 0.000000 -60.708740 0.000000 157.000000 0.333733 0.820887 0.463430
3150.00000000 -21700.00000000 -260.00000000 248 205 29 0.000000 0.000000 0.000000 0.000000 -60.708740 0.000000 157.000000 0.127248 0.879301 0.458952
3120.00000000 -21730.00000000 -270.00000000 248 205 29 0.000000 0.000000 0.000000 0.000000 -60.708740 0.000000 157.000000 0.442434 0.812992 0.378545
3110.00000000 -21700.00000000 -300.00000000 248 205 29 0.000000 0.000000 0.000000 0.000000 -60.708740 0.000000 157.000000 -0.060851 0.825025 0.561810
3130.00000000 -21720.00000000 -300.00000000 248 205 29 0.000000 0.000000 0.000000 0.000000 -60.708740 0.000000 157.000000 -0.008554 0.959291 0.282288
3110.00000000 -21700.00000000 -350.00000000 248 205 29 0.000000 0.000000 0.000000 0.000000 -60.708740 0.000000 157.000000 -0.128504 0.921634 0.366166
3150.00000000 -21710.00000000 -350.00000000 248 205 29 0.000000 0.000000 0.000000 0.000000 -60.708740 0.000000 157.000000 0.265013 0.798175 0.541003
3090.00000000 -21710.00000000 -190.00000000 248 205 29 0.000000 0.000000 0.000000 0.000000 -60.708740 0.000000 157.000000 -0.182644 0.918881 0.349713
3080.00000000 -21700.00000000 -210.00000000 248 205 29 0.000000 0.000000 0.000000 0.000000 -60.708740 0.000000 157.000000 0.088980 0.762897 0.640367
3070.00000000 -21710.00000000 -210.00000000 248 205 29 0.000000 0.000000 0.000000 0.000000 -60.708740 0.000000 157.000000 -0.339682 0.919558 0.197556
3090.00000000 -21710.00000000 -190.00000000 248 205 29 0.000000 0.000000 0.000000 0.000000 -60.708740 0.000000 157.000000 -0.182644 0.918881 0.349713
3080.00000000 -21700.00000000 -210.00000000 248 205 29 0.000000 0.000000 0.000000 0.000000 -60.708740 0.000000 157.000000 0.088980 0.762897 0.640367
3070.00000000 -21710.00000000 -200.00000000 248 205 29 0.000000 0.000000 0.000000 0.000000 -60.708740 0.000000 157.000000 -0.281851 0.881725 0.378313
3070.00000000 -21710.00000000 -200.00000000 248 205 29 0.000000 0.000000 0.000000 0.000000 -60.708740 0.000000 157.000000 -0.281851 0.881725 0.378313
3100.00000000 -21710.00000000 -240.00000000 248 205 29 0.000000 0.000000 0.000000 0.000000 -60.708740 0.000000 157.000000 -0.015247 0.780372 0.625129
3030.00000000 -21700.00000000 -200.00000000 248 205 29 0.000000 0.000000 0.000000 0.000000 -60.708740 0.000000 157.000000 0.122688 0.793779 0.595704
3060.00000000 -21700.00000000 -220.00000000 248 205 29 0.000000 0.000000 0.000000 0.000000 -60.708740 0.000000 157.000000 -0.073012 0.933229 0.351786
3040.00000000 -21700.00000000 -200.00000000 248 205 29 0.000000 0.000000 0.000000 0.000000 -60.708740 0.000000 157.000000 0.040473 0.822021 0.568018
3030.00000000 -21710.00000000 -260.00000000 248 205 29 0.000000 0.000000 0.000000 0.000000 -60.708740 0.000000 157.000000 -0.388133 0.899828 0.199154
3030.00000000 -21690.00000000 -240.00000000 248 205 29 0.000000 0.000000 0.000000 0.000000 -60.708740 0.000000 157.000000 -0.418926 0.891485 0.172499
3040.00000000 -21710.00000000 -260.00000000 248 205 29 0.000000 0.000000 0.000000 0.000000 -60.708740 0.000000 157.000000 -0.354852 0.875708 0.327439
3100.00000000 -21710.00000000 -310.00000000 248 205 29 0.000000 0.000000 0.000000 0.000000 -60.708740 0.000000 157.000000 -0.076930 0.947937 0.309025
3070.00000000 -21700.00000000 -290.00000000 248 205 29 0.000000 0.000000 0.000000 0.000000 -60.708740 0.000000 157.000000 -0.204624 0.864797 0.458536
3070.00000000 -21700.00000000 -290.00000000 248 205 29 0.000000 0.000000 0.000000 0.000000 -60.708740 0.000000 157.000000 -0.204624 0.864797 0.458536
3070.00000000 -21680.00000000 -300.00000000 248 205 29 0.000000 0.000000 0.000000 0.000000 -60.708740 0.000000 157.000000 -0.078680 0.932160 0.353394
3090.00000000 -21680.00000000 -340.00000000 248 205 29 0.000000 0.000000 0.000000 0.000000 -60.708740 0.000000 157.000000 -0.275522 0.788779 0.549469
3060.00000000 -21700.00000000 -300.00000000 248 205 29 0.000000 0.000000 0.000000 0.000000 -60.708740 0.000000 157.000000 -0.146560 0.830504 0.537385
3060.00000000 -21700.00000000 -300.00000000 248 205 29 0.000000 0.000000 0.000000 0.000000 -60.708740 0.000000 157.000000 -0.146560 0.830504 0.537385
