//X Y Z R G B PointSourceId ScanDirectionFlag NumberOfReturns ReturnNumber GpsTime Intensity Classification Nx Ny Nz
150.00000000 3000.00000000 -140.00000000 152 22 168 97.000000 1.000000 4.000000 1.000000 -60.708740 114.000000 149.000000 0.975224 -0.118930 -0.186532
40.00000000 3040.00000000 -170.00000000 152 22 168 97.000000 1.000000 4.000000 1.000000 -60.708740 114.000000 149.000000 0.956016 -0.292151 -0.026107
70.00000000 3000.00000000 -170.00000000 152 22 168 97.000000 1.000000 4.000000 1.000000 -60.708740 114.000000 149.000000 0.959956 -0.028489 0.278697
20.00000000 3050.00000000 -130.00000000 152 22 168 97.000000 1.000000 4.000000 1.000000 -60.708740 114.000000 149.000000 0.975473 -0.057095 -0.212587
160.00000000 3120.00000000 -220.00000000 152 22 168 97.000000 1.000000 4.000000 1.000000 -60.708740 114.000000 149.000000 0.969364 0.144700 -0.198483
160.00000000 3100.00000000 -220.00000000 152 22 168 97.000000 1.000000 4.000000 1.000000 -60.708740 114.000000 149.000000 0.949578 0.210565 -0.232300
160.00000000 3100.00000000 -210.00000000 152 22 168 97.000000 1.000000 4.000000 1.000000 -60.708740 114.000000 149.000000 0.819634 0.087869 -0.566109
160.00000000 3120.00000000 -230.00000000 152 22 168 97.000000 1.000000 4.000000 1.000000 -60.708740 114.000000 149.000000 0.981327 0.133539 0.138439
130.00000000 3110.00000000 -270.00000000 152 22 168 97.000000 1.000000 4.000000 1.000000 -60.708740 114.000000 149.000000 0.870868 -0.014806 -0.491293
130.00000000 3110.00000000 -270.00000000 152 22 168 97.000000 1.000000 4.000000 1.000000 -60.708740 114.000000 149.000000 0.870868 -0.014806 -0.491293
160.00000000 3110.00000000 -250.00000000 152 22 168 97.000000 1.000000 4.000000 1.000000 -60.708740 114.000000 149.000000 0.837480 0.500056 -0.220389
130.00000000 3120.00000000 -250.00000000 152 22 168 97.000000 1.000000 4.000000 1.000000 -60.708740 114.000000 149.000000 0.734147 0.546915 -0.402385
140.00000000 3100.00000000 -250.00000000 152 22 168 97.000000 1.000000 4.000000 1.000000 -60.708740 114.000000 149.000000 0.981334 0.166596 -0.096066
100.00000000 3130.00000000 -260.00000000 152 22 168 97.000000 1.000000 4.000000 1.000000 -60.708740 114.000000 149.000000 0.817595 0.195677 -0.541524
100.00000000 3120.00000000 -270.00000000 152 22 168 97.000000 1.000000 4.000000 1.000000 -60.708740 114.000000 149.000000 0.843190 0.383268 -0.377011
130.00000000 3120.00000000 -280.00000000 152 22 168 97.000000 1.000000 4.000000 1.000000 -60.708740 114.000000 149.000000 0.789947 0.144849 -0.595820
140.00000000 3100.00000000 -300.00000000 152 22 168 97.000000 1.000000 4.000000 1.000000 -60.708740 114.000000 149.000000 0.970566 0.234953 -0.052895
120.00000000 3110.00000000 -290.00000000 152 22 168 97.000000 1.000000 4.000000 1.000000 -60.708740 114.000000 149.000000 0.931612 -0.062107 -0.358109
150.00000000 3120.00000000 -340.00000000 152 22 168 97.000000 1.000000 4.000000 1.000000 -60.708740 114.000000 149.000000 0.997856 0.020063 -0.062300
140.00000000 3100.00000000 -320.00000000 152 22 168 97.000000 1.000000 4.000000 1.000000 -60.708740 114.000000 149.000000 0.953671 0.221940 -0.203109
140.00000000 3090.00000000 -350.00000000 152 22 168 97.000000 1.000000 4.000000 1.000000 -60.708740 114.000000 149.000000 0.982662 0.100321 -0.155921
140.00000000 3090.00000000 -350.00000000 152 22 168 97.000000 1.000000 4.000000 1.000000 -60.708740 114.000000 149.000000 0.982662 0.100321 -0.155921
140.00000000 3090.00000000 -350.00000000 152 22 168 97.000000 1.000000 4.000000 1.000000 -60.708740 114.000000 149.000000 0.982662 0.100321 -0.155921
110.00000000 3150.00000000 -340.00000000 152 22 168 97.000000 1.000000 4.000000 1.000000 -60.708740 114.000000 149.000000 0.833699 0.111643 -0.540817
150.00000000 3060.00000000 -210.00000000 152 22 168 97.000000 1.000000 4.000000 1.000000 -60.708740 114.000000 149.000000 0.889349 -0.175548 -0.422187
150.00000000 3050.00000000 -200.00000000 152 22 168 97.000000 1.000000 4.000000 1.000000 -60.708740 114.000000 149.000000 0.957295 -0.196266 -0.212287
160.00000000 3070.00000000 -200.00000000 152 22 168 97.000000 1.000000 4.000000 1.000000 -60.708740 114.000000 149.000000 0.894122 0.078771 -0.440842
140.00000000 3070.00000000 -220.00000000 152 22 168 97.000000 1.000000 4.000000 1.000000 -60.708740 114.000000 149.000000 0.973589 0.017875 -0.227608
160.00000000 3070.00000000 -200.00000000 152 22 168 97.000000 1.000000 4.000000 1.000000 -60.708740 114.000000 149.000000 0.894122 0.078771 -0.440842
160.00000000 3070.00000000 -210.00000000 152 22 168 97.000000 1.000000 4.000000 1.000000 -60.708740 114.000000 149.000000 0.969101 0.241968 0.047902
130.00000000 3080.00000000 -270.00000000 152 22 168 97.000000 1.000000 4.000000 1.000000 -60.708740 114.000000 149.000000 0.833023 0.545277 -0.093517
140.00000000 3080.00000000 -240.00000000 152 22 168 97.000000 1.000000 4.000000 1.000000 -60.708740 114.000000 149.000000 0.965353 0.252322 0.066533
140.00000000 3080.00000000 -240.00000000 152 22 168 97.000000 1.000000 4.000000 1.000000 -60.708740 114.000000 149.000000 0.965353 0.252322 0.066533
110.00000000 3060.00000000 -210.00000000 152 22 168 97.000000 1.000000 4.000000 1.000000 -60.708740 114.000000 149.000000 0.826419 0.398140 -0.398140
110.00000000 3040.00000000 -200.00000000 152 22 168 97.000000 1.000000 4.000000 1.000000 -60.708740 114.000000 149.000000 0.984102 -0.019613 0.176515
10.00000000 3160.00000000 -330.00000000 152 22 168 97.000000 1.000000 4.000000 1.000000 -60.708740 114.000000 149.000000 0.769112 0.536927 -0.346665
60.00000000 3040.00000000 -190.00000000 152 22 168 97.000000 1.000000 4.000000 1.000000 -60.708740 114.000000 149.000000 0.975614 -0.017738 -0.218774
40.00000000 3000.00000000 -200.00000000 152 22 168 97.000000 1.000000 4.000000 1.000000 -60.708740 114.000000 149.000000 0.965762 0.135750 0.221078
110.00000000 3130.00000000 -390.00000000 152 22 168 97.000000 1.000000 4.000000 1.000000 -60.708740 114.000000 149.000000 0.977490 0.076881 -0.196474
110.00000000 3130.00000000 -420.00000000 152 22 168 97.000000 1.000000 4.000000 1.000000 -60.708740 114.000000 149.000000 0.906159 0.391199 -0.160747
110.00000000 3100.00000000 -360.00000000 152 22 168 97.000000 1.000000 4.000000 1.000000 -60.708740 114.000000 149.000000 0.823638 0.444227 -0.352536
90.00000000 3120.00000000 -410.00000000 152 22 168 97.000000 1.000000 4.000000 1.000000 -60.708740 114.000000 149.000000 -0.712579 0.015339 0.701424
90.00000000 3110.00000000 -440.00000000 152 22 168 97.000000 1.000000 4.000000 1.000000 -60.708740 114.000000 149.000000 0.880723 0.420311 -0.218324
110.00000000 3120.00000000 -460.00000000 152 22 168 97.000000 1.000000 4.000000 1.000000 -60.708740 114.000000 149.000000 0.685260 0.366458 -0.629387
80.00000000 3120.00000000 -480.00000000 152 22 168 97.000000 1.000000 4.000000 1.000000 -60.708740 114.000000 149.000000 0.797807 -0.029341 -0.602198
50.00000000 3160.00000000 -430.00000000 152 22 168 97.000000 1.000000 4.000000 1.000000 -60.708740 114.000000 149.000000 -0.464853 -0.531499 0.708110
10.00000000 3120.00000000 -500.00000000 152 22 168 97.000000 1.000000 4.000000 1.000000 -60.708740 114.000000 149.000000 0.533864 0.641648 -0.550706
10.00000000 3100.00000000 -520.00000000 152 22 168 97.000000 1.000000 4.000000 1.000000 -60.708740 114.000000 149.000000 0.691464 0.524040 -0.497252
10.00000000 3110.00000000 -500.00000000 152 22 168 97.000000 1.000000 4.000000 1.000000 -60.708740 114.000000 149.000000 0.817880 0.422492 -0.390606
10.00000000 3100.00000000 -520.00000000 152 22 168 97.000000 1.000000 4.000000 1.000000 -60.708740 114.000000 149.000000 0.691464 0.524040 -0.497252
10.00000000 3100.00000000 -520.00000000 152 22 168 97.000000 1.000000 4.000000 1.000000 -60.708740 114.000000 149.000000 0.691464 0.524040 -0.497252
30.00000000 3050.00000000 -520.00000000 152 22 168 97.000000 1.000000 4.000000 1.000000 -60.708740 114.000000 149.000000 0.927255 0.282578 -0.245659
30.00000000 3060.00000000 -510.00000000 152 22 168 97.000000 1.000000 4.000000 1.000000 -60.708740 114.000000 149.000000 0.929333 0.110214 -0.352412
30.00000000 3060.00000000 -510.00000000 152 22 168 97.000000 1.000000 4.000000 1.000000 -60.708740 114.000000 149.000000 0.929333 0.110214 -0.352412
0.00000000 3070.00000000 -510.00000000 152 22 168 97.000000 1.000000 4.000000 1.000000 -60.708740 114.000000 149.000000 0.394684 0.741875 -0.542076
50.00000000 3100.00000000 -530.00000000 152 22 168 97.000000 1.000000 4.000000 1.000000 -60.708740 114.000000 149.000000 -0.463734 -0.322256 0.825289
30.00000000 3140.00000000 -530.00000000 152 22 168 97.000000 1.000000 4.000000 1.000000 -60.708740 114.000000 149.000000 -0.517288 -0.259421 0.815545
20.00000000 3130.00000000 -540.00000000 152 22 168 97.000000 1.000000 4.000000 1.000000 -60.708740 114.000000 149.000000 -0.527016 -0.242644 0.814480
10.00000000 3110.00000000 -570.00000000 152 22 168 97.000000 1.000000 4.000000 1.000000 -60.708740 114.000000 149.000000 0.884065 0.365976 -0.290672
60.00000000 3040.00000000 -560.00000000 152 22 168 97.000000 1.000000 4.000000 1.000000 -60.708740 114.000000 149.000000 0.499740 0.614159 -0.610794
20.00000000 3070.00000000 -540.00000000 152 22 168 97.000000 1.000000 4.000000 1.000000 -60.708740 114.000000 149.000000 0.841768 0.279560 -0.461814
30.00000000 3080.00000000 -580.00000000 152 22 168 97.000000 1.000000 4.000000 1.000000 -60.708740 114.000000 149.000000 -0.466862 -0.188227 0.864066
30.00000000 3070.00000000 -580.00000000 152 22 168 97.000000 1.000000 4.000000 1.000000 -60.708740 114.000000 149.000000 -0.500270 -0.361931 0.786598
30.00000000 3080.00000000 -580.00000000 152 22 168 97.000000 1.000000 4.000000 1.000000 -60.708740 114.000000 149.000000 -0.466862 -0.188227 0.864066
-140.00000000 3570.00000000 -310.00000000 152 22 168 97.000000 1.000000 4.000000 1.000000 -60.708740 114.000000 149.000000 -0.083025 -0.398792 0.913275
-160.00000000 3540.00000000 -320.00000000 152 22 168 97.000000 1.000000 4.000000 1.000000 -60.708740 114.000000 149.000000 -0.232779 -0.336879 0.912319
-160.00000000 3540.00000000 -320.00000000 152 22 168 97.000000 1.000000 4.000000 1.000000 -60.708740 114.000000 149.000000 -0.232779 -0.336879 0.912319
-30.00000000 3420.00000000 -30.00000000 152 22 168 97.000000 1.000000 4.000000 1.000000 -60.708740 114.000000 149.000000 0.865963 0.461946 -0.191611
-80.00000000 3420.00000000 -50.00000000 152 22 168 97.000000 1.000000 4.000000 1.000000 -60.708740 114.000000 149.000000 0.470881 0.527453 -0.707153
-90.00000000 3420.00000000 -30.00000000 152 22 168 97.000000 1.000000 4.000000 1.000000 -60.708740 114.000000 149.000000 0.695648 0.139731 -0.704663
-90.00000000 3420.00000000 -90.00000000 152 22 168 97.000000 1.000000 4.000000 1.000000 -60.708740 114.000000 149.000000 -0.440554 -0.395698 0.805813
-90.00000000 3420.00000000 -90.00000000 152 22 168 97.000000 1.000000 4.000000 1.000000 -60.708740 114.000000 149.000000 -0.440554 -0.395698 0.805813
-40.00000000 3350.00000000 -20.00000000 152 22 168 97.000000 1.000000 4.000000 1.000000 -60.708740 114.000000 149.000000 0.985816 -0.021805 -0.166407
-60.00000000 3380.00000000 -40.00000000 152 22 168 97.000000 1.000000 4.000000 1.000000 -60.708740 114.000000 149.000000 0.955378 0.275766 -0.105863
-90.00000000 3400.00000000 -40.00000000 152 22 168 97.000000 1.000000 4.000000 1.000000 -60.708740 114.000000 149.000000 0.729337 0.565441 -0.385155
-50.00000000 3400.00000000 -80.00000000 152 22 168 97.000000 1.000000 4.000000 1.000000 -60.708740 114.000000 149.000000 -0.623799 -0.343660 0.701978
-90.00000000 3380.00000000 -70.00000000 152 22 168 97.000000 1.000000 4.000000 1.000000 -60.708740 114.000000 149.000000 0.669451 0.682294 -0.293788
-60.00000000 3360.00000000 -50.00000000 152 22 168 97.000000 1.000000 4.000000 1.000000 -60.708740 114.000000 149.000000 0.816011 0.103274 -0.568735
-50.00000000 3350.00000000 -40.00000000 152 22 168 97.000000 1.000000 4.000000 1.000000 -60.708740 114.000000 149.000000 0.797308 -0.079298 -0.598341
-50.00000000 3370.00000000 -30.00000000 152 22 168 97.000000 1.000000 4.000000 1.000000 -60.708740 114.000000 149.000000 0.579327 0.492008 -0.649853
-80.00000000 3370.00000000 -70.00000000 152 22 168 97.000000 1.000000 4.000000 1.000000 -60.708740 114.000000 149.000000 0.762721 0.607381 -0.222137
-90.00000000 3400.00000000 -120.00000000 152 22 168 97.000000 1.000000 4.000000 1.000000 -60.708740 114.000000 149.000000 -0.582306 -0.394253 0.710974
-70.00000000 3410.00000000 -130.00000000 152 22 168 97.000000 1.000000 4.000000 1.000000 -60.708740 114.000000 149.000000 0.393517 0.722819 -0.568047
-80.00000000 3410.00000000 -140.00000000 152 22 168 97.000000 1.000000 4.000000 1.000000 -60.708740 114.000000 149.000000 0.590381 0.543015 -0.597147
-90.00000000 3400.00000000 -120.00000000 152 22 168 97.000000 1.000000 4.000000 1.000000 -60.708740 114.000000 149.000000 -0.582306 -0.394253 0.710974
-70.00000000 3400.00000000 -140.00000000 152 22 168 97.000000 1.000000 4.000000 1.000000 -60.708740 114.000000 149.000000 0.757954 0.546960 -0.355443
-80.00000000 3410.00000000 -140.00000000 152 22 168 97.000000 1.000000 4.000000 1.000000 -60.708740 114.000000 149.000000 0.590381 0.543015 -0.597147
-70.00000000 3410.00000000 -130.00000000 152 22 168 97.000000 1.000000 4.000000 1.000000 -60.708740 114.000000 149.000000 0.393517 0.722819 -0.568047
-90.00000000 3380.00000000 -170.00000000 152 22 168 97.000000 1.000000 4.000000 1.000000 -60.708740 114.000000 149.000000 0.396055 0.790494 -0.467183
-90.00000000 3380.00000000 -170.00000000 152 22 168 97.000000 1.000000 4.000000 1.000000 -60.708740 114.000000 149.000000 0.396055 0.790494 -0.467183
-80.00000000 3380.00000000 -160.00000000 152 22 168 97.000000 1.000000 4.000000 1.000000 -60.708740 114.000000 149.000000 0.486306 0.772560 -0.408237
-80.00000000 3370.00000000 -110.00000000 152 22 168 97.000000 1.000000 4.000000 1.000000 -60.708740 114.000000 149.000000 0.690304 0.638083 -0.341072
-80.00000000 3370.00000000 -170.00000000 152 22 168 97.000000 1.000000 4.000000 1.000000 -60.708740 114.000000 149.000000 0.844489 0.269190 -0.463007
-90.00000000 3370.00000000 -180.00000000 152 22 168 97.000000 1.000000 4.000000 1.000000 -60.708740 114.000000 149.000000 0.400146 0.756194 -0.517740
-80.00000000 3370.00000000 -170.00000000 152 22 168 97.000000 1.000000 4.000000 1.000000 -60.708740 114.000000 149.000000 0.844489 0.269190 -0.463007
-130.00000000 3470.00000000 -60.00000000 152 22 168 97.000000 1.000000 4.000000 1.000000 -60.708740 114.000000 149.000000 -0.550557 -0.304801 0.777163
-120.00000000 3470.00000000 -100.00000000 152 22 168 97.000000 1.000000 4.000000 1.000000 -60.708740 114.000000 149.000000 0.525000 0.633039 -0.568891
-120.00000000 3420.00000000 -50.00000000 152 22 168 97.000000 1.000000 4.000000 1.000000 -60.708740 114.000000 149.000000 -0.571454 -0.138039 0.808941
-110.00000000 3460.00000000 -50.00000000 152 22 168 97.000000 1.000000 4.000000 1.000000 -60.708740 114.000000 149.000000 0.624726 0.463938 -0.628076
-130.00000000 3460.00000000 -60.00000000 152 22 168 97.000000 1.000000 4.000000 1.000000 -60.708740 114.000000 149.000000 0.514392 0.511041 -0.688649
-110.00000000 3450.00000000 -60.00000000 152 22 168 97.000000 1.000000 4.000000 1.000000 -60.708740 114.000000 149.000000 -0.509056 -0.492365 0.706002
-110.00000000 3430.00000000 -90.00000000 152 22 168 97.000000 1.000000 4.000000 1.000000 -60.708740 114.000000 149.000000 0.576061 0.676246 -0.459179
-130.00000000 3460.00000000 -70.00000000 152 22 168 97.000000 1.000000 4.000000 1.000000 -60.708740 114.000000 149.000000 0.369230 0.710563 -0.598973
-120.00000000 3440.00000000 -100.00000000 152 22 168 97.000000 1.000000 4.000000 1.000000 -60.708740 114.000000 149.000000 0.682097 0.672467 -0.287283
-110.00000000 3430.00000000 -100.00000000 152 22 168 97.000000 1.000000 4.000000 1.000000 -60.708740 114.000000 149.000000 0.683822 0.624503 -0.377338
-100.00000000 3420.00000000 -90.00000000 152 22 168 97.000000 1.000000 4.000000 1.000000 -60.708740 114.000000 149.000000 -0.381697 -0.384838 0.840361
-140.00000000 3470.00000000 -20.00000000 152 22 168 97.000000 1.000000 4.000000 1.000000 -60.708740 114.000000 149.000000 0.695670 0.455439 -0.555535
-150.00000000 3490.00000000 -20.00000000 152 22 168 97.000000 1.000000 4.000000 1.000000 -60.708740 114.000000 149.000000 0.665217 0.678165 -0.312377
-160.00000000 3450.00000000 -50.00000000 152 22 168 97.000000 1.000000 4.000000 1.000000 -60.708740 114.000000 149.000000 0.806385 0.450485 -0.383153
-160.00000000 3460.00000000 -40.00000000 152 22 168 97.000000 1.000000 4.000000 1.000000 -60.708740 114.000000 149.000000 0.545344 0.582489 -0.602749
-160.00000000 3450.00000000 -40.00000000 152 22 168 97.000000 1.000000 4.000000 1.000000 -60.708740 114.000000 149.000000 0.726997 0.367583 -0.579964
-160.00000000 3460.00000000 -90.00000000 152 22 168 97.000000 1.000000 4.000000 1.000000 -60.708740 114.000000 149.000000 -0.625487 -0.250510 0.738925
-150.00000000 3450.00000000 -90.00000000 152 22 168 97.000000 1.000000 4.000000 1.000000 -60.708740 114.000000 149.000000 0.504209 0.776580 -0.377752
-150.00000000 3440.00000000 -100.00000000 152 22 168 97.000000 1.000000 4.000000 1.000000 -60.708740 114.000000 149.000000 0.778572 0.446988 -0.440486
-140.00000000 3420.00000000 -80.00000000 152 22 168 97.000000 1.000000 4.000000 1.000000 -60.708740 114.000000 149.000000 0.864118 0.243648 -0.440382
-120.00000000 3430.00000000 -110.00000000 152 22 168 97.000000 1.000000 4.000000 1.000000 -60.708740 114.000000 149.000000 -0.258340 -0.686266 0.679926
-110.00000000 3420.00000000 -130.00000000 152 22 168 97.000000 1.000000 4.000000 1.000000 -60.708740 114.000000 149.000000 0.857820 0.397225 -0.326126
-170.00000000 3480.00000000 -150.00000000 152 22 168 97.000000 1.000000 4.000000 1.000000 -60.708740 114.000000 149.000000 -0.036976 -0.497126 0.866890
-160.00000000 3430.00000000 -130.00000000 152 22 168 97.000000 1.000000 4.000000 1.000000 -60.708740 114.000000 149.000000 0.338749 0.734227 -0.588354
-150.00000000 3420.00000000 -140.00000000 152 22 168 97.000000 1.000000 4.000000 1.000000 -60.708740 114.000000 149.000000 0.551016 0.704168 -0.447804
-150.00000000 3420.00000000 -130.00000000 152 22 168 97.000000 1.000000 4.000000 1.000000 -60.708740 114.000000 149.000000 0.569269 0.738908 -0.360483
-150.00000000 3420.00000000 -130.00000000 152 22 168 97.000000 1.000000 4.000000 1.000000 -60.708740 114.000000 149.000000 0.569269 0.738908 -0.360483
-140.00000000 3420.00000000 -130.00000000 152 22 168 97.000000 1.000000 4.000000 1.000000 -60.708740 114.000000 149.000000 0.599318 0.541918 -0.589188
-150.00000000 3420.00000000 -130.00000000 152 22 168 97.000000 1.000000 4.000000 1.000000 -60.708740 114.000000 149.000000 0.569269 0.738908 -0.360483
-160.00000000 3450.00000000 -150.00000000 152 22 168 97.000000 1.000000 4.000000 1.000000 -60.708740 114.000000 149.000000 0.311419 0.701902 -0.640587
-170.00000000 3450.00000000 -150.00000000 152 22 168 97.000000 1.000000 4.000000 1.000000 -60.708740 114.000000 149.000000 -0.090294 -0.537462 0.838440
-160.00000000 3450.00000000 -150.00000000 152 22 168 97.000000 1.000000 4.000000 1.000000 -60.708740 114.000000 149.000000 0.311419 0.701902 -0.640587
-140.00000000 3440.00000000 -180.00000000 152 22 168 97.000000 1.000000 4.000000 1.000000 -60.708740 114.000000 149.000000 0.780808 0.426928 -0.456148
-120.00000000 3380.00000000 -40.00000000 152 22 168 97.000000 1.000000 4.000000 1.000000 -60.708740 114.000000 149.000000 0.714219 0.064929 -0.696904
-110.00000000 3400.00000000 -80.00000000 152 22 168 97.000000 1.000000 4.000000 1.000000 -60.708740 114.000000 149.000000 0.538064 0.622400 -0.568425
-110.00000000 3400.00000000 -80.00000000 152 22 168 97.000000 1.000000 4.000000 1.000000 -60.708740 114.000000 149.000000 0.538064 0.622400 -0.568425
-110.00000000 3380.00000000 -70.00000000 152 22 168 97.000000 1.000000 4.000000 1.000000 -60.708740 114.000000 149.000000 0.787871 0.375407 -0.488190
-100.00000000 3390.00000000 -70.00000000 152 22 168 97.000000 1.000000 4.000000 1.000000 -60.708740 114.000000 149.000000 0.866143 0.450274 -0.216910
-110.00000000 3400.00000000 -80.00000000 152 22 168 97.000000 1.000000 4.000000 1.000000 -60.708740 114.000000 149.000000 0.538064 0.622400 -0.568425
-110.00000000 3370.00000000 -90.00000000 152 22 168 97.000000 1.000000 4.000000 1.000000 -60.708740 114.000000 149.000000 0.855019 0.473341 -0.211876
-110.00000000 3360.00000000 -100.00000000 152 22 168 97.000000 1.000000 4.000000 1.000000 -60.708740 114.000000 149.000000 0.696339 0.610737 -0.376978
-150.00000000 3350.00000000 -80.00000000 152 22 168 97.000000 1.000000 4.000000 1.000000 -60.708740 114.000000 149.000000 0.798223 0.091267 -0.595408
-110.00000000 3370.00000000 -140.00000000 152 22 168 97.000000 1.000000 4.000000 1.000000 -60.708740 114.000000 149.000000 0.503088 0.590582 -0.630964
-110.00000000 3370.00000000 -140.00000000 152 22 168 97.000000 1.000000 4.000000 1.000000 -60.708740 114.000000 149.000000 0.503088 0.590582 -0.630964
-170.00000000 3400.00000000 -110.00000000 152 22 168 97.000000 1.000000 4.000000 1.000000 -60.708740 114.000000 149.000000 0.516730 0.567225 -0.641284
-150.00000000 3390.00000000 -140.00000000 152 22 168 97.000000 1.000000 4.000000 1.000000 -60.708740 114.000000 149.000000 -0.455811 -0.194499 0.868566
-150.00000000 3410.00000000 -140.00000000 152 22 168 97.000000 1.000000 4.000000 1.000000 -60.708740 114.000000 149.000000 0.233874 0.689064 -0.685925
-140.00000000 3380.00000000 -130.00000000 152 22 168 97.000000 1.000000 4.000000 1.000000 -60.708740 114.000000 149.000000 -0.412515 -0.534133 0.737925
-140.00000000 3380.00000000 -130.00000000 152 22 168 97.000000 1.000000 4.000000 1.000000 -60.708740 114.000000 149.000000 -0.412515 -0.534133 0.737925
-140.00000000 3400.00000000 -170.00000000 152 22 168 97.000000 1.000000 4.000000 1.000000 -60.708740 114.000000 149.000000 0.417495 0.761315 -0.496082
-170.00000000 3410.00000000 -170.00000000 152 22 168 97.000000 1.000000 4.000000 1.000000 -60.708740 114.000000 149.000000 -0.340921 -0.500978 0.795483
-70.00000000 3430.00000000 -230.00000000 152 22 168 97.000000 1.000000 4.000000 1.000000 -60.708740 114.000000 149.000000 -0.233667 -0.716682 0.657089
-70.00000000 3440.00000000 -350.00000000 152 22 168 97.000000 1.000000 4.000000 1.000000 -60.708740 114.000000 149.000000 0.275245 0.746185 -0.606176
-60.00000000 3390.00000000 -200.00000000 152 22 168 97.000000 1.000000 4.000000 1.000000 -60.708740 114.000000 149.000000 0.672467 0.682097 -0.287283
-60.00000000 3350.00000000 -200.00000000 152 22 168 97.000000 1.000000 4.000000 1.000000 -60.708740 114.000000 149.000000 0.684767 0.477161 -0.550828
-80.00000000 3360.00000000 -210.00000000 152 22 168 97.000000 1.000000 4.000000 1.000000 -60.708740 114.000000 149.000000 0.879478 0.276063 -0.387695
-90.00000000 3350.00000000 -260.00000000 152 22 168 97.000000 1.000000 4.000000 1.000000 -60.708740 114.000000 149.000000 0.497096 0.598200 -0.628532
-60.00000000 3390.00000000 -280.00000000 152 22 168 97.000000 1.000000 4.000000 1.000000 -60.708740 114.000000 149.000000 0.383754 0.683510 -0.620924
-90.00000000 3400.00000000 -330.00000000 152 22 168 97.000000 1.000000 4.000000 1.000000 -60.708740 114.000000 149.000000 0.620875 0.308018 -0.720860
-80.00000000 3380.00000000 -330.00000000 152 22 168 97.000000 1.000000 4.000000 1.000000 -60.708740 114.000000 149.000000 0.648068 0.133206 -0.749843
-90.00000000 3370.00000000 -340.00000000 152 22 168 97.000000 1.000000 4.000000 1.000000 -60.708740 114.000000 149.000000 0.613431 0.692371 -0.379900
-80.00000000 3340.00000000 -340.00000000 152 22 168 97.000000 1.000000 4.000000 1.000000 -60.708740 114.000000 149.000000 0.682600 0.650017 -0.333969
-110.00000000 3420.00000000 -230.00000000 152 22 168 97.000000 1.000000 4.000000 1.000000 -60.708740 114.000000 149.000000 0.264324 0.742324 -0.615701
-120.00000000 3460.00000000 -260.00000000 152 22 168 97.000000 1.000000 4.000000 1.000000 -60.708740 114.000000 149.000000 0.729219 0.451421 -0.514256
-120.00000000 3420.00000000 -330.00000000 152 22 168 97.000000 1.000000 4.000000 1.000000 -60.708740 114.000000 149.000000 -0.584183 -0.346605 0.733890
-160.00000000 3420.00000000 -290.00000000 152 22 168 97.000000 1.000000 4.000000 1.000000 -60.708740 114.000000 149.000000 -0.378137 -0.571297 0.728445
-150.00000000 3420.00000000 -290.00000000 152 22 168 97.000000 1.000000 4.000000 1.000000 -60.708740 114.000000 149.000000 -0.228817 -0.474302 0.850106
-150.00000000 3420.00000000 -280.00000000 152 22 168 97.000000 1.000000 4.000000 1.000000 -60.708740 114.000000 149.000000 0.688506 0.575145 -0.441778
-100.00000000 3410.00000000 -200.00000000 152 22 168 97.000000 1.000000 4.000000 1.000000 -60.708740 114.000000 149.000000 0.701095 0.217043 -0.679234
-130.00000000 3380.00000000 -200.00000000 152 22 168 97.000000 1.000000 4.000000 1.000000 -60.708740 114.000000 149.000000 0.311750 0.715571 -0.625115
-120.00000000 3390.00000000 -220.00000000 152 22 168 97.000000 1.000000 4.000000 1.000000 -60.708740 114.000000 149.000000 0.358136 0.698284 -0.619788
-100.00000000 3410.00000000 -200.00000000 152 22 168 97.000000 1.000000 4.000000 1.000000 -60.708740 114.000000 149.000000 0.701095 0.217043 -0.679234
-110.00000000 3400.00000000 -240.00000000 152 22 168 97.000000 1.000000 4.000000 1.000000 -60.708740 114.000000 149.000000 0.497816 0.672135 -0.548100
-110.00000000 3340.00000000 -220.00000000 152 22 168 97.000000 1.000000 4.000000 1.000000 -60.708740 114.000000 149.000000 0.805842 0.147465 -0.573474
-130.00000000 3350.00000000 -260.00000000 152 22 168 97.000000 1.000000 4.000000 1.000000 -60.708740 114.000000 149.000000 -0.211632 -0.469793 0.857034
-170.00000000 3380.00000000 -200.00000000 152 22 168 97.000000 1.000000 4.000000 1.000000 -60.708740 114.000000 149.000000 -0.320665 -0.314699 0.893386
-170.00000000 3390.00000000 -190.00000000 152 22 168 97.000000 1.000000 4.000000 1.000000 -60.708740 114.000000 149.000000 0.725950 0.371988 -0.578465
-170.00000000 3400.00000000 -190.00000000 152 22 168 97.000000 1.000000 4.000000 1.000000 -60.708740 114.000000 149.000000 -0.229199 -0.597165 0.768675
-150.00000000 3380.00000000 -200.00000000 152 22 168 97.000000 1.000000 4.000000 1.000000 -60.708740 114.000000 149.000000 -0.620406 -0.145713 0.770626
-140.00000000 3340.00000000 -230.00000000 152 22 168 97.000000 1.000000 4.000000 1.000000 -60.708740 114.000000 149.000000 0.767876 0.284575 -0.573920
-150.00000000 3340.00000000 -240.00000000 152 22 168 97.000000 1.000000 4.000000 1.000000 -60.708740 114.000000 149.000000 -0.406749 -0.365917 0.837054
-130.00000000 3380.00000000 -280.00000000 152 22 168 97.000000 1.000000 4.000000 1.000000 -60.708740 114.000000 149.000000 0.350767 0.722743 -0.595488
-130.00000000 3380.00000000 -280.00000000 152 22 168 97.000000 1.000000 4.000000 1.000000 -60.708740 114.000000 149.000000 0.350767 0.722743 -0.595488
-120.00000000 3390.00000000 -300.00000000 152 22 168 97.000000 1.000000 4.000000 1.000000 -60.708740 114.000000 149.000000 0.710751 0.351291 -0.609449
-110.00000000 3410.00000000 -300.00000000 152 22 168 97.000000 1.000000 4.000000 1.000000 -60.708740 114.000000 149.000000 -0.149386 -0.671483 0.725806
-120.00000000 3350.00000000 -280.00000000 152 22 168 97.000000 1.000000 4.000000 1.000000 -60.708740 114.000000 149.000000 0.545037 0.729461 -0.413306
-110.00000000 3340.00000000 -280.00000000 152 22 168 97.000000 1.000000 4.000000 1.000000 -60.708740 114.000000 149.000000 -0.367701 -0.567076 0.737035
-120.00000000 3350.00000000 -320.00000000 152 22 168 97.000000 1.000000 4.000000 1.000000 -60.708740 114.000000 149.000000 0.210889 0.786602 -0.580330
-120.00000000 3350.00000000 -320.00000000 152 22 168 97.000000 1.000000 4.000000 1.000000 -60.708740 114.000000 149.000000 0.210889 0.786602 -0.580330
-130.00000000 3350.00000000 -330.00000000 152 22 168 97.000000 1.000000 4.000000 1.000000 -60.708740 114.000000 149.000000 0.466593 0.715663 -0.519728
-130.00000000 3340.00000000 -340.00000000 152 22 168 97.000000 1.000000 4.000000 1.000000 -60.708740 114.000000 149.000000 0.332784 0.706151 -0.624984
-130.00000000 3350.00000000 -330.00000000 152 22 168 97.000000 1.000000 4.000000 1.000000 -60.708740 114.000000 149.000000 0.466593 0.715663 -0.519728
-120.00000000 3340.00000000 -330.00000000 152 22 168 97.000000 1.000000 4.000000 1.000000 -60.708740 114.000000 149.000000 0.429211 0.717561 -0.548528
-150.00000000 3380.00000000 -310.00000000 152 22 168 97.000000 1.000000 4.000000 1.000000 -60.708740 114.000000 149.000000 -0.441836 -0.422415 0.791421
-150.00000000 3400.00000000 -300.00000000 152 22 168 97.000000 1.000000 4.000000 1.000000 -60.708740 114.000000 149.000000 0.563975 0.466911 -0.681121
-150.00000000 3400.00000000 -300.00000000 152 22 168 97.000000 1.000000 4.000000 1.000000 -60.708740 114.000000 149.000000 0.563975 0.466911 -0.681121
-160.00000000 3390.00000000 -300.00000000 152 22 168 97.000000 1.000000 4.000000 1.000000 -60.708740 114.000000 149.000000 0.049886 -0.674173 0.736887
-150.00000000 3410.00000000 -290.00000000 152 22 168 97.000000 1.000000 4.000000 1.000000 -60.708740 114.000000 149.000000 0.531052 0.415964 -0.738212
-150.00000000 3400.00000000 -300.00000000 152 22 168 97.000000 1.000000 4.000000 1.000000 -60.708740 114.000000 149.000000 0.563975 0.466911 -0.681121
-160.00000000 3390.00000000 -320.00000000 152 22 168 97.000000 1.000000 4.000000 1.000000 -60.708740 114.000000 149.000000 0.337173 0.766301 -0.546897
-140.00000000 3370.00000000 -310.00000000 152 22 168 97.000000 1.000000 4.000000 1.000000 -60.708740 114.000000 149.000000 -0.412043 -0.517106 0.750214
-150.00000000 3350.00000000 -290.00000000 152 22 168 97.000000 1.000000 4.000000 1.000000 -60.708740 114.000000 149.000000 0.680626 0.553531 -0.479950
-170.00000000 3350.00000000 -310.00000000 152 22 168 97.000000 1.000000 4.000000 1.000000 -60.708740 114.000000 149.000000 0.667333 0.395763 -0.630903
-170.00000000 3360.00000000 -290.00000000 152 22 168 97.000000 1.000000 4.000000 1.000000 -60.708740 114.000000 149.000000 0.417854 0.758691 -0.499786
-150.00000000 3350.00000000 -290.00000000 152 22 168 97.000000 1.000000 4.000000 1.000000 -60.708740 114.000000 149.000000 0.680626 0.553531 -0.479950
-160.00000000 3360.00000000 -330.00000000 152 22 168 97.000000 1.000000 4.000000 1.000000 -60.708740 114.000000 149.000000 -0.362237 -0.406144 0.838947
-160.00000000 3360.00000000 -330.00000000 152 22 168 97.000000 1.000000 4.000000 1.000000 -60.708740 114.000000 149.000000 -0.362237 -0.406144 0.838947
-150.00000000 3370.00000000 -320.00000000 152 22 168 97.000000 1.000000 4.000000 1.000000 -60.708740 114.000000 149.000000 0.681274 0.537319 -0.497146
-160.00000000 3360.00000000 -330.00000000 152 22 168 97.000000 1.000000 4.000000 1.000000 -60.708740 114.000000 149.000000 -0.362237 -0.406144 0.838947
-150.00000000 3360.00000000 -330.00000000 152 22 168 97.000000 1.000000 4.000000 1.000000 -60.708740 114.000000 149.000000 -0.458627 -0.501676 0.733473
-150.00000000 3370.00000000 -320.00000000 152 22 168 97.000000 1.000000 4.000000 1.000000 -60.708740 114.000000 149.000000 0.681274 0.537319 -0.497146
-160.00000000 3370.00000000 -330.00000000 152 22 168 97.000000 1.000000 4.000000 1.000000 -60.708740 114.000000 149.000000 -0.255946 -0.310895 0.915334
-150.00000000 3350.00000000 -330.00000000 152 22 168 97.000000 1.000000 4.000000 1.000000 -60.708740 114.000000 149.000000 0.220095 0.732088 -0.644675
-150.00000000 3370.00000000 -320.00000000 152 22 168 97.000000 1.000000 4.000000 1.000000 -60.708740 114.000000 149.000000 0.681274 0.537319 -0.497146
-200.00000000 3650.00000000 -30.00000000 152 22 168 97.000000 1.000000 4.000000 1.000000 -60.708740 114.000000 149.000000 0.505635 0.656822 -0.559391
-210.00000000 3640.00000000 -20.00000000 152 22 168 97.000000 1.000000 4.000000 1.000000 -60.708740 114.000000 149.000000 -0.090054 -0.527460 0.844794
-190.00000000 3630.00000000 -20.00000000 152 22 168 97.000000 1.000000 4.000000 1.000000 -60.708740 114.000000 149.000000 0.562264 0.692403 -0.452147
-210.00000000 3630.00000000 -140.00000000 152 22 168 97.000000 1.000000 4.000000 1.000000 -60.708740 114.000000 149.000000 -0.272017 -0.241010 0.931623
-230.00000000 3640.00000000 -150.00000000 152 22 168 97.000000 1.000000 4.000000 1.000000 -60.708740 114.000000 149.000000 -0.430583 -0.351721 0.831198
-220.00000000 3610.00000000 -180.00000000 152 22 168 97.000000 1.000000 4.000000 1.000000 -60.708740 114.000000 149.000000 0.053446 0.883921 -0.464572
-240.00000000 3620.00000000 -150.00000000 152 22 168 97.000000 1.000000 4.000000 1.000000 -60.708740 114.000000 149.000000 0.275311 0.791324 -0.545903
-250.00000000 3620.00000000 -150.00000000 152 22 168 97.000000 1.000000 4.000000 1.000000 -60.708740 114.000000 149.000000 -0.322453 -0.682174 0.656249
-190.00000000 3510.00000000 -140.00000000 152 22 168 97.000000 1.000000 4.000000 1.000000 -60.708740 114.000000 149.000000 -0.285497 -0.610869 0.738465
-330.00000000 3630.00000000 -130.00000000 152 22 168 97.000000 1.000000 4.000000 1.000000 -60.708740 114.000000 149.000000 0.399828 -0.362198 0.841992
-320.00000000 3600.00000000 -180.00000000 152 22 168 97.000000 1.000000 4.000000 1.000000 -60.708740 114.000000 149.000000 0.181053 -0.363532 0.913819
-340.00000000 3610.00000000 -170.00000000 152 22 168 97.000000 1.000000 4.000000 1.000000 -60.708740 114.000000 149.000000 0.299454 -0.600509 0.741429
-280.00000000 3510.00000000 -60.00000000 152 22 168 97.000000 1.000000 4.000000 1.000000 -60.708740 114.000000 149.000000 0.422267 0.571302 -0.703778
-290.00000000 3510.00000000 -60.00000000 152 22 168 97.000000 1.000000 4.000000 1.000000 -60.708740 114.000000 149.000000 -0.223382 -0.553063 0.802634
-220.00000000 3610.00000000 -190.00000000 152 22 168 97.000000 1.000000 4.000000 1.000000 -60.708740 114.000000 149.000000 0.130116 -0.659551 0.740312
-180.00000000 3610.00000000 -320.00000000 152 22 168 97.000000 1.000000 4.000000 1.000000 -60.708740 114.000000 149.000000 0.471863 0.599484 -0.646502
-200.00000000 3570.00000000 -320.00000000 152 22 168 97.000000 1.000000 4.000000 1.000000 -60.708740 114.000000 149.000000 -0.157322 -0.495492 0.854246
-240.00000000 3580.00000000 -300.00000000 152 22 168 97.000000 1.000000 4.000000 1.000000 -60.708740 114.000000 149.000000 -0.129487 0.848213 -0.513583
-230.00000000 3580.00000000 -290.00000000 152 22 168 97.000000 1.000000 4.000000 1.000000 -60.708740 114.000000 149.000000 0.273111 0.819334 -0.504085
-240.00000000 3530.00000000 -290.00000000 152 22 168 97.000000 1.000000 4.000000 1.000000 -60.708740 114.000000 149.000000 -0.417680 -0.389093 0.821066
-340.00000000 3650.00000000 -220.00000000 152 22 168 97.000000 1.000000 4.000000 1.000000 -60.708740 114.000000 149.000000 0.204834 -0.257073 0.944434
-340.00000000 3640.00000000 -190.00000000 152 22 168 97.000000 1.000000 4.000000 1.000000 -60.708740 114.000000 149.000000 -0.291821 -0.575668 0.763837
-340.00000000 3600.00000000 -220.00000000 152 22 168 97.000000 1.000000 4.000000 1.000000 -60.708740 114.000000 149.000000 -0.388475 0.633132 -0.669500
-320.00000000 3610.00000000 -220.00000000 152 22 168 97.000000 1.000000 4.000000 1.000000 -60.708740 114.000000 149.000000 0.194233 -0.588818 0.784581
-320.00000000 3590.00000000 -270.00000000 152 22 168 97.000000 1.000000 4.000000 1.000000 -60.708740 114.000000 149.000000 0.163698 0.853887 -0.494045
-300.00000000 3640.00000000 -300.00000000 152 22 168 97.000000 1.000000 4.000000 1.000000 -60.708740 114.000000 149.000000 0.102463 -0.372966 0.922170
-300.00000000 3630.00000000 -310.00000000 152 22 168 97.000000 1.000000 4.000000 1.000000 -60.708740 114.000000 149.000000 0.185621 -0.737880 0.648905
-340.00000000 3640.00000000 -310.00000000 152 22 168 97.000000 1.000000 4.000000 1.000000 -60.708740 114.000000 149.000000 0.203615 -0.365353 0.908327
-340.00000000 3630.00000000 -320.00000000 152 22 168 97.000000 1.000000 4.000000 1.000000 -60.708740 114.000000 149.000000 -0.343660 0.623799 -0.701978
-340.00000000 3570.00000000 -190.00000000 152 22 168 97.000000 1.000000 4.000000 1.000000 -60.708740 114.000000 149.000000 0.445539 -0.481708 0.754621
-320.00000000 3510.00000000 -210.00000000 152 22 168 97.000000 1.000000 4.000000 1.000000 -60.708740 114.000000 149.000000 0.057891 -0.413312 0.908747
-330.00000000 3540.00000000 -190.00000000 152 22 168 97.000000 1.000000 4.000000 1.000000 -60.708740 114.000000 149.000000 0.043477 -0.267070 0.962696
-340.00000000 3530.00000000 -190.00000000 152 22 168 97.000000 1.000000 4.000000 1.000000 -60.708740 114.000000 149.000000 -0.048320 -0.498382 0.865610
-340.00000000 3520.00000000 -200.00000000 152 22 168 97.000000 1.000000 4.000000 1.000000 -60.708740 114.000000 149.000000 -0.136974 -0.352813 0.925614
-310.00000000 3510.00000000 -210.00000000 152 22 168 97.000000 1.000000 4.000000 1.000000 -60.708740 114.000000 149.000000 0.060952 -0.418537 0.906152
-340.00000000 3520.00000000 -200.00000000 152 22 168 97.000000 1.000000 4.000000 1.000000 -60.708740 114.000000 149.000000 -0.136974 -0.352813 0.925614
-320.00000000 3520.00000000 -250.00000000 152 22 168 97.000000 1.000000 4.000000 1.000000 -60.708740 114.000000 149.000000 0.236632 0.811971 -0.533581
-270.00000000 3580.00000000 -350.00000000 152 22 168 97.000000 1.000000 4.000000 1.000000 -60.708740 114.000000 149.000000 -0.175877 0.825271 -0.536652
-280.00000000 3550.00000000 -340.00000000 152 22 168 97.000000 1.000000 4.000000 1.000000 -60.708740 114.000000 149.000000 -0.309535 -0.327479 0.892718
-300.00000000 3580.00000000 -350.00000000 152 22 168 97.000000 1.000000 4.000000 1.000000 -60.708740 114.000000 149.000000 0.196114 -0.687171 0.699525
-280.00000000 3540.00000000 -340.00000000 152 22 168 97.000000 1.000000 4.000000 1.000000 -60.708740 114.000000 149.000000 -0.335769 -0.455574 0.824446
-280.00000000 3520.00000000 -350.00000000 152 22 168 97.000000 1.000000 4.000000 1.000000 -60.708740 114.000000 149.000000 0.025776 -0.266352 0.963531
-330.00000000 3580.00000000 -310.00000000 152 22 168 97.000000 1.000000 4.000000 1.000000 -60.708740 114.000000 149.000000 0.366926 -0.515637 0.774263
-330.00000000 3580.00000000 -310.00000000 152 22 168 97.000000 1.000000 4.000000 1.000000 -60.708740 114.000000 149.000000 0.366926 -0.515637 0.774263
-180.00000000 3470.00000000 -40.00000000 152 22 168 97.000000 1.000000 4.000000 1.000000 -60.708740 114.000000 149.000000 0.404459 0.810518 -0.423643
-190.00000000 3470.00000000 -80.00000000 152 22 168 97.000000 1.000000 4.000000 1.000000 -60.708740 114.000000 149.000000 -0.358501 -0.636789 0.682625
-190.00000000 3450.00000000 -90.00000000 152 22 168 97.000000 1.000000 4.000000 1.000000 -60.708740 114.000000 149.000000 -0.386886 -0.421913 0.819944
-200.00000000 3460.00000000 -90.00000000 152 22 168 97.000000 1.000000 4.000000 1.000000 -60.708740 114.000000 149.000000 -0.427649 -0.383135 0.818733
-240.00000000 3490.00000000 -30.00000000 152 22 168 97.000000 1.000000 4.000000 1.000000 -60.708740 114.000000 149.000000 0.165428 -0.638945 0.751254
-240.00000000 3490.00000000 -90.00000000 152 22 168 97.000000 1.000000 4.000000 1.000000 -60.708740 114.000000 149.000000 0.018073 -0.618641 0.785466
-220.00000000 3470.00000000 -100.00000000 152 22 168 97.000000 1.000000 4.000000 1.000000 -60.708740 114.000000 149.000000 -0.049931 -0.697613 0.714733
-240.00000000 3490.00000000 -80.00000000 152 22 168 97.000000 1.000000 4.000000 1.000000 -60.708740 114.000000 149.000000 -0.001374 0.784741 -0.619822
-250.00000000 3430.00000000 -40.00000000 152 22 168 97.000000 1.000000 4.000000 1.000000 -60.708740 114.000000 149.000000 -0.256989 -0.401263 0.879173
-180.00000000 3470.00000000 -150.00000000 152 22 168 97.000000 1.000000 4.000000 1.000000 -60.708740 114.000000 149.000000 -0.285346 -0.488051 0.824854
-250.00000000 3430.00000000 -150.00000000 152 22 168 97.000000 1.000000 4.000000 1.000000 -60.708740 114.000000 149.000000 -0.085474 -0.314281 0.945474
-250.00000000 3360.00000000 -30.00000000 152 22 168 97.000000 1.000000 4.000000 1.000000 -60.708740 114.000000 149.000000 -0.229189 -0.435909 0.870319
-180.00000000 3390.00000000 -180.00000000 152 22 168 97.000000 1.000000 4.000000 1.000000 -60.708740 114.000000 149.000000 0.373176 0.606617 -0.701966
-200.00000000 3340.00000000 -130.00000000 152 22 168 97.000000 1.000000 4.000000 1.000000 -60.708740 114.000000 149.000000 -0.288596 -0.597920 0.747799
-200.00000000 3340.00000000 -130.00000000 152 22 168 97.000000 1.000000 4.000000 1.000000 -60.708740 114.000000 149.000000 -0.288596 -0.597920 0.747799
-180.00000000 3340.00000000 -170.00000000 152 22 168 97.000000 1.000000 4.000000 1.000000 -60.708740 114.000000 149.000000 0.663436 0.660160 -0.352195
-240.00000000 3390.00000000 -170.00000000 152 22 168 97.000000 1.000000 4.000000 1.000000 -60.708740 114.000000 149.000000 0.505944 0.566455 -0.650499
-230.00000000 3380.00000000 -170.00000000 152 22 168 97.000000 1.000000 4.000000 1.000000 -60.708740 114.000000 149.000000 0.058388 -0.602389 0.796064
-230.00000000 3380.00000000 -150.00000000 152 22 168 97.000000 1.000000 4.000000 1.000000 -60.708740 114.000000 149.000000 -0.333574 -0.200145 0.921233
-230.00000000 3360.00000000 -110.00000000 152 22 168 97.000000 1.000000 4.000000 1.000000 -60.708740 114.000000 149.000000 0.616875 0.532372 -0.579694
-250.00000000 3340.00000000 -170.00000000 152 22 168 97.000000 1.000000 4.000000 1.000000 -60.708740 114.000000 149.000000 0.006924 -0.671622 0.740862
-240.00000000 3340.00000000 -180.00000000 152 22 168 97.000000 1.000000 4.000000 1.000000 -60.708740 114.000000 149.000000 0.589632 0.579495 -0.562600
-240.00000000 3340.00000000 -180.00000000 152 22 168 97.000000 1.000000 4.000000 1.000000 -60.708740 114.000000 149.000000 0.589632 0.579495 -0.562600
-260.00000000 3480.00000000 -30.00000000 152 22 168 97.000000 1.000000 4.000000 1.000000 -60.708740 114.000000 149.000000 0.238601 0.871870 -0.427682
-280.00000000 3470.00000000 -50.00000000 152 22 168 97.000000 1.000000 4.000000 1.000000 -60.708740 114.000000 149.000000 0.124936 -0.405690 0.905432
-300.00000000 3440.00000000 -60.00000000 152 22 168 97.000000 1.000000 4.000000 1.000000 -60.708740 114.000000 149.000000 -0.343820 -0.630609 0.695788
-290.00000000 3450.00000000 -20.00000000 152 22 168 97.000000 1.000000 4.000000 1.000000 -60.708740 114.000000 149.000000 0.262408 -0.672719 0.691803
-340.00000000 3460.00000000 -80.00000000 152 22 168 97.000000 1.000000 4.000000 1.000000 -60.708740 114.000000 149.000000 0.154325 0.585837 -0.795600
-290.00000000 3460.00000000 -120.00000000 152 22 168 97.000000 1.000000 4.000000 1.000000 -60.708740 114.000000 149.000000 -0.383152 -0.370641 0.846062
-300.00000000 3460.00000000 -110.00000000 152 22 168 97.000000 1.000000 4.000000 1.000000 -60.708740 114.000000 149.000000 -0.313996 -0.603838 0.732657
-340.00000000 3440.00000000 -150.00000000 152 22 168 97.000000 1.000000 4.000000 1.000000 -60.708740 114.000000 149.000000 0.015310 -0.641614 0.766875
-340.00000000 3440.00000000 -160.00000000 152 22 168 97.000000 1.000000 4.000000 1.000000 -60.708740 114.000000 149.000000 0.226743 -0.658337 0.717760
-280.00000000 3360.00000000 -40.00000000 152 22 168 97.000000 1.000000 4.000000 1.000000 -60.708740 114.000000 149.000000 -0.172657 -0.479602 0.860332
-280.00000000 3340.00000000 -20.00000000 152 22 168 97.000000 1.000000 4.000000 1.000000 -60.708740 114.000000 149.000000 0.502179 0.656696 -0.562642
-310.00000000 3410.00000000 -100.00000000 152 22 168 97.000000 1.000000 4.000000 1.000000 -60.708740 114.000000 149.000000 0.368078 0.590561 -0.718162
-340.00000000 3380.00000000 -90.00000000 152 22 168 97.000000 1.000000 4.000000 1.000000 -60.708740 114.000000 149.000000 0.511881 -0.495207 0.701960
-340.00000000 3360.00000000 -50.00000000 152 22 168 97.000000 1.000000 4.000000 1.000000 -60.708740 114.000000 149.000000 -0.356839 0.798488 -0.484853
-280.00000000 3390.00000000 -150.00000000 152 22 168 97.000000 1.000000 4.000000 1.000000 -60.708740 114.000000 149.000000 -0.073822 -0.379846 0.922099
-270.00000000 3380.00000000 -160.00000000 152 22 168 97.000000 1.000000 4.000000 1.000000 -60.708740 114.000000 149.000000 0.102812 -0.385204 0.917086
-290.00000000 3400.00000000 -160.00000000 152 22 168 97.000000 1.000000 4.000000 1.000000 -60.708740 114.000000 149.000000 0.366388 0.744174 -0.558538
-290.00000000 3360.00000000 -170.00000000 152 22 168 97.000000 1.000000 4.000000 1.000000 -60.708740 114.000000 149.000000 0.201340 -0.380952 0.902407
-310.00000000 3400.00000000 -130.00000000 152 22 168 97.000000 1.000000 4.000000 1.000000 -60.708740 114.000000 149.000000 -0.281772 0.756167 -0.590606
-330.00000000 3350.00000000 -170.00000000 152 22 168 97.000000 1.000000 4.000000 1.000000 -60.708740 114.000000 149.000000 -0.308125 0.771110 -0.557179
-330.00000000 3350.00000000 -150.00000000 152 22 168 97.000000 1.000000 4.000000 1.000000 -60.708740 114.000000 149.000000 0.065414 -0.380471 0.922476
-180.00000000 3390.00000000 -200.00000000 152 22 168 97.000000 1.000000 4.000000 1.000000 -60.708740 114.000000 149.000000 0.435907 0.720987 -0.538668
-190.00000000 3380.00000000 -240.00000000 152 22 168 97.000000 1.000000 4.000000 1.000000 -60.708740 114.000000 149.000000 0.598073 0.383887 -0.703519
-210.00000000 3360.00000000 -200.00000000 152 22 168 97.000000 1.000000 4.000000 1.000000 -60.708740 114.000000 149.000000 -0.291844 -0.205268 0.934180
-190.00000000 3340.00000000 -190.00000000 152 22 168 97.000000 1.000000 4.000000 1.000000 -60.708740 114.000000 149.000000 -0.287502 -0.428947 0.856357
-190.00000000 3340.00000000 -250.00000000 152 22 168 97.000000 1.000000 4.000000 1.000000 -60.708740 114.000000 149.000000 0.635449 0.438644 -0.635449
-190.00000000 3410.00000000 -330.00000000 152 22 168 97.000000 1.000000 4.000000 1.000000 -60.708740 114.000000 149.000000 -0.265885 -0.663916 0.698943
-200.00000000 3410.00000000 -340.00000000 152 22 168 97.000000 1.000000 4.000000 1.000000 -60.708740 114.000000 149.000000 0.521428 0.568677 -0.636176
-210.00000000 3350.00000000 -300.00000000 152 22 168 97.000000 1.000000 4.000000 1.000000 -60.708740 114.000000 149.000000 0.136777 0.707936 -0.692906
-230.00000000 3350.00000000 -300.00000000 152 22 168 97.000000 1.000000 4.000000 1.000000 -60.708740 114.000000 149.000000 0.115623 -0.475340 0.872171
-230.00000000 3340.00000000 -340.00000000 152 22 168 97.000000 1.000000 4.000000 1.000000 -60.708740 114.000000 149.000000 -0.129687 -0.627565 0.767687
-310.00000000 3500.00000000 -210.00000000 152 22 168 97.000000 1.000000 4.000000 1.000000 -60.708740 114.000000 149.000000 0.112177 -0.286382 0.951526
-280.00000000 3500.00000000 -310.00000000 152 22 168 97.000000 1.000000 4.000000 1.000000 -60.708740 114.000000 149.000000 -0.159543 0.827534 -0.538270
-260.00000000 3360.00000000 -200.00000000 152 22 168 97.000000 1.000000 4.000000 1.000000 -60.708740 114.000000 149.000000 -0.307550 -0.337555 0.889646
-270.00000000 3360.00000000 -190.00000000 152 22 168 97.000000 1.000000 4.000000 1.000000 -60.708740 114.000000 149.000000 -0.063808 0.818162 -0.571437
-340.00000000 3380.00000000 -220.00000000 152 22 168 97.000000 1.000000 4.000000 1.000000 -60.708740 114.000000 149.000000 -0.157422 -0.580214 0.799106
-320.00000000 3350.00000000 -230.00000000 152 22 168 97.000000 1.000000 4.000000 1.000000 -60.708740 114.000000 149.000000 -0.263361 -0.430817 0.863156
-60.00000000 3450.00000000 -370.00000000 152 22 168 97.000000 1.000000 4.000000 1.000000 -60.708740 114.000000 149.000000 0.487272 0.554251 -0.674813
-80.00000000 3380.00000000 -360.00000000 152 22 168 97.000000 1.000000 4.000000 1.000000 -60.708740 114.000000 149.000000 -0.482673 -0.243635 0.841230
-80.00000000 3380.00000000 -420.00000000 152 22 168 97.000000 1.000000 4.000000 1.000000 -60.708740 114.000000 149.000000 0.624375 0.597448 -0.503202
-70.00000000 3350.00000000 -440.00000000 152 22 168 97.000000 1.000000 4.000000 1.000000 -60.708740 114.000000 149.000000 0.622400 0.538064 -0.568425
