//X Y Z R G B PointSourceId ScanDirectionFlag NumberOfReturns ReturnNumber GpsTime Intensity Classification Nx Ny Nz
11230.00000000 -10.00000000 -100.00000000 200 133 89 97.000000 1.000000 4.000000 1.000000 -60.708740 114.000000 129.000000 -0.322454 0.908999 -0.264091
11240.00000000 20.00000000 -170.00000000 200 133 89 97.000000 1.000000 4.000000 1.000000 -60.708740 114.000000 129.000000 -0.372168 0.765463 -0.524935
11200.00000000 40.00000000 -140.00000000 200 133 89 97.000000 1.000000 4.000000 1.000000 -60.708740 114.000000 129.000000 0.100453 0.799260 -0.592530
11210.00000000 10.00000000 -130.00000000 200 133 89 97.000000 1.000000 4.000000 1.000000 -60.708740 114.000000 129.000000 0.143272 -0.707312 0.692231
11220.00000000 0.00000000 -110.00000000 200 133 89 97.000000 1.000000 4.000000 1.000000 -60.708740 114.000000 129.000000 0.113255 0.783957 -0.610398
11230.00000000 -30.00000000 -120.00000000 200 133 89 97.000000 1.000000 4.000000 1.000000 -60.708740 114.000000 129.000000 0.511708 -0.538552 0.669415
11200.00000000 -10.00000000 -170.00000000 200 133 89 97.000000 1.000000 4.000000 1.000000 -60.708740 114.000000 129.000000 0.563083 -0.549555 0.617193
11200.00000000 -10.00000000 -170.00000000 200 133 89 97.000000 1.000000 4.000000 1.000000 -60.708740 114.000000 129.000000 0.563083 -0.549555 0.617193
11190.00000000 100.00000000 -100.00000000 200 133 89 97.000000 1.000000 4.000000 1.000000 -60.708740 114.000000 129.000000 0.165933 -0.707879 0.686567
11170.00000000 110.00000000 -90.00000000 200 133 89 97.000000 1.000000 4.000000 1.000000 -60.708740 114.000000 129.000000 -0.219806 0.721773 -0.656299
11140.00000000 60.00000000 -20.00000000 200 133 89 97.000000 1.000000 4.000000 1.000000 -60.708740 114.000000 129.000000 -0.020941 -0.635225 0.772043
11120.00000000 60.00000000 -60.00000000 200 133 89 97.000000 1.000000 4.000000 1.000000 -60.708740 114.000000 129.000000 -0.085966 0.735815 -0.671704
11140.00000000 60.00000000 -20.00000000 200 133 89 97.000000 1.000000 4.000000 1.000000 -60.708740 114.000000 129.000000 -0.020941 -0.635225 0.772043
11120.00000000 70.00000000 -50.00000000 200 133 89 97.000000 1.000000 4.000000 1.000000 -60.708740 114.000000 129.000000 0.012440 -0.606787 0.794767
11190.00000000 90.00000000 -120.00000000 200 133 89 97.000000 1.000000 4.000000 1.000000 -60.708740 114.000000 129.000000 -0.334571 0.896652 -0.289962
11170.00000000 90.00000000 -110.00000000 200 133 89 97.000000 1.000000 4.000000 1.000000 -60.708740 114.000000 129.000000 -0.006945 0.720842 -0.693064
11170.00000000 60.00000000 -180.00000000 200 133 89 97.000000 1.000000 4.000000 1.000000 -60.708740 114.000000 129.000000 -0.255383 0.899006 -0.355764
11140.00000000 100.00000000 -180.00000000 200 133 89 97.000000 1.000000 4.000000 1.000000 -60.708740 114.000000 129.000000 -0.578676 0.701375 -0.416182
11170.00000000 40.00000000 -50.00000000 200 133 89 97.000000 1.000000 4.000000 1.000000 -60.708740 114.000000 129.000000 -0.067806 -0.702588 0.708359
11180.00000000 10.00000000 -100.00000000 200 133 89 97.000000 1.000000 4.000000 1.000000 -60.708740 114.000000 129.000000 -0.106485 0.873175 -0.475632
11180.00000000 20.00000000 -80.00000000 200 133 89 97.000000 1.000000 4.000000 1.000000 -60.708740 114.000000 129.000000 -0.499906 0.778172 -0.380188
11190.00000000 40.00000000 -70.00000000 200 133 89 97.000000 1.000000 4.000000 1.000000 -60.708740 114.000000 129.000000 -0.412521 0.684222 -0.601387
11180.00000000 -20.00000000 -70.00000000 200 133 89 97.000000 1.000000 4.000000 1.000000 -60.708740 114.000000 129.000000 -0.416599 0.834771 -0.360005
11140.00000000 -20.00000000 -60.00000000 200 133 89 97.000000 1.000000 4.000000 1.000000 -60.708740 114.000000 129.000000 0.095039 0.647725 -0.755923
11130.00000000 -20.00000000 -50.00000000 200 133 89 97.000000 1.000000 4.000000 1.000000 -60.708740 114.000000 129.000000 -0.249514 0.931800 -0.263611
11150.00000000 -20.00000000 -70.00000000 200 133 89 97.000000 1.000000 4.000000 1.000000 -60.708740 114.000000 129.000000 0.003939 0.894158 -0.447735
11150.00000000 -20.00000000 -70.00000000 200 133 89 97.000000 1.000000 4.000000 1.000000 -60.708740 114.000000 129.000000 0.003939 0.894158 -0.447735
11180.00000000 10.00000000 -110.00000000 200 133 89 97.000000 1.000000 4.000000 1.000000 -60.708740 114.000000 129.000000 -0.201986 0.821613 -0.533061
11190.00000000 10.00000000 -120.00000000 200 133 89 97.000000 1.000000 4.000000 1.000000 -60.708740 114.000000 129.000000 -0.015773 0.964588 -0.263290
11190.00000000 40.00000000 -140.00000000 200 133 89 97.000000 1.000000 4.000000 1.000000 -60.708740 114.000000 129.000000 -0.090592 0.823954 -0.559368
11190.00000000 -10.00000000 -130.00000000 200 133 89 97.000000 1.000000 4.000000 1.000000 -60.708740 114.000000 129.000000 0.166280 -0.709360 0.684952
11180.00000000 0.00000000 -130.00000000 200 133 89 97.000000 1.000000 4.000000 1.000000 -60.708740 114.000000 129.000000 -0.336814 0.873278 -0.352054
11170.00000000 -20.00000000 -170.00000000 200 133 89 97.000000 1.000000 4.000000 1.000000 -60.708740 114.000000 129.000000 -0.326890 0.839905 -0.433247
11170.00000000 -10.00000000 -160.00000000 200 133 89 97.000000 1.000000 4.000000 1.000000 -60.708740 114.000000 129.000000 -0.568852 0.612740 -0.548596
11260.00000000 130.00000000 -200.00000000 200 133 89 97.000000 1.000000 4.000000 1.000000 -60.708740 114.000000 129.000000 0.386998 -0.584613 0.713064
11240.00000000 100.00000000 -190.00000000 200 133 89 97.000000 1.000000 4.000000 1.000000 -60.708740 114.000000 129.000000 -0.221675 0.773537 -0.593717
11270.00000000 130.00000000 -210.00000000 200 133 89 97.000000 1.000000 4.000000 1.000000 -60.708740 114.000000 129.000000 0.459124 -0.369539 0.807866
11270.00000000 130.00000000 -210.00000000 200 133 89 97.000000 1.000000 4.000000 1.000000 -60.708740 114.000000 129.000000 0.459124 -0.369539 0.807866
11250.00000000 60.00000000 -210.00000000 200 133 89 97.000000 1.000000 4.000000 1.000000 -60.708740 114.000000 129.000000 -0.430300 0.733653 -0.525922
11240.00000000 80.00000000 -210.00000000 200 133 89 97.000000 1.000000 4.000000 1.000000 -60.708740 114.000000 129.000000 -0.693261 0.651246 -0.308655
11240.00000000 90.00000000 -190.00000000 200 133 89 97.000000 1.000000 4.000000 1.000000 -60.708740 114.000000 129.000000 0.353534 -0.531107 0.770025
11230.00000000 120.00000000 -210.00000000 200 133 89 97.000000 1.000000 4.000000 1.000000 -60.708740 114.000000 129.000000 -0.488738 0.562636 -0.666766
11210.00000000 100.00000000 -210.00000000 200 133 89 97.000000 1.000000 4.000000 1.000000 -60.708740 114.000000 129.000000 -0.597165 0.768675 -0.229199
11210.00000000 130.00000000 -200.00000000 200 133 89 97.000000 1.000000 4.000000 1.000000 -60.708740 114.000000 129.000000 -0.159171 0.868871 -0.468752
11200.00000000 130.00000000 -210.00000000 200 133 89 97.000000 1.000000 4.000000 1.000000 -60.708740 114.000000 129.000000 -0.064922 0.882662 -0.465504
11210.00000000 120.00000000 -230.00000000 200 133 89 97.000000 1.000000 4.000000 1.000000 -60.708740 114.000000 129.000000 -0.671803 0.668566 -0.318904
11230.00000000 70.00000000 -210.00000000 200 133 89 97.000000 1.000000 4.000000 1.000000 -60.708740 114.000000 129.000000 -0.571636 0.771154 -0.280276
11200.00000000 60.00000000 -250.00000000 200 133 89 97.000000 1.000000 4.000000 1.000000 -60.708740 114.000000 129.000000 0.631680 -0.628329 0.454073
11240.00000000 30.00000000 -230.00000000 200 133 89 97.000000 1.000000 4.000000 1.000000 -60.708740 114.000000 129.000000 0.631386 -0.489955 0.601079
11260.00000000 -10.00000000 -230.00000000 200 133 89 97.000000 1.000000 4.000000 1.000000 -60.708740 114.000000 129.000000 0.654638 -0.499814 0.567129
11240.00000000 -20.00000000 -220.00000000 200 133 89 97.000000 1.000000 4.000000 1.000000 -60.708740 114.000000 129.000000 -0.521863 0.669528 -0.528575
11260.00000000 -20.00000000 -240.00000000 200 133 89 97.000000 1.000000 4.000000 1.000000 -60.708740 114.000000 129.000000 -0.497252 0.691464 -0.524040
11240.00000000 -20.00000000 -240.00000000 200 133 89 97.000000 1.000000 4.000000 1.000000 -60.708740 114.000000 129.000000 -0.145296 0.941032 -0.305530
11220.00000000 10.00000000 -230.00000000 200 133 89 97.000000 1.000000 4.000000 1.000000 -60.708740 114.000000 129.000000 -0.464910 0.629390 -0.622677
11200.00000000 10.00000000 -190.00000000 200 133 89 97.000000 1.000000 4.000000 1.000000 -60.708740 114.000000 129.000000 -0.333185 0.687498 -0.645240
11200.00000000 -30.00000000 -200.00000000 200 133 89 97.000000 1.000000 4.000000 1.000000 -60.708740 114.000000 129.000000 -0.223411 0.707727 -0.670232
11270.00000000 0.00000000 -340.00000000 200 133 89 97.000000 1.000000 4.000000 1.000000 -60.708740 114.000000 129.000000 -0.606252 0.774232 -0.181723
11260.00000000 10.00000000 -350.00000000 200 133 89 97.000000 1.000000 4.000000 1.000000 -60.708740 114.000000 129.000000 -0.529825 0.804897 -0.267257
11270.00000000 0.00000000 -280.00000000 200 133 89 97.000000 1.000000 4.000000 1.000000 -60.708740 114.000000 129.000000 -0.366079 0.893708 -0.259368
11240.00000000 -20.00000000 -280.00000000 200 133 89 97.000000 1.000000 4.000000 1.000000 -60.708740 114.000000 129.000000 -0.402930 0.820194 -0.406115
11180.00000000 30.00000000 -190.00000000 200 133 89 97.000000 1.000000 4.000000 1.000000 -60.708740 114.000000 129.000000 0.251311 -0.557256 0.791397
11190.00000000 40.00000000 -190.00000000 200 133 89 97.000000 1.000000 4.000000 1.000000 -60.708740 114.000000 129.000000 -0.436228 0.852418 -0.288250
11190.00000000 30.00000000 -200.00000000 200 133 89 97.000000 1.000000 4.000000 1.000000 -60.708740 114.000000 129.000000 0.310817 -0.597478 0.739197
11190.00000000 -30.00000000 -200.00000000 200 133 89 97.000000 1.000000 4.000000 1.000000 -60.708740 114.000000 129.000000 0.180891 0.785889 -0.591317
11190.00000000 -30.00000000 -200.00000000 200 133 89 97.000000 1.000000 4.000000 1.000000 -60.708740 114.000000 129.000000 0.180891 0.785889 -0.591317
11390.00000000 300.00000000 -520.00000000 200 133 89 97.000000 1.000000 4.000000 1.000000 -60.708740 114.000000 129.000000 0.978189 0.189761 0.084474
11290.00000000 230.00000000 -360.00000000 200 133 89 97.000000 1.000000 4.000000 1.000000 -60.708740 114.000000 129.000000 0.941251 -0.197070 0.274244
11280.00000000 260.00000000 -420.00000000 200 133 89 97.000000 1.000000 4.000000 1.000000 -60.708740 114.000000 129.000000 0.962522 -0.268813 0.035924
11300.00000000 280.00000000 -490.00000000 200 133 89 97.000000 1.000000 4.000000 1.000000 -60.708740 114.000000 129.000000 0.835326 -0.043231 0.548052
11290.00000000 240.00000000 -490.00000000 200 133 89 97.000000 1.000000 4.000000 1.000000 -60.708740 114.000000 129.000000 0.850809 -0.413781 0.323896
11280.00000000 170.00000000 -480.00000000 200 133 89 97.000000 1.000000 4.000000 1.000000 -60.708740 114.000000 129.000000 0.719234 -0.415006 0.557200
11390.00000000 300.00000000 -530.00000000 200 133 89 97.000000 1.000000 4.000000 1.000000 -60.708740 114.000000 129.000000 0.975457 0.220037 0.008237
11370.00000000 260.00000000 -610.00000000 200 133 89 97.000000 1.000000 4.000000 1.000000 -60.708740 114.000000 129.000000 0.880377 0.448166 -0.155190
11420.00000000 190.00000000 -550.00000000 200 133 89 97.000000 1.000000 4.000000 1.000000 -60.708740 114.000000 129.000000 0.954454 0.278873 0.106050
11430.00000000 190.00000000 -570.00000000 200 133 89 97.000000 1.000000 4.000000 1.000000 -60.708740 114.000000 129.000000 0.983188 0.168444 -0.070484
11410.00000000 160.00000000 -570.00000000 200 133 89 97.000000 1.000000 4.000000 1.000000 -60.708740 114.000000 129.000000 0.796814 0.009633 0.604148
11380.00000000 200.00000000 -550.00000000 200 133 89 97.000000 1.000000 4.000000 1.000000 -60.708740 114.000000 129.000000 0.984604 0.172392 -0.028925
11370.00000000 160.00000000 -550.00000000 200 133 89 97.000000 1.000000 4.000000 1.000000 -60.708740 114.000000 129.000000 0.680572 -0.294432 0.670918
11370.00000000 150.00000000 -570.00000000 200 133 89 97.000000 1.000000 4.000000 1.000000 -60.708740 114.000000 129.000000 0.858443 -0.385139 0.338737
11380.00000000 150.00000000 -630.00000000 200 133 89 97.000000 1.000000 4.000000 1.000000 -60.708740 114.000000 129.000000 0.865023 -0.470089 0.175362
11320.00000000 300.00000000 -550.00000000 200 133 89 97.000000 1.000000 4.000000 1.000000 -60.708740 114.000000 129.000000 0.981833 -0.017388 -0.188948
11290.00000000 290.00000000 -590.00000000 200 133 89 97.000000 1.000000 4.000000 1.000000 -60.708740 114.000000 129.000000 0.993774 0.105249 -0.036560
11290.00000000 280.00000000 -570.00000000 200 133 89 97.000000 1.000000 4.000000 1.000000 -60.708740 114.000000 129.000000 0.982581 -0.149391 -0.110525
11290.00000000 260.00000000 -590.00000000 200 133 89 97.000000 1.000000 4.000000 1.000000 -60.708740 114.000000 129.000000 0.946702 0.295928 -0.127209
11290.00000000 260.00000000 -580.00000000 200 133 89 97.000000 1.000000 4.000000 1.000000 -60.708740 114.000000 129.000000 0.994535 0.094033 -0.045357
11290.00000000 280.00000000 -620.00000000 200 133 89 97.000000 1.000000 4.000000 1.000000 -60.708740 114.000000 129.000000 0.958045 0.129749 -0.255566
11350.00000000 200.00000000 -560.00000000 200 133 89 97.000000 1.000000 4.000000 1.000000 -60.708740 114.000000 129.000000 0.985018 0.161614 0.060163
11360.00000000 200.00000000 -550.00000000 200 133 89 97.000000 1.000000 4.000000 1.000000 -60.708740 114.000000 129.000000 0.800349 -0.035042 0.598510
11360.00000000 150.00000000 -540.00000000 200 133 89 97.000000 1.000000 4.000000 1.000000 -60.708740 114.000000 129.000000 0.775770 -0.094962 0.623830
11320.00000000 50.00000000 -390.00000000 200 133 89 97.000000 1.000000 4.000000 1.000000 -60.708740 114.000000 129.000000 0.665322 -0.700255 0.258824
11330.00000000 0.00000000 -440.00000000 200 133 89 97.000000 1.000000 4.000000 1.000000 -60.708740 114.000000 129.000000 -0.285379 0.880296 -0.378995
11310.00000000 20.00000000 -360.00000000 200 133 89 97.000000 1.000000 4.000000 1.000000 -60.708740 114.000000 129.000000 -0.187571 0.872868 -0.450465
11280.00000000 -10.00000000 -370.00000000 200 133 89 97.000000 1.000000 4.000000 1.000000 -60.708740 114.000000 129.000000 -0.560066 0.797669 -0.223718
11340.00000000 40.00000000 -510.00000000 200 133 89 97.000000 1.000000 4.000000 1.000000 -60.708740 114.000000 129.000000 0.869430 -0.322407 0.374359
11310.00000000 -30.00000000 -470.00000000 200 133 89 97.000000 1.000000 4.000000 1.000000 -60.708740 114.000000 129.000000 -0.501538 0.785366 -0.362849
11310.00000000 -20.00000000 -460.00000000 200 133 89 97.000000 1.000000 4.000000 1.000000 -60.708740 114.000000 129.000000 0.503485 -0.756048 0.418204
11370.00000000 40.00000000 -550.00000000 200 133 89 97.000000 1.000000 4.000000 1.000000 -60.708740 114.000000 129.000000 0.640733 -0.502832 0.580191
11330.00000000 50.00000000 -540.00000000 200 133 89 97.000000 1.000000 4.000000 1.000000 -60.708740 114.000000 129.000000 0.811140 -0.466924 0.352185
11350.00000000 40.00000000 -540.00000000 200 133 89 97.000000 1.000000 4.000000 1.000000 -60.708740 114.000000 129.000000 0.781572 -0.362585 0.507619
11340.00000000 -10.00000000 -560.00000000 200 133 89 97.000000 1.000000 4.000000 1.000000 -60.708740 114.000000 129.000000 0.806557 -0.321672 0.495977
11340.00000000 -10.00000000 -560.00000000 200 133 89 97.000000 1.000000 4.000000 1.000000 -60.708740 114.000000 129.000000 0.806557 -0.321672 0.495977
11350.00000000 -30.00000000 -530.00000000 200 133 89 97.000000 1.000000 4.000000 1.000000 -60.708740 114.000000 129.000000 0.731054 -0.650343 0.206433
11350.00000000 -20.00000000 -600.00000000 200 133 89 97.000000 1.000000 4.000000 1.000000 -60.708740 114.000000 129.000000 0.532214 -0.572763 0.623450
11340.00000000 -30.00000000 -590.00000000 200 133 89 97.000000 1.000000 4.000000 1.000000 -60.708740 114.000000 129.000000 0.613798 -0.427496 0.663701
11330.00000000 10.00000000 -650.00000000 200 133 89 97.000000 1.000000 4.000000 1.000000 -60.708740 114.000000 129.000000 0.872970 -0.468951 0.134192
11330.00000000 10.00000000 -650.00000000 200 133 89 97.000000 1.000000 4.000000 1.000000 -60.708740 114.000000 129.000000 0.872970 -0.468951 0.134192
11350.00000000 -30.00000000 -610.00000000 200 133 89 97.000000 1.000000 4.000000 1.000000 -60.708740 114.000000 129.000000 0.693206 -0.496102 0.522828
11340.00000000 -30.00000000 -670.00000000 200 133 89 97.000000 1.000000 4.000000 1.000000 -60.708740 114.000000 129.000000 -0.419720 0.701745 -0.575664
11330.00000000 0.00000000 -670.00000000 200 133 89 97.000000 1.000000 4.000000 1.000000 -60.708740 114.000000 129.000000 0.888263 -0.352010 0.295089
11320.00000000 20.00000000 -610.00000000 200 133 89 97.000000 1.000000 4.000000 1.000000 -60.708740 114.000000 129.000000 0.641241 -0.708740 0.294103
11310.00000000 -20.00000000 -610.00000000 200 133 89 97.000000 1.000000 4.000000 1.000000 -60.708740 114.000000 129.000000 0.839314 -0.320408 0.439194
11290.00000000 -30.00000000 -670.00000000 200 133 89 97.000000 1.000000 4.000000 1.000000 -60.708740 114.000000 129.000000 0.719739 -0.467082 0.513624
11240.00000000 270.00000000 -440.00000000 200 133 89 97.000000 1.000000 4.000000 1.000000 -60.708740 114.000000 129.000000 0.840695 0.046008 0.539551
11260.00000000 260.00000000 -360.00000000 200 133 89 97.000000 1.000000 4.000000 1.000000 -60.708740 114.000000 129.000000 0.973874 0.015421 0.226565
11270.00000000 240.00000000 -430.00000000 200 133 89 97.000000 1.000000 4.000000 1.000000 -60.708740 114.000000 129.000000 0.605912 -0.538401 0.585658
11240.00000000 260.00000000 -440.00000000 200 133 89 97.000000 1.000000 4.000000 1.000000 -60.708740 114.000000 129.000000 0.952632 -0.296974 0.065566
11250.00000000 230.00000000 -400.00000000 200 133 89 97.000000 1.000000 4.000000 1.000000 -60.708740 114.000000 129.000000 0.707028 -0.412295 0.574564
11220.00000000 240.00000000 -410.00000000 200 133 89 97.000000 1.000000 4.000000 1.000000 -60.708740 114.000000 129.000000 0.683455 -0.716501 0.139695
11210.00000000 220.00000000 -420.00000000 200 133 89 97.000000 1.000000 4.000000 1.000000 -60.708740 114.000000 129.000000 0.888048 -0.277047 0.366900
11250.00000000 270.00000000 -470.00000000 200 133 89 97.000000 1.000000 4.000000 1.000000 -60.708740 114.000000 129.000000 0.881905 -0.220847 0.416497
11250.00000000 270.00000000 -450.00000000 200 133 89 97.000000 1.000000 4.000000 1.000000 -60.708740 114.000000 129.000000 0.785007 -0.359459 0.504532
11260.00000000 280.00000000 -450.00000000 200 133 89 97.000000 1.000000 4.000000 1.000000 -60.708740 114.000000 129.000000 0.789080 -0.496590 0.361595
11240.00000000 270.00000000 -450.00000000 200 133 89 97.000000 1.000000 4.000000 1.000000 -60.708740 114.000000 129.000000 0.997896 -0.028572 0.058202
11250.00000000 290.00000000 -500.00000000 200 133 89 97.000000 1.000000 4.000000 1.000000 -60.708740 114.000000 129.000000 0.969423 -0.091787 0.227582
11270.00000000 250.00000000 -480.00000000 200 133 89 97.000000 1.000000 4.000000 1.000000 -60.708740 114.000000 129.000000 0.788456 -0.004128 0.615078
11260.00000000 230.00000000 -480.00000000 200 133 89 97.000000 1.000000 4.000000 1.000000 -60.708740 114.000000 129.000000 0.973303 0.003531 0.229497
11270.00000000 220.00000000 -480.00000000 200 133 89 97.000000 1.000000 4.000000 1.000000 -60.708740 114.000000 129.000000 0.995489 -0.014021 0.093833
11260.00000000 240.00000000 -470.00000000 200 133 89 97.000000 1.000000 4.000000 1.000000 -60.708740 114.000000 129.000000 0.869967 -0.356243 0.340953
11220.00000000 280.00000000 -470.00000000 200 133 89 97.000000 1.000000 4.000000 1.000000 -60.708740 114.000000 129.000000 0.989365 -0.106295 -0.099287
11220.00000000 280.00000000 -470.00000000 200 133 89 97.000000 1.000000 4.000000 1.000000 -60.708740 114.000000 129.000000 0.989365 -0.106295 -0.099287
11220.00000000 280.00000000 -460.00000000 200 133 89 97.000000 1.000000 4.000000 1.000000 -60.708740 114.000000 129.000000 0.963382 -0.255125 0.082503
11220.00000000 290.00000000 -450.00000000 200 133 89 97.000000 1.000000 4.000000 1.000000 -60.708740 114.000000 129.000000 0.880268 -0.313624 0.356046
11240.00000000 180.00000000 -420.00000000 200 133 89 97.000000 1.000000 4.000000 1.000000 -60.708740 114.000000 129.000000 0.769506 -0.426414 0.475427
11220.00000000 210.00000000 -450.00000000 200 133 89 97.000000 1.000000 4.000000 1.000000 -60.708740 114.000000 129.000000 -0.667572 0.719991 -0.189634
11220.00000000 210.00000000 -450.00000000 200 133 89 97.000000 1.000000 4.000000 1.000000 -60.708740 114.000000 129.000000 -0.667572 0.719991 -0.189634
11220.00000000 210.00000000 -460.00000000 200 133 89 97.000000 1.000000 4.000000 1.000000 -60.708740 114.000000 129.000000 0.785866 -0.355166 0.506233
11220.00000000 200.00000000 -490.00000000 200 133 89 97.000000 1.000000 4.000000 1.000000 -60.708740 114.000000 129.000000 0.701663 -0.213144 0.679882
11220.00000000 190.00000000 -500.00000000 200 133 89 97.000000 1.000000 4.000000 1.000000 -60.708740 114.000000 129.000000 -0.514347 0.786743 -0.341296
11180.00000000 270.00000000 -480.00000000 200 133 89 97.000000 1.000000 4.000000 1.000000 -60.708740 114.000000 129.000000 0.867536 -0.106839 0.485763
11170.00000000 300.00000000 -500.00000000 200 133 89 97.000000 1.000000 4.000000 1.000000 -60.708740 114.000000 129.000000 0.984137 -0.055395 -0.168541
11170.00000000 300.00000000 -510.00000000 200 133 89 97.000000 1.000000 4.000000 1.000000 -60.708740 114.000000 129.000000 0.988547 0.106711 -0.106711
11200.00000000 290.00000000 -580.00000000 200 133 89 97.000000 1.000000 4.000000 1.000000 -60.708740 114.000000 129.000000 0.698679 0.653707 -0.290715
11210.00000000 270.00000000 -570.00000000 200 133 89 97.000000 1.000000 4.000000 1.000000 -60.708740 114.000000 129.000000 0.958095 0.201213 0.203878
11220.00000000 260.00000000 -560.00000000 200 133 89 97.000000 1.000000 4.000000 1.000000 -60.708740 114.000000 129.000000 0.947797 0.252291 -0.195014
11210.00000000 260.00000000 -560.00000000 200 133 89 97.000000 1.000000 4.000000 1.000000 -60.708740 114.000000 129.000000 0.982930 0.134864 0.125144
11260.00000000 230.00000000 -620.00000000 200 133 89 97.000000 1.000000 4.000000 1.000000 -60.708740 114.000000 129.000000 0.917518 0.339238 -0.207551
11230.00000000 290.00000000 -620.00000000 200 133 89 97.000000 1.000000 4.000000 1.000000 -60.708740 114.000000 129.000000 0.967234 0.224193 -0.119143
11200.00000000 230.00000000 -640.00000000 200 133 89 97.000000 1.000000 4.000000 1.000000 -60.708740 114.000000 129.000000 0.931838 0.362873 0.001264
11240.00000000 210.00000000 -550.00000000 200 133 89 97.000000 1.000000 4.000000 1.000000 -60.708740 114.000000 129.000000 0.965536 -0.058707 0.253562
11250.00000000 190.00000000 -550.00000000 200 133 89 97.000000 1.000000 4.000000 1.000000 -60.708740 114.000000 129.000000 0.884364 -0.185643 0.428295
11240.00000000 190.00000000 -530.00000000 200 133 89 97.000000 1.000000 4.000000 1.000000 -60.708740 114.000000 129.000000 0.810234 -0.564617 0.157254
11170.00000000 300.00000000 -530.00000000 200 133 89 97.000000 1.000000 4.000000 1.000000 -60.708740 114.000000 129.000000 0.785083 0.547179 -0.290243
11160.00000000 270.00000000 -590.00000000 200 133 89 97.000000 1.000000 4.000000 1.000000 -60.708740 114.000000 129.000000 0.914054 0.396408 0.085820
11180.00000000 220.00000000 -550.00000000 200 133 89 97.000000 1.000000 4.000000 1.000000 -60.708740 114.000000 129.000000 0.814967 -0.548855 0.185976
11180.00000000 250.00000000 -530.00000000 200 133 89 97.000000 1.000000 4.000000 1.000000 -60.708740 114.000000 129.000000 0.997486 -0.039557 0.058801
11180.00000000 220.00000000 -550.00000000 200 133 89 97.000000 1.000000 4.000000 1.000000 -60.708740 114.000000 129.000000 0.814967 -0.548855 0.185976
11170.00000000 230.00000000 -580.00000000 200 133 89 97.000000 1.000000 4.000000 1.000000 -60.708740 114.000000 129.000000 0.922507 -0.022057 0.385351
11140.00000000 300.00000000 -600.00000000 200 133 89 97.000000 1.000000 4.000000 1.000000 -60.708740 114.000000 129.000000 -0.142896 -0.675370 0.723503
11180.00000000 270.00000000 -630.00000000 200 133 89 97.000000 1.000000 4.000000 1.000000 -60.708740 114.000000 129.000000 0.904237 0.423058 -0.058120
11180.00000000 240.00000000 -610.00000000 200 133 89 97.000000 1.000000 4.000000 1.000000 -60.708740 114.000000 129.000000 0.921681 0.290982 -0.256580
11150.00000000 300.00000000 -610.00000000 200 133 89 97.000000 1.000000 4.000000 1.000000 -60.708740 114.000000 129.000000 0.526352 0.543169 -0.654157
11140.00000000 280.00000000 -640.00000000 200 133 89 97.000000 1.000000 4.000000 1.000000 -60.708740 114.000000 129.000000 0.023321 0.843658 -0.536374
11150.00000000 280.00000000 -630.00000000 200 133 89 97.000000 1.000000 4.000000 1.000000 -60.708740 114.000000 129.000000 0.190448 0.924026 -0.331521
11150.00000000 290.00000000 -610.00000000 200 133 89 97.000000 1.000000 4.000000 1.000000 -60.708740 114.000000 129.000000 0.573091 0.617045 -0.539280
11290.00000000 -40.00000000 -260.00000000 200 133 89 97.000000 1.000000 4.000000 1.000000 -60.708740 114.000000 129.000000 0.534932 -0.498040 0.682499
11300.00000000 -80.00000000 -280.00000000 200 133 89 97.000000 1.000000 4.000000 1.000000 -60.708740 114.000000 129.000000 0.317109 -0.448326 0.835730
11310.00000000 -100.00000000 -290.00000000 200 133 89 97.000000 1.000000 4.000000 1.000000 -60.708740 114.000000 129.000000 0.254881 -0.502039 0.826433
11200.00000000 -50.00000000 -90.00000000 200 133 89 97.000000 1.000000 4.000000 1.000000 -60.708740 114.000000 129.000000 0.159313 -0.684287 0.711598
11200.00000000 -50.00000000 -90.00000000 200 133 89 97.000000 1.000000 4.000000 1.000000 -60.708740 114.000000 129.000000 0.159313 -0.684287 0.711598
11240.00000000 -50.00000000 -180.00000000 200 133 89 97.000000 1.000000 4.000000 1.000000 -60.708740 114.000000 129.000000 0.076638 0.773610 -0.629010
11180.00000000 -50.00000000 -90.00000000 200 133 89 97.000000 1.000000 4.000000 1.000000 -60.708740 114.000000 129.000000 -0.477153 0.827586 -0.295678
11190.00000000 -40.00000000 -160.00000000 200 133 89 97.000000 1.000000 4.000000 1.000000 -60.708740 114.000000 129.000000 0.169079 -0.662609 0.729631
11180.00000000 -90.00000000 -170.00000000 200 133 89 97.000000 1.000000 4.000000 1.000000 -60.708740 114.000000 129.000000 0.012464 -0.619057 0.785247
11250.00000000 -50.00000000 -260.00000000 200 133 89 97.000000 1.000000 4.000000 1.000000 -60.708740 114.000000 129.000000 -0.534970 0.599099 -0.595724
11240.00000000 -50.00000000 -260.00000000 200 133 89 97.000000 1.000000 4.000000 1.000000 -60.708740 114.000000 129.000000 -0.098613 0.716782 -0.690289
11240.00000000 -50.00000000 -250.00000000 200 133 89 97.000000 1.000000 4.000000 1.000000 -60.708740 114.000000 129.000000 -0.246527 0.952430 -0.179170
11250.00000000 -50.00000000 -250.00000000 200 133 89 97.000000 1.000000 4.000000 1.000000 -60.708740 114.000000 129.000000 -0.463720 0.647869 -0.604343
11210.00000000 -60.00000000 -220.00000000 200 133 89 97.000000 1.000000 4.000000 1.000000 -60.708740 114.000000 129.000000 -0.205802 0.897648 -0.389710
11210.00000000 -60.00000000 -220.00000000 200 133 89 97.000000 1.000000 4.000000 1.000000 -60.708740 114.000000 129.000000 -0.205802 0.897648 -0.389710
11230.00000000 -60.00000000 -250.00000000 200 133 89 97.000000 1.000000 4.000000 1.000000 -60.708740 114.000000 129.000000 -0.206570 0.965294 -0.159800
11160.00000000 -120.00000000 -190.00000000 200 133 89 97.000000 1.000000 4.000000 1.000000 -60.708740 114.000000 129.000000 0.265723 -0.650783 0.711247
11340.00000000 -70.00000000 -440.00000000 200 133 89 97.000000 1.000000 4.000000 1.000000 -60.708740 114.000000 129.000000 0.657352 -0.733611 0.172345
11350.00000000 -60.00000000 -450.00000000 200 133 89 97.000000 1.000000 4.000000 1.000000 -60.708740 114.000000 129.000000 -0.598073 0.703519 -0.383887
11360.00000000 -60.00000000 -510.00000000 200 133 89 97.000000 1.000000 4.000000 1.000000 -60.708740 114.000000 129.000000 0.325303 -0.543239 0.773996
11350.00000000 -40.00000000 -490.00000000 200 133 89 97.000000 1.000000 4.000000 1.000000 -60.708740 114.000000 129.000000 -0.483993 0.671562 -0.561030
11300.00000000 -70.00000000 -470.00000000 200 133 89 97.000000 1.000000 4.000000 1.000000 -60.708740 114.000000 129.000000 0.729698 -0.464955 0.501357
11280.00000000 -70.00000000 -450.00000000 200 133 89 97.000000 1.000000 4.000000 1.000000 -60.708740 114.000000 129.000000 0.715583 -0.566848 0.408196
11280.00000000 -80.00000000 -450.00000000 200 133 89 97.000000 1.000000 4.000000 1.000000 -60.708740 114.000000 129.000000 -0.463408 0.680892 -0.567132
11390.00000000 -40.00000000 -600.00000000 200 133 89 97.000000 1.000000 4.000000 1.000000 -60.708740 114.000000 129.000000 0.356115 -0.570760 0.739875
11380.00000000 -90.00000000 -690.00000000 200 133 89 97.000000 1.000000 4.000000 1.000000 -60.708740 114.000000 129.000000 0.711793 -0.637882 0.294036
11380.00000000 -60.00000000 -610.00000000 200 133 89 97.000000 1.000000 4.000000 1.000000 -60.708740 114.000000 129.000000 -0.573205 0.647167 -0.502605
11400.00000000 -160.00000000 -690.00000000 200 133 89 97.000000 1.000000 4.000000 1.000000 -60.708740 114.000000 129.000000 -0.628032 0.510171 -0.587623
11400.00000000 -170.00000000 -690.00000000 200 133 89 97.000000 1.000000 4.000000 1.000000 -60.708740 114.000000 129.000000 -0.684361 0.530422 -0.500303
11390.00000000 -170.00000000 -690.00000000 200 133 89 97.000000 1.000000 4.000000 1.000000 -60.708740 114.000000 129.000000 0.618578 -0.428503 0.658594
11330.00000000 -40.00000000 -590.00000000 200 133 89 97.000000 1.000000 4.000000 1.000000 -60.708740 114.000000 129.000000 0.789949 -0.268551 0.551236
11360.00000000 -70.00000000 -690.00000000 200 133 89 97.000000 1.000000 4.000000 1.000000 -60.708740 114.000000 129.000000 0.679206 -0.585753 0.442235
11330.00000000 -80.00000000 -660.00000000 200 133 89 97.000000 1.000000 4.000000 1.000000 -60.708740 114.000000 129.000000 -0.362081 0.872356 -0.328470
11330.00000000 -90.00000000 -660.00000000 200 133 89 97.000000 1.000000 4.000000 1.000000 -60.708740 114.000000 129.000000 -0.290224 0.671845 -0.681465
11330.00000000 -90.00000000 -690.00000000 200 133 89 97.000000 1.000000 4.000000 1.000000 -60.708740 114.000000 129.000000 0.563591 -0.499661 0.657803
11370.00000000 -100.00000000 -700.00000000 200 133 89 97.000000 1.000000 4.000000 1.000000 -60.708740 114.000000 129.000000 0.773515 -0.613685 0.158322
11400.00000000 -170.00000000 -700.00000000 200 133 89 97.000000 1.000000 4.000000 1.000000 -60.708740 114.000000 129.000000 -0.678603 0.712304 -0.179225
11380.00000000 -190.00000000 -710.00000000 200 133 89 97.000000 1.000000 4.000000 1.000000 -60.708740 114.000000 129.000000 0.295091 -0.522327 0.800060
11340.00000000 -90.00000000 -710.00000000 200 133 89 97.000000 1.000000 4.000000 1.000000 -60.708740 114.000000 129.000000 -0.249255 0.815884 -0.521732
11350.00000000 -80.00000000 -700.00000000 200 133 89 97.000000 1.000000 4.000000 1.000000 -60.708740 114.000000 129.000000 0.573920 -0.767876 0.284575
11340.00000000 -90.00000000 -710.00000000 200 133 89 97.000000 1.000000 4.000000 1.000000 -60.708740 114.000000 129.000000 -0.249255 0.815884 -0.521732
11330.00000000 -100.00000000 -720.00000000 200 133 89 97.000000 1.000000 4.000000 1.000000 -60.708740 114.000000 129.000000 -0.544997 0.642860 -0.538247
11350.00000000 -80.00000000 -700.00000000 200 133 89 97.000000 1.000000 4.000000 1.000000 -60.708740 114.000000 129.000000 0.573920 -0.767876 0.284575
11350.00000000 -120.00000000 -700.00000000 200 133 89 97.000000 1.000000 4.000000 1.000000 -60.708740 114.000000 129.000000 0.739605 -0.436515 0.512288
11350.00000000 -120.00000000 -700.00000000 200 133 89 97.000000 1.000000 4.000000 1.000000 -60.708740 114.000000 129.000000 0.739605 -0.436515 0.512288
10700.00000000 980.00000000 -150.00000000 200 133 89 97.000000 1.000000 4.000000 1.000000 -60.708740 114.000000 129.000000 -0.395132 0.868069 -0.300544
10630.00000000 990.00000000 -90.00000000 200 133 89 97.000000 1.000000 4.000000 1.000000 -60.708740 114.000000 129.000000 0.649443 -0.616052 0.445762
10640.00000000 1010.00000000 -70.00000000 200 133 89 97.000000 1.000000 4.000000 1.000000 -60.708740 114.000000 129.000000 0.777914 -0.414130 0.472595
10640.00000000 990.00000000 -130.00000000 200 133 89 97.000000 1.000000 4.000000 1.000000 -60.708740 114.000000 129.000000 0.601796 -0.715958 0.353902
10640.00000000 980.00000000 -110.00000000 200 133 89 97.000000 1.000000 4.000000 1.000000 -60.708740 114.000000 129.000000 -0.604398 0.787639 -0.119697
10630.00000000 980.00000000 -120.00000000 200 133 89 97.000000 1.000000 4.000000 1.000000 -60.708740 114.000000 129.000000 -0.565409 0.779603 -0.269317
10990.00000000 680.00000000 -290.00000000 200 133 89 97.000000 1.000000 4.000000 1.000000 -60.708740 114.000000 129.000000 -0.091100 0.805436 -0.585640
11020.00000000 650.00000000 -310.00000000 200 133 89 97.000000 1.000000 4.000000 1.000000 -60.708740 114.000000 129.000000 -0.247469 0.903482 -0.349971
11000.00000000 670.00000000 -330.00000000 200 133 89 97.000000 1.000000 4.000000 1.000000 -60.708740 114.000000 129.000000 0.304686 -0.559921 0.770490
11000.00000000 670.00000000 -330.00000000 200 133 89 97.000000 1.000000 4.000000 1.000000 -60.708740 114.000000 129.000000 0.304686 -0.559921 0.770490
10990.00000000 680.00000000 -320.00000000 200 133 89 97.000000 1.000000 4.000000 1.000000 -60.708740 114.000000 129.000000 -0.416792 0.655908 -0.629340
10970.00000000 660.00000000 -290.00000000 200 133 89 97.000000 1.000000 4.000000 1.000000 -60.708740 114.000000 129.000000 0.385548 -0.509184 0.769470
10980.00000000 640.00000000 -320.00000000 200 133 89 97.000000 1.000000 4.000000 1.000000 -60.708740 114.000000 129.000000 -0.315852 0.649522 -0.691635
10980.00000000 640.00000000 -320.00000000 200 133 89 97.000000 1.000000 4.000000 1.000000 -60.708740 114.000000 129.000000 -0.315852 0.649522 -0.691635
10880.00000000 920.00000000 -30.00000000 200 133 89 97.000000 1.000000 4.000000 1.000000 -60.708740 114.000000 129.000000 0.414443 -0.512730 0.751894
10910.00000000 870.00000000 -60.00000000 200 133 89 97.000000 1.000000 4.000000 1.000000 -60.708740 114.000000 129.000000 -0.291459 0.769261 -0.568585
10910.00000000 890.00000000 -100.00000000 200 133 89 97.000000 1.000000 4.000000 1.000000 -60.708740 114.000000 129.000000 0.410381 -0.659600 0.629694
10930.00000000 870.00000000 -70.00000000 200 133 89 97.000000 1.000000 4.000000 1.000000 -60.708740 114.000000 129.000000 0.290212 -0.684644 0.668610
10920.00000000 860.00000000 -70.00000000 200 133 89 97.000000 1.000000 4.000000 1.000000 -60.708740 114.000000 129.000000 -0.566794 0.727797 -0.386077
10900.00000000 870.00000000 -130.00000000 200 133 89 97.000000 1.000000 4.000000 1.000000 -60.708740 114.000000 129.000000 -0.469790 0.550039 -0.690474
10900.00000000 860.00000000 -130.00000000 200 133 89 97.000000 1.000000 4.000000 1.000000 -60.708740 114.000000 129.000000 0.403107 -0.544606 0.735465
10900.00000000 870.00000000 -110.00000000 200 133 89 97.000000 1.000000 4.000000 1.000000 -60.708740 114.000000 129.000000 -0.312236 0.891889 -0.327175
10860.00000000 850.00000000 -140.00000000 200 133 89 97.000000 1.000000 4.000000 1.000000 -60.708740 114.000000 129.000000 -0.664814 0.711742 -0.226819
10870.00000000 850.00000000 -170.00000000 200 133 89 97.000000 1.000000 4.000000 1.000000 -60.708740 114.000000 129.000000 -0.380992 0.850624 -0.362331
10890.00000000 830.00000000 -120.00000000 200 133 89 97.000000 1.000000 4.000000 1.000000 -60.708740 114.000000 129.000000 -0.663739 0.643975 -0.380456
10880.00000000 820.00000000 -160.00000000 200 133 89 97.000000 1.000000 4.000000 1.000000 -60.708740 114.000000 129.000000 -0.302653 0.747826 -0.590895
10830.00000000 870.00000000 -30.00000000 200 133 89 97.000000 1.000000 4.000000 1.000000 -60.708740 114.000000 129.000000 -0.080902 0.844500 -0.529409
10830.00000000 850.00000000 -100.00000000 200 133 89 97.000000 1.000000 4.000000 1.000000 -60.708740 114.000000 129.000000 -0.607388 0.708893 -0.358539
10810.00000000 860.00000000 -40.00000000 200 133 89 97.000000 1.000000 4.000000 1.000000 -60.708740 114.000000 129.000000 -0.341162 0.849010 -0.403474
10810.00000000 840.00000000 -40.00000000 200 133 89 97.000000 1.000000 4.000000 1.000000 -60.708740 114.000000 129.000000 0.784005 -0.413916 0.462612
10780.00000000 810.00000000 -90.00000000 200 133 89 97.000000 1.000000 4.000000 1.000000 -60.708740 114.000000 129.000000 -0.452263 0.585773 -0.672554
10850.00000000 850.00000000 -110.00000000 200 133 89 97.000000 1.000000 4.000000 1.000000 -60.708740 114.000000 129.000000 -0.385653 0.733561 -0.559607
10830.00000000 860.00000000 -170.00000000 200 133 89 97.000000 1.000000 4.000000 1.000000 -60.708740 114.000000 129.000000 0.763181 -0.525602 0.375895
10850.00000000 840.00000000 -170.00000000 200 133 89 97.000000 1.000000 4.000000 1.000000 -60.708740 114.000000 129.000000 0.341240 -0.504650 0.793022
10850.00000000 830.00000000 -170.00000000 200 133 89 97.000000 1.000000 4.000000 1.000000 -60.708740 114.000000 129.000000 0.505430 -0.439576 0.742505
10840.00000000 840.00000000 -150.00000000 200 133 89 97.000000 1.000000 4.000000 1.000000 -60.708740 114.000000 129.000000 -0.573915 0.785440 -0.231744
10880.00000000 860.00000000 -230.00000000 200 133 89 97.000000 1.000000 4.000000 1.000000 -60.708740 114.000000 129.000000 -0.171617 0.779111 -0.602938
10900.00000000 830.00000000 -190.00000000 200 133 89 97.000000 1.000000 4.000000 1.000000 -60.708740 114.000000 129.000000 -0.449707 0.851833 -0.268596
10890.00000000 810.00000000 -250.00000000 200 133 89 97.000000 1.000000 4.000000 1.000000 -60.708740 114.000000 129.000000 0.298676 -0.513596 0.804370
10860.00000000 840.00000000 -230.00000000 200 133 89 97.000000 1.000000 4.000000 1.000000 -60.708740 114.000000 129.000000 0.162521 -0.724510 0.669830
10820.00000000 860.00000000 -230.00000000 200 133 89 97.000000 1.000000 4.000000 1.000000 -60.708740 114.000000 129.000000 0.628332 -0.517152 0.581165
10820.00000000 810.00000000 -230.00000000 200 133 89 97.000000 1.000000 4.000000 1.000000 -60.708740 114.000000 129.000000 -0.391125 0.887840 -0.242408
10820.00000000 810.00000000 -230.00000000 200 133 89 97.000000 1.000000 4.000000 1.000000 -60.708740 114.000000 129.000000 -0.391125 0.887840 -0.242408
10820.00000000 810.00000000 -230.00000000 200 133 89 97.000000 1.000000 4.000000 1.000000 -60.708740 114.000000 129.000000 -0.391125 0.887840 -0.242408
10820.00000000 810.00000000 -240.00000000 200 133 89 97.000000 1.000000 4.000000 1.000000 -60.708740 114.000000 129.000000 -0.492386 0.663796 -0.562966
10790.00000000 880.00000000 -200.00000000 200 133 89 97.000000 1.000000 4.000000 1.000000 -60.708740 114.000000 129.000000 0.732693 -0.565502 0.378640
10790.00000000 880.00000000 -220.00000000 200 133 89 97.000000 1.000000 4.000000 1.000000 -60.708740 114.000000 129.000000 0.759974 -0.610777 0.222242
10780.00000000 850.00000000 -220.00000000 200 133 89 97.000000 1.000000 4.000000 1.000000 -60.708740 114.000000 129.000000 0.405858 -0.543882 0.734487
10780.00000000 880.00000000 -200.00000000 200 133 89 97.000000 1.000000 4.000000 1.000000 -60.708740 114.000000 129.000000 0.771592 -0.550220 0.319224
10780.00000000 840.00000000 -230.00000000 200 133 89 97.000000 1.000000 4.000000 1.000000 -60.708740 114.000000 129.000000 -0.564446 0.697649 -0.441234
10830.00000000 820.00000000 -350.00000000 200 133 89 97.000000 1.000000 4.000000 1.000000 -60.708740 114.000000 129.000000 0.217534 -0.575462 0.788367
10860.00000000 770.00000000 -30.00000000 200 133 89 97.000000 1.000000 4.000000 1.000000 -60.708740 114.000000 129.000000 -0.591806 0.658867 -0.464392
10910.00000000 800.00000000 -130.00000000 200 133 89 97.000000 1.000000 4.000000 1.000000 -60.708740 114.000000 129.000000 0.609391 -0.545245 0.575630
10900.00000000 780.00000000 -150.00000000 200 133 89 97.000000 1.000000 4.000000 1.000000 -60.708740 114.000000 129.000000 -0.628857 0.736030 -0.250597
10900.00000000 740.00000000 -160.00000000 200 133 89 97.000000 1.000000 4.000000 1.000000 -60.708740 114.000000 129.000000 -0.356385 0.862421 -0.359471
10860.00000000 770.00000000 -160.00000000 200 133 89 97.000000 1.000000 4.000000 1.000000 -60.708740 114.000000 129.000000 0.713223 -0.591893 0.375467
10880.00000000 710.00000000 -20.00000000 200 133 89 97.000000 1.000000 4.000000 1.000000 -60.708740 114.000000 129.000000 0.852531 -0.368032 0.371138
10860.00000000 680.00000000 -30.00000000 200 133 89 97.000000 1.000000 4.000000 1.000000 -60.708740 114.000000 129.000000 0.623931 -0.660535 0.417618
10840.00000000 770.00000000 -30.00000000 200 133 89 97.000000 1.000000 4.000000 1.000000 -60.708740 114.000000 129.000000 -0.322502 0.859491 -0.396570
10840.00000000 770.00000000 -30.00000000 200 133 89 97.000000 1.000000 4.000000 1.000000 -60.708740 114.000000 129.000000 -0.322502 0.859491 -0.396570
10820.00000000 780.00000000 -80.00000000 200 133 89 97.000000 1.000000 4.000000 1.000000 -60.708740 114.000000 129.000000 0.466123 -0.446496 0.763787
10840.00000000 760.00000000 -30.00000000 200 133 89 97.000000 1.000000 4.000000 1.000000 -60.708740 114.000000 129.000000 0.787656 -0.457714 0.412428
10830.00000000 750.00000000 -80.00000000 200 133 89 97.000000 1.000000 4.000000 1.000000 -60.708740 114.000000 129.000000 -0.351372 0.794197 -0.495771
10840.00000000 790.00000000 -120.00000000 200 133 89 97.000000 1.000000 4.000000 1.000000 -60.708740 114.000000 129.000000 -0.648148 0.667839 -0.365917
10850.00000000 800.00000000 -170.00000000 200 133 89 97.000000 1.000000 4.000000 1.000000 -60.708740 114.000000 129.000000 0.631142 -0.486400 0.604214
10830.00000000 750.00000000 -140.00000000 200 133 89 97.000000 1.000000 4.000000 1.000000 -60.708740 114.000000 129.000000 0.663451 -0.485411 0.569393
10830.00000000 740.00000000 -130.00000000 200 133 89 97.000000 1.000000 4.000000 1.000000 -60.708740 114.000000 129.000000 0.843851 -0.511649 0.161652
10850.00000000 750.00000000 -170.00000000 200 133 89 97.000000 1.000000 4.000000 1.000000 -60.708740 114.000000 129.000000 0.205975 -0.627218 0.751113
10800.00000000 760.00000000 -110.00000000 200 133 89 97.000000 1.000000 4.000000 1.000000 -60.708740 114.000000 129.000000 0.789443 -0.593962 0.154881
10810.00000000 730.00000000 -150.00000000 200 133 89 97.000000 1.000000 4.000000 1.000000 -60.708740 114.000000 129.000000 0.917072 -0.355773 0.180013
10810.00000000 740.00000000 -150.00000000 200 133 89 97.000000 1.000000 4.000000 1.000000 -60.708740 114.000000 129.000000 -0.589187 0.757526 -0.281094
10790.00000000 760.00000000 -160.00000000 200 133 89 97.000000 1.000000 4.000000 1.000000 -60.708740 114.000000 129.000000 0.878448 -0.275739 0.390254
10850.00000000 670.00000000 -30.00000000 200 133 89 97.000000 1.000000 4.000000 1.000000 -60.708740 114.000000 129.000000 -0.620255 0.572934 -0.535752
10830.00000000 720.00000000 -140.00000000 200 133 89 97.000000 1.000000 4.000000 1.000000 -60.708740 114.000000 129.000000 -0.535556 0.626787 -0.565966
10840.00000000 720.00000000 -160.00000000 200 133 89 97.000000 1.000000 4.000000 1.000000 -60.708740 114.000000 129.000000 -0.316413 0.762926 -0.563762
10800.00000000 690.00000000 -150.00000000 200 133 89 97.000000 1.000000 4.000000 1.000000 -60.708740 114.000000 129.000000 0.855976 -0.284301 0.431830
10800.00000000 690.00000000 -160.00000000 200 133 89 97.000000 1.000000 4.000000 1.000000 -60.708740 114.000000 129.000000 0.804138 -0.304909 0.510288
10900.00000000 780.00000000 -220.00000000 200 133 89 97.000000 1.000000 4.000000 1.000000 -60.708740 114.000000 129.000000 -0.574986 0.737872 -0.353462
10910.00000000 750.00000000 -240.00000000 200 133 89 97.000000 1.000000 4.000000 1.000000 -60.708740 114.000000 129.000000 -0.612802 0.558781 -0.558781
10910.00000000 750.00000000 -250.00000000 200 133 89 97.000000 1.000000 4.000000 1.000000 -60.708740 114.000000 129.000000 0.304660 -0.630276 0.714097
10900.00000000 750.00000000 -250.00000000 200 133 89 97.000000 1.000000 4.000000 1.000000 -60.708740 114.000000 129.000000 -0.457362 0.655050 -0.601440
10890.00000000 790.00000000 -210.00000000 200 133 89 97.000000 1.000000 4.000000 1.000000 -60.708740 114.000000 129.000000 0.402039 -0.620430 0.673373
10860.00000000 780.00000000 -260.00000000 200 133 89 97.000000 1.000000 4.000000 1.000000 -60.708740 114.000000 129.000000 -0.181566 0.866499 -0.464987
10870.00000000 730.00000000 -240.00000000 200 133 89 97.000000 1.000000 4.000000 1.000000 -60.708740 114.000000 129.000000 -0.656911 0.579627 -0.482183
10870.00000000 730.00000000 -240.00000000 200 133 89 97.000000 1.000000 4.000000 1.000000 -60.708740 114.000000 129.000000 -0.656911 0.579627 -0.482183
10880.00000000 750.00000000 -300.00000000 200 133 89 97.000000 1.000000 4.000000 1.000000 -60.708740 114.000000 129.000000 -0.470038 0.764835 -0.440558
10890.00000000 730.00000000 -290.00000000 200 133 89 97.000000 1.000000 4.000000 1.000000 -60.708740 114.000000 129.000000 -0.435714 0.822312 -0.366000
10930.00000000 700.00000000 -260.00000000 200 133 89 97.000000 1.000000 4.000000 1.000000 -60.708740 114.000000 129.000000 -0.062699 0.865246 -0.497412
10880.00000000 710.00000000 -260.00000000 200 133 89 97.000000 1.000000 4.000000 1.000000 -60.708740 114.000000 129.000000 0.694857 -0.599128 0.397768
10870.00000000 680.00000000 -240.00000000 200 133 89 97.000000 1.000000 4.000000 1.000000 -60.708740 114.000000 129.000000 -0.366900 0.780672 -0.505901
10910.00000000 690.00000000 -310.00000000 200 133 89 97.000000 1.000000 4.000000 1.000000 -60.708740 114.000000 129.000000 -0.253942 0.892510 -0.372745
10900.00000000 690.00000000 -310.00000000 200 133 89 97.000000 1.000000 4.000000 1.000000 -60.708740 114.000000 129.000000 0.631732 -0.387616 0.671318
10900.00000000 710.00000000 -280.00000000 200 133 89 97.000000 1.000000 4.000000 1.000000 -60.708740 114.000000 129.000000 0.149294 -0.637892 0.755517
10930.00000000 700.00000000 -330.00000000 200 133 89 97.000000 1.000000 4.000000 1.000000 -60.708740 114.000000 129.000000 -0.037600 0.823012 -0.566778
10930.00000000 700.00000000 -330.00000000 200 133 89 97.000000 1.000000 4.000000 1.000000 -60.708740 114.000000 129.000000 -0.037600 0.823012 -0.566778
10940.00000000 650.00000000 -320.00000000 200 133 89 97.000000 1.000000 4.000000 1.000000 -60.708740 114.000000 129.000000 -0.049323 0.915805 -0.398582
10910.00000000 680.00000000 -340.00000000 200 133 89 97.000000 1.000000 4.000000 1.000000 -60.708740 114.000000 129.000000 0.632822 -0.518071 0.575446
10860.00000000 710.00000000 -300.00000000 200 133 89 97.000000 1.000000 4.000000 1.000000 -60.708740 114.000000 129.000000 0.470523 -0.483731 0.737979
10860.00000000 700.00000000 -310.00000000 200 133 89 97.000000 1.000000 4.000000 1.000000 -60.708740 114.000000 129.000000 0.478694 -0.458954 0.748474
10880.00000000 650.00000000 -350.00000000 200 133 89 97.000000 1.000000 4.000000 1.000000 -60.708740 114.000000 129.000000 -0.475130 0.585938 -0.656452
10880.00000000 650.00000000 -350.00000000 200 133 89 97.000000 1.000000 4.000000 1.000000 -60.708740 114.000000 129.000000 -0.475130 0.585938 -0.656452
10860.00000000 660.00000000 -330.00000000 200 133 89 97.000000 1.000000 4.000000 1.000000 -60.708740 114.000000 129.000000 -0.490033 0.607910 -0.624750
10860.00000000 670.00000000 -330.00000000 200 133 89 97.000000 1.000000 4.000000 1.000000 -60.708740 114.000000 129.000000 0.394422 -0.744655 0.538443
10860.00000000 670.00000000 -320.00000000 200 133 89 97.000000 1.000000 4.000000 1.000000 -60.708740 114.000000 129.000000 0.660847 -0.450045 0.600618
10850.00000000 780.00000000 -190.00000000 200 133 89 97.000000 1.000000 4.000000 1.000000 -60.708740 114.000000 129.000000 -0.106443 0.806343 -0.581792
10830.00000000 790.00000000 -250.00000000 200 133 89 97.000000 1.000000 4.000000 1.000000 -60.708740 114.000000 129.000000 0.444317 -0.554149 0.703919
10820.00000000 740.00000000 -230.00000000 200 133 89 97.000000 1.000000 4.000000 1.000000 -60.708740 114.000000 129.000000 -0.411385 0.821182 -0.395502
