//X Y Z R G B PointSourceId ScanDirectionFlag NumberOfReturns ReturnNumber GpsTime Intensity Classification Nx Ny Nz
-7540.00000000 -6330.00000000 440.00000000 52 46 206 0.000000 0.000000 0.000000 0.000000 -60.708740 0.000000 118.000000 0.669816 -0.358655 0.650164
-7530.00000000 -6320.00000000 430.00000000 52 46 206 0.000000 0.000000 0.000000 0.000000 -60.708740 0.000000 118.000000 0.655331 -0.381313 0.652029
-7540.00000000 -6330.00000000 430.00000000 52 46 206 0.000000 0.000000 0.000000 0.000000 -60.708740 0.000000 118.000000 -0.469592 0.749700 -0.466297
-7560.00000000 -6290.00000000 460.00000000 52 46 206 0.000000 0.000000 0.000000 0.000000 -60.708740 0.000000 118.000000 0.901867 -0.201867 0.381950
-7570.00000000 -6270.00000000 480.00000000 52 46 206 0.000000 0.000000 0.000000 0.000000 -60.708740 0.000000 118.000000 0.788362 0.516513 0.334214
-7560.00000000 -6350.00000000 440.00000000 52 46 206 0.000000 0.000000 0.000000 0.000000 -60.708740 0.000000 118.000000 -0.469077 0.837527 -0.280208
-7570.00000000 -6330.00000000 430.00000000 52 46 206 0.000000 0.000000 0.000000 0.000000 -60.708740 0.000000 118.000000 -0.353185 0.934441 0.045614
-7570.00000000 -6330.00000000 420.00000000 52 46 206 0.000000 0.000000 0.000000 0.000000 -60.708740 0.000000 118.000000 -0.308112 0.949905 0.052417
-7510.00000000 -6290.00000000 390.00000000 52 46 206 0.000000 0.000000 0.000000 0.000000 -60.708740 0.000000 118.000000 0.876933 -0.228570 0.422781
-7510.00000000 -6290.00000000 390.00000000 52 46 206 0.000000 0.000000 0.000000 0.000000 -60.708740 0.000000 118.000000 0.876933 -0.228570 0.422781
-7540.00000000 -6330.00000000 390.00000000 52 46 206 0.000000 0.000000 0.000000 0.000000 -60.708740 0.000000 118.000000 -0.365538 0.926658 0.087675
-7520.00000000 -6330.00000000 360.00000000 52 46 206 0.000000 0.000000 0.000000 0.000000 -60.708740 0.000000 118.000000 -0.356465 0.932595 -0.056561
-7540.00000000 -6330.00000000 360.00000000 52 46 206 0.000000 0.000000 0.000000 0.000000 -60.708740 0.000000 118.000000 0.067105 0.897019 0.436869
-7540.00000000 -6320.00000000 360.00000000 52 46 206 0.000000 0.000000 0.000000 0.000000 -60.708740 0.000000 118.000000 -0.056883 0.976695 0.206958
-7560.00000000 -6280.00000000 330.00000000 52 46 206 0.000000 0.000000 0.000000 0.000000 -60.708740 0.000000 118.000000 0.891964 -0.105350 0.439661
-7570.00000000 -6330.00000000 380.00000000 52 46 206 0.000000 0.000000 0.000000 0.000000 -60.708740 0.000000 118.000000 0.259889 0.903004 0.342114
-7580.00000000 -6330.00000000 380.00000000 52 46 206 0.000000 0.000000 0.000000 0.000000 -60.708740 0.000000 118.000000 0.309603 0.944755 0.107630
-7560.00000000 -6330.00000000 380.00000000 52 46 206 0.000000 0.000000 0.000000 0.000000 -60.708740 0.000000 118.000000 0.125918 0.981675 0.143034
-7560.00000000 -6330.00000000 360.00000000 52 46 206 0.000000 0.000000 0.000000 0.000000 -60.708740 0.000000 118.000000 0.380726 0.750013 0.540859
-7640.00000000 -6240.00000000 510.00000000 52 46 206 0.000000 0.000000 0.000000 0.000000 -60.708740 0.000000 118.000000 0.220401 0.796835 0.562563
-7650.00000000 -6260.00000000 510.00000000 52 46 206 0.000000 0.000000 0.000000 0.000000 -60.708740 0.000000 118.000000 0.112729 0.991791 -0.060350
-7640.00000000 -6250.00000000 520.00000000 52 46 206 0.000000 0.000000 0.000000 0.000000 -60.708740 0.000000 118.000000 0.201839 0.977770 0.056805
-7610.00000000 -6250.00000000 480.00000000 52 46 206 0.000000 0.000000 0.000000 0.000000 -60.708740 0.000000 118.000000 0.340577 0.939478 -0.037271
-7600.00000000 -6260.00000000 480.00000000 52 46 206 0.000000 0.000000 0.000000 0.000000 -60.708740 0.000000 118.000000 0.505847 0.808409 0.300987
-7620.00000000 -6250.00000000 450.00000000 52 46 206 0.000000 0.000000 0.000000 0.000000 -60.708740 0.000000 118.000000 -0.366766 0.917617 0.153170
-7600.00000000 -6250.00000000 430.00000000 52 46 206 0.000000 0.000000 0.000000 0.000000 -60.708740 0.000000 118.000000 -0.305906 0.948959 0.076802
-7600.00000000 -6250.00000000 410.00000000 52 46 206 0.000000 0.000000 0.000000 0.000000 -60.708740 0.000000 118.000000 -0.127727 0.978415 -0.162449
-7590.00000000 -6240.00000000 430.00000000 52 46 206 0.000000 0.000000 0.000000 0.000000 -60.708740 0.000000 118.000000 -0.312109 0.936328 0.160867
-7630.00000000 -6250.00000000 470.00000000 52 46 206 0.000000 0.000000 0.000000 0.000000 -60.708740 0.000000 118.000000 -0.043401 0.963511 -0.264128
-7640.00000000 -6250.00000000 480.00000000 52 46 206 0.000000 0.000000 0.000000 0.000000 -60.708740 0.000000 118.000000 0.062532 0.955846 0.287137
-7630.00000000 -6260.00000000 450.00000000 52 46 206 0.000000 0.000000 0.000000 0.000000 -60.708740 0.000000 118.000000 0.000978 0.999999 -0.000978
-7630.00000000 -6260.00000000 440.00000000 52 46 206 0.000000 0.000000 0.000000 0.000000 -60.708740 0.000000 118.000000 -0.223012 0.940531 -0.256257
-7640.00000000 -6350.00000000 500.00000000 52 46 206 0.000000 0.000000 0.000000 0.000000 -60.708740 0.000000 118.000000 -0.399341 0.910608 0.106399
-7610.00000000 -6350.00000000 490.00000000 52 46 206 0.000000 0.000000 0.000000 0.000000 -60.708740 0.000000 118.000000 -0.133583 0.970701 -0.199738
-7600.00000000 -6320.00000000 510.00000000 52 46 206 0.000000 0.000000 0.000000 0.000000 -60.708740 0.000000 118.000000 0.796622 -0.570326 0.200302
-7640.00000000 -6350.00000000 500.00000000 52 46 206 0.000000 0.000000 0.000000 0.000000 -60.708740 0.000000 118.000000 -0.399341 0.910608 0.106399
-7620.00000000 -6270.00000000 500.00000000 52 46 206 0.000000 0.000000 0.000000 0.000000 -60.708740 0.000000 118.000000 0.758988 0.559169 0.333568
-7620.00000000 -6360.00000000 500.00000000 52 46 206 0.000000 0.000000 0.000000 0.000000 -60.708740 0.000000 118.000000 -0.041951 0.976854 -0.209754
-7640.00000000 -6360.00000000 520.00000000 52 46 206 0.000000 0.000000 0.000000 0.000000 -60.708740 0.000000 118.000000 -0.523616 0.821508 -0.225723
-7630.00000000 -6370.00000000 490.00000000 52 46 206 0.000000 0.000000 0.000000 0.000000 -60.708740 0.000000 118.000000 -0.193482 0.969975 0.147354
-7620.00000000 -6360.00000000 490.00000000 52 46 206 0.000000 0.000000 0.000000 0.000000 -60.708740 0.000000 118.000000 -0.301319 0.923951 0.235629
-7650.00000000 -6360.00000000 540.00000000 52 46 206 0.000000 0.000000 0.000000 0.000000 -60.708740 0.000000 118.000000 -0.641232 0.651174 -0.405948
-7740.00000000 -6340.00000000 490.00000000 52 46 206 0.000000 0.000000 0.000000 0.000000 -60.708740 0.000000 118.000000 0.655492 0.344910 0.671839
-7700.00000000 -6360.00000000 500.00000000 52 46 206 0.000000 0.000000 0.000000 0.000000 -60.708740 0.000000 118.000000 -0.080247 0.943229 0.322303
-7590.00000000 -6350.00000000 450.00000000 52 46 206 0.000000 0.000000 0.000000 0.000000 -60.708740 0.000000 118.000000 0.053810 0.962319 -0.266546
-7610.00000000 -6350.00000000 470.00000000 52 46 206 0.000000 0.000000 0.000000 0.000000 -60.708740 0.000000 118.000000 -0.414528 0.872769 -0.257761
-7620.00000000 -6350.00000000 480.00000000 52 46 206 0.000000 0.000000 0.000000 0.000000 -60.708740 0.000000 118.000000 0.064728 0.975805 -0.208839
-7600.00000000 -6350.00000000 470.00000000 52 46 206 0.000000 0.000000 0.000000 0.000000 -60.708740 0.000000 118.000000 -0.478711 0.876954 0.042279
-7590.00000000 -6340.00000000 460.00000000 52 46 206 0.000000 0.000000 0.000000 0.000000 -60.708740 0.000000 118.000000 -0.074817 0.996475 -0.037951
-7600.00000000 -6350.00000000 410.00000000 52 46 206 0.000000 0.000000 0.000000 0.000000 -60.708740 0.000000 118.000000 -0.185287 0.979718 -0.076295
-7600.00000000 -6340.00000000 440.00000000 52 46 206 0.000000 0.000000 0.000000 0.000000 -60.708740 0.000000 118.000000 0.050560 0.997213 -0.054863
-7620.00000000 -6320.00000000 430.00000000 52 46 206 0.000000 0.000000 0.000000 0.000000 -60.708740 0.000000 118.000000 0.166280 0.709360 0.684952
-7600.00000000 -6350.00000000 420.00000000 52 46 206 0.000000 0.000000 0.000000 0.000000 -60.708740 0.000000 118.000000 0.148456 0.950920 0.271500
-7620.00000000 -6350.00000000 430.00000000 52 46 206 0.000000 0.000000 0.000000 0.000000 -60.708740 0.000000 118.000000 -0.011473 0.998165 0.059452
-7590.00000000 -6340.00000000 410.00000000 52 46 206 0.000000 0.000000 0.000000 0.000000 -60.708740 0.000000 118.000000 0.065338 0.868858 0.490731
-7660.00000000 -6280.00000000 480.00000000 52 46 206 0.000000 0.000000 0.000000 0.000000 -60.708740 0.000000 118.000000 -0.337875 0.834474 -0.435309
-7670.00000000 -6330.00000000 480.00000000 52 46 206 0.000000 0.000000 0.000000 0.000000 -60.708740 0.000000 118.000000 0.321521 0.892782 0.315539
-7630.00000000 -6340.00000000 450.00000000 52 46 206 0.000000 0.000000 0.000000 0.000000 -60.708740 0.000000 118.000000 -0.099952 0.918738 0.382009
-7640.00000000 -6340.00000000 450.00000000 52 46 206 0.000000 0.000000 0.000000 0.000000 -60.708740 0.000000 118.000000 0.221628 0.938084 0.266232
-7640.00000000 -6340.00000000 450.00000000 52 46 206 0.000000 0.000000 0.000000 0.000000 -60.708740 0.000000 118.000000 0.221628 0.938084 0.266232
-7670.00000000 -6320.00000000 410.00000000 52 46 206 0.000000 0.000000 0.000000 0.000000 -60.708740 0.000000 118.000000 0.671372 0.089224 0.735730
-7600.00000000 -6290.00000000 390.00000000 52 46 206 0.000000 0.000000 0.000000 0.000000 -60.708740 0.000000 118.000000 0.727098 -0.166150 0.666125
-7590.00000000 -6280.00000000 360.00000000 52 46 206 0.000000 0.000000 0.000000 0.000000 -60.708740 0.000000 118.000000 0.895281 -0.243363 0.373157
-7600.00000000 -6280.00000000 380.00000000 52 46 206 0.000000 0.000000 0.000000 0.000000 -60.708740 0.000000 118.000000 0.742362 -0.044002 0.668552
-7600.00000000 -6270.00000000 380.00000000 52 46 206 0.000000 0.000000 0.000000 0.000000 -60.708740 0.000000 118.000000 0.686980 -0.149475 0.711137
-7610.00000000 -6330.00000000 370.00000000 52 46 206 0.000000 0.000000 0.000000 0.000000 -60.708740 0.000000 118.000000 0.156120 0.738161 0.656312
-7610.00000000 -6320.00000000 400.00000000 52 46 206 0.000000 0.000000 0.000000 0.000000 -60.708740 0.000000 118.000000 0.602344 0.507859 0.615842
-7610.00000000 -6330.00000000 370.00000000 52 46 206 0.000000 0.000000 0.000000 0.000000 -60.708740 0.000000 118.000000 0.156120 0.738161 0.656312
-7720.00000000 -6270.00000000 420.00000000 52 46 206 0.000000 0.000000 0.000000 0.000000 -60.708740 0.000000 118.000000 0.837244 -0.333333 0.433489
-7750.00000000 -6350.00000000 450.00000000 52 46 206 0.000000 0.000000 0.000000 0.000000 -60.708740 0.000000 118.000000 0.734209 0.192403 0.651091
-7740.00000000 -6330.00000000 480.00000000 52 46 206 0.000000 0.000000 0.000000 0.000000 -60.708740 0.000000 118.000000 0.591421 0.151224 0.792056
-7740.00000000 -6320.00000000 480.00000000 52 46 206 0.000000 0.000000 0.000000 0.000000 -60.708740 0.000000 118.000000 0.644907 -0.035279 0.763446
-7710.00000000 -6310.00000000 400.00000000 52 46 206 0.000000 0.000000 0.000000 0.000000 -60.708740 0.000000 118.000000 0.856965 0.113782 0.502657
-7690.00000000 -6330.00000000 330.00000000 52 46 206 0.000000 0.000000 0.000000 0.000000 -60.708740 0.000000 118.000000 0.639409 0.646052 0.416861
-7720.00000000 -6330.00000000 360.00000000 52 46 206 0.000000 0.000000 0.000000 0.000000 -60.708740 0.000000 118.000000 0.845114 0.445041 0.296177
-7730.00000000 -6320.00000000 380.00000000 52 46 206 0.000000 0.000000 0.000000 0.000000 -60.708740 0.000000 118.000000 0.806913 0.315473 0.499367
-7690.00000000 -6360.00000000 470.00000000 52 46 206 0.000000 0.000000 0.000000 0.000000 -60.708740 0.000000 118.000000 0.136487 0.709431 0.691433
-7740.00000000 -6360.00000000 450.00000000 52 46 206 0.000000 0.000000 0.000000 0.000000 -60.708740 0.000000 118.000000 0.703181 0.499409 0.506090
-7750.00000000 -6390.00000000 480.00000000 52 46 206 0.000000 0.000000 0.000000 0.000000 -60.708740 0.000000 118.000000 0.706683 0.537079 0.460591
-7740.00000000 -6360.00000000 420.00000000 52 46 206 0.000000 0.000000 0.000000 0.000000 -60.708740 0.000000 118.000000 0.742742 0.591294 0.314175
-7460.00000000 -6220.00000000 280.00000000 52 46 206 0.000000 0.000000 0.000000 0.000000 -60.708740 0.000000 118.000000 0.225095 0.965980 0.127340
-7460.00000000 -6220.00000000 280.00000000 52 46 206 0.000000 0.000000 0.000000 0.000000 -60.708740 0.000000 118.000000 0.225095 0.965980 0.127340
-7450.00000000 -6220.00000000 260.00000000 52 46 206 0.000000 0.000000 0.000000 0.000000 -60.708740 0.000000 118.000000 0.010533 0.977249 0.211835
-7440.00000000 -6220.00000000 260.00000000 52 46 206 0.000000 0.000000 0.000000 0.000000 -60.708740 0.000000 118.000000 -0.034280 0.856989 0.514193
-7450.00000000 -6220.00000000 270.00000000 52 46 206 0.000000 0.000000 0.000000 0.000000 -60.708740 0.000000 118.000000 0.227513 0.936571 0.266595
-7460.00000000 -6210.00000000 270.00000000 52 46 206 0.000000 0.000000 0.000000 0.000000 -60.708740 0.000000 118.000000 0.149792 0.955750 0.253188
-7430.00000000 -6240.00000000 280.00000000 52 46 206 0.000000 0.000000 0.000000 0.000000 -60.708740 0.000000 118.000000 0.389186 0.786447 0.479620
-7450.00000000 -6240.00000000 280.00000000 52 46 206 0.000000 0.000000 0.000000 0.000000 -60.708740 0.000000 118.000000 0.361280 0.816462 0.450407
-7420.00000000 -6250.00000000 300.00000000 52 46 206 0.000000 0.000000 0.000000 0.000000 -60.708740 0.000000 118.000000 0.522017 0.599728 0.606486
-7440.00000000 -6260.00000000 310.00000000 52 46 206 0.000000 0.000000 0.000000 0.000000 -60.708740 0.000000 118.000000 0.709601 0.460327 0.533447
-7440.00000000 -6240.00000000 300.00000000 52 46 206 0.000000 0.000000 0.000000 0.000000 -60.708740 0.000000 118.000000 0.268808 0.628278 0.730075
-7470.00000000 -6220.00000000 290.00000000 52 46 206 0.000000 0.000000 0.000000 0.000000 -60.708740 0.000000 118.000000 -0.028421 0.960150 0.278036
-7480.00000000 -6220.00000000 280.00000000 52 46 206 0.000000 0.000000 0.000000 0.000000 -60.708740 0.000000 118.000000 0.121267 0.987798 -0.097720
-7480.00000000 -6220.00000000 270.00000000 52 46 206 0.000000 0.000000 0.000000 0.000000 -60.708740 0.000000 118.000000 -0.135928 0.986954 0.086285
-7500.00000000 -6250.00000000 260.00000000 52 46 206 0.000000 0.000000 0.000000 0.000000 -60.708740 0.000000 118.000000 0.697146 -0.450899 0.557384
-7490.00000000 -6230.00000000 250.00000000 52 46 206 0.000000 0.000000 0.000000 0.000000 -60.708740 0.000000 118.000000 -0.505545 0.819760 -0.269105
-7430.00000000 -6210.00000000 200.00000000 52 46 206 0.000000 0.000000 0.000000 0.000000 -60.708740 0.000000 118.000000 -0.410088 0.908734 -0.077658
-7430.00000000 -6220.00000000 230.00000000 52 46 206 0.000000 0.000000 0.000000 0.000000 -60.708740 0.000000 118.000000 -0.328616 0.889814 0.316612
-7460.00000000 -6220.00000000 210.00000000 52 46 206 0.000000 0.000000 0.000000 0.000000 -60.708740 0.000000 118.000000 -0.598159 0.769061 -0.225281
-7420.00000000 -6210.00000000 180.00000000 52 46 206 0.000000 0.000000 0.000000 0.000000 -60.708740 0.000000 118.000000 -0.570445 0.815954 -0.093871
-7430.00000000 -6220.00000000 190.00000000 52 46 206 0.000000 0.000000 0.000000 0.000000 -60.708740 0.000000 118.000000 0.581376 -0.625190 0.520711
-7430.00000000 -6210.00000000 190.00000000 52 46 206 0.000000 0.000000 0.000000 0.000000 -60.708740 0.000000 118.000000 -0.230422 0.840812 -0.489838
-7420.00000000 -6210.00000000 160.00000000 52 46 206 0.000000 0.000000 0.000000 0.000000 -60.708740 0.000000 118.000000 0.579337 -0.623251 0.525288
-7430.00000000 -6220.00000000 170.00000000 52 46 206 0.000000 0.000000 0.000000 0.000000 -60.708740 0.000000 118.000000 -0.406409 0.801573 -0.438536
-7420.00000000 -6220.00000000 170.00000000 52 46 206 0.000000 0.000000 0.000000 0.000000 -60.708740 0.000000 118.000000 -0.423472 0.766828 -0.482333
-7460.00000000 -6230.00000000 210.00000000 52 46 206 0.000000 0.000000 0.000000 0.000000 -60.708740 0.000000 118.000000 0.637485 -0.482739 0.600480
-7440.00000000 -6260.00000000 170.00000000 52 46 206 0.000000 0.000000 0.000000 0.000000 -60.708740 0.000000 118.000000 0.433234 -0.075644 0.898101
-7430.00000000 -6250.00000000 150.00000000 52 46 206 0.000000 0.000000 0.000000 0.000000 -60.708740 0.000000 118.000000 0.794751 -0.070167 0.602865
-7440.00000000 -6260.00000000 160.00000000 52 46 206 0.000000 0.000000 0.000000 0.000000 -60.708740 0.000000 118.000000 0.702572 -0.130328 0.699576
-7430.00000000 -6260.00000000 160.00000000 52 46 206 0.000000 0.000000 0.000000 0.000000 -60.708740 0.000000 118.000000 0.567048 0.224038 0.792631
-7450.00000000 -6260.00000000 170.00000000 52 46 206 0.000000 0.000000 0.000000 0.000000 -60.708740 0.000000 118.000000 0.666108 -0.209614 0.715795
-7440.00000000 -6250.00000000 170.00000000 52 46 206 0.000000 0.000000 0.000000 0.000000 -60.708740 0.000000 118.000000 0.552103 -0.286334 0.783068
-7440.00000000 -6260.00000000 150.00000000 52 46 206 0.000000 0.000000 0.000000 0.000000 -60.708740 0.000000 118.000000 0.725049 -0.196335 0.660119
-7470.00000000 -6240.00000000 230.00000000 52 46 206 0.000000 0.000000 0.000000 0.000000 -60.708740 0.000000 118.000000 -0.305415 0.860994 -0.406708
-7510.00000000 -6260.00000000 290.00000000 52 46 206 0.000000 0.000000 0.000000 0.000000 -60.708740 0.000000 118.000000 0.839172 -0.532968 0.108327
-7510.00000000 -6260.00000000 250.00000000 52 46 206 0.000000 0.000000 0.000000 0.000000 -60.708740 0.000000 118.000000 0.871409 -0.277335 0.404637
-7510.00000000 -6260.00000000 300.00000000 52 46 206 0.000000 0.000000 0.000000 0.000000 -60.708740 0.000000 118.000000 -0.426318 0.578930 -0.695048
-7530.00000000 -6230.00000000 310.00000000 52 46 206 0.000000 0.000000 0.000000 0.000000 -60.708740 0.000000 118.000000 -0.278746 0.823781 -0.493646
-7510.00000000 -6250.00000000 260.00000000 52 46 206 0.000000 0.000000 0.000000 0.000000 -60.708740 0.000000 118.000000 0.679801 -0.305184 0.666883
-7520.00000000 -6230.00000000 280.00000000 52 46 206 0.000000 0.000000 0.000000 0.000000 -60.708740 0.000000 118.000000 0.779099 -0.617093 0.110458
-7420.00000000 -6260.00000000 140.00000000 52 46 206 0.000000 0.000000 0.000000 0.000000 -60.708740 0.000000 118.000000 0.788075 0.248127 0.563357
-7470.00000000 -6210.00000000 50.00000000 52 46 206 0.000000 0.000000 0.000000 0.000000 -60.708740 0.000000 118.000000 0.764543 -0.389607 0.513499
-7540.00000000 -6220.00000000 80.00000000 52 46 206 0.000000 0.000000 0.000000 0.000000 -60.708740 0.000000 118.000000 0.885632 -0.347336 0.308242
-7540.00000000 -6250.00000000 140.00000000 52 46 206 0.000000 0.000000 0.000000 0.000000 -60.708740 0.000000 118.000000 0.468912 -0.056379 0.881444
-7530.00000000 -6240.00000000 70.00000000 52 46 206 0.000000 0.000000 0.000000 0.000000 -60.708740 0.000000 118.000000 0.442887 -0.303028 0.843816
-7520.00000000 -6230.00000000 70.00000000 52 46 206 0.000000 0.000000 0.000000 0.000000 -60.708740 0.000000 118.000000 0.490445 -0.275584 0.826751
-7580.00000000 -6240.00000000 80.00000000 52 46 206 0.000000 0.000000 0.000000 0.000000 -60.708740 0.000000 118.000000 0.958320 -0.083388 0.273256
-7530.00000000 -6220.00000000 40.00000000 52 46 206 0.000000 0.000000 0.000000 0.000000 -60.708740 0.000000 118.000000 0.846564 -0.268872 0.459388
-7520.00000000 -6240.00000000 10.00000000 52 46 206 0.000000 0.000000 0.000000 0.000000 -60.708740 0.000000 118.000000 -0.746972 0.366163 -0.554940
-7520.00000000 -6240.00000000 10.00000000 52 46 206 0.000000 0.000000 0.000000 0.000000 -60.708740 0.000000 118.000000 -0.746972 0.366163 -0.554940
-7580.00000000 -6220.00000000 60.00000000 52 46 206 0.000000 0.000000 0.000000 0.000000 -60.708740 0.000000 118.000000 0.680953 -0.206302 0.702669
-7440.00000000 -6280.00000000 300.00000000 52 46 206 0.000000 0.000000 0.000000 0.000000 -60.708740 0.000000 118.000000 0.951603 -0.106611 0.288245
-7460.00000000 -6330.00000000 290.00000000 52 46 206 0.000000 0.000000 0.000000 0.000000 -60.708740 0.000000 118.000000 -0.389157 0.833457 -0.392308
-7460.00000000 -6320.00000000 300.00000000 52 46 206 0.000000 0.000000 0.000000 0.000000 -60.708740 0.000000 118.000000 -0.346913 0.936794 -0.045475
-7450.00000000 -6330.00000000 290.00000000 52 46 206 0.000000 0.000000 0.000000 0.000000 -60.708740 0.000000 118.000000 -0.431944 0.885703 -0.170160
-7440.00000000 -6310.00000000 300.00000000 52 46 206 0.000000 0.000000 0.000000 0.000000 -60.708740 0.000000 118.000000 -0.676155 0.653345 -0.340521
-7450.00000000 -6320.00000000 290.00000000 52 46 206 0.000000 0.000000 0.000000 0.000000 -60.708740 0.000000 118.000000 -0.451802 0.882090 -0.133389
-7460.00000000 -6340.00000000 280.00000000 52 46 206 0.000000 0.000000 0.000000 0.000000 -60.708740 0.000000 118.000000 -0.300201 0.953359 0.031402
-7450.00000000 -6320.00000000 300.00000000 52 46 206 0.000000 0.000000 0.000000 0.000000 -60.708740 0.000000 118.000000 -0.515275 0.856998 0.006727
-7430.00000000 -6330.00000000 250.00000000 52 46 206 0.000000 0.000000 0.000000 0.000000 -60.708740 0.000000 118.000000 -0.116123 0.985249 0.125700
-7460.00000000 -6320.00000000 250.00000000 52 46 206 0.000000 0.000000 0.000000 0.000000 -60.708740 0.000000 118.000000 0.222994 0.887544 0.403161
-7490.00000000 -6280.00000000 300.00000000 52 46 206 0.000000 0.000000 0.000000 0.000000 -60.708740 0.000000 118.000000 0.376716 0.870869 0.315709
-7500.00000000 -6270.00000000 250.00000000 52 46 206 0.000000 0.000000 0.000000 0.000000 -60.708740 0.000000 118.000000 0.921208 0.011628 0.388897
-7490.00000000 -6300.00000000 240.00000000 52 46 206 0.000000 0.000000 0.000000 0.000000 -60.708740 0.000000 118.000000 0.343820 0.630609 0.695788
-7500.00000000 -6290.00000000 250.00000000 52 46 206 0.000000 0.000000 0.000000 0.000000 -60.708740 0.000000 118.000000 0.824370 0.172682 0.539069
-7490.00000000 -6290.00000000 240.00000000 52 46 206 0.000000 0.000000 0.000000 0.000000 -60.708740 0.000000 118.000000 0.713854 0.403913 0.572072
-7490.00000000 -6320.00000000 300.00000000 52 46 206 0.000000 0.000000 0.000000 0.000000 -60.708740 0.000000 118.000000 -0.006580 0.893617 0.448783
-7490.00000000 -6320.00000000 300.00000000 52 46 206 0.000000 0.000000 0.000000 0.000000 -60.708740 0.000000 118.000000 -0.006580 0.893617 0.448783
-7440.00000000 -6300.00000000 220.00000000 52 46 206 0.000000 0.000000 0.000000 0.000000 -60.708740 0.000000 118.000000 0.335694 0.844699 0.416885
-7450.00000000 -6280.00000000 210.00000000 52 46 206 0.000000 0.000000 0.000000 0.000000 -60.708740 0.000000 118.000000 0.493131 0.376719 0.784159
-7440.00000000 -6290.00000000 210.00000000 52 46 206 0.000000 0.000000 0.000000 0.000000 -60.708740 0.000000 118.000000 0.404750 0.698813 0.589778
-7460.00000000 -6280.00000000 200.00000000 52 46 206 0.000000 0.000000 0.000000 0.000000 -60.708740 0.000000 118.000000 0.743581 -0.012509 0.668528
-7420.00000000 -6290.00000000 160.00000000 52 46 206 0.000000 0.000000 0.000000 0.000000 -60.708740 0.000000 118.000000 0.533898 0.368373 0.761088
-7460.00000000 -6270.00000000 180.00000000 52 46 206 0.000000 0.000000 0.000000 0.000000 -60.708740 0.000000 118.000000 0.733414 0.426864 0.529047
-7420.00000000 -6270.00000000 160.00000000 52 46 206 0.000000 0.000000 0.000000 0.000000 -60.708740 0.000000 118.000000 0.660031 0.126643 0.740487
-7420.00000000 -6320.00000000 190.00000000 52 46 206 0.000000 0.000000 0.000000 0.000000 -60.708740 0.000000 118.000000 -0.111700 0.952732 0.282534
-7450.00000000 -6320.00000000 190.00000000 52 46 206 0.000000 0.000000 0.000000 0.000000 -60.708740 0.000000 118.000000 0.381443 0.731782 0.564798
-7470.00000000 -6270.00000000 210.00000000 52 46 206 0.000000 0.000000 0.000000 0.000000 -60.708740 0.000000 118.000000 0.485162 -0.082970 0.870479
-7500.00000000 -6270.00000000 230.00000000 52 46 206 0.000000 0.000000 0.000000 0.000000 -60.708740 0.000000 118.000000 0.643490 -0.188900 0.741780
-7480.00000000 -6280.00000000 220.00000000 52 46 206 0.000000 0.000000 0.000000 0.000000 -60.708740 0.000000 118.000000 0.624077 0.175474 0.761404
-7520.00000000 -6300.00000000 250.00000000 52 46 206 0.000000 0.000000 0.000000 0.000000 -60.708740 0.000000 118.000000 0.446815 0.536510 0.715900
-7510.00000000 -6270.00000000 260.00000000 52 46 206 0.000000 0.000000 0.000000 0.000000 -60.708740 0.000000 118.000000 0.890280 0.105483 0.443030
-7510.00000000 -6270.00000000 260.00000000 52 46 206 0.000000 0.000000 0.000000 0.000000 -60.708740 0.000000 118.000000 0.890280 0.105483 0.443030
-7510.00000000 -6320.00000000 300.00000000 52 46 206 0.000000 0.000000 0.000000 0.000000 -60.708740 0.000000 118.000000 0.359459 0.785007 0.504532
-7510.00000000 -6340.00000000 310.00000000 52 46 206 0.000000 0.000000 0.000000 0.000000 -60.708740 0.000000 118.000000 0.318816 0.871023 0.373731
-7510.00000000 -6320.00000000 300.00000000 52 46 206 0.000000 0.000000 0.000000 0.000000 -60.708740 0.000000 118.000000 0.359459 0.785007 0.504532
-7510.00000000 -6320.00000000 300.00000000 52 46 206 0.000000 0.000000 0.000000 0.000000 -60.708740 0.000000 118.000000 0.359459 0.785007 0.504532
-7510.00000000 -6310.00000000 280.00000000 52 46 206 0.000000 0.000000 0.000000 0.000000 -60.708740 0.000000 118.000000 0.219224 0.907385 0.358599
-7530.00000000 -6310.00000000 310.00000000 52 46 206 0.000000 0.000000 0.000000 0.000000 -60.708740 0.000000 118.000000 0.139426 0.843894 0.518077
-7520.00000000 -6310.00000000 290.00000000 52 46 206 0.000000 0.000000 0.000000 0.000000 -60.708740 0.000000 118.000000 0.624590 0.720927 0.300253
-7550.00000000 -6300.00000000 310.00000000 52 46 206 0.000000 0.000000 0.000000 0.000000 -60.708740 0.000000 118.000000 0.731846 0.447698 0.513779
-7600.00000000 -6250.00000000 200.00000000 52 46 206 0.000000 0.000000 0.000000 0.000000 -60.708740 0.000000 118.000000 0.793535 -0.067200 0.604802
-7590.00000000 -6240.00000000 80.00000000 52 46 206 0.000000 0.000000 0.000000 0.000000 -60.708740 0.000000 118.000000 0.745738 0.079952 0.661425
-7620.00000000 -6280.00000000 230.00000000 52 46 206 0.000000 0.000000 0.000000 0.000000 -60.708740 0.000000 118.000000 0.696206 -0.329440 0.637783
-7620.00000000 -6270.00000000 150.00000000 52 46 206 0.000000 0.000000 0.000000 0.000000 -60.708740 0.000000 118.000000 0.868751 0.100951 0.484851
-7600.00000000 -6270.00000000 180.00000000 52 46 206 0.000000 0.000000 0.000000 0.000000 -60.708740 0.000000 118.000000 0.627822 -0.421323 0.654467
-7650.00000000 -6300.00000000 200.00000000 52 46 206 0.000000 0.000000 0.000000 0.000000 -60.708740 0.000000 118.000000 0.580775 -0.100435 0.807845
-7640.00000000 -6270.00000000 180.00000000 52 46 206 0.000000 0.000000 0.000000 0.000000 -60.708740 0.000000 118.000000 0.744990 0.302803 0.594390
-7640.00000000 -6280.00000000 180.00000000 52 46 206 0.000000 0.000000 0.000000 0.000000 -60.708740 0.000000 118.000000 0.478498 0.017424 0.877916
-7640.00000000 -6270.00000000 180.00000000 52 46 206 0.000000 0.000000 0.000000 0.000000 -60.708740 0.000000 118.000000 0.744990 0.302803 0.594390
-7650.00000000 -6270.00000000 190.00000000 52 46 206 0.000000 0.000000 0.000000 0.000000 -60.708740 0.000000 118.000000 0.806913 -0.315473 0.499367
-7670.00000000 -6310.00000000 210.00000000 52 46 206 0.000000 0.000000 0.000000 0.000000 -60.708740 0.000000 118.000000 0.948593 0.085046 0.304858
-7680.00000000 -6300.00000000 280.00000000 52 46 206 0.000000 0.000000 0.000000 0.000000 -60.708740 0.000000 118.000000 0.835560 -0.009541 0.549316
-7700.00000000 -6300.00000000 290.00000000 52 46 206 0.000000 0.000000 0.000000 0.000000 -60.708740 0.000000 118.000000 0.869041 -0.226641 0.439774
-7680.00000000 -6300.00000000 240.00000000 52 46 206 0.000000 0.000000 0.000000 0.000000 -60.708740 0.000000 118.000000 0.821044 0.153480 0.549846
-7610.00000000 -6280.00000000 140.00000000 52 46 206 0.000000 0.000000 0.000000 0.000000 -60.708740 0.000000 118.000000 0.785575 -0.135650 0.603715
-7600.00000000 -6270.00000000 70.00000000 52 46 206 0.000000 0.000000 0.000000 0.000000 -60.708740 0.000000 118.000000 0.832184 0.254750 0.492517
-7760.00000000 -6340.00000000 460.00000000 52 46 206 0.000000 0.000000 0.000000 0.000000 -60.708740 0.000000 118.000000 0.542902 0.146451 0.826928
-7760.00000000 -6320.00000000 410.00000000 52 46 206 0.000000 0.000000 0.000000 0.000000 -60.708740 0.000000 118.000000 0.663164 0.126672 0.737677
-7760.00000000 -6360.00000000 470.00000000 52 46 206 0.000000 0.000000 0.000000 0.000000 -60.708740 0.000000 118.000000 0.531426 0.588786 0.609031
-7780.00000000 -6360.00000000 480.00000000 52 46 206 0.000000 0.000000 0.000000 0.000000 -60.708740 0.000000 118.000000 0.691395 0.493853 0.527335
-7770.00000000 -6350.00000000 460.00000000 52 46 206 0.000000 0.000000 0.000000 0.000000 -60.708740 0.000000 118.000000 0.488069 0.237150 0.839969
-7760.00000000 -6310.00000000 460.00000000 52 46 206 0.000000 0.000000 0.000000 0.000000 -60.708740 0.000000 118.000000 0.860615 0.253479 0.441691
-7770.00000000 -6360.00000000 470.00000000 52 46 206 0.000000 0.000000 0.000000 0.000000 -60.708740 0.000000 118.000000 0.644811 0.533695 0.547164
-6710.00000000 -5890.00000000 -350.00000000 52 46 206 0.000000 0.000000 0.000000 0.000000 -60.708740 0.000000 121.000000 0.266886 0.762757 0.589044
-6680.00000000 -5950.00000000 -350.00000000 52 46 206 0.000000 0.000000 0.000000 0.000000 -60.708740 0.000000 121.000000 0.439221 0.663006 0.606225
-6680.00000000 -5950.00000000 -350.00000000 52 46 206 0.000000 0.000000 0.000000 0.000000 -60.708740 0.000000 121.000000 0.439221 0.663006 0.606225
-6690.00000000 -6020.00000000 -240.00000000 52 46 206 0.000000 0.000000 0.000000 0.000000 -60.708740 0.000000 121.000000 0.870740 0.362681 0.332075
-6470.00000000 -6040.00000000 -410.00000000 52 46 206 0.000000 0.000000 0.000000 0.000000 -60.708740 0.000000 118.000000 0.764711 0.588118 0.263313
-6480.00000000 -6080.00000000 -430.00000000 52 46 206 0.000000 0.000000 0.000000 0.000000 -60.708740 0.000000 118.000000 0.661437 0.516695 0.543624
-6500.00000000 -6050.00000000 -390.00000000 52 46 206 0.000000 0.000000 0.000000 0.000000 -60.708740 0.000000 118.000000 0.851182 0.434087 0.295056
-6540.00000000 -6020.00000000 -420.00000000 52 46 206 0.000000 0.000000 0.000000 0.000000 -60.708740 0.000000 118.000000 0.580062 0.295624 0.759035
-6510.00000000 -6070.00000000 -370.00000000 52 46 206 0.000000 0.000000 0.000000 0.000000 -60.708740 0.000000 118.000000 0.858863 0.119808 0.497996
-6530.00000000 -6030.00000000 -430.00000000 52 46 206 0.000000 0.000000 0.000000 0.000000 -60.708740 0.000000 118.000000 0.689560 0.620439 0.373580
-6500.00000000 -6030.00000000 -500.00000000 52 46 206 0.000000 0.000000 0.000000 0.000000 -60.708740 0.000000 118.000000 0.519153 0.795399 0.312762
-6440.00000000 -6010.00000000 -640.00000000 52 46 206 0.000000 0.000000 0.000000 0.000000 -60.708740 0.000000 118.000000 0.765047 0.614797 0.191645
-6440.00000000 -6080.00000000 -590.00000000 52 46 206 0.000000 0.000000 0.000000 0.000000 -60.708740 0.000000 118.000000 0.774788 0.187966 0.603632
-6440.00000000 -6090.00000000 -600.00000000 52 46 206 0.000000 0.000000 0.000000 0.000000 -60.708740 0.000000 118.000000 0.570383 0.284397 0.770573
-6480.00000000 -6020.00000000 -570.00000000 52 46 206 0.000000 0.000000 0.000000 0.000000 -60.708740 0.000000 118.000000 0.640186 0.741999 0.198998
-6480.00000000 -6020.00000000 -570.00000000 52 46 206 0.000000 0.000000 0.000000 0.000000 -60.708740 0.000000 118.000000 0.640186 0.741999 0.198998
-6410.00000000 -6080.00000000 -690.00000000 52 46 206 0.000000 0.000000 0.000000 0.000000 -60.708740 0.000000 118.000000 0.912378 0.211879 0.350249
-6480.00000000 -6050.00000000 -610.00000000 52 46 206 0.000000 0.000000 0.000000 0.000000 -60.708740 0.000000 118.000000 0.820123 0.182753 0.542218
-6500.00000000 -6070.00000000 -570.00000000 52 46 206 0.000000 0.000000 0.000000 0.000000 -60.708740 0.000000 118.000000 0.703874 0.095515 0.703874
-6500.00000000 -6070.00000000 -570.00000000 52 46 206 0.000000 0.000000 0.000000 0.000000 -60.708740 0.000000 118.000000 0.703874 0.095515 0.703874
-6500.00000000 -6080.00000000 -560.00000000 52 46 206 0.000000 0.000000 0.000000 0.000000 -60.708740 0.000000 118.000000 0.436914 0.743578 0.506160
-6660.00000000 -5870.00000000 -490.00000000 52 46 206 0.000000 0.000000 0.000000 0.000000 -60.708740 0.000000 121.000000 0.394864 0.917827 0.040939
-6650.00000000 -5890.00000000 -480.00000000 52 46 206 0.000000 0.000000 0.000000 0.000000 -60.708740 0.000000 121.000000 0.521602 0.853162 -0.006739
-6650.00000000 -5910.00000000 -520.00000000 52 46 206 0.000000 0.000000 0.000000 0.000000 -60.708740 0.000000 121.000000 0.003723 0.946925 0.321433
-6650.00000000 -5910.00000000 -510.00000000 52 46 206 0.000000 0.000000 0.000000 0.000000 -60.708740 0.000000 121.000000 0.176821 0.901358 0.395332
-6690.00000000 -5880.00000000 -420.00000000 52 46 206 0.000000 0.000000 0.000000 0.000000 -60.708740 0.000000 121.000000 0.107448 0.772745 0.625556
-6700.00000000 -5890.00000000 -420.00000000 52 46 206 0.000000 0.000000 0.000000 0.000000 -60.708740 0.000000 121.000000 0.037793 0.996663 0.072347
-6720.00000000 -5890.00000000 -390.00000000 52 46 206 0.000000 0.000000 0.000000 0.000000 -60.708740 0.000000 121.000000 0.180071 0.900353 0.396155
-6710.00000000 -5890.00000000 -410.00000000 52 46 206 0.000000 0.000000 0.000000 0.000000 -60.708740 0.000000 121.000000 0.040186 0.970564 0.237466
-6710.00000000 -5890.00000000 -410.00000000 52 46 206 0.000000 0.000000 0.000000 0.000000 -60.708740 0.000000 121.000000 0.040186 0.970564 0.237466
-6690.00000000 -5880.00000000 -450.00000000 52 46 206 0.000000 0.000000 0.000000 0.000000 -60.708740 0.000000 121.000000 0.369849 0.858854 0.354374
-6700.00000000 -5900.00000000 -470.00000000 52 46 206 0.000000 0.000000 0.000000 0.000000 -60.708740 0.000000 121.000000 0.359776 0.891228 0.276176
-6690.00000000 -5910.00000000 -510.00000000 52 46 206 0.000000 0.000000 0.000000 0.000000 -60.708740 0.000000 121.000000 0.057728 0.971552 0.229684
-6660.00000000 -5870.00000000 -550.00000000 52 46 206 0.000000 0.000000 0.000000 0.000000 -60.708740 0.000000 121.000000 0.241197 0.944115 0.224658
-6640.00000000 -5920.00000000 -530.00000000 52 46 206 0.000000 0.000000 0.000000 0.000000 -60.708740 0.000000 121.000000 0.023601 0.990118 0.138234
-6670.00000000 -5860.00000000 -610.00000000 52 46 206 0.000000 0.000000 0.000000 0.000000 -60.708740 0.000000 121.000000 0.017811 0.974873 -0.222048
-6670.00000000 -5850.00000000 -660.00000000 52 46 206 0.000000 0.000000 0.000000 0.000000 -60.708740 0.000000 121.000000 -0.244342 0.965972 -0.084823
-6640.00000000 -5960.00000000 -380.00000000 52 46 206 0.000000 0.000000 0.000000 0.000000 -60.708740 0.000000 121.000000 0.618267 0.721581 0.311555
-6680.00000000 -5950.00000000 -380.00000000 52 46 206 0.000000 0.000000 0.000000 0.000000 -60.708740 0.000000 121.000000 0.194206 0.960462 0.199491
-6680.00000000 -5940.00000000 -390.00000000 52 46 206 0.000000 0.000000 0.000000 0.000000 -60.708740 0.000000 121.000000 0.357922 0.899960 0.248925
-6710.00000000 -5940.00000000 -510.00000000 52 46 206 0.000000 0.000000 0.000000 0.000000 -60.708740 0.000000 121.000000 0.307792 0.951015 -0.028895
-6680.00000000 -5960.00000000 -490.00000000 52 46 206 0.000000 0.000000 0.000000 0.000000 -60.708740 0.000000 121.000000 0.206762 0.698017 0.685581
-6730.00000000 -6190.00000000 -160.00000000 52 46 206 0.000000 0.000000 0.000000 0.000000 -60.708740 0.000000 118.000000 0.532871 -0.143181 0.833995
-6740.00000000 -6180.00000000 -150.00000000 52 46 206 0.000000 0.000000 0.000000 0.000000 -60.708740 0.000000 118.000000 0.730127 0.133432 0.670157
-6650.00000000 -6180.00000000 -340.00000000 52 46 206 0.000000 0.000000 0.000000 0.000000 -60.708740 0.000000 118.000000 0.700252 0.055848 0.711708
-6660.00000000 -6250.00000000 -330.00000000 52 46 206 0.000000 0.000000 0.000000 0.000000 -60.708740 0.000000 118.000000 0.842359 -0.233058 0.485918
-6660.00000000 -6250.00000000 -320.00000000 52 46 206 0.000000 0.000000 0.000000 0.000000 -60.708740 0.000000 118.000000 0.884451 -0.142375 0.444383
-6640.00000000 -6210.00000000 -340.00000000 52 46 206 0.000000 0.000000 0.000000 0.000000 -60.708740 0.000000 118.000000 0.634516 0.212540 0.743113
-6650.00000000 -6230.00000000 -330.00000000 52 46 206 0.000000 0.000000 0.000000 0.000000 -60.708740 0.000000 118.000000 0.801999 0.170670 0.572425
-6690.00000000 -6170.00000000 -290.00000000 52 46 206 0.000000 0.000000 0.000000 0.000000 -60.708740 0.000000 118.000000 0.923776 -0.029967 0.381758
-6740.00000000 -6250.00000000 -210.00000000 52 46 206 0.000000 0.000000 0.000000 0.000000 -60.708740 0.000000 118.000000 0.585662 -0.360533 0.725959
-6720.00000000 -6240.00000000 -220.00000000 52 46 206 0.000000 0.000000 0.000000 0.000000 -60.708740 0.000000 118.000000 0.896771 -0.036193 0.441013
-6680.00000000 -6210.00000000 -310.00000000 52 46 206 0.000000 0.000000 0.000000 0.000000 -60.708740 0.000000 118.000000 0.683296 0.337571 0.647419
-6670.00000000 -6240.00000000 -310.00000000 52 46 206 0.000000 0.000000 0.000000 0.000000 -60.708740 0.000000 118.000000 0.741044 -0.041090 0.670198
-6700.00000000 -6230.00000000 -350.00000000 52 46 206 0.000000 0.000000 0.000000 0.000000 -60.708740 0.000000 118.000000 0.672104 0.169169 0.720873
-6720.00000000 -6220.00000000 -280.00000000 52 46 206 0.000000 0.000000 0.000000 0.000000 -60.708740 0.000000 118.000000 0.580942 -0.224631 0.782335
-6680.00000000 -6280.00000000 -150.00000000 52 46 206 0.000000 0.000000 0.000000 0.000000 -60.708740 0.000000 118.000000 0.909138 -0.331259 0.252457
-6740.00000000 -6300.00000000 -120.00000000 52 46 206 0.000000 0.000000 0.000000 0.000000 -60.708740 0.000000 118.000000 0.641747 -0.648380 0.409590
-6650.00000000 -6300.00000000 -190.00000000 52 46 206 0.000000 0.000000 0.000000 0.000000 -60.708740 0.000000 118.000000 0.749799 -0.278588 0.600158
-6640.00000000 -6300.00000000 -200.00000000 52 46 206 0.000000 0.000000 0.000000 0.000000 -60.708740 0.000000 118.000000 0.842693 -0.090135 0.530796
-6650.00000000 -6330.00000000 -210.00000000 52 46 206 0.000000 0.000000 0.000000 0.000000 -60.708740 0.000000 118.000000 0.569291 -0.698751 0.433192
-6650.00000000 -6310.00000000 -200.00000000 52 46 206 0.000000 0.000000 0.000000 0.000000 -60.708740 0.000000 118.000000 0.725861 -0.089090 0.682047
-6730.00000000 -6270.00000000 -280.00000000 52 46 206 0.000000 0.000000 0.000000 0.000000 -60.708740 0.000000 118.000000 0.750995 -0.136408 0.646065
-6520.00000000 -6130.00000000 -420.00000000 52 46 206 0.000000 0.000000 0.000000 0.000000 -60.708740 0.000000 118.000000 0.610776 0.346921 0.711758
-6510.00000000 -6130.00000000 -410.00000000 52 46 206 0.000000 0.000000 0.000000 0.000000 -60.708740 0.000000 118.000000 0.569076 -0.122050 0.813176
-6440.00000000 -6120.00000000 -590.00000000 52 46 206 0.000000 0.000000 0.000000 0.000000 -60.708740 0.000000 118.000000 0.898239 0.113506 0.424597
-6490.00000000 -6120.00000000 -620.00000000 52 46 206 0.000000 0.000000 0.000000 0.000000 -60.708740 0.000000 118.000000 0.874707 0.050807 0.481981
-6570.00000000 -6110.00000000 -690.00000000 52 46 206 0.000000 0.000000 0.000000 0.000000 -60.708740 0.000000 118.000000 0.292345 0.602262 0.742843
-6540.00000000 -6240.00000000 -570.00000000 52 46 206 0.000000 0.000000 0.000000 0.000000 -60.708740 0.000000 118.000000 0.614329 -0.299947 0.729816
-6550.00000000 -6200.00000000 -620.00000000 52 46 206 0.000000 0.000000 0.000000 0.000000 -60.708740 0.000000 118.000000 0.697122 -0.140027 0.703145
-6570.00000000 -6320.00000000 -420.00000000 52 46 206 0.000000 0.000000 0.000000 0.000000 -60.708740 0.000000 118.000000 0.640838 -0.152293 0.752419
-6570.00000000 -6300.00000000 -410.00000000 52 46 206 0.000000 0.000000 0.000000 0.000000 -60.708740 0.000000 118.000000 0.735768 -0.021022 0.676907
-6570.00000000 -6320.00000000 -470.00000000 52 46 206 0.000000 0.000000 0.000000 0.000000 -60.708740 0.000000 118.000000 0.770367 -0.205328 0.603634
-6570.00000000 -6370.00000000 -390.00000000 52 46 206 0.000000 0.000000 0.000000 0.000000 -60.708740 0.000000 118.000000 0.760983 -0.597127 0.253661
-6560.00000000 -6370.00000000 -410.00000000 52 46 206 0.000000 0.000000 0.000000 0.000000 -60.708740 0.000000 118.000000 0.877417 -0.453937 0.155180
-6590.00000000 -6180.00000000 -490.00000000 52 46 206 0.000000 0.000000 0.000000 0.000000 -60.708740 0.000000 118.000000 0.636110 0.315627 0.704091
-6590.00000000 -6210.00000000 -480.00000000 52 46 206 0.000000 0.000000 0.000000 0.000000 -60.708740 0.000000 118.000000 0.605058 -0.384138 0.697383
-6620.00000000 -6230.00000000 -500.00000000 52 46 206 0.000000 0.000000 0.000000 0.000000 -60.708740 0.000000 118.000000 0.922796 -0.319922 0.214703
-6700.00000000 -6150.00000000 -430.00000000 52 46 206 0.000000 0.000000 0.000000 0.000000 -60.708740 0.000000 118.000000 0.829029 0.473062 0.298201
-6680.00000000 -6210.00000000 -470.00000000 52 46 206 0.000000 0.000000 0.000000 0.000000 -60.708740 0.000000 118.000000 0.688560 -0.458484 0.561852
-6680.00000000 -6190.00000000 -470.00000000 52 46 206 0.000000 0.000000 0.000000 0.000000 -60.708740 0.000000 118.000000 0.686131 0.283089 0.670138
-6690.00000000 -6190.00000000 -460.00000000 52 46 206 0.000000 0.000000 0.000000 0.000000 -60.708740 0.000000 118.000000 0.957438 0.070306 0.279945
-6680.00000000 -6230.00000000 -520.00000000 52 46 206 0.000000 0.000000 0.000000 0.000000 -60.708740 0.000000 118.000000 -0.634692 0.717825 -0.286171
-6610.00000000 -6160.00000000 -610.00000000 52 46 206 0.000000 0.000000 0.000000 0.000000 -60.708740 0.000000 118.000000 0.704179 0.064802 0.707059
-6650.00000000 -6180.00000000 -650.00000000 52 46 206 0.000000 0.000000 0.000000 0.000000 -60.708740 0.000000 118.000000 0.765040 0.252919 0.592238
-6630.00000000 -6180.00000000 -640.00000000 52 46 206 0.000000 0.000000 0.000000 0.000000 -60.708740 0.000000 118.000000 0.954261 -0.046889 0.295276
-6620.00000000 -6170.00000000 -640.00000000 52 46 206 0.000000 0.000000 0.000000 0.000000 -60.708740 0.000000 118.000000 0.583926 -0.235127 0.777011
-6640.00000000 -6180.00000000 -690.00000000 52 46 206 0.000000 0.000000 0.000000 0.000000 -60.708740 0.000000 118.000000 -0.282656 0.717019 -0.637173
-6590.00000000 -6220.00000000 -590.00000000 52 46 206 0.000000 0.000000 0.000000 0.000000 -60.708740 0.000000 118.000000 -0.607402 0.560028 -0.563411
-6590.00000000 -6200.00000000 -630.00000000 52 46 206 0.000000 0.000000 0.000000 0.000000 -60.708740 0.000000 118.000000 0.869869 0.025784 0.492609
-6620.00000000 -6210.00000000 -630.00000000 52 46 206 0.000000 0.000000 0.000000 0.000000 -60.708740 0.000000 118.000000 0.815855 -0.546426 0.189206
-6680.00000000 -6180.00000000 -630.00000000 52 46 206 0.000000 0.000000 0.000000 0.000000 -60.708740 0.000000 118.000000 0.883793 -0.302627 0.356829
-6710.00000000 -6150.00000000 -690.00000000 52 46 206 0.000000 0.000000 0.000000 0.000000 -60.708740 0.000000 118.000000 0.701844 -0.304939 0.643760
-6670.00000000 -6200.00000000 -550.00000000 52 46 206 0.000000 0.000000 0.000000 0.000000 -60.708740 0.000000 118.000000 0.868103 -0.206975 0.451175
-6720.00000000 -6200.00000000 -550.00000000 52 46 206 0.000000 0.000000 0.000000 0.000000 -60.708740 0.000000 118.000000 0.440566 -0.516469 0.734276
-6740.00000000 -6220.00000000 -610.00000000 52 46 206 0.000000 0.000000 0.000000 0.000000 -60.708740 0.000000 118.000000 0.340064 0.925031 0.169332
-6590.00000000 -6280.00000000 -460.00000000 52 46 206 0.000000 0.000000 0.000000 0.000000 -60.708740 0.000000 118.000000 0.474195 -0.588136 0.655160
-6580.00000000 -6280.00000000 -470.00000000 52 46 206 0.000000 0.000000 0.000000 0.000000 -60.708740 0.000000 118.000000 -0.719665 0.378685 -0.581962
-6740.00000000 -6290.00000000 -360.00000000 52 46 206 0.000000 0.000000 0.000000 0.000000 -60.708740 0.000000 118.000000 0.688494 -0.497525 0.527678
-6730.00000000 -6280.00000000 -370.00000000 52 46 206 0.000000 0.000000 0.000000 0.000000 -60.708740 0.000000 118.000000 0.784807 -0.470884 0.402922
-6760.00000000 -5970.00000000 -200.00000000 52 46 206 0.000000 0.000000 0.000000 0.000000 -60.708740 0.000000 121.000000 0.221396 0.832144 0.508448
-6890.00000000 -5990.00000000 -330.00000000 52 46 206 0.000000 0.000000 0.000000 0.000000 -60.708740 0.000000 118.000000 0.261225 0.952468 0.156735
-7040.00000000 -6070.00000000 -30.00000000 52 46 206 0.000000 0.000000 0.000000 0.000000 -60.708740 0.000000 118.000000 0.187707 0.967017 0.172173
-7060.00000000 -6070.00000000 -90.00000000 52 46 206 0.000000 0.000000 0.000000 0.000000 -60.708740 0.000000 118.000000 0.366378 0.899024 0.239838
-7060.00000000 -6070.00000000 -80.00000000 52 46 206 0.000000 0.000000 0.000000 0.000000 -60.708740 0.000000 118.000000 -0.128555 0.899887 0.416745
-7070.00000000 -6070.00000000 -90.00000000 52 46 206 0.000000 0.000000 0.000000 0.000000 -60.708740 0.000000 118.000000 -0.079980 0.871357 0.484087
-7080.00000000 -6090.00000000 -80.00000000 52 46 206 0.000000 0.000000 0.000000 0.000000 -60.708740 0.000000 118.000000 -0.096273 0.926115 0.364751
-7030.00000000 -6060.00000000 -140.00000000 52 46 206 0.000000 0.000000 0.000000 0.000000 -60.708740 0.000000 118.000000 0.013134 0.970688 0.239985
-7020.00000000 -6060.00000000 -160.00000000 52 46 206 0.000000 0.000000 0.000000 0.000000 -60.708740 0.000000 118.000000 0.185849 0.970262 -0.155088
-7010.00000000 -6060.00000000 -180.00000000 52 46 206 0.000000 0.000000 0.000000 0.000000 -60.708740 0.000000 118.000000 0.414997 0.876437 0.244204
-7020.00000000 -6060.00000000 -180.00000000 52 46 206 0.000000 0.000000 0.000000 0.000000 -60.708740 0.000000 118.000000 0.407400 0.859383 0.309009
-6990.00000000 -6010.00000000 -300.00000000 52 46 206 0.000000 0.000000 0.000000 0.000000 -60.708740 0.000000 118.000000 -0.112729 0.991791 -0.060350
-6970.00000000 -6000.00000000 -280.00000000 52 46 206 0.000000 0.000000 0.000000 0.000000 -60.708740 0.000000 118.000000 0.206050 0.977845 0.036922
-6990.00000000 -6010.00000000 -310.00000000 52 46 206 0.000000 0.000000 0.000000 0.000000 -60.708740 0.000000 118.000000 0.076385 0.995218 0.060887
-6970.00000000 -6010.00000000 -290.00000000 52 46 206 0.000000 0.000000 0.000000 0.000000 -60.708740 0.000000 118.000000 -0.185607 0.980724 -0.061071
-6970.00000000 -6010.00000000 -300.00000000 52 46 206 0.000000 0.000000 0.000000 0.000000 -60.708740 0.000000 118.000000 0.248116 0.956638 -0.152584
-6970.00000000 -6010.00000000 -320.00000000 52 46 206 0.000000 0.000000 0.000000 0.000000 -60.708740 0.000000 118.000000 -0.018553 0.994208 0.105860
-6970.00000000 -6010.00000000 -320.00000000 52 46 206 0.000000 0.000000 0.000000 0.000000 -60.708740 0.000000 118.000000 -0.018553 0.994208 0.105860
-6970.00000000 -6010.00000000 -330.00000000 52 46 206 0.000000 0.000000 0.000000 0.000000 -60.708740 0.000000 118.000000 0.028629 0.997761 -0.060438
-6920.00000000 -6090.00000000 -250.00000000 52 46 206 0.000000 0.000000 0.000000 0.000000 -60.708740 0.000000 118.000000 -0.051447 0.855128 0.515858
-6990.00000000 -6040.00000000 -240.00000000 52 46 206 0.000000 0.000000 0.000000 0.000000 -60.708740 0.000000 118.000000 0.088894 0.980266 0.176570
-6990.00000000 -6020.00000000 -250.00000000 52 46 206 0.000000 0.000000 0.000000 0.000000 -60.708740 0.000000 118.000000 0.341160 0.899421 0.273223
-6980.00000000 -6060.00000000 -200.00000000 52 46 206 0.000000 0.000000 0.000000 0.000000 -60.708740 0.000000 118.000000 0.043701 0.960180 0.275943
-6940.00000000 -6060.00000000 -300.00000000 52 46 206 0.000000 0.000000 0.000000 0.000000 -60.708740 0.000000 118.000000 0.123208 0.853760 0.505878
-6930.00000000 -6060.00000000 -320.00000000 52 46 206 0.000000 0.000000 0.000000 0.000000 -60.708740 0.000000 118.000000 -0.289614 0.938128 0.189843
-6990.00000000 -6020.00000000 -330.00000000 52 46 206 0.000000 0.000000 0.000000 0.000000 -60.708740 0.000000 118.000000 -0.347721 0.935567 0.061671
-7010.00000000 -6020.00000000 -260.00000000 52 46 206 0.000000 0.000000 0.000000 0.000000 -60.708740 0.000000 118.000000 -0.372063 0.918313 0.135169
-7000.00000000 -6090.00000000 -330.00000000 52 46 206 0.000000 0.000000 0.000000 0.000000 -60.708740 0.000000 118.000000 0.011228 0.999299 -0.035726
-6800.00000000 -5920.00000000 -610.00000000 52 46 206 0.000000 0.000000 0.000000 0.000000 -60.708740 0.000000 118.000000 -0.523009 0.805717 -0.277996
