//X Y Z R G B PointSourceId ScanDirectionFlag NumberOfReturns ReturnNumber GpsTime Intensity Classification Nx Ny Nz
-6670.00000000 9990.00000000 40.00000000 243 180 44 97.000000 1.000000 4.000000 1.000000 -60.708740 114.000000 148.000000 0.855002 -0.515782 -0.054220
-6670.00000000 10030.00000000 10.00000000 243 180 44 97.000000 1.000000 4.000000 1.000000 -60.708740 114.000000 148.000000 0.936240 0.050784 -0.347672
-6670.00000000 9990.00000000 30.00000000 243 180 44 97.000000 1.000000 4.000000 1.000000 -60.708740 114.000000 148.000000 0.929474 -0.359753 -0.081580
-6680.00000000 10060.00000000 10.00000000 243 180 44 97.000000 1.000000 4.000000 1.000000 -60.708740 114.000000 148.000000 0.950555 0.285034 0.123294
-6680.00000000 9960.00000000 130.00000000 243 180 44 97.000000 1.000000 4.000000 1.000000 -60.708740 114.000000 148.000000 0.908813 -0.382583 0.166402
-6670.00000000 9980.00000000 120.00000000 243 180 44 97.000000 1.000000 4.000000 1.000000 -60.708740 114.000000 148.000000 0.926688 -0.329458 0.180851
-6670.00000000 9980.00000000 130.00000000 243 180 44 97.000000 1.000000 4.000000 1.000000 -60.708740 114.000000 148.000000 0.945287 -0.324426 -0.034351
-6670.00000000 9970.00000000 130.00000000 243 180 44 97.000000 1.000000 4.000000 1.000000 -60.708740 114.000000 148.000000 0.817732 -0.556532 0.146925
-6670.00000000 9980.00000000 110.00000000 243 180 44 97.000000 1.000000 4.000000 1.000000 -60.708740 114.000000 148.000000 0.810234 -0.564617 0.157254
-6690.00000000 9970.00000000 120.00000000 243 180 44 97.000000 1.000000 4.000000 1.000000 -60.708740 114.000000 148.000000 0.859112 -0.479263 -0.179538
-6670.00000000 9970.00000000 100.00000000 243 180 44 97.000000 1.000000 4.000000 1.000000 -60.708740 114.000000 148.000000 0.786676 -0.557425 0.265366
-6670.00000000 9970.00000000 80.00000000 243 180 44 97.000000 1.000000 4.000000 1.000000 -60.708740 114.000000 148.000000 0.999936 -0.002967 0.010880
-6670.00000000 9970.00000000 80.00000000 243 180 44 97.000000 1.000000 4.000000 1.000000 -60.708740 114.000000 148.000000 0.999936 -0.002967 0.010880
-6690.00000000 9950.00000000 70.00000000 243 180 44 97.000000 1.000000 4.000000 1.000000 -60.708740 114.000000 148.000000 0.773986 -0.597870 -0.208559
-6670.00000000 9970.00000000 90.00000000 243 180 44 97.000000 1.000000 4.000000 1.000000 -60.708740 114.000000 148.000000 0.878674 -0.474401 0.053628
-6690.00000000 9920.00000000 120.00000000 243 180 44 97.000000 1.000000 4.000000 1.000000 -60.708740 114.000000 148.000000 0.920672 -0.388961 -0.032741
-6680.00000000 9930.00000000 130.00000000 243 180 44 97.000000 1.000000 4.000000 1.000000 -60.708740 114.000000 148.000000 0.804363 -0.517878 0.291208
-6680.00000000 9940.00000000 110.00000000 243 180 44 97.000000 1.000000 4.000000 1.000000 -60.708740 114.000000 148.000000 0.762198 -0.476988 0.437649
-6690.00000000 9910.00000000 140.00000000 243 180 44 97.000000 1.000000 4.000000 1.000000 -60.708740 114.000000 148.000000 0.871788 -0.471198 -0.134010
-6690.00000000 9930.00000000 140.00000000 243 180 44 97.000000 1.000000 4.000000 1.000000 -60.708740 114.000000 148.000000 0.878850 -0.411727 0.241047
-6680.00000000 9930.00000000 130.00000000 243 180 44 97.000000 1.000000 4.000000 1.000000 -60.708740 114.000000 148.000000 0.804363 -0.517878 0.291208
-6690.00000000 9920.00000000 140.00000000 243 180 44 97.000000 1.000000 4.000000 1.000000 -60.708740 114.000000 148.000000 0.982067 -0.188104 0.012694
-6690.00000000 9930.00000000 140.00000000 243 180 44 97.000000 1.000000 4.000000 1.000000 -60.708740 114.000000 148.000000 0.878850 -0.411727 0.241047
-6670.00000000 9910.00000000 80.00000000 243 180 44 97.000000 1.000000 4.000000 1.000000 -60.708740 114.000000 148.000000 0.771540 -0.579049 -0.263491
-6700.00000000 9920.00000000 90.00000000 243 180 44 97.000000 1.000000 4.000000 1.000000 -60.708740 114.000000 148.000000 0.828041 -0.546654 0.124573
-6680.00000000 9930.00000000 90.00000000 243 180 44 97.000000 1.000000 4.000000 1.000000 -60.708740 114.000000 148.000000 0.920114 -0.375472 -0.111404
-6680.00000000 9930.00000000 70.00000000 243 180 44 97.000000 1.000000 4.000000 1.000000 -60.708740 114.000000 148.000000 0.990945 -0.131303 0.028056
-6680.00000000 9940.00000000 70.00000000 243 180 44 97.000000 1.000000 4.000000 1.000000 -60.708740 114.000000 148.000000 0.843942 -0.493683 -0.209853
-6700.00000000 9910.00000000 90.00000000 243 180 44 97.000000 1.000000 4.000000 1.000000 -60.708740 114.000000 148.000000 0.700469 -0.703443 0.120463
-6690.00000000 9920.00000000 70.00000000 243 180 44 97.000000 1.000000 4.000000 1.000000 -60.708740 114.000000 148.000000 0.882055 -0.428511 -0.195849
-6680.00000000 9920.00000000 80.00000000 243 180 44 97.000000 1.000000 4.000000 1.000000 -60.708740 114.000000 148.000000 0.843124 -0.389495 0.370724
-6710.00000000 9960.00000000 70.00000000 243 180 44 97.000000 1.000000 4.000000 1.000000 -60.708740 114.000000 148.000000 0.899076 -0.309566 -0.309566
-6710.00000000 9930.00000000 130.00000000 243 180 44 97.000000 1.000000 4.000000 1.000000 -60.708740 114.000000 148.000000 0.839489 -0.499443 0.214047
-6720.00000000 9930.00000000 140.00000000 243 180 44 97.000000 1.000000 4.000000 1.000000 -60.708740 114.000000 148.000000 0.853341 -0.486985 0.186156
-6710.00000000 9920.00000000 90.00000000 243 180 44 97.000000 1.000000 4.000000 1.000000 -60.708740 114.000000 148.000000 0.970365 -0.213809 -0.112598
-6670.00000000 9960.00000000 50.00000000 243 180 44 97.000000 1.000000 4.000000 1.000000 -60.708740 114.000000 148.000000 0.987333 0.078845 0.137685
-6690.00000000 9950.00000000 30.00000000 243 180 44 97.000000 1.000000 4.000000 1.000000 -60.708740 114.000000 148.000000 0.810494 -0.542893 0.219925
-6680.00000000 9950.00000000 60.00000000 243 180 44 97.000000 1.000000 4.000000 1.000000 -60.708740 114.000000 148.000000 0.826337 -0.468832 0.312032
-6690.00000000 9950.00000000 0.00000000 243 180 44 97.000000 1.000000 4.000000 1.000000 -60.708740 114.000000 148.000000 0.964565 0.066652 0.255289
-6690.00000000 9960.00000000 -10.00000000 243 180 44 97.000000 1.000000 4.000000 1.000000 -60.708740 114.000000 148.000000 0.956804 -0.228192 0.180151
-6690.00000000 9950.00000000 0.00000000 243 180 44 97.000000 1.000000 4.000000 1.000000 -60.708740 114.000000 148.000000 0.964565 0.066652 0.255289
-6690.00000000 9970.00000000 0.00000000 243 180 44 97.000000 1.000000 4.000000 1.000000 -60.708740 114.000000 148.000000 0.829280 -0.520006 -0.204667
-6690.00000000 9920.00000000 40.00000000 243 180 44 97.000000 1.000000 4.000000 1.000000 -60.708740 114.000000 148.000000 0.847102 -0.528916 0.051636
-6690.00000000 9920.00000000 50.00000000 243 180 44 97.000000 1.000000 4.000000 1.000000 -60.708740 114.000000 148.000000 0.917090 -0.397537 0.030176
-6700.00000000 9920.00000000 60.00000000 243 180 44 97.000000 1.000000 4.000000 1.000000 -60.708740 114.000000 148.000000 0.782314 -0.596989 0.177730
-6690.00000000 9940.00000000 50.00000000 243 180 44 97.000000 1.000000 4.000000 1.000000 -60.708740 114.000000 148.000000 0.769164 -0.631970 -0.094868
-6690.00000000 9920.00000000 30.00000000 243 180 44 97.000000 1.000000 4.000000 1.000000 -60.708740 114.000000 148.000000 0.875654 -0.450294 0.174544
-6700.00000000 9920.00000000 50.00000000 243 180 44 97.000000 1.000000 4.000000 1.000000 -60.708740 114.000000 148.000000 -0.657322 0.719776 -0.223271
-6690.00000000 9920.00000000 30.00000000 243 180 44 97.000000 1.000000 4.000000 1.000000 -60.708740 114.000000 148.000000 0.875654 -0.450294 0.174544
-6680.00000000 9930.00000000 60.00000000 243 180 44 97.000000 1.000000 4.000000 1.000000 -60.708740 114.000000 148.000000 0.875260 -0.471075 -0.109585
-6690.00000000 9910.00000000 40.00000000 243 180 44 97.000000 1.000000 4.000000 1.000000 -60.708740 114.000000 148.000000 0.998978 -0.038382 -0.023859
-6700.00000000 9920.00000000 50.00000000 243 180 44 97.000000 1.000000 4.000000 1.000000 -60.708740 114.000000 148.000000 -0.657322 0.719776 -0.223271
-6690.00000000 9940.00000000 20.00000000 243 180 44 97.000000 1.000000 4.000000 1.000000 -60.708740 114.000000 148.000000 0.961183 -0.239315 0.137312
-6670.00000000 9930.00000000 10.00000000 243 180 44 97.000000 1.000000 4.000000 1.000000 -60.708740 114.000000 148.000000 0.979395 -0.156851 0.127210
-6690.00000000 9920.00000000 20.00000000 243 180 44 97.000000 1.000000 4.000000 1.000000 -60.708740 114.000000 148.000000 0.919558 -0.197556 0.339682
-6720.00000000 9910.00000000 0.00000000 243 180 44 97.000000 1.000000 4.000000 1.000000 -60.708740 114.000000 148.000000 -0.700140 0.700140 -0.140028
-6720.00000000 9910.00000000 -10.00000000 243 180 44 97.000000 1.000000 4.000000 1.000000 -60.708740 114.000000 148.000000 -0.691332 0.714917 -0.104658
-6710.00000000 9930.00000000 10.00000000 243 180 44 97.000000 1.000000 4.000000 1.000000 -60.708740 114.000000 148.000000 -0.678906 0.734214 0.004148
-6690.00000000 9900.00000000 300.00000000 243 180 44 97.000000 1.000000 4.000000 1.000000 -60.708740 114.000000 148.000000 0.921131 -0.378491 0.090892
-6720.00000000 9870.00000000 310.00000000 243 180 44 97.000000 1.000000 4.000000 1.000000 -60.708740 114.000000 148.000000 -0.686521 0.713562 0.139708
-6730.00000000 9880.00000000 290.00000000 243 180 44 97.000000 1.000000 4.000000 1.000000 -60.708740 114.000000 148.000000 0.800978 -0.558071 0.216772
-6730.00000000 9900.00000000 300.00000000 243 180 44 97.000000 1.000000 4.000000 1.000000 -60.708740 114.000000 148.000000 -0.697927 0.561340 -0.444741
-6740.00000000 9890.00000000 310.00000000 243 180 44 97.000000 1.000000 4.000000 1.000000 -60.708740 114.000000 148.000000 0.782107 -0.572921 -0.245091
-6740.00000000 9890.00000000 300.00000000 243 180 44 97.000000 1.000000 4.000000 1.000000 -60.708740 114.000000 148.000000 0.834616 -0.547497 -0.060520
-6730.00000000 9890.00000000 290.00000000 243 180 44 97.000000 1.000000 4.000000 1.000000 -60.708740 114.000000 148.000000 -0.537791 0.783547 -0.311184
-6740.00000000 9880.00000000 280.00000000 243 180 44 97.000000 1.000000 4.000000 1.000000 -60.708740 114.000000 148.000000 -0.667081 0.722288 0.182489
-6730.00000000 9890.00000000 280.00000000 243 180 44 97.000000 1.000000 4.000000 1.000000 -60.708740 114.000000 148.000000 0.769349 -0.638573 0.018086
-6730.00000000 9890.00000000 270.00000000 243 180 44 97.000000 1.000000 4.000000 1.000000 -60.708740 114.000000 148.000000 0.936316 -0.339631 -0.089236
-6730.00000000 9900.00000000 240.00000000 243 180 44 97.000000 1.000000 4.000000 1.000000 -60.708740 114.000000 148.000000 0.841231 -0.374403 0.390068
-6720.00000000 9880.00000000 260.00000000 243 180 44 97.000000 1.000000 4.000000 1.000000 -60.708740 114.000000 148.000000 -0.704014 0.694969 0.146230
-6730.00000000 9880.00000000 240.00000000 243 180 44 97.000000 1.000000 4.000000 1.000000 -60.708740 114.000000 148.000000 0.936793 -0.347583 -0.040056
-6730.00000000 9880.00000000 260.00000000 243 180 44 97.000000 1.000000 4.000000 1.000000 -60.708740 114.000000 148.000000 0.909199 -0.285497 0.303066
-6730.00000000 9880.00000000 250.00000000 243 180 44 97.000000 1.000000 4.000000 1.000000 -60.708740 114.000000 148.000000 0.731093 -0.671533 -0.120608
-6730.00000000 9880.00000000 240.00000000 243 180 44 97.000000 1.000000 4.000000 1.000000 -60.708740 114.000000 148.000000 0.936793 -0.347583 -0.040056
-6740.00000000 9860.00000000 240.00000000 243 180 44 97.000000 1.000000 4.000000 1.000000 -60.708740 114.000000 148.000000 -0.543260 0.818672 -0.186131
-6690.00000000 9900.00000000 210.00000000 243 180 44 97.000000 1.000000 4.000000 1.000000 -60.708740 114.000000 148.000000 0.920700 -0.285834 0.265725
-6720.00000000 9900.00000000 200.00000000 243 180 44 97.000000 1.000000 4.000000 1.000000 -60.708740 114.000000 148.000000 0.739689 -0.647802 0.182242
-6720.00000000 9900.00000000 230.00000000 243 180 44 97.000000 1.000000 4.000000 1.000000 -60.708740 114.000000 148.000000 -0.627142 0.720170 -0.296729
-6740.00000000 9880.00000000 170.00000000 243 180 44 97.000000 1.000000 4.000000 1.000000 -60.708740 114.000000 148.000000 -0.741406 0.603693 0.293039
-6730.00000000 9900.00000000 170.00000000 243 180 44 97.000000 1.000000 4.000000 1.000000 -60.708740 114.000000 148.000000 0.958485 -0.283950 -0.026039
-6710.00000000 9900.00000000 150.00000000 243 180 44 97.000000 1.000000 4.000000 1.000000 -60.708740 114.000000 148.000000 0.926896 -0.237047 0.290986
-6740.00000000 9900.00000000 160.00000000 243 180 44 97.000000 1.000000 4.000000 1.000000 -60.708740 114.000000 148.000000 0.738330 -0.674369 0.009733
-6710.00000000 9900.00000000 190.00000000 243 180 44 97.000000 1.000000 4.000000 1.000000 -60.708740 114.000000 148.000000 0.720041 -0.650715 0.241064
-6710.00000000 9900.00000000 150.00000000 243 180 44 97.000000 1.000000 4.000000 1.000000 -60.708740 114.000000 148.000000 0.926896 -0.237047 0.290986
-6740.00000000 9850.00000000 170.00000000 243 180 44 97.000000 1.000000 4.000000 1.000000 -60.708740 114.000000 148.000000 0.876393 -0.481550 -0.006670
-6700.00000000 9880.00000000 140.00000000 243 180 44 97.000000 1.000000 4.000000 1.000000 -60.708740 114.000000 148.000000 0.917980 -0.279008 0.281899
-6690.00000000 9900.00000000 120.00000000 243 180 44 97.000000 1.000000 4.000000 1.000000 -60.708740 114.000000 148.000000 0.926507 -0.309779 0.213592
-6700.00000000 9890.00000000 140.00000000 243 180 44 97.000000 1.000000 4.000000 1.000000 -60.708740 114.000000 148.000000 0.940186 -0.139739 0.310682
-6700.00000000 9900.00000000 130.00000000 243 180 44 97.000000 1.000000 4.000000 1.000000 -60.708740 114.000000 148.000000 0.881706 -0.243178 0.404302
-6700.00000000 9900.00000000 130.00000000 243 180 44 97.000000 1.000000 4.000000 1.000000 -60.708740 114.000000 148.000000 0.881706 -0.243178 0.404302
-6690.00000000 9900.00000000 120.00000000 243 180 44 97.000000 1.000000 4.000000 1.000000 -60.708740 114.000000 148.000000 0.926507 -0.309779 0.213592
-6680.00000000 9890.00000000 100.00000000 243 180 44 97.000000 1.000000 4.000000 1.000000 -60.708740 114.000000 148.000000 0.870237 -0.474806 0.131329
-6700.00000000 9870.00000000 70.00000000 243 180 44 97.000000 1.000000 4.000000 1.000000 -60.708740 114.000000 148.000000 0.921535 -0.341152 -0.185440
-6720.00000000 9900.00000000 120.00000000 243 180 44 97.000000 1.000000 4.000000 1.000000 -60.708740 114.000000 148.000000 0.932453 -0.263795 0.246867
-6740.00000000 9900.00000000 140.00000000 243 180 44 97.000000 1.000000 4.000000 1.000000 -60.708740 114.000000 148.000000 0.871981 -0.489226 -0.017520
-6720.00000000 9890.00000000 110.00000000 243 180 44 97.000000 1.000000 4.000000 1.000000 -60.708740 114.000000 148.000000 -0.677477 0.664542 -0.315293
-6720.00000000 9890.00000000 110.00000000 243 180 44 97.000000 1.000000 4.000000 1.000000 -60.708740 114.000000 148.000000 -0.677477 0.664542 -0.315293
-6740.00000000 9870.00000000 110.00000000 243 180 44 97.000000 1.000000 4.000000 1.000000 -60.708740 114.000000 148.000000 0.870834 -0.463957 -0.162458
-6710.00000000 9890.00000000 90.00000000 243 180 44 97.000000 1.000000 4.000000 1.000000 -60.708740 114.000000 148.000000 0.846759 -0.529746 -0.048664
-6710.00000000 9900.00000000 100.00000000 243 180 44 97.000000 1.000000 4.000000 1.000000 -60.708740 114.000000 148.000000 0.848007 -0.512307 0.135740
-6710.00000000 9890.00000000 100.00000000 243 180 44 97.000000 1.000000 4.000000 1.000000 -60.708740 114.000000 148.000000 0.791606 -0.590325 0.157720
-6710.00000000 9900.00000000 90.00000000 243 180 44 97.000000 1.000000 4.000000 1.000000 -60.708740 114.000000 148.000000 0.827137 -0.538011 -0.162447
-6730.00000000 9870.00000000 90.00000000 243 180 44 97.000000 1.000000 4.000000 1.000000 -60.708740 114.000000 148.000000 0.675463 -0.715287 -0.179205
-6740.00000000 9860.00000000 120.00000000 243 180 44 97.000000 1.000000 4.000000 1.000000 -60.708740 114.000000 148.000000 -0.643272 0.765536 -0.012504
-6710.00000000 9860.00000000 100.00000000 243 180 44 97.000000 1.000000 4.000000 1.000000 -60.708740 114.000000 148.000000 0.822857 -0.511005 -0.248555
-6690.00000000 9900.00000000 50.00000000 243 180 44 97.000000 1.000000 4.000000 1.000000 -60.708740 114.000000 148.000000 0.979045 -0.186543 0.081689
-6690.00000000 9890.00000000 30.00000000 243 180 44 97.000000 1.000000 4.000000 1.000000 -60.708740 114.000000 148.000000 0.985178 -0.125997 -0.116397
-6700.00000000 9890.00000000 60.00000000 243 180 44 97.000000 1.000000 4.000000 1.000000 -60.708740 114.000000 148.000000 0.782412 -0.601508 0.161307
-6700.00000000 9900.00000000 0.00000000 243 180 44 97.000000 1.000000 4.000000 1.000000 -60.708740 114.000000 148.000000 0.766336 -0.605328 -0.215193
-6700.00000000 9870.00000000 20.00000000 243 180 44 97.000000 1.000000 4.000000 1.000000 -60.708740 114.000000 148.000000 0.671844 -0.715090 -0.193059
-6700.00000000 9890.00000000 10.00000000 243 180 44 97.000000 1.000000 4.000000 1.000000 -60.708740 114.000000 148.000000 0.938434 -0.232866 -0.255176
-6700.00000000 9900.00000000 10.00000000 243 180 44 97.000000 1.000000 4.000000 1.000000 -60.708740 114.000000 148.000000 0.832895 -0.510091 0.214695
-6710.00000000 9880.00000000 60.00000000 243 180 44 97.000000 1.000000 4.000000 1.000000 -60.708740 114.000000 148.000000 0.873968 -0.485835 0.012045
-6720.00000000 9900.00000000 30.00000000 243 180 44 97.000000 1.000000 4.000000 1.000000 -60.708740 114.000000 148.000000 0.891657 -0.416107 -0.178331
-6710.00000000 9890.00000000 60.00000000 243 180 44 97.000000 1.000000 4.000000 1.000000 -60.708740 114.000000 148.000000 0.742522 -0.663437 0.092266
-6720.00000000 9890.00000000 30.00000000 243 180 44 97.000000 1.000000 4.000000 1.000000 -60.708740 114.000000 148.000000 0.902781 -0.376522 -0.207887
-6710.00000000 9870.00000000 40.00000000 243 180 44 97.000000 1.000000 4.000000 1.000000 -60.708740 114.000000 148.000000 0.624101 -0.673764 0.395650
-6710.00000000 9900.00000000 40.00000000 243 180 44 97.000000 1.000000 4.000000 1.000000 -60.708740 114.000000 148.000000 0.778284 -0.424075 0.463071
-6740.00000000 9870.00000000 10.00000000 243 180 44 97.000000 1.000000 4.000000 1.000000 -60.708740 114.000000 148.000000 -0.728125 0.653605 0.206483
-6720.00000000 9900.00000000 0.00000000 243 180 44 97.000000 1.000000 4.000000 1.000000 -60.708740 114.000000 148.000000 0.680652 -0.627914 0.377408
-6740.00000000 9850.00000000 30.00000000 243 180 44 97.000000 1.000000 4.000000 1.000000 -60.708740 114.000000 148.000000 0.724783 -0.680499 0.107758
-6740.00000000 9850.00000000 40.00000000 243 180 44 97.000000 1.000000 4.000000 1.000000 -60.708740 114.000000 148.000000 0.852799 -0.433339 -0.291463
-6800.00000000 9820.00000000 570.00000000 243 180 44 97.000000 1.000000 4.000000 1.000000 -60.708740 114.000000 148.000000 -0.587113 0.807811 0.052345
-6810.00000000 9820.00000000 580.00000000 243 180 44 97.000000 1.000000 4.000000 1.000000 -60.708740 114.000000 148.000000 -0.476339 0.833205 -0.280838
-6810.00000000 9820.00000000 570.00000000 243 180 44 97.000000 1.000000 4.000000 1.000000 -60.708740 114.000000 148.000000 -0.281332 0.959478 0.015971
-6780.00000000 9850.00000000 560.00000000 243 180 44 97.000000 1.000000 4.000000 1.000000 -60.708740 114.000000 148.000000 0.780502 -0.615876 -0.107301
-6780.00000000 9850.00000000 560.00000000 243 180 44 97.000000 1.000000 4.000000 1.000000 -60.708740 114.000000 148.000000 0.780502 -0.615876 -0.107301
-6780.00000000 9850.00000000 560.00000000 243 180 44 97.000000 1.000000 4.000000 1.000000 -60.708740 114.000000 148.000000 0.780502 -0.615876 -0.107301
-6780.00000000 9850.00000000 520.00000000 243 180 44 97.000000 1.000000 4.000000 1.000000 -60.708740 114.000000 148.000000 0.712305 -0.700976 0.035403
-6780.00000000 9820.00000000 490.00000000 243 180 44 97.000000 1.000000 4.000000 1.000000 -60.708740 114.000000 148.000000 -0.617197 0.751574 0.232816
-6780.00000000 9840.00000000 500.00000000 243 180 44 97.000000 1.000000 4.000000 1.000000 -60.708740 114.000000 148.000000 -0.827993 0.419538 -0.372043
-6780.00000000 9850.00000000 520.00000000 243 180 44 97.000000 1.000000 4.000000 1.000000 -60.708740 114.000000 148.000000 0.712305 -0.700976 0.035403
-6780.00000000 9850.00000000 510.00000000 243 180 44 97.000000 1.000000 4.000000 1.000000 -60.708740 114.000000 148.000000 0.803562 -0.583206 0.118992
-6800.00000000 9820.00000000 550.00000000 243 180 44 97.000000 1.000000 4.000000 1.000000 -60.708740 114.000000 148.000000 -0.429638 0.901290 -0.055568
-6790.00000000 9850.00000000 550.00000000 243 180 44 97.000000 1.000000 4.000000 1.000000 -60.708740 114.000000 148.000000 0.789877 -0.600897 -0.122542
-6820.00000000 9820.00000000 540.00000000 243 180 44 97.000000 1.000000 4.000000 1.000000 -60.708740 114.000000 148.000000 -0.500056 0.837480 -0.220389
-6800.00000000 9830.00000000 530.00000000 243 180 44 97.000000 1.000000 4.000000 1.000000 -60.708740 114.000000 148.000000 -0.495237 0.831565 0.251475
-6820.00000000 9830.00000000 550.00000000 243 180 44 97.000000 1.000000 4.000000 1.000000 -60.708740 114.000000 148.000000 -0.572521 0.769176 -0.283881
-6800.00000000 9840.00000000 540.00000000 243 180 44 97.000000 1.000000 4.000000 1.000000 -60.708740 114.000000 148.000000 0.718786 -0.532865 0.446544
-6790.00000000 9860.00000000 540.00000000 243 180 44 97.000000 1.000000 4.000000 1.000000 -60.708740 114.000000 148.000000 0.718794 -0.506310 0.476429
-6790.00000000 9840.00000000 560.00000000 243 180 44 97.000000 1.000000 4.000000 1.000000 -60.708740 114.000000 148.000000 -0.483986 0.848860 0.212592
-6790.00000000 9840.00000000 510.00000000 243 180 44 97.000000 1.000000 4.000000 1.000000 -60.708740 114.000000 148.000000 0.846591 -0.490449 0.206743
-6800.00000000 9820.00000000 490.00000000 243 180 44 97.000000 1.000000 4.000000 1.000000 -60.708740 114.000000 148.000000 -0.497874 0.826689 -0.262121
-6820.00000000 9840.00000000 520.00000000 243 180 44 97.000000 1.000000 4.000000 1.000000 -60.708740 114.000000 148.000000 -0.602193 0.697884 -0.387713
-6800.00000000 9850.00000000 520.00000000 243 180 44 97.000000 1.000000 4.000000 1.000000 -60.708740 114.000000 148.000000 -0.336431 0.937484 -0.089094
-6800.00000000 9830.00000000 520.00000000 243 180 44 97.000000 1.000000 4.000000 1.000000 -60.708740 114.000000 148.000000 -0.474297 0.880069 0.022841
-6790.00000000 9850.00000000 500.00000000 243 180 44 97.000000 1.000000 4.000000 1.000000 -60.708740 114.000000 148.000000 -0.825060 0.554405 -0.109135
-6820.00000000 9790.00000000 490.00000000 243 180 44 97.000000 1.000000 4.000000 1.000000 -60.708740 114.000000 148.000000 -0.590543 0.787896 0.174582
-6820.00000000 9810.00000000 510.00000000 243 180 44 97.000000 1.000000 4.000000 1.000000 -60.708740 114.000000 148.000000 -0.444692 0.773732 -0.451208
-6810.00000000 9810.00000000 490.00000000 243 180 44 97.000000 1.000000 4.000000 1.000000 -60.708740 114.000000 148.000000 -0.499545 0.854061 0.145029
-6820.00000000 9800.00000000 500.00000000 243 180 44 97.000000 1.000000 4.000000 1.000000 -60.708740 114.000000 148.000000 -0.363837 0.926499 -0.096031
-6820.00000000 9810.00000000 500.00000000 243 180 44 97.000000 1.000000 4.000000 1.000000 -60.708740 114.000000 148.000000 -0.478632 0.877716 0.022920
-6820.00000000 9810.00000000 540.00000000 243 180 44 97.000000 1.000000 4.000000 1.000000 -60.708740 114.000000 148.000000 -0.439075 0.876671 -0.196623
-6840.00000000 9830.00000000 630.00000000 243 180 44 97.000000 1.000000 4.000000 1.000000 -60.708740 114.000000 148.000000 -0.610945 0.752294 -0.246577
-6840.00000000 9830.00000000 630.00000000 243 180 44 97.000000 1.000000 4.000000 1.000000 -60.708740 114.000000 148.000000 -0.610945 0.752294 -0.246577
-6870.00000000 9820.00000000 630.00000000 243 180 44 97.000000 1.000000 4.000000 1.000000 -60.708740 114.000000 148.000000 -0.672851 0.738287 -0.046943
-6870.00000000 9820.00000000 650.00000000 243 180 44 97.000000 1.000000 4.000000 1.000000 -60.708740 114.000000 148.000000 -0.258126 0.962569 -0.082651
-6850.00000000 9820.00000000 620.00000000 243 180 44 97.000000 1.000000 4.000000 1.000000 -60.708740 114.000000 148.000000 -0.404804 0.904110 -0.136815
-6850.00000000 9830.00000000 640.00000000 243 180 44 97.000000 1.000000 4.000000 1.000000 -60.708740 114.000000 148.000000 -0.613793 0.762217 -0.205628
-6850.00000000 9830.00000000 650.00000000 243 180 44 97.000000 1.000000 4.000000 1.000000 -60.708740 114.000000 148.000000 -0.668528 0.743581 -0.012509
-6870.00000000 9830.00000000 630.00000000 243 180 44 97.000000 1.000000 4.000000 1.000000 -60.708740 114.000000 148.000000 -0.253425 0.960415 -0.115666
-6840.00000000 9820.00000000 620.00000000 243 180 44 97.000000 1.000000 4.000000 1.000000 -60.708740 114.000000 148.000000 -0.379857 0.862751 -0.333720
-6830.00000000 9820.00000000 620.00000000 243 180 44 97.000000 1.000000 4.000000 1.000000 -60.708740 114.000000 148.000000 -0.609864 0.792408 0.012446
-6850.00000000 9840.00000000 600.00000000 243 180 44 97.000000 1.000000 4.000000 1.000000 -60.708740 114.000000 148.000000 0.717766 -0.665057 -0.206183
-6830.00000000 9830.00000000 600.00000000 243 180 44 97.000000 1.000000 4.000000 1.000000 -60.708740 114.000000 148.000000 -0.422619 0.897535 0.125796
-6840.00000000 9820.00000000 610.00000000 243 180 44 97.000000 1.000000 4.000000 1.000000 -60.708740 114.000000 148.000000 -0.423086 0.898178 -0.119476
-6830.00000000 9820.00000000 600.00000000 243 180 44 97.000000 1.000000 4.000000 1.000000 -60.708740 114.000000 148.000000 -0.694504 0.719456 -0.006931
-6890.00000000 9820.00000000 640.00000000 243 180 44 97.000000 1.000000 4.000000 1.000000 -60.708740 114.000000 148.000000 -0.086271 0.980569 -0.176187
-6880.00000000 9820.00000000 650.00000000 243 180 44 97.000000 1.000000 4.000000 1.000000 -60.708740 114.000000 148.000000 -0.179244 0.972496 0.148735
-6910.00000000 9820.00000000 580.00000000 243 180 44 97.000000 1.000000 4.000000 1.000000 -60.708740 114.000000 148.000000 -0.351350 0.913509 -0.205073
-6860.00000000 9820.00000000 540.00000000 243 180 44 97.000000 1.000000 4.000000 1.000000 -60.708740 114.000000 148.000000 -0.482629 0.861105 -0.159898
-6870.00000000 9820.00000000 540.00000000 243 180 44 97.000000 1.000000 4.000000 1.000000 -60.708740 114.000000 148.000000 -0.433112 0.899956 -0.049923
-6830.00000000 9820.00000000 550.00000000 243 180 44 97.000000 1.000000 4.000000 1.000000 -60.708740 114.000000 148.000000 -0.436949 0.899132 0.025234
-6830.00000000 9830.00000000 560.00000000 243 180 44 97.000000 1.000000 4.000000 1.000000 -60.708740 114.000000 148.000000 0.813028 -0.563323 0.147148
-6830.00000000 9820.00000000 540.00000000 243 180 44 97.000000 1.000000 4.000000 1.000000 -60.708740 114.000000 148.000000 -0.285113 0.952567 -0.106425
-6870.00000000 9820.00000000 550.00000000 243 180 44 97.000000 1.000000 4.000000 1.000000 -60.708740 114.000000 148.000000 -0.550931 0.828565 0.099775
-6830.00000000 9820.00000000 560.00000000 243 180 44 97.000000 1.000000 4.000000 1.000000 -60.708740 114.000000 148.000000 -0.444469 0.895573 0.019902
-6840.00000000 9830.00000000 520.00000000 243 180 44 97.000000 1.000000 4.000000 1.000000 -60.708740 114.000000 148.000000 -0.415800 0.906581 0.072254
-6840.00000000 9850.00000000 510.00000000 243 180 44 97.000000 1.000000 4.000000 1.000000 -60.708740 114.000000 148.000000 -0.464637 0.841287 0.276313
-6860.00000000 9840.00000000 510.00000000 243 180 44 97.000000 1.000000 4.000000 1.000000 -60.708740 114.000000 148.000000 -0.301828 0.862585 -0.406013
-6870.00000000 9820.00000000 510.00000000 243 180 44 97.000000 1.000000 4.000000 1.000000 -60.708740 114.000000 148.000000 -0.528066 0.773528 -0.350429
-6840.00000000 9830.00000000 520.00000000 243 180 44 97.000000 1.000000 4.000000 1.000000 -60.708740 114.000000 148.000000 -0.415800 0.906581 0.072254
-6870.00000000 9820.00000000 500.00000000 243 180 44 97.000000 1.000000 4.000000 1.000000 -60.708740 114.000000 148.000000 -0.518135 0.711395 -0.474819
-6910.00000000 9830.00000000 540.00000000 243 180 44 97.000000 1.000000 4.000000 1.000000 -60.708740 114.000000 148.000000 -0.628113 0.758907 0.171857
-6900.00000000 9820.00000000 560.00000000 243 180 44 97.000000 1.000000 4.000000 1.000000 -60.708740 114.000000 148.000000 -0.279961 0.959333 -0.036084
-6900.00000000 9820.00000000 520.00000000 243 180 44 97.000000 1.000000 4.000000 1.000000 -60.708740 114.000000 148.000000 -0.132093 0.919089 -0.371251
-6910.00000000 9820.00000000 520.00000000 243 180 44 97.000000 1.000000 4.000000 1.000000 -60.708740 114.000000 148.000000 -0.483171 0.772748 -0.411590
-6870.00000000 9810.00000000 640.00000000 243 180 44 97.000000 1.000000 4.000000 1.000000 -60.708740 114.000000 148.000000 0.611368 -0.648218 0.453920
-6850.00000000 9810.00000000 650.00000000 243 180 44 97.000000 1.000000 4.000000 1.000000 -60.708740 114.000000 148.000000 -0.371138 0.852531 -0.368032
-6860.00000000 9790.00000000 650.00000000 243 180 44 97.000000 1.000000 4.000000 1.000000 -60.708740 114.000000 148.000000 -0.510518 0.820864 -0.256035
-6870.00000000 9810.00000000 640.00000000 243 180 44 97.000000 1.000000 4.000000 1.000000 -60.708740 114.000000 148.000000 0.611368 -0.648218 0.453920
-6830.00000000 9810.00000000 640.00000000 243 180 44 97.000000 1.000000 4.000000 1.000000 -60.708740 114.000000 148.000000 -0.518047 0.800042 -0.302590
-6830.00000000 9810.00000000 620.00000000 243 180 44 97.000000 1.000000 4.000000 1.000000 -60.708740 114.000000 148.000000 -0.648872 0.752337 0.113811
-6830.00000000 9810.00000000 640.00000000 243 180 44 97.000000 1.000000 4.000000 1.000000 -60.708740 114.000000 148.000000 -0.518047 0.800042 -0.302590
-6840.00000000 9800.00000000 580.00000000 243 180 44 97.000000 1.000000 4.000000 1.000000 -60.708740 114.000000 148.000000 -0.232061 0.903432 -0.360497
-6830.00000000 9810.00000000 610.00000000 243 180 44 97.000000 1.000000 4.000000 1.000000 -60.708740 114.000000 148.000000 -0.246926 0.966397 -0.071446
-6840.00000000 9810.00000000 600.00000000 243 180 44 97.000000 1.000000 4.000000 1.000000 -60.708740 114.000000 148.000000 -0.363906 0.892683 -0.265874
-6870.00000000 9810.00000000 570.00000000 243 180 44 97.000000 1.000000 4.000000 1.000000 -60.708740 114.000000 148.000000 -0.581206 0.803041 -0.131622
-6900.00000000 9810.00000000 640.00000000 243 180 44 97.000000 1.000000 4.000000 1.000000 -60.708740 114.000000 148.000000 -0.564297 0.824956 -0.031889
-6910.00000000 9780.00000000 590.00000000 243 180 44 97.000000 1.000000 4.000000 1.000000 -60.708740 114.000000 148.000000 -0.032181 0.993178 0.112079
-6890.00000000 9800.00000000 570.00000000 243 180 44 97.000000 1.000000 4.000000 1.000000 -60.708740 114.000000 148.000000 -0.254186 0.966879 -0.023108
-6870.00000000 9810.00000000 540.00000000 243 180 44 97.000000 1.000000 4.000000 1.000000 -60.708740 114.000000 148.000000 -0.515207 0.842932 -0.155005
-6870.00000000 9790.00000000 540.00000000 243 180 44 97.000000 1.000000 4.000000 1.000000 -60.708740 114.000000 148.000000 -0.416137 0.801746 -0.428991
-6870.00000000 9810.00000000 560.00000000 243 180 44 97.000000 1.000000 4.000000 1.000000 -60.708740 114.000000 148.000000 -0.502777 0.851643 0.148048
-6830.00000000 9800.00000000 500.00000000 243 180 44 97.000000 1.000000 4.000000 1.000000 -60.708740 114.000000 148.000000 -0.340783 0.924182 0.172495
-6840.00000000 9790.00000000 510.00000000 243 180 44 97.000000 1.000000 4.000000 1.000000 -60.708740 114.000000 148.000000 -0.324698 0.910028 -0.257720
-6840.00000000 9790.00000000 490.00000000 243 180 44 97.000000 1.000000 4.000000 1.000000 -60.708740 114.000000 148.000000 -0.306941 0.934712 0.179165
-6910.00000000 9780.00000000 540.00000000 243 180 44 97.000000 1.000000 4.000000 1.000000 -60.708740 114.000000 148.000000 -0.652470 0.757752 0.009697
-6900.00000000 9790.00000000 560.00000000 243 180 44 97.000000 1.000000 4.000000 1.000000 -60.708740 114.000000 148.000000 -0.183520 0.914753 -0.359926
-6880.00000000 9810.00000000 550.00000000 243 180 44 97.000000 1.000000 4.000000 1.000000 -60.708740 114.000000 148.000000 -0.497046 0.832514 0.244676
-6890.00000000 9790.00000000 550.00000000 243 180 44 97.000000 1.000000 4.000000 1.000000 -60.708740 114.000000 148.000000 -0.488806 0.872392 0.001332
-6890.00000000 9800.00000000 560.00000000 243 180 44 97.000000 1.000000 4.000000 1.000000 -60.708740 114.000000 148.000000 -0.492878 0.869057 -0.042560
-6890.00000000 9800.00000000 530.00000000 243 180 44 97.000000 1.000000 4.000000 1.000000 -60.708740 114.000000 148.000000 -0.571636 0.771154 -0.280276
-6890.00000000 9810.00000000 490.00000000 243 180 44 97.000000 1.000000 4.000000 1.000000 -60.708740 114.000000 148.000000 -0.299069 0.938552 -0.172275
-6910.00000000 9810.00000000 510.00000000 243 180 44 97.000000 1.000000 4.000000 1.000000 -60.708740 114.000000 148.000000 -0.341876 0.858558 -0.382097
-6900.00000000 9780.00000000 510.00000000 243 180 44 97.000000 1.000000 4.000000 1.000000 -60.708740 114.000000 148.000000 -0.276945 0.955656 -0.100116
-6770.00000000 9880.00000000 410.00000000 243 180 44 97.000000 1.000000 4.000000 1.000000 -60.708740 114.000000 148.000000 0.696126 -0.699173 0.162988
-6770.00000000 9870.00000000 410.00000000 243 180 44 97.000000 1.000000 4.000000 1.000000 -60.708740 114.000000 148.000000 0.816607 -0.576995 -0.015148
-6750.00000000 9890.00000000 420.00000000 243 180 44 97.000000 1.000000 4.000000 1.000000 -60.708740 114.000000 148.000000 0.690339 -0.693442 -0.206326
-6760.00000000 9860.00000000 470.00000000 243 180 44 97.000000 1.000000 4.000000 1.000000 -60.708740 114.000000 148.000000 0.786100 -0.616743 0.040928
-6760.00000000 9850.00000000 450.00000000 243 180 44 97.000000 1.000000 4.000000 1.000000 -60.708740 114.000000 148.000000 0.742124 -0.670261 0.001382
-6780.00000000 9820.00000000 480.00000000 243 180 44 97.000000 1.000000 4.000000 1.000000 -60.708740 114.000000 148.000000 -0.526307 0.841216 0.123923
-6770.00000000 9830.00000000 470.00000000 243 180 44 97.000000 1.000000 4.000000 1.000000 -60.708740 114.000000 148.000000 -0.524911 0.848583 -0.066142
-6760.00000000 9860.00000000 450.00000000 243 180 44 97.000000 1.000000 4.000000 1.000000 -60.708740 114.000000 148.000000 0.824831 -0.536366 0.178789
-6780.00000000 9830.00000000 480.00000000 243 180 44 97.000000 1.000000 4.000000 1.000000 -60.708740 114.000000 148.000000 0.657321 -0.708007 0.258177
-6770.00000000 9850.00000000 470.00000000 243 180 44 97.000000 1.000000 4.000000 1.000000 -60.708740 114.000000 148.000000 0.885355 -0.462458 0.047746
-6760.00000000 9860.00000000 470.00000000 243 180 44 97.000000 1.000000 4.000000 1.000000 -60.708740 114.000000 148.000000 0.786100 -0.616743 0.040928
-6780.00000000 9860.00000000 410.00000000 243 180 44 97.000000 1.000000 4.000000 1.000000 -60.708740 114.000000 148.000000 0.718479 -0.635270 0.283231
-6770.00000000 9850.00000000 430.00000000 243 180 44 97.000000 1.000000 4.000000 1.000000 -60.708740 114.000000 148.000000 -0.439107 0.852021 -0.285034
-6760.00000000 9850.00000000 440.00000000 243 180 44 97.000000 1.000000 4.000000 1.000000 -60.708740 114.000000 148.000000 0.704983 -0.637227 -0.311354
-6780.00000000 9860.00000000 420.00000000 243 180 44 97.000000 1.000000 4.000000 1.000000 -60.708740 114.000000 148.000000 0.778473 -0.626986 0.029456
-6780.00000000 9860.00000000 410.00000000 243 180 44 97.000000 1.000000 4.000000 1.000000 -60.708740 114.000000 148.000000 0.718479 -0.635270 0.283231
-6800.00000000 9850.00000000 460.00000000 243 180 44 97.000000 1.000000 4.000000 1.000000 -60.708740 114.000000 148.000000 0.774465 -0.619870 -0.126352
-6810.00000000 9840.00000000 450.00000000 243 180 44 97.000000 1.000000 4.000000 1.000000 -60.708740 114.000000 148.000000 0.688511 -0.649631 0.322385
-6820.00000000 9830.00000000 470.00000000 243 180 44 97.000000 1.000000 4.000000 1.000000 -60.708740 114.000000 148.000000 0.665343 -0.662073 0.344932
-6820.00000000 9850.00000000 460.00000000 243 180 44 97.000000 1.000000 4.000000 1.000000 -60.708740 114.000000 148.000000 -0.640219 0.744619 0.188842
-6820.00000000 9840.00000000 410.00000000 243 180 44 97.000000 1.000000 4.000000 1.000000 -60.708740 114.000000 148.000000 -0.489716 0.844495 -0.216809
-6790.00000000 9840.00000000 440.00000000 243 180 44 97.000000 1.000000 4.000000 1.000000 -60.708740 114.000000 148.000000 0.892536 -0.438562 -0.105087
-6820.00000000 9840.00000000 420.00000000 243 180 44 97.000000 1.000000 4.000000 1.000000 -60.708740 114.000000 148.000000 -0.603913 0.634192 -0.482794
-6810.00000000 9830.00000000 440.00000000 243 180 44 97.000000 1.000000 4.000000 1.000000 -60.708740 114.000000 148.000000 -0.589132 0.789044 -0.174165
-6790.00000000 9840.00000000 440.00000000 243 180 44 97.000000 1.000000 4.000000 1.000000 -60.708740 114.000000 148.000000 0.892536 -0.438562 -0.105087
-6810.00000000 9840.00000000 410.00000000 243 180 44 97.000000 1.000000 4.000000 1.000000 -60.708740 114.000000 148.000000 -0.597553 0.771387 -0.218844
-6790.00000000 9850.00000000 420.00000000 243 180 44 97.000000 1.000000 4.000000 1.000000 -60.708740 114.000000 148.000000 -0.436071 0.895676 0.087214
-6790.00000000 9850.00000000 410.00000000 243 180 44 97.000000 1.000000 4.000000 1.000000 -60.708740 114.000000 148.000000 -0.525290 0.779100 -0.342161
-6750.00000000 9870.00000000 360.00000000 243 180 44 97.000000 1.000000 4.000000 1.000000 -60.708740 114.000000 148.000000 -0.568735 0.816011 0.103274
-6750.00000000 9900.00000000 400.00000000 243 180 44 97.000000 1.000000 4.000000 1.000000 -60.708740 114.000000 148.000000 -0.616206 0.710507 -0.339808
-6750.00000000 9870.00000000 320.00000000 243 180 44 97.000000 1.000000 4.000000 1.000000 -60.708740 114.000000 148.000000 0.886352 -0.460247 0.050532
-6750.00000000 9890.00000000 330.00000000 243 180 44 97.000000 1.000000 4.000000 1.000000 -60.708740 114.000000 148.000000 -0.680044 0.683229 0.265966
-6750.00000000 9880.00000000 350.00000000 243 180 44 97.000000 1.000000 4.000000 1.000000 -60.708740 114.000000 148.000000 0.738924 -0.646751 0.188956
-6750.00000000 9880.00000000 350.00000000 243 180 44 97.000000 1.000000 4.000000 1.000000 -60.708740 114.000000 148.000000 0.738924 -0.646751 0.188956
-6760.00000000 9850.00000000 380.00000000 243 180 44 97.000000 1.000000 4.000000 1.000000 -60.708740 114.000000 148.000000 -0.621180 0.723907 -0.300157
-6770.00000000 9860.00000000 360.00000000 243 180 44 97.000000 1.000000 4.000000 1.000000 -60.708740 114.000000 148.000000 -0.636723 0.757143 -0.146010
-6760.00000000 9850.00000000 380.00000000 243 180 44 97.000000 1.000000 4.000000 1.000000 -60.708740 114.000000 148.000000 -0.621180 0.723907 -0.300157
-6770.00000000 9860.00000000 400.00000000 243 180 44 97.000000 1.000000 4.000000 1.000000 -60.708740 114.000000 148.000000 0.844238 -0.422899 0.329269
-6770.00000000 9850.00000000 360.00000000 243 180 44 97.000000 1.000000 4.000000 1.000000 -60.708740 114.000000 148.000000 0.908185 -0.395659 -0.136580
-6770.00000000 9860.00000000 360.00000000 243 180 44 97.000000 1.000000 4.000000 1.000000 -60.708740 114.000000 148.000000 -0.636723 0.757143 -0.146010
-6750.00000000 9860.00000000 320.00000000 243 180 44 97.000000 1.000000 4.000000 1.000000 -60.708740 114.000000 148.000000 -0.607020 0.783011 0.135722
-6750.00000000 9860.00000000 340.00000000 243 180 44 97.000000 1.000000 4.000000 1.000000 -60.708740 114.000000 148.000000 -0.534780 0.842385 0.066318
-6770.00000000 9860.00000000 350.00000000 243 180 44 97.000000 1.000000 4.000000 1.000000 -60.708740 114.000000 148.000000 -0.599283 0.783446 0.164539
-6780.00000000 9850.00000000 340.00000000 243 180 44 97.000000 1.000000 4.000000 1.000000 -60.708740 114.000000 148.000000 -0.705702 0.708475 -0.006932
-6770.00000000 9860.00000000 350.00000000 243 180 44 97.000000 1.000000 4.000000 1.000000 -60.708740 114.000000 148.000000 -0.599283 0.783446 0.164539
-6750.00000000 9860.00000000 350.00000000 243 180 44 97.000000 1.000000 4.000000 1.000000 -60.708740 114.000000 148.000000 -0.580903 0.684101 -0.441087
-6750.00000000 9860.00000000 320.00000000 243 180 44 97.000000 1.000000 4.000000 1.000000 -60.708740 114.000000 148.000000 -0.607020 0.783011 0.135722
-6750.00000000 9860.00000000 340.00000000 243 180 44 97.000000 1.000000 4.000000 1.000000 -60.708740 114.000000 148.000000 -0.534780 0.842385 0.066318
-6790.00000000 9820.00000000 400.00000000 243 180 44 97.000000 1.000000 4.000000 1.000000 -60.708740 114.000000 148.000000 0.755611 -0.652378 0.058786
-6790.00000000 9830.00000000 360.00000000 243 180 44 97.000000 1.000000 4.000000 1.000000 -60.708740 114.000000 148.000000 -0.488578 0.869360 -0.074197
-6790.00000000 9850.00000000 400.00000000 243 180 44 97.000000 1.000000 4.000000 1.000000 -60.708740 114.000000 148.000000 -0.605973 0.778245 0.164716
-6820.00000000 9840.00000000 380.00000000 243 180 44 97.000000 1.000000 4.000000 1.000000 -60.708740 114.000000 148.000000 -0.328916 0.942545 0.058503
-6790.00000000 9850.00000000 390.00000000 243 180 44 97.000000 1.000000 4.000000 1.000000 -60.708740 114.000000 148.000000 -0.663978 0.742779 -0.086098
-6790.00000000 9820.00000000 400.00000000 243 180 44 97.000000 1.000000 4.000000 1.000000 -60.708740 114.000000 148.000000 0.755611 -0.652378 0.058786
-6820.00000000 9850.00000000 330.00000000 243 180 44 97.000000 1.000000 4.000000 1.000000 -60.708740 114.000000 148.000000 0.796020 -0.586934 0.147854
-6800.00000000 9830.00000000 320.00000000 243 180 44 97.000000 1.000000 4.000000 1.000000 -60.708740 114.000000 148.000000 -0.492305 0.852238 -0.176992
-6790.00000000 9810.00000000 420.00000000 243 180 44 97.000000 1.000000 4.000000 1.000000 -60.708740 114.000000 148.000000 -0.376443 0.926332 0.014133
-6820.00000000 9800.00000000 370.00000000 243 180 44 97.000000 1.000000 4.000000 1.000000 -60.708740 114.000000 148.000000 -0.675021 0.728430 0.117202
-6860.00000000 9830.00000000 450.00000000 243 180 44 97.000000 1.000000 4.000000 1.000000 -60.708740 114.000000 148.000000 -0.678860 0.732941 0.044119
-6850.00000000 9830.00000000 450.00000000 243 180 44 97.000000 1.000000 4.000000 1.000000 -60.708740 114.000000 148.000000 -0.347839 0.898461 -0.267910
-6850.00000000 9830.00000000 480.00000000 243 180 44 97.000000 1.000000 4.000000 1.000000 -60.708740 114.000000 148.000000 -0.459207 0.852813 -0.248674
-6830.00000000 9820.00000000 470.00000000 243 180 44 97.000000 1.000000 4.000000 1.000000 -60.708740 114.000000 148.000000 -0.608761 0.703931 -0.365913
-6870.00000000 9820.00000000 450.00000000 243 180 44 97.000000 1.000000 4.000000 1.000000 -60.708740 114.000000 148.000000 -0.410250 0.905331 0.109864
-6830.00000000 9820.00000000 470.00000000 243 180 44 97.000000 1.000000 4.000000 1.000000 -60.708740 114.000000 148.000000 -0.608761 0.703931 -0.365913
-6850.00000000 9830.00000000 450.00000000 243 180 44 97.000000 1.000000 4.000000 1.000000 -60.708740 114.000000 148.000000 -0.347839 0.898461 -0.267910
-6860.00000000 9820.00000000 470.00000000 243 180 44 97.000000 1.000000 4.000000 1.000000 -60.708740 114.000000 148.000000 -0.612494 0.790269 0.018055
-6860.00000000 9830.00000000 430.00000000 243 180 44 97.000000 1.000000 4.000000 1.000000 -60.708740 114.000000 148.000000 -0.377862 0.924105 0.057011
-6860.00000000 9820.00000000 440.00000000 243 180 44 97.000000 1.000000 4.000000 1.000000 -60.708740 114.000000 148.000000 -0.527795 0.821525 0.215708
-6860.00000000 9820.00000000 440.00000000 243 180 44 97.000000 1.000000 4.000000 1.000000 -60.708740 114.000000 148.000000 -0.527795 0.821525 0.215708
-6860.00000000 9830.00000000 420.00000000 243 180 44 97.000000 1.000000 4.000000 1.000000 -60.708740 114.000000 148.000000 -0.392106 0.918458 0.051838
-6870.00000000 9820.00000000 420.00000000 243 180 44 97.000000 1.000000 4.000000 1.000000 -60.708740 114.000000 148.000000 -0.611399 0.776641 -0.151723
-6880.00000000 9820.00000000 440.00000000 243 180 44 97.000000 1.000000 4.000000 1.000000 -60.708740 114.000000 148.000000 -0.283349 0.943129 -0.173842
-6870.00000000 9820.00000000 400.00000000 243 180 44 97.000000 1.000000 4.000000 1.000000 -60.708740 114.000000 148.000000 -0.544228 0.838848 0.012276
-6830.00000000 9850.00000000 370.00000000 243 180 44 97.000000 1.000000 4.000000 1.000000 -60.708740 114.000000 148.000000 0.819551 -0.540813 -0.189360
-6830.00000000 9840.00000000 390.00000000 243 180 44 97.000000 1.000000 4.000000 1.000000 -60.708740 114.000000 148.000000 -0.524812 0.848422 0.068943
-6870.00000000 9820.00000000 400.00000000 243 180 44 97.000000 1.000000 4.000000 1.000000 -60.708740 114.000000 148.000000 -0.544228 0.838848 0.012276
-6850.00000000 9830.00000000 380.00000000 243 180 44 97.000000 1.000000 4.000000 1.000000 -60.708740 114.000000 148.000000 -0.282806 0.860648 -0.423445
-6860.00000000 9830.00000000 390.00000000 243 180 44 97.000000 1.000000 4.000000 1.000000 -60.708740 114.000000 148.000000 -0.261573 0.935787 -0.236395
-6840.00000000 9830.00000000 340.00000000 243 180 44 97.000000 1.000000 4.000000 1.000000 -60.708740 114.000000 148.000000 -0.328996 0.921474 -0.206513
-6860.00000000 9820.00000000 320.00000000 243 180 44 97.000000 1.000000 4.000000 1.000000 -60.708740 114.000000 148.000000 -0.358066 0.927161 -0.110279
-6850.00000000 9830.00000000 320.00000000 243 180 44 97.000000 1.000000 4.000000 1.000000 -60.708740 114.000000 148.000000 -0.528975 0.832950 0.162418
-6900.00000000 9820.00000000 370.00000000 243 180 44 97.000000 1.000000 4.000000 1.000000 -60.708740 114.000000 148.000000 -0.274655 0.851585 -0.446507
-6840.00000000 9790.00000000 470.00000000 243 180 44 97.000000 1.000000 4.000000 1.000000 -60.708740 114.000000 148.000000 0.796799 -0.602869 -0.040753
-6830.00000000 9810.00000000 460.00000000 243 180 44 97.000000 1.000000 4.000000 1.000000 -60.708740 114.000000 148.000000 -0.518070 0.844966 0.132801
-6830.00000000 9810.00000000 450.00000000 243 180 44 97.000000 1.000000 4.000000 1.000000 -60.708740 114.000000 148.000000 -0.589826 0.798693 -0.119142
-6860.00000000 9810.00000000 460.00000000 243 180 44 97.000000 1.000000 4.000000 1.000000 -60.708740 114.000000 148.000000 -0.607917 0.767977 -0.201613
-6860.00000000 9810.00000000 460.00000000 243 180 44 97.000000 1.000000 4.000000 1.000000 -60.708740 114.000000 148.000000 -0.607917 0.767977 -0.201613
-6830.00000000 9800.00000000 470.00000000 243 180 44 97.000000 1.000000 4.000000 1.000000 -60.708740 114.000000 148.000000 0.778830 -0.624493 0.058591
-6830.00000000 9810.00000000 480.00000000 243 180 44 97.000000 1.000000 4.000000 1.000000 -60.708740 114.000000 148.000000 -0.365946 0.928735 0.059450
-6840.00000000 9810.00000000 450.00000000 243 180 44 97.000000 1.000000 4.000000 1.000000 -60.708740 114.000000 148.000000 0.851742 -0.512769 0.107724
-6830.00000000 9810.00000000 430.00000000 243 180 44 97.000000 1.000000 4.000000 1.000000 -60.708740 114.000000 148.000000 -0.628757 0.766157 0.132920
-6830.00000000 9780.00000000 440.00000000 243 180 44 97.000000 1.000000 4.000000 1.000000 -60.708740 114.000000 148.000000 0.733521 -0.675650 0.073786
-6850.00000000 9800.00000000 410.00000000 243 180 44 97.000000 1.000000 4.000000 1.000000 -60.708740 114.000000 148.000000 0.726271 -0.687088 0.020990
-6890.00000000 9800.00000000 470.00000000 243 180 44 97.000000 1.000000 4.000000 1.000000 -60.708740 114.000000 148.000000 -0.517304 0.850774 -0.092630
-6890.00000000 9810.00000000 470.00000000 243 180 44 97.000000 1.000000 4.000000 1.000000 -60.708740 114.000000 148.000000 0.778691 -0.624946 0.055519
-6880.00000000 9810.00000000 450.00000000 243 180 44 97.000000 1.000000 4.000000 1.000000 -60.708740 114.000000 148.000000 -0.158233 0.985730 0.057433
-6900.00000000 9810.00000000 470.00000000 243 180 44 97.000000 1.000000 4.000000 1.000000 -60.708740 114.000000 148.000000 -0.191625 0.981352 -0.015098
-6890.00000000 9800.00000000 470.00000000 243 180 44 97.000000 1.000000 4.000000 1.000000 -60.708740 114.000000 148.000000 -0.517304 0.850774 -0.092630
-6890.00000000 9800.00000000 450.00000000 243 180 44 97.000000 1.000000 4.000000 1.000000 -60.708740 114.000000 148.000000 -0.475164 0.852278 0.218726
-6890.00000000 9800.00000000 460.00000000 243 180 44 97.000000 1.000000 4.000000 1.000000 -60.708740 114.000000 148.000000 -0.668315 0.743657 -0.018138
