//X Y Z R G B PointSourceId ScanDirectionFlag NumberOfReturns ReturnNumber GpsTime Intensity Classification Nx Ny Nz
-12920.00000000 16010.00000000 -140.00000000 57 134 160 97.000000 1.000000 4.000000 1.000000 195.291260 114.000000 54.000000 -0.091445 0.994883 -0.042968
-12920.00000000 15980.00000000 -140.00000000 57 134 160 97.000000 1.000000 4.000000 1.000000 195.291260 114.000000 54.000000 -0.068143 0.874736 -0.479784
-12910.00000000 15980.00000000 -180.00000000 57 134 160 97.000000 1.000000 4.000000 1.000000 195.291260 114.000000 54.000000 -0.182863 0.981247 -0.060954
-12910.00000000 15980.00000000 -180.00000000 57 134 160 97.000000 1.000000 4.000000 1.000000 195.291260 114.000000 54.000000 -0.182863 0.981247 -0.060954
-12910.00000000 15970.00000000 -160.00000000 57 134 160 97.000000 1.000000 4.000000 1.000000 195.291260 114.000000 54.000000 -0.322281 0.872144 -0.368103
-12970.00000000 16010.00000000 -110.00000000 57 134 160 97.000000 1.000000 4.000000 1.000000 195.291260 114.000000 54.000000 0.049255 0.917201 -0.395368
-12960.00000000 16020.00000000 -120.00000000 57 134 160 97.000000 1.000000 4.000000 1.000000 195.291260 114.000000 54.000000 0.145573 0.952233 -0.268442
-12970.00000000 16020.00000000 -110.00000000 57 134 160 97.000000 1.000000 4.000000 1.000000 195.291260 114.000000 54.000000 0.227037 0.798491 -0.557554
-12970.00000000 16010.00000000 -170.00000000 57 134 160 97.000000 1.000000 4.000000 1.000000 195.291260 114.000000 54.000000 0.226482 0.955511 -0.188958
-12970.00000000 16010.00000000 -170.00000000 57 134 160 97.000000 1.000000 4.000000 1.000000 195.291260 114.000000 54.000000 0.226482 0.955511 -0.188958
-12970.00000000 16030.00000000 -160.00000000 57 134 160 97.000000 1.000000 4.000000 1.000000 195.291260 114.000000 54.000000 0.564394 0.713354 -0.415434
-12870.00000000 16130.00000000 -250.00000000 57 134 160 97.000000 1.000000 4.000000 1.000000 195.291260 114.000000 54.000000 0.687163 0.587333 -0.427605
-12840.00000000 16130.00000000 -280.00000000 57 134 160 97.000000 1.000000 4.000000 1.000000 195.291260 114.000000 54.000000 0.875194 0.460094 -0.149494
-12840.00000000 16130.00000000 -300.00000000 57 134 160 97.000000 1.000000 4.000000 1.000000 195.291260 114.000000 54.000000 0.862470 0.501826 -0.065699
-12840.00000000 16130.00000000 -300.00000000 57 134 160 97.000000 1.000000 4.000000 1.000000 195.291260 114.000000 54.000000 0.862470 0.501826 -0.065699
-12850.00000000 16110.00000000 -330.00000000 57 134 160 97.000000 1.000000 4.000000 1.000000 195.291260 114.000000 54.000000 0.376176 0.925260 0.048837
-12810.00000000 16120.00000000 -320.00000000 57 134 160 97.000000 1.000000 4.000000 1.000000 195.291260 114.000000 54.000000 0.861420 0.502845 0.071435
-12810.00000000 16130.00000000 -330.00000000 57 134 160 97.000000 1.000000 4.000000 1.000000 195.291260 114.000000 54.000000 0.966895 0.253031 -0.033004
-12870.00000000 16090.00000000 -340.00000000 57 134 160 97.000000 1.000000 4.000000 1.000000 195.291260 114.000000 54.000000 0.479252 0.867287 -0.134654
-12840.00000000 16030.00000000 -190.00000000 57 134 160 97.000000 1.000000 4.000000 1.000000 195.291260 114.000000 54.000000 0.842245 -0.537986 -0.034575
-12830.00000000 15980.00000000 -190.00000000 57 134 160 97.000000 1.000000 4.000000 1.000000 195.291260 114.000000 54.000000 0.828847 -0.527995 0.185024
-12810.00000000 15980.00000000 -220.00000000 57 134 160 97.000000 1.000000 4.000000 1.000000 195.291260 114.000000 54.000000 0.853721 -0.461101 0.241964
-12810.00000000 15980.00000000 -220.00000000 57 134 160 97.000000 1.000000 4.000000 1.000000 195.291260 114.000000 54.000000 0.853721 -0.461101 0.241964
-12810.00000000 15970.00000000 -210.00000000 57 134 160 97.000000 1.000000 4.000000 1.000000 195.291260 114.000000 54.000000 0.912341 -0.396130 0.103518
-12810.00000000 15970.00000000 -220.00000000 57 134 160 97.000000 1.000000 4.000000 1.000000 195.291260 114.000000 54.000000 0.807109 -0.485539 0.335897
-12810.00000000 15980.00000000 -220.00000000 57 134 160 97.000000 1.000000 4.000000 1.000000 195.291260 114.000000 54.000000 0.853721 -0.461101 0.241964
-12810.00000000 16000.00000000 -240.00000000 57 134 160 97.000000 1.000000 4.000000 1.000000 195.291260 114.000000 54.000000 0.797122 -0.598202 -0.082163
-12930.00000000 16130.00000000 -220.00000000 57 134 160 97.000000 1.000000 4.000000 1.000000 195.291260 114.000000 54.000000 -0.207349 0.975400 -0.074842
-12930.00000000 16130.00000000 -240.00000000 57 134 160 97.000000 1.000000 4.000000 1.000000 195.291260 114.000000 54.000000 0.044781 0.988632 -0.143530
-12960.00000000 16120.00000000 -220.00000000 57 134 160 97.000000 1.000000 4.000000 1.000000 195.291260 114.000000 54.000000 -0.213580 0.915955 -0.339720
-12960.00000000 16120.00000000 -240.00000000 57 134 160 97.000000 1.000000 4.000000 1.000000 195.291260 114.000000 54.000000 -0.358407 0.902600 -0.238450
-12960.00000000 16100.00000000 -260.00000000 57 134 160 97.000000 1.000000 4.000000 1.000000 195.291260 114.000000 54.000000 -0.375407 0.787871 -0.488190
-12940.00000000 16090.00000000 -270.00000000 57 134 160 97.000000 1.000000 4.000000 1.000000 195.291260 114.000000 54.000000 0.698448 -0.660089 0.276502
-12920.00000000 16120.00000000 -310.00000000 57 134 160 97.000000 1.000000 4.000000 1.000000 195.291260 114.000000 54.000000 -0.202491 0.820622 -0.534394
-12910.00000000 16110.00000000 -320.00000000 57 134 160 97.000000 1.000000 4.000000 1.000000 195.291260 114.000000 54.000000 -0.191914 0.954203 -0.229492
-12930.00000000 16110.00000000 -320.00000000 57 134 160 97.000000 1.000000 4.000000 1.000000 195.291260 114.000000 54.000000 -0.191342 0.969554 -0.152817
-12930.00000000 16100.00000000 -340.00000000 57 134 160 97.000000 1.000000 4.000000 1.000000 195.291260 114.000000 54.000000 -0.556728 0.827260 -0.075464
-12920.00000000 16110.00000000 -330.00000000 57 134 160 97.000000 1.000000 4.000000 1.000000 195.291260 114.000000 54.000000 -0.310700 0.945322 -0.099160
-12930.00000000 16100.00000000 -340.00000000 57 134 160 97.000000 1.000000 4.000000 1.000000 195.291260 114.000000 54.000000 -0.556728 0.827260 -0.075464
-12930.00000000 16110.00000000 -320.00000000 57 134 160 97.000000 1.000000 4.000000 1.000000 195.291260 114.000000 54.000000 -0.191342 0.969554 -0.152817
-12930.00000000 16110.00000000 -330.00000000 57 134 160 97.000000 1.000000 4.000000 1.000000 195.291260 114.000000 54.000000 -0.385308 0.872654 -0.300022
-12940.00000000 16120.00000000 -280.00000000 57 134 160 97.000000 1.000000 4.000000 1.000000 195.291260 114.000000 54.000000 -0.008803 0.941904 -0.335766
-12940.00000000 16120.00000000 -290.00000000 57 134 160 97.000000 1.000000 4.000000 1.000000 195.291260 114.000000 54.000000 -0.294587 0.830768 -0.472275
-12960.00000000 16110.00000000 -280.00000000 57 134 160 97.000000 1.000000 4.000000 1.000000 195.291260 114.000000 54.000000 -0.518461 0.596145 -0.613033
-12960.00000000 16110.00000000 -290.00000000 57 134 160 97.000000 1.000000 4.000000 1.000000 195.291260 114.000000 54.000000 0.538431 -0.589068 0.602570
-12950.00000000 16120.00000000 -290.00000000 57 134 160 97.000000 1.000000 4.000000 1.000000 195.291260 114.000000 54.000000 -0.438624 0.642092 -0.628750
-12940.00000000 16100.00000000 -330.00000000 57 134 160 97.000000 1.000000 4.000000 1.000000 195.291260 114.000000 54.000000 -0.311983 0.766359 -0.561570
-12950.00000000 16110.00000000 -330.00000000 57 134 160 97.000000 1.000000 4.000000 1.000000 195.291260 114.000000 54.000000 0.181628 -0.776880 0.602883
-12950.00000000 16110.00000000 -320.00000000 57 134 160 97.000000 1.000000 4.000000 1.000000 195.291260 114.000000 54.000000 -0.397378 0.904427 -0.155248
-12950.00000000 16080.00000000 -280.00000000 57 134 160 97.000000 1.000000 4.000000 1.000000 195.291260 114.000000 54.000000 -0.575459 0.795262 -0.190802
-12950.00000000 16070.00000000 -300.00000000 57 134 160 97.000000 1.000000 4.000000 1.000000 195.291260 114.000000 54.000000 0.790841 -0.498888 0.354515
-12950.00000000 16060.00000000 -330.00000000 57 134 160 97.000000 1.000000 4.000000 1.000000 195.291260 114.000000 54.000000 0.676445 -0.391974 0.623520
-12950.00000000 16090.00000000 -340.00000000 57 134 160 97.000000 1.000000 4.000000 1.000000 195.291260 114.000000 54.000000 0.567146 -0.580690 0.584076
-12960.00000000 16060.00000000 -320.00000000 57 134 160 97.000000 1.000000 4.000000 1.000000 195.291260 114.000000 54.000000 0.731766 -0.371613 0.571334
-12970.00000000 16080.00000000 -340.00000000 57 134 160 97.000000 1.000000 4.000000 1.000000 195.291260 114.000000 54.000000 0.784798 -0.614252 0.082382
-12950.00000000 16090.00000000 -330.00000000 57 134 160 97.000000 1.000000 4.000000 1.000000 195.291260 114.000000 54.000000 -0.662867 0.739979 -0.114185
-12960.00000000 16060.00000000 -320.00000000 57 134 160 97.000000 1.000000 4.000000 1.000000 195.291260 114.000000 54.000000 0.731766 -0.371613 0.571334
-12960.00000000 16090.00000000 -350.00000000 57 134 160 97.000000 1.000000 4.000000 1.000000 195.291260 114.000000 54.000000 -0.652286 0.751961 -0.095278
-12960.00000000 16080.00000000 -340.00000000 57 134 160 97.000000 1.000000 4.000000 1.000000 195.291260 114.000000 54.000000 -0.660752 0.738664 -0.133349
-12970.00000000 16060.00000000 -350.00000000 57 134 160 97.000000 1.000000 4.000000 1.000000 195.291260 114.000000 54.000000 0.750013 -0.380726 0.540859
-12970.00000000 16090.00000000 -340.00000000 57 134 160 97.000000 1.000000 4.000000 1.000000 195.291260 114.000000 54.000000 -0.643406 0.761966 -0.073739
-12950.00000000 16090.00000000 -340.00000000 57 134 160 97.000000 1.000000 4.000000 1.000000 195.291260 114.000000 54.000000 0.567146 -0.580690 0.584076
-12900.00000000 15980.00000000 -200.00000000 57 134 160 97.000000 1.000000 4.000000 1.000000 195.291260 114.000000 54.000000 -0.139342 0.907832 -0.395505
-12910.00000000 15970.00000000 -210.00000000 57 134 160 97.000000 1.000000 4.000000 1.000000 195.291260 114.000000 54.000000 -0.315235 0.891920 -0.324199
-12910.00000000 15980.00000000 -200.00000000 57 134 160 97.000000 1.000000 4.000000 1.000000 195.291260 114.000000 54.000000 -0.196638 0.809418 -0.553331
-12930.00000000 15970.00000000 -270.00000000 57 134 160 97.000000 1.000000 4.000000 1.000000 195.291260 114.000000 54.000000 0.081536 0.986701 -0.140620
-12930.00000000 15970.00000000 -240.00000000 57 134 160 97.000000 1.000000 4.000000 1.000000 195.291260 114.000000 54.000000 0.104805 0.992831 -0.057474
-12970.00000000 16010.00000000 -260.00000000 57 134 160 97.000000 1.000000 4.000000 1.000000 195.291260 114.000000 54.000000 0.459346 0.780726 -0.423637
-12970.00000000 16020.00000000 -250.00000000 57 134 160 97.000000 1.000000 4.000000 1.000000 195.291260 114.000000 54.000000 0.557646 0.740803 -0.374490
-12940.00000000 15990.00000000 -190.00000000 57 134 160 97.000000 1.000000 4.000000 1.000000 195.291260 114.000000 54.000000 0.155248 0.986351 0.054862
-12940.00000000 15990.00000000 -250.00000000 57 134 160 97.000000 1.000000 4.000000 1.000000 195.291260 114.000000 54.000000 0.210126 0.960764 -0.181052
-12950.00000000 15990.00000000 -250.00000000 57 134 160 97.000000 1.000000 4.000000 1.000000 195.291260 114.000000 54.000000 0.113026 0.986299 0.120164
-12950.00000000 15980.00000000 -260.00000000 57 134 160 97.000000 1.000000 4.000000 1.000000 195.291260 114.000000 54.000000 0.097731 0.976076 -0.194226
-12950.00000000 15980.00000000 -260.00000000 57 134 160 97.000000 1.000000 4.000000 1.000000 195.291260 114.000000 54.000000 0.097731 0.976076 -0.194226
-12950.00000000 16000.00000000 -280.00000000 57 134 160 97.000000 1.000000 4.000000 1.000000 195.291260 114.000000 54.000000 0.309265 0.948500 -0.068582
-12940.00000000 15970.00000000 -280.00000000 57 134 160 97.000000 1.000000 4.000000 1.000000 195.291260 114.000000 54.000000 -0.126131 0.894257 -0.429413
-12940.00000000 15970.00000000 -280.00000000 57 134 160 97.000000 1.000000 4.000000 1.000000 195.291260 114.000000 54.000000 -0.126131 0.894257 -0.429413
-12950.00000000 15980.00000000 -320.00000000 57 134 160 97.000000 1.000000 4.000000 1.000000 195.291260 114.000000 54.000000 0.224962 0.918475 -0.325263
-12870.00000000 15950.00000000 -130.00000000 57 134 160 97.000000 1.000000 4.000000 1.000000 195.291260 114.000000 54.000000 -0.514730 0.807512 -0.288060
-12910.00000000 15910.00000000 -160.00000000 57 134 160 97.000000 1.000000 4.000000 1.000000 195.291260 114.000000 54.000000 -0.396937 0.882248 -0.253141
-12900.00000000 15940.00000000 -140.00000000 57 134 160 97.000000 1.000000 4.000000 1.000000 195.291260 114.000000 54.000000 -0.641401 0.711780 -0.286311
-12910.00000000 15960.00000000 -180.00000000 57 134 160 97.000000 1.000000 4.000000 1.000000 195.291260 114.000000 54.000000 -0.385389 0.826286 -0.410764
-12850.00000000 15960.00000000 -190.00000000 57 134 160 97.000000 1.000000 4.000000 1.000000 195.291260 114.000000 54.000000 0.612056 -0.500773 0.612056
-12850.00000000 15960.00000000 -220.00000000 57 134 160 97.000000 1.000000 4.000000 1.000000 195.291260 114.000000 54.000000 -0.438807 0.726930 -0.528225
-12850.00000000 15940.00000000 -270.00000000 57 134 160 97.000000 1.000000 4.000000 1.000000 195.291260 114.000000 54.000000 -0.685011 0.675430 -0.273046
-12830.00000000 15930.00000000 -260.00000000 57 134 160 97.000000 1.000000 4.000000 1.000000 195.291260 114.000000 54.000000 -0.563460 0.703078 -0.433814
-12860.00000000 15950.00000000 -230.00000000 57 134 160 97.000000 1.000000 4.000000 1.000000 195.291260 114.000000 54.000000 -0.483931 0.784972 -0.386821
-12890.00000000 15950.00000000 -240.00000000 57 134 160 97.000000 1.000000 4.000000 1.000000 195.291260 114.000000 54.000000 -0.163482 0.986530 -0.005637
-12880.00000000 15950.00000000 -240.00000000 57 134 160 97.000000 1.000000 4.000000 1.000000 195.291260 114.000000 54.000000 -0.619302 0.763041 -0.185026
-12840.00000000 15930.00000000 -340.00000000 57 134 160 97.000000 1.000000 4.000000 1.000000 195.291260 114.000000 54.000000 0.484985 -0.649443 0.585674
-12850.00000000 15950.00000000 -320.00000000 57 134 160 97.000000 1.000000 4.000000 1.000000 195.291260 114.000000 54.000000 0.637086 -0.663563 0.392180
-12850.00000000 15950.00000000 -350.00000000 57 134 160 97.000000 1.000000 4.000000 1.000000 195.291260 114.000000 54.000000 -0.387774 0.897002 -0.212178
-12840.00000000 15910.00000000 -290.00000000 57 134 160 97.000000 1.000000 4.000000 1.000000 195.291260 114.000000 54.000000 -0.631374 0.774804 0.032342
-12830.00000000 15910.00000000 -290.00000000 57 134 160 97.000000 1.000000 4.000000 1.000000 195.291260 114.000000 54.000000 -0.532841 0.842599 -0.078150
-12840.00000000 15910.00000000 -280.00000000 57 134 160 97.000000 1.000000 4.000000 1.000000 195.291260 114.000000 54.000000 -0.489042 0.731076 -0.475780
-12850.00000000 15900.00000000 -300.00000000 57 134 160 97.000000 1.000000 4.000000 1.000000 195.291260 114.000000 54.000000 -0.459836 0.867923 -0.187779
-12850.00000000 15910.00000000 -350.00000000 57 134 160 97.000000 1.000000 4.000000 1.000000 195.291260 114.000000 54.000000 0.488190 -0.787871 0.375407
-12830.00000000 15920.00000000 -350.00000000 57 134 160 97.000000 1.000000 4.000000 1.000000 195.291260 114.000000 54.000000 -0.555297 0.616059 -0.558673
-12870.00000000 15940.00000000 -280.00000000 57 134 160 97.000000 1.000000 4.000000 1.000000 195.291260 114.000000 54.000000 -0.326588 0.855940 -0.400883
-12870.00000000 15940.00000000 -280.00000000 57 134 160 97.000000 1.000000 4.000000 1.000000 195.291260 114.000000 54.000000 -0.326588 0.855940 -0.400883
-12870.00000000 15930.00000000 -340.00000000 57 134 160 97.000000 1.000000 4.000000 1.000000 195.291260 114.000000 54.000000 -0.137340 0.868857 -0.475631
-12880.00000000 15940.00000000 -330.00000000 57 134 160 97.000000 1.000000 4.000000 1.000000 195.291260 114.000000 54.000000 -0.055483 0.792407 -0.607464
-12880.00000000 15940.00000000 -330.00000000 57 134 160 97.000000 1.000000 4.000000 1.000000 195.291260 114.000000 54.000000 -0.055483 0.792407 -0.607464
-12890.00000000 15920.00000000 -340.00000000 57 134 160 97.000000 1.000000 4.000000 1.000000 195.291260 114.000000 54.000000 -0.090371 0.836289 -0.540790
-12900.00000000 15960.00000000 -220.00000000 57 134 160 97.000000 1.000000 4.000000 1.000000 195.291260 114.000000 54.000000 -0.576880 0.789172 -0.210754
-12920.00000000 15950.00000000 -230.00000000 57 134 160 97.000000 1.000000 4.000000 1.000000 195.291260 114.000000 54.000000 -0.282872 0.887531 -0.363693
-12910.00000000 15950.00000000 -270.00000000 57 134 160 97.000000 1.000000 4.000000 1.000000 195.291260 114.000000 54.000000 -0.019224 0.931712 -0.362688
-12910.00000000 15910.00000000 -260.00000000 57 134 160 97.000000 1.000000 4.000000 1.000000 195.291260 114.000000 54.000000 -0.349733 0.936463 -0.026903
-12910.00000000 15930.00000000 -350.00000000 57 134 160 97.000000 1.000000 4.000000 1.000000 195.291260 114.000000 54.000000 0.066152 0.996616 0.048801
-12920.00000000 15930.00000000 -340.00000000 57 134 160 97.000000 1.000000 4.000000 1.000000 195.291260 114.000000 54.000000 0.238973 0.847822 -0.473380
-12910.00000000 15940.00000000 -330.00000000 57 134 160 97.000000 1.000000 4.000000 1.000000 195.291260 114.000000 54.000000 0.068606 0.980949 -0.181746
-12990.00000000 16130.00000000 -40.00000000 57 134 160 97.000000 1.000000 4.000000 1.000000 195.291260 114.000000 54.000000 0.696589 -0.587385 0.411997
-12980.00000000 16110.00000000 -100.00000000 57 134 160 97.000000 1.000000 4.000000 1.000000 195.291260 114.000000 54.000000 0.955254 -0.269363 -0.122199
-13000.00000000 16060.00000000 -80.00000000 57 134 160 97.000000 1.000000 4.000000 1.000000 195.291260 114.000000 54.000000 0.352253 0.927921 0.121987
-13030.00000000 16120.00000000 -70.00000000 57 134 160 97.000000 1.000000 4.000000 1.000000 195.291260 114.000000 54.000000 0.959919 -0.228426 -0.162407
-13020.00000000 16130.00000000 -70.00000000 57 134 160 97.000000 1.000000 4.000000 1.000000 195.291260 114.000000 54.000000 0.924882 -0.356996 -0.130945
-13010.00000000 16120.00000000 -140.00000000 57 134 160 97.000000 1.000000 4.000000 1.000000 195.291260 114.000000 54.000000 0.759932 -0.614446 0.212038
-12980.00000000 16060.00000000 -120.00000000 57 134 160 97.000000 1.000000 4.000000 1.000000 195.291260 114.000000 54.000000 0.575846 0.788893 -0.214591
-13030.00000000 16110.00000000 -160.00000000 57 134 160 97.000000 1.000000 4.000000 1.000000 195.291260 114.000000 54.000000 0.921125 -0.370378 -0.119788
-13040.00000000 16060.00000000 -120.00000000 57 134 160 97.000000 1.000000 4.000000 1.000000 195.291260 114.000000 54.000000 0.764441 0.580085 -0.281302
-12990.00000000 16050.00000000 -20.00000000 57 134 160 97.000000 1.000000 4.000000 1.000000 195.291260 114.000000 54.000000 0.306287 0.918860 -0.248768
-12980.00000000 16040.00000000 -20.00000000 57 134 160 97.000000 1.000000 4.000000 1.000000 195.291260 114.000000 54.000000 0.200407 0.953616 -0.224618
-13000.00000000 16030.00000000 -30.00000000 57 134 160 97.000000 1.000000 4.000000 1.000000 195.291260 114.000000 54.000000 0.109414 0.933399 -0.341751
-12990.00000000 16040.00000000 -20.00000000 57 134 160 97.000000 1.000000 4.000000 1.000000 195.291260 114.000000 54.000000 0.100071 0.940670 -0.324231
-13000.00000000 16030.00000000 -100.00000000 57 134 160 97.000000 1.000000 4.000000 1.000000 195.291260 114.000000 54.000000 0.459357 0.745838 -0.482407
-12980.00000000 16010.00000000 -120.00000000 57 134 160 97.000000 1.000000 4.000000 1.000000 195.291260 114.000000 54.000000 0.237768 0.962767 -0.128629
-12980.00000000 16030.00000000 -140.00000000 57 134 160 97.000000 1.000000 4.000000 1.000000 195.291260 114.000000 54.000000 0.364860 0.844033 -0.393047
-13010.00000000 16030.00000000 -130.00000000 57 134 160 97.000000 1.000000 4.000000 1.000000 195.291260 114.000000 54.000000 0.542236 0.788851 -0.289298
-13000.00000000 16020.00000000 -170.00000000 57 134 160 97.000000 1.000000 4.000000 1.000000 195.291260 114.000000 54.000000 0.514854 0.847394 0.129807
-12990.00000000 16020.00000000 -150.00000000 57 134 160 97.000000 1.000000 4.000000 1.000000 195.291260 114.000000 54.000000 0.594949 0.687755 -0.415967
-12990.00000000 16020.00000000 -160.00000000 57 134 160 97.000000 1.000000 4.000000 1.000000 195.291260 114.000000 54.000000 0.442190 0.867892 -0.226342
-12980.00000000 16050.00000000 -150.00000000 57 134 160 97.000000 1.000000 4.000000 1.000000 195.291260 114.000000 54.000000 0.597445 0.654345 -0.463564
-12990.00000000 16130.00000000 -230.00000000 57 134 160 97.000000 1.000000 4.000000 1.000000 195.291260 114.000000 54.000000 -0.398147 0.742225 -0.539055
-12980.00000000 16120.00000000 -230.00000000 57 134 160 97.000000 1.000000 4.000000 1.000000 195.291260 114.000000 54.000000 -0.626844 0.562639 -0.538984
-13010.00000000 16100.00000000 -200.00000000 57 134 160 97.000000 1.000000 4.000000 1.000000 195.291260 114.000000 54.000000 0.834889 -0.483032 0.263893
-12980.00000000 16110.00000000 -240.00000000 57 134 160 97.000000 1.000000 4.000000 1.000000 195.291260 114.000000 54.000000 -0.654537 0.741808 -0.145954
-13000.00000000 16120.00000000 -240.00000000 57 134 160 97.000000 1.000000 4.000000 1.000000 195.291260 114.000000 54.000000 0.527614 -0.832525 0.168896
-13010.00000000 16090.00000000 -210.00000000 57 134 160 97.000000 1.000000 4.000000 1.000000 195.291260 114.000000 54.000000 0.766533 -0.382453 0.515904
-12980.00000000 16070.00000000 -270.00000000 57 134 160 97.000000 1.000000 4.000000 1.000000 195.291260 114.000000 54.000000 0.895011 -0.434241 0.101928
-13020.00000000 16080.00000000 -210.00000000 57 134 160 97.000000 1.000000 4.000000 1.000000 195.291260 114.000000 54.000000 0.835619 -0.237653 0.495239
-12990.00000000 16070.00000000 -310.00000000 57 134 160 97.000000 1.000000 4.000000 1.000000 195.291260 114.000000 54.000000 0.873081 -0.456350 0.171681
-12980.00000000 16070.00000000 -330.00000000 57 134 160 97.000000 1.000000 4.000000 1.000000 195.291260 114.000000 54.000000 0.804889 -0.532946 0.261003
-12980.00000000 16000.00000000 -240.00000000 57 134 160 97.000000 1.000000 4.000000 1.000000 195.291260 114.000000 54.000000 0.498543 0.820486 -0.279747
-12980.00000000 16020.00000000 -310.00000000 57 134 160 97.000000 1.000000 4.000000 1.000000 195.291260 114.000000 54.000000 0.743136 0.630964 -0.222785
-13010.00000000 16050.00000000 -310.00000000 57 134 160 97.000000 1.000000 4.000000 1.000000 195.291260 114.000000 54.000000 0.956285 -0.264392 -0.124962
-12980.00000000 16020.00000000 -350.00000000 57 134 160 97.000000 1.000000 4.000000 1.000000 195.291260 114.000000 54.000000 0.905177 0.287007 -0.313500
-12980.00000000 15980.00000000 -320.00000000 57 134 160 97.000000 1.000000 4.000000 1.000000 195.291260 114.000000 54.000000 0.512499 0.743206 -0.430104
-12840.00000000 16130.00000000 -390.00000000 57 134 160 97.000000 1.000000 4.000000 1.000000 195.291260 114.000000 54.000000 0.520631 0.728884 -0.444603
-12840.00000000 16130.00000000 -380.00000000 57 134 160 97.000000 1.000000 4.000000 1.000000 195.291260 114.000000 54.000000 0.506381 0.862069 -0.020364
-12840.00000000 16130.00000000 -380.00000000 57 134 160 97.000000 1.000000 4.000000 1.000000 195.291260 114.000000 54.000000 0.506381 0.862069 -0.020364
-12830.00000000 16100.00000000 -420.00000000 57 134 160 97.000000 1.000000 4.000000 1.000000 195.291260 114.000000 54.000000 0.662125 0.655553 -0.363101
-12850.00000000 16100.00000000 -410.00000000 57 134 160 97.000000 1.000000 4.000000 1.000000 195.291260 114.000000 54.000000 0.412118 0.847563 -0.334360
-12820.00000000 16090.00000000 -380.00000000 57 134 160 97.000000 1.000000 4.000000 1.000000 195.291260 114.000000 54.000000 0.723133 0.661194 0.199752
-12810.00000000 16090.00000000 -440.00000000 57 134 160 97.000000 1.000000 4.000000 1.000000 195.291260 114.000000 54.000000 0.843603 0.405367 -0.352153
-12810.00000000 16090.00000000 -440.00000000 57 134 160 97.000000 1.000000 4.000000 1.000000 195.291260 114.000000 54.000000 0.843603 0.405367 -0.352153
-12870.00000000 16100.00000000 -430.00000000 57 134 160 97.000000 1.000000 4.000000 1.000000 195.291260 114.000000 54.000000 0.031392 0.999494 0.005063
-12860.00000000 16120.00000000 -440.00000000 57 134 160 97.000000 1.000000 4.000000 1.000000 195.291260 114.000000 54.000000 0.348503 0.756982 -0.552742
-12890.00000000 16110.00000000 -440.00000000 57 134 160 97.000000 1.000000 4.000000 1.000000 195.291260 114.000000 54.000000 -0.068271 0.868012 -0.491827
-12890.00000000 16090.00000000 -370.00000000 57 134 160 97.000000 1.000000 4.000000 1.000000 195.291260 114.000000 54.000000 0.077624 0.940702 -0.330233
-12880.00000000 16090.00000000 -400.00000000 57 134 160 97.000000 1.000000 4.000000 1.000000 195.291260 114.000000 54.000000 0.657861 0.686955 -0.308726
-12830.00000000 16110.00000000 -460.00000000 57 134 160 97.000000 1.000000 4.000000 1.000000 195.291260 114.000000 54.000000 0.457183 0.793205 -0.402256
-12850.00000000 16080.00000000 -460.00000000 57 134 160 97.000000 1.000000 4.000000 1.000000 195.291260 114.000000 54.000000 0.235185 0.969359 -0.070929
-12830.00000000 16090.00000000 -520.00000000 57 134 160 97.000000 1.000000 4.000000 1.000000 195.291260 114.000000 54.000000 0.365364 0.922371 -0.125464
-12820.00000000 16080.00000000 -510.00000000 57 134 160 97.000000 1.000000 4.000000 1.000000 195.291260 114.000000 54.000000 0.669528 0.740906 0.052820
-12820.00000000 16090.00000000 -510.00000000 57 134 160 97.000000 1.000000 4.000000 1.000000 195.291260 114.000000 54.000000 0.665649 0.745129 0.041160
-12810.00000000 16070.00000000 -500.00000000 57 134 160 97.000000 1.000000 4.000000 1.000000 195.291260 114.000000 54.000000 0.527856 0.827328 -0.192085
-12830.00000000 16090.00000000 -500.00000000 57 134 160 97.000000 1.000000 4.000000 1.000000 195.291260 114.000000 54.000000 0.461550 0.882415 0.091188
-12810.00000000 16060.00000000 -510.00000000 57 134 160 97.000000 1.000000 4.000000 1.000000 195.291260 114.000000 54.000000 0.739726 0.651264 0.169298
-12810.00000000 16070.00000000 -510.00000000 57 134 160 97.000000 1.000000 4.000000 1.000000 195.291260 114.000000 54.000000 0.580359 0.756225 0.302170
-12830.00000000 16080.00000000 -510.00000000 57 134 160 97.000000 1.000000 4.000000 1.000000 195.291260 114.000000 54.000000 0.529355 0.822255 0.208996
-12830.00000000 16080.00000000 -520.00000000 57 134 160 97.000000 1.000000 4.000000 1.000000 195.291260 114.000000 54.000000 0.527732 0.789207 -0.314088
-12880.00000000 16100.00000000 -470.00000000 57 134 160 97.000000 1.000000 4.000000 1.000000 195.291260 114.000000 54.000000 -0.075591 0.982682 -0.169180
-12890.00000000 16100.00000000 -470.00000000 57 134 160 97.000000 1.000000 4.000000 1.000000 195.291260 114.000000 54.000000 0.207894 0.916166 -0.342666
-12870.00000000 16100.00000000 -470.00000000 57 134 160 97.000000 1.000000 4.000000 1.000000 195.291260 114.000000 54.000000 -0.008237 0.975457 -0.220037
-12890.00000000 16100.00000000 -470.00000000 57 134 160 97.000000 1.000000 4.000000 1.000000 195.291260 114.000000 54.000000 0.207894 0.916166 -0.342666
-12860.00000000 16100.00000000 -470.00000000 57 134 160 97.000000 1.000000 4.000000 1.000000 195.291260 114.000000 54.000000 0.070943 0.924932 -0.373453
-12880.00000000 16100.00000000 -450.00000000 57 134 160 97.000000 1.000000 4.000000 1.000000 195.291260 114.000000 54.000000 -0.095828 0.851012 -0.516328
-12860.00000000 16080.00000000 -480.00000000 57 134 160 97.000000 1.000000 4.000000 1.000000 195.291260 114.000000 54.000000 0.239297 0.819785 -0.520278
-12880.00000000 16090.00000000 -480.00000000 57 134 160 97.000000 1.000000 4.000000 1.000000 195.291260 114.000000 54.000000 -0.096466 0.922545 -0.373638
-12890.00000000 16090.00000000 -480.00000000 57 134 160 97.000000 1.000000 4.000000 1.000000 195.291260 114.000000 54.000000 -0.227188 0.840139 -0.492495
-12860.00000000 16080.00000000 -470.00000000 57 134 160 97.000000 1.000000 4.000000 1.000000 195.291260 114.000000 54.000000 0.494934 0.815462 -0.300103
-12870.00000000 16090.00000000 -450.00000000 57 134 160 97.000000 1.000000 4.000000 1.000000 195.291260 114.000000 54.000000 0.209109 0.968571 0.134702
-12880.00000000 16060.00000000 -510.00000000 57 134 160 97.000000 1.000000 4.000000 1.000000 195.291260 114.000000 54.000000 -0.049060 0.825618 -0.562093
-12880.00000000 16080.00000000 -510.00000000 57 134 160 97.000000 1.000000 4.000000 1.000000 195.291260 114.000000 54.000000 -0.125978 0.893167 -0.431721
-12870.00000000 16080.00000000 -490.00000000 57 134 160 97.000000 1.000000 4.000000 1.000000 195.291260 114.000000 54.000000 0.385070 0.791085 -0.475295
-12880.00000000 16090.00000000 -500.00000000 57 134 160 97.000000 1.000000 4.000000 1.000000 195.291260 114.000000 54.000000 -0.186134 0.880839 -0.435290
-12880.00000000 16090.00000000 -520.00000000 57 134 160 97.000000 1.000000 4.000000 1.000000 195.291260 114.000000 54.000000 -0.272816 0.961647 -0.028393
-12890.00000000 16090.00000000 -490.00000000 57 134 160 97.000000 1.000000 4.000000 1.000000 195.291260 114.000000 54.000000 -0.246528 0.967531 0.055748
-12860.00000000 16090.00000000 -520.00000000 57 134 160 97.000000 1.000000 4.000000 1.000000 195.291260 114.000000 54.000000 0.060883 0.905123 -0.420767
-12910.00000000 16120.00000000 -370.00000000 57 134 160 97.000000 1.000000 4.000000 1.000000 195.291260 114.000000 54.000000 -0.120252 0.892695 -0.434322
-12910.00000000 16120.00000000 -360.00000000 57 134 160 97.000000 1.000000 4.000000 1.000000 195.291260 114.000000 54.000000 0.041051 0.915050 -0.401245
-12910.00000000 16100.00000000 -420.00000000 57 134 160 97.000000 1.000000 4.000000 1.000000 195.291260 114.000000 54.000000 -0.158023 0.882899 -0.442174
-12910.00000000 16110.00000000 -400.00000000 57 134 160 97.000000 1.000000 4.000000 1.000000 195.291260 114.000000 54.000000 -0.158423 0.879321 -0.449107
-12920.00000000 16100.00000000 -430.00000000 57 134 160 97.000000 1.000000 4.000000 1.000000 195.291260 114.000000 54.000000 0.121934 0.974219 -0.189816
-12900.00000000 16100.00000000 -410.00000000 57 134 160 97.000000 1.000000 4.000000 1.000000 195.291260 114.000000 54.000000 -0.279285 0.847114 -0.452103
-12910.00000000 16100.00000000 -420.00000000 57 134 160 97.000000 1.000000 4.000000 1.000000 195.291260 114.000000 54.000000 -0.158023 0.882899 -0.442174
-12930.00000000 16100.00000000 -430.00000000 57 134 160 97.000000 1.000000 4.000000 1.000000 195.291260 114.000000 54.000000 -0.020177 0.878384 -0.477529
-12920.00000000 16100.00000000 -410.00000000 57 134 160 97.000000 1.000000 4.000000 1.000000 195.291260 114.000000 54.000000 -0.421345 0.874179 -0.241411
-12910.00000000 16090.00000000 -430.00000000 57 134 160 97.000000 1.000000 4.000000 1.000000 195.291260 114.000000 54.000000 0.080899 0.992440 -0.092294
-12910.00000000 16090.00000000 -440.00000000 57 134 160 97.000000 1.000000 4.000000 1.000000 195.291260 114.000000 54.000000 -0.134964 0.967886 -0.212087
-12940.00000000 16110.00000000 -360.00000000 57 134 160 97.000000 1.000000 4.000000 1.000000 195.291260 114.000000 54.000000 -0.300177 0.953281 0.033911
-12940.00000000 16100.00000000 -430.00000000 57 134 160 97.000000 1.000000 4.000000 1.000000 195.291260 114.000000 54.000000 -0.272666 0.949628 -0.154466
-12940.00000000 16100.00000000 -400.00000000 57 134 160 97.000000 1.000000 4.000000 1.000000 195.291260 114.000000 54.000000 -0.527525 0.842596 0.108396
-12940.00000000 16090.00000000 -380.00000000 57 134 160 97.000000 1.000000 4.000000 1.000000 195.291260 114.000000 54.000000 -0.614938 0.783573 0.088679
-12940.00000000 16090.00000000 -380.00000000 57 134 160 97.000000 1.000000 4.000000 1.000000 195.291260 114.000000 54.000000 -0.614938 0.783573 0.088679
-12960.00000000 16080.00000000 -360.00000000 57 134 160 97.000000 1.000000 4.000000 1.000000 195.291260 114.000000 54.000000 -0.571957 0.783909 -0.241562
-12950.00000000 16070.00000000 -390.00000000 57 134 160 97.000000 1.000000 4.000000 1.000000 195.291260 114.000000 54.000000 0.594196 -0.637961 0.489833
-12960.00000000 16060.00000000 -390.00000000 57 134 160 97.000000 1.000000 4.000000 1.000000 195.291260 114.000000 54.000000 -0.731678 0.444292 -0.516964
-12960.00000000 16080.00000000 -380.00000000 57 134 160 97.000000 1.000000 4.000000 1.000000 195.291260 114.000000 54.000000 -0.580454 0.637658 -0.506425
-12960.00000000 16080.00000000 -370.00000000 57 134 160 97.000000 1.000000 4.000000 1.000000 195.291260 114.000000 54.000000 -0.687211 0.631447 -0.359187
-12950.00000000 16070.00000000 -410.00000000 57 134 160 97.000000 1.000000 4.000000 1.000000 195.291260 114.000000 54.000000 -0.573991 0.816121 0.066942
-12960.00000000 16060.00000000 -400.00000000 57 134 160 97.000000 1.000000 4.000000 1.000000 195.291260 114.000000 54.000000 -0.688997 0.723233 -0.047074
-12950.00000000 16060.00000000 -420.00000000 57 134 160 97.000000 1.000000 4.000000 1.000000 195.291260 114.000000 54.000000 0.670035 -0.392095 0.630329
-12950.00000000 16070.00000000 -420.00000000 57 134 160 97.000000 1.000000 4.000000 1.000000 195.291260 114.000000 54.000000 0.691702 -0.656231 0.301511
-12950.00000000 16070.00000000 -430.00000000 57 134 160 97.000000 1.000000 4.000000 1.000000 195.291260 114.000000 54.000000 -0.600976 0.768690 -0.218960
-12970.00000000 16070.00000000 -410.00000000 57 134 160 97.000000 1.000000 4.000000 1.000000 195.291260 114.000000 54.000000 -0.680055 0.563093 -0.469522
-12910.00000000 16090.00000000 -450.00000000 57 134 160 97.000000 1.000000 4.000000 1.000000 195.291260 114.000000 54.000000 -0.319278 0.898434 -0.301458
-12930.00000000 16090.00000000 -450.00000000 57 134 160 97.000000 1.000000 4.000000 1.000000 195.291260 114.000000 54.000000 0.274465 -0.750417 0.601285
-12900.00000000 16090.00000000 -480.00000000 57 134 160 97.000000 1.000000 4.000000 1.000000 195.291260 114.000000 54.000000 -0.146809 0.820057 -0.553131
-12920.00000000 16080.00000000 -460.00000000 57 134 160 97.000000 1.000000 4.000000 1.000000 195.291260 114.000000 54.000000 -0.417104 0.823106 -0.385385
-12920.00000000 16080.00000000 -460.00000000 57 134 160 97.000000 1.000000 4.000000 1.000000 195.291260 114.000000 54.000000 -0.417104 0.823106 -0.385385
-12930.00000000 16070.00000000 -480.00000000 57 134 160 97.000000 1.000000 4.000000 1.000000 195.291260 114.000000 54.000000 -0.625619 0.779575 -0.029392
-12920.00000000 16090.00000000 -450.00000000 57 134 160 97.000000 1.000000 4.000000 1.000000 195.291260 114.000000 54.000000 -0.119665 0.778562 -0.616054
-12900.00000000 16080.00000000 -460.00000000 57 134 160 97.000000 1.000000 4.000000 1.000000 195.291260 114.000000 54.000000 -0.334994 0.934457 -0.120706
-12920.00000000 16070.00000000 -480.00000000 57 134 160 97.000000 1.000000 4.000000 1.000000 195.291260 114.000000 54.000000 -0.145472 0.981628 -0.123468
-12930.00000000 16090.00000000 -460.00000000 57 134 160 97.000000 1.000000 4.000000 1.000000 195.291260 114.000000 54.000000 -0.458923 0.695895 -0.552377
-12930.00000000 16070.00000000 -470.00000000 57 134 160 97.000000 1.000000 4.000000 1.000000 195.291260 114.000000 54.000000 -0.635036 0.769784 0.064507
-12930.00000000 16080.00000000 -480.00000000 57 134 160 97.000000 1.000000 4.000000 1.000000 195.291260 114.000000 54.000000 -0.441164 0.896990 -0.027989
-12920.00000000 16080.00000000 -450.00000000 57 134 160 97.000000 1.000000 4.000000 1.000000 195.291260 114.000000 54.000000 -0.437230 0.881772 -0.176939
-12920.00000000 16070.00000000 -510.00000000 57 134 160 97.000000 1.000000 4.000000 1.000000 195.291260 114.000000 54.000000 -0.513276 0.857295 0.039906
-12930.00000000 16070.00000000 -510.00000000 57 134 160 97.000000 1.000000 4.000000 1.000000 195.291260 114.000000 54.000000 -0.307321 0.951586 -0.006171
-12930.00000000 16060.00000000 -490.00000000 57 134 160 97.000000 1.000000 4.000000 1.000000 195.291260 114.000000 54.000000 0.438405 -0.611766 0.658440
-12900.00000000 16090.00000000 -500.00000000 57 134 160 97.000000 1.000000 4.000000 1.000000 195.291260 114.000000 54.000000 -0.236391 0.868776 -0.435141
-12930.00000000 16070.00000000 -520.00000000 57 134 160 97.000000 1.000000 4.000000 1.000000 195.291260 114.000000 54.000000 -0.142233 0.953091 -0.267184
-12900.00000000 16080.00000000 -500.00000000 57 134 160 97.000000 1.000000 4.000000 1.000000 195.291260 114.000000 54.000000 -0.377310 0.882394 -0.281103
-12930.00000000 16070.00000000 -490.00000000 57 134 160 97.000000 1.000000 4.000000 1.000000 195.291260 114.000000 54.000000 0.562636 -0.666766 0.488738
-12910.00000000 16070.00000000 -490.00000000 57 134 160 97.000000 1.000000 4.000000 1.000000 195.291260 114.000000 54.000000 -0.441464 0.866354 -0.233539
-12900.00000000 16080.00000000 -510.00000000 57 134 160 97.000000 1.000000 4.000000 1.000000 195.291260 114.000000 54.000000 -0.252497 0.866351 -0.430908
-12940.00000000 16070.00000000 -480.00000000 57 134 160 97.000000 1.000000 4.000000 1.000000 195.291260 114.000000 54.000000 -0.481599 0.823581 -0.299627
-12950.00000000 16060.00000000 -520.00000000 57 134 160 97.000000 1.000000 4.000000 1.000000 195.291260 114.000000 54.000000 -0.565688 0.741752 -0.360280
-12940.00000000 16070.00000000 -510.00000000 57 134 160 97.000000 1.000000 4.000000 1.000000 195.291260 114.000000 54.000000 -0.421496 0.905881 0.041481
-12950.00000000 16040.00000000 -440.00000000 57 134 160 97.000000 1.000000 4.000000 1.000000 195.291260 114.000000 54.000000 0.692674 -0.603403 0.395105
-12950.00000000 16040.00000000 -440.00000000 57 134 160 97.000000 1.000000 4.000000 1.000000 195.291260 114.000000 54.000000 0.692674 -0.603403 0.395105
-12960.00000000 16040.00000000 -400.00000000 57 134 160 97.000000 1.000000 4.000000 1.000000 195.291260 114.000000 54.000000 0.901092 -0.427984 0.069735
-12960.00000000 16050.00000000 -420.00000000 57 134 160 97.000000 1.000000 4.000000 1.000000 195.291260 114.000000 54.000000 0.745353 -0.442605 0.498547
-12960.00000000 16050.00000000 -420.00000000 57 134 160 97.000000 1.000000 4.000000 1.000000 195.291260 114.000000 54.000000 0.745353 -0.442605 0.498547
-12970.00000000 15970.00000000 -380.00000000 57 134 160 97.000000 1.000000 4.000000 1.000000 195.291260 114.000000 54.000000 0.660662 0.670450 -0.337672
-12970.00000000 16000.00000000 -420.00000000 57 134 160 97.000000 1.000000 4.000000 1.000000 195.291260 114.000000 54.000000 0.883857 0.368901 -0.287592
-12970.00000000 16000.00000000 -420.00000000 57 134 160 97.000000 1.000000 4.000000 1.000000 195.291260 114.000000 54.000000 0.883857 0.368901 -0.287592
-12930.00000000 16030.00000000 -500.00000000 57 134 160 97.000000 1.000000 4.000000 1.000000 195.291260 114.000000 54.000000 0.810373 -0.579251 0.088115
-12930.00000000 16040.00000000 -520.00000000 57 134 160 97.000000 1.000000 4.000000 1.000000 195.291260 114.000000 54.000000 -0.536781 0.763819 -0.358395
-12930.00000000 16040.00000000 -510.00000000 57 134 160 97.000000 1.000000 4.000000 1.000000 195.291260 114.000000 54.000000 -0.618652 0.779531 -0.097990
-12920.00000000 16040.00000000 -490.00000000 57 134 160 97.000000 1.000000 4.000000 1.000000 195.291260 114.000000 54.000000 0.727463 -0.677089 -0.111120
-12900.00000000 16050.00000000 -520.00000000 57 134 160 97.000000 1.000000 4.000000 1.000000 195.291260 114.000000 54.000000 -0.182491 0.746831 -0.639484
-12930.00000000 16040.00000000 -500.00000000 57 134 160 97.000000 1.000000 4.000000 1.000000 195.291260 114.000000 54.000000 0.718118 -0.695808 -0.012550
-12920.00000000 16030.00000000 -520.00000000 57 134 160 97.000000 1.000000 4.000000 1.000000 195.291260 114.000000 54.000000 0.729921 -0.478339 0.488269
-12940.00000000 16030.00000000 -470.00000000 57 134 160 97.000000 1.000000 4.000000 1.000000 195.291260 114.000000 54.000000 -0.669669 0.710256 -0.216979
-12960.00000000 16020.00000000 -470.00000000 57 134 160 97.000000 1.000000 4.000000 1.000000 195.291260 114.000000 54.000000 0.892030 -0.450724 0.033636
-12940.00000000 16040.00000000 -460.00000000 57 134 160 97.000000 1.000000 4.000000 1.000000 195.291260 114.000000 54.000000 0.768883 -0.488102 0.413009
-12940.00000000 16030.00000000 -450.00000000 57 134 160 97.000000 1.000000 4.000000 1.000000 195.291260 114.000000 54.000000 0.751589 -0.553546 0.358750
-12940.00000000 16030.00000000 -470.00000000 57 134 160 97.000000 1.000000 4.000000 1.000000 195.291260 114.000000 54.000000 -0.669669 0.710256 -0.216979
-12960.00000000 16030.00000000 -450.00000000 57 134 160 97.000000 1.000000 4.000000 1.000000 195.291260 114.000000 54.000000 0.924340 -0.378439 -0.048788
-12940.00000000 16040.00000000 -460.00000000 57 134 160 97.000000 1.000000 4.000000 1.000000 195.291260 114.000000 54.000000 0.768883 -0.488102 0.413009
-12960.00000000 16020.00000000 -470.00000000 57 134 160 97.000000 1.000000 4.000000 1.000000 195.291260 114.000000 54.000000 0.892030 -0.450724 0.033636
-12940.00000000 16020.00000000 -520.00000000 57 134 160 97.000000 1.000000 4.000000 1.000000 195.291260 114.000000 54.000000 -0.746802 0.489625 -0.450060
-12950.00000000 16020.00000000 -510.00000000 57 134 160 97.000000 1.000000 4.000000 1.000000 195.291260 114.000000 54.000000 -0.747122 0.596737 -0.292769
-12950.00000000 16020.00000000 -510.00000000 57 134 160 97.000000 1.000000 4.000000 1.000000 195.291260 114.000000 54.000000 -0.747122 0.596737 -0.292769
-12950.00000000 16020.00000000 -510.00000000 57 134 160 97.000000 1.000000 4.000000 1.000000 195.291260 114.000000 54.000000 -0.747122 0.596737 -0.292769
-12960.00000000 16030.00000000 -490.00000000 57 134 160 97.000000 1.000000 4.000000 1.000000 195.291260 114.000000 54.000000 0.763469 -0.619649 0.182070
-12950.00000000 16020.00000000 -490.00000000 57 134 160 97.000000 1.000000 4.000000 1.000000 195.291260 114.000000 54.000000 0.833029 -0.546272 0.087461
-12950.00000000 16020.00000000 -500.00000000 57 134 160 97.000000 1.000000 4.000000 1.000000 195.291260 114.000000 54.000000 0.768575 -0.571260 0.288017
-12970.00000000 15990.00000000 -480.00000000 57 134 160 97.000000 1.000000 4.000000 1.000000 195.291260 114.000000 54.000000 0.978656 -0.152566 -0.137682
-12970.00000000 15990.00000000 -490.00000000 57 134 160 97.000000 1.000000 4.000000 1.000000 195.291260 114.000000 54.000000 0.950696 0.117680 -0.286928
-12820.00000000 16090.00000000 -530.00000000 57 134 160 97.000000 1.000000 4.000000 1.000000 195.291260 114.000000 54.000000 0.548751 0.822382 0.150200
-12820.00000000 16060.00000000 -540.00000000 57 134 160 97.000000 1.000000 4.000000 1.000000 195.291260 114.000000 54.000000 0.529321 0.745638 -0.404775
-12820.00000000 16090.00000000 -540.00000000 57 134 160 97.000000 1.000000 4.000000 1.000000 195.291260 114.000000 54.000000 0.334408 0.940766 -0.055952
-12840.00000000 16070.00000000 -560.00000000 57 134 160 97.000000 1.000000 4.000000 1.000000 195.291260 114.000000 54.000000 0.307229 0.947834 0.084978
-12850.00000000 16080.00000000 -530.00000000 57 134 160 97.000000 1.000000 4.000000 1.000000 195.291260 114.000000 54.000000 -0.064773 0.992044 -0.107954
-12840.00000000 16060.00000000 -580.00000000 57 134 160 97.000000 1.000000 4.000000 1.000000 195.291260 114.000000 54.000000 0.197354 0.868061 -0.455546
-12840.00000000 16060.00000000 -580.00000000 57 134 160 97.000000 1.000000 4.000000 1.000000 195.291260 114.000000 54.000000 0.197354 0.868061 -0.455546
-12810.00000000 16060.00000000 -600.00000000 57 134 160 97.000000 1.000000 4.000000 1.000000 195.291260 114.000000 54.000000 0.444831 0.851181 -0.278596
-12860.00000000 16080.00000000 -550.00000000 57 134 160 97.000000 1.000000 4.000000 1.000000 195.291260 114.000000 54.000000 0.326662 0.933124 0.150237
-12890.00000000 16090.00000000 -530.00000000 57 134 160 97.000000 1.000000 4.000000 1.000000 195.291260 114.000000 54.000000 -0.264803 0.960711 -0.083151
-12830.00000000 16060.00000000 -630.00000000 57 134 160 97.000000 1.000000 4.000000 1.000000 195.291260 114.000000 54.000000 0.039656 0.945348 -0.323644
-12820.00000000 16060.00000000 -610.00000000 57 134 160 97.000000 1.000000 4.000000 1.000000 195.291260 114.000000 54.000000 0.163086 0.950212 -0.265520
-12830.00000000 16060.00000000 -630.00000000 57 134 160 97.000000 1.000000 4.000000 1.000000 195.291260 114.000000 54.000000 0.039656 0.945348 -0.323644
-12820.00000000 16060.00000000 -650.00000000 57 134 160 97.000000 1.000000 4.000000 1.000000 195.291260 114.000000 54.000000 0.639367 0.760449 -0.113698
-12820.00000000 16060.00000000 -620.00000000 57 134 160 97.000000 1.000000 4.000000 1.000000 195.291260 114.000000 54.000000 0.253491 0.863690 -0.435640
-12820.00000000 16060.00000000 -630.00000000 57 134 160 97.000000 1.000000 4.000000 1.000000 195.291260 114.000000 54.000000 0.215195 0.911329 -0.350956
-12820.00000000 16060.00000000 -620.00000000 57 134 160 97.000000 1.000000 4.000000 1.000000 195.291260 114.000000 54.000000 0.253491 0.863690 -0.435640
-12810.00000000 16070.00000000 -610.00000000 57 134 160 97.000000 1.000000 4.000000 1.000000 195.291260 114.000000 54.000000 0.353058 0.880373 -0.316692
-12840.00000000 16060.00000000 -680.00000000 57 134 160 97.000000 1.000000 4.000000 1.000000 195.291260 114.000000 54.000000 0.397150 0.890265 -0.222935
-12830.00000000 16060.00000000 -680.00000000 57 134 160 97.000000 1.000000 4.000000 1.000000 195.291260 114.000000 54.000000 0.049590 0.976083 -0.211666
-12880.00000000 16040.00000000 -560.00000000 57 134 160 97.000000 1.000000 4.000000 1.000000 195.291260 114.000000 54.000000 -0.352134 0.927607 -0.124686
-12890.00000000 16040.00000000 -570.00000000 57 134 160 97.000000 1.000000 4.000000 1.000000 195.291260 114.000000 54.000000 -0.394170 0.877444 -0.273352
-12890.00000000 16050.00000000 -570.00000000 57 134 160 97.000000 1.000000 4.000000 1.000000 195.291260 114.000000 54.000000 0.005275 0.997016 -0.077018
-12860.00000000 16050.00000000 -600.00000000 57 134 160 97.000000 1.000000 4.000000 1.000000 195.291260 114.000000 54.000000 -0.299884 0.930625 -0.209778
-12890.00000000 16030.00000000 -590.00000000 57 134 160 97.000000 1.000000 4.000000 1.000000 195.291260 114.000000 54.000000 -0.620393 0.761322 -0.188416
-12830.00000000 16040.00000000 -650.00000000 57 134 160 97.000000 1.000000 4.000000 1.000000 195.291260 114.000000 54.000000 0.461360 0.847614 -0.262101
-12820.00000000 16050.00000000 -640.00000000 57 134 160 97.000000 1.000000 4.000000 1.000000 195.291260 114.000000 54.000000 0.135689 0.889837 -0.435635
-12810.00000000 16050.00000000 -620.00000000 57 134 160 97.000000 1.000000 4.000000 1.000000 195.291260 114.000000 54.000000 0.428804 0.827545 -0.362348
-12830.00000000 16020.00000000 -690.00000000 57 134 160 97.000000 1.000000 4.000000 1.000000 195.291260 114.000000 54.000000 0.093208 0.928023 -0.360673
-12840.00000000 16050.00000000 -660.00000000 57 134 160 97.000000 1.000000 4.000000 1.000000 195.291260 114.000000 54.000000 0.451585 0.890965 0.047464
-12820.00000000 16040.00000000 -660.00000000 57 134 160 97.000000 1.000000 4.000000 1.000000 195.291260 114.000000 54.000000 0.125967 0.938660 -0.321014
-12840.00000000 16050.00000000 -660.00000000 57 134 160 97.000000 1.000000 4.000000 1.000000 195.291260 114.000000 54.000000 0.451585 0.890965 0.047464
-12880.00000000 16020.00000000 -620.00000000 57 134 160 97.000000 1.000000 4.000000 1.000000 195.291260 114.000000 54.000000 -0.360485 0.917470 -0.168226
-12860.00000000 16040.00000000 -610.00000000 57 134 160 97.000000 1.000000 4.000000 1.000000 195.291260 114.000000 54.000000 -0.140135 0.951581 -0.273596
-12880.00000000 16040.00000000 -630.00000000 57 134 160 97.000000 1.000000 4.000000 1.000000 195.291260 114.000000 54.000000 -0.482601 0.870380 -0.097652
-12880.00000000 16030.00000000 -640.00000000 57 134 160 97.000000 1.000000 4.000000 1.000000 195.291260 114.000000 54.000000 0.034125 0.869496 -0.492760
-12890.00000000 16020.00000000 -660.00000000 57 134 160 97.000000 1.000000 4.000000 1.000000 195.291260 114.000000 54.000000 -0.296441 0.909766 -0.290600
-12890.00000000 16020.00000000 -690.00000000 57 134 160 97.000000 1.000000 4.000000 1.000000 195.291260 114.000000 54.000000 -0.395397 0.772895 -0.496280
-12890.00000000 16020.00000000 -660.00000000 57 134 160 97.000000 1.000000 4.000000 1.000000 195.291260 114.000000 54.000000 -0.296441 0.909766 -0.290600
