//X Y Z R G B PointSourceId ScanDirectionFlag NumberOfReturns ReturnNumber GpsTime Intensity Classification Nx Ny Nz
-8270.00000000 -19080.00000000 400.00000000 38 0 236 0.000000 0.000000 0.000000 0.000000 -60.708740 0.000000 44.000000 0.654789 0.748961 0.101529
-8270.00000000 -19100.00000000 400.00000000 38 0 236 0.000000 0.000000 0.000000 0.000000 -60.708740 0.000000 44.000000 0.753845 0.528182 -0.390822
-8280.00000000 -19100.00000000 390.00000000 38 0 236 0.000000 0.000000 0.000000 0.000000 -60.708740 0.000000 44.000000 0.589469 0.793458 -0.151492
-8280.00000000 -19090.00000000 380.00000000 38 0 236 0.000000 0.000000 0.000000 0.000000 -60.708740 0.000000 44.000000 0.957134 0.281660 -0.067547
-8330.00000000 -19130.00000000 330.00000000 38 0 236 0.000000 0.000000 0.000000 0.000000 -60.708740 0.000000 44.000000 0.630890 0.770765 -0.088878
-8360.00000000 -19080.00000000 390.00000000 38 0 236 0.000000 0.000000 0.000000 0.000000 -60.708740 0.000000 44.000000 0.968653 -0.126680 0.213692
-8360.00000000 -19080.00000000 400.00000000 38 0 236 0.000000 0.000000 0.000000 0.000000 -60.708740 0.000000 44.000000 0.998287 -0.057373 -0.011475
-8370.00000000 -19120.00000000 350.00000000 38 0 236 0.000000 0.000000 0.000000 0.000000 -60.708740 0.000000 44.000000 0.935330 0.349277 0.056251
-8400.00000000 -19080.00000000 380.00000000 38 0 236 0.000000 0.000000 0.000000 0.000000 -60.708740 0.000000 44.000000 0.865401 0.460256 0.198104
-8400.00000000 -19120.00000000 320.00000000 38 0 236 0.000000 0.000000 0.000000 0.000000 -60.708740 0.000000 44.000000 0.950441 0.117977 0.287651
-8410.00000000 -19110.00000000 340.00000000 38 0 236 0.000000 0.000000 0.000000 0.000000 -60.708740 0.000000 44.000000 0.935686 0.351365 0.032176
-8100.00000000 -18930.00000000 290.00000000 38 0 236 0.000000 0.000000 0.000000 0.000000 -60.708740 0.000000 44.000000 0.143037 0.984430 -0.102169
-8100.00000000 -18920.00000000 310.00000000 38 0 236 0.000000 0.000000 0.000000 0.000000 -60.708740 0.000000 44.000000 0.285206 0.864769 -0.413320
-8110.00000000 -18970.00000000 310.00000000 38 0 236 0.000000 0.000000 0.000000 0.000000 -60.708740 0.000000 44.000000 0.717019 0.637173 0.282656
-8160.00000000 -18930.00000000 310.00000000 38 0 236 0.000000 0.000000 0.000000 0.000000 -60.708740 0.000000 44.000000 0.068631 0.916420 -0.394289
-8140.00000000 -18920.00000000 270.00000000 38 0 236 0.000000 0.000000 0.000000 0.000000 -60.708740 0.000000 44.000000 0.560978 0.825135 0.066749
-8150.00000000 -18910.00000000 200.00000000 38 0 236 0.000000 0.000000 0.000000 0.000000 -60.708740 0.000000 44.000000 0.054561 0.987910 -0.145110
-8160.00000000 -18960.00000000 220.00000000 38 0 236 0.000000 0.000000 0.000000 0.000000 -60.708740 0.000000 44.000000 0.043560 0.920038 -0.389399
-8170.00000000 -18960.00000000 190.00000000 38 0 236 0.000000 0.000000 0.000000 0.000000 -60.708740 0.000000 44.000000 -0.010215 0.986312 -0.164574
-8170.00000000 -18960.00000000 180.00000000 38 0 236 0.000000 0.000000 0.000000 0.000000 -60.708740 0.000000 44.000000 0.038424 0.963072 -0.266487
-8110.00000000 -19020.00000000 280.00000000 38 0 236 0.000000 0.000000 0.000000 0.000000 -60.708740 0.000000 44.000000 0.883957 0.466869 0.025563
-8130.00000000 -19000.00000000 270.00000000 38 0 236 0.000000 0.000000 0.000000 0.000000 -60.708740 0.000000 44.000000 0.714082 0.696771 -0.067802
-8130.00000000 -19010.00000000 260.00000000 38 0 236 0.000000 0.000000 0.000000 0.000000 -60.708740 0.000000 44.000000 0.800388 0.541393 -0.257435
-8120.00000000 -19020.00000000 260.00000000 38 0 236 0.000000 0.000000 0.000000 0.000000 -60.708740 0.000000 44.000000 0.721359 0.611129 -0.325827
-8120.00000000 -19010.00000000 260.00000000 38 0 236 0.000000 0.000000 0.000000 0.000000 -60.708740 0.000000 44.000000 0.668370 0.687603 -0.283696
-8120.00000000 -19020.00000000 250.00000000 38 0 236 0.000000 0.000000 0.000000 0.000000 -60.708740 0.000000 44.000000 0.740415 0.648817 -0.175562
-8110.00000000 -19030.00000000 280.00000000 38 0 236 0.000000 0.000000 0.000000 0.000000 -60.708740 0.000000 44.000000 0.935043 0.344490 0.083795
-8110.00000000 -19030.00000000 290.00000000 38 0 236 0.000000 0.000000 0.000000 0.000000 -60.708740 0.000000 44.000000 0.938774 0.337433 0.069587
-8100.00000000 -19050.00000000 290.00000000 38 0 236 0.000000 0.000000 0.000000 0.000000 -60.708740 0.000000 44.000000 0.880540 0.469897 0.062010
-8160.00000000 -19000.00000000 280.00000000 38 0 236 0.000000 0.000000 0.000000 0.000000 -60.708740 0.000000 44.000000 0.044470 0.977133 -0.207926
-8130.00000000 -18990.00000000 210.00000000 38 0 236 0.000000 0.000000 0.000000 0.000000 -60.708740 0.000000 44.000000 0.566473 0.745017 -0.352219
-8100.00000000 -19000.00000000 190.00000000 38 0 236 0.000000 0.000000 0.000000 0.000000 -60.708740 0.000000 44.000000 0.467082 0.719739 -0.513624
-8170.00000000 -19010.00000000 170.00000000 38 0 236 0.000000 0.000000 0.000000 0.000000 -60.708740 0.000000 44.000000 0.050006 -0.730093 0.681516
-8140.00000000 -18990.00000000 190.00000000 38 0 236 0.000000 0.000000 0.000000 0.000000 -60.708740 0.000000 44.000000 0.313143 0.759572 -0.570081
-8150.00000000 -19000.00000000 160.00000000 38 0 236 0.000000 0.000000 0.000000 0.000000 -60.708740 0.000000 44.000000 0.197620 0.869233 -0.453190
-8180.00000000 -18920.00000000 260.00000000 38 0 236 0.000000 0.000000 0.000000 0.000000 -60.708740 0.000000 44.000000 -0.011151 0.952753 -0.303543
-8200.00000000 -18960.00000000 250.00000000 38 0 236 0.000000 0.000000 0.000000 0.000000 -60.708740 0.000000 44.000000 -0.373584 0.742273 -0.556297
-8250.00000000 -18940.00000000 300.00000000 38 0 236 0.000000 0.000000 0.000000 0.000000 -60.708740 0.000000 44.000000 -0.496225 0.857117 -0.138245
-8240.00000000 -18930.00000000 260.00000000 38 0 236 0.000000 0.000000 0.000000 0.000000 -60.708740 0.000000 44.000000 0.030166 0.919404 -0.392157
-8240.00000000 -18970.00000000 310.00000000 38 0 236 0.000000 0.000000 0.000000 0.000000 -60.708740 0.000000 44.000000 -0.383954 0.631135 -0.673979
-8210.00000000 -18980.00000000 200.00000000 38 0 236 0.000000 0.000000 0.000000 0.000000 -60.708740 0.000000 44.000000 -0.407667 0.913018 -0.014327
-8210.00000000 -18980.00000000 190.00000000 38 0 236 0.000000 0.000000 0.000000 0.000000 -60.708740 0.000000 44.000000 -0.507104 0.713271 -0.483827
-8250.00000000 -18900.00000000 150.00000000 38 0 236 0.000000 0.000000 0.000000 0.000000 -60.708740 0.000000 44.000000 -0.270820 0.837222 -0.475096
-8200.00000000 -18990.00000000 240.00000000 38 0 236 0.000000 0.000000 0.000000 0.000000 -60.708740 0.000000 44.000000 -0.265852 0.702042 -0.660651
-8190.00000000 -19020.00000000 260.00000000 38 0 236 0.000000 0.000000 0.000000 0.000000 -60.708740 0.000000 44.000000 -0.414454 0.798268 -0.437031
-8180.00000000 -19010.00000000 270.00000000 38 0 236 0.000000 0.000000 0.000000 0.000000 -60.708740 0.000000 44.000000 -0.256058 0.949719 -0.180189
-8230.00000000 -19040.00000000 290.00000000 38 0 236 0.000000 0.000000 0.000000 0.000000 -60.708740 0.000000 44.000000 0.573879 -0.590807 0.567107
-8240.00000000 -19030.00000000 290.00000000 38 0 236 0.000000 0.000000 0.000000 0.000000 -60.708740 0.000000 44.000000 0.734484 -0.212736 0.644420
-8230.00000000 -19040.00000000 280.00000000 38 0 236 0.000000 0.000000 0.000000 0.000000 -60.708740 0.000000 44.000000 0.873808 -0.137209 0.466512
-8240.00000000 -19030.00000000 290.00000000 38 0 236 0.000000 0.000000 0.000000 0.000000 -60.708740 0.000000 44.000000 0.734484 -0.212736 0.644420
-8230.00000000 -19030.00000000 300.00000000 38 0 236 0.000000 0.000000 0.000000 0.000000 -60.708740 0.000000 44.000000 0.869249 -0.411111 0.274580
-8240.00000000 -19030.00000000 290.00000000 38 0 236 0.000000 0.000000 0.000000 0.000000 -60.708740 0.000000 44.000000 0.734484 -0.212736 0.644420
-8180.00000000 -19000.00000000 180.00000000 38 0 236 0.000000 0.000000 0.000000 0.000000 -60.708740 0.000000 44.000000 -0.063496 0.967374 -0.245267
-8260.00000000 -19010.00000000 180.00000000 38 0 236 0.000000 0.000000 0.000000 0.000000 -60.708740 0.000000 44.000000 -0.332647 0.728578 -0.598765
-8210.00000000 -18960.00000000 130.00000000 38 0 236 0.000000 0.000000 0.000000 0.000000 -60.708740 0.000000 44.000000 0.455505 -0.679085 0.575638
-8260.00000000 -18980.00000000 130.00000000 38 0 236 0.000000 0.000000 0.000000 0.000000 -60.708740 0.000000 44.000000 -0.421530 0.847727 -0.321981
-8230.00000000 -18960.00000000 80.00000000 38 0 236 0.000000 0.000000 0.000000 0.000000 -60.708740 0.000000 44.000000 -0.449221 0.656297 -0.606198
-8230.00000000 -18950.00000000 80.00000000 38 0 236 0.000000 0.000000 0.000000 0.000000 -60.708740 0.000000 44.000000 -0.184917 0.777874 -0.600598
-8240.00000000 -18960.00000000 60.00000000 38 0 236 0.000000 0.000000 0.000000 0.000000 -60.708740 0.000000 44.000000 -0.549162 0.815422 -0.183054
-8240.00000000 -18970.00000000 60.00000000 38 0 236 0.000000 0.000000 0.000000 0.000000 -60.708740 0.000000 44.000000 -0.345023 0.809293 -0.475400
-8180.00000000 -18990.00000000 110.00000000 38 0 236 0.000000 0.000000 0.000000 0.000000 -60.708740 0.000000 44.000000 -0.409669 0.908397 -0.083578
-8200.00000000 -19000.00000000 140.00000000 38 0 236 0.000000 0.000000 0.000000 0.000000 -60.708740 0.000000 44.000000 -0.574670 0.815890 -0.063852
-8210.00000000 -19000.00000000 120.00000000 38 0 236 0.000000 0.000000 0.000000 0.000000 -60.708740 0.000000 44.000000 0.442216 -0.829352 0.341498
-8210.00000000 -19040.00000000 140.00000000 38 0 236 0.000000 0.000000 0.000000 0.000000 -60.708740 0.000000 44.000000 -0.545708 0.800683 -0.247201
-8220.00000000 -19020.00000000 90.00000000 38 0 236 0.000000 0.000000 0.000000 0.000000 -60.708740 0.000000 44.000000 -0.342871 0.723117 -0.599618
-8220.00000000 -19050.00000000 110.00000000 38 0 236 0.000000 0.000000 0.000000 0.000000 -60.708740 0.000000 44.000000 -0.617887 0.779331 -0.104204
-8250.00000000 -19030.00000000 110.00000000 38 0 236 0.000000 0.000000 0.000000 0.000000 -60.708740 0.000000 44.000000 0.759199 -0.640805 0.113954
-8240.00000000 -19030.00000000 100.00000000 38 0 236 0.000000 0.000000 0.000000 0.000000 -60.708740 0.000000 44.000000 -0.575840 0.799525 -0.170787
-8260.00000000 -19030.00000000 80.00000000 38 0 236 0.000000 0.000000 0.000000 0.000000 -60.708740 0.000000 44.000000 0.538419 -0.639689 0.548546
-8250.00000000 -18990.00000000 50.00000000 38 0 236 0.000000 0.000000 0.000000 0.000000 -60.708740 0.000000 44.000000 -0.521642 0.575663 -0.629684
-8260.00000000 -19000.00000000 60.00000000 38 0 236 0.000000 0.000000 0.000000 0.000000 -60.708740 0.000000 44.000000 -0.628266 0.771786 -0.098121
-8250.00000000 -19050.00000000 50.00000000 38 0 236 0.000000 0.000000 0.000000 0.000000 -60.708740 0.000000 44.000000 0.560302 -0.476675 0.677380
-8110.00000000 -19100.00000000 290.00000000 38 0 236 0.000000 0.000000 0.000000 0.000000 -60.708740 0.000000 44.000000 0.958935 0.137740 0.247933
-8100.00000000 -19100.00000000 270.00000000 38 0 236 0.000000 0.000000 0.000000 0.000000 -60.708740 0.000000 44.000000 0.791421 -0.441836 0.422415
-8120.00000000 -19140.00000000 250.00000000 38 0 236 0.000000 0.000000 0.000000 0.000000 -60.708740 0.000000 44.000000 0.681358 -0.500555 0.534037
-8140.00000000 -19090.00000000 310.00000000 38 0 236 0.000000 0.000000 0.000000 0.000000 -60.708740 0.000000 44.000000 0.983173 -0.180345 0.029088
-8140.00000000 -19150.00000000 250.00000000 38 0 236 0.000000 0.000000 0.000000 0.000000 -60.708740 0.000000 44.000000 -0.475809 0.839210 -0.263312
-8100.00000000 -19100.00000000 190.00000000 38 0 236 0.000000 0.000000 0.000000 0.000000 -60.708740 0.000000 44.000000 0.889982 0.445689 0.096403
-8100.00000000 -19120.00000000 210.00000000 38 0 236 0.000000 0.000000 0.000000 0.000000 -60.708740 0.000000 44.000000 0.789479 -0.466584 0.398776
-8100.00000000 -19140.00000000 200.00000000 38 0 236 0.000000 0.000000 0.000000 0.000000 -60.708740 0.000000 44.000000 0.710201 -0.626077 0.321936
-8120.00000000 -19120.00000000 230.00000000 38 0 236 0.000000 0.000000 0.000000 0.000000 -60.708740 0.000000 44.000000 0.801357 -0.190075 0.567184
-8110.00000000 -19140.00000000 220.00000000 38 0 236 0.000000 0.000000 0.000000 0.000000 -60.708740 0.000000 44.000000 0.771566 -0.609614 0.181815
-8110.00000000 -19130.00000000 220.00000000 38 0 236 0.000000 0.000000 0.000000 0.000000 -60.708740 0.000000 44.000000 0.785828 -0.471497 0.400205
-8100.00000000 -19110.00000000 210.00000000 38 0 236 0.000000 0.000000 0.000000 0.000000 -60.708740 0.000000 44.000000 0.921149 0.294595 0.254358
-8160.00000000 -19140.00000000 190.00000000 38 0 236 0.000000 0.000000 0.000000 0.000000 -60.708740 0.000000 44.000000 0.129452 0.778202 -0.614527
-8140.00000000 -19160.00000000 310.00000000 38 0 236 0.000000 0.000000 0.000000 0.000000 -60.708740 0.000000 44.000000 -0.569401 0.821545 -0.029093
-8150.00000000 -19170.00000000 300.00000000 38 0 236 0.000000 0.000000 0.000000 0.000000 -60.708740 0.000000 44.000000 -0.359477 0.922982 -0.137406
-8170.00000000 -19160.00000000 310.00000000 38 0 236 0.000000 0.000000 0.000000 0.000000 -60.708740 0.000000 44.000000 0.233657 0.841470 -0.487167
-8170.00000000 -19170.00000000 290.00000000 38 0 236 0.000000 0.000000 0.000000 0.000000 -60.708740 0.000000 44.000000 -0.078314 0.996623 -0.024674
-8170.00000000 -19160.00000000 260.00000000 38 0 236 0.000000 0.000000 0.000000 0.000000 -60.708740 0.000000 44.000000 0.017875 0.973589 -0.227608
-8160.00000000 -19160.00000000 270.00000000 38 0 236 0.000000 0.000000 0.000000 0.000000 -60.708740 0.000000 44.000000 -0.050457 0.997340 -0.052605
-8160.00000000 -19160.00000000 270.00000000 38 0 236 0.000000 0.000000 0.000000 0.000000 -60.708740 0.000000 44.000000 -0.050457 0.997340 -0.052605
-8140.00000000 -19160.00000000 240.00000000 38 0 236 0.000000 0.000000 0.000000 0.000000 -60.708740 0.000000 44.000000 -0.241720 0.781300 -0.575449
-8170.00000000 -19160.00000000 260.00000000 38 0 236 0.000000 0.000000 0.000000 0.000000 -60.708740 0.000000 44.000000 0.017875 0.973589 -0.227608
-8140.00000000 -19160.00000000 240.00000000 38 0 236 0.000000 0.000000 0.000000 0.000000 -60.708740 0.000000 44.000000 -0.241720 0.781300 -0.575449
-8150.00000000 -19170.00000000 260.00000000 38 0 236 0.000000 0.000000 0.000000 0.000000 -60.708740 0.000000 44.000000 0.021985 0.927268 -0.373752
-8140.00000000 -19230.00000000 260.00000000 38 0 236 0.000000 0.000000 0.000000 0.000000 -60.708740 0.000000 44.000000 -0.438223 0.891947 -0.111317
-8130.00000000 -19160.00000000 170.00000000 38 0 236 0.000000 0.000000 0.000000 0.000000 -60.708740 0.000000 44.000000 -0.357082 0.934003 0.011437
-8100.00000000 -19160.00000000 170.00000000 38 0 236 0.000000 0.000000 0.000000 0.000000 -60.708740 0.000000 44.000000 -0.408879 0.887134 -0.214034
-8100.00000000 -19160.00000000 180.00000000 38 0 236 0.000000 0.000000 0.000000 0.000000 -60.708740 0.000000 44.000000 -0.548500 0.795403 -0.257842
-8110.00000000 -19160.00000000 150.00000000 38 0 236 0.000000 0.000000 0.000000 0.000000 -60.708740 0.000000 44.000000 -0.290654 0.935934 -0.198868
-8110.00000000 -19160.00000000 150.00000000 38 0 236 0.000000 0.000000 0.000000 0.000000 -60.708740 0.000000 44.000000 -0.290654 0.935934 -0.198868
-8130.00000000 -19160.00000000 160.00000000 38 0 236 0.000000 0.000000 0.000000 0.000000 -60.708740 0.000000 44.000000 -0.163844 0.986455 0.007910
-8110.00000000 -19200.00000000 230.00000000 38 0 236 0.000000 0.000000 0.000000 0.000000 -60.708740 0.000000 44.000000 -0.185537 0.759014 -0.624078
-8140.00000000 -19180.00000000 220.00000000 38 0 236 0.000000 0.000000 0.000000 0.000000 -60.708740 0.000000 44.000000 0.139695 -0.716501 0.683455
-8140.00000000 -19160.00000000 190.00000000 38 0 236 0.000000 0.000000 0.000000 0.000000 -60.708740 0.000000 44.000000 -0.069554 0.904198 -0.421413
-8150.00000000 -19160.00000000 180.00000000 38 0 236 0.000000 0.000000 0.000000 0.000000 -60.708740 0.000000 44.000000 -0.089168 0.995886 0.016115
-8230.00000000 -19100.00000000 280.00000000 38 0 236 0.000000 0.000000 0.000000 0.000000 -60.708740 0.000000 44.000000 0.850279 0.450510 -0.272151
-8260.00000000 -19080.00000000 300.00000000 38 0 236 0.000000 0.000000 0.000000 0.000000 -60.708740 0.000000 44.000000 0.936328 0.312109 0.160867
-8250.00000000 -19150.00000000 290.00000000 38 0 236 0.000000 0.000000 0.000000 0.000000 -60.708740 0.000000 44.000000 0.875079 0.461405 -0.146088
-8240.00000000 -19130.00000000 270.00000000 38 0 236 0.000000 0.000000 0.000000 0.000000 -60.708740 0.000000 44.000000 0.866203 0.390941 0.311220
-8240.00000000 -19120.00000000 210.00000000 38 0 236 0.000000 0.000000 0.000000 0.000000 -60.708740 0.000000 44.000000 0.981323 -0.113653 0.155203
-8250.00000000 -19150.00000000 220.00000000 38 0 236 0.000000 0.000000 0.000000 0.000000 -60.708740 0.000000 44.000000 0.876621 0.478780 -0.048015
-8250.00000000 -19150.00000000 220.00000000 38 0 236 0.000000 0.000000 0.000000 0.000000 -60.708740 0.000000 44.000000 0.876621 0.478780 -0.048015
-8190.00000000 -19180.00000000 290.00000000 38 0 236 0.000000 0.000000 0.000000 0.000000 -60.708740 0.000000 44.000000 -0.263830 0.936666 -0.230328
-8200.00000000 -19160.00000000 260.00000000 38 0 236 0.000000 0.000000 0.000000 0.000000 -60.708740 0.000000 44.000000 0.005629 0.987305 -0.158734
-8180.00000000 -19190.00000000 150.00000000 38 0 236 0.000000 0.000000 0.000000 0.000000 -60.708740 0.000000 44.000000 0.258409 0.899265 -0.352913
-8180.00000000 -19210.00000000 200.00000000 38 0 236 0.000000 0.000000 0.000000 0.000000 -60.708740 0.000000 44.000000 0.325912 0.823440 -0.464464
-8220.00000000 -19180.00000000 230.00000000 38 0 236 0.000000 0.000000 0.000000 0.000000 -60.708740 0.000000 44.000000 0.309563 0.883389 -0.351845
-8230.00000000 -19170.00000000 210.00000000 38 0 236 0.000000 0.000000 0.000000 0.000000 -60.708740 0.000000 44.000000 0.895178 0.444234 -0.036237
-8250.00000000 -19160.00000000 200.00000000 38 0 236 0.000000 0.000000 0.000000 0.000000 -60.708740 0.000000 44.000000 0.826338 0.517797 -0.221477
-8240.00000000 -19160.00000000 220.00000000 38 0 236 0.000000 0.000000 0.000000 0.000000 -60.708740 0.000000 44.000000 0.745528 0.556291 -0.367054
-8230.00000000 -19180.00000000 200.00000000 38 0 236 0.000000 0.000000 0.000000 0.000000 -60.708740 0.000000 44.000000 0.598298 0.736987 -0.314469
-8230.00000000 -19180.00000000 200.00000000 38 0 236 0.000000 0.000000 0.000000 0.000000 -60.708740 0.000000 44.000000 0.598298 0.736987 -0.314469
-8230.00000000 -19170.00000000 210.00000000 38 0 236 0.000000 0.000000 0.000000 0.000000 -60.708740 0.000000 44.000000 0.895178 0.444234 -0.036237
-8240.00000000 -19190.00000000 170.00000000 38 0 236 0.000000 0.000000 0.000000 0.000000 -60.708740 0.000000 44.000000 0.821738 0.566275 -0.063866
-8250.00000000 -19170.00000000 180.00000000 38 0 236 0.000000 0.000000 0.000000 0.000000 -60.708740 0.000000 44.000000 0.892143 0.345201 -0.291404
-8250.00000000 -19170.00000000 160.00000000 38 0 236 0.000000 0.000000 0.000000 0.000000 -60.708740 0.000000 44.000000 0.924592 0.306298 0.226518
-8240.00000000 -19190.00000000 170.00000000 38 0 236 0.000000 0.000000 0.000000 0.000000 -60.708740 0.000000 44.000000 0.821738 0.566275 -0.063866
-8250.00000000 -19170.00000000 180.00000000 38 0 236 0.000000 0.000000 0.000000 0.000000 -60.708740 0.000000 44.000000 0.892143 0.345201 -0.291404
-8250.00000000 -19170.00000000 150.00000000 38 0 236 0.000000 0.000000 0.000000 0.000000 -60.708740 0.000000 44.000000 0.848667 0.475193 -0.232283
-8250.00000000 -19160.00000000 190.00000000 38 0 236 0.000000 0.000000 0.000000 0.000000 -60.708740 0.000000 44.000000 0.866127 0.495129 0.068342
-8250.00000000 -19170.00000000 160.00000000 38 0 236 0.000000 0.000000 0.000000 0.000000 -60.708740 0.000000 44.000000 0.924592 0.306298 0.226518
-8240.00000000 -19180.00000000 150.00000000 38 0 236 0.000000 0.000000 0.000000 0.000000 -60.708740 0.000000 44.000000 0.801142 0.598460 0.004108
-8240.00000000 -19200.00000000 160.00000000 38 0 236 0.000000 0.000000 0.000000 0.000000 -60.708740 0.000000 44.000000 0.854757 0.518815 0.014901
-8100.00000000 -19070.00000000 110.00000000 38 0 236 0.000000 0.000000 0.000000 0.000000 -60.708740 0.000000 44.000000 0.325851 0.805885 -0.494339
-8130.00000000 -19090.00000000 70.00000000 38 0 236 0.000000 0.000000 0.000000 0.000000 -60.708740 0.000000 44.000000 -0.371069 0.832143 -0.412124
-8120.00000000 -19070.00000000 80.00000000 38 0 236 0.000000 0.000000 0.000000 0.000000 -60.708740 0.000000 44.000000 0.069979 0.936133 -0.344613
-8140.00000000 -19100.00000000 80.00000000 38 0 236 0.000000 0.000000 0.000000 0.000000 -60.708740 0.000000 44.000000 -0.494119 0.866458 -0.071388
-8150.00000000 -19120.00000000 70.00000000 38 0 236 0.000000 0.000000 0.000000 0.000000 -60.708740 0.000000 44.000000 -0.623803 0.781483 -0.012448
-8130.00000000 -19110.00000000 60.00000000 38 0 236 0.000000 0.000000 0.000000 0.000000 -60.708740 0.000000 44.000000 -0.118056 0.883284 -0.453732
-8110.00000000 -19110.00000000 60.00000000 38 0 236 0.000000 0.000000 0.000000 0.000000 -60.708740 0.000000 44.000000 0.150819 0.856594 -0.493457
-8110.00000000 -19110.00000000 30.00000000 38 0 236 0.000000 0.000000 0.000000 0.000000 -60.708740 0.000000 44.000000 -0.159642 0.951142 -0.264281
-8120.00000000 -19110.00000000 20.00000000 38 0 236 0.000000 0.000000 0.000000 0.000000 -60.708740 0.000000 44.000000 -0.232627 0.953368 -0.192287
-8170.00000000 -19080.00000000 60.00000000 38 0 236 0.000000 0.000000 0.000000 0.000000 -60.708740 0.000000 44.000000 -0.366969 0.920884 -0.131555
-8170.00000000 -19090.00000000 40.00000000 38 0 236 0.000000 0.000000 0.000000 0.000000 -60.708740 0.000000 44.000000 0.533809 -0.798352 0.278715
-8150.00000000 -19120.00000000 60.00000000 38 0 236 0.000000 0.000000 0.000000 0.000000 -60.708740 0.000000 44.000000 -0.485823 0.653928 -0.579961
-8150.00000000 -19140.00000000 20.00000000 38 0 236 0.000000 0.000000 0.000000 0.000000 -60.708740 0.000000 44.000000 0.933178 -0.359305 -0.008887
-8100.00000000 -19170.00000000 110.00000000 38 0 236 0.000000 0.000000 0.000000 0.000000 -60.708740 0.000000 44.000000 -0.452263 0.672554 -0.585773
-8130.00000000 -19180.00000000 120.00000000 38 0 236 0.000000 0.000000 0.000000 0.000000 -60.708740 0.000000 44.000000 -0.150634 0.806860 -0.571215
-8120.00000000 -19210.00000000 110.00000000 38 0 236 0.000000 0.000000 0.000000 0.000000 -60.708740 0.000000 44.000000 0.018790 0.948265 -0.316923
-8120.00000000 -19210.00000000 80.00000000 38 0 236 0.000000 0.000000 0.000000 0.000000 -60.708740 0.000000 44.000000 -0.079042 0.928408 -0.363057
-8130.00000000 -19220.00000000 70.00000000 38 0 236 0.000000 0.000000 0.000000 0.000000 -60.708740 0.000000 44.000000 0.182589 0.950817 -0.250215
-8130.00000000 -19210.00000000 80.00000000 38 0 236 0.000000 0.000000 0.000000 0.000000 -60.708740 0.000000 44.000000 0.073606 0.924753 -0.373381
-8130.00000000 -19210.00000000 70.00000000 38 0 236 0.000000 0.000000 0.000000 0.000000 -60.708740 0.000000 44.000000 0.193664 0.978062 0.076735
-8100.00000000 -19210.00000000 70.00000000 38 0 236 0.000000 0.000000 0.000000 0.000000 -60.708740 0.000000 44.000000 0.145912 0.876916 -0.457961
-8130.00000000 -19220.00000000 70.00000000 38 0 236 0.000000 0.000000 0.000000 0.000000 -60.708740 0.000000 44.000000 0.182589 0.950817 -0.250215
-8110.00000000 -19210.00000000 90.00000000 38 0 236 0.000000 0.000000 0.000000 0.000000 -60.708740 0.000000 44.000000 -0.070626 0.928799 -0.363791
-8150.00000000 -19190.00000000 130.00000000 38 0 236 0.000000 0.000000 0.000000 0.000000 -60.708740 0.000000 44.000000 -0.024378 0.935364 -0.352846
-8150.00000000 -19190.00000000 130.00000000 38 0 236 0.000000 0.000000 0.000000 0.000000 -60.708740 0.000000 44.000000 -0.024378 0.935364 -0.352846
-8150.00000000 -19190.00000000 120.00000000 38 0 236 0.000000 0.000000 0.000000 0.000000 -60.708740 0.000000 44.000000 -0.068822 0.913582 -0.400789
-8160.00000000 -19190.00000000 120.00000000 38 0 236 0.000000 0.000000 0.000000 0.000000 -60.708740 0.000000 44.000000 0.134807 0.973886 -0.182682
-8140.00000000 -19180.00000000 140.00000000 38 0 236 0.000000 0.000000 0.000000 0.000000 -60.708740 0.000000 44.000000 -0.258476 0.930796 -0.258476
-8140.00000000 -19190.00000000 110.00000000 38 0 236 0.000000 0.000000 0.000000 0.000000 -60.708740 0.000000 44.000000 -0.117469 0.887384 -0.445815
-8140.00000000 -19210.00000000 80.00000000 38 0 236 0.000000 0.000000 0.000000 0.000000 -60.708740 0.000000 44.000000 0.238299 0.937865 -0.252234
-8140.00000000 -19200.00000000 100.00000000 38 0 236 0.000000 0.000000 0.000000 0.000000 -60.708740 0.000000 44.000000 0.102662 0.918483 -0.381903
-8150.00000000 -19210.00000000 80.00000000 38 0 236 0.000000 0.000000 0.000000 0.000000 -60.708740 0.000000 44.000000 0.215436 0.920240 -0.326721
-8160.00000000 -19200.00000000 90.00000000 38 0 236 0.000000 0.000000 0.000000 0.000000 -60.708740 0.000000 44.000000 0.458627 0.733473 -0.501676
-8100.00000000 -19220.00000000 50.00000000 38 0 236 0.000000 0.000000 0.000000 0.000000 -60.708740 0.000000 44.000000 -0.104469 0.763656 -0.637115
-8120.00000000 -19230.00000000 40.00000000 38 0 236 0.000000 0.000000 0.000000 0.000000 -60.708740 0.000000 44.000000 0.288984 0.739225 -0.608304
-8100.00000000 -19230.00000000 10.00000000 38 0 236 0.000000 0.000000 0.000000 0.000000 -60.708740 0.000000 44.000000 -0.302226 0.944290 -0.130293
-8150.00000000 -19220.00000000 50.00000000 38 0 236 0.000000 0.000000 0.000000 0.000000 -60.708740 0.000000 44.000000 0.340595 0.815843 -0.467328
-8240.00000000 -19150.00000000 110.00000000 38 0 236 0.000000 0.000000 0.000000 0.000000 -60.708740 0.000000 44.000000 0.984344 0.109372 -0.138217
-8250.00000000 -19120.00000000 90.00000000 38 0 236 0.000000 0.000000 0.000000 0.000000 -60.708740 0.000000 44.000000 0.981011 -0.183266 0.063484
-8250.00000000 -19120.00000000 80.00000000 38 0 236 0.000000 0.000000 0.000000 0.000000 -60.708740 0.000000 44.000000 0.947936 -0.318457 0.001239
-8180.00000000 -19090.00000000 60.00000000 38 0 236 0.000000 0.000000 0.000000 0.000000 -60.708740 0.000000 44.000000 0.773599 -0.630074 0.067457
-8200.00000000 -19110.00000000 40.00000000 38 0 236 0.000000 0.000000 0.000000 0.000000 -60.708740 0.000000 44.000000 -0.668660 0.718076 -0.193031
-8190.00000000 -19110.00000000 60.00000000 38 0 236 0.000000 0.000000 0.000000 0.000000 -60.708740 0.000000 44.000000 0.767968 -0.633391 0.095082
-8200.00000000 -19140.00000000 -10.00000000 38 0 236 0.000000 0.000000 0.000000 0.000000 -60.708740 0.000000 44.000000 0.970688 0.065537 0.231234
-8230.00000000 -19090.00000000 40.00000000 38 0 236 0.000000 0.000000 0.000000 0.000000 -60.708740 0.000000 44.000000 0.915479 -0.244417 0.319622
-8260.00000000 -19100.00000000 40.00000000 38 0 236 0.000000 0.000000 0.000000 0.000000 -60.708740 0.000000 44.000000 0.986017 -0.026463 0.164528
-8230.00000000 -19070.00000000 20.00000000 38 0 236 0.000000 0.000000 0.000000 0.000000 -60.708740 0.000000 44.000000 0.453767 -0.823737 0.339930
-8250.00000000 -19070.00000000 -10.00000000 38 0 236 0.000000 0.000000 0.000000 0.000000 -60.708740 0.000000 44.000000 0.904628 -0.328020 0.272124
-8230.00000000 -19090.00000000 20.00000000 38 0 236 0.000000 0.000000 0.000000 0.000000 -60.708740 0.000000 44.000000 0.872663 -0.488099 -0.014791
-8250.00000000 -19070.00000000 -10.00000000 38 0 236 0.000000 0.000000 0.000000 0.000000 -60.708740 0.000000 44.000000 0.904628 -0.328020 0.272124
-8250.00000000 -19140.00000000 0.00000000 38 0 236 0.000000 0.000000 0.000000 0.000000 -60.708740 0.000000 44.000000 0.978347 0.193239 0.074136
-8250.00000000 -19160.00000000 120.00000000 38 0 236 0.000000 0.000000 0.000000 0.000000 -60.708740 0.000000 44.000000 0.755878 0.615612 0.222867
-8240.00000000 -19180.00000000 100.00000000 38 0 236 0.000000 0.000000 0.000000 0.000000 -60.708740 0.000000 44.000000 0.989797 0.053906 0.131896
-8230.00000000 -19190.00000000 80.00000000 38 0 236 0.000000 0.000000 0.000000 0.000000 -60.708740 0.000000 44.000000 0.831096 0.524507 -0.184855
-8240.00000000 -19180.00000000 80.00000000 38 0 236 0.000000 0.000000 0.000000 0.000000 -60.708740 0.000000 44.000000 0.979701 0.189192 -0.066277
-8240.00000000 -19210.00000000 120.00000000 38 0 236 0.000000 0.000000 0.000000 0.000000 -60.708740 0.000000 44.000000 0.713531 0.602501 -0.357582
-8240.00000000 -19210.00000000 110.00000000 38 0 236 0.000000 0.000000 0.000000 0.000000 -60.708740 0.000000 44.000000 0.840822 0.432111 -0.326033
-8250.00000000 -19210.00000000 90.00000000 38 0 236 0.000000 0.000000 0.000000 0.000000 -60.708740 0.000000 44.000000 0.913517 0.402270 -0.060542
-8240.00000000 -19220.00000000 90.00000000 38 0 236 0.000000 0.000000 0.000000 0.000000 -60.708740 0.000000 44.000000 0.961894 0.231640 0.145266
-8240.00000000 -19210.00000000 100.00000000 38 0 236 0.000000 0.000000 0.000000 0.000000 -60.708740 0.000000 44.000000 0.852221 0.483774 -0.199201
-8220.00000000 -19190.00000000 50.00000000 38 0 236 0.000000 0.000000 0.000000 0.000000 -60.708740 0.000000 44.000000 0.937837 0.209798 0.276488
-8250.00000000 -19210.00000000 50.00000000 38 0 236 0.000000 0.000000 0.000000 0.000000 -60.708740 0.000000 44.000000 0.906239 0.329408 0.264991
-8240.00000000 -19220.00000000 40.00000000 38 0 236 0.000000 0.000000 0.000000 0.000000 -60.708740 0.000000 44.000000 0.909821 0.341001 -0.236524
-8250.00000000 -19230.00000000 10.00000000 38 0 236 0.000000 0.000000 0.000000 0.000000 -60.708740 0.000000 44.000000 0.828171 0.454158 0.328440
-8270.00000000 -18900.00000000 280.00000000 38 0 236 0.000000 0.000000 0.000000 0.000000 -60.708740 0.000000 44.000000 -0.330259 0.765235 -0.552580
-8300.00000000 -18920.00000000 310.00000000 38 0 236 0.000000 0.000000 0.000000 0.000000 -60.708740 0.000000 44.000000 -0.340543 0.672939 -0.656645
-8280.00000000 -18920.00000000 310.00000000 38 0 236 0.000000 0.000000 0.000000 0.000000 -60.708740 0.000000 44.000000 -0.417511 0.721155 -0.552830
-8300.00000000 -18980.00000000 220.00000000 38 0 236 0.000000 0.000000 0.000000 0.000000 -60.708740 0.000000 44.000000 -0.458484 0.561852 -0.688560
-8300.00000000 -18970.00000000 200.00000000 38 0 236 0.000000 0.000000 0.000000 0.000000 -60.708740 0.000000 44.000000 -0.729191 0.353992 -0.585637
-8300.00000000 -18970.00000000 150.00000000 38 0 236 0.000000 0.000000 0.000000 0.000000 -60.708740 0.000000 44.000000 0.672497 -0.685276 0.279542
-8280.00000000 -18980.00000000 170.00000000 38 0 236 0.000000 0.000000 0.000000 0.000000 -60.708740 0.000000 44.000000 -0.562144 0.704753 -0.432801
-8330.00000000 -18980.00000000 180.00000000 38 0 236 0.000000 0.000000 0.000000 0.000000 -60.708740 0.000000 44.000000 0.764352 -0.644617 -0.015315
-8300.00000000 -19010.00000000 280.00000000 38 0 236 0.000000 0.000000 0.000000 0.000000 -60.708740 0.000000 44.000000 0.889541 -0.411797 0.197839
-8270.00000000 -19010.00000000 260.00000000 38 0 236 0.000000 0.000000 0.000000 0.000000 -60.708740 0.000000 44.000000 0.795890 -0.556968 0.237371
-8270.00000000 -19000.00000000 240.00000000 38 0 236 0.000000 0.000000 0.000000 0.000000 -60.708740 0.000000 44.000000 -0.780233 0.472033 -0.410393
-8280.00000000 -19000.00000000 260.00000000 38 0 236 0.000000 0.000000 0.000000 0.000000 -60.708740 0.000000 44.000000 -0.531328 0.819194 -0.215900
-8270.00000000 -18990.00000000 250.00000000 38 0 236 0.000000 0.000000 0.000000 0.000000 -60.708740 0.000000 44.000000 0.830504 -0.341972 0.439679
-8280.00000000 -19020.00000000 190.00000000 38 0 236 0.000000 0.000000 0.000000 0.000000 -60.708740 0.000000 44.000000 0.760030 -0.621843 0.188856
-8280.00000000 -19030.00000000 190.00000000 38 0 236 0.000000 0.000000 0.000000 0.000000 -60.708740 0.000000 44.000000 -0.695272 0.704321 -0.143277
-8310.00000000 -19050.00000000 210.00000000 38 0 236 0.000000 0.000000 0.000000 0.000000 -60.708740 0.000000 44.000000 0.915175 0.066044 0.397609
-8310.00000000 -19060.00000000 150.00000000 38 0 236 0.000000 0.000000 0.000000 0.000000 -60.708740 0.000000 44.000000 0.833075 0.006795 0.553118
-8380.00000000 -18920.00000000 310.00000000 38 0 236 0.000000 0.000000 0.000000 0.000000 -60.708740 0.000000 44.000000 0.856870 -0.261185 0.444473
-8350.00000000 -18940.00000000 300.00000000 38 0 236 0.000000 0.000000 0.000000 0.000000 -60.708740 0.000000 44.000000 0.517346 -0.618456 0.591494
-8350.00000000 -18900.00000000 280.00000000 38 0 236 0.000000 0.000000 0.000000 0.000000 -60.708740 0.000000 44.000000 0.497221 -0.460879 0.735093
-8350.00000000 -18980.00000000 300.00000000 38 0 236 0.000000 0.000000 0.000000 0.000000 -60.708740 0.000000 44.000000 0.968570 -0.110730 0.222733
-8370.00000000 -18960.00000000 240.00000000 38 0 236 0.000000 0.000000 0.000000 0.000000 -60.708740 0.000000 44.000000 0.945168 -0.276867 0.173213
-8400.00000000 -18940.00000000 290.00000000 38 0 236 0.000000 0.000000 0.000000 0.000000 -60.708740 0.000000 44.000000 0.650218 -0.719491 0.244029
-8420.00000000 -18930.00000000 260.00000000 38 0 236 0.000000 0.000000 0.000000 0.000000 -60.708740 0.000000 44.000000 0.769967 -0.452825 0.449556
-8400.00000000 -18980.00000000 310.00000000 38 0 236 0.000000 0.000000 0.000000 0.000000 -60.708740 0.000000 44.000000 -0.685629 0.504583 -0.524699
-8400.00000000 -18980.00000000 280.00000000 38 0 236 0.000000 0.000000 0.000000 0.000000 -60.708740 0.000000 44.000000 0.955161 -0.234436 0.180851
-8420.00000000 -18950.00000000 260.00000000 38 0 236 0.000000 0.000000 0.000000 0.000000 -60.708740 0.000000 44.000000 0.972722 -0.085938 0.215468
-8380.00000000 -18930.00000000 210.00000000 38 0 236 0.000000 0.000000 0.000000 0.000000 -60.708740 0.000000 44.000000 -0.772920 0.414936 -0.480024
-8380.00000000 -18970.00000000 190.00000000 38 0 236 0.000000 0.000000 0.000000 0.000000 -60.708740 0.000000 44.000000 -0.540148 0.712996 -0.447076
-8410.00000000 -18930.00000000 230.00000000 38 0 236 0.000000 0.000000 0.000000 0.000000 -60.708740 0.000000 44.000000 0.916146 -0.356516 0.183229
-8420.00000000 -18980.00000000 200.00000000 38 0 236 0.000000 0.000000 0.000000 0.000000 -60.708740 0.000000 44.000000 0.978758 -0.205018 0.001158
-8400.00000000 -18980.00000000 150.00000000 38 0 236 0.000000 0.000000 0.000000 0.000000 -60.708740 0.000000 44.000000 0.873518 -0.398155 0.280071
-8400.00000000 -18950.00000000 180.00000000 38 0 236 0.000000 0.000000 0.000000 0.000000 -60.708740 0.000000 44.000000 0.849732 -0.311104 0.425640
-8410.00000000 -18960.00000000 180.00000000 38 0 236 0.000000 0.000000 0.000000 0.000000 -60.708740 0.000000 44.000000 0.649805 -0.613055 0.449351
-8390.00000000 -18950.00000000 170.00000000 38 0 236 0.000000 0.000000 0.000000 0.000000 -60.708740 0.000000 44.000000 0.741823 -0.477476 0.470867
-8400.00000000 -18950.00000000 180.00000000 38 0 236 0.000000 0.000000 0.000000 0.000000 -60.708740 0.000000 44.000000 0.849732 -0.311104 0.425640
-8380.00000000 -18990.00000000 290.00000000 38 0 236 0.000000 0.000000 0.000000 0.000000 -60.708740 0.000000 44.000000 0.881070 -0.079338 0.466285
-8380.00000000 -18990.00000000 280.00000000 38 0 236 0.000000 0.000000 0.000000 0.000000 -60.708740 0.000000 44.000000 0.759220 -0.595064 0.263596
-8360.00000000 -19020.00000000 270.00000000 38 0 236 0.000000 0.000000 0.000000 0.000000 -60.708740 0.000000 44.000000 0.955968 -0.127550 0.264305
-8350.00000000 -19030.00000000 240.00000000 38 0 236 0.000000 0.000000 0.000000 0.000000 -60.708740 0.000000 44.000000 0.955968 -0.264305 0.127550
-8390.00000000 -19020.00000000 280.00000000 38 0 236 0.000000 0.000000 0.000000 0.000000 -60.708740 0.000000 44.000000 0.820734 -0.530344 0.212443
-8410.00000000 -19060.00000000 300.00000000 38 0 236 0.000000 0.000000 0.000000 0.000000 -60.708740 0.000000 44.000000 0.991372 -0.025706 -0.128532
-8410.00000000 -19060.00000000 300.00000000 38 0 236 0.000000 0.000000 0.000000 0.000000 -60.708740 0.000000 44.000000 0.991372 -0.025706 -0.128532
-8400.00000000 -19060.00000000 260.00000000 38 0 236 0.000000 0.000000 0.000000 0.000000 -60.708740 0.000000 44.000000 0.973463 0.070148 0.217829
-8360.00000000 -19000.00000000 230.00000000 38 0 236 0.000000 0.000000 0.000000 0.000000 -60.708740 0.000000 44.000000 0.616207 -0.514913 0.595948
-8360.00000000 -19010.00000000 210.00000000 38 0 236 0.000000 0.000000 0.000000 0.000000 -60.708740 0.000000 44.000000 0.865747 -0.320250 0.384606
-8370.00000000 -18990.00000000 160.00000000 38 0 236 0.000000 0.000000 0.000000 0.000000 -60.708740 0.000000 44.000000 0.911077 -0.060559 0.407764
-8380.00000000 -19010.00000000 170.00000000 38 0 236 0.000000 0.000000 0.000000 0.000000 -60.708740 0.000000 44.000000 0.976207 -0.123428 0.178286
-8370.00000000 -18990.00000000 160.00000000 38 0 236 0.000000 0.000000 0.000000 0.000000 -60.708740 0.000000 44.000000 0.911077 -0.060559 0.407764
-8370.00000000 -19050.00000000 190.00000000 38 0 236 0.000000 0.000000 0.000000 0.000000 -60.708740 0.000000 44.000000 0.897798 0.001307 0.440405
-8410.00000000 -19000.00000000 170.00000000 38 0 236 0.000000 0.000000 0.000000 0.000000 -60.708740 0.000000 44.000000 0.856776 -0.508401 0.086386
-8400.00000000 -19000.00000000 150.00000000 38 0 236 0.000000 0.000000 0.000000 0.000000 -60.708740 0.000000 44.000000 0.967819 0.053150 0.245972
-8410.00000000 -19010.00000000 170.00000000 38 0 236 0.000000 0.000000 0.000000 0.000000 -60.708740 0.000000 44.000000 0.863168 -0.321572 0.389272
-8270.00000000 -18920.00000000 110.00000000 38 0 236 0.000000 0.000000 0.000000 0.000000 -60.708740 0.000000 44.000000 0.692674 -0.596790 0.405024
-8290.00000000 -18960.00000000 130.00000000 38 0 236 0.000000 0.000000 0.000000 0.000000 -60.708740 0.000000 44.000000 -0.434332 0.887422 -0.154397
-8300.00000000 -18960.00000000 80.00000000 38 0 236 0.000000 0.000000 0.000000 0.000000 -60.708740 0.000000 44.000000 0.464853 -0.708110 0.531499
-8340.00000000 -18960.00000000 80.00000000 38 0 236 0.000000 0.000000 0.000000 0.000000 -60.708740 0.000000 44.000000 0.849895 -0.301875 0.431914
-8340.00000000 -18940.00000000 0.00000000 38 0 236 0.000000 0.000000 0.000000 0.000000 -60.708740 0.000000 44.000000 -0.659396 0.662669 -0.355059
-8330.00000000 -18960.00000000 40.00000000 38 0 236 0.000000 0.000000 0.000000 0.000000 -60.708740 0.000000 44.000000 -0.449983 0.709014 -0.542968
-8330.00000000 -18970.00000000 30.00000000 38 0 236 0.000000 0.000000 0.000000 0.000000 -60.708740 0.000000 44.000000 0.483582 -0.493552 0.722880
-8320.00000000 -18970.00000000 20.00000000 38 0 236 0.000000 0.000000 0.000000 0.000000 -60.708740 0.000000 44.000000 -0.482019 0.777398 -0.404117
-8320.00000000 -18960.00000000 20.00000000 38 0 236 0.000000 0.000000 0.000000 0.000000 -60.708740 0.000000 44.000000 0.592464 -0.538450 0.599215
-8320.00000000 -18970.00000000 0.00000000 38 0 236 0.000000 0.000000 0.000000 0.000000 -60.708740 0.000000 44.000000 0.785889 -0.591317 0.180891
-8330.00000000 -18970.00000000 20.00000000 38 0 236 0.000000 0.000000 0.000000 0.000000 -60.708740 0.000000 44.000000 -0.527871 0.645925 -0.551482
-8330.00000000 -18980.00000000 0.00000000 38 0 236 0.000000 0.000000 0.000000 0.000000 -60.708740 0.000000 44.000000 0.868688 -0.482286 0.113058
-8340.00000000 -18980.00000000 0.00000000 38 0 236 0.000000 0.000000 0.000000 0.000000 -60.708740 0.000000 44.000000 -0.456143 0.849316 -0.265699
-8280.00000000 -19010.00000000 90.00000000 38 0 236 0.000000 0.000000 0.000000 0.000000 -60.708740 0.000000 44.000000 0.785365 -0.331101 0.523043
-8320.00000000 -18990.00000000 120.00000000 38 0 236 0.000000 0.000000 0.000000 0.000000 -60.708740 0.000000 44.000000 -0.582508 0.649655 -0.488501
-8320.00000000 -19000.00000000 70.00000000 38 0 236 0.000000 0.000000 0.000000 0.000000 -60.708740 0.000000 44.000000 0.931068 -0.215512 0.294392
-8320.00000000 -19010.00000000 70.00000000 38 0 236 0.000000 0.000000 0.000000 0.000000 -60.708740 0.000000 44.000000 0.844033 -0.364860 0.393047
-8320.00000000 -19000.00000000 70.00000000 38 0 236 0.000000 0.000000 0.000000 0.000000 -60.708740 0.000000 44.000000 0.931068 -0.215512 0.294392
-8320.00000000 -19000.00000000 70.00000000 38 0 236 0.000000 0.000000 0.000000 0.000000 -60.708740 0.000000 44.000000 0.931068 -0.215512 0.294392
-8320.00000000 -19000.00000000 90.00000000 38 0 236 0.000000 0.000000 0.000000 0.000000 -60.708740 0.000000 44.000000 0.603474 -0.772386 0.198087
-8320.00000000 -19000.00000000 90.00000000 38 0 236 0.000000 0.000000 0.000000 0.000000 -60.708740 0.000000 44.000000 0.603474 -0.772386 0.198087
-8320.00000000 -19000.00000000 80.00000000 38 0 236 0.000000 0.000000 0.000000 0.000000 -60.708740 0.000000 44.000000 0.897457 -0.413660 0.153155
-8300.00000000 -19030.00000000 30.00000000 38 0 236 0.000000 0.000000 0.000000 0.000000 -60.708740 0.000000 44.000000 0.657374 -0.265815 0.705125
-8320.00000000 -19010.00000000 60.00000000 38 0 236 0.000000 0.000000 0.000000 0.000000 -60.708740 0.000000 44.000000 0.865631 -0.370545 0.336720
-8310.00000000 -19020.00000000 0.00000000 38 0 236 0.000000 0.000000 0.000000 0.000000 -60.708740 0.000000 44.000000 0.718160 -0.234149 0.655302
-8310.00000000 -19050.00000000 20.00000000 38 0 236 0.000000 0.000000 0.000000 0.000000 -60.708740 0.000000 44.000000 0.694736 -0.659438 0.287200
-8370.00000000 -18930.00000000 90.00000000 38 0 236 0.000000 0.000000 0.000000 0.000000 -60.708740 0.000000 44.000000 -0.662540 0.491454 -0.565256
-8370.00000000 -18930.00000000 100.00000000 38 0 236 0.000000 0.000000 0.000000 0.000000 -60.708740 0.000000 44.000000 0.785474 -0.558804 0.266022
-8370.00000000 -18930.00000000 80.00000000 38 0 236 0.000000 0.000000 0.000000 0.000000 -60.708740 0.000000 44.000000 -0.379900 0.692371 -0.613431
-8370.00000000 -18940.00000000 90.00000000 38 0 236 0.000000 0.000000 0.000000 0.000000 -60.708740 0.000000 44.000000 0.777575 -0.314543 0.544462
-8400.00000000 -18930.00000000 140.00000000 38 0 236 0.000000 0.000000 0.000000 0.000000 -60.708740 0.000000 44.000000 0.881939 -0.393803 0.259042
-8400.00000000 -18930.00000000 140.00000000 38 0 236 0.000000 0.000000 0.000000 0.000000 -60.708740 0.000000 44.000000 0.881939 -0.393803 0.259042
-8390.00000000 -18940.00000000 100.00000000 38 0 236 0.000000 0.000000 0.000000 0.000000 -60.708740 0.000000 44.000000 0.697649 -0.564446 0.441234
-8410.00000000 -18980.00000000 120.00000000 38 0 236 0.000000 0.000000 0.000000 0.000000 -60.708740 0.000000 44.000000 0.682131 -0.659448 0.315952
-8420.00000000 -18980.00000000 80.00000000 38 0 236 0.000000 0.000000 0.000000 0.000000 -60.708740 0.000000 44.000000 0.843315 -0.515441 0.152122
-8390.00000000 -18960.00000000 70.00000000 38 0 236 0.000000 0.000000 0.000000 0.000000 -60.708740 0.000000 44.000000 0.719739 -0.513624 0.467082
-8360.00000000 -18920.00000000 -10.00000000 38 0 236 0.000000 0.000000 0.000000 0.000000 -60.708740 0.000000 44.000000 -0.441940 0.685424 -0.578691
-8350.00000000 -18940.00000000 10.00000000 38 0 236 0.000000 0.000000 0.000000 0.000000 -60.708740 0.000000 44.000000 0.811923 -0.468722 0.347967
-8400.00000000 -18920.00000000 10.00000000 38 0 236 0.000000 0.000000 0.000000 0.000000 -60.708740 0.000000 44.000000 -0.836559 0.431621 -0.337449
-8400.00000000 -18980.00000000 40.00000000 38 0 236 0.000000 0.000000 0.000000 0.000000 -60.708740 0.000000 44.000000 0.721939 -0.159586 0.673303
-8410.00000000 -18970.00000000 50.00000000 38 0 236 0.000000 0.000000 0.000000 0.000000 -60.708740 0.000000 44.000000 0.628574 -0.574648 0.524093
-8400.00000000 -19000.00000000 130.00000000 38 0 236 0.000000 0.000000 0.000000 0.000000 -60.708740 0.000000 44.000000 0.785947 -0.261982 0.560046
-8420.00000000 -19010.00000000 70.00000000 38 0 236 0.000000 0.000000 0.000000 0.000000 -60.708740 0.000000 44.000000 0.977023 -0.003494 0.213105
-8360.00000000 -19020.00000000 30.00000000 38 0 236 0.000000 0.000000 0.000000 0.000000 -60.708740 0.000000 44.000000 -0.735323 0.674886 -0.061877
-8360.00000000 -19020.00000000 20.00000000 38 0 236 0.000000 0.000000 0.000000 0.000000 -60.708740 0.000000 44.000000 -0.705447 0.683930 -0.185968
-8370.00000000 -19000.00000000 20.00000000 38 0 236 0.000000 0.000000 0.000000 0.000000 -60.708740 0.000000 44.000000 0.751508 -0.331310 0.570500
-8360.00000000 -19030.00000000 20.00000000 38 0 236 0.000000 0.000000 0.000000 0.000000 -60.708740 0.000000 44.000000 0.908004 -0.415664 0.052462
-8420.00000000 -18990.00000000 30.00000000 38 0 236 0.000000 0.000000 0.000000 0.000000 -60.708740 0.000000 44.000000 -0.634460 0.737854 -0.230286
-8420.00000000 -19000.00000000 60.00000000 38 0 236 0.000000 0.000000 0.000000 0.000000 -60.708740 0.000000 44.000000 0.978930 -0.124681 0.161715
-8400.00000000 -19050.00000000 0.00000000 38 0 236 0.000000 0.000000 0.000000 0.000000 -60.708740 0.000000 44.000000 0.888949 -0.251646 0.382680
-8300.00000000 -19090.00000000 290.00000000 38 0 236 0.000000 0.000000 0.000000 0.000000 -60.708740 0.000000 44.000000 0.933053 0.185495 0.308228
-8270.00000000 -19140.00000000 240.00000000 38 0 236 0.000000 0.000000 0.000000 0.000000 -60.708740 0.000000 44.000000 0.682397 0.698012 0.217055
-8270.00000000 -19110.00000000 240.00000000 38 0 236 0.000000 0.000000 0.000000 0.000000 -60.708740 0.000000 44.000000 0.892599 0.084679 0.442829
-8310.00000000 -19080.00000000 300.00000000 38 0 236 0.000000 0.000000 0.000000 0.000000 -60.708740 0.000000 44.000000 0.956016 -0.026107 0.292151
-8310.00000000 -19160.00000000 220.00000000 38 0 236 0.000000 0.000000 0.000000 0.000000 -60.708740 0.000000 44.000000 0.789232 0.573004 -0.220861
-8360.00000000 -19090.00000000 280.00000000 38 0 236 0.000000 0.000000 0.000000 0.000000 -60.708740 0.000000 44.000000 0.894791 0.442629 -0.058563
-8360.00000000 -19070.00000000 300.00000000 38 0 236 0.000000 0.000000 0.000000 0.000000 -60.708740 0.000000 44.000000 0.973519 -0.080405 0.214001
-8400.00000000 -19090.00000000 290.00000000 38 0 236 0.000000 0.000000 0.000000 0.000000 -60.708740 0.000000 44.000000 0.828560 0.542035 0.140309
-8400.00000000 -19090.00000000 290.00000000 38 0 236 0.000000 0.000000 0.000000 0.000000 -60.708740 0.000000 44.000000 0.828560 0.542035 0.140309
-8400.00000000 -19070.00000000 260.00000000 38 0 236 0.000000 0.000000 0.000000 0.000000 -60.708740 0.000000 44.000000 0.830983 -0.006800 0.556256
-8400.00000000 -19070.00000000 260.00000000 38 0 236 0.000000 0.000000 0.000000 0.000000 -60.708740 0.000000 44.000000 0.830983 -0.006800 0.556256
-8350.00000000 -19110.00000000 220.00000000 38 0 236 0.000000 0.000000 0.000000 0.000000 -60.708740 0.000000 44.000000 0.983924 -0.001137 0.178585
-8350.00000000 -19120.00000000 210.00000000 38 0 236 0.000000 0.000000 0.000000 0.000000 -60.708740 0.000000 44.000000 0.998346 0.032612 -0.047340
-8350.00000000 -19120.00000000 210.00000000 38 0 236 0.000000 0.000000 0.000000 0.000000 -60.708740 0.000000 44.000000 0.998346 0.032612 -0.047340
-8350.00000000 -19140.00000000 210.00000000 38 0 236 0.000000 0.000000 0.000000 0.000000 -60.708740 0.000000 44.000000 0.937079 0.306856 0.166500
-8380.00000000 -19110.00000000 160.00000000 38 0 236 0.000000 0.000000 0.000000 0.000000 -60.708740 0.000000 44.000000 0.986943 0.107817 0.119665
-8380.00000000 -19120.00000000 150.00000000 38 0 236 0.000000 0.000000 0.000000 0.000000 -60.708740 0.000000 44.000000 0.856234 0.212177 0.471004
-8400.00000000 -19080.00000000 220.00000000 38 0 236 0.000000 0.000000 0.000000 0.000000 -60.708740 0.000000 44.000000 0.933394 0.328544 0.144339
-8400.00000000 -19090.00000000 170.00000000 38 0 236 0.000000 0.000000 0.000000 0.000000 -60.708740 0.000000 44.000000 0.845994 -0.252421 0.469657
-8400.00000000 -19120.00000000 200.00000000 38 0 236 0.000000 0.000000 0.000000 0.000000 -60.708740 0.000000 44.000000 0.973168 0.005898 0.230021
-8400.00000000 -19120.00000000 200.00000000 38 0 236 0.000000 0.000000 0.000000 0.000000 -60.708740 0.000000 44.000000 0.973168 0.005898 0.230021
-8290.00000000 -19100.00000000 120.00000000 38 0 236 0.000000 0.000000 0.000000 0.000000 -60.708740 0.000000 44.000000 0.830309 -0.165466 0.532173
-8300.00000000 -19070.00000000 70.00000000 38 0 236 0.000000 0.000000 0.000000 0.000000 -60.708740 0.000000 44.000000 0.891379 -0.050353 0.450453
-8300.00000000 -19070.00000000 30.00000000 38 0 236 0.000000 0.000000 0.000000 0.000000 -60.708740 0.000000 44.000000 0.929482 -0.363595 -0.062142
