//X Y Z R G B PointSourceId ScanDirectionFlag NumberOfReturns ReturnNumber GpsTime Intensity Classification Nx Ny Nz
30.00000000 3690.00000000 -450.00000000 244 231 18 97.000000 1.000000 4.000000 1.000000 -60.708740 114.000000 149.000000 0.989919 0.137205 -0.035152
20.00000000 3710.00000000 -470.00000000 244 231 18 97.000000 1.000000 4.000000 1.000000 -60.708740 114.000000 149.000000 0.986312 -0.010215 0.164574
20.00000000 3710.00000000 -470.00000000 244 231 18 97.000000 1.000000 4.000000 1.000000 -60.708740 114.000000 149.000000 0.986312 -0.010215 0.164574
20.00000000 3700.00000000 -490.00000000 244 231 18 97.000000 1.000000 4.000000 1.000000 -60.708740 114.000000 149.000000 0.946330 0.263552 0.187081
30.00000000 3700.00000000 -520.00000000 244 231 18 97.000000 1.000000 4.000000 1.000000 -60.708740 114.000000 149.000000 0.977026 -0.046868 0.207903
20.00000000 3710.00000000 -520.00000000 244 231 18 97.000000 1.000000 4.000000 1.000000 -60.708740 114.000000 149.000000 0.976243 0.034652 -0.213889
140.00000000 3770.00000000 -540.00000000 244 231 18 97.000000 1.000000 4.000000 1.000000 -60.708740 114.000000 149.000000 0.973381 -0.158222 0.165817
110.00000000 3780.00000000 -540.00000000 244 231 18 97.000000 1.000000 4.000000 1.000000 -60.708740 114.000000 149.000000 0.997220 -0.003146 -0.074451
110.00000000 3780.00000000 -540.00000000 244 231 18 97.000000 1.000000 4.000000 1.000000 -60.708740 114.000000 149.000000 0.997220 -0.003146 -0.074451
120.00000000 3750.00000000 -530.00000000 244 231 18 97.000000 1.000000 4.000000 1.000000 -60.708740 114.000000 149.000000 0.947035 -0.313080 -0.071450
120.00000000 3750.00000000 -530.00000000 244 231 18 97.000000 1.000000 4.000000 1.000000 -60.708740 114.000000 149.000000 0.947035 -0.313080 -0.071450
90.00000000 3740.00000000 -550.00000000 244 231 18 97.000000 1.000000 4.000000 1.000000 -60.708740 114.000000 149.000000 0.986793 -0.091216 0.133863
90.00000000 3740.00000000 -550.00000000 244 231 18 97.000000 1.000000 4.000000 1.000000 -60.708740 114.000000 149.000000 0.986793 -0.091216 0.133863
90.00000000 3750.00000000 -540.00000000 244 231 18 97.000000 1.000000 4.000000 1.000000 -60.708740 114.000000 149.000000 0.904339 -0.391259 -0.170549
90.00000000 3740.00000000 -540.00000000 244 231 18 97.000000 1.000000 4.000000 1.000000 -60.708740 114.000000 149.000000 0.950137 -0.087564 -0.299287
80.00000000 3690.00000000 -640.00000000 244 231 18 97.000000 1.000000 4.000000 1.000000 -60.708740 114.000000 149.000000 0.970337 -0.017991 -0.241085
80.00000000 3690.00000000 -640.00000000 244 231 18 97.000000 1.000000 4.000000 1.000000 -60.708740 114.000000 149.000000 0.970337 -0.017991 -0.241085
60.00000000 3690.00000000 -560.00000000 244 231 18 97.000000 1.000000 4.000000 1.000000 -60.708740 114.000000 149.000000 0.853039 -0.511823 -0.101791
10.00000000 3700.00000000 -550.00000000 244 231 18 97.000000 1.000000 4.000000 1.000000 -60.708740 114.000000 149.000000 0.906890 -0.412971 -0.083692
20.00000000 3700.00000000 -570.00000000 244 231 18 97.000000 1.000000 4.000000 1.000000 -60.708740 114.000000 149.000000 0.995726 0.033735 -0.085970
60.00000000 3730.00000000 -630.00000000 244 231 18 97.000000 1.000000 4.000000 1.000000 -60.708740 114.000000 149.000000 0.896434 -0.435095 -0.084256
60.00000000 3720.00000000 -640.00000000 244 231 18 97.000000 1.000000 4.000000 1.000000 -60.708740 114.000000 149.000000 0.923508 -0.368035 -0.108085
50.00000000 3720.00000000 -640.00000000 244 231 18 97.000000 1.000000 4.000000 1.000000 -60.708740 114.000000 149.000000 0.844930 -0.532096 0.054467
60.00000000 3730.00000000 -630.00000000 244 231 18 97.000000 1.000000 4.000000 1.000000 -60.708740 114.000000 149.000000 0.896434 -0.435095 -0.084256
60.00000000 3720.00000000 -640.00000000 244 231 18 97.000000 1.000000 4.000000 1.000000 -60.708740 114.000000 149.000000 0.923508 -0.368035 -0.108085
40.00000000 3680.00000000 -640.00000000 244 231 18 97.000000 1.000000 4.000000 1.000000 -60.708740 114.000000 149.000000 0.882225 -0.460108 -0.099901
60.00000000 3700.00000000 -610.00000000 244 231 18 97.000000 1.000000 4.000000 1.000000 -60.708740 114.000000 149.000000 0.887691 -0.450156 0.096763
40.00000000 3680.00000000 -630.00000000 244 231 18 97.000000 1.000000 4.000000 1.000000 -60.708740 114.000000 149.000000 0.960749 -0.151144 -0.232630
40.00000000 3700.00000000 -680.00000000 244 231 18 97.000000 1.000000 4.000000 1.000000 -60.708740 114.000000 149.000000 0.958338 -0.267714 -0.099584
40.00000000 3710.00000000 -680.00000000 244 231 18 97.000000 1.000000 4.000000 1.000000 -60.708740 114.000000 149.000000 -0.608734 0.728220 0.314862
30.00000000 3700.00000000 -650.00000000 244 231 18 97.000000 1.000000 4.000000 1.000000 -60.708740 114.000000 149.000000 0.869060 -0.400285 -0.290701
30.00000000 3700.00000000 -650.00000000 244 231 18 97.000000 1.000000 4.000000 1.000000 -60.708740 114.000000 149.000000 0.869060 -0.400285 -0.290701
20.00000000 3690.00000000 -660.00000000 244 231 18 97.000000 1.000000 4.000000 1.000000 -60.708740 114.000000 149.000000 0.867558 -0.393232 -0.304487
30.00000000 3680.00000000 -680.00000000 244 231 18 97.000000 1.000000 4.000000 1.000000 -60.708740 114.000000 149.000000 0.922660 -0.268332 -0.276941
-170.00000000 3870.00000000 -350.00000000 244 231 18 97.000000 1.000000 4.000000 1.000000 -60.708740 114.000000 149.000000 0.345169 0.469239 0.812818
-60.00000000 3830.00000000 -340.00000000 244 231 18 97.000000 1.000000 4.000000 1.000000 -60.708740 114.000000 149.000000 0.557877 0.396603 0.729026
-330.00000000 3690.00000000 -190.00000000 244 231 18 97.000000 1.000000 4.000000 1.000000 -60.708740 114.000000 149.000000 -0.626715 0.532117 0.569280
-320.00000000 3680.00000000 -290.00000000 244 231 18 97.000000 1.000000 4.000000 1.000000 -60.708740 114.000000 149.000000 0.822690 -0.470333 -0.319323
-80.00000000 3890.00000000 -380.00000000 244 231 18 97.000000 1.000000 4.000000 1.000000 -60.708740 114.000000 149.000000 0.405056 0.401880 0.821232
-50.00000000 3880.00000000 -410.00000000 244 231 18 97.000000 1.000000 4.000000 1.000000 -60.708740 114.000000 149.000000 0.792568 0.418075 0.443902
-60.00000000 3880.00000000 -400.00000000 244 231 18 97.000000 1.000000 4.000000 1.000000 -60.708740 114.000000 149.000000 0.399823 0.856764 0.325725
-90.00000000 3840.00000000 -400.00000000 244 231 18 97.000000 1.000000 4.000000 1.000000 -60.708740 114.000000 149.000000 0.480396 0.544003 0.687954
-130.00000000 3890.00000000 -370.00000000 244 231 18 97.000000 1.000000 4.000000 1.000000 -60.708740 114.000000 149.000000 0.318631 0.803711 0.502517
-100.00000000 3900.00000000 -390.00000000 244 231 18 97.000000 1.000000 4.000000 1.000000 -60.708740 114.000000 149.000000 0.246570 0.814147 0.525707
-120.00000000 3880.00000000 -360.00000000 244 231 18 97.000000 1.000000 4.000000 1.000000 -60.708740 114.000000 149.000000 0.426343 0.875126 0.228879
-120.00000000 3880.00000000 -410.00000000 244 231 18 97.000000 1.000000 4.000000 1.000000 -60.708740 114.000000 149.000000 0.543353 0.513073 0.664472
-140.00000000 3890.00000000 -380.00000000 244 231 18 97.000000 1.000000 4.000000 1.000000 -60.708740 114.000000 149.000000 0.103989 0.864673 0.491453
-140.00000000 3890.00000000 -440.00000000 244 231 18 97.000000 1.000000 4.000000 1.000000 -60.708740 114.000000 149.000000 0.596374 0.646772 0.475419
-150.00000000 3900.00000000 -410.00000000 244 231 18 97.000000 1.000000 4.000000 1.000000 -60.708740 114.000000 149.000000 0.050473 0.888043 0.456981
-150.00000000 3850.00000000 -410.00000000 244 231 18 97.000000 1.000000 4.000000 1.000000 -60.708740 114.000000 149.000000 0.198657 0.608292 0.768450
-70.00000000 3820.00000000 -410.00000000 244 231 18 97.000000 1.000000 4.000000 1.000000 -60.708740 114.000000 149.000000 0.942640 0.179747 0.281283
-130.00000000 3830.00000000 -400.00000000 244 231 18 97.000000 1.000000 4.000000 1.000000 -60.708740 114.000000 149.000000 0.503242 0.600861 0.621058
-130.00000000 3830.00000000 -400.00000000 244 231 18 97.000000 1.000000 4.000000 1.000000 -60.708740 114.000000 149.000000 0.503242 0.600861 0.621058
-150.00000000 3680.00000000 -690.00000000 244 231 18 97.000000 1.000000 4.000000 1.000000 -60.708740 114.000000 149.000000 -0.479291 0.542751 0.689711
-330.00000000 3680.00000000 -490.00000000 244 231 18 97.000000 1.000000 4.000000 1.000000 -60.708740 114.000000 149.000000 0.794258 0.210471 0.569961
-250.00000000 3690.00000000 -650.00000000 244 231 18 97.000000 1.000000 4.000000 1.000000 -60.708740 114.000000 149.000000 0.240153 0.445567 0.862436
-290.00000000 3690.00000000 -620.00000000 244 231 18 97.000000 1.000000 4.000000 1.000000 -60.708740 114.000000 149.000000 0.766228 0.608974 0.205047
-300.00000000 3700.00000000 -630.00000000 244 231 18 97.000000 1.000000 4.000000 1.000000 -60.708740 114.000000 149.000000 0.873724 0.318688 0.367483
-320.00000000 3690.00000000 -610.00000000 244 231 18 97.000000 1.000000 4.000000 1.000000 -60.708740 114.000000 149.000000 0.828989 0.486817 0.275293
20.00000000 3680.00000000 -710.00000000 244 231 18 97.000000 1.000000 4.000000 1.000000 -60.708740 114.000000 149.000000 -0.869041 0.226641 0.439774
-20.00000000 3710.00000000 -720.00000000 244 231 18 97.000000 1.000000 4.000000 1.000000 -60.708740 114.000000 149.000000 0.678789 -0.419886 -0.602446
-110.00000000 3700.00000000 -750.00000000 244 231 18 97.000000 1.000000 4.000000 1.000000 -60.708740 114.000000 149.000000 -0.451946 0.558679 0.695430
-250.00000000 3800.00000000 -1010.00000000 244 231 18 97.000000 1.000000 4.000000 1.000000 -60.708740 114.000000 149.000000 0.577635 0.664699 0.473828
-250.00000000 3750.00000000 -1010.00000000 244 231 18 97.000000 1.000000 4.000000 1.000000 -60.708740 114.000000 149.000000 0.287999 0.583955 0.758982
-270.00000000 3800.00000000 -1010.00000000 244 231 18 97.000000 1.000000 4.000000 1.000000 -60.708740 114.000000 149.000000 0.159256 0.644606 0.747743
-270.00000000 3790.00000000 -990.00000000 244 231 18 97.000000 1.000000 4.000000 1.000000 -60.708740 114.000000 149.000000 0.319569 0.438044 0.840234
-270.00000000 3740.00000000 -1010.00000000 244 231 18 97.000000 1.000000 4.000000 1.000000 -60.708740 114.000000 149.000000 0.465363 0.384850 0.797075
-280.00000000 3750.00000000 -1000.00000000 244 231 18 97.000000 1.000000 4.000000 1.000000 -60.708740 114.000000 149.000000 0.413037 0.788820 0.455151
-300.00000000 3840.00000000 -1130.00000000 244 231 18 97.000000 1.000000 4.000000 1.000000 -60.708740 114.000000 149.000000 0.544026 0.799672 0.254087
-300.00000000 3880.00000000 -1160.00000000 244 231 18 97.000000 1.000000 4.000000 1.000000 -60.708740 114.000000 149.000000 0.321981 0.847727 0.421530
-320.00000000 3880.00000000 -1190.00000000 244 231 18 97.000000 1.000000 4.000000 1.000000 -60.708740 114.000000 149.000000 0.367401 0.819098 0.440563
-340.00000000 3840.00000000 -1200.00000000 244 231 18 97.000000 1.000000 4.000000 1.000000 -60.708740 114.000000 149.000000 0.367921 0.721125 0.587038
-340.00000000 3850.00000000 -1200.00000000 244 231 18 97.000000 1.000000 4.000000 1.000000 -60.708740 114.000000 149.000000 0.494414 0.779716 0.384184
-240.00000000 3740.00000000 -1050.00000000 244 231 18 97.000000 1.000000 4.000000 1.000000 -60.708740 114.000000 149.000000 0.362900 0.743701 0.561437
-290.00000000 3800.00000000 -1100.00000000 244 231 18 97.000000 1.000000 4.000000 1.000000 -60.708740 114.000000 149.000000 0.383957 0.875664 0.292900
-330.00000000 3800.00000000 -1050.00000000 244 231 18 97.000000 1.000000 4.000000 1.000000 -60.708740 114.000000 149.000000 0.619126 0.694669 0.366220
-290.00000000 3790.00000000 -1160.00000000 244 231 18 97.000000 1.000000 4.000000 1.000000 -60.708740 114.000000 149.000000 0.165728 0.464918 0.869704
-320.00000000 3780.00000000 -1170.00000000 244 231 18 97.000000 1.000000 4.000000 1.000000 -60.708740 114.000000 149.000000 0.166029 0.890783 0.423014
-300.00000000 3750.00000000 -1050.00000000 244 231 18 97.000000 1.000000 4.000000 1.000000 -60.708740 114.000000 149.000000 0.365289 0.530887 0.764672
-280.00000000 3680.00000000 -1040.00000000 244 231 18 97.000000 1.000000 4.000000 1.000000 -60.708740 114.000000 149.000000 0.569423 0.586320 0.576182
-260.00000000 3710.00000000 -1040.00000000 244 231 18 97.000000 1.000000 4.000000 1.000000 -60.708740 114.000000 149.000000 -0.003966 0.887167 0.461432
-340.00000000 3700.00000000 -1100.00000000 244 231 18 97.000000 1.000000 4.000000 1.000000 -60.708740 114.000000 149.000000 0.336038 0.612011 0.715906
-330.00000000 3700.00000000 -1110.00000000 244 231 18 97.000000 1.000000 4.000000 1.000000 -60.708740 114.000000 149.000000 0.520171 0.352685 0.777840
-290.00000000 3740.00000000 -1160.00000000 244 231 18 97.000000 1.000000 4.000000 1.000000 -60.708740 114.000000 149.000000 0.343933 0.607996 0.715577
-270.00000000 3720.00000000 -1180.00000000 244 231 18 97.000000 1.000000 4.000000 1.000000 -60.708740 114.000000 149.000000 0.283072 0.689288 0.666898
-280.00000000 3710.00000000 -1160.00000000 244 231 18 97.000000 1.000000 4.000000 1.000000 -60.708740 114.000000 149.000000 0.261038 0.605925 0.751474
-330.00000000 3700.00000000 -1120.00000000 244 231 18 97.000000 1.000000 4.000000 1.000000 -60.708740 114.000000 149.000000 0.510737 0.691589 0.510737
-340.00000000 3800.00000000 -1220.00000000 244 231 18 97.000000 1.000000 4.000000 1.000000 -60.708740 114.000000 149.000000 0.343511 0.460654 0.818412
-270.00000000 3800.00000000 -1200.00000000 244 231 18 97.000000 1.000000 4.000000 1.000000 -60.708740 114.000000 149.000000 0.486051 0.764261 0.423862
210.00000000 3650.00000000 -550.00000000 244 231 18 97.000000 1.000000 4.000000 1.000000 -60.708740 114.000000 149.000000 0.857729 -0.514100 0.001342
220.00000000 3650.00000000 -590.00000000 244 231 18 97.000000 1.000000 4.000000 1.000000 -60.708740 114.000000 149.000000 0.906464 -0.312929 -0.283546
220.00000000 3660.00000000 -590.00000000 244 231 18 97.000000 1.000000 4.000000 1.000000 -60.708740 114.000000 149.000000 0.841437 -0.504260 -0.194178
200.00000000 3660.00000000 -530.00000000 244 231 18 97.000000 1.000000 4.000000 1.000000 -60.708740 114.000000 149.000000 0.959042 0.051670 -0.278513
200.00000000 3670.00000000 -560.00000000 244 231 18 97.000000 1.000000 4.000000 1.000000 -60.708740 114.000000 149.000000 0.996381 0.011722 -0.084186
200.00000000 3670.00000000 -550.00000000 244 231 18 97.000000 1.000000 4.000000 1.000000 -60.708740 114.000000 149.000000 0.937633 -0.040092 0.345308
180.00000000 3650.00000000 -590.00000000 244 231 18 97.000000 1.000000 4.000000 1.000000 -60.708740 114.000000 149.000000 0.793876 -0.572758 0.204227
180.00000000 3610.00000000 -600.00000000 244 231 18 97.000000 1.000000 4.000000 1.000000 -60.708740 114.000000 149.000000 0.984984 -0.050362 -0.165140
190.00000000 3620.00000000 -580.00000000 244 231 18 97.000000 1.000000 4.000000 1.000000 -60.708740 114.000000 149.000000 0.921575 -0.330858 -0.203059
190.00000000 3610.00000000 -580.00000000 244 231 18 97.000000 1.000000 4.000000 1.000000 -60.708740 114.000000 149.000000 0.749613 -0.543837 -0.377256
180.00000000 3610.00000000 -590.00000000 244 231 18 97.000000 1.000000 4.000000 1.000000 -60.708740 114.000000 149.000000 0.964077 -0.103706 -0.244540
190.00000000 3610.00000000 -580.00000000 244 231 18 97.000000 1.000000 4.000000 1.000000 -60.708740 114.000000 149.000000 0.749613 -0.543837 -0.377256
180.00000000 3610.00000000 -600.00000000 244 231 18 97.000000 1.000000 4.000000 1.000000 -60.708740 114.000000 149.000000 0.984984 -0.050362 -0.165140
180.00000000 3600.00000000 -590.00000000 244 231 18 97.000000 1.000000 4.000000 1.000000 -60.708740 114.000000 149.000000 0.962949 -0.232615 -0.136450
180.00000000 3610.00000000 -600.00000000 244 231 18 97.000000 1.000000 4.000000 1.000000 -60.708740 114.000000 149.000000 0.984984 -0.050362 -0.165140
190.00000000 3620.00000000 -580.00000000 244 231 18 97.000000 1.000000 4.000000 1.000000 -60.708740 114.000000 149.000000 0.921575 -0.330858 -0.203059
190.00000000 3610.00000000 -590.00000000 244 231 18 97.000000 1.000000 4.000000 1.000000 -60.708740 114.000000 149.000000 -0.705432 0.699492 0.114354
190.00000000 3610.00000000 -570.00000000 244 231 18 97.000000 1.000000 4.000000 1.000000 -60.708740 114.000000 149.000000 0.889219 -0.222673 -0.399632
190.00000000 3610.00000000 -590.00000000 244 231 18 97.000000 1.000000 4.000000 1.000000 -60.708740 114.000000 149.000000 -0.705432 0.699492 0.114354
170.00000000 3600.00000000 -610.00000000 244 231 18 97.000000 1.000000 4.000000 1.000000 -60.708740 114.000000 149.000000 0.728870 -0.679207 0.086179
170.00000000 3620.00000000 -640.00000000 244 231 18 97.000000 1.000000 4.000000 1.000000 -60.708740 114.000000 149.000000 0.826330 -0.554263 -0.099854
170.00000000 3610.00000000 -610.00000000 244 231 18 97.000000 1.000000 4.000000 1.000000 -60.708740 114.000000 149.000000 0.932253 -0.238352 -0.272201
170.00000000 3600.00000000 -630.00000000 244 231 18 97.000000 1.000000 4.000000 1.000000 -60.708740 114.000000 149.000000 0.976656 -0.211589 -0.037058
170.00000000 3600.00000000 -620.00000000 244 231 18 97.000000 1.000000 4.000000 1.000000 -60.708740 114.000000 149.000000 0.739433 -0.398408 -0.542688
180.00000000 3620.00000000 -610.00000000 244 231 18 97.000000 1.000000 4.000000 1.000000 -60.708740 114.000000 149.000000 0.798244 -0.464170 -0.383864
180.00000000 3570.00000000 -630.00000000 244 231 18 97.000000 1.000000 4.000000 1.000000 -60.708740 114.000000 149.000000 0.986699 -0.069386 -0.147005
170.00000000 3560.00000000 -630.00000000 244 231 18 97.000000 1.000000 4.000000 1.000000 -60.708740 114.000000 149.000000 -0.585562 0.720060 0.372332
10.00000000 3670.00000000 -410.00000000 244 231 18 97.000000 1.000000 4.000000 1.000000 -60.708740 114.000000 149.000000 0.903801 0.316994 0.287506
150.00000000 3590.00000000 -630.00000000 244 231 18 97.000000 1.000000 4.000000 1.000000 -60.708740 114.000000 149.000000 0.860399 -0.128698 -0.493103
160.00000000 3610.00000000 -640.00000000 244 231 18 97.000000 1.000000 4.000000 1.000000 -60.708740 114.000000 149.000000 -0.729191 0.585637 0.353992
160.00000000 3580.00000000 -630.00000000 244 231 18 97.000000 1.000000 4.000000 1.000000 -60.708740 114.000000 149.000000 0.863309 -0.227504 -0.450488
150.00000000 3580.00000000 -640.00000000 244 231 18 97.000000 1.000000 4.000000 1.000000 -60.708740 114.000000 149.000000 0.911536 -0.118291 -0.393839
160.00000000 3580.00000000 -630.00000000 244 231 18 97.000000 1.000000 4.000000 1.000000 -60.708740 114.000000 149.000000 0.863309 -0.227504 -0.450488
150.00000000 3570.00000000 -670.00000000 244 231 18 97.000000 1.000000 4.000000 1.000000 -60.708740 114.000000 149.000000 0.919144 -0.272713 -0.284256
150.00000000 3570.00000000 -670.00000000 244 231 18 97.000000 1.000000 4.000000 1.000000 -60.708740 114.000000 149.000000 0.919144 -0.272713 -0.284256
150.00000000 3570.00000000 -680.00000000 244 231 18 97.000000 1.000000 4.000000 1.000000 -60.708740 114.000000 149.000000 0.907456 -0.401294 -0.124443
160.00000000 3580.00000000 -670.00000000 244 231 18 97.000000 1.000000 4.000000 1.000000 -60.708740 114.000000 149.000000 0.857179 -0.511520 -0.059933
150.00000000 3570.00000000 -690.00000000 244 231 18 97.000000 1.000000 4.000000 1.000000 -60.708740 114.000000 149.000000 0.912450 -0.387058 -0.132745
130.00000000 3550.00000000 -690.00000000 244 231 18 97.000000 1.000000 4.000000 1.000000 -60.708740 114.000000 149.000000 0.809894 -0.586380 -0.015177
130.00000000 3550.00000000 -680.00000000 244 231 18 97.000000 1.000000 4.000000 1.000000 -60.708740 114.000000 149.000000 0.921516 -0.312887 -0.230022
150.00000000 3580.00000000 -690.00000000 244 231 18 97.000000 1.000000 4.000000 1.000000 -60.708740 114.000000 149.000000 0.878142 -0.474335 0.062231
90.00000000 3550.00000000 -650.00000000 244 231 18 97.000000 1.000000 4.000000 1.000000 -60.708740 114.000000 149.000000 -0.586610 0.459594 0.666830
110.00000000 3570.00000000 -660.00000000 244 231 18 97.000000 1.000000 4.000000 1.000000 -60.708740 114.000000 149.000000 -0.497603 0.675199 0.544515
30.00000000 3670.00000000 -590.00000000 244 231 18 97.000000 1.000000 4.000000 1.000000 -60.708740 114.000000 149.000000 0.938947 -0.289013 0.186683
60.00000000 3670.00000000 -650.00000000 244 231 18 97.000000 1.000000 4.000000 1.000000 -60.708740 114.000000 149.000000 0.721192 -0.689396 -0.067928
40.00000000 3660.00000000 -630.00000000 244 231 18 97.000000 1.000000 4.000000 1.000000 -60.708740 114.000000 149.000000 -0.707059 0.704179 -0.064802
40.00000000 3670.00000000 -630.00000000 244 231 18 97.000000 1.000000 4.000000 1.000000 -60.708740 114.000000 149.000000 0.972020 -0.216421 -0.091322
60.00000000 3670.00000000 -660.00000000 244 231 18 97.000000 1.000000 4.000000 1.000000 -60.708740 114.000000 149.000000 0.732641 -0.579259 -0.357346
60.00000000 3670.00000000 -660.00000000 244 231 18 97.000000 1.000000 4.000000 1.000000 -60.708740 114.000000 149.000000 0.732641 -0.579259 -0.357346
30.00000000 3650.00000000 -690.00000000 244 231 18 97.000000 1.000000 4.000000 1.000000 -60.708740 114.000000 149.000000 0.869691 -0.489635 0.062418
10.00000000 3660.00000000 -680.00000000 244 231 18 97.000000 1.000000 4.000000 1.000000 -60.708740 114.000000 149.000000 0.767790 -0.538261 -0.347526
10.00000000 3250.00000000 -350.00000000 244 231 18 97.000000 1.000000 4.000000 1.000000 -60.708740 114.000000 149.000000 -0.441589 0.850867 0.284648
10.00000000 3250.00000000 -350.00000000 244 231 18 97.000000 1.000000 4.000000 1.000000 -60.708740 114.000000 149.000000 -0.441589 0.850867 0.284648
20.00000000 3240.00000000 -320.00000000 244 231 18 97.000000 1.000000 4.000000 1.000000 -60.708740 114.000000 149.000000 0.708247 -0.693273 -0.133264
-170.00000000 3620.00000000 -90.00000000 244 231 18 97.000000 1.000000 4.000000 1.000000 -60.708740 114.000000 149.000000 0.318688 0.873724 0.367483
-130.00000000 3630.00000000 -330.00000000 244 231 18 97.000000 1.000000 4.000000 1.000000 -60.708740 114.000000 149.000000 0.847307 0.057421 0.527991
-130.00000000 3640.00000000 -330.00000000 244 231 18 97.000000 1.000000 4.000000 1.000000 -60.708740 114.000000 149.000000 0.957110 0.289700 -0.003667
-120.00000000 3580.00000000 -330.00000000 244 231 18 97.000000 1.000000 4.000000 1.000000 -60.708740 114.000000 149.000000 0.966693 -0.237545 -0.095272
-120.00000000 3580.00000000 -330.00000000 244 231 18 97.000000 1.000000 4.000000 1.000000 -60.708740 114.000000 149.000000 0.966693 -0.237545 -0.095272
-50.00000000 3450.00000000 -60.00000000 244 231 18 97.000000 1.000000 4.000000 1.000000 -60.708740 114.000000 149.000000 0.839279 -0.037455 0.542410
-50.00000000 3420.00000000 -60.00000000 244 231 18 97.000000 1.000000 4.000000 1.000000 -60.708740 114.000000 149.000000 0.950727 -0.262223 0.165402
-90.00000000 3420.00000000 -60.00000000 244 231 18 97.000000 1.000000 4.000000 1.000000 -60.708740 114.000000 149.000000 0.987787 -0.152231 -0.033193
-40.00000000 3380.00000000 -20.00000000 244 231 18 97.000000 1.000000 4.000000 1.000000 -60.708740 114.000000 149.000000 0.961149 0.229469 0.153417
-40.00000000 3400.00000000 -50.00000000 244 231 18 97.000000 1.000000 4.000000 1.000000 -60.708740 114.000000 149.000000 0.914192 -0.399875 -0.065973
-60.00000000 3390.00000000 -50.00000000 244 231 18 97.000000 1.000000 4.000000 1.000000 -60.708740 114.000000 149.000000 0.983477 -0.012653 0.180592
-70.00000000 3390.00000000 -30.00000000 244 231 18 97.000000 1.000000 4.000000 1.000000 -60.708740 114.000000 149.000000 0.995910 0.090344 -0.001063
-60.00000000 3390.00000000 -50.00000000 244 231 18 97.000000 1.000000 4.000000 1.000000 -60.708740 114.000000 149.000000 0.983477 -0.012653 0.180592
-70.00000000 3390.00000000 -20.00000000 244 231 18 97.000000 1.000000 4.000000 1.000000 -60.708740 114.000000 149.000000 0.978790 -0.149726 0.139827
-60.00000000 3410.00000000 -60.00000000 244 231 18 97.000000 1.000000 4.000000 1.000000 -60.708740 114.000000 149.000000 0.876892 -0.053687 0.477679
-90.00000000 3410.00000000 -60.00000000 244 231 18 97.000000 1.000000 4.000000 1.000000 -60.708740 114.000000 149.000000 0.968755 -0.008382 0.247877
-60.00000000 3390.00000000 -50.00000000 244 231 18 97.000000 1.000000 4.000000 1.000000 -60.708740 114.000000 149.000000 0.983477 -0.012653 0.180592
-90.00000000 3410.00000000 -50.00000000 244 231 18 97.000000 1.000000 4.000000 1.000000 -60.708740 114.000000 149.000000 0.992982 -0.014264 0.117402
-90.00000000 3410.00000000 -60.00000000 244 231 18 97.000000 1.000000 4.000000 1.000000 -60.708740 114.000000 149.000000 0.968755 -0.008382 0.247877
-70.00000000 3390.00000000 -100.00000000 244 231 18 97.000000 1.000000 4.000000 1.000000 -60.708740 114.000000 149.000000 0.874443 -0.366506 -0.317841
-70.00000000 3410.00000000 -90.00000000 244 231 18 97.000000 1.000000 4.000000 1.000000 -60.708740 114.000000 149.000000 0.918787 -0.164622 -0.358791
-90.00000000 3390.00000000 -90.00000000 244 231 18 97.000000 1.000000 4.000000 1.000000 -60.708740 114.000000 149.000000 0.990325 0.136325 -0.025913
-90.00000000 3410.00000000 -70.00000000 244 231 18 97.000000 1.000000 4.000000 1.000000 -60.708740 114.000000 149.000000 0.979144 0.154342 0.132117
-70.00000000 3400.00000000 -90.00000000 244 231 18 97.000000 1.000000 4.000000 1.000000 -60.708740 114.000000 149.000000 0.964796 0.249757 0.082407
-70.00000000 3410.00000000 -100.00000000 244 231 18 97.000000 1.000000 4.000000 1.000000 -60.708740 114.000000 149.000000 0.985510 0.130207 -0.108705
-90.00000000 3390.00000000 -90.00000000 244 231 18 97.000000 1.000000 4.000000 1.000000 -60.708740 114.000000 149.000000 0.990325 0.136325 -0.025913
-80.00000000 3360.00000000 -20.00000000 244 231 18 97.000000 1.000000 4.000000 1.000000 -60.708740 114.000000 149.000000 0.902273 -0.422898 0.084028
-80.00000000 3360.00000000 -40.00000000 244 231 18 97.000000 1.000000 4.000000 1.000000 -60.708740 114.000000 149.000000 0.880723 -0.218324 0.420311
-90.00000000 3360.00000000 -40.00000000 244 231 18 97.000000 1.000000 4.000000 1.000000 -60.708740 114.000000 149.000000 0.893418 -0.256321 0.368924
-70.00000000 3340.00000000 -60.00000000 244 231 18 97.000000 1.000000 4.000000 1.000000 -60.708740 114.000000 149.000000 0.875929 -0.472522 0.097325
-70.00000000 3360.00000000 -50.00000000 244 231 18 97.000000 1.000000 4.000000 1.000000 -60.708740 114.000000 149.000000 0.964763 -0.001201 0.263117
-90.00000000 3350.00000000 -20.00000000 244 231 18 97.000000 1.000000 4.000000 1.000000 -60.708740 114.000000 149.000000 0.891809 -0.435271 0.123350
-60.00000000 3350.00000000 -80.00000000 244 231 18 97.000000 1.000000 4.000000 1.000000 -60.708740 114.000000 149.000000 0.995481 0.090300 -0.029375
-70.00000000 3390.00000000 -140.00000000 244 231 18 97.000000 1.000000 4.000000 1.000000 -60.708740 114.000000 149.000000 0.949675 -0.101422 0.296362
-70.00000000 3400.00000000 -110.00000000 244 231 18 97.000000 1.000000 4.000000 1.000000 -60.708740 114.000000 149.000000 0.982351 0.167542 0.083168
-90.00000000 3400.00000000 -180.00000000 244 231 18 97.000000 1.000000 4.000000 1.000000 -60.708740 114.000000 149.000000 0.913437 -0.406977 0.001292
-90.00000000 3410.00000000 -150.00000000 244 231 18 97.000000 1.000000 4.000000 1.000000 -60.708740 114.000000 149.000000 0.969794 0.078632 -0.230903
-60.00000000 3370.00000000 -170.00000000 244 231 18 97.000000 1.000000 4.000000 1.000000 -60.708740 114.000000 149.000000 0.987042 -0.098349 -0.126787
-100.00000000 3490.00000000 -80.00000000 244 231 18 97.000000 1.000000 4.000000 1.000000 -60.708740 114.000000 149.000000 0.824556 0.228787 0.517459
-130.00000000 3420.00000000 -60.00000000 244 231 18 97.000000 1.000000 4.000000 1.000000 -60.708740 114.000000 149.000000 0.904368 0.003915 0.426736
-120.00000000 3420.00000000 -70.00000000 244 231 18 97.000000 1.000000 4.000000 1.000000 -60.708740 114.000000 149.000000 0.977360 -0.082162 0.194981
-150.00000000 3470.00000000 -20.00000000 244 231 18 97.000000 1.000000 4.000000 1.000000 -60.708740 114.000000 149.000000 0.794737 0.015204 0.606764
-150.00000000 3490.00000000 -50.00000000 244 231 18 97.000000 1.000000 4.000000 1.000000 -60.708740 114.000000 149.000000 0.768575 0.571260 0.288017
-150.00000000 3470.00000000 -80.00000000 244 231 18 97.000000 1.000000 4.000000 1.000000 -60.708740 114.000000 149.000000 0.883203 -0.163878 0.439426
-160.00000000 3460.00000000 -20.00000000 244 231 18 97.000000 1.000000 4.000000 1.000000 -60.708740 114.000000 149.000000 0.574634 0.671803 0.467414
-150.00000000 3450.00000000 -20.00000000 244 231 18 97.000000 1.000000 4.000000 1.000000 -60.708740 114.000000 149.000000 0.823106 0.473719 0.313189
-140.00000000 3420.00000000 -40.00000000 244 231 18 97.000000 1.000000 4.000000 1.000000 -60.708740 114.000000 149.000000 0.809874 0.232935 0.538373
-170.00000000 3460.00000000 -60.00000000 244 231 18 97.000000 1.000000 4.000000 1.000000 -60.708740 114.000000 149.000000 0.929691 0.300492 0.213025
-150.00000000 3430.00000000 -80.00000000 244 231 18 97.000000 1.000000 4.000000 1.000000 -60.708740 114.000000 149.000000 0.959745 0.231025 0.159738
-140.00000000 3440.00000000 -80.00000000 244 231 18 97.000000 1.000000 4.000000 1.000000 -60.708740 114.000000 149.000000 0.947080 0.282368 -0.152668
-110.00000000 3440.00000000 -130.00000000 244 231 18 97.000000 1.000000 4.000000 1.000000 -60.708740 114.000000 149.000000 0.963215 0.190022 0.190022
-160.00000000 3470.00000000 -120.00000000 244 231 18 97.000000 1.000000 4.000000 1.000000 -60.708740 114.000000 149.000000 0.812586 0.426248 0.397513
-170.00000000 3470.00000000 -110.00000000 244 231 18 97.000000 1.000000 4.000000 1.000000 -60.708740 114.000000 149.000000 0.856617 0.511727 0.065894
-150.00000000 3460.00000000 -140.00000000 244 231 18 97.000000 1.000000 4.000000 1.000000 -60.708740 114.000000 149.000000 0.984199 -0.026663 -0.175046
-140.00000000 3440.00000000 -120.00000000 244 231 18 97.000000 1.000000 4.000000 1.000000 -60.708740 114.000000 149.000000 0.959445 -0.086055 0.268439
-170.00000000 3440.00000000 -110.00000000 244 231 18 97.000000 1.000000 4.000000 1.000000 -60.708740 114.000000 149.000000 0.865200 -0.233228 0.443885
-160.00000000 3440.00000000 -160.00000000 244 231 18 97.000000 1.000000 4.000000 1.000000 -60.708740 114.000000 149.000000 0.964202 0.087655 -0.250261
-120.00000000 3380.00000000 -90.00000000 244 231 18 97.000000 1.000000 4.000000 1.000000 -60.708740 114.000000 149.000000 0.972103 0.135613 -0.191379
-120.00000000 3380.00000000 -90.00000000 244 231 18 97.000000 1.000000 4.000000 1.000000 -60.708740 114.000000 149.000000 0.972103 0.135613 -0.191379
-120.00000000 3350.00000000 -100.00000000 244 231 18 97.000000 1.000000 4.000000 1.000000 -60.708740 114.000000 149.000000 0.738552 -0.603978 -0.299586
-170.00000000 3410.00000000 -90.00000000 244 231 18 97.000000 1.000000 4.000000 1.000000 -60.708740 114.000000 149.000000 0.961866 -0.142257 -0.233615
-150.00000000 3340.00000000 -80.00000000 244 231 18 97.000000 1.000000 4.000000 1.000000 -60.708740 114.000000 149.000000 0.913872 -0.253451 -0.317176
-120.00000000 3400.00000000 -110.00000000 244 231 18 97.000000 1.000000 4.000000 1.000000 -60.708740 114.000000 149.000000 0.973235 -0.202182 -0.109253
-120.00000000 3400.00000000 -110.00000000 244 231 18 97.000000 1.000000 4.000000 1.000000 -60.708740 114.000000 149.000000 0.973235 -0.202182 -0.109253
-120.00000000 3380.00000000 -120.00000000 244 231 18 97.000000 1.000000 4.000000 1.000000 -60.708740 114.000000 149.000000 0.949363 -0.041940 -0.311371
-110.00000000 3390.00000000 -150.00000000 244 231 18 97.000000 1.000000 4.000000 1.000000 -60.708740 114.000000 149.000000 0.909472 -0.369249 -0.191090
-110.00000000 3400.00000000 -170.00000000 244 231 18 97.000000 1.000000 4.000000 1.000000 -60.708740 114.000000 149.000000 0.767844 -0.415712 -0.487442
-110.00000000 3400.00000000 -170.00000000 244 231 18 97.000000 1.000000 4.000000 1.000000 -60.708740 114.000000 149.000000 0.767844 -0.415712 -0.487442
-110.00000000 3400.00000000 -160.00000000 244 231 18 97.000000 1.000000 4.000000 1.000000 -60.708740 114.000000 149.000000 0.999217 -0.039563 0.001014
-100.00000000 3350.00000000 -140.00000000 244 231 18 97.000000 1.000000 4.000000 1.000000 -60.708740 114.000000 149.000000 0.951235 -0.228675 -0.207026
-120.00000000 3370.00000000 -110.00000000 244 231 18 97.000000 1.000000 4.000000 1.000000 -60.708740 114.000000 149.000000 0.902327 -0.334141 -0.272317
-130.00000000 3360.00000000 -120.00000000 244 231 18 97.000000 1.000000 4.000000 1.000000 -60.708740 114.000000 149.000000 0.824406 -0.238847 -0.513135
-120.00000000 3370.00000000 -110.00000000 244 231 18 97.000000 1.000000 4.000000 1.000000 -60.708740 114.000000 149.000000 0.902327 -0.334141 -0.272317
-150.00000000 3410.00000000 -120.00000000 244 231 18 97.000000 1.000000 4.000000 1.000000 -60.708740 114.000000 149.000000 0.932281 -0.329122 -0.150101
-150.00000000 3400.00000000 -150.00000000 244 231 18 97.000000 1.000000 4.000000 1.000000 -60.708740 114.000000 149.000000 0.797199 -0.436446 -0.417120
-150.00000000 3410.00000000 -160.00000000 244 231 18 97.000000 1.000000 4.000000 1.000000 -60.708740 114.000000 149.000000 0.740466 -0.430427 -0.516182
-160.00000000 3400.00000000 -160.00000000 244 231 18 97.000000 1.000000 4.000000 1.000000 -60.708740 114.000000 149.000000 0.922811 -0.163837 -0.348680
-160.00000000 3390.00000000 -160.00000000 244 231 18 97.000000 1.000000 4.000000 1.000000 -60.708740 114.000000 149.000000 0.939486 -0.323914 -0.111556
-150.00000000 3410.00000000 -160.00000000 244 231 18 97.000000 1.000000 4.000000 1.000000 -60.708740 114.000000 149.000000 0.740466 -0.430427 -0.516182
-90.00000000 3420.00000000 -200.00000000 244 231 18 97.000000 1.000000 4.000000 1.000000 -60.708740 114.000000 149.000000 0.729059 -0.517450 -0.448016
-80.00000000 3360.00000000 -240.00000000 244 231 18 97.000000 1.000000 4.000000 1.000000 -60.708740 114.000000 149.000000 0.743578 -0.436914 -0.506160
-80.00000000 3340.00000000 -280.00000000 244 231 18 97.000000 1.000000 4.000000 1.000000 -60.708740 114.000000 149.000000 0.895616 -0.246405 -0.370345
-150.00000000 3440.00000000 -190.00000000 244 231 18 97.000000 1.000000 4.000000 1.000000 -60.708740 114.000000 149.000000 0.929609 -0.332102 -0.159798
-140.00000000 3460.00000000 -200.00000000 244 231 18 97.000000 1.000000 4.000000 1.000000 -60.708740 114.000000 149.000000 0.993424 0.048051 0.103924
-150.00000000 3440.00000000 -190.00000000 244 231 18 97.000000 1.000000 4.000000 1.000000 -60.708740 114.000000 149.000000 0.929609 -0.332102 -0.159798
-130.00000000 3400.00000000 -190.00000000 244 231 18 97.000000 1.000000 4.000000 1.000000 -60.708740 114.000000 149.000000 0.579436 -0.592950 -0.559164
-130.00000000 3390.00000000 -190.00000000 244 231 18 97.000000 1.000000 4.000000 1.000000 -60.708740 114.000000 149.000000 0.833951 -0.264574 -0.484279
-100.00000000 3360.00000000 -190.00000000 244 231 18 97.000000 1.000000 4.000000 1.000000 -60.708740 114.000000 149.000000 -0.645793 0.558114 0.521019
-100.00000000 3360.00000000 -190.00000000 244 231 18 97.000000 1.000000 4.000000 1.000000 -60.708740 114.000000 149.000000 -0.645793 0.558114 0.521019
-110.00000000 3350.00000000 -190.00000000 244 231 18 97.000000 1.000000 4.000000 1.000000 -60.708740 114.000000 149.000000 0.912803 -0.359676 -0.193451
-100.00000000 3360.00000000 -240.00000000 244 231 18 97.000000 1.000000 4.000000 1.000000 -60.708740 114.000000 149.000000 -0.706151 0.332784 0.624984
-140.00000000 3390.00000000 -230.00000000 244 231 18 97.000000 1.000000 4.000000 1.000000 -60.708740 114.000000 149.000000 0.931369 -0.342275 -0.124092
-140.00000000 3410.00000000 -210.00000000 244 231 18 97.000000 1.000000 4.000000 1.000000 -60.708740 114.000000 149.000000 -0.626787 0.535556 0.565966
-150.00000000 3390.00000000 -200.00000000 244 231 18 97.000000 1.000000 4.000000 1.000000 -60.708740 114.000000 149.000000 0.764544 -0.256950 -0.591142
-120.00000000 3340.00000000 -300.00000000 244 231 18 97.000000 1.000000 4.000000 1.000000 -60.708740 114.000000 149.000000 -0.572926 0.485559 0.660293
-190.00000000 3630.00000000 -40.00000000 244 231 18 97.000000 1.000000 4.000000 1.000000 -60.708740 114.000000 149.000000 0.398955 0.805921 0.437408
-180.00000000 3640.00000000 -60.00000000 244 231 18 97.000000 1.000000 4.000000 1.000000 -60.708740 114.000000 149.000000 0.457324 0.841786 0.286796
-200.00000000 3640.00000000 -50.00000000 244 231 18 97.000000 1.000000 4.000000 1.000000 -60.708740 114.000000 149.000000 0.316963 0.909992 0.267301
-190.00000000 3630.00000000 -40.00000000 244 231 18 97.000000 1.000000 4.000000 1.000000 -60.708740 114.000000 149.000000 0.398955 0.805921 0.437408
-190.00000000 3630.00000000 -40.00000000 244 231 18 97.000000 1.000000 4.000000 1.000000 -60.708740 114.000000 149.000000 0.398955 0.805921 0.437408
-190.00000000 3640.00000000 -50.00000000 244 231 18 97.000000 1.000000 4.000000 1.000000 -60.708740 114.000000 149.000000 0.213775 0.886062 0.411333
-180.00000000 3630.00000000 -50.00000000 244 231 18 97.000000 1.000000 4.000000 1.000000 -60.708740 114.000000 149.000000 0.299363 0.903989 0.305262
-210.00000000 3600.00000000 -130.00000000 244 231 18 97.000000 1.000000 4.000000 1.000000 -60.708740 114.000000 149.000000 0.248645 0.940406 0.231976
-200.00000000 3600.00000000 -150.00000000 244 231 18 97.000000 1.000000 4.000000 1.000000 -60.708740 114.000000 149.000000 0.639877 0.722442 0.261984
-200.00000000 3610.00000000 -160.00000000 244 231 18 97.000000 1.000000 4.000000 1.000000 -60.708740 114.000000 149.000000 0.489392 0.843937 0.219696
-200.00000000 3610.00000000 -170.00000000 244 231 18 97.000000 1.000000 4.000000 1.000000 -60.708740 114.000000 149.000000 0.412277 0.690440 0.594407
-220.00000000 3620.00000000 -140.00000000 244 231 18 97.000000 1.000000 4.000000 1.000000 -60.708740 114.000000 149.000000 0.280160 0.680389 0.677187
-190.00000000 3580.00000000 -30.00000000 244 231 18 97.000000 1.000000 4.000000 1.000000 -60.708740 114.000000 149.000000 0.353491 0.487849 0.798153
-190.00000000 3510.00000000 -60.00000000 244 231 18 97.000000 1.000000 4.000000 1.000000 -60.708740 114.000000 149.000000 0.666628 0.646876 0.370349
-190.00000000 3510.00000000 -70.00000000 244 231 18 97.000000 1.000000 4.000000 1.000000 -60.708740 114.000000 149.000000 0.843950 0.396140 0.361693
-220.00000000 3520.00000000 -40.00000000 244 231 18 97.000000 1.000000 4.000000 1.000000 -60.708740 114.000000 149.000000 0.258664 0.931472 0.255837
-300.00000000 3650.00000000 -160.00000000 244 231 18 97.000000 1.000000 4.000000 1.000000 -60.708740 114.000000 149.000000 -0.149441 0.747203 0.647576
-300.00000000 3640.00000000 -160.00000000 244 231 18 97.000000 1.000000 4.000000 1.000000 -60.708740 114.000000 149.000000 -0.088303 0.944977 0.314992
-260.00000000 3600.00000000 -180.00000000 244 231 18 97.000000 1.000000 4.000000 1.000000 -60.708740 114.000000 149.000000 -0.328338 0.600067 0.729461
-310.00000000 3640.00000000 -170.00000000 244 231 18 97.000000 1.000000 4.000000 1.000000 -60.708740 114.000000 149.000000 -0.224315 0.898727 0.376791
-320.00000000 3630.00000000 -170.00000000 244 231 18 97.000000 1.000000 4.000000 1.000000 -60.708740 114.000000 149.000000 0.826319 -0.454869 -0.332101
-320.00000000 3630.00000000 -170.00000000 244 231 18 97.000000 1.000000 4.000000 1.000000 -60.708740 114.000000 149.000000 0.826319 -0.454869 -0.332101
-330.00000000 3620.00000000 -180.00000000 244 231 18 97.000000 1.000000 4.000000 1.000000 -60.708740 114.000000 149.000000 0.631313 -0.340942 -0.696565
-330.00000000 3520.00000000 -20.00000000 244 231 18 97.000000 1.000000 4.000000 1.000000 -60.708740 114.000000 149.000000 -0.261836 0.728382 0.633168
-340.00000000 3520.00000000 -140.00000000 244 231 18 97.000000 1.000000 4.000000 1.000000 -60.708740 114.000000 149.000000 0.899827 -0.351978 -0.257725
-200.00000000 3590.00000000 -240.00000000 244 231 18 97.000000 1.000000 4.000000 1.000000 -60.708740 114.000000 149.000000 0.734668 0.658615 0.162753
-240.00000000 3600.00000000 -260.00000000 244 231 18 97.000000 1.000000 4.000000 1.000000 -60.708740 114.000000 149.000000 0.090076 0.928996 0.358961
-180.00000000 3640.00000000 -340.00000000 244 231 18 97.000000 1.000000 4.000000 1.000000 -60.708740 114.000000 149.000000 0.806590 0.581970 0.103559
-190.00000000 3600.00000000 -280.00000000 244 231 18 97.000000 1.000000 4.000000 1.000000 -60.708740 114.000000 149.000000 0.931681 0.342390 0.121405
-190.00000000 3590.00000000 -320.00000000 244 231 18 97.000000 1.000000 4.000000 1.000000 -60.708740 114.000000 149.000000 0.854001 -0.429309 -0.293899
-240.00000000 3620.00000000 -350.00000000 244 231 18 97.000000 1.000000 4.000000 1.000000 -60.708740 114.000000 149.000000 0.962032 0.106892 -0.251133
-190.00000000 3550.00000000 -240.00000000 244 231 18 97.000000 1.000000 4.000000 1.000000 -60.708740 114.000000 149.000000 0.979897 0.185320 -0.073886
-180.00000000 3570.00000000 -250.00000000 244 231 18 97.000000 1.000000 4.000000 1.000000 -60.708740 114.000000 149.000000 0.979395 0.127210 0.156851
-180.00000000 3580.00000000 -270.00000000 244 231 18 97.000000 1.000000 4.000000 1.000000 -60.708740 114.000000 149.000000 0.783201 0.366570 0.502218
-200.00000000 3580.00000000 -300.00000000 244 231 18 97.000000 1.000000 4.000000 1.000000 -60.708740 114.000000 149.000000 0.914337 -0.379457 0.141421
-310.00000000 3660.00000000 -190.00000000 244 231 18 97.000000 1.000000 4.000000 1.000000 -60.708740 114.000000 149.000000 -0.291076 0.561474 0.774611
-320.00000000 3610.00000000 -240.00000000 244 231 18 97.000000 1.000000 4.000000 1.000000 -60.708740 114.000000 149.000000 -0.684429 0.720061 0.114319
-300.00000000 3640.00000000 -340.00000000 244 231 18 97.000000 1.000000 4.000000 1.000000 -60.708740 114.000000 149.000000 0.997292 -0.024532 -0.069330
-310.00000000 3620.00000000 -290.00000000 244 231 18 97.000000 1.000000 4.000000 1.000000 -60.708740 114.000000 149.000000 0.899189 -0.143472 -0.413371
-320.00000000 3610.00000000 -350.00000000 244 231 18 97.000000 1.000000 4.000000 1.000000 -60.708740 114.000000 149.000000 0.995848 -0.090726 0.007472
-310.00000000 3600.00000000 -340.00000000 244 231 18 97.000000 1.000000 4.000000 1.000000 -60.708740 114.000000 149.000000 0.940329 0.217425 0.261741
-310.00000000 3600.00000000 -330.00000000 244 231 18 97.000000 1.000000 4.000000 1.000000 -60.708740 114.000000 149.000000 0.990748 -0.049024 0.126551
-310.00000000 3600.00000000 -320.00000000 244 231 18 97.000000 1.000000 4.000000 1.000000 -60.708740 114.000000 149.000000 0.979671 0.172883 0.101768
-300.00000000 3580.00000000 -260.00000000 244 231 18 97.000000 1.000000 4.000000 1.000000 -60.708740 114.000000 149.000000 0.980573 -0.136225 -0.141134
-330.00000000 3580.00000000 -190.00000000 244 231 18 97.000000 1.000000 4.000000 1.000000 -60.708740 114.000000 149.000000 -0.571733 0.622329 0.534629
-330.00000000 3530.00000000 -230.00000000 244 231 18 97.000000 1.000000 4.000000 1.000000 -60.708740 114.000000 149.000000 0.961342 -0.096263 -0.257984
-330.00000000 3530.00000000 -230.00000000 244 231 18 97.000000 1.000000 4.000000 1.000000 -60.708740 114.000000 149.000000 0.961342 -0.096263 -0.257984
-300.00000000 3570.00000000 -310.00000000 244 231 18 97.000000 1.000000 4.000000 1.000000 -60.708740 114.000000 149.000000 0.824369 0.289389 0.486487
-300.00000000 3570.00000000 -310.00000000 244 231 18 97.000000 1.000000 4.000000 1.000000 -60.708740 114.000000 149.000000 0.824369 0.289389 0.486487
-300.00000000 3560.00000000 -300.00000000 244 231 18 97.000000 1.000000 4.000000 1.000000 -60.708740 114.000000 149.000000 0.995981 -0.088793 -0.011768
-290.00000000 3580.00000000 -330.00000000 244 231 18 97.000000 1.000000 4.000000 1.000000 -60.708740 114.000000 149.000000 0.964591 -0.003613 0.263727
-340.00000000 3570.00000000 -290.00000000 244 231 18 97.000000 1.000000 4.000000 1.000000 -60.708740 114.000000 149.000000 0.920278 -0.390303 0.027413
-320.00000000 3570.00000000 -350.00000000 244 231 18 97.000000 1.000000 4.000000 1.000000 -60.708740 114.000000 149.000000 0.975823 0.192678 0.103176
-340.00000000 3560.00000000 -330.00000000 244 231 18 97.000000 1.000000 4.000000 1.000000 -60.708740 114.000000 149.000000 0.945711 0.037012 0.322895
-320.00000000 3570.00000000 -350.00000000 244 231 18 97.000000 1.000000 4.000000 1.000000 -60.708740 114.000000 149.000000 0.975823 0.192678 0.103176
-340.00000000 3530.00000000 -350.00000000 244 231 18 97.000000 1.000000 4.000000 1.000000 -60.708740 114.000000 149.000000 0.780086 0.061548 0.622638
-190.00000000 3470.00000000 -50.00000000 244 231 18 97.000000 1.000000 4.000000 1.000000 -60.708740 114.000000 149.000000 0.492030 0.670034 0.555843
-190.00000000 3470.00000000 -50.00000000 244 231 18 97.000000 1.000000 4.000000 1.000000 -60.708740 114.000000 149.000000 0.492030 0.670034 0.555843
-180.00000000 3480.00000000 -60.00000000 244 231 18 97.000000 1.000000 4.000000 1.000000 -60.708740 114.000000 149.000000 0.741875 0.394684 0.542076
-180.00000000 3470.00000000 -60.00000000 244 231 18 97.000000 1.000000 4.000000 1.000000 -60.708740 114.000000 149.000000 0.676957 0.620681 0.395581
-190.00000000 3420.00000000 -70.00000000 244 231 18 97.000000 1.000000 4.000000 1.000000 -60.708740 114.000000 149.000000 0.895824 -0.110751 0.430388
-250.00000000 3460.00000000 -30.00000000 244 231 18 97.000000 1.000000 4.000000 1.000000 -60.708740 114.000000 149.000000 0.251637 0.713762 0.653623
-250.00000000 3460.00000000 -30.00000000 244 231 18 97.000000 1.000000 4.000000 1.000000 -60.708740 114.000000 149.000000 0.251637 0.713762 0.653623
-190.00000000 3470.00000000 -140.00000000 244 231 18 97.000000 1.000000 4.000000 1.000000 -60.708740 114.000000 149.000000 0.989050 0.012349 0.147066
-200.00000000 3460.00000000 -180.00000000 244 231 18 97.000000 1.000000 4.000000 1.000000 -60.708740 114.000000 149.000000 0.801787 -0.353682 -0.481712
-190.00000000 3370.00000000 -70.00000000 244 231 18 97.000000 1.000000 4.000000 1.000000 -60.708740 114.000000 149.000000 0.810750 -0.378990 -0.446152
-210.00000000 3340.00000000 -180.00000000 244 231 18 97.000000 1.000000 4.000000 1.000000 -60.708740 114.000000 149.000000 -0.017953 0.813416 0.581406
-230.00000000 3360.00000000 -120.00000000 244 231 18 97.000000 1.000000 4.000000 1.000000 -60.708740 114.000000 149.000000 -0.570454 0.567068 0.594152
-290.00000000 3490.00000000 -50.00000000 244 231 18 97.000000 1.000000 4.000000 1.000000 -60.708740 114.000000 149.000000 -0.494273 0.457905 0.738930
-300.00000000 3480.00000000 -40.00000000 244 231 18 97.000000 1.000000 4.000000 1.000000 -60.708740 114.000000 149.000000 -0.287136 0.839679 0.460970
-280.00000000 3480.00000000 -40.00000000 244 231 18 97.000000 1.000000 4.000000 1.000000 -60.708740 114.000000 149.000000 -0.325880 0.870545 0.368719
-270.00000000 3480.00000000 -80.00000000 244 231 18 97.000000 1.000000 4.000000 1.000000 -60.708740 114.000000 149.000000 0.102206 0.922577 0.372029
-310.00000000 3460.00000000 -20.00000000 244 231 18 97.000000 1.000000 4.000000 1.000000 -60.708740 114.000000 149.000000 -0.367416 0.800615 0.473309
-310.00000000 3460.00000000 -20.00000000 244 231 18 97.000000 1.000000 4.000000 1.000000 -60.708740 114.000000 149.000000 -0.367416 0.800615 0.473309
-300.00000000 3460.00000000 -170.00000000 244 231 18 97.000000 1.000000 4.000000 1.000000 -60.708740 114.000000 149.000000 0.667214 0.362296 0.650820
-300.00000000 3440.00000000 -170.00000000 244 231 18 97.000000 1.000000 4.000000 1.000000 -60.708740 114.000000 149.000000 0.927921 0.352253 0.121987
-290.00000000 3450.00000000 -170.00000000 244 231 18 97.000000 1.000000 4.000000 1.000000 -60.708740 114.000000 149.000000 0.820487 0.372949 0.433255
-310.00000000 3460.00000000 -150.00000000 244 231 18 97.000000 1.000000 4.000000 1.000000 -60.708740 114.000000 149.000000 0.837476 0.210505 0.504303
-320.00000000 3460.00000000 -150.00000000 244 231 18 97.000000 1.000000 4.000000 1.000000 -60.708740 114.000000 149.000000 0.936461 0.140811 0.321268
-290.00000000 3380.00000000 -40.00000000 244 231 18 97.000000 1.000000 4.000000 1.000000 -60.708740 114.000000 149.000000 0.996710 0.081042 0.001052
