//X Y Z R G B PointSourceId ScanDirectionFlag NumberOfReturns ReturnNumber GpsTime Intensity Classification Nx Ny Nz
-7420.00000000 10060.00000000 -830.00000000 236 215 30 97.000000 1.000000 4.000000 1.000000 -60.708740 114.000000 148.000000 0.816855 0.515007 0.259838
-7440.00000000 10070.00000000 -1010.00000000 236 215 30 97.000000 1.000000 4.000000 1.000000 -60.708740 114.000000 148.000000 0.939280 -0.329081 -0.097259
-7420.00000000 10060.00000000 -830.00000000 236 215 30 97.000000 1.000000 4.000000 1.000000 -60.708740 114.000000 148.000000 0.816855 0.515007 0.259838
-7430.00000000 10070.00000000 -1040.00000000 236 215 30 97.000000 1.000000 4.000000 1.000000 -60.708740 114.000000 148.000000 0.977956 0.194126 -0.076918
-7430.00000000 10040.00000000 -1160.00000000 236 215 30 97.000000 1.000000 4.000000 1.000000 -60.708740 114.000000 148.000000 0.999108 0.041928 0.005113
-7150.00000000 10500.00000000 500.00000000 236 215 30 97.000000 1.000000 4.000000 1.000000 -60.708740 114.000000 148.000000 0.893267 0.329569 0.305709
-7140.00000000 10490.00000000 480.00000000 236 215 30 97.000000 1.000000 4.000000 1.000000 -60.708740 114.000000 148.000000 0.943965 0.277315 -0.178957
-7230.00000000 10420.00000000 420.00000000 236 215 30 97.000000 1.000000 4.000000 1.000000 -60.708740 114.000000 148.000000 0.724360 -0.556058 0.407556
-7190.00000000 10480.00000000 390.00000000 236 215 30 97.000000 1.000000 4.000000 1.000000 -60.708740 114.000000 148.000000 0.972763 0.117034 0.200090
-7220.00000000 10440.00000000 330.00000000 236 215 30 97.000000 1.000000 4.000000 1.000000 -60.708740 114.000000 148.000000 0.957715 0.182485 0.222446
-7110.00000000 10510.00000000 220.00000000 236 215 30 97.000000 1.000000 4.000000 1.000000 -60.708740 114.000000 148.000000 0.944664 0.187292 0.269318
-7230.00000000 10420.00000000 240.00000000 236 215 30 97.000000 1.000000 4.000000 1.000000 -60.708740 114.000000 148.000000 0.995619 0.091688 -0.018338
-7230.00000000 10450.00000000 160.00000000 236 215 30 97.000000 1.000000 4.000000 1.000000 -60.708740 114.000000 148.000000 0.884997 0.384847 0.262055
-7150.00000000 10520.00000000 100.00000000 236 215 30 97.000000 1.000000 4.000000 1.000000 -60.708740 114.000000 148.000000 0.896964 0.339512 -0.283174
-7180.00000000 10490.00000000 120.00000000 236 215 30 97.000000 1.000000 4.000000 1.000000 -60.708740 114.000000 148.000000 0.938853 0.237843 0.248970
-7340.00000000 10280.00000000 690.00000000 236 215 30 97.000000 1.000000 4.000000 1.000000 -60.708740 114.000000 148.000000 0.112570 0.949561 -0.292682
-7290.00000000 10380.00000000 520.00000000 236 215 30 97.000000 1.000000 4.000000 1.000000 -60.708740 114.000000 148.000000 0.740320 -0.380782 0.554014
-7300.00000000 10350.00000000 490.00000000 236 215 30 97.000000 1.000000 4.000000 1.000000 -60.708740 114.000000 148.000000 -0.394330 0.899880 -0.186332
-7310.00000000 10330.00000000 500.00000000 236 215 30 97.000000 1.000000 4.000000 1.000000 -60.708740 114.000000 148.000000 -0.239317 0.849043 -0.471013
-7250.00000000 10390.00000000 460.00000000 236 215 30 97.000000 1.000000 4.000000 1.000000 -60.708740 114.000000 148.000000 0.831098 -0.314596 0.458591
-7360.00000000 10280.00000000 380.00000000 236 215 30 97.000000 1.000000 4.000000 1.000000 -60.708740 114.000000 148.000000 0.071161 0.988083 -0.136488
-7350.00000000 10220.00000000 490.00000000 236 215 30 97.000000 1.000000 4.000000 1.000000 -60.708740 114.000000 148.000000 -0.023361 0.834141 -0.551056
-7330.00000000 10180.00000000 400.00000000 236 215 30 97.000000 1.000000 4.000000 1.000000 -60.708740 114.000000 148.000000 -0.506112 0.848438 -0.154932
-7340.00000000 10150.00000000 320.00000000 236 215 30 97.000000 1.000000 4.000000 1.000000 -60.708740 114.000000 148.000000 0.264340 0.888599 -0.374855
-7280.00000000 10370.00000000 220.00000000 236 215 30 97.000000 1.000000 4.000000 1.000000 -60.708740 114.000000 148.000000 0.743692 -0.668346 0.015348
-7290.00000000 10370.00000000 190.00000000 236 215 30 97.000000 1.000000 4.000000 1.000000 -60.708740 114.000000 148.000000 0.703919 -0.554149 0.444317
-7310.00000000 10370.00000000 160.00000000 236 215 30 97.000000 1.000000 4.000000 1.000000 -60.708740 114.000000 148.000000 0.749358 -0.446321 0.489142
-7310.00000000 10340.00000000 200.00000000 236 215 30 97.000000 1.000000 4.000000 1.000000 -60.708740 114.000000 148.000000 -0.367840 0.816893 -0.444275
-7310.00000000 10340.00000000 200.00000000 236 215 30 97.000000 1.000000 4.000000 1.000000 -60.708740 114.000000 148.000000 -0.367840 0.816893 -0.444275
-7310.00000000 10360.00000000 200.00000000 236 215 30 97.000000 1.000000 4.000000 1.000000 -60.708740 114.000000 148.000000 0.879526 -0.439029 0.183541
-7320.00000000 10340.00000000 170.00000000 236 215 30 97.000000 1.000000 4.000000 1.000000 -60.708740 114.000000 148.000000 -0.524199 0.819350 -0.232123
-7320.00000000 10320.00000000 250.00000000 236 215 30 97.000000 1.000000 4.000000 1.000000 -60.708740 114.000000 148.000000 0.642684 -0.558342 0.524606
-7320.00000000 10310.00000000 290.00000000 236 215 30 97.000000 1.000000 4.000000 1.000000 -60.708740 114.000000 148.000000 -0.349566 0.781288 -0.517100
-7310.00000000 10320.00000000 220.00000000 236 215 30 97.000000 1.000000 4.000000 1.000000 -60.708740 114.000000 148.000000 0.495679 -0.667067 0.556169
-7320.00000000 10320.00000000 230.00000000 236 215 30 97.000000 1.000000 4.000000 1.000000 -60.708740 114.000000 148.000000 0.662963 -0.682319 0.308092
-7320.00000000 10320.00000000 180.00000000 236 215 30 97.000000 1.000000 4.000000 1.000000 -60.708740 114.000000 148.000000 -0.400205 0.879852 -0.256311
-7320.00000000 10330.00000000 140.00000000 236 215 30 97.000000 1.000000 4.000000 1.000000 -60.708740 114.000000 148.000000 -0.572021 0.776877 -0.263161
-7300.00000000 10340.00000000 140.00000000 236 215 30 97.000000 1.000000 4.000000 1.000000 -60.708740 114.000000 148.000000 0.722319 -0.684070 0.101507
-7310.00000000 10330.00000000 110.00000000 236 215 30 97.000000 1.000000 4.000000 1.000000 -60.708740 114.000000 148.000000 0.830482 -0.555966 -0.034661
-7310.00000000 10340.00000000 140.00000000 236 215 30 97.000000 1.000000 4.000000 1.000000 -60.708740 114.000000 148.000000 -0.587875 0.784345 -0.198005
-7310.00000000 10330.00000000 140.00000000 236 215 30 97.000000 1.000000 4.000000 1.000000 -60.708740 114.000000 148.000000 0.787894 -0.605280 0.113398
-7320.00000000 10300.00000000 90.00000000 236 215 30 97.000000 1.000000 4.000000 1.000000 -60.708740 114.000000 148.000000 -0.347646 0.878982 -0.326392
-7370.00000000 10250.00000000 70.00000000 236 215 30 97.000000 1.000000 4.000000 1.000000 -60.708740 114.000000 148.000000 0.464464 0.823440 -0.325912
-7340.00000000 10270.00000000 110.00000000 236 215 30 97.000000 1.000000 4.000000 1.000000 -60.708740 114.000000 148.000000 -0.437236 0.764753 -0.473263
-7360.00000000 10310.00000000 0.00000000 236 215 30 97.000000 1.000000 4.000000 1.000000 -60.708740 114.000000 148.000000 0.272495 0.960641 0.053997
-7360.00000000 10140.00000000 270.00000000 236 215 30 97.000000 1.000000 4.000000 1.000000 -60.708740 114.000000 148.000000 -0.390465 0.917391 -0.077012
-7380.00000000 10140.00000000 260.00000000 236 215 30 97.000000 1.000000 4.000000 1.000000 -60.708740 114.000000 148.000000 -0.053682 0.995857 -0.073402
-7130.00000000 10490.00000000 -20.00000000 236 215 30 97.000000 1.000000 4.000000 1.000000 -60.708740 114.000000 148.000000 0.687831 0.724705 0.041128
-7150.00000000 10490.00000000 -80.00000000 236 215 30 97.000000 1.000000 4.000000 1.000000 -60.708740 114.000000 148.000000 0.605265 0.731160 -0.314738
-7170.00000000 10500.00000000 -120.00000000 236 215 30 97.000000 1.000000 4.000000 1.000000 -60.708740 114.000000 148.000000 0.363515 0.874564 -0.320927
-7180.00000000 10480.00000000 -110.00000000 236 215 30 97.000000 1.000000 4.000000 1.000000 -60.708740 114.000000 148.000000 0.632391 0.622326 -0.461293
-7160.00000000 10500.00000000 -210.00000000 236 215 30 97.000000 1.000000 4.000000 1.000000 -60.708740 114.000000 148.000000 0.519892 0.819176 -0.242205
-7280.00000000 10430.00000000 -320.00000000 236 215 30 97.000000 1.000000 4.000000 1.000000 -60.708740 114.000000 148.000000 0.423215 0.891206 -0.163219
-7280.00000000 10430.00000000 -390.00000000 236 215 30 97.000000 1.000000 4.000000 1.000000 -60.708740 114.000000 148.000000 0.017150 0.999738 -0.015132
-7280.00000000 10430.00000000 -720.00000000 236 215 30 97.000000 1.000000 4.000000 1.000000 -60.708740 114.000000 148.000000 -0.347910 0.937459 -0.011386
-7270.00000000 10400.00000000 -90.00000000 236 215 30 97.000000 1.000000 4.000000 1.000000 -60.708740 114.000000 148.000000 0.834146 0.550063 0.040384
-7320.00000000 10380.00000000 -100.00000000 236 215 30 97.000000 1.000000 4.000000 1.000000 -60.708740 114.000000 148.000000 0.656737 0.751583 -0.061794
-7330.00000000 10320.00000000 -80.00000000 236 215 30 97.000000 1.000000 4.000000 1.000000 -60.708740 114.000000 148.000000 0.721039 -0.579787 0.379408
-7280.00000000 10390.00000000 -230.00000000 236 215 30 97.000000 1.000000 4.000000 1.000000 -60.708740 114.000000 148.000000 0.057704 0.992283 -0.109751
-7320.00000000 10360.00000000 -320.00000000 236 215 30 97.000000 1.000000 4.000000 1.000000 -60.708740 114.000000 148.000000 -0.299691 0.893108 -0.335475
-7350.00000000 10330.00000000 -320.00000000 236 215 30 97.000000 1.000000 4.000000 1.000000 -60.708740 114.000000 148.000000 -0.294208 0.882624 -0.366628
-7350.00000000 10280.00000000 -340.00000000 236 215 30 97.000000 1.000000 4.000000 1.000000 -60.708740 114.000000 148.000000 0.838387 -0.391667 0.379083
-7370.00000000 10180.00000000 -80.00000000 236 215 30 97.000000 1.000000 4.000000 1.000000 -60.708740 114.000000 148.000000 0.360184 0.798807 -0.481846
-7380.00000000 10120.00000000 -150.00000000 236 215 30 97.000000 1.000000 4.000000 1.000000 -60.708740 114.000000 148.000000 0.412197 0.868505 -0.275305
-7380.00000000 10230.00000000 -320.00000000 236 215 30 97.000000 1.000000 4.000000 1.000000 -60.708740 114.000000 148.000000 0.962066 0.209259 -0.175041
-7380.00000000 10090.00000000 -260.00000000 236 215 30 97.000000 1.000000 4.000000 1.000000 -60.708740 114.000000 148.000000 0.393783 0.905558 -0.157797
-7390.00000000 10080.00000000 -310.00000000 236 215 30 97.000000 1.000000 4.000000 1.000000 -60.708740 114.000000 148.000000 0.607653 0.794201 0.001372
-7290.00000000 10400.00000000 -370.00000000 236 215 30 97.000000 1.000000 4.000000 1.000000 -60.708740 114.000000 148.000000 -0.075388 0.997027 0.015927
-7360.00000000 10340.00000000 -500.00000000 236 215 30 97.000000 1.000000 4.000000 1.000000 -60.708740 114.000000 148.000000 0.637730 -0.597346 0.486290
-7340.00000000 10310.00000000 -380.00000000 236 215 30 97.000000 1.000000 4.000000 1.000000 -60.708740 114.000000 148.000000 -0.067034 0.976258 -0.205977
-7320.00000000 10380.00000000 -630.00000000 236 215 30 97.000000 1.000000 4.000000 1.000000 -60.708740 114.000000 148.000000 -0.339334 0.722506 -0.602359
-7340.00000000 10340.00000000 -560.00000000 236 215 30 97.000000 1.000000 4.000000 1.000000 -60.708740 114.000000 148.000000 -0.410445 0.653056 -0.636438
-7390.00000000 10230.00000000 -450.00000000 236 215 30 97.000000 1.000000 4.000000 1.000000 -60.708740 114.000000 148.000000 0.977526 0.059354 -0.202288
-7390.00000000 10170.00000000 -490.00000000 236 215 30 97.000000 1.000000 4.000000 1.000000 -60.708740 114.000000 148.000000 0.912804 0.171772 -0.370516
-7400.00000000 10180.00000000 -490.00000000 236 215 30 97.000000 1.000000 4.000000 1.000000 -60.708740 114.000000 148.000000 0.929082 0.369854 -0.003813
-7390.00000000 10190.00000000 -510.00000000 236 215 30 97.000000 1.000000 4.000000 1.000000 -60.708740 114.000000 148.000000 0.909757 0.057955 0.411076
-7390.00000000 10230.00000000 -450.00000000 236 215 30 97.000000 1.000000 4.000000 1.000000 -60.708740 114.000000 148.000000 0.977526 0.059354 -0.202288
-7370.00000000 10090.00000000 -440.00000000 236 215 30 97.000000 1.000000 4.000000 1.000000 -60.708740 114.000000 148.000000 0.792316 0.606058 0.070205
-7390.00000000 10130.00000000 -370.00000000 236 215 30 97.000000 1.000000 4.000000 1.000000 -60.708740 114.000000 148.000000 0.772611 0.562334 -0.294707
-7410.00000000 10140.00000000 -440.00000000 236 215 30 97.000000 1.000000 4.000000 1.000000 -60.708740 114.000000 148.000000 0.775876 0.605153 0.178345
-7400.00000000 10120.00000000 -430.00000000 236 215 30 97.000000 1.000000 4.000000 1.000000 -60.708740 114.000000 148.000000 0.868124 0.465644 0.171862
-7380.00000000 10080.00000000 -370.00000000 236 215 30 97.000000 1.000000 4.000000 1.000000 -60.708740 114.000000 148.000000 0.664972 0.743204 0.073886
-7380.00000000 10100.00000000 -510.00000000 236 215 30 97.000000 1.000000 4.000000 1.000000 -60.708740 114.000000 148.000000 0.870461 0.462387 0.168808
-7410.00000000 10200.00000000 -580.00000000 236 215 30 97.000000 1.000000 4.000000 1.000000 -60.708740 114.000000 148.000000 0.990518 0.042077 -0.130780
-7400.00000000 10190.00000000 -600.00000000 236 215 30 97.000000 1.000000 4.000000 1.000000 -60.708740 114.000000 148.000000 0.988199 -0.087918 -0.125430
-7400.00000000 10230.00000000 -610.00000000 236 215 30 97.000000 1.000000 4.000000 1.000000 -60.708740 114.000000 148.000000 0.979662 -0.200570 -0.005797
-7410.00000000 10220.00000000 -620.00000000 236 215 30 97.000000 1.000000 4.000000 1.000000 -60.708740 114.000000 148.000000 0.967886 -0.212087 -0.134964
-7370.00000000 10130.00000000 -600.00000000 236 215 30 97.000000 1.000000 4.000000 1.000000 -60.708740 114.000000 148.000000 0.838114 0.433940 -0.330546
-7370.00000000 10100.00000000 -550.00000000 236 215 30 97.000000 1.000000 4.000000 1.000000 -60.708740 114.000000 148.000000 0.506633 0.861685 -0.028677
-7400.00000000 10120.00000000 -550.00000000 236 215 30 97.000000 1.000000 4.000000 1.000000 -60.708740 114.000000 148.000000 0.933552 0.254861 0.252045
-7400.00000000 10150.00000000 -540.00000000 236 215 30 97.000000 1.000000 4.000000 1.000000 -60.708740 114.000000 148.000000 0.929283 0.344535 0.133147
-7400.00000000 10140.00000000 -530.00000000 236 215 30 97.000000 1.000000 4.000000 1.000000 -60.708740 114.000000 148.000000 0.846511 0.531976 0.020513
-7410.00000000 10140.00000000 -590.00000000 236 215 30 97.000000 1.000000 4.000000 1.000000 -60.708740 114.000000 148.000000 0.989172 0.145500 0.019174
-7380.00000000 10100.00000000 -530.00000000 236 215 30 97.000000 1.000000 4.000000 1.000000 -60.708740 114.000000 148.000000 0.859419 0.510748 -0.023154
-7400.00000000 10080.00000000 -560.00000000 236 215 30 97.000000 1.000000 4.000000 1.000000 -60.708740 114.000000 148.000000 0.946784 0.301431 0.112870
-7390.00000000 10080.00000000 -530.00000000 236 215 30 97.000000 1.000000 4.000000 1.000000 -60.708740 114.000000 148.000000 0.816511 0.522133 0.246348
-7400.00000000 10110.00000000 -580.00000000 236 215 30 97.000000 1.000000 4.000000 1.000000 -60.708740 114.000000 148.000000 0.904955 0.423738 0.038765
-7400.00000000 10100.00000000 -570.00000000 236 215 30 97.000000 1.000000 4.000000 1.000000 -60.708740 114.000000 148.000000 0.861494 0.467327 0.198577
-7400.00000000 10150.00000000 -630.00000000 236 215 30 97.000000 1.000000 4.000000 1.000000 -60.708740 114.000000 148.000000 0.953311 0.283770 -0.103308
-7390.00000000 10090.00000000 -640.00000000 236 215 30 97.000000 1.000000 4.000000 1.000000 -60.708740 114.000000 148.000000 0.879135 0.474432 -0.045119
-7400.00000000 10100.00000000 -630.00000000 236 215 30 97.000000 1.000000 4.000000 1.000000 -60.708740 114.000000 148.000000 0.706752 0.662481 -0.248233
-7400.00000000 10110.00000000 -650.00000000 236 215 30 97.000000 1.000000 4.000000 1.000000 -60.708740 114.000000 148.000000 0.953464 0.194996 0.229961
-7400.00000000 10110.00000000 -610.00000000 236 215 30 97.000000 1.000000 4.000000 1.000000 -60.708740 114.000000 148.000000 0.854304 0.518635 -0.034392
-7390.00000000 10100.00000000 -610.00000000 236 215 30 97.000000 1.000000 4.000000 1.000000 -60.708740 114.000000 148.000000 0.666125 0.727098 -0.166150
-7390.00000000 10110.00000000 -670.00000000 236 215 30 97.000000 1.000000 4.000000 1.000000 -60.708740 114.000000 148.000000 0.985490 0.148596 0.082025
-7390.00000000 10100.00000000 -690.00000000 236 215 30 97.000000 1.000000 4.000000 1.000000 -60.708740 114.000000 148.000000 0.936914 0.219218 -0.272278
-7410.00000000 10090.00000000 -690.00000000 236 215 30 97.000000 1.000000 4.000000 1.000000 -60.708740 114.000000 148.000000 0.900893 0.326925 0.285505
-7400.00000000 10080.00000000 -660.00000000 236 215 30 97.000000 1.000000 4.000000 1.000000 -60.708740 114.000000 148.000000 0.836610 0.547173 -0.026187
-7390.00000000 10090.00000000 -670.00000000 236 215 30 97.000000 1.000000 4.000000 1.000000 -60.708740 114.000000 148.000000 0.888334 0.451813 0.082021
-7350.00000000 10030.00000000 -70.00000000 236 215 30 97.000000 1.000000 4.000000 1.000000 -60.708740 114.000000 148.000000 0.066490 0.964739 -0.254671
-7310.00000000 9970.00000000 -310.00000000 236 215 30 97.000000 1.000000 4.000000 1.000000 -60.708740 114.000000 148.000000 0.150839 0.983471 0.100157
-7300.00000000 9910.00000000 -470.00000000 236 215 30 97.000000 1.000000 4.000000 1.000000 -60.708740 114.000000 148.000000 0.050694 0.992468 0.111526
-7360.00000000 10040.00000000 -410.00000000 236 215 30 97.000000 1.000000 4.000000 1.000000 -60.708740 114.000000 148.000000 0.214935 0.975099 0.054644
-7360.00000000 10020.00000000 -420.00000000 236 215 30 97.000000 1.000000 4.000000 1.000000 -60.708740 114.000000 148.000000 0.303660 0.952780 0.001229
-7370.00000000 10050.00000000 -500.00000000 236 215 30 97.000000 1.000000 4.000000 1.000000 -60.708740 114.000000 148.000000 0.691144 0.722112 0.029560
-7370.00000000 10050.00000000 -500.00000000 236 215 30 97.000000 1.000000 4.000000 1.000000 -60.708740 114.000000 148.000000 0.691144 0.722112 0.029560
-7320.00000000 9960.00000000 -580.00000000 236 215 30 97.000000 1.000000 4.000000 1.000000 -60.708740 114.000000 148.000000 0.533355 0.844128 0.054595
-7330.00000000 9980.00000000 -680.00000000 236 215 30 97.000000 1.000000 4.000000 1.000000 -60.708740 114.000000 148.000000 0.629477 0.707150 -0.322020
-7310.00000000 9960.00000000 -670.00000000 236 215 30 97.000000 1.000000 4.000000 1.000000 -60.708740 114.000000 148.000000 0.626049 0.779424 -0.023703
-7330.00000000 9970.00000000 -690.00000000 236 215 30 97.000000 1.000000 4.000000 1.000000 -60.708740 114.000000 148.000000 0.759287 0.624846 -0.181801
-7300.00000000 9910.00000000 -610.00000000 236 215 30 97.000000 1.000000 4.000000 1.000000 -60.708740 114.000000 148.000000 0.362411 0.931358 0.035072
-7370.00000000 10050.00000000 -560.00000000 236 215 30 97.000000 1.000000 4.000000 1.000000 -60.708740 114.000000 148.000000 0.818182 0.566211 0.099920
-7370.00000000 10050.00000000 -560.00000000 236 215 30 97.000000 1.000000 4.000000 1.000000 -60.708740 114.000000 148.000000 0.818182 0.566211 0.099920
-7360.00000000 9990.00000000 -640.00000000 236 215 30 97.000000 1.000000 4.000000 1.000000 -60.708740 114.000000 148.000000 0.748279 0.658195 0.082819
-7360.00000000 10010.00000000 -690.00000000 236 215 30 97.000000 1.000000 4.000000 1.000000 -60.708740 114.000000 148.000000 0.890436 0.419798 -0.175763
-7380.00000000 10030.00000000 -640.00000000 236 215 30 97.000000 1.000000 4.000000 1.000000 -60.708740 114.000000 148.000000 0.782314 0.596989 0.177730
-7380.00000000 10050.00000000 -680.00000000 236 215 30 97.000000 1.000000 4.000000 1.000000 -60.708740 114.000000 148.000000 0.539637 0.794509 -0.278472
-7420.00000000 10180.00000000 -500.00000000 236 215 30 97.000000 1.000000 4.000000 1.000000 -60.708740 114.000000 148.000000 0.889594 0.453652 -0.053130
-7430.00000000 10180.00000000 -650.00000000 236 215 30 97.000000 1.000000 4.000000 1.000000 -60.708740 114.000000 148.000000 0.893737 0.171817 0.414382
-7420.00000000 10190.00000000 -660.00000000 236 215 30 97.000000 1.000000 4.000000 1.000000 -60.708740 114.000000 148.000000 0.998676 0.050605 -0.009295
-7440.00000000 10160.00000000 -640.00000000 236 215 30 97.000000 1.000000 4.000000 1.000000 -60.708740 114.000000 148.000000 0.953091 -0.142233 0.267184
-7420.00000000 10200.00000000 -650.00000000 236 215 30 97.000000 1.000000 4.000000 1.000000 -60.708740 114.000000 148.000000 0.998676 -0.050605 -0.009295
-7430.00000000 10210.00000000 -620.00000000 236 215 30 97.000000 1.000000 4.000000 1.000000 -60.708740 114.000000 148.000000 0.995562 -0.090111 0.027142
-7420.00000000 10140.00000000 -690.00000000 236 215 30 97.000000 1.000000 4.000000 1.000000 -60.708740 114.000000 148.000000 0.891992 0.348131 0.288366
-7430.00000000 10110.00000000 -660.00000000 236 215 30 97.000000 1.000000 4.000000 1.000000 -60.708740 114.000000 148.000000 0.902119 0.214235 0.374547
-7390.00000000 10330.00000000 -760.00000000 236 215 30 97.000000 1.000000 4.000000 1.000000 -60.708740 114.000000 148.000000 -0.691018 0.722107 0.032502
-7390.00000000 10330.00000000 -760.00000000 236 215 30 97.000000 1.000000 4.000000 1.000000 -60.708740 114.000000 148.000000 -0.691018 0.722107 0.032502
-7410.00000000 10260.00000000 -760.00000000 236 215 30 97.000000 1.000000 4.000000 1.000000 -60.708740 114.000000 148.000000 0.898241 -0.434809 -0.064063
-7400.00000000 10320.00000000 -790.00000000 236 215 30 97.000000 1.000000 4.000000 1.000000 -60.708740 114.000000 148.000000 0.814611 -0.557522 0.159933
-7410.00000000 10310.00000000 -820.00000000 236 215 30 97.000000 1.000000 4.000000 1.000000 -60.708740 114.000000 148.000000 0.841760 -0.405989 0.355828
-7400.00000000 10320.00000000 -790.00000000 236 215 30 97.000000 1.000000 4.000000 1.000000 -60.708740 114.000000 148.000000 0.814611 -0.557522 0.159933
-7410.00000000 10120.00000000 -700.00000000 236 215 30 97.000000 1.000000 4.000000 1.000000 -60.708740 114.000000 148.000000 0.925466 0.340224 -0.166612
-7410.00000000 10110.00000000 -720.00000000 236 215 30 97.000000 1.000000 4.000000 1.000000 -60.708740 114.000000 148.000000 0.920684 0.348253 -0.176241
-7400.00000000 10100.00000000 -710.00000000 236 215 30 97.000000 1.000000 4.000000 1.000000 -60.708740 114.000000 148.000000 0.933209 0.314767 -0.173330
-7410.00000000 10120.00000000 -750.00000000 236 215 30 97.000000 1.000000 4.000000 1.000000 -60.708740 114.000000 148.000000 0.914950 0.390946 -0.100137
-7410.00000000 10110.00000000 -730.00000000 236 215 30 97.000000 1.000000 4.000000 1.000000 -60.708740 114.000000 148.000000 0.959049 0.283217 -0.003647
-7410.00000000 10080.00000000 -850.00000000 236 215 30 97.000000 1.000000 4.000000 1.000000 -60.708740 114.000000 148.000000 0.894164 0.447738 -0.001313
-7400.00000000 10090.00000000 -840.00000000 236 215 30 97.000000 1.000000 4.000000 1.000000 -60.708740 114.000000 148.000000 0.969988 0.242796 -0.013156
-7400.00000000 10110.00000000 -870.00000000 236 215 30 97.000000 1.000000 4.000000 1.000000 -60.708740 114.000000 148.000000 0.845427 -0.063302 0.530326
-7230.00000000 9920.00000000 -990.00000000 236 215 30 97.000000 1.000000 4.000000 1.000000 -60.708740 114.000000 148.000000 0.298363 0.761066 -0.575985
-7230.00000000 9870.00000000 -770.00000000 236 215 30 97.000000 1.000000 4.000000 1.000000 -60.708740 114.000000 148.000000 0.246806 0.861549 -0.443645
-7230.00000000 9870.00000000 -770.00000000 236 215 30 97.000000 1.000000 4.000000 1.000000 -60.708740 114.000000 148.000000 0.246806 0.861549 -0.443645
-7170.00000000 9820.00000000 -810.00000000 236 215 30 97.000000 1.000000 4.000000 1.000000 -60.708740 114.000000 148.000000 -0.210994 0.883813 -0.417561
-7180.00000000 9840.00000000 -800.00000000 236 215 30 97.000000 1.000000 4.000000 1.000000 -60.708740 114.000000 148.000000 0.205943 0.911620 -0.355719
-7180.00000000 9840.00000000 -800.00000000 236 215 30 97.000000 1.000000 4.000000 1.000000 -60.708740 114.000000 148.000000 0.205943 0.911620 -0.355719
-7170.00000000 9840.00000000 -840.00000000 236 215 30 97.000000 1.000000 4.000000 1.000000 -60.708740 114.000000 148.000000 -0.269645 0.958593 0.091602
-7210.00000000 9850.00000000 -850.00000000 236 215 30 97.000000 1.000000 4.000000 1.000000 -60.708740 114.000000 148.000000 0.155303 0.776516 -0.610658
-7110.00000000 9790.00000000 -1020.00000000 236 215 30 97.000000 1.000000 4.000000 1.000000 -60.708740 114.000000 148.000000 0.645523 -0.748323 0.152688
-7140.00000000 9810.00000000 -970.00000000 236 215 30 97.000000 1.000000 4.000000 1.000000 -60.708740 114.000000 148.000000 -0.487154 0.837535 -0.247419
-7200.00000000 9870.00000000 -1010.00000000 236 215 30 97.000000 1.000000 4.000000 1.000000 -60.708740 114.000000 148.000000 0.242968 0.945791 -0.215514
-7230.00000000 9880.00000000 -960.00000000 236 215 30 97.000000 1.000000 4.000000 1.000000 -60.708740 114.000000 148.000000 -0.183968 0.947092 -0.263006
-7220.00000000 9880.00000000 -960.00000000 236 215 30 97.000000 1.000000 4.000000 1.000000 -60.708740 114.000000 148.000000 -0.039966 0.999159 0.009223
-7290.00000000 9980.00000000 -750.00000000 236 215 30 97.000000 1.000000 4.000000 1.000000 -60.708740 114.000000 148.000000 0.054679 0.918870 -0.390753
-7320.00000000 9970.00000000 -770.00000000 236 215 30 97.000000 1.000000 4.000000 1.000000 -60.708740 114.000000 148.000000 0.456142 0.889544 0.025416
-7310.00000000 9950.00000000 -850.00000000 236 215 30 97.000000 1.000000 4.000000 1.000000 -60.708740 114.000000 148.000000 0.709525 0.638734 -0.297647
-7290.00000000 9920.00000000 -810.00000000 236 215 30 97.000000 1.000000 4.000000 1.000000 -60.708740 114.000000 148.000000 0.601086 0.799155 -0.006877
-7370.00000000 10050.00000000 -740.00000000 236 215 30 97.000000 1.000000 4.000000 1.000000 -60.708740 114.000000 148.000000 0.905060 0.419085 0.072350
-7340.00000000 9990.00000000 -710.00000000 236 215 30 97.000000 1.000000 4.000000 1.000000 -60.708740 114.000000 148.000000 0.672411 0.739793 0.023864
-7360.00000000 10000.00000000 -760.00000000 236 215 30 97.000000 1.000000 4.000000 1.000000 -60.708740 114.000000 148.000000 0.851405 0.509103 -0.126188
-7390.00000000 10060.00000000 -750.00000000 236 215 30 97.000000 1.000000 4.000000 1.000000 -60.708740 114.000000 148.000000 0.747204 0.611348 -0.260652
-7380.00000000 10050.00000000 -770.00000000 236 215 30 97.000000 1.000000 4.000000 1.000000 -60.708740 114.000000 148.000000 0.767876 0.573920 -0.284575
-7380.00000000 10010.00000000 -770.00000000 236 215 30 97.000000 1.000000 4.000000 1.000000 -60.708740 114.000000 148.000000 0.946978 0.299677 -0.115875
-7370.00000000 10000.00000000 -800.00000000 236 215 30 97.000000 1.000000 4.000000 1.000000 -60.708740 114.000000 148.000000 0.822804 0.481145 0.302478
-7350.00000000 9990.00000000 -810.00000000 236 215 30 97.000000 1.000000 4.000000 1.000000 -60.708740 114.000000 148.000000 0.573680 0.807895 0.134896
-7370.00000000 10010.00000000 -800.00000000 236 215 30 97.000000 1.000000 4.000000 1.000000 -60.708740 114.000000 148.000000 0.831357 0.555603 0.012286
-7350.00000000 10010.00000000 -850.00000000 236 215 30 97.000000 1.000000 4.000000 1.000000 -60.708740 114.000000 148.000000 0.868013 0.404259 -0.288321
-7340.00000000 9990.00000000 -840.00000000 236 215 30 97.000000 1.000000 4.000000 1.000000 -60.708740 114.000000 148.000000 0.614329 0.729816 -0.299947
-7360.00000000 10000.00000000 -840.00000000 236 215 30 97.000000 1.000000 4.000000 1.000000 -60.708740 114.000000 148.000000 0.691378 0.691378 0.209744
-7350.00000000 10010.00000000 -830.00000000 236 215 30 97.000000 1.000000 4.000000 1.000000 -60.708740 114.000000 148.000000 0.893167 0.431721 0.125978
-7370.00000000 10000.00000000 -830.00000000 236 215 30 97.000000 1.000000 4.000000 1.000000 -60.708740 114.000000 148.000000 0.752644 0.658391 -0.006930
-7390.00000000 10070.00000000 -810.00000000 236 215 30 97.000000 1.000000 4.000000 1.000000 -60.708740 114.000000 148.000000 0.919404 0.392157 0.030166
-7390.00000000 10050.00000000 -800.00000000 236 215 30 97.000000 1.000000 4.000000 1.000000 -60.708740 114.000000 148.000000 0.877302 0.416980 -0.237634
-7380.00000000 10050.00000000 -860.00000000 236 215 30 97.000000 1.000000 4.000000 1.000000 -60.708740 114.000000 148.000000 0.841263 0.539129 0.040192
-7380.00000000 10040.00000000 -850.00000000 236 215 30 97.000000 1.000000 4.000000 1.000000 -60.708740 114.000000 148.000000 0.964357 0.221945 0.144069
-7340.00000000 9980.00000000 -720.00000000 236 215 30 97.000000 1.000000 4.000000 1.000000 -60.708740 114.000000 148.000000 0.682514 0.728494 0.058912
-7360.00000000 9980.00000000 -860.00000000 236 215 30 97.000000 1.000000 4.000000 1.000000 -60.708740 114.000000 148.000000 0.903340 0.422288 -0.075164
-7340.00000000 9970.00000000 -840.00000000 236 215 30 97.000000 1.000000 4.000000 1.000000 -60.708740 114.000000 148.000000 0.689576 0.710608 -0.139718
-7340.00000000 9960.00000000 -840.00000000 236 215 30 97.000000 1.000000 4.000000 1.000000 -60.708740 114.000000 148.000000 0.722221 0.660095 -0.206571
-7350.00000000 9970.00000000 -840.00000000 236 215 30 97.000000 1.000000 4.000000 1.000000 -60.708740 114.000000 148.000000 0.843321 0.475994 -0.249476
-7340.00000000 9970.00000000 -840.00000000 236 215 30 97.000000 1.000000 4.000000 1.000000 -60.708740 114.000000 148.000000 0.689576 0.710608 -0.139718
-7340.00000000 9980.00000000 -820.00000000 236 215 30 97.000000 1.000000 4.000000 1.000000 -60.708740 114.000000 148.000000 0.902841 0.426379 -0.055497
-7290.00000000 9920.00000000 -900.00000000 236 215 30 97.000000 1.000000 4.000000 1.000000 -60.708740 114.000000 148.000000 0.467047 0.836341 -0.287056
-7290.00000000 9920.00000000 -930.00000000 236 215 30 97.000000 1.000000 4.000000 1.000000 -60.708740 114.000000 148.000000 0.559988 0.687031 -0.463035
-7280.00000000 9910.00000000 -910.00000000 236 215 30 97.000000 1.000000 4.000000 1.000000 -60.708740 114.000000 148.000000 0.567906 0.797518 -0.203589
-7330.00000000 9960.00000000 -870.00000000 236 215 30 97.000000 1.000000 4.000000 1.000000 -60.708740 114.000000 148.000000 0.682039 0.547977 -0.484298
-7330.00000000 9970.00000000 -890.00000000 236 215 30 97.000000 1.000000 4.000000 1.000000 -60.708740 114.000000 148.000000 0.595485 0.793488 -0.125599
-7330.00000000 9980.00000000 -880.00000000 236 215 30 97.000000 1.000000 4.000000 1.000000 -60.708740 114.000000 148.000000 0.729001 0.684397 -0.012545
-7330.00000000 9950.00000000 -910.00000000 236 215 30 97.000000 1.000000 4.000000 1.000000 -60.708740 114.000000 148.000000 0.552601 0.783774 -0.283426
-7330.00000000 9940.00000000 -910.00000000 236 215 30 97.000000 1.000000 4.000000 1.000000 -60.708740 114.000000 148.000000 0.730562 0.556541 -0.395653
-7290.00000000 9910.00000000 -960.00000000 236 215 30 97.000000 1.000000 4.000000 1.000000 -60.708740 114.000000 148.000000 0.400899 0.704460 -0.585675
-7330.00000000 9950.00000000 -980.00000000 236 215 30 97.000000 1.000000 4.000000 1.000000 -60.708740 114.000000 148.000000 0.959928 0.280030 0.011006
-7320.00000000 9950.00000000 -950.00000000 236 215 30 97.000000 1.000000 4.000000 1.000000 -60.708740 114.000000 148.000000 0.864389 0.394579 -0.311671
-7330.00000000 9960.00000000 -1000.00000000 236 215 30 97.000000 1.000000 4.000000 1.000000 -60.708740 114.000000 148.000000 0.864984 0.442304 -0.237003
-7330.00000000 9960.00000000 -1000.00000000 236 215 30 97.000000 1.000000 4.000000 1.000000 -60.708740 114.000000 148.000000 0.864984 0.442304 -0.237003
-7330.00000000 9940.00000000 -960.00000000 236 215 30 97.000000 1.000000 4.000000 1.000000 -60.708740 114.000000 148.000000 0.785956 0.610975 -0.094781
-7310.00000000 9940.00000000 -970.00000000 236 215 30 97.000000 1.000000 4.000000 1.000000 -60.708740 114.000000 148.000000 0.358072 0.880826 -0.309725
-7310.00000000 9930.00000000 -1020.00000000 236 215 30 97.000000 1.000000 4.000000 1.000000 -60.708740 114.000000 148.000000 0.642124 0.763333 -0.070706
-7310.00000000 9930.00000000 -990.00000000 236 215 30 97.000000 1.000000 4.000000 1.000000 -60.708740 114.000000 148.000000 0.639907 0.768168 -0.020912
-7300.00000000 9910.00000000 -1000.00000000 236 215 30 97.000000 1.000000 4.000000 1.000000 -60.708740 114.000000 148.000000 0.504891 0.834366 0.221176
-7310.00000000 9930.00000000 -1020.00000000 236 215 30 97.000000 1.000000 4.000000 1.000000 -60.708740 114.000000 148.000000 0.642124 0.763333 -0.070706
-7370.00000000 10010.00000000 -890.00000000 236 215 30 97.000000 1.000000 4.000000 1.000000 -60.708740 114.000000 148.000000 0.899144 0.432517 0.066856
-7370.00000000 10020.00000000 -870.00000000 236 215 30 97.000000 1.000000 4.000000 1.000000 -60.708740 114.000000 148.000000 0.981806 0.070728 0.176222
-7370.00000000 9990.00000000 -910.00000000 236 215 30 97.000000 1.000000 4.000000 1.000000 -60.708740 114.000000 148.000000 0.882055 0.467777 0.056243
-7370.00000000 10000.00000000 -920.00000000 236 215 30 97.000000 1.000000 4.000000 1.000000 -60.708740 114.000000 148.000000 0.930941 0.358869 0.067536
-7390.00000000 10000.00000000 -920.00000000 236 215 30 97.000000 1.000000 4.000000 1.000000 -60.708740 114.000000 148.000000 0.853372 0.468369 -0.228880
-7370.00000000 10000.00000000 -960.00000000 236 215 30 97.000000 1.000000 4.000000 1.000000 -60.708740 114.000000 148.000000 0.850604 0.510363 -0.126500
-7380.00000000 10000.00000000 -980.00000000 236 215 30 97.000000 1.000000 4.000000 1.000000 -60.708740 114.000000 148.000000 0.771883 0.561804 0.297613
-7360.00000000 9960.00000000 -940.00000000 236 215 30 97.000000 1.000000 4.000000 1.000000 -60.708740 114.000000 148.000000 0.843198 0.380143 -0.380143
-7340.00000000 9980.00000000 -900.00000000 236 215 30 97.000000 1.000000 4.000000 1.000000 -60.708740 114.000000 148.000000 0.732567 0.677876 0.061887
-7340.00000000 9970.00000000 -940.00000000 236 215 30 97.000000 1.000000 4.000000 1.000000 -60.708740 114.000000 148.000000 0.675691 0.678901 0.287289
-7350.00000000 9970.00000000 -1010.00000000 236 215 30 97.000000 1.000000 4.000000 1.000000 -60.708740 114.000000 148.000000 0.860334 0.507941 -0.042673
-7340.00000000 9960.00000000 -960.00000000 236 215 30 97.000000 1.000000 4.000000 1.000000 -60.708740 114.000000 148.000000 0.750210 0.618649 0.233364
-7260.00000000 9890.00000000 -820.00000000 236 215 30 97.000000 1.000000 4.000000 1.000000 -60.708740 114.000000 148.000000 0.243524 0.965170 -0.095624
-7250.00000000 9870.00000000 -860.00000000 236 215 30 97.000000 1.000000 4.000000 1.000000 -60.708740 114.000000 148.000000 0.079305 0.996206 0.035850
-7250.00000000 9870.00000000 -780.00000000 236 215 30 97.000000 1.000000 4.000000 1.000000 -60.708740 114.000000 148.000000 0.408420 0.834187 -0.370574
-7250.00000000 9880.00000000 -930.00000000 236 215 30 97.000000 1.000000 4.000000 1.000000 -60.708740 114.000000 148.000000 0.219130 0.961811 -0.164020
-7290.00000000 9900.00000000 -940.00000000 236 215 30 97.000000 1.000000 4.000000 1.000000 -60.708740 114.000000 148.000000 0.414096 0.909414 -0.038613
-7290.00000000 9900.00000000 -940.00000000 236 215 30 97.000000 1.000000 4.000000 1.000000 -60.708740 114.000000 148.000000 0.414096 0.909414 -0.038613
-7250.00000000 9880.00000000 -930.00000000 236 215 30 97.000000 1.000000 4.000000 1.000000 -60.708740 114.000000 148.000000 0.219130 0.961811 -0.164020
-7270.00000000 9890.00000000 -1000.00000000 236 215 30 97.000000 1.000000 4.000000 1.000000 -60.708740 114.000000 148.000000 0.530524 0.844594 0.072151
-7280.00000000 9890.00000000 -960.00000000 236 215 30 97.000000 1.000000 4.000000 1.000000 -60.708740 114.000000 148.000000 0.659545 0.718795 -0.219848
-7300.00000000 9900.00000000 -970.00000000 236 215 30 97.000000 1.000000 4.000000 1.000000 -60.708740 114.000000 148.000000 0.303028 0.843816 -0.442887
-7230.00000000 9870.00000000 -1090.00000000 236 215 30 97.000000 1.000000 4.000000 1.000000 -60.708740 114.000000 148.000000 0.334422 0.931702 0.141751
-7210.00000000 9860.00000000 -1100.00000000 236 215 30 97.000000 1.000000 4.000000 1.000000 -60.708740 114.000000 148.000000 0.358738 0.925021 -0.125077
-7180.00000000 9830.00000000 -1170.00000000 236 215 30 97.000000 1.000000 4.000000 1.000000 -60.708740 114.000000 148.000000 0.334776 0.925887 -0.175092
-7240.00000000 9890.00000000 -1130.00000000 236 215 30 97.000000 1.000000 4.000000 1.000000 -60.708740 114.000000 148.000000 0.470637 0.840974 -0.266951
-7180.00000000 9840.00000000 -1140.00000000 236 215 30 97.000000 1.000000 4.000000 1.000000 -60.708740 114.000000 148.000000 -0.310947 0.948322 -0.063221
-7230.00000000 9850.00000000 -1130.00000000 236 215 30 97.000000 1.000000 4.000000 1.000000 -60.708740 114.000000 148.000000 0.233684 0.800096 -0.552484
-7220.00000000 9830.00000000 -1210.00000000 236 215 30 97.000000 1.000000 4.000000 1.000000 -60.708740 114.000000 148.000000 0.078810 0.996463 -0.029149
-7230.00000000 9830.00000000 -1220.00000000 236 215 30 97.000000 1.000000 4.000000 1.000000 -60.708740 114.000000 148.000000 0.097074 0.995277 -0.001067
-7180.00000000 9830.00000000 -1230.00000000 236 215 30 97.000000 1.000000 4.000000 1.000000 -60.708740 114.000000 148.000000 0.303209 0.952405 -0.031453
-7280.00000000 9910.00000000 -1040.00000000 236 215 30 97.000000 1.000000 4.000000 1.000000 -60.708740 114.000000 148.000000 0.509394 0.830634 0.224868
-7290.00000000 9920.00000000 -1050.00000000 236 215 30 97.000000 1.000000 4.000000 1.000000 -60.708740 114.000000 148.000000 0.852802 0.485395 -0.192665
-7330.00000000 9960.00000000 -1050.00000000 236 215 30 97.000000 1.000000 4.000000 1.000000 -60.708740 114.000000 148.000000 0.933766 0.357367 0.019213
-7330.00000000 9950.00000000 -1060.00000000 236 215 30 97.000000 1.000000 4.000000 1.000000 -60.708740 114.000000 148.000000 0.892269 0.432658 -0.129088
-7330.00000000 9950.00000000 -1050.00000000 236 215 30 97.000000 1.000000 4.000000 1.000000 -60.708740 114.000000 148.000000 0.804481 0.587834 -0.085214
-7330.00000000 9950.00000000 -1090.00000000 236 215 30 97.000000 1.000000 4.000000 1.000000 -60.708740 114.000000 148.000000 0.858788 0.510294 0.045636
-7320.00000000 9930.00000000 -1060.00000000 236 215 30 97.000000 1.000000 4.000000 1.000000 -60.708740 114.000000 148.000000 0.832196 0.539684 0.127243
-7330.00000000 9940.00000000 -1060.00000000 236 215 30 97.000000 1.000000 4.000000 1.000000 -60.708740 114.000000 148.000000 0.698176 0.672960 -0.244283
-7320.00000000 9930.00000000 -1050.00000000 236 215 30 97.000000 1.000000 4.000000 1.000000 -60.708740 114.000000 148.000000 0.817774 0.537569 -0.205586
-7300.00000000 9920.00000000 -1070.00000000 236 215 30 97.000000 1.000000 4.000000 1.000000 -60.708740 114.000000 148.000000 0.686880 0.716680 -0.120688
-7330.00000000 9940.00000000 -1060.00000000 236 215 30 97.000000 1.000000 4.000000 1.000000 -60.708740 114.000000 148.000000 0.698176 0.672960 -0.244283
-7310.00000000 9930.00000000 -1040.00000000 236 215 30 97.000000 1.000000 4.000000 1.000000 -60.708740 114.000000 148.000000 0.577543 0.808560 -0.112584
-7330.00000000 9920.00000000 -1110.00000000 236 215 30 97.000000 1.000000 4.000000 1.000000 -60.708740 114.000000 148.000000 0.568336 0.755098 -0.326834
-7310.00000000 9910.00000000 -1080.00000000 236 215 30 97.000000 1.000000 4.000000 1.000000 -60.708740 114.000000 148.000000 0.740647 0.668459 0.067857
-7320.00000000 9940.00000000 -1080.00000000 236 215 30 97.000000 1.000000 4.000000 1.000000 -60.708740 114.000000 148.000000 0.731679 0.676182 0.086166
-7310.00000000 9920.00000000 -1100.00000000 236 215 30 97.000000 1.000000 4.000000 1.000000 -60.708740 114.000000 148.000000 0.657374 0.705125 -0.265815
-7320.00000000 9910.00000000 -1100.00000000 236 215 30 97.000000 1.000000 4.000000 1.000000 -60.708740 114.000000 148.000000 0.779059 0.575281 -0.249236
-7330.00000000 9930.00000000 -1080.00000000 236 215 30 97.000000 1.000000 4.000000 1.000000 -60.708740 114.000000 148.000000 0.544191 0.780379 -0.308002
-7320.00000000 9960.00000000 -1140.00000000 236 215 30 97.000000 1.000000 4.000000 1.000000 -60.708740 114.000000 148.000000 0.760784 0.589963 0.270466
-7310.00000000 9930.00000000 -1150.00000000 236 215 30 97.000000 1.000000 4.000000 1.000000 -60.708740 114.000000 148.000000 0.805309 0.465895 -0.366632
-7370.00000000 9990.00000000 -1070.00000000 236 215 30 97.000000 1.000000 4.000000 1.000000 -60.708740 114.000000 148.000000 0.981787 -0.159373 0.103410
-7350.00000000 10000.00000000 -1070.00000000 236 215 30 97.000000 1.000000 4.000000 1.000000 -60.708740 114.000000 148.000000 0.963025 -0.190503 0.190503
-7380.00000000 9990.00000000 -1060.00000000 236 215 30 97.000000 1.000000 4.000000 1.000000 -60.708740 114.000000 148.000000 0.904847 -0.001302 0.425734
-7340.00000000 9960.00000000 -1060.00000000 236 215 30 97.000000 1.000000 4.000000 1.000000 -60.708740 114.000000 148.000000 0.692358 0.704478 -0.156046
-7360.00000000 9980.00000000 -1090.00000000 236 215 30 97.000000 1.000000 4.000000 1.000000 -60.708740 114.000000 148.000000 0.800887 0.561999 0.206730
-7350.00000000 9980.00000000 -1100.00000000 236 215 30 97.000000 1.000000 4.000000 1.000000 -60.708740 114.000000 148.000000 0.869142 0.493738 -0.028563
-7350.00000000 9970.00000000 -1060.00000000 236 215 30 97.000000 1.000000 4.000000 1.000000 -60.708740 114.000000 148.000000 0.747122 0.596737 -0.292769
-7360.00000000 9970.00000000 -1150.00000000 236 215 30 97.000000 1.000000 4.000000 1.000000 -60.708740 114.000000 148.000000 0.923328 0.179027 0.339728
-7340.00000000 9930.00000000 -1160.00000000 236 215 30 97.000000 1.000000 4.000000 1.000000 -60.708740 114.000000 148.000000 0.940298 0.338302 -0.037303
-7340.00000000 9920.00000000 -1140.00000000 236 215 30 97.000000 1.000000 4.000000 1.000000 -60.708740 114.000000 148.000000 0.962314 0.263596 -0.066845
-7340.00000000 9910.00000000 -1150.00000000 236 215 30 97.000000 1.000000 4.000000 1.000000 -60.708740 114.000000 148.000000 0.847329 0.526946 -0.066044
-7310.00000000 9910.00000000 -1200.00000000 236 215 30 97.000000 1.000000 4.000000 1.000000 -60.708740 114.000000 148.000000 0.873797 0.378392 -0.305449
-7290.00000000 9900.00000000 -1100.00000000 236 215 30 97.000000 1.000000 4.000000 1.000000 -60.708740 114.000000 148.000000 0.640296 0.728395 0.243847
-7290.00000000 9900.00000000 -1100.00000000 236 215 30 97.000000 1.000000 4.000000 1.000000 -60.708740 114.000000 148.000000 0.640296 0.728395 0.243847
-7260.00000000 9890.00000000 -1090.00000000 236 215 30 97.000000 1.000000 4.000000 1.000000 -60.708740 114.000000 148.000000 0.586681 0.787829 -0.187433
-7270.00000000 9880.00000000 -1080.00000000 236 215 30 97.000000 1.000000 4.000000 1.000000 -60.708740 114.000000 148.000000 0.336166 0.776882 -0.532397
-7250.00000000 9870.00000000 -1110.00000000 236 215 30 97.000000 1.000000 4.000000 1.000000 -60.708740 114.000000 148.000000 0.509225 0.670564 -0.539476
-7250.00000000 9860.00000000 -1110.00000000 236 215 30 97.000000 1.000000 4.000000 1.000000 -60.708740 114.000000 148.000000 0.336391 0.903409 -0.265881
-7280.00000000 9890.00000000 -1130.00000000 236 215 30 97.000000 1.000000 4.000000 1.000000 -60.708740 114.000000 148.000000 0.469950 0.871938 0.137370
-7300.00000000 9890.00000000 -1130.00000000 236 215 30 97.000000 1.000000 4.000000 1.000000 -60.708740 114.000000 148.000000 0.520988 0.827810 -0.208092
-7290.00000000 9880.00000000 -1230.00000000 236 215 30 97.000000 1.000000 4.000000 1.000000 -60.708740 114.000000 148.000000 0.631271 0.768950 0.101062
-7290.00000000 9900.00000000 -1220.00000000 236 215 30 97.000000 1.000000 4.000000 1.000000 -60.708740 114.000000 148.000000 0.727977 0.574202 -0.374622
-7320.00000000 9890.00000000 -1220.00000000 236 215 30 97.000000 1.000000 4.000000 1.000000 -60.708740 114.000000 148.000000 0.906564 0.420762 0.033183
-7300.00000000 9900.00000000 -1220.00000000 236 215 30 97.000000 1.000000 4.000000 1.000000 -60.708740 114.000000 148.000000 0.623741 0.771898 0.122970
-7320.00000000 9890.00000000 -1270.00000000 236 215 30 97.000000 1.000000 4.000000 1.000000 -60.708740 114.000000 148.000000 0.802617 0.439107 -0.403721
-7440.00000000 10310.00000000 -830.00000000 236 215 30 97.000000 1.000000 4.000000 1.000000 -60.708740 114.000000 148.000000 0.845716 -0.533493 0.012217
-7440.00000000 10280.00000000 -820.00000000 236 215 30 97.000000 1.000000 4.000000 1.000000 -60.708740 114.000000 148.000000 0.941856 -0.276369 0.191121
-7430.00000000 10270.00000000 -860.00000000 236 215 30 97.000000 1.000000 4.000000 1.000000 -60.708740 114.000000 148.000000 0.792312 -0.606725 -0.064241
-7440.00000000 10280.00000000 -830.00000000 236 215 30 97.000000 1.000000 4.000000 1.000000 -60.708740 114.000000 148.000000 0.916175 -0.393806 0.074431
-7430.00000000 10260.00000000 -880.00000000 236 215 30 97.000000 1.000000 4.000000 1.000000 -60.708740 114.000000 148.000000 0.862059 -0.503909 -0.054139
-7450.00000000 10280.00000000 -910.00000000 236 215 30 97.000000 1.000000 4.000000 1.000000 -60.708740 114.000000 148.000000 0.698378 -0.592714 0.401196
-7440.00000000 10190.00000000 -760.00000000 236 215 30 97.000000 1.000000 4.000000 1.000000 -60.708740 114.000000 148.000000 0.942411 -0.332088 0.039748
-7430.00000000 10200.00000000 -760.00000000 236 215 30 97.000000 1.000000 4.000000 1.000000 -60.708740 114.000000 148.000000 0.956630 -0.259224 -0.132902
-7420.00000000 10210.00000000 -730.00000000 236 215 30 97.000000 1.000000 4.000000 1.000000 -60.708740 114.000000 148.000000 0.983508 -0.067787 0.167684
-7440.00000000 10220.00000000 -780.00000000 236 215 30 97.000000 1.000000 4.000000 1.000000 -60.708740 114.000000 148.000000 0.950007 -0.277365 0.143372
-7480.00000000 10230.00000000 -840.00000000 236 215 30 97.000000 1.000000 4.000000 1.000000 -60.708740 114.000000 148.000000 0.969098 -0.245602 0.022987
-7470.00000000 10190.00000000 -850.00000000 236 215 30 97.000000 1.000000 4.000000 1.000000 -60.708740 114.000000 148.000000 0.716186 -0.347489 0.605251
-7420.00000000 10120.00000000 -720.00000000 236 215 30 97.000000 1.000000 4.000000 1.000000 -60.708740 114.000000 148.000000 0.957057 0.289457 0.016013
-7440.00000000 10140.00000000 -830.00000000 236 215 30 97.000000 1.000000 4.000000 1.000000 -60.708740 114.000000 148.000000 0.983798 0.124333 -0.129161
-7430.00000000 10090.00000000 -840.00000000 236 215 30 97.000000 1.000000 4.000000 1.000000 -60.708740 114.000000 148.000000 0.948315 0.283019 -0.143522
-7460.00000000 10240.00000000 -940.00000000 236 215 30 97.000000 1.000000 4.000000 1.000000 -60.708740 114.000000 148.000000 0.952057 -0.173713 0.251817
-7460.00000000 10200.00000000 -910.00000000 236 215 30 97.000000 1.000000 4.000000 1.000000 -60.708740 114.000000 148.000000 0.946889 -0.273063 0.169815
-7420.00000000 10150.00000000 -900.00000000 236 215 30 97.000000 1.000000 4.000000 1.000000 -60.708740 114.000000 148.000000 0.977725 -0.181701 0.105065
-7420.00000000 10130.00000000 -890.00000000 236 215 30 97.000000 1.000000 4.000000 1.000000 -60.708740 114.000000 148.000000 0.965488 -0.232694 -0.116990
-7460.00000000 10120.00000000 -930.00000000 236 215 30 97.000000 1.000000 4.000000 1.000000 -60.708740 114.000000 148.000000 0.859852 -0.390561 0.328812
-7440.00000000 10100.00000000 -890.00000000 236 215 30 97.000000 1.000000 4.000000 1.000000 -60.708740 114.000000 148.000000 0.989318 -0.113032 0.092057
-7430.00000000 10080.00000000 -920.00000000 236 215 30 97.000000 1.000000 4.000000 1.000000 -60.708740 114.000000 148.000000 0.957241 0.271456 -0.100010
-7430.00000000 10110.00000000 -920.00000000 236 215 30 97.000000 1.000000 4.000000 1.000000 -60.708740 114.000000 148.000000 0.996065 -0.068883 0.055762
-7440.00000000 10090.00000000 -920.00000000 236 215 30 97.000000 1.000000 4.000000 1.000000 -60.708740 114.000000 148.000000 0.979207 0.094131 0.179705
-7470.00000000 10130.00000000 -920.00000000 236 215 30 97.000000 1.000000 4.000000 1.000000 -60.708740 114.000000 148.000000 0.989576 -0.089539 -0.112795
-7430.00000000 10080.00000000 -1020.00000000 236 215 30 97.000000 1.000000 4.000000 1.000000 -60.708740 114.000000 148.000000 0.990982 0.132651 -0.018950
-7480.00000000 10150.00000000 -960.00000000 236 215 30 97.000000 1.000000 4.000000 1.000000 -60.708740 114.000000 148.000000 0.790386 -0.434793 0.431561
-7430.00000000 10050.00000000 -1100.00000000 236 215 30 97.000000 1.000000 4.000000 1.000000 -60.708740 114.000000 148.000000 0.978758 0.205018 0.001158
