//X Y Z R G B PointSourceId ScanDirectionFlag NumberOfReturns ReturnNumber GpsTime Intensity Classification Nx Ny Nz
-6190.00000000 6140.00000000 330.00000000 217 138 78 97.000000 1.000000 4.000000 1.000000 -60.708740 114.000000 146.000000 0.322502 0.859491 0.396570
-6220.00000000 6130.00000000 340.00000000 217 138 78 97.000000 1.000000 4.000000 1.000000 -60.708740 114.000000 146.000000 0.373801 0.927487 -0.006379
-6220.00000000 6140.00000000 330.00000000 217 138 78 97.000000 1.000000 4.000000 1.000000 -60.708740 114.000000 146.000000 0.362201 0.926530 0.101742
-6220.00000000 6140.00000000 330.00000000 217 138 78 97.000000 1.000000 4.000000 1.000000 -60.708740 114.000000 146.000000 0.362201 0.926530 0.101742
-6390.00000000 6030.00000000 340.00000000 217 138 78 97.000000 1.000000 4.000000 1.000000 -60.708740 114.000000 146.000000 0.376008 0.890231 0.257112
-6140.00000000 6120.00000000 210.00000000 217 138 78 97.000000 1.000000 4.000000 1.000000 -60.708740 114.000000 146.000000 0.433888 0.894456 0.108121
-6110.00000000 6120.00000000 220.00000000 217 138 78 97.000000 1.000000 4.000000 1.000000 -60.708740 114.000000 146.000000 0.641129 0.752761 -0.149345
-6110.00000000 6100.00000000 300.00000000 217 138 78 97.000000 1.000000 4.000000 1.000000 -60.708740 114.000000 146.000000 0.582662 0.811213 0.049378
-6110.00000000 6100.00000000 300.00000000 217 138 78 97.000000 1.000000 4.000000 1.000000 -60.708740 114.000000 146.000000 0.582662 0.811213 0.049378
-6080.00000000 6080.00000000 310.00000000 217 138 78 97.000000 1.000000 4.000000 1.000000 -60.708740 114.000000 146.000000 0.588324 0.681656 0.434993
-6110.00000000 6090.00000000 280.00000000 217 138 78 97.000000 1.000000 4.000000 1.000000 -60.708740 114.000000 146.000000 0.511612 0.850754 -0.120294
-6090.00000000 6090.00000000 280.00000000 217 138 78 97.000000 1.000000 4.000000 1.000000 -60.708740 114.000000 146.000000 0.712619 0.701550 0.001384
-6110.00000000 6100.00000000 280.00000000 217 138 78 97.000000 1.000000 4.000000 1.000000 -60.708740 114.000000 146.000000 0.489226 0.871981 0.017520
-6100.00000000 6090.00000000 250.00000000 217 138 78 97.000000 1.000000 4.000000 1.000000 -60.708740 114.000000 146.000000 0.674949 0.668475 0.312386
-6090.00000000 6100.00000000 240.00000000 217 138 78 97.000000 1.000000 4.000000 1.000000 -60.708740 114.000000 146.000000 0.462614 0.840132 0.283138
-6080.00000000 6080.00000000 250.00000000 217 138 78 97.000000 1.000000 4.000000 1.000000 -60.708740 114.000000 146.000000 0.664627 0.746470 -0.032455
-6100.00000000 6090.00000000 250.00000000 217 138 78 97.000000 1.000000 4.000000 1.000000 -60.708740 114.000000 146.000000 0.674949 0.668475 0.312386
-6090.00000000 6080.00000000 240.00000000 217 138 78 97.000000 1.000000 4.000000 1.000000 -60.708740 114.000000 146.000000 0.607047 0.778767 -0.158164
-6100.00000000 6100.00000000 250.00000000 217 138 78 97.000000 1.000000 4.000000 1.000000 -60.708740 114.000000 146.000000 0.879640 0.446363 0.164296
-6080.00000000 6090.00000000 240.00000000 217 138 78 97.000000 1.000000 4.000000 1.000000 -60.708740 114.000000 146.000000 0.834985 0.516036 0.191069
-6110.00000000 6110.00000000 270.00000000 217 138 78 97.000000 1.000000 4.000000 1.000000 -60.708740 114.000000 146.000000 0.376684 0.893701 0.243737
-6100.00000000 6090.00000000 250.00000000 217 138 78 97.000000 1.000000 4.000000 1.000000 -60.708740 114.000000 146.000000 0.674949 0.668475 0.312386
-6100.00000000 6080.00000000 240.00000000 217 138 78 97.000000 1.000000 4.000000 1.000000 -60.708740 114.000000 146.000000 0.627538 0.771563 0.104345
-6080.00000000 6070.00000000 240.00000000 217 138 78 97.000000 1.000000 4.000000 1.000000 -60.708740 114.000000 146.000000 0.732843 0.678558 -0.049999
-6140.00000000 6110.00000000 290.00000000 217 138 78 97.000000 1.000000 4.000000 1.000000 -60.708740 114.000000 146.000000 0.666146 0.743505 -0.058735
-6130.00000000 6110.00000000 280.00000000 217 138 78 97.000000 1.000000 4.000000 1.000000 -60.708740 114.000000 146.000000 0.558750 0.829245 -0.012295
-6120.00000000 6100.00000000 250.00000000 217 138 78 97.000000 1.000000 4.000000 1.000000 -60.708740 114.000000 146.000000 0.456324 0.886295 0.079059
-6130.00000000 6100.00000000 250.00000000 217 138 78 97.000000 1.000000 4.000000 1.000000 -60.708740 114.000000 146.000000 0.629577 0.636257 0.445881
-6150.00000000 6110.00000000 260.00000000 217 138 78 97.000000 1.000000 4.000000 1.000000 -60.708740 114.000000 146.000000 0.338538 0.914774 0.220410
-6110.00000000 6100.00000000 210.00000000 217 138 78 97.000000 1.000000 4.000000 1.000000 -60.708740 114.000000 146.000000 0.742779 0.663978 0.086098
-6080.00000000 6100.00000000 220.00000000 217 138 78 97.000000 1.000000 4.000000 1.000000 -60.708740 114.000000 146.000000 0.711934 0.539344 0.449730
-6110.00000000 6090.00000000 200.00000000 217 138 78 97.000000 1.000000 4.000000 1.000000 -60.708740 114.000000 146.000000 0.629102 0.776961 -0.023713
-6090.00000000 6110.00000000 220.00000000 217 138 78 97.000000 1.000000 4.000000 1.000000 -60.708740 114.000000 146.000000 0.476264 0.854872 0.205830
-6100.00000000 6090.00000000 200.00000000 217 138 78 97.000000 1.000000 4.000000 1.000000 -60.708740 114.000000 146.000000 0.781920 0.623028 -0.020907
-6090.00000000 6080.00000000 190.00000000 217 138 78 97.000000 1.000000 4.000000 1.000000 -60.708740 114.000000 146.000000 0.726882 0.683701 -0.064772
-6090.00000000 6080.00000000 160.00000000 217 138 78 97.000000 1.000000 4.000000 1.000000 -60.708740 114.000000 146.000000 0.776657 0.607094 0.168049
-6100.00000000 6090.00000000 170.00000000 217 138 78 97.000000 1.000000 4.000000 1.000000 -60.708740 114.000000 146.000000 0.703898 0.685415 -0.186371
-6080.00000000 6070.00000000 230.00000000 217 138 78 97.000000 1.000000 4.000000 1.000000 -60.708740 114.000000 146.000000 0.576843 0.816854 -0.001364
-6080.00000000 6070.00000000 230.00000000 217 138 78 97.000000 1.000000 4.000000 1.000000 -60.708740 114.000000 146.000000 0.576843 0.816854 -0.001364
-6080.00000000 6050.00000000 220.00000000 217 138 78 97.000000 1.000000 4.000000 1.000000 -60.708740 114.000000 146.000000 0.867486 0.489460 0.088864
-6080.00000000 6070.00000000 230.00000000 217 138 78 97.000000 1.000000 4.000000 1.000000 -60.708740 114.000000 146.000000 0.576843 0.816854 -0.001364
-6080.00000000 6050.00000000 210.00000000 217 138 78 97.000000 1.000000 4.000000 1.000000 -60.708740 114.000000 146.000000 0.806343 0.591318 -0.012405
-6090.00000000 6040.00000000 160.00000000 217 138 78 97.000000 1.000000 4.000000 1.000000 -60.708740 114.000000 146.000000 0.742401 0.668868 -0.038181
-6090.00000000 6040.00000000 160.00000000 217 138 78 97.000000 1.000000 4.000000 1.000000 -60.708740 114.000000 146.000000 0.742401 0.668868 -0.038181
-6110.00000000 6070.00000000 160.00000000 217 138 78 97.000000 1.000000 4.000000 1.000000 -60.708740 114.000000 146.000000 0.776149 0.610370 0.158244
-6090.00000000 6070.00000000 190.00000000 217 138 78 97.000000 1.000000 4.000000 1.000000 -60.708740 114.000000 146.000000 0.848939 0.502252 -0.164454
-6090.00000000 6040.00000000 150.00000000 217 138 78 97.000000 1.000000 4.000000 1.000000 -60.708740 114.000000 146.000000 0.757001 0.651506 0.049896
-6120.00000000 6100.00000000 220.00000000 217 138 78 97.000000 1.000000 4.000000 1.000000 -60.708740 114.000000 146.000000 0.567003 0.819642 -0.081821
-6120.00000000 6090.00000000 170.00000000 217 138 78 97.000000 1.000000 4.000000 1.000000 -60.708740 114.000000 146.000000 0.738510 0.668315 0.089206
-6130.00000000 6090.00000000 170.00000000 217 138 78 97.000000 1.000000 4.000000 1.000000 -60.708740 114.000000 146.000000 0.651660 0.751689 -0.101500
-6130.00000000 6110.00000000 170.00000000 217 138 78 97.000000 1.000000 4.000000 1.000000 -60.708740 114.000000 146.000000 0.600359 0.797152 0.064171
-6120.00000000 6110.00000000 150.00000000 217 138 78 97.000000 1.000000 4.000000 1.000000 -60.708740 114.000000 146.000000 0.798304 0.596202 0.085172
-6130.00000000 6100.00000000 180.00000000 217 138 78 97.000000 1.000000 4.000000 1.000000 -60.708740 114.000000 146.000000 0.500056 0.837480 0.220389
-6130.00000000 6050.00000000 200.00000000 217 138 78 97.000000 1.000000 4.000000 1.000000 -60.708740 114.000000 146.000000 0.525142 0.754176 0.394265
-6180.00000000 6140.00000000 310.00000000 217 138 78 97.000000 1.000000 4.000000 1.000000 -60.708740 114.000000 146.000000 0.550310 0.718873 0.424713
-6190.00000000 6130.00000000 290.00000000 217 138 78 97.000000 1.000000 4.000000 1.000000 -60.708740 114.000000 146.000000 0.454158 0.828171 0.328440
-6160.00000000 6140.00000000 290.00000000 217 138 78 97.000000 1.000000 4.000000 1.000000 -60.708740 114.000000 146.000000 0.490144 0.871516 0.014771
-6190.00000000 6130.00000000 280.00000000 217 138 78 97.000000 1.000000 4.000000 1.000000 -60.708740 114.000000 146.000000 0.294440 0.955378 -0.023605
-6190.00000000 6150.00000000 310.00000000 217 138 78 97.000000 1.000000 4.000000 1.000000 -60.708740 114.000000 146.000000 0.638278 0.751005 0.169090
-6180.00000000 6120.00000000 290.00000000 217 138 78 97.000000 1.000000 4.000000 1.000000 -60.708740 114.000000 146.000000 0.333036 0.877452 0.345202
-6180.00000000 6120.00000000 240.00000000 217 138 78 97.000000 1.000000 4.000000 1.000000 -60.708740 114.000000 146.000000 0.283127 0.948677 0.140893
-6190.00000000 6150.00000000 240.00000000 217 138 78 97.000000 1.000000 4.000000 1.000000 -60.708740 114.000000 146.000000 0.255959 0.965718 0.043278
-6180.00000000 6130.00000000 240.00000000 217 138 78 97.000000 1.000000 4.000000 1.000000 -60.708740 114.000000 146.000000 0.438686 0.881745 0.173434
-6230.00000000 6150.00000000 310.00000000 217 138 78 97.000000 1.000000 4.000000 1.000000 -60.708740 114.000000 146.000000 0.310780 0.945566 0.096540
-6220.00000000 6130.00000000 310.00000000 217 138 78 97.000000 1.000000 4.000000 1.000000 -60.708740 114.000000 146.000000 0.425674 0.791462 0.438622
-6200.00000000 6150.00000000 300.00000000 217 138 78 97.000000 1.000000 4.000000 1.000000 -60.708740 114.000000 146.000000 0.444275 0.895262 -0.033556
-6220.00000000 6130.00000000 310.00000000 217 138 78 97.000000 1.000000 4.000000 1.000000 -60.708740 114.000000 146.000000 0.425674 0.791462 0.438622
-6210.00000000 6130.00000000 240.00000000 217 138 78 97.000000 1.000000 4.000000 1.000000 -60.708740 114.000000 146.000000 0.299689 0.950961 -0.076544
-6210.00000000 6130.00000000 250.00000000 217 138 78 97.000000 1.000000 4.000000 1.000000 -60.708740 114.000000 146.000000 0.225028 0.974335 -0.005891
-6200.00000000 6130.00000000 260.00000000 217 138 78 97.000000 1.000000 4.000000 1.000000 -60.708740 114.000000 146.000000 0.290604 0.952609 -0.089918
-6190.00000000 6120.00000000 180.00000000 217 138 78 97.000000 1.000000 4.000000 1.000000 -60.708740 114.000000 146.000000 0.224169 0.968865 0.105119
-6180.00000000 6120.00000000 160.00000000 217 138 78 97.000000 1.000000 4.000000 1.000000 -60.708740 114.000000 146.000000 0.237725 0.971208 0.015530
-6160.00000000 6130.00000000 190.00000000 217 138 78 97.000000 1.000000 4.000000 1.000000 -60.708740 114.000000 146.000000 0.755878 0.615612 0.222867
-6160.00000000 6120.00000000 180.00000000 217 138 78 97.000000 1.000000 4.000000 1.000000 -60.708740 114.000000 146.000000 0.342330 0.907540 0.243273
-6210.00000000 6130.00000000 200.00000000 217 138 78 97.000000 1.000000 4.000000 1.000000 -60.708740 114.000000 146.000000 0.326608 0.943677 -0.052929
-6210.00000000 6130.00000000 210.00000000 217 138 78 97.000000 1.000000 4.000000 1.000000 -60.708740 114.000000 146.000000 0.401432 0.907769 0.121689
-6210.00000000 6130.00000000 220.00000000 217 138 78 97.000000 1.000000 4.000000 1.000000 -60.708740 114.000000 146.000000 0.429456 0.832169 0.350801
-6210.00000000 6120.00000000 220.00000000 217 138 78 97.000000 1.000000 4.000000 1.000000 -60.708740 114.000000 146.000000 0.625631 0.595277 0.504214
-6210.00000000 6150.00000000 190.00000000 217 138 78 97.000000 1.000000 4.000000 1.000000 -60.708740 114.000000 146.000000 0.446689 0.894688 0.001310
-6200.00000000 6130.00000000 170.00000000 217 138 78 97.000000 1.000000 4.000000 1.000000 -60.708740 114.000000 146.000000 0.761574 0.520218 0.386495
-6210.00000000 6140.00000000 190.00000000 217 138 78 97.000000 1.000000 4.000000 1.000000 -60.708740 114.000000 146.000000 0.629050 0.764169 0.142625
-6210.00000000 6140.00000000 170.00000000 217 138 78 97.000000 1.000000 4.000000 1.000000 -60.708740 114.000000 146.000000 0.349277 0.935330 -0.056251
-6220.00000000 6150.00000000 190.00000000 217 138 78 97.000000 1.000000 4.000000 1.000000 -60.708740 114.000000 146.000000 0.129639 0.979085 0.156802
-6210.00000000 6140.00000000 150.00000000 217 138 78 97.000000 1.000000 4.000000 1.000000 -60.708740 114.000000 146.000000 0.285581 0.946072 -0.152942
-6210.00000000 6130.00000000 190.00000000 217 138 78 97.000000 1.000000 4.000000 1.000000 -60.708740 114.000000 146.000000 0.283592 0.958812 -0.015960
-6230.00000000 6140.00000000 160.00000000 217 138 78 97.000000 1.000000 4.000000 1.000000 -60.708740 114.000000 146.000000 0.177379 0.981012 0.078433
-6200.00000000 6130.00000000 160.00000000 217 138 78 97.000000 1.000000 4.000000 1.000000 -60.708740 114.000000 146.000000 0.418405 0.879992 0.224837
-6160.00000000 6110.00000000 270.00000000 217 138 78 97.000000 1.000000 4.000000 1.000000 -60.708740 114.000000 146.000000 0.300961 0.936169 0.181686
-6180.00000000 6110.00000000 200.00000000 217 138 78 97.000000 1.000000 4.000000 1.000000 -60.708740 114.000000 146.000000 0.426678 0.861002 0.276805
-6160.00000000 6110.00000000 190.00000000 217 138 78 97.000000 1.000000 4.000000 1.000000 -60.708740 114.000000 146.000000 0.706855 0.533884 0.464030
-6180.00000000 6110.00000000 190.00000000 217 138 78 97.000000 1.000000 4.000000 1.000000 -60.708740 114.000000 146.000000 0.273424 0.961313 0.033405
-6210.00000000 6110.00000000 230.00000000 217 138 78 97.000000 1.000000 4.000000 1.000000 -60.708740 114.000000 146.000000 0.590189 0.738949 0.325008
-6160.00000000 6110.00000000 190.00000000 217 138 78 97.000000 1.000000 4.000000 1.000000 -60.708740 114.000000 146.000000 0.706855 0.533884 0.464030
-6150.00000000 6120.00000000 110.00000000 217 138 78 97.000000 1.000000 4.000000 1.000000 -60.708740 114.000000 146.000000 0.297715 0.946547 0.124159
-6100.00000000 6100.00000000 130.00000000 217 138 78 97.000000 1.000000 4.000000 1.000000 -60.708740 114.000000 146.000000 0.565579 0.806892 0.170428
-6110.00000000 6100.00000000 140.00000000 217 138 78 97.000000 1.000000 4.000000 1.000000 -60.708740 114.000000 146.000000 0.753644 0.474516 0.454813
-6100.00000000 6090.00000000 130.00000000 217 138 78 97.000000 1.000000 4.000000 1.000000 -60.708740 114.000000 146.000000 0.678049 0.678049 0.283723
-6110.00000000 6100.00000000 130.00000000 217 138 78 97.000000 1.000000 4.000000 1.000000 -60.708740 114.000000 146.000000 0.335436 0.928365 0.160063
-6090.00000000 6080.00000000 110.00000000 217 138 78 97.000000 1.000000 4.000000 1.000000 -60.708740 114.000000 146.000000 0.828498 0.543012 -0.136857
-6100.00000000 6090.00000000 100.00000000 217 138 78 97.000000 1.000000 4.000000 1.000000 -60.708740 114.000000 146.000000 0.812652 0.562146 0.153584
-6100.00000000 6060.00000000 110.00000000 217 138 78 97.000000 1.000000 4.000000 1.000000 -60.708740 114.000000 146.000000 0.466512 0.873808 0.137209
-6110.00000000 6030.00000000 90.00000000 217 138 78 97.000000 1.000000 4.000000 1.000000 -60.708740 114.000000 146.000000 0.918997 0.393482 -0.024838
-6110.00000000 6060.00000000 70.00000000 217 138 78 97.000000 1.000000 4.000000 1.000000 -60.708740 114.000000 146.000000 0.829245 0.558750 -0.012295
-6100.00000000 6070.00000000 100.00000000 217 138 78 97.000000 1.000000 4.000000 1.000000 -60.708740 114.000000 146.000000 0.674763 0.735189 -0.064743
-6130.00000000 6100.00000000 140.00000000 217 138 78 97.000000 1.000000 4.000000 1.000000 -60.708740 114.000000 146.000000 0.669919 0.698426 -0.251813
-6150.00000000 6080.00000000 120.00000000 217 138 78 97.000000 1.000000 4.000000 1.000000 -60.708740 114.000000 146.000000 0.581165 0.809017 0.087968
-6140.00000000 6110.00000000 120.00000000 217 138 78 97.000000 1.000000 4.000000 1.000000 -60.708740 114.000000 146.000000 0.491081 0.844659 0.213053
-6150.00000000 6100.00000000 80.00000000 217 138 78 97.000000 1.000000 4.000000 1.000000 -60.708740 114.000000 146.000000 0.370192 0.910473 0.184381
-6140.00000000 6100.00000000 90.00000000 217 138 78 97.000000 1.000000 4.000000 1.000000 -60.708740 114.000000 146.000000 0.607443 0.760474 -0.229548
-6120.00000000 6070.00000000 80.00000000 217 138 78 97.000000 1.000000 4.000000 1.000000 -60.708740 114.000000 146.000000 0.801780 0.595325 0.052321
-6120.00000000 6070.00000000 80.00000000 217 138 78 97.000000 1.000000 4.000000 1.000000 -60.708740 114.000000 146.000000 0.801780 0.595325 0.052321
-6110.00000000 6080.00000000 40.00000000 217 138 78 97.000000 1.000000 4.000000 1.000000 -60.708740 114.000000 146.000000 0.666814 0.707607 -0.233777
-6110.00000000 6090.00000000 0.00000000 217 138 78 97.000000 1.000000 4.000000 1.000000 -60.708740 114.000000 146.000000 0.638663 0.767253 -0.058580
-6140.00000000 6100.00000000 60.00000000 217 138 78 97.000000 1.000000 4.000000 1.000000 -60.708740 114.000000 146.000000 0.625990 0.771018 -0.116911
-6150.00000000 6100.00000000 50.00000000 217 138 78 97.000000 1.000000 4.000000 1.000000 -60.708740 114.000000 146.000000 0.570445 0.815954 -0.093871
-6120.00000000 6090.00000000 50.00000000 217 138 78 97.000000 1.000000 4.000000 1.000000 -60.708740 114.000000 146.000000 0.677244 0.716814 0.165887
-6150.00000000 6100.00000000 50.00000000 217 138 78 97.000000 1.000000 4.000000 1.000000 -60.708740 114.000000 146.000000 0.570445 0.815954 -0.093871
-6140.00000000 6080.00000000 30.00000000 217 138 78 97.000000 1.000000 4.000000 1.000000 -60.708740 114.000000 146.000000 0.669886 0.729832 -0.136375
-6150.00000000 6110.00000000 60.00000000 217 138 78 97.000000 1.000000 4.000000 1.000000 -60.708740 114.000000 146.000000 0.571454 0.808941 -0.138039
-6150.00000000 6090.00000000 60.00000000 217 138 78 97.000000 1.000000 4.000000 1.000000 -60.708740 114.000000 146.000000 0.813387 0.579380 0.052158
-6130.00000000 6090.00000000 50.00000000 217 138 78 97.000000 1.000000 4.000000 1.000000 -60.708740 114.000000 146.000000 0.668659 0.738585 0.085950
-6140.00000000 6080.00000000 30.00000000 217 138 78 97.000000 1.000000 4.000000 1.000000 -60.708740 114.000000 146.000000 0.669886 0.729832 -0.136375
-6130.00000000 6080.00000000 20.00000000 217 138 78 97.000000 1.000000 4.000000 1.000000 -60.708740 114.000000 146.000000 0.307307 0.943391 0.124801
-6130.00000000 6090.00000000 10.00000000 217 138 78 97.000000 1.000000 4.000000 1.000000 -60.708740 114.000000 146.000000 0.359301 0.877786 0.316852
-6140.00000000 6070.00000000 50.00000000 217 138 78 97.000000 1.000000 4.000000 1.000000 -60.708740 114.000000 146.000000 0.740988 0.669876 0.046934
-6120.00000000 6060.00000000 30.00000000 217 138 78 97.000000 1.000000 4.000000 1.000000 -60.708740 114.000000 146.000000 0.363210 0.834911 0.413525
-6140.00000000 6070.00000000 50.00000000 217 138 78 97.000000 1.000000 4.000000 1.000000 -60.708740 114.000000 146.000000 0.740988 0.669876 0.046934
-6140.00000000 6070.00000000 40.00000000 217 138 78 97.000000 1.000000 4.000000 1.000000 -60.708740 114.000000 146.000000 0.773370 0.504231 0.384253
-6140.00000000 6070.00000000 40.00000000 217 138 78 97.000000 1.000000 4.000000 1.000000 -60.708740 114.000000 146.000000 0.773370 0.504231 0.384253
-6150.00000000 6030.00000000 0.00000000 217 138 78 97.000000 1.000000 4.000000 1.000000 -60.708740 114.000000 146.000000 0.432641 0.872767 0.226051
-6150.00000000 6070.00000000 0.00000000 217 138 78 97.000000 1.000000 4.000000 1.000000 -60.708740 114.000000 146.000000 0.616777 0.748607 0.243258
-6140.00000000 6030.00000000 -10.00000000 217 138 78 97.000000 1.000000 4.000000 1.000000 -60.708740 114.000000 146.000000 0.704333 0.709868 -0.001384
-6140.00000000 6030.00000000 0.00000000 217 138 78 97.000000 1.000000 4.000000 1.000000 -60.708740 114.000000 146.000000 0.551790 0.833847 0.015061
-6190.00000000 6130.00000000 110.00000000 217 138 78 97.000000 1.000000 4.000000 1.000000 -60.708740 114.000000 146.000000 0.441197 0.853185 0.278246
-6190.00000000 6130.00000000 110.00000000 217 138 78 97.000000 1.000000 4.000000 1.000000 -60.708740 114.000000 146.000000 0.441197 0.853185 0.278246
-6190.00000000 6120.00000000 130.00000000 217 138 78 97.000000 1.000000 4.000000 1.000000 -60.708740 114.000000 146.000000 0.285568 0.957346 0.044030
-6190.00000000 6130.00000000 100.00000000 217 138 78 97.000000 1.000000 4.000000 1.000000 -60.708740 114.000000 146.000000 0.524460 0.836462 0.158972
-6170.00000000 6120.00000000 80.00000000 217 138 78 97.000000 1.000000 4.000000 1.000000 -60.708740 114.000000 146.000000 0.566537 0.806977 -0.166805
-6180.00000000 6120.00000000 100.00000000 217 138 78 97.000000 1.000000 4.000000 1.000000 -60.708740 114.000000 146.000000 0.686841 0.705197 0.175917
-6170.00000000 6120.00000000 80.00000000 217 138 78 97.000000 1.000000 4.000000 1.000000 -60.708740 114.000000 146.000000 0.566537 0.806977 -0.166805
-6190.00000000 6140.00000000 80.00000000 217 138 78 97.000000 1.000000 4.000000 1.000000 -60.708740 114.000000 146.000000 0.238559 0.952886 0.187343
-6180.00000000 6120.00000000 70.00000000 217 138 78 97.000000 1.000000 4.000000 1.000000 -60.708740 114.000000 146.000000 0.404965 0.911510 -0.071783
-6180.00000000 6120.00000000 90.00000000 217 138 78 97.000000 1.000000 4.000000 1.000000 -60.708740 114.000000 146.000000 0.542159 0.837883 0.063369
-6230.00000000 6150.00000000 120.00000000 217 138 78 97.000000 1.000000 4.000000 1.000000 -60.708740 114.000000 146.000000 0.696526 0.684060 0.216593
-6210.00000000 6130.00000000 110.00000000 217 138 78 97.000000 1.000000 4.000000 1.000000 -60.708740 114.000000 146.000000 0.383309 0.919670 0.085330
-6200.00000000 6120.00000000 140.00000000 217 138 78 97.000000 1.000000 4.000000 1.000000 -60.708740 114.000000 146.000000 0.469762 0.871588 0.140206
-6210.00000000 6120.00000000 110.00000000 217 138 78 97.000000 1.000000 4.000000 1.000000 -60.708740 114.000000 146.000000 0.239992 0.970715 0.010746
-6210.00000000 6130.00000000 110.00000000 217 138 78 97.000000 1.000000 4.000000 1.000000 -60.708740 114.000000 146.000000 0.383309 0.919670 0.085330
-6200.00000000 6120.00000000 120.00000000 217 138 78 97.000000 1.000000 4.000000 1.000000 -60.708740 114.000000 146.000000 0.263615 0.961495 0.077684
-6230.00000000 6130.00000000 120.00000000 217 138 78 97.000000 1.000000 4.000000 1.000000 -60.708740 114.000000 146.000000 0.234436 0.955161 -0.180851
-6210.00000000 6120.00000000 130.00000000 217 138 78 97.000000 1.000000 4.000000 1.000000 -60.708740 114.000000 146.000000 0.425734 0.904847 0.001302
-6230.00000000 6150.00000000 120.00000000 217 138 78 97.000000 1.000000 4.000000 1.000000 -60.708740 114.000000 146.000000 0.696526 0.684060 0.216593
-6220.00000000 6150.00000000 140.00000000 217 138 78 97.000000 1.000000 4.000000 1.000000 -60.708740 114.000000 146.000000 0.133817 0.962702 0.235154
-6200.00000000 6150.00000000 70.00000000 217 138 78 97.000000 1.000000 4.000000 1.000000 -60.708740 114.000000 146.000000 0.454081 0.880945 0.133216
-6210.00000000 6130.00000000 100.00000000 217 138 78 97.000000 1.000000 4.000000 1.000000 -60.708740 114.000000 146.000000 0.186426 0.980239 -0.066151
-6220.00000000 6130.00000000 90.00000000 217 138 78 97.000000 1.000000 4.000000 1.000000 -60.708740 114.000000 146.000000 0.466610 0.882292 -0.061939
-6220.00000000 6140.00000000 90.00000000 217 138 78 97.000000 1.000000 4.000000 1.000000 -60.708740 114.000000 146.000000 0.609356 0.780035 0.142233
-6220.00000000 6150.00000000 80.00000000 217 138 78 97.000000 1.000000 4.000000 1.000000 -60.708740 114.000000 146.000000 0.596705 0.765849 0.239622
-6220.00000000 6140.00000000 90.00000000 217 138 78 97.000000 1.000000 4.000000 1.000000 -60.708740 114.000000 146.000000 0.609356 0.780035 0.142233
-6230.00000000 6140.00000000 70.00000000 217 138 78 97.000000 1.000000 4.000000 1.000000 -60.708740 114.000000 146.000000 0.399828 0.841992 0.362198
-6220.00000000 6140.00000000 70.00000000 217 138 78 97.000000 1.000000 4.000000 1.000000 -60.708740 114.000000 146.000000 0.190797 0.951277 0.242217
-6190.00000000 6130.00000000 40.00000000 217 138 78 97.000000 1.000000 4.000000 1.000000 -60.708740 114.000000 146.000000 0.525555 0.850443 0.023206
-6190.00000000 6130.00000000 60.00000000 217 138 78 97.000000 1.000000 4.000000 1.000000 -60.708740 114.000000 146.000000 0.545455 0.838005 0.015038
-6160.00000000 6120.00000000 50.00000000 217 138 78 97.000000 1.000000 4.000000 1.000000 -60.708740 114.000000 146.000000 0.669821 0.727278 0.149689
-6190.00000000 6120.00000000 50.00000000 217 138 78 97.000000 1.000000 4.000000 1.000000 -60.708740 114.000000 146.000000 0.431873 0.893482 0.123190
-6190.00000000 6120.00000000 0.00000000 217 138 78 97.000000 1.000000 4.000000 1.000000 -60.708740 114.000000 146.000000 0.705845 0.610859 0.358655
-6190.00000000 6120.00000000 -10.00000000 217 138 78 97.000000 1.000000 4.000000 1.000000 -60.708740 114.000000 146.000000 0.728654 0.647519 0.223121
-6230.00000000 6160.00000000 40.00000000 217 138 78 97.000000 1.000000 4.000000 1.000000 -60.708740 114.000000 146.000000 0.235568 0.914813 0.328061
-6210.00000000 6130.00000000 50.00000000 217 138 78 97.000000 1.000000 4.000000 1.000000 -60.708740 114.000000 146.000000 0.521624 0.844189 -0.123504
-6220.00000000 6140.00000000 60.00000000 217 138 78 97.000000 1.000000 4.000000 1.000000 -60.708740 114.000000 146.000000 0.233086 0.970577 0.060430
-6230.00000000 6150.00000000 60.00000000 217 138 78 97.000000 1.000000 4.000000 1.000000 -60.708740 114.000000 146.000000 0.337662 0.918954 -0.203737
-6210.00000000 6130.00000000 50.00000000 217 138 78 97.000000 1.000000 4.000000 1.000000 -60.708740 114.000000 146.000000 0.521624 0.844189 -0.123504
-6200.00000000 6150.00000000 50.00000000 217 138 78 97.000000 1.000000 4.000000 1.000000 -60.708740 114.000000 146.000000 0.322091 0.926891 -0.192692
-6210.00000000 6150.00000000 10.00000000 217 138 78 97.000000 1.000000 4.000000 1.000000 -60.708740 114.000000 146.000000 0.428933 0.824628 0.368788
-6210.00000000 6140.00000000 10.00000000 217 138 78 97.000000 1.000000 4.000000 1.000000 -60.708740 114.000000 146.000000 0.574829 0.778447 0.252173
-6210.00000000 6130.00000000 20.00000000 217 138 78 97.000000 1.000000 4.000000 1.000000 -60.708740 114.000000 146.000000 0.137024 0.969415 0.203616
-6230.00000000 6140.00000000 20.00000000 217 138 78 97.000000 1.000000 4.000000 1.000000 -60.708740 114.000000 146.000000 0.374637 0.920812 0.108411
-6230.00000000 6130.00000000 20.00000000 217 138 78 97.000000 1.000000 4.000000 1.000000 -60.708740 114.000000 146.000000 0.460300 0.764983 0.450472
-6220.00000000 6140.00000000 0.00000000 217 138 78 97.000000 1.000000 4.000000 1.000000 -60.708740 114.000000 146.000000 0.366962 0.919499 -0.140925
-6230.00000000 6150.00000000 10.00000000 217 138 78 97.000000 1.000000 4.000000 1.000000 -60.708740 114.000000 146.000000 0.288940 0.845188 0.449634
-6210.00000000 6140.00000000 -10.00000000 217 138 78 97.000000 1.000000 4.000000 1.000000 -60.708740 114.000000 146.000000 0.354059 0.922232 -0.155338
-6200.00000000 6140.00000000 -10.00000000 217 138 78 97.000000 1.000000 4.000000 1.000000 -60.708740 114.000000 146.000000 0.348205 0.896444 0.274119
-6180.00000000 6110.00000000 110.00000000 217 138 78 97.000000 1.000000 4.000000 1.000000 -60.708740 114.000000 146.000000 0.535135 0.844446 0.023267
-6180.00000000 6110.00000000 110.00000000 217 138 78 97.000000 1.000000 4.000000 1.000000 -60.708740 114.000000 146.000000 0.535135 0.844446 0.023267
-6180.00000000 6110.00000000 120.00000000 217 138 78 97.000000 1.000000 4.000000 1.000000 -60.708740 114.000000 146.000000 0.488383 0.867765 -0.092014
-6160.00000000 6110.00000000 80.00000000 217 138 78 97.000000 1.000000 4.000000 1.000000 -60.708740 114.000000 146.000000 0.377832 0.919162 -0.111289
-6180.00000000 6110.00000000 100.00000000 217 138 78 97.000000 1.000000 4.000000 1.000000 -60.708740 114.000000 146.000000 0.593678 0.787039 0.167680
-6180.00000000 6110.00000000 70.00000000 217 138 78 97.000000 1.000000 4.000000 1.000000 -60.708740 114.000000 146.000000 0.566563 0.815441 -0.118583
-6190.00000000 6110.00000000 100.00000000 217 138 78 97.000000 1.000000 4.000000 1.000000 -60.708740 114.000000 146.000000 0.738900 0.665158 0.107664
-6160.00000000 6110.00000000 40.00000000 217 138 78 97.000000 1.000000 4.000000 1.000000 -60.708740 114.000000 146.000000 0.493972 0.836541 -0.237045
-6180.00000000 6100.00000000 50.00000000 217 138 78 97.000000 1.000000 4.000000 1.000000 -60.708740 114.000000 146.000000 0.358938 0.930035 0.078726
-6170.00000000 6110.00000000 50.00000000 217 138 78 97.000000 1.000000 4.000000 1.000000 -60.708740 114.000000 146.000000 0.394081 0.897224 0.199222
-6160.00000000 6100.00000000 30.00000000 217 138 78 97.000000 1.000000 4.000000 1.000000 -60.708740 114.000000 146.000000 0.570818 0.783506 -0.245530
-6180.00000000 6110.00000000 0.00000000 217 138 78 97.000000 1.000000 4.000000 1.000000 -60.708740 114.000000 146.000000 0.297731 0.924532 0.237900
-6180.00000000 6080.00000000 0.00000000 217 138 78 97.000000 1.000000 4.000000 1.000000 -60.708740 114.000000 146.000000 0.329569 0.893267 0.305709
-6160.00000000 6100.00000000 0.00000000 217 138 78 97.000000 1.000000 4.000000 1.000000 -60.708740 114.000000 146.000000 0.436744 0.868986 0.232630
-6160.00000000 6110.00000000 -10.00000000 217 138 78 97.000000 1.000000 4.000000 1.000000 -60.708740 114.000000 146.000000 0.264503 0.944262 0.195979
-6160.00000000 6100.00000000 20.00000000 217 138 78 97.000000 1.000000 4.000000 1.000000 -60.708740 114.000000 146.000000 0.550759 0.829733 -0.090595
-6180.00000000 6070.00000000 20.00000000 217 138 78 97.000000 1.000000 4.000000 1.000000 -60.708740 114.000000 146.000000 0.289310 0.924938 0.246555
-6160.00000000 6070.00000000 10.00000000 217 138 78 97.000000 1.000000 4.000000 1.000000 -60.708740 114.000000 146.000000 0.370351 0.803228 0.466546
-6200.00000000 6110.00000000 0.00000000 217 138 78 97.000000 1.000000 4.000000 1.000000 -60.708740 114.000000 146.000000 0.314078 0.931068 -0.185655
-6250.00000000 6160.00000000 300.00000000 217 138 78 97.000000 1.000000 4.000000 1.000000 -60.708740 114.000000 146.000000 0.228584 0.962667 0.144988
-6260.00000000 6160.00000000 150.00000000 217 138 78 97.000000 1.000000 4.000000 1.000000 -60.708740 114.000000 146.000000 0.434228 0.872933 0.222337
-6250.00000000 6130.00000000 230.00000000 217 138 78 97.000000 1.000000 4.000000 1.000000 -60.708740 114.000000 146.000000 0.291412 0.935587 -0.199387
-6250.00000000 6150.00000000 200.00000000 217 138 78 97.000000 1.000000 4.000000 1.000000 -60.708740 114.000000 146.000000 0.270598 0.886546 0.375250
-6250.00000000 6130.00000000 220.00000000 217 138 78 97.000000 1.000000 4.000000 1.000000 -60.708740 114.000000 146.000000 0.227681 0.937265 0.263999
-6250.00000000 6150.00000000 190.00000000 217 138 78 97.000000 1.000000 4.000000 1.000000 -60.708740 114.000000 146.000000 0.188397 0.970179 0.152512
-6290.00000000 6130.00000000 180.00000000 217 138 78 97.000000 1.000000 4.000000 1.000000 -60.708740 114.000000 146.000000 0.222334 0.947987 0.227790
-6300.00000000 6150.00000000 150.00000000 217 138 78 97.000000 1.000000 4.000000 1.000000 -60.708740 114.000000 146.000000 0.031859 0.944309 0.327513
-6360.00000000 6030.00000000 270.00000000 217 138 78 97.000000 1.000000 4.000000 1.000000 -60.708740 114.000000 146.000000 0.429359 0.886371 -0.173199
-6260.00000000 6170.00000000 110.00000000 217 138 78 97.000000 1.000000 4.000000 1.000000 -60.708740 114.000000 146.000000 0.088156 0.946037 0.311837
-6240.00000000 6170.00000000 130.00000000 217 138 78 97.000000 1.000000 4.000000 1.000000 -60.708740 114.000000 146.000000 0.057566 0.985664 0.158599
-6260.00000000 6170.00000000 110.00000000 217 138 78 97.000000 1.000000 4.000000 1.000000 -60.708740 114.000000 146.000000 0.088156 0.946037 0.311837
-6240.00000000 6160.00000000 120.00000000 217 138 78 97.000000 1.000000 4.000000 1.000000 -60.708740 114.000000 146.000000 0.104467 0.960841 0.256654
-6250.00000000 6160.00000000 80.00000000 217 138 78 97.000000 1.000000 4.000000 1.000000 -60.708740 114.000000 146.000000 0.080902 0.972071 0.220303
-6270.00000000 6160.00000000 70.00000000 217 138 78 97.000000 1.000000 4.000000 1.000000 -60.708740 114.000000 146.000000 0.132077 0.991134 0.014429
-6270.00000000 6130.00000000 130.00000000 217 138 78 97.000000 1.000000 4.000000 1.000000 -60.708740 114.000000 146.000000 0.259158 0.941008 0.217582
-6270.00000000 6140.00000000 110.00000000 217 138 78 97.000000 1.000000 4.000000 1.000000 -60.708740 114.000000 146.000000 0.097426 0.967933 0.231545
-6260.00000000 6150.00000000 90.00000000 217 138 78 97.000000 1.000000 4.000000 1.000000 -60.708740 114.000000 146.000000 0.040606 0.995407 0.086700
-6240.00000000 6150.00000000 70.00000000 217 138 78 97.000000 1.000000 4.000000 1.000000 -60.708740 114.000000 146.000000 0.550020 0.776405 0.307692
-6260.00000000 6150.00000000 100.00000000 217 138 78 97.000000 1.000000 4.000000 1.000000 -60.708740 114.000000 146.000000 0.077467 0.975097 0.207808
-6270.00000000 6160.00000000 50.00000000 217 138 78 97.000000 1.000000 4.000000 1.000000 -60.708740 114.000000 146.000000 0.516349 0.812743 0.269874
-6240.00000000 6160.00000000 30.00000000 217 138 78 97.000000 1.000000 4.000000 1.000000 -60.708740 114.000000 146.000000 0.278627 0.950532 0.137314
-6260.00000000 6160.00000000 60.00000000 217 138 78 97.000000 1.000000 4.000000 1.000000 -60.708740 114.000000 146.000000 0.268813 0.962522 0.035924
-6260.00000000 6160.00000000 30.00000000 217 138 78 97.000000 1.000000 4.000000 1.000000 -60.708740 114.000000 146.000000 0.511395 0.823486 0.245655
-6240.00000000 6160.00000000 30.00000000 217 138 78 97.000000 1.000000 4.000000 1.000000 -60.708740 114.000000 146.000000 0.278627 0.950532 0.137314
-6270.00000000 6160.00000000 50.00000000 217 138 78 97.000000 1.000000 4.000000 1.000000 -60.708740 114.000000 146.000000 0.516349 0.812743 0.269874
-6270.00000000 6170.00000000 30.00000000 217 138 78 97.000000 1.000000 4.000000 1.000000 -60.708740 114.000000 146.000000 0.446124 0.840952 0.306225
-6250.00000000 6170.00000000 20.00000000 217 138 78 97.000000 1.000000 4.000000 1.000000 -60.708740 114.000000 146.000000 0.497514 0.738833 0.454539
-6260.00000000 6190.00000000 10.00000000 217 138 78 97.000000 1.000000 4.000000 1.000000 -60.708740 114.000000 146.000000 0.299175 0.943552 0.142142
-6260.00000000 6150.00000000 50.00000000 217 138 78 97.000000 1.000000 4.000000 1.000000 -60.708740 114.000000 146.000000 0.253188 0.955750 -0.149792
-6270.00000000 6140.00000000 30.00000000 217 138 78 97.000000 1.000000 4.000000 1.000000 -60.708740 114.000000 146.000000 0.258180 0.962769 0.080125
-6270.00000000 6150.00000000 60.00000000 217 138 78 97.000000 1.000000 4.000000 1.000000 -60.708740 114.000000 146.000000 -0.010268 0.984594 0.174557
-6260.00000000 6150.00000000 50.00000000 217 138 78 97.000000 1.000000 4.000000 1.000000 -60.708740 114.000000 146.000000 0.253188 0.955750 -0.149792
-6250.00000000 6140.00000000 10.00000000 217 138 78 97.000000 1.000000 4.000000 1.000000 -60.708740 114.000000 146.000000 0.324457 0.945596 -0.023987
-6300.00000000 6170.00000000 50.00000000 217 138 78 97.000000 1.000000 4.000000 1.000000 -60.708740 114.000000 146.000000 0.460756 0.832484 0.307691
-6310.00000000 6170.00000000 50.00000000 217 138 78 97.000000 1.000000 4.000000 1.000000 -60.708740 114.000000 146.000000 -0.087122 0.984600 0.151569
-6300.00000000 6170.00000000 50.00000000 217 138 78 97.000000 1.000000 4.000000 1.000000 -60.708740 114.000000 146.000000 0.460756 0.832484 0.307691
-6310.00000000 6170.00000000 0.00000000 217 138 78 97.000000 1.000000 4.000000 1.000000 -60.708740 114.000000 146.000000 0.063024 0.983419 0.170047
-6340.00000000 6170.00000000 20.00000000 217 138 78 97.000000 1.000000 4.000000 1.000000 -60.708740 114.000000 146.000000 -0.142944 0.978236 0.150402
-6350.00000000 6120.00000000 10.00000000 217 138 78 97.000000 1.000000 4.000000 1.000000 -60.708740 114.000000 146.000000 0.030701 0.964025 0.264032
-6160.00000000 5780.00000000 320.00000000 217 138 78 97.000000 1.000000 4.000000 1.000000 -60.708740 114.000000 146.000000 0.999624 -0.017252 0.021312
-6170.00000000 5800.00000000 330.00000000 217 138 78 97.000000 1.000000 4.000000 1.000000 -60.708740 114.000000 146.000000 0.906399 0.415717 0.074965
-6230.00000000 5810.00000000 370.00000000 217 138 78 97.000000 1.000000 4.000000 1.000000 -60.708740 114.000000 146.000000 0.902494 -0.036100 0.429186
-6200.00000000 5800.00000000 330.00000000 217 138 78 97.000000 1.000000 4.000000 1.000000 -60.708740 114.000000 146.000000 0.978790 -0.139827 0.149726
-6320.00000000 6010.00000000 340.00000000 217 138 78 97.000000 1.000000 4.000000 1.000000 -60.708740 114.000000 146.000000 0.485505 0.766673 0.420117
-6340.00000000 6020.00000000 360.00000000 217 138 78 97.000000 1.000000 4.000000 1.000000 -60.708740 114.000000 146.000000 0.261661 0.886657 0.381278
-6340.00000000 6020.00000000 360.00000000 217 138 78 97.000000 1.000000 4.000000 1.000000 -60.708740 114.000000 146.000000 0.261661 0.886657 0.381278
-6330.00000000 6020.00000000 340.00000000 217 138 78 97.000000 1.000000 4.000000 1.000000 -60.708740 114.000000 146.000000 0.299354 0.909743 0.287672
-6380.00000000 5950.00000000 380.00000000 217 138 78 97.000000 1.000000 4.000000 1.000000 -60.708740 114.000000 146.000000 0.588264 0.618604 0.520841
-6360.00000000 5880.00000000 430.00000000 217 138 78 97.000000 1.000000 4.000000 1.000000 -60.708740 114.000000 146.000000 0.930882 0.324209 0.168366
-6340.00000000 5880.00000000 430.00000000 217 138 78 97.000000 1.000000 4.000000 1.000000 -60.708740 114.000000 146.000000 0.796987 0.489097 0.354395
-6380.00000000 5920.00000000 420.00000000 217 138 78 97.000000 1.000000 4.000000 1.000000 -60.708740 114.000000 146.000000 0.890603 0.447379 0.081719
-6380.00000000 5880.00000000 450.00000000 217 138 78 97.000000 1.000000 4.000000 1.000000 -60.708740 114.000000 146.000000 0.550231 0.661287 0.509847
-6390.00000000 5880.00000000 450.00000000 217 138 78 97.000000 1.000000 4.000000 1.000000 -60.708740 114.000000 146.000000 0.711016 0.527850 0.464575
-6380.00000000 5890.00000000 420.00000000 217 138 78 97.000000 1.000000 4.000000 1.000000 -60.708740 114.000000 146.000000 0.901202 0.431127 -0.044321
-6360.00000000 5880.00000000 400.00000000 217 138 78 97.000000 1.000000 4.000000 1.000000 -60.708740 114.000000 146.000000 0.762118 0.645742 -0.046834
-6360.00000000 5890.00000000 380.00000000 217 138 78 97.000000 1.000000 4.000000 1.000000 -60.708740 114.000000 146.000000 0.733371 0.649999 -0.199168
-6360.00000000 5880.00000000 400.00000000 217 138 78 97.000000 1.000000 4.000000 1.000000 -60.708740 114.000000 146.000000 0.762118 0.645742 -0.046834
-6360.00000000 5890.00000000 390.00000000 217 138 78 97.000000 1.000000 4.000000 1.000000 -60.708740 114.000000 146.000000 0.749018 0.662216 0.021001
-6350.00000000 5880.00000000 380.00000000 217 138 78 97.000000 1.000000 4.000000 1.000000 -60.708740 114.000000 146.000000 0.774086 0.602407 -0.194671
-6350.00000000 5890.00000000 380.00000000 217 138 78 97.000000 1.000000 4.000000 1.000000 -60.708740 114.000000 146.000000 0.729201 0.665528 -0.159181
-6360.00000000 5880.00000000 400.00000000 217 138 78 97.000000 1.000000 4.000000 1.000000 -60.708740 114.000000 146.000000 0.762118 0.645742 -0.046834
-6380.00000000 5930.00000000 400.00000000 217 138 78 97.000000 1.000000 4.000000 1.000000 -60.708740 114.000000 146.000000 0.611190 0.641331 0.463834
-6370.00000000 5890.00000000 330.00000000 217 138 78 97.000000 1.000000 4.000000 1.000000 -60.708740 114.000000 146.000000 0.826397 0.557138 -0.081637
-6370.00000000 5890.00000000 350.00000000 217 138 78 97.000000 1.000000 4.000000 1.000000 -60.708740 114.000000 146.000000 0.871158 0.483977 0.082767
-6370.00000000 5870.00000000 340.00000000 217 138 78 97.000000 1.000000 4.000000 1.000000 -60.708740 114.000000 146.000000 0.763511 0.643633 -0.052804
-6250.00000000 5800.00000000 340.00000000 217 138 78 97.000000 1.000000 4.000000 1.000000 -60.708740 114.000000 146.000000 0.965969 0.033140 0.256528
-6270.00000000 5800.00000000 340.00000000 217 138 78 97.000000 1.000000 4.000000 1.000000 -60.708740 114.000000 146.000000 0.968256 -0.099990 0.229091
-6310.00000000 5830.00000000 330.00000000 217 138 78 97.000000 1.000000 4.000000 1.000000 -60.708740 114.000000 146.000000 0.979824 0.181359 -0.083985
-6310.00000000 5830.00000000 330.00000000 217 138 78 97.000000 1.000000 4.000000 1.000000 -60.708740 114.000000 146.000000 0.979824 0.181359 -0.083985
-6320.00000000 5810.00000000 390.00000000 217 138 78 97.000000 1.000000 4.000000 1.000000 -60.708740 114.000000 146.000000 0.891698 0.336067 0.303207
-6300.00000000 5810.00000000 370.00000000 217 138 78 97.000000 1.000000 4.000000 1.000000 -60.708740 114.000000 146.000000 0.916588 0.219465 0.334218
-6300.00000000 5810.00000000 360.00000000 217 138 78 97.000000 1.000000 4.000000 1.000000 -60.708740 114.000000 146.000000 0.882559 -0.033789 0.468986
-6290.00000000 5800.00000000 390.00000000 217 138 78 97.000000 1.000000 4.000000 1.000000 -60.708740 114.000000 146.000000 0.985343 0.012559 0.170123
-6330.00000000 5850.00000000 420.00000000 217 138 78 97.000000 1.000000 4.000000 1.000000 -60.708740 114.000000 146.000000 0.944596 0.318359 0.079917
-6360.00000000 5860.00000000 440.00000000 217 138 78 97.000000 1.000000 4.000000 1.000000 -60.708740 114.000000 146.000000 0.748389 0.649799 -0.132947
-6330.00000000 5820.00000000 430.00000000 217 138 78 97.000000 1.000000 4.000000 1.000000 -60.708740 114.000000 146.000000 0.998366 0.056902 0.005173
-6330.00000000 5820.00000000 420.00000000 217 138 78 97.000000 1.000000 4.000000 1.000000 -60.708740 114.000000 146.000000 0.973135 -0.173819 0.150982
-6330.00000000 5840.00000000 440.00000000 217 138 78 97.000000 1.000000 4.000000 1.000000 -60.708740 114.000000 146.000000 0.980024 0.197878 -0.019905
-6330.00000000 5850.00000000 420.00000000 217 138 78 97.000000 1.000000 4.000000 1.000000 -60.708740 114.000000 146.000000 0.944596 0.318359 0.079917
-6340.00000000 5810.00000000 410.00000000 217 138 78 97.000000 1.000000 4.000000 1.000000 -60.708740 114.000000 146.000000 0.860135 0.473891 0.188665
-6370.00000000 5860.00000000 410.00000000 217 138 78 97.000000 1.000000 4.000000 1.000000 -60.708740 114.000000 146.000000 0.899295 0.437102 0.014526
-6370.00000000 5830.00000000 420.00000000 217 138 78 97.000000 1.000000 4.000000 1.000000 -60.708740 114.000000 146.000000 0.976857 -0.066908 0.203157
-6350.00000000 5840.00000000 400.00000000 217 138 78 97.000000 1.000000 4.000000 1.000000 -60.708740 114.000000 146.000000 0.883019 0.076482 0.463064
-6360.00000000 5850.00000000 370.00000000 217 138 78 97.000000 1.000000 4.000000 1.000000 -60.708740 114.000000 146.000000 0.856341 0.497466 0.138590
-6340.00000000 5820.00000000 360.00000000 217 138 78 97.000000 1.000000 4.000000 1.000000 -60.708740 114.000000 146.000000 0.810074 0.530202 0.250330
-6350.00000000 5840.00000000 330.00000000 217 138 78 97.000000 1.000000 4.000000 1.000000 -60.708740 114.000000 146.000000 0.783587 0.616191 0.079369
-6360.00000000 5860.00000000 340.00000000 217 138 78 97.000000 1.000000 4.000000 1.000000 -60.708740 114.000000 146.000000 0.772452 0.633552 -0.043938
-6330.00000000 5830.00000000 340.00000000 217 138 78 97.000000 1.000000 4.000000 1.000000 -60.708740 114.000000 146.000000 0.888949 0.382680 0.251646
-6090.00000000 6020.00000000 190.00000000 217 138 78 97.000000 1.000000 4.000000 1.000000 -60.708740 114.000000 146.000000 0.928500 0.349730 0.124806
-6080.00000000 6000.00000000 160.00000000 217 138 78 97.000000 1.000000 4.000000 1.000000 -60.708740 114.000000 146.000000 0.944455 0.328233 -0.016349
-6080.00000000 6000.00000000 170.00000000 217 138 78 97.000000 1.000000 4.000000 1.000000 -60.708740 114.000000 146.000000 0.529193 0.797739 0.289081
-6080.00000000 5980.00000000 170.00000000 217 138 78 97.000000 1.000000 4.000000 1.000000 -60.708740 114.000000 146.000000 0.876036 0.193526 0.441711
-6080.00000000 5980.00000000 170.00000000 217 138 78 97.000000 1.000000 4.000000 1.000000 -60.708740 114.000000 146.000000 0.876036 0.193526 0.441711
-6100.00000000 5870.00000000 260.00000000 217 138 78 97.000000 1.000000 4.000000 1.000000 -60.708740 114.000000 146.000000 0.772356 0.502438 0.388617
-6110.00000000 5910.00000000 160.00000000 217 138 78 97.000000 1.000000 4.000000 1.000000 -60.708740 114.000000 146.000000 0.781798 0.459977 0.420968
-6110.00000000 5940.00000000 180.00000000 217 138 78 97.000000 1.000000 4.000000 1.000000 -60.708740 114.000000 146.000000 0.804960 0.432204 0.406497
-6080.00000000 5890.00000000 230.00000000 217 138 78 97.000000 1.000000 4.000000 1.000000 -60.708740 114.000000 146.000000 0.963559 0.200578 -0.176980
-6090.00000000 5890.00000000 150.00000000 217 138 78 97.000000 1.000000 4.000000 1.000000 -60.708740 114.000000 146.000000 0.903980 0.119129 0.410645
-6100.00000000 5900.00000000 160.00000000 217 138 78 97.000000 1.000000 4.000000 1.000000 -60.708740 114.000000 146.000000 0.925946 0.376854 -0.024606
-6100.00000000 5900.00000000 170.00000000 217 138 78 97.000000 1.000000 4.000000 1.000000 -60.708740 114.000000 146.000000 0.995752 0.058186 0.071360
-6090.00000000 5900.00000000 150.00000000 217 138 78 97.000000 1.000000 4.000000 1.000000 -60.708740 114.000000 146.000000 0.985424 -0.055203 0.160910
-6140.00000000 5870.00000000 150.00000000 217 138 78 97.000000 1.000000 4.000000 1.000000 -60.708740 114.000000 146.000000 0.880762 0.291573 0.373153
-6160.00000000 5870.00000000 230.00000000 217 138 78 97.000000 1.000000 4.000000 1.000000 -60.708740 114.000000 146.000000 0.933995 0.344386 -0.095142
-6100.00000000 6020.00000000 130.00000000 217 138 78 97.000000 1.000000 4.000000 1.000000 -60.708740 114.000000 146.000000 0.713859 0.699779 0.026752
-6090.00000000 6020.00000000 80.00000000 217 138 78 97.000000 1.000000 4.000000 1.000000 -60.708740 114.000000 146.000000 0.875007 0.267489 0.403501
-6100.00000000 6020.00000000 90.00000000 217 138 78 97.000000 1.000000 4.000000 1.000000 -60.708740 114.000000 146.000000 0.739966 0.598714 0.306580
-6090.00000000 5960.00000000 110.00000000 217 138 78 97.000000 1.000000 4.000000 1.000000 -60.708740 114.000000 146.000000 0.973821 0.220603 -0.054846
-6100.00000000 6010.00000000 10.00000000 217 138 78 97.000000 1.000000 4.000000 1.000000 -60.708740 114.000000 146.000000 0.767256 0.602954 0.218552
-6110.00000000 6020.00000000 10.00000000 217 138 78 97.000000 1.000000 4.000000 1.000000 -60.708740 114.000000 146.000000 0.863536 0.504067 0.014865
-6090.00000000 6000.00000000 10.00000000 217 138 78 97.000000 1.000000 4.000000 1.000000 -60.708740 114.000000 146.000000 0.822775 0.462712 0.330058
-6100.00000000 6010.00000000 0.00000000 217 138 78 97.000000 1.000000 4.000000 1.000000 -60.708740 114.000000 146.000000 0.828754 0.526840 0.188696
-6100.00000000 5980.00000000 30.00000000 217 138 78 97.000000 1.000000 4.000000 1.000000 -60.708740 114.000000 146.000000 0.754246 0.653680 0.061776
-6140.00000000 6020.00000000 40.00000000 217 138 78 97.000000 1.000000 4.000000 1.000000 -60.708740 114.000000 146.000000 0.657133 0.743559 -0.123678
-6120.00000000 6010.00000000 30.00000000 217 138 78 97.000000 1.000000 4.000000 1.000000 -60.708740 114.000000 146.000000 0.823852 0.563837 0.057938
-6120.00000000 5990.00000000 -10.00000000 217 138 78 97.000000 1.000000 4.000000 1.000000 -60.708740 114.000000 146.000000 0.792293 0.605363 0.076210
-6140.00000000 6020.00000000 20.00000000 217 138 78 97.000000 1.000000 4.000000 1.000000 -60.708740 114.000000 146.000000 0.864284 0.476897 0.159944
-6120.00000000 5990.00000000 -10.00000000 217 138 78 97.000000 1.000000 4.000000 1.000000 -60.708740 114.000000 146.000000 0.792293 0.605363 0.076210
