//X Y Z R G B PointSourceId ScanDirectionFlag NumberOfReturns ReturnNumber GpsTime Intensity Classification Nx Ny Nz
10880.00000000 690.00000000 -320.00000000 145 24 171 97.000000 1.000000 4.000000 1.000000 -60.708740 114.000000 129.000000 0.993691 0.032126 -0.107456
10880.00000000 680.00000000 -350.00000000 145 24 171 97.000000 1.000000 4.000000 1.000000 -60.708740 114.000000 129.000000 0.952686 0.060102 -0.297954
10870.00000000 640.00000000 -340.00000000 145 24 171 97.000000 1.000000 4.000000 1.000000 -60.708740 114.000000 129.000000 0.734372 -0.678632 0.012541
10880.00000000 680.00000000 -350.00000000 145 24 171 97.000000 1.000000 4.000000 1.000000 -60.708740 114.000000 129.000000 0.952686 0.060102 -0.297954
10840.00000000 780.00000000 -250.00000000 145 24 171 97.000000 1.000000 4.000000 1.000000 -60.708740 114.000000 129.000000 0.384922 0.837402 0.388064
10850.00000000 780.00000000 -240.00000000 145 24 171 97.000000 1.000000 4.000000 1.000000 -60.708740 114.000000 129.000000 0.336370 0.892502 0.300491
10840.00000000 740.00000000 -190.00000000 145 24 171 97.000000 1.000000 4.000000 1.000000 -60.708740 114.000000 129.000000 0.277087 0.941544 0.191617
10830.00000000 740.00000000 -200.00000000 145 24 171 97.000000 1.000000 4.000000 1.000000 -60.708740 114.000000 129.000000 0.364751 0.926115 0.096273
10840.00000000 740.00000000 -190.00000000 145 24 171 97.000000 1.000000 4.000000 1.000000 -60.708740 114.000000 129.000000 0.277087 0.941544 0.191617
10850.00000000 740.00000000 -230.00000000 145 24 171 97.000000 1.000000 4.000000 1.000000 -60.708740 114.000000 129.000000 0.276423 0.704639 0.653509
10840.00000000 730.00000000 -270.00000000 145 24 171 97.000000 1.000000 4.000000 1.000000 -60.708740 114.000000 129.000000 0.734692 0.655266 0.175654
10800.00000000 770.00000000 -260.00000000 145 24 171 97.000000 1.000000 4.000000 1.000000 -60.708740 114.000000 129.000000 0.158318 0.920487 0.357267
10780.00000000 740.00000000 -200.00000000 145 24 171 97.000000 1.000000 4.000000 1.000000 -60.708740 114.000000 129.000000 -0.101649 0.900919 0.421914
10840.00000000 800.00000000 -310.00000000 145 24 171 97.000000 1.000000 4.000000 1.000000 -60.708740 114.000000 129.000000 0.533447 0.709601 0.460327
10790.00000000 800.00000000 -330.00000000 145 24 171 97.000000 1.000000 4.000000 1.000000 -60.708740 114.000000 129.000000 0.323094 0.824283 0.464940
10790.00000000 800.00000000 -330.00000000 145 24 171 97.000000 1.000000 4.000000 1.000000 -60.708740 114.000000 129.000000 0.323094 0.824283 0.464940
10810.00000000 760.00000000 -310.00000000 145 24 171 97.000000 1.000000 4.000000 1.000000 -60.708740 114.000000 129.000000 -0.085824 0.941421 0.326130
10790.00000000 760.00000000 -320.00000000 145 24 171 97.000000 1.000000 4.000000 1.000000 -60.708740 114.000000 129.000000 -0.216096 0.754005 0.620305
10830.00000000 690.00000000 -270.00000000 145 24 171 97.000000 1.000000 4.000000 1.000000 -60.708740 114.000000 129.000000 0.900614 0.414254 -0.131487
10790.00000000 660.00000000 -200.00000000 145 24 171 97.000000 1.000000 4.000000 1.000000 -60.708740 114.000000 129.000000 0.728131 -0.254293 -0.636522
10810.00000000 680.00000000 -270.00000000 145 24 171 97.000000 1.000000 4.000000 1.000000 -60.708740 114.000000 129.000000 0.266837 0.955617 0.124874
10810.00000000 640.00000000 -270.00000000 145 24 171 97.000000 1.000000 4.000000 1.000000 -60.708740 114.000000 129.000000 0.020374 0.857075 0.514788
10820.00000000 720.00000000 -290.00000000 145 24 171 97.000000 1.000000 4.000000 1.000000 -60.708740 114.000000 129.000000 0.449291 0.609633 0.653059
10820.00000000 710.00000000 -280.00000000 145 24 171 97.000000 1.000000 4.000000 1.000000 -60.708740 114.000000 129.000000 0.562709 0.689611 0.455845
10830.00000000 690.00000000 -320.00000000 145 24 171 97.000000 1.000000 4.000000 1.000000 -60.708740 114.000000 129.000000 0.975021 -0.134269 -0.176934
10820.00000000 680.00000000 -340.00000000 145 24 171 97.000000 1.000000 4.000000 1.000000 -60.708740 114.000000 129.000000 -0.617814 0.757170 0.212132
10820.00000000 680.00000000 -340.00000000 145 24 171 97.000000 1.000000 4.000000 1.000000 -60.708740 114.000000 129.000000 -0.617814 0.757170 0.212132
10810.00000000 720.00000000 -280.00000000 145 24 171 97.000000 1.000000 4.000000 1.000000 -60.708740 114.000000 129.000000 0.492541 0.772135 0.401510
10800.00000000 710.00000000 -310.00000000 145 24 171 97.000000 1.000000 4.000000 1.000000 -60.708740 114.000000 129.000000 0.163212 0.909731 0.381775
10810.00000000 680.00000000 -320.00000000 145 24 171 97.000000 1.000000 4.000000 1.000000 -60.708740 114.000000 129.000000 -0.187273 0.974071 0.126943
10780.00000000 650.00000000 -320.00000000 145 24 171 97.000000 1.000000 4.000000 1.000000 -60.708740 114.000000 129.000000 0.095792 0.898220 0.428980
10800.00000000 680.00000000 -330.00000000 145 24 171 97.000000 1.000000 4.000000 1.000000 -60.708740 114.000000 129.000000 0.328051 0.830330 0.450482
10790.00000000 680.00000000 -320.00000000 145 24 171 97.000000 1.000000 4.000000 1.000000 -60.708740 114.000000 129.000000 0.528225 0.726930 0.438807
10790.00000000 680.00000000 -320.00000000 145 24 171 97.000000 1.000000 4.000000 1.000000 -60.708740 114.000000 129.000000 0.528225 0.726930 0.438807
10790.00000000 680.00000000 -320.00000000 145 24 171 97.000000 1.000000 4.000000 1.000000 -60.708740 114.000000 129.000000 0.528225 0.726930 0.438807
10950.00000000 660.00000000 -600.00000000 145 24 171 97.000000 1.000000 4.000000 1.000000 -60.708740 114.000000 129.000000 0.817135 -0.478901 -0.320848
11000.00000000 680.00000000 -690.00000000 145 24 171 97.000000 1.000000 4.000000 1.000000 -60.708740 114.000000 129.000000 -0.562928 0.653669 0.505795
10980.00000000 650.00000000 -680.00000000 145 24 171 97.000000 1.000000 4.000000 1.000000 -60.708740 114.000000 129.000000 -0.477082 0.513653 0.713129
10990.00000000 660.00000000 -690.00000000 145 24 171 97.000000 1.000000 4.000000 1.000000 -60.708740 114.000000 129.000000 -0.464202 0.826122 0.319434
10990.00000000 660.00000000 -690.00000000 145 24 171 97.000000 1.000000 4.000000 1.000000 -60.708740 114.000000 129.000000 -0.464202 0.826122 0.319434
10870.00000000 760.00000000 -500.00000000 145 24 171 97.000000 1.000000 4.000000 1.000000 -60.708740 114.000000 129.000000 0.819667 -0.185670 -0.541916
10920.00000000 670.00000000 -370.00000000 145 24 171 97.000000 1.000000 4.000000 1.000000 -60.708740 114.000000 129.000000 0.735334 -0.480859 -0.477554
10880.00000000 640.00000000 -390.00000000 145 24 171 97.000000 1.000000 4.000000 1.000000 -60.708740 114.000000 129.000000 -0.660901 0.745520 0.086078
10850.00000000 770.00000000 -360.00000000 145 24 171 97.000000 1.000000 4.000000 1.000000 -60.708740 114.000000 129.000000 0.847069 0.514657 0.132674
10820.00000000 750.00000000 -360.00000000 145 24 171 97.000000 1.000000 4.000000 1.000000 -60.708740 114.000000 129.000000 0.720750 0.600354 0.346546
10840.00000000 730.00000000 -370.00000000 145 24 171 97.000000 1.000000 4.000000 1.000000 -60.708740 114.000000 129.000000 0.869337 0.445852 0.213234
10840.00000000 760.00000000 -440.00000000 145 24 171 97.000000 1.000000 4.000000 1.000000 -60.708740 114.000000 129.000000 0.854207 0.212422 -0.474560
10840.00000000 750.00000000 -440.00000000 145 24 171 97.000000 1.000000 4.000000 1.000000 -60.708740 114.000000 129.000000 0.965107 -0.074433 -0.251054
10840.00000000 740.00000000 -430.00000000 145 24 171 97.000000 1.000000 4.000000 1.000000 -60.708740 114.000000 129.000000 0.933603 -0.270955 -0.234454
10840.00000000 740.00000000 -400.00000000 145 24 171 97.000000 1.000000 4.000000 1.000000 -60.708740 114.000000 129.000000 0.887778 0.438885 -0.138671
10840.00000000 740.00000000 -430.00000000 145 24 171 97.000000 1.000000 4.000000 1.000000 -60.708740 114.000000 129.000000 0.933603 -0.270955 -0.234454
10850.00000000 760.00000000 -410.00000000 145 24 171 97.000000 1.000000 4.000000 1.000000 -60.708740 114.000000 129.000000 0.941929 0.082995 0.325394
10850.00000000 740.00000000 -440.00000000 145 24 171 97.000000 1.000000 4.000000 1.000000 -60.708740 114.000000 129.000000 0.893572 0.050170 -0.446108
10810.00000000 740.00000000 -390.00000000 145 24 171 97.000000 1.000000 4.000000 1.000000 -60.708740 114.000000 129.000000 0.929066 0.127627 0.347199
10810.00000000 730.00000000 -390.00000000 145 24 171 97.000000 1.000000 4.000000 1.000000 -60.708740 114.000000 129.000000 0.962786 -0.174694 0.206217
10830.00000000 770.00000000 -510.00000000 145 24 171 97.000000 1.000000 4.000000 1.000000 -60.708740 114.000000 129.000000 0.786661 -0.576473 -0.221007
10820.00000000 760.00000000 -480.00000000 145 24 171 97.000000 1.000000 4.000000 1.000000 -60.708740 114.000000 129.000000 0.893386 -0.314699 -0.320665
10840.00000000 730.00000000 -500.00000000 145 24 171 97.000000 1.000000 4.000000 1.000000 -60.708740 114.000000 129.000000 -0.521019 0.645793 0.558114
10820.00000000 740.00000000 -500.00000000 145 24 171 97.000000 1.000000 4.000000 1.000000 -60.708740 114.000000 129.000000 0.631995 -0.564582 -0.530876
10780.00000000 800.00000000 -470.00000000 145 24 171 97.000000 1.000000 4.000000 1.000000 -60.708740 114.000000 129.000000 -0.247936 0.642737 0.724856
10840.00000000 720.00000000 -360.00000000 145 24 171 97.000000 1.000000 4.000000 1.000000 -60.708740 114.000000 129.000000 0.982787 0.065519 -0.172732
10850.00000000 720.00000000 -370.00000000 145 24 171 97.000000 1.000000 4.000000 1.000000 -60.708740 114.000000 129.000000 0.996069 0.005327 -0.088421
10840.00000000 700.00000000 -370.00000000 145 24 171 97.000000 1.000000 4.000000 1.000000 -60.708740 114.000000 129.000000 -0.606638 0.596499 0.525528
10830.00000000 700.00000000 -380.00000000 145 24 171 97.000000 1.000000 4.000000 1.000000 -60.708740 114.000000 129.000000 -0.528924 0.792592 0.303377
10840.00000000 680.00000000 -420.00000000 145 24 171 97.000000 1.000000 4.000000 1.000000 -60.708740 114.000000 129.000000 -0.553309 0.776547 0.301370
10850.00000000 710.00000000 -470.00000000 145 24 171 97.000000 1.000000 4.000000 1.000000 -60.708740 114.000000 129.000000 0.915617 -0.210635 -0.342461
10820.00000000 720.00000000 -490.00000000 145 24 171 97.000000 1.000000 4.000000 1.000000 -60.708740 114.000000 129.000000 0.679803 -0.627131 -0.380229
10840.00000000 660.00000000 -450.00000000 145 24 171 97.000000 1.000000 4.000000 1.000000 -60.708740 114.000000 129.000000 -0.092108 0.935759 0.340398
10840.00000000 650.00000000 -510.00000000 145 24 171 97.000000 1.000000 4.000000 1.000000 -60.708740 114.000000 129.000000 -0.063167 0.950087 0.305523
10830.00000000 650.00000000 -520.00000000 145 24 171 97.000000 1.000000 4.000000 1.000000 -60.708740 114.000000 129.000000 -0.512670 0.832139 0.211458
10820.00000000 640.00000000 -510.00000000 145 24 171 97.000000 1.000000 4.000000 1.000000 -60.708740 114.000000 129.000000 -0.577394 0.715574 0.393154
10940.00000000 670.00000000 -580.00000000 145 24 171 97.000000 1.000000 4.000000 1.000000 -60.708740 114.000000 129.000000 0.681358 -0.500555 -0.534037
10860.00000000 640.00000000 -550.00000000 145 24 171 97.000000 1.000000 4.000000 1.000000 -60.708740 114.000000 129.000000 -0.333459 0.707585 0.623000
10870.00000000 640.00000000 -570.00000000 145 24 171 97.000000 1.000000 4.000000 1.000000 -60.708740 114.000000 129.000000 -0.234624 0.945356 0.226392
10860.00000000 680.00000000 -570.00000000 145 24 171 97.000000 1.000000 4.000000 1.000000 -60.708740 114.000000 129.000000 0.746570 -0.658910 -0.092043
10860.00000000 680.00000000 -570.00000000 145 24 171 97.000000 1.000000 4.000000 1.000000 -60.708740 114.000000 129.000000 0.746570 -0.658910 -0.092043
10900.00000000 650.00000000 -620.00000000 145 24 171 97.000000 1.000000 4.000000 1.000000 -60.708740 114.000000 129.000000 -0.622527 0.548296 0.558419
10930.00000000 650.00000000 -680.00000000 145 24 171 97.000000 1.000000 4.000000 1.000000 -60.708740 114.000000 129.000000 0.625127 -0.381014 -0.681207
10890.00000000 700.00000000 -630.00000000 145 24 171 97.000000 1.000000 4.000000 1.000000 -60.708740 114.000000 129.000000 0.761995 -0.365563 -0.534534
10890.00000000 660.00000000 -680.00000000 145 24 171 97.000000 1.000000 4.000000 1.000000 -60.708740 114.000000 129.000000 -0.181317 0.894979 0.407600
10820.00000000 780.00000000 -530.00000000 145 24 171 97.000000 1.000000 4.000000 1.000000 -60.708740 114.000000 129.000000 0.765513 -0.623583 -0.158538
10780.00000000 740.00000000 -560.00000000 145 24 171 97.000000 1.000000 4.000000 1.000000 -60.708740 114.000000 129.000000 -0.432024 0.859468 0.273259
10840.00000000 710.00000000 -560.00000000 145 24 171 97.000000 1.000000 4.000000 1.000000 -60.708740 114.000000 129.000000 0.540301 -0.520103 -0.661490
10850.00000000 670.00000000 -540.00000000 145 24 171 97.000000 1.000000 4.000000 1.000000 -60.708740 114.000000 129.000000 -0.271122 0.835055 0.478724
10810.00000000 690.00000000 -560.00000000 145 24 171 97.000000 1.000000 4.000000 1.000000 -60.708740 114.000000 129.000000 -0.354975 0.922934 0.148950
10780.00000000 720.00000000 -580.00000000 145 24 171 97.000000 1.000000 4.000000 1.000000 -60.708740 114.000000 129.000000 -0.349555 0.774820 0.526749
10780.00000000 720.00000000 -580.00000000 145 24 171 97.000000 1.000000 4.000000 1.000000 -60.708740 114.000000 129.000000 -0.349555 0.774820 0.526749
10800.00000000 680.00000000 -600.00000000 145 24 171 97.000000 1.000000 4.000000 1.000000 -60.708740 114.000000 129.000000 -0.365225 0.861438 0.352897
10850.00000000 720.00000000 -680.00000000 145 24 171 97.000000 1.000000 4.000000 1.000000 -60.708740 114.000000 129.000000 0.727771 -0.427421 -0.536339
10820.00000000 710.00000000 -680.00000000 145 24 171 97.000000 1.000000 4.000000 1.000000 -60.708740 114.000000 129.000000 -0.428441 0.615155 0.661833
11050.00000000 560.00000000 -20.00000000 145 24 171 97.000000 1.000000 4.000000 1.000000 -60.708740 114.000000 129.000000 0.987619 0.150966 0.042639
11110.00000000 630.00000000 -140.00000000 145 24 171 97.000000 1.000000 4.000000 1.000000 -60.708740 114.000000 129.000000 0.969226 0.184063 0.163468
11110.00000000 620.00000000 -120.00000000 145 24 171 97.000000 1.000000 4.000000 1.000000 -60.708740 114.000000 129.000000 0.973982 -0.070186 -0.215483
11110.00000000 570.00000000 -120.00000000 145 24 171 97.000000 1.000000 4.000000 1.000000 -60.708740 114.000000 129.000000 0.967437 -0.234569 0.095095
11050.00000000 540.00000000 -20.00000000 145 24 171 97.000000 1.000000 4.000000 1.000000 -60.708740 114.000000 129.000000 0.992660 0.014323 0.120089
11080.00000000 530.00000000 -30.00000000 145 24 171 97.000000 1.000000 4.000000 1.000000 -60.708740 114.000000 129.000000 0.852919 -0.114011 -0.509442
11030.00000000 620.00000000 -300.00000000 145 24 171 97.000000 1.000000 4.000000 1.000000 -60.708740 114.000000 129.000000 0.888805 -0.458269 0.003962
11050.00000000 620.00000000 -350.00000000 145 24 171 97.000000 1.000000 4.000000 1.000000 -60.708740 114.000000 129.000000 0.992181 0.027902 -0.121651
11050.00000000 600.00000000 -340.00000000 145 24 171 97.000000 1.000000 4.000000 1.000000 -60.708740 114.000000 129.000000 0.912671 -0.057798 -0.404586
11050.00000000 630.00000000 -350.00000000 145 24 171 97.000000 1.000000 4.000000 1.000000 -60.708740 114.000000 129.000000 0.994568 -0.029607 -0.099786
11050.00000000 580.00000000 -310.00000000 145 24 171 97.000000 1.000000 4.000000 1.000000 -60.708740 114.000000 129.000000 0.952158 -0.265750 -0.150903
11050.00000000 590.00000000 -320.00000000 145 24 171 97.000000 1.000000 4.000000 1.000000 -60.708740 114.000000 129.000000 0.947395 -0.319948 0.008715
11050.00000000 590.00000000 -320.00000000 145 24 171 97.000000 1.000000 4.000000 1.000000 -60.708740 114.000000 129.000000 0.947395 -0.319948 0.008715
11100.00000000 540.00000000 -220.00000000 145 24 171 97.000000 1.000000 4.000000 1.000000 -60.708740 114.000000 129.000000 0.927560 -0.163195 -0.336153
11100.00000000 530.00000000 -330.00000000 145 24 171 97.000000 1.000000 4.000000 1.000000 -60.708740 114.000000 129.000000 0.760153 -0.250237 -0.599624
11100.00000000 530.00000000 -330.00000000 145 24 171 97.000000 1.000000 4.000000 1.000000 -60.708740 114.000000 129.000000 0.760153 -0.250237 -0.599624
11060.00000000 480.00000000 -300.00000000 145 24 171 97.000000 1.000000 4.000000 1.000000 -60.708740 114.000000 129.000000 0.959658 -0.167643 -0.225724
11020.00000000 600.00000000 -310.00000000 145 24 171 97.000000 1.000000 4.000000 1.000000 -60.708740 114.000000 129.000000 0.841354 -0.539187 -0.037424
11000.00000000 610.00000000 -320.00000000 145 24 171 97.000000 1.000000 4.000000 1.000000 -60.708740 114.000000 129.000000 0.979724 -0.187247 0.071275
10990.00000000 570.00000000 -320.00000000 145 24 171 97.000000 1.000000 4.000000 1.000000 -60.708740 114.000000 129.000000 0.840590 -0.459770 -0.286389
10960.00000000 630.00000000 -340.00000000 145 24 171 97.000000 1.000000 4.000000 1.000000 -60.708740 114.000000 129.000000 0.951080 0.070976 -0.300681
10960.00000000 620.00000000 -330.00000000 145 24 171 97.000000 1.000000 4.000000 1.000000 -60.708740 114.000000 129.000000 0.825618 -0.049060 -0.562093
10980.00000000 560.00000000 -330.00000000 145 24 171 97.000000 1.000000 4.000000 1.000000 -60.708740 114.000000 129.000000 0.692358 -0.704478 -0.156046
11010.00000000 530.00000000 -340.00000000 145 24 171 97.000000 1.000000 4.000000 1.000000 -60.708740 114.000000 129.000000 -0.545514 0.762424 0.348028
11110.00000000 440.00000000 -280.00000000 145 24 171 97.000000 1.000000 4.000000 1.000000 -60.708740 114.000000 129.000000 0.781057 -0.235408 -0.578388
11100.00000000 440.00000000 -330.00000000 145 24 171 97.000000 1.000000 4.000000 1.000000 -60.708740 114.000000 129.000000 0.742135 -0.636779 -0.209161
11050.00000000 470.00000000 -310.00000000 145 24 171 97.000000 1.000000 4.000000 1.000000 -60.708740 114.000000 129.000000 -0.644780 0.664569 0.377633
11060.00000000 440.00000000 -350.00000000 145 24 171 97.000000 1.000000 4.000000 1.000000 -60.708740 114.000000 129.000000 0.794550 -0.248199 -0.554155
11050.00000000 470.00000000 -320.00000000 145 24 171 97.000000 1.000000 4.000000 1.000000 -60.708740 114.000000 129.000000 0.837352 -0.394325 -0.378615
11060.00000000 440.00000000 -350.00000000 145 24 171 97.000000 1.000000 4.000000 1.000000 -60.708740 114.000000 129.000000 0.794550 -0.248199 -0.554155
11080.00000000 380.00000000 -310.00000000 145 24 171 97.000000 1.000000 4.000000 1.000000 -60.708740 114.000000 129.000000 -0.600188 0.795932 0.079161
10900.00000000 570.00000000 -170.00000000 145 24 171 97.000000 1.000000 4.000000 1.000000 -60.708740 114.000000 129.000000 0.624027 -0.427667 -0.653981
10910.00000000 590.00000000 -170.00000000 145 24 171 97.000000 1.000000 4.000000 1.000000 -60.708740 114.000000 129.000000 0.845444 -0.114171 -0.521718
10920.00000000 580.00000000 -140.00000000 145 24 171 97.000000 1.000000 4.000000 1.000000 -60.708740 114.000000 129.000000 0.776029 -0.242021 -0.582412
10930.00000000 530.00000000 -170.00000000 145 24 171 97.000000 1.000000 4.000000 1.000000 -60.708740 114.000000 129.000000 0.853514 -0.427529 -0.297881
10860.00000000 550.00000000 -160.00000000 145 24 171 97.000000 1.000000 4.000000 1.000000 -60.708740 114.000000 129.000000 -0.247057 0.957840 0.146649
10860.00000000 550.00000000 -180.00000000 145 24 171 97.000000 1.000000 4.000000 1.000000 -60.708740 114.000000 129.000000 -0.194980 0.938947 0.283482
10860.00000000 550.00000000 -170.00000000 145 24 171 97.000000 1.000000 4.000000 1.000000 -60.708740 114.000000 129.000000 0.585605 -0.789426 -0.184047
10820.00000000 590.00000000 -180.00000000 145 24 171 97.000000 1.000000 4.000000 1.000000 -60.708740 114.000000 129.000000 0.381234 0.839343 0.387510
10780.00000000 600.00000000 -140.00000000 145 24 171 97.000000 1.000000 4.000000 1.000000 -60.708740 114.000000 129.000000 0.962659 -0.064177 -0.263001
10800.00000000 560.00000000 -170.00000000 145 24 171 97.000000 1.000000 4.000000 1.000000 -60.708740 114.000000 129.000000 0.370147 0.916219 0.153407
10800.00000000 560.00000000 -170.00000000 145 24 171 97.000000 1.000000 4.000000 1.000000 -60.708740 114.000000 129.000000 0.370147 0.916219 0.153407
10850.00000000 550.00000000 -170.00000000 145 24 171 97.000000 1.000000 4.000000 1.000000 -60.708740 114.000000 129.000000 -0.054736 0.953433 0.296595
10850.00000000 550.00000000 -170.00000000 145 24 171 97.000000 1.000000 4.000000 1.000000 -60.708740 114.000000 129.000000 -0.054736 0.953433 0.296595
10800.00000000 550.00000000 -160.00000000 145 24 171 97.000000 1.000000 4.000000 1.000000 -60.708740 114.000000 129.000000 0.305163 0.909650 0.281802
10890.00000000 560.00000000 -210.00000000 145 24 171 97.000000 1.000000 4.000000 1.000000 -60.708740 114.000000 129.000000 0.641226 -0.489755 -0.590736
10860.00000000 600.00000000 -320.00000000 145 24 171 97.000000 1.000000 4.000000 1.000000 -60.708740 114.000000 129.000000 -0.148493 0.845381 0.513109
10840.00000000 620.00000000 -210.00000000 145 24 171 97.000000 1.000000 4.000000 1.000000 -60.708740 114.000000 129.000000 -0.477161 0.684767 0.550828
10820.00000000 590.00000000 -190.00000000 145 24 171 97.000000 1.000000 4.000000 1.000000 -60.708740 114.000000 129.000000 -0.088175 0.880346 0.466065
10810.00000000 590.00000000 -190.00000000 145 24 171 97.000000 1.000000 4.000000 1.000000 -60.708740 114.000000 129.000000 -0.144817 0.852811 0.501739
10800.00000000 590.00000000 -190.00000000 145 24 171 97.000000 1.000000 4.000000 1.000000 -60.708740 114.000000 129.000000 0.386517 0.860808 0.331080
10800.00000000 590.00000000 -200.00000000 145 24 171 97.000000 1.000000 4.000000 1.000000 -60.708740 114.000000 129.000000 0.598247 0.789209 0.138746
10810.00000000 530.00000000 -210.00000000 145 24 171 97.000000 1.000000 4.000000 1.000000 -60.708740 114.000000 129.000000 0.149804 0.691521 0.706653
10900.00000000 470.00000000 -180.00000000 145 24 171 97.000000 1.000000 4.000000 1.000000 -60.708740 114.000000 129.000000 -0.498603 0.782597 0.372742
11080.00000000 570.00000000 -360.00000000 145 24 171 97.000000 1.000000 4.000000 1.000000 -60.708740 114.000000 129.000000 0.713223 -0.663062 -0.227291
11070.00000000 550.00000000 -380.00000000 145 24 171 97.000000 1.000000 4.000000 1.000000 -60.708740 114.000000 129.000000 0.853979 -0.508355 -0.110888
11040.00000000 500.00000000 -390.00000000 145 24 171 97.000000 1.000000 4.000000 1.000000 -60.708740 114.000000 129.000000 0.731734 -0.681172 0.023876
11040.00000000 500.00000000 -390.00000000 145 24 171 97.000000 1.000000 4.000000 1.000000 -60.708740 114.000000 129.000000 0.731734 -0.681172 0.023876
11050.00000000 500.00000000 -430.00000000 145 24 171 97.000000 1.000000 4.000000 1.000000 -60.708740 114.000000 129.000000 0.708102 -0.616944 -0.343470
11000.00000000 600.00000000 -390.00000000 145 24 171 97.000000 1.000000 4.000000 1.000000 -60.708740 114.000000 129.000000 0.900315 -0.202171 -0.385434
10990.00000000 560.00000000 -460.00000000 145 24 171 97.000000 1.000000 4.000000 1.000000 -60.708740 114.000000 129.000000 0.613748 -0.576551 -0.539354
11000.00000000 580.00000000 -510.00000000 145 24 171 97.000000 1.000000 4.000000 1.000000 -60.708740 114.000000 129.000000 0.685260 -0.366458 -0.629387
10970.00000000 630.00000000 -510.00000000 145 24 171 97.000000 1.000000 4.000000 1.000000 -60.708740 114.000000 129.000000 -0.622677 0.629390 0.464910
10960.00000000 560.00000000 -520.00000000 145 24 171 97.000000 1.000000 4.000000 1.000000 -60.708740 114.000000 129.000000 -0.445754 0.865993 0.226629
11010.00000000 550.00000000 -380.00000000 145 24 171 97.000000 1.000000 4.000000 1.000000 -60.708740 114.000000 129.000000 0.725419 -0.357004 -0.588486
11000.00000000 540.00000000 -390.00000000 145 24 171 97.000000 1.000000 4.000000 1.000000 -60.708740 114.000000 129.000000 -0.670771 0.634513 0.384004
11010.00000000 550.00000000 -380.00000000 145 24 171 97.000000 1.000000 4.000000 1.000000 -60.708740 114.000000 129.000000 0.725419 -0.357004 -0.588486
11000.00000000 540.00000000 -390.00000000 145 24 171 97.000000 1.000000 4.000000 1.000000 -60.708740 114.000000 129.000000 -0.670771 0.634513 0.384004
11020.00000000 480.00000000 -420.00000000 145 24 171 97.000000 1.000000 4.000000 1.000000 -60.708740 114.000000 129.000000 0.713859 -0.699779 0.026752
10960.00000000 490.00000000 -360.00000000 145 24 171 97.000000 1.000000 4.000000 1.000000 -60.708740 114.000000 129.000000 -0.291895 0.907954 0.300695
10980.00000000 520.00000000 -470.00000000 145 24 171 97.000000 1.000000 4.000000 1.000000 -60.708740 114.000000 129.000000 -0.421099 0.667434 0.614172
10980.00000000 510.00000000 -460.00000000 145 24 171 97.000000 1.000000 4.000000 1.000000 -60.708740 114.000000 129.000000 -0.642180 0.697178 0.318664
11030.00000000 570.00000000 -610.00000000 145 24 171 97.000000 1.000000 4.000000 1.000000 -60.708740 114.000000 129.000000 -0.602942 0.559030 0.569163
11050.00000000 550.00000000 -630.00000000 145 24 171 97.000000 1.000000 4.000000 1.000000 -60.708740 114.000000 129.000000 0.518040 -0.511334 -0.685691
11030.00000000 520.00000000 -670.00000000 145 24 171 97.000000 1.000000 4.000000 1.000000 -60.708740 114.000000 129.000000 -0.311620 0.805151 0.504603
10990.00000000 590.00000000 -530.00000000 145 24 171 97.000000 1.000000 4.000000 1.000000 -60.708740 114.000000 129.000000 -0.574577 0.390185 0.719456
11020.00000000 590.00000000 -560.00000000 145 24 171 97.000000 1.000000 4.000000 1.000000 -60.708740 114.000000 129.000000 -0.759926 0.232503 0.607005
10960.00000000 590.00000000 -540.00000000 145 24 171 97.000000 1.000000 4.000000 1.000000 -60.708740 114.000000 129.000000 -0.399325 0.624670 0.671064
10960.00000000 580.00000000 -540.00000000 145 24 171 97.000000 1.000000 4.000000 1.000000 -60.708740 114.000000 129.000000 -0.347652 0.641442 0.683879
10950.00000000 590.00000000 -570.00000000 145 24 171 97.000000 1.000000 4.000000 1.000000 -60.708740 114.000000 129.000000 0.712592 -0.587518 -0.383450
10990.00000000 610.00000000 -650.00000000 145 24 171 97.000000 1.000000 4.000000 1.000000 -60.708740 114.000000 129.000000 0.479229 -0.633927 -0.607023
11010.00000000 560.00000000 -630.00000000 145 24 171 97.000000 1.000000 4.000000 1.000000 -60.708740 114.000000 129.000000 0.586496 -0.686184 -0.430319
11020.00000000 580.00000000 -620.00000000 145 24 171 97.000000 1.000000 4.000000 1.000000 -60.708740 114.000000 129.000000 -0.720124 0.674450 0.162903
10990.00000000 560.00000000 -650.00000000 145 24 171 97.000000 1.000000 4.000000 1.000000 -60.708740 114.000000 129.000000 0.840466 -0.523641 -0.139344
10960.00000000 620.00000000 -690.00000000 145 24 171 97.000000 1.000000 4.000000 1.000000 -60.708740 114.000000 129.000000 -0.585518 0.609142 0.534897
10960.00000000 590.00000000 -660.00000000 145 24 171 97.000000 1.000000 4.000000 1.000000 -60.708740 114.000000 129.000000 -0.601587 0.797909 0.037862
10970.00000000 520.00000000 -590.00000000 145 24 171 97.000000 1.000000 4.000000 1.000000 -60.708740 114.000000 129.000000 -0.625566 0.778766 0.046811
11020.00000000 550.00000000 -610.00000000 145 24 171 97.000000 1.000000 4.000000 1.000000 -60.708740 114.000000 129.000000 0.836133 -0.480661 -0.264286
11010.00000000 540.00000000 -670.00000000 145 24 171 97.000000 1.000000 4.000000 1.000000 -60.708740 114.000000 129.000000 0.872954 -0.463348 -0.152513
11010.00000000 540.00000000 -660.00000000 145 24 171 97.000000 1.000000 4.000000 1.000000 -60.708740 114.000000 129.000000 0.599126 -0.468224 -0.649472
11000.00000000 510.00000000 -640.00000000 145 24 171 97.000000 1.000000 4.000000 1.000000 -60.708740 114.000000 129.000000 -0.354284 0.918880 0.173613
10970.00000000 540.00000000 -630.00000000 145 24 171 97.000000 1.000000 4.000000 1.000000 -60.708740 114.000000 129.000000 -0.470913 0.601629 0.645201
10980.00000000 550.00000000 -640.00000000 145 24 171 97.000000 1.000000 4.000000 1.000000 -60.708740 114.000000 129.000000 -0.654082 0.756412 0.004149
10970.00000000 540.00000000 -630.00000000 145 24 171 97.000000 1.000000 4.000000 1.000000 -60.708740 114.000000 129.000000 -0.470913 0.601629 0.645201
10970.00000000 520.00000000 -660.00000000 145 24 171 97.000000 1.000000 4.000000 1.000000 -60.708740 114.000000 129.000000 -0.364920 0.852514 0.374237
10980.00000000 530.00000000 -660.00000000 145 24 171 97.000000 1.000000 4.000000 1.000000 -60.708740 114.000000 129.000000 -0.474595 0.669129 0.571862
10980.00000000 530.00000000 -660.00000000 145 24 171 97.000000 1.000000 4.000000 1.000000 -60.708740 114.000000 129.000000 -0.474595 0.669129 0.571862
10980.00000000 540.00000000 -680.00000000 145 24 171 97.000000 1.000000 4.000000 1.000000 -60.708740 114.000000 129.000000 0.494685 -0.714545 -0.494685
10960.00000000 520.00000000 -660.00000000 145 24 171 97.000000 1.000000 4.000000 1.000000 -60.708740 114.000000 129.000000 -0.323173 0.888350 0.326179
10950.00000000 490.00000000 -640.00000000 145 24 171 97.000000 1.000000 4.000000 1.000000 -60.708740 114.000000 129.000000 -0.703437 0.703437 0.101755
10960.00000000 510.00000000 -660.00000000 145 24 171 97.000000 1.000000 4.000000 1.000000 -60.708740 114.000000 129.000000 -0.646334 0.626293 0.435900
11040.00000000 440.00000000 -410.00000000 145 24 171 97.000000 1.000000 4.000000 1.000000 -60.708740 114.000000 129.000000 0.676841 -0.722065 -0.143207
11050.00000000 410.00000000 -380.00000000 145 24 171 97.000000 1.000000 4.000000 1.000000 -60.708740 114.000000 129.000000 -0.325803 0.637018 0.698613
11100.00000000 440.00000000 -490.00000000 145 24 171 97.000000 1.000000 4.000000 1.000000 -60.708740 114.000000 129.000000 -0.538745 0.801090 0.260784
11070.00000000 420.00000000 -470.00000000 145 24 171 97.000000 1.000000 4.000000 1.000000 -60.708740 114.000000 129.000000 0.771426 -0.511577 -0.378405
11070.00000000 400.00000000 -470.00000000 145 24 171 97.000000 1.000000 4.000000 1.000000 -60.708740 114.000000 129.000000 -0.472396 0.875281 0.103558
11110.00000000 410.00000000 -480.00000000 145 24 171 97.000000 1.000000 4.000000 1.000000 -60.708740 114.000000 129.000000 -0.632218 0.588384 0.504088
11050.00000000 470.00000000 -470.00000000 145 24 171 97.000000 1.000000 4.000000 1.000000 -60.708740 114.000000 129.000000 -0.461401 0.844101 0.273137
11050.00000000 430.00000000 -450.00000000 145 24 171 97.000000 1.000000 4.000000 1.000000 -60.708740 114.000000 129.000000 0.802767 -0.410231 -0.432754
11060.00000000 410.00000000 -480.00000000 145 24 171 97.000000 1.000000 4.000000 1.000000 -60.708740 114.000000 129.000000 0.770133 -0.615195 -0.168609
11090.00000000 370.00000000 -480.00000000 145 24 171 97.000000 1.000000 4.000000 1.000000 -60.708740 114.000000 129.000000 -0.729036 0.609944 0.310605
11020.00000000 470.00000000 -380.00000000 145 24 171 97.000000 1.000000 4.000000 1.000000 -60.708740 114.000000 129.000000 -0.604768 0.781846 0.151567
11020.00000000 420.00000000 -390.00000000 145 24 171 97.000000 1.000000 4.000000 1.000000 -60.708740 114.000000 129.000000 0.763073 -0.640981 -0.082848
11020.00000000 420.00000000 -390.00000000 145 24 171 97.000000 1.000000 4.000000 1.000000 -60.708740 114.000000 129.000000 0.763073 -0.640981 -0.082848
10970.00000000 440.00000000 -420.00000000 145 24 171 97.000000 1.000000 4.000000 1.000000 -60.708740 114.000000 129.000000 -0.401779 0.913134 0.068992
10980.00000000 460.00000000 -430.00000000 145 24 171 97.000000 1.000000 4.000000 1.000000 -60.708740 114.000000 129.000000 -0.200057 0.843851 0.497887
11010.00000000 460.00000000 -480.00000000 145 24 171 97.000000 1.000000 4.000000 1.000000 -60.708740 114.000000 129.000000 0.638881 -0.362963 -0.678298
10950.00000000 470.00000000 -680.00000000 145 24 171 97.000000 1.000000 4.000000 1.000000 -60.708740 114.000000 129.000000 -0.301543 0.688549 0.659524
10890.00000000 630.00000000 -390.00000000 145 24 171 97.000000 1.000000 4.000000 1.000000 -60.708740 114.000000 129.000000 0.901143 -0.410126 -0.140493
10930.00000000 600.00000000 -480.00000000 145 24 171 97.000000 1.000000 4.000000 1.000000 -60.708740 114.000000 129.000000 -0.387407 0.842257 0.374859
10900.00000000 610.00000000 -510.00000000 145 24 171 97.000000 1.000000 4.000000 1.000000 -60.708740 114.000000 129.000000 -0.567184 0.801357 0.190075
10920.00000000 570.00000000 -500.00000000 145 24 171 97.000000 1.000000 4.000000 1.000000 -60.708740 114.000000 129.000000 -0.348484 0.845425 0.404741
10920.00000000 570.00000000 -500.00000000 145 24 171 97.000000 1.000000 4.000000 1.000000 -60.708740 114.000000 129.000000 -0.348484 0.845425 0.404741
10940.00000000 580.00000000 -520.00000000 145 24 171 97.000000 1.000000 4.000000 1.000000 -60.708740 114.000000 129.000000 0.493953 -0.544186 -0.678139
10860.00000000 550.00000000 -400.00000000 145 24 171 97.000000 1.000000 4.000000 1.000000 -60.708740 114.000000 129.000000 -0.130011 0.748683 0.650054
10900.00000000 530.00000000 -420.00000000 145 24 171 97.000000 1.000000 4.000000 1.000000 -60.708740 114.000000 129.000000 -0.639106 0.764307 0.085894
10880.00000000 510.00000000 -460.00000000 145 24 171 97.000000 1.000000 4.000000 1.000000 -60.708740 114.000000 129.000000 -0.311219 0.949025 0.049949
10840.00000000 620.00000000 -400.00000000 145 24 171 97.000000 1.000000 4.000000 1.000000 -60.708740 114.000000 129.000000 -0.512112 0.792895 0.330240
10840.00000000 620.00000000 -400.00000000 145 24 171 97.000000 1.000000 4.000000 1.000000 -60.708740 114.000000 129.000000 -0.512112 0.792895 0.330240
10830.00000000 620.00000000 -430.00000000 145 24 171 97.000000 1.000000 4.000000 1.000000 -60.708740 114.000000 129.000000 -0.529571 0.766015 0.364384
10820.00000000 570.00000000 -420.00000000 145 24 171 97.000000 1.000000 4.000000 1.000000 -60.708740 114.000000 129.000000 -0.001382 0.742124 0.670261
10810.00000000 610.00000000 -390.00000000 145 24 171 97.000000 1.000000 4.000000 1.000000 -60.708740 114.000000 129.000000 0.158216 0.878171 0.451424
10820.00000000 630.00000000 -510.00000000 145 24 171 97.000000 1.000000 4.000000 1.000000 -60.708740 114.000000 129.000000 -0.109559 0.908368 0.403565
10830.00000000 630.00000000 -500.00000000 145 24 171 97.000000 1.000000 4.000000 1.000000 -60.708740 114.000000 129.000000 -0.272685 0.642644 0.715997
10810.00000000 630.00000000 -500.00000000 145 24 171 97.000000 1.000000 4.000000 1.000000 -60.708740 114.000000 129.000000 -0.139846 0.663138 0.735317
10850.00000000 550.00000000 -440.00000000 145 24 171 97.000000 1.000000 4.000000 1.000000 -60.708740 114.000000 129.000000 0.115454 0.908331 0.402002
10820.00000000 510.00000000 -440.00000000 145 24 171 97.000000 1.000000 4.000000 1.000000 -60.708740 114.000000 129.000000 0.132144 0.855307 0.500986
10940.00000000 610.00000000 -530.00000000 145 24 171 97.000000 1.000000 4.000000 1.000000 -60.708740 114.000000 129.000000 0.761097 -0.291993 -0.579199
10920.00000000 620.00000000 -570.00000000 145 24 171 97.000000 1.000000 4.000000 1.000000 -60.708740 114.000000 129.000000 -0.427663 0.898511 0.098906
10920.00000000 620.00000000 -570.00000000 145 24 171 97.000000 1.000000 4.000000 1.000000 -60.708740 114.000000 129.000000 -0.427663 0.898511 0.098906
10910.00000000 570.00000000 -550.00000000 145 24 171 97.000000 1.000000 4.000000 1.000000 -60.708740 114.000000 129.000000 0.721022 -0.682369 -0.120418
10930.00000000 560.00000000 -550.00000000 145 24 171 97.000000 1.000000 4.000000 1.000000 -60.708740 114.000000 129.000000 -0.607110 0.583434 0.539465
10910.00000000 590.00000000 -600.00000000 145 24 171 97.000000 1.000000 4.000000 1.000000 -60.708740 114.000000 129.000000 -0.200287 0.931403 0.303931
10870.00000000 630.00000000 -540.00000000 145 24 171 97.000000 1.000000 4.000000 1.000000 -60.708740 114.000000 129.000000 0.753790 -0.500885 -0.425341
10890.00000000 610.00000000 -550.00000000 145 24 171 97.000000 1.000000 4.000000 1.000000 -60.708740 114.000000 129.000000 -0.675253 0.728680 0.114274
10890.00000000 620.00000000 -590.00000000 145 24 171 97.000000 1.000000 4.000000 1.000000 -60.708740 114.000000 129.000000 -0.424749 0.883301 0.198412
10930.00000000 620.00000000 -610.00000000 145 24 171 97.000000 1.000000 4.000000 1.000000 -60.708740 114.000000 129.000000 0.796799 -0.602869 -0.040753
10920.00000000 580.00000000 -650.00000000 145 24 171 97.000000 1.000000 4.000000 1.000000 -60.708740 114.000000 129.000000 -0.279835 0.949298 0.143265
10860.00000000 560.00000000 -620.00000000 145 24 171 97.000000 1.000000 4.000000 1.000000 -60.708740 114.000000 129.000000 -0.035277 0.926359 0.374986
10910.00000000 490.00000000 -590.00000000 145 24 171 97.000000 1.000000 4.000000 1.000000 -60.708740 114.000000 129.000000 -0.373176 0.701966 0.606617
10910.00000000 500.00000000 -600.00000000 145 24 171 97.000000 1.000000 4.000000 1.000000 -60.708740 114.000000 129.000000 -0.529391 0.693051 0.489311
10940.00000000 510.00000000 -600.00000000 145 24 171 97.000000 1.000000 4.000000 1.000000 -60.708740 114.000000 129.000000 -0.136526 0.742642 0.655625
10930.00000000 510.00000000 -600.00000000 145 24 171 97.000000 1.000000 4.000000 1.000000 -60.708740 114.000000 129.000000 -0.155092 0.772448 0.615850
10940.00000000 520.00000000 -680.00000000 145 24 171 97.000000 1.000000 4.000000 1.000000 -60.708740 114.000000 129.000000 0.710286 -0.692342 -0.127104
10910.00000000 500.00000000 -650.00000000 145 24 171 97.000000 1.000000 4.000000 1.000000 -60.708740 114.000000 129.000000 -0.372994 0.823761 0.426959
10910.00000000 490.00000000 -670.00000000 145 24 171 97.000000 1.000000 4.000000 1.000000 -60.708740 114.000000 129.000000 0.212675 -0.737376 -0.641129
10920.00000000 510.00000000 -660.00000000 145 24 171 97.000000 1.000000 4.000000 1.000000 -60.708740 114.000000 129.000000 0.669883 -0.488561 -0.559075
10910.00000000 490.00000000 -670.00000000 145 24 171 97.000000 1.000000 4.000000 1.000000 -60.708740 114.000000 129.000000 0.212675 -0.737376 -0.641129
10880.00000000 520.00000000 -680.00000000 145 24 171 97.000000 1.000000 4.000000 1.000000 -60.708740 114.000000 129.000000 -0.117137 0.757681 0.642027
10890.00000000 490.00000000 -690.00000000 145 24 171 97.000000 1.000000 4.000000 1.000000 -60.708740 114.000000 129.000000 -0.095229 0.934855 0.342020
10870.00000000 480.00000000 -660.00000000 145 24 171 97.000000 1.000000 4.000000 1.000000 -60.708740 114.000000 129.000000 -0.584397 0.764943 0.270818
10860.00000000 480.00000000 -690.00000000 145 24 171 97.000000 1.000000 4.000000 1.000000 -60.708740 114.000000 129.000000 -0.412635 0.893319 0.178085
10870.00000000 480.00000000 -660.00000000 145 24 171 97.000000 1.000000 4.000000 1.000000 -60.708740 114.000000 129.000000 -0.584397 0.764943 0.270818
10860.00000000 480.00000000 -670.00000000 145 24 171 97.000000 1.000000 4.000000 1.000000 -60.708740 114.000000 129.000000 -0.267623 0.923085 0.276210
10830.00000000 620.00000000 -550.00000000 145 24 171 97.000000 1.000000 4.000000 1.000000 -60.708740 114.000000 129.000000 -0.558553 0.769811 0.308885
10850.00000000 560.00000000 -620.00000000 145 24 171 97.000000 1.000000 4.000000 1.000000 -60.708740 114.000000 129.000000 -0.152074 0.905338 0.396530
10810.00000000 510.00000000 -600.00000000 145 24 171 97.000000 1.000000 4.000000 1.000000 -60.708740 114.000000 129.000000 -0.217224 0.969253 0.115599
10900.00000000 470.00000000 -650.00000000 145 24 171 97.000000 1.000000 4.000000 1.000000 -60.708740 114.000000 129.000000 -0.550353 0.786895 0.279119
10930.00000000 460.00000000 -640.00000000 145 24 171 97.000000 1.000000 4.000000 1.000000 -60.708740 114.000000 129.000000 -0.398775 0.842901 0.361243
10900.00000000 470.00000000 -670.00000000 145 24 171 97.000000 1.000000 4.000000 1.000000 -60.708740 114.000000 129.000000 -0.213934 0.972086 0.096333
10860.00000000 470.00000000 -650.00000000 145 24 171 97.000000 1.000000 4.000000 1.000000 -60.708740 114.000000 129.000000 -0.125699 0.971311 0.201880
10890.00000000 400.00000000 -690.00000000 145 24 171 97.000000 1.000000 4.000000 1.000000 -60.708740 114.000000 129.000000 -0.550422 0.746418 0.374026
10850.00000000 470.00000000 -670.00000000 145 24 171 97.000000 1.000000 4.000000 1.000000 -60.708740 114.000000 129.000000 -0.421677 0.854165 0.304287
10850.00000000 470.00000000 -680.00000000 145 24 171 97.000000 1.000000 4.000000 1.000000 -60.708740 114.000000 129.000000 -0.388033 0.910114 0.145336
10700.00000000 950.00000000 -180.00000000 145 24 171 97.000000 1.000000 4.000000 1.000000 -60.708740 114.000000 129.000000 -0.045393 0.865224 0.499326
10710.00000000 950.00000000 -180.00000000 145 24 171 97.000000 1.000000 4.000000 1.000000 -60.708740 114.000000 129.000000 -0.553194 0.821678 0.137192
10690.00000000 910.00000000 -140.00000000 145 24 171 97.000000 1.000000 4.000000 1.000000 -60.708740 114.000000 129.000000 -0.219387 0.942397 0.252502
10690.00000000 930.00000000 -160.00000000 145 24 171 97.000000 1.000000 4.000000 1.000000 -60.708740 114.000000 129.000000 -0.204570 0.926914 0.314615
10750.00000000 810.00000000 -80.00000000 145 24 171 97.000000 1.000000 4.000000 1.000000 -60.708740 114.000000 129.000000 0.341302 -0.661374 -0.667906
10760.00000000 810.00000000 -70.00000000 145 24 171 97.000000 1.000000 4.000000 1.000000 -60.708740 114.000000 129.000000 -0.479950 0.553531 0.680626
10770.00000000 860.00000000 -180.00000000 145 24 171 97.000000 1.000000 4.000000 1.000000 -60.708740 114.000000 129.000000 -0.264771 0.794313 0.546776
10750.00000000 860.00000000 -180.00000000 145 24 171 97.000000 1.000000 4.000000 1.000000 -60.708740 114.000000 129.000000 0.015337 0.692944 0.720829
10710.00000000 870.00000000 -160.00000000 145 24 171 97.000000 1.000000 4.000000 1.000000 -60.708740 114.000000 129.000000 -0.110391 0.858760 0.500346
10630.00000000 970.00000000 -60.00000000 145 24 171 97.000000 1.000000 4.000000 1.000000 -60.708740 114.000000 129.000000 -0.279063 0.923055 0.264752
10680.00000000 950.00000000 -150.00000000 145 24 171 97.000000 1.000000 4.000000 1.000000 -60.708740 114.000000 129.000000 0.679544 -0.689048 -0.251859
10610.00000000 930.00000000 -130.00000000 145 24 171 97.000000 1.000000 4.000000 1.000000 -60.708740 114.000000 129.000000 -0.335384 0.730716 0.594618
10730.00000000 970.00000000 -200.00000000 145 24 171 97.000000 1.000000 4.000000 1.000000 -60.708740 114.000000 129.000000 -0.111721 0.837183 0.535391
10700.00000000 930.00000000 -200.00000000 145 24 171 97.000000 1.000000 4.000000 1.000000 -60.708740 114.000000 129.000000 -0.089240 0.674419 0.732936
10710.00000000 890.00000000 -220.00000000 145 24 171 97.000000 1.000000 4.000000 1.000000 -60.708740 114.000000 129.000000 -0.320859 0.913215 0.251171
10730.00000000 810.00000000 -260.00000000 145 24 171 97.000000 1.000000 4.000000 1.000000 -60.708740 114.000000 129.000000 -0.305829 0.946613 0.101943
10730.00000000 810.00000000 -270.00000000 145 24 171 97.000000 1.000000 4.000000 1.000000 -60.708740 114.000000 129.000000 0.607685 -0.765404 -0.211839
10660.00000000 950.00000000 -250.00000000 145 24 171 97.000000 1.000000 4.000000 1.000000 -60.708740 114.000000 129.000000 -0.426889 0.800619 0.420446
10640.00000000 960.00000000 -230.00000000 145 24 171 97.000000 1.000000 4.000000 1.000000 -60.708740 114.000000 129.000000 0.749358 -0.446321 -0.489142
10610.00000000 970.00000000 -220.00000000 145 24 171 97.000000 1.000000 4.000000 1.000000 -60.708740 114.000000 129.000000 0.612326 -0.731255 -0.300538
10630.00000000 940.00000000 -200.00000000 145 24 171 97.000000 1.000000 4.000000 1.000000 -60.708740 114.000000 129.000000 -0.320011 0.913696 0.250506
10610.00000000 930.00000000 -260.00000000 145 24 171 97.000000 1.000000 4.000000 1.000000 -60.708740 114.000000 129.000000 -0.556687 0.816375 0.153723
10610.00000000 920.00000000 -270.00000000 145 24 171 97.000000 1.000000 4.000000 1.000000 -60.708740 114.000000 129.000000 0.808479 -0.464038 -0.361982
10770.00000000 780.00000000 -90.00000000 145 24 171 97.000000 1.000000 4.000000 1.000000 -60.708740 114.000000 129.000000 -0.203331 0.847966 0.489501
10750.00000000 640.00000000 -180.00000000 145 24 171 97.000000 1.000000 4.000000 1.000000 -60.708740 114.000000 129.000000 0.970538 -0.180298 0.159838
10760.00000000 650.00000000 -150.00000000 145 24 171 97.000000 1.000000 4.000000 1.000000 -60.708740 114.000000 129.000000 0.891076 0.044757 -0.451641
10760.00000000 790.00000000 -200.00000000 145 24 171 97.000000 1.000000 4.000000 1.000000 -60.708740 114.000000 129.000000 0.012214 0.850895 0.525194
10740.00000000 740.00000000 -260.00000000 145 24 171 97.000000 1.000000 4.000000 1.000000 -60.708740 114.000000 129.000000 -0.636814 0.398629 0.659971
10730.00000000 740.00000000 -270.00000000 145 24 171 97.000000 1.000000 4.000000 1.000000 -60.708740 114.000000 129.000000 0.948045 -0.183624 -0.259794
10770.00000000 790.00000000 -290.00000000 145 24 171 97.000000 1.000000 4.000000 1.000000 -60.708740 114.000000 129.000000 -0.572842 0.736045 0.360679
10760.00000000 790.00000000 -300.00000000 145 24 171 97.000000 1.000000 4.000000 1.000000 -60.708740 114.000000 129.000000 -0.672155 0.691223 0.265366
10770.00000000 790.00000000 -290.00000000 145 24 171 97.000000 1.000000 4.000000 1.000000 -60.708740 114.000000 129.000000 -0.572842 0.736045 0.360679
10750.00000000 780.00000000 -300.00000000 145 24 171 97.000000 1.000000 4.000000 1.000000 -60.708740 114.000000 129.000000 0.799333 -0.559071 -0.220240
10770.00000000 760.00000000 -300.00000000 145 24 171 97.000000 1.000000 4.000000 1.000000 -60.708740 114.000000 129.000000 -0.690240 0.658061 0.300874
10740.00000000 750.00000000 -330.00000000 145 24 171 97.000000 1.000000 4.000000 1.000000 -60.708740 114.000000 129.000000 0.602613 -0.691767 -0.397890
10760.00000000 650.00000000 -190.00000000 145 24 171 97.000000 1.000000 4.000000 1.000000 -60.708740 114.000000 129.000000 0.880723 -0.473204 0.020108
10750.00000000 670.00000000 -210.00000000 145 24 171 97.000000 1.000000 4.000000 1.000000 -60.708740 114.000000 129.000000 0.756167 -0.281772 -0.590606
10760.00000000 650.00000000 -240.00000000 145 24 171 97.000000 1.000000 4.000000 1.000000 -60.708740 114.000000 129.000000 0.921336 0.382214 0.071078
10750.00000000 660.00000000 -250.00000000 145 24 171 97.000000 1.000000 4.000000 1.000000 -60.708740 114.000000 129.000000 0.937772 0.284805 -0.198669
10720.00000000 700.00000000 -260.00000000 145 24 171 97.000000 1.000000 4.000000 1.000000 -60.708740 114.000000 129.000000 0.832469 -0.327657 -0.446806
10720.00000000 700.00000000 -290.00000000 145 24 171 97.000000 1.000000 4.000000 1.000000 -60.708740 114.000000 129.000000 0.985955 -0.164518 -0.028762
10670.00000000 680.00000000 -270.00000000 145 24 171 97.000000 1.000000 4.000000 1.000000 -60.708740 114.000000 129.000000 0.900129 -0.288218 -0.326648
10670.00000000 690.00000000 -300.00000000 145 24 171 97.000000 1.000000 4.000000 1.000000 -60.708740 114.000000 129.000000 0.942441 -0.312360 0.119313
10660.00000000 640.00000000 -310.00000000 145 24 171 97.000000 1.000000 4.000000 1.000000 -60.708740 114.000000 129.000000 0.851335 0.501391 0.154387
10600.00000000 950.00000000 -120.00000000 145 24 171 97.000000 1.000000 4.000000 1.000000 -60.708740 114.000000 129.000000 -0.622889 0.781084 0.043786
10570.00000000 970.00000000 -120.00000000 145 24 171 97.000000 1.000000 4.000000 1.000000 -60.708740 114.000000 129.000000 -0.511442 0.857947 0.048511
10570.00000000 970.00000000 -130.00000000 145 24 171 97.000000 1.000000 4.000000 1.000000 -60.708740 114.000000 129.000000 0.800953 -0.390043 -0.454248
10570.00000000 970.00000000 -130.00000000 145 24 171 97.000000 1.000000 4.000000 1.000000 -60.708740 114.000000 129.000000 0.800953 -0.390043 -0.454248
10590.00000000 970.00000000 -140.00000000 145 24 171 97.000000 1.000000 4.000000 1.000000 -60.708740 114.000000 129.000000 0.809792 -0.563399 -0.163761
10600.00000000 950.00000000 -120.00000000 145 24 171 97.000000 1.000000 4.000000 1.000000 -60.708740 114.000000 129.000000 -0.622889 0.781084 0.043786
10590.00000000 950.00000000 -120.00000000 145 24 171 97.000000 1.000000 4.000000 1.000000 -60.708740 114.000000 129.000000 0.788763 -0.602301 -0.122828
10580.00000000 960.00000000 -150.00000000 145 24 171 97.000000 1.000000 4.000000 1.000000 -60.708740 114.000000 129.000000 0.701444 -0.568783 -0.429490
