//X Y Z R G B PointSourceId ScanDirectionFlag NumberOfReturns ReturnNumber GpsTime Intensity Classification Nx Ny Nz
2360.00000000 -2870.00000000 -870.00000000 27 3 240 0.000000 0.000000 0.000000 0.000000 -60.708740 0.000000 118.000000 0.789724 0.581982 -0.193994
2360.00000000 -2880.00000000 -880.00000000 27 3 240 0.000000 0.000000 0.000000 0.000000 -60.708740 0.000000 118.000000 0.888310 0.446267 -0.108399
2370.00000000 -2860.00000000 -870.00000000 27 3 240 0.000000 0.000000 0.000000 0.000000 -60.708740 0.000000 118.000000 0.835045 0.510726 -0.204594
2400.00000000 -2820.00000000 -1010.00000000 27 3 240 0.000000 0.000000 0.000000 0.000000 -60.708740 0.000000 118.000000 0.794646 0.583544 -0.167373
2400.00000000 -2860.00000000 -980.00000000 27 3 240 0.000000 0.000000 0.000000 0.000000 -60.708740 0.000000 118.000000 0.799535 0.581344 -0.150940
2400.00000000 -2870.00000000 -980.00000000 27 3 240 0.000000 0.000000 0.000000 0.000000 -60.708740 0.000000 118.000000 0.941129 0.272250 -0.200387
2400.00000000 -2890.00000000 -1020.00000000 27 3 240 0.000000 0.000000 0.000000 0.000000 -60.708740 0.000000 118.000000 0.922925 0.384874 0.009010
2410.00000000 -2880.00000000 -1010.00000000 27 3 240 0.000000 0.000000 0.000000 0.000000 -60.708740 0.000000 118.000000 0.848114 0.139155 -0.511212
2420.00000000 -2890.00000000 -1000.00000000 27 3 240 0.000000 0.000000 0.000000 0.000000 -60.708740 0.000000 118.000000 -0.575510 -0.382033 0.723076
2400.00000000 -2890.00000000 -1020.00000000 27 3 240 0.000000 0.000000 0.000000 0.000000 -60.708740 0.000000 118.000000 0.922925 0.384874 0.009010
2410.00000000 -2890.00000000 -1000.00000000 27 3 240 0.000000 0.000000 0.000000 0.000000 -60.708740 0.000000 118.000000 0.516894 0.547201 -0.658325
2380.00000000 -2820.00000000 -960.00000000 27 3 240 0.000000 0.000000 0.000000 0.000000 -60.708740 0.000000 118.000000 0.482183 0.656911 -0.579627
2390.00000000 -2820.00000000 -950.00000000 27 3 240 0.000000 0.000000 0.000000 0.000000 -60.708740 0.000000 118.000000 0.679085 0.575638 -0.455505
2360.00000000 -2830.00000000 -990.00000000 27 3 240 0.000000 0.000000 0.000000 0.000000 -60.708740 0.000000 118.000000 0.903235 0.413107 -0.116230
2360.00000000 -2830.00000000 -990.00000000 27 3 240 0.000000 0.000000 0.000000 0.000000 -60.708740 0.000000 118.000000 0.903235 0.413107 -0.116230
2360.00000000 -2850.00000000 -1000.00000000 27 3 240 0.000000 0.000000 0.000000 0.000000 -60.708740 0.000000 118.000000 0.840071 0.542461 -0.004058
2370.00000000 -2870.00000000 -970.00000000 27 3 240 0.000000 0.000000 0.000000 0.000000 -60.708740 0.000000 118.000000 0.698672 0.455221 -0.551934
2380.00000000 -2860.00000000 -960.00000000 27 3 240 0.000000 0.000000 0.000000 0.000000 -60.708740 0.000000 118.000000 0.676621 0.630526 -0.380291
2380.00000000 -2860.00000000 -960.00000000 27 3 240 0.000000 0.000000 0.000000 0.000000 -60.708740 0.000000 118.000000 0.676621 0.630526 -0.380291
2390.00000000 -2870.00000000 -950.00000000 27 3 240 0.000000 0.000000 0.000000 0.000000 -60.708740 0.000000 118.000000 0.834327 0.551228 -0.006805
2390.00000000 -2880.00000000 -990.00000000 27 3 240 0.000000 0.000000 0.000000 0.000000 -60.708740 0.000000 118.000000 -0.744959 -0.288731 0.601391
2360.00000000 -2860.00000000 -1000.00000000 27 3 240 0.000000 0.000000 0.000000 0.000000 -60.708740 0.000000 118.000000 0.906590 0.307094 -0.289462
2390.00000000 -2880.00000000 -990.00000000 27 3 240 0.000000 0.000000 0.000000 0.000000 -60.708740 0.000000 118.000000 -0.744959 -0.288731 0.601391
2460.00000000 -3060.00000000 -730.00000000 27 3 240 0.000000 0.000000 0.000000 0.000000 -60.708740 0.000000 118.000000 0.823305 -0.398168 -0.404514
2440.00000000 -3040.00000000 -860.00000000 27 3 240 0.000000 0.000000 0.000000 0.000000 -60.708740 0.000000 118.000000 0.991543 -0.088265 -0.095142
2420.00000000 -2960.00000000 -710.00000000 27 3 240 0.000000 0.000000 0.000000 0.000000 -60.708740 0.000000 118.000000 0.548528 0.717561 -0.429211
2410.00000000 -2970.00000000 -730.00000000 27 3 240 0.000000 0.000000 0.000000 0.000000 -60.708740 0.000000 118.000000 0.953008 0.282616 -0.109103
2410.00000000 -2950.00000000 -750.00000000 27 3 240 0.000000 0.000000 0.000000 0.000000 -60.708740 0.000000 118.000000 0.757603 0.386133 -0.526249
2410.00000000 -2980.00000000 -760.00000000 27 3 240 0.000000 0.000000 0.000000 0.000000 -60.708740 0.000000 118.000000 0.964417 0.248430 -0.090454
2380.00000000 -2950.00000000 -710.00000000 27 3 240 0.000000 0.000000 0.000000 0.000000 -60.708740 0.000000 118.000000 0.503813 0.713319 -0.487185
2390.00000000 -2940.00000000 -730.00000000 27 3 240 0.000000 0.000000 0.000000 0.000000 -60.708740 0.000000 118.000000 0.885591 0.423034 -0.191756
2380.00000000 -2960.00000000 -750.00000000 27 3 240 0.000000 0.000000 0.000000 0.000000 -60.708740 0.000000 118.000000 0.590428 0.644256 -0.486136
2400.00000000 -2920.00000000 -840.00000000 27 3 240 0.000000 0.000000 0.000000 0.000000 -60.708740 0.000000 118.000000 0.850126 0.251833 -0.462456
2420.00000000 -2940.00000000 -790.00000000 27 3 240 0.000000 0.000000 0.000000 0.000000 -60.708740 0.000000 118.000000 0.937289 0.346810 -0.034810
2410.00000000 -2950.00000000 -810.00000000 27 3 240 0.000000 0.000000 0.000000 0.000000 -60.708740 0.000000 118.000000 0.778202 0.398036 -0.485767
2420.00000000 -2940.00000000 -790.00000000 27 3 240 0.000000 0.000000 0.000000 0.000000 -60.708740 0.000000 118.000000 0.937289 0.346810 -0.034810
2420.00000000 -2980.00000000 -830.00000000 27 3 240 0.000000 0.000000 0.000000 0.000000 -60.708740 0.000000 118.000000 0.794720 0.091531 -0.600035
2430.00000000 -2940.00000000 -860.00000000 27 3 240 0.000000 0.000000 0.000000 0.000000 -60.708740 0.000000 118.000000 0.847456 0.318768 -0.424506
2430.00000000 -2970.00000000 -850.00000000 27 3 240 0.000000 0.000000 0.000000 0.000000 -60.708740 0.000000 118.000000 0.858805 0.372922 -0.351259
2410.00000000 -2960.00000000 -830.00000000 27 3 240 0.000000 0.000000 0.000000 0.000000 -60.708740 0.000000 118.000000 0.933365 0.346832 -0.092399
2410.00000000 -2960.00000000 -830.00000000 27 3 240 0.000000 0.000000 0.000000 0.000000 -60.708740 0.000000 118.000000 0.933365 0.346832 -0.092399
2430.00000000 -2970.00000000 -850.00000000 27 3 240 0.000000 0.000000 0.000000 0.000000 -60.708740 0.000000 118.000000 0.858805 0.372922 -0.351259
2410.00000000 -2950.00000000 -860.00000000 27 3 240 0.000000 0.000000 0.000000 0.000000 -60.708740 0.000000 118.000000 0.600180 0.532555 -0.596799
2380.00000000 -2900.00000000 -800.00000000 27 3 240 0.000000 0.000000 0.000000 0.000000 -60.708740 0.000000 118.000000 0.545375 0.599406 -0.585899
2380.00000000 -2920.00000000 -820.00000000 27 3 240 0.000000 0.000000 0.000000 0.000000 -60.708740 0.000000 118.000000 0.631737 0.618332 -0.467519
2410.00000000 -3000.00000000 -710.00000000 27 3 240 0.000000 0.000000 0.000000 0.000000 -60.708740 0.000000 118.000000 0.806019 0.301271 -0.509480
2420.00000000 -3000.00000000 -710.00000000 27 3 240 0.000000 0.000000 0.000000 0.000000 -60.708740 0.000000 118.000000 0.668345 0.402997 -0.625226
2430.00000000 -3010.00000000 -710.00000000 27 3 240 0.000000 0.000000 0.000000 0.000000 -60.708740 0.000000 118.000000 0.887655 0.235621 -0.395666
2420.00000000 -3000.00000000 -770.00000000 27 3 240 0.000000 0.000000 0.000000 0.000000 -60.708740 0.000000 118.000000 0.974640 0.189409 -0.119165
2430.00000000 -3020.00000000 -750.00000000 27 3 240 0.000000 0.000000 0.000000 0.000000 -60.708740 0.000000 118.000000 0.609938 0.250595 -0.751784
2400.00000000 -3030.00000000 -740.00000000 27 3 240 0.000000 0.000000 0.000000 0.000000 -60.708740 0.000000 118.000000 0.874947 0.202822 -0.439694
2430.00000000 -3000.00000000 -830.00000000 27 3 240 0.000000 0.000000 0.000000 0.000000 -60.708740 0.000000 118.000000 0.994133 0.034204 -0.102613
2420.00000000 -3000.00000000 -850.00000000 27 3 240 0.000000 0.000000 0.000000 0.000000 -60.708740 0.000000 118.000000 0.765333 -0.091840 -0.637049
2420.00000000 -3000.00000000 -850.00000000 27 3 240 0.000000 0.000000 0.000000 0.000000 -60.708740 0.000000 118.000000 0.765333 -0.091840 -0.637049
2420.00000000 -3050.00000000 -800.00000000 27 3 240 0.000000 0.000000 0.000000 0.000000 -60.708740 0.000000 118.000000 0.956971 0.041389 -0.287217
2430.00000000 -3050.00000000 -800.00000000 27 3 240 0.000000 0.000000 0.000000 0.000000 -60.708740 0.000000 118.000000 0.751819 0.142561 -0.643773
2430.00000000 -3050.00000000 -800.00000000 27 3 240 0.000000 0.000000 0.000000 0.000000 -60.708740 0.000000 118.000000 0.751819 0.142561 -0.643773
2420.00000000 -3060.00000000 -830.00000000 27 3 240 0.000000 0.000000 0.000000 0.000000 -60.708740 0.000000 118.000000 0.858400 -0.060018 -0.509457
2450.00000000 -2980.00000000 -930.00000000 27 3 240 0.000000 0.000000 0.000000 0.000000 -60.708740 0.000000 118.000000 0.961081 0.048869 -0.271910
2440.00000000 -3010.00000000 -890.00000000 27 3 240 0.000000 0.000000 0.000000 0.000000 -60.708740 0.000000 118.000000 0.995059 0.076543 -0.063231
2450.00000000 -2990.00000000 -870.00000000 27 3 240 0.000000 0.000000 0.000000 0.000000 -60.708740 0.000000 118.000000 0.670412 0.449728 -0.590163
2440.00000000 -2990.00000000 -940.00000000 27 3 240 0.000000 0.000000 0.000000 0.000000 -60.708740 0.000000 118.000000 0.843165 0.373871 -0.386385
2480.00000000 -3060.00000000 -980.00000000 27 3 240 0.000000 0.000000 0.000000 0.000000 -60.708740 0.000000 118.000000 0.847690 0.167756 -0.503269
2460.00000000 -3050.00000000 -960.00000000 27 3 240 0.000000 0.000000 0.000000 0.000000 -60.708740 0.000000 118.000000 0.942965 -0.252654 -0.216758
2450.00000000 -3050.00000000 -980.00000000 27 3 240 0.000000 0.000000 0.000000 0.000000 -60.708740 0.000000 118.000000 0.936545 0.146292 -0.318562
2450.00000000 -3060.00000000 -990.00000000 27 3 240 0.000000 0.000000 0.000000 0.000000 -60.708740 0.000000 118.000000 0.915519 -0.237891 -0.324396
2450.00000000 -3050.00000000 -990.00000000 27 3 240 0.000000 0.000000 0.000000 0.000000 -60.708740 0.000000 118.000000 0.990918 0.051313 -0.124292
2460.00000000 -3050.00000000 -990.00000000 27 3 240 0.000000 0.000000 0.000000 0.000000 -60.708740 0.000000 118.000000 0.857536 -0.280732 -0.431069
2410.00000000 -2920.00000000 -890.00000000 27 3 240 0.000000 0.000000 0.000000 0.000000 -60.708740 0.000000 118.000000 0.559451 0.623678 -0.545930
2410.00000000 -2900.00000000 -900.00000000 27 3 240 0.000000 0.000000 0.000000 0.000000 -60.708740 0.000000 118.000000 0.868683 0.487310 -0.088987
2410.00000000 -2910.00000000 -890.00000000 27 3 240 0.000000 0.000000 0.000000 0.000000 -60.708740 0.000000 118.000000 0.949634 0.294532 -0.106982
2410.00000000 -2900.00000000 -900.00000000 27 3 240 0.000000 0.000000 0.000000 0.000000 -60.708740 0.000000 118.000000 0.868683 0.487310 -0.088987
2410.00000000 -2910.00000000 -890.00000000 27 3 240 0.000000 0.000000 0.000000 0.000000 -60.708740 0.000000 118.000000 0.949634 0.294532 -0.106982
2400.00000000 -2900.00000000 -910.00000000 27 3 240 0.000000 0.000000 0.000000 0.000000 -60.708740 0.000000 118.000000 0.877476 0.336087 -0.342170
2400.00000000 -2900.00000000 -910.00000000 27 3 240 0.000000 0.000000 0.000000 0.000000 -60.708740 0.000000 118.000000 0.877476 0.336087 -0.342170
2430.00000000 -2960.00000000 -880.00000000 27 3 240 0.000000 0.000000 0.000000 0.000000 -60.708740 0.000000 118.000000 0.937442 0.117349 -0.327768
2430.00000000 -2980.00000000 -940.00000000 27 3 240 0.000000 0.000000 0.000000 0.000000 -60.708740 0.000000 118.000000 0.627555 0.446819 -0.637595
2430.00000000 -2980.00000000 -940.00000000 27 3 240 0.000000 0.000000 0.000000 0.000000 -60.708740 0.000000 118.000000 0.627555 0.446819 -0.637595
2430.00000000 -2940.00000000 -910.00000000 27 3 240 0.000000 0.000000 0.000000 0.000000 -60.708740 0.000000 118.000000 0.974183 0.175177 -0.142410
2390.00000000 -2900.00000000 -870.00000000 27 3 240 0.000000 0.000000 0.000000 0.000000 -60.708740 0.000000 118.000000 0.921833 0.285295 -0.262357
2390.00000000 -2910.00000000 -910.00000000 27 3 240 0.000000 0.000000 0.000000 0.000000 -60.708740 0.000000 118.000000 0.926058 0.370156 -0.073497
2390.00000000 -2910.00000000 -940.00000000 27 3 240 0.000000 0.000000 0.000000 0.000000 -60.708740 0.000000 118.000000 0.926552 0.372993 -0.048766
2420.00000000 -2900.00000000 -960.00000000 27 3 240 0.000000 0.000000 0.000000 0.000000 -60.708740 0.000000 118.000000 0.881140 0.318903 -0.349131
2420.00000000 -2900.00000000 -960.00000000 27 3 240 0.000000 0.000000 0.000000 0.000000 -60.708740 0.000000 118.000000 0.881140 0.318903 -0.349131
2410.00000000 -2900.00000000 -1000.00000000 27 3 240 0.000000 0.000000 0.000000 0.000000 -60.708740 0.000000 118.000000 0.896434 0.084256 -0.435095
2430.00000000 -2910.00000000 -990.00000000 27 3 240 0.000000 0.000000 0.000000 0.000000 -60.708740 0.000000 118.000000 0.816349 0.037678 -0.576329
2410.00000000 -2900.00000000 -1010.00000000 27 3 240 0.000000 0.000000 0.000000 0.000000 -60.708740 0.000000 118.000000 0.835730 0.317109 -0.448326
2430.00000000 -2900.00000000 -990.00000000 27 3 240 0.000000 0.000000 0.000000 0.000000 -60.708740 0.000000 118.000000 0.886328 0.169722 -0.430834
2410.00000000 -2930.00000000 -1010.00000000 27 3 240 0.000000 0.000000 0.000000 0.000000 -60.708740 0.000000 118.000000 0.899534 -0.030651 -0.435774
2410.00000000 -2900.00000000 -1010.00000000 27 3 240 0.000000 0.000000 0.000000 0.000000 -60.708740 0.000000 118.000000 0.835730 0.317109 -0.448326
2410.00000000 -2900.00000000 -1020.00000000 27 3 240 0.000000 0.000000 0.000000 0.000000 -60.708740 0.000000 118.000000 0.929991 0.343782 -0.130117
2410.00000000 -2960.00000000 -970.00000000 27 3 240 0.000000 0.000000 0.000000 0.000000 -60.708740 0.000000 118.000000 0.916008 0.253241 -0.311124
2410.00000000 -2960.00000000 -960.00000000 27 3 240 0.000000 0.000000 0.000000 0.000000 -60.708740 0.000000 118.000000 0.896232 0.307662 -0.319552
2430.00000000 -3000.00000000 -880.00000000 27 3 240 0.000000 0.000000 0.000000 0.000000 -60.708740 0.000000 118.000000 -0.624964 -0.454062 0.635017
2430.00000000 -2990.00000000 -880.00000000 27 3 240 0.000000 0.000000 0.000000 0.000000 -60.708740 0.000000 118.000000 0.742672 0.278303 -0.609086
2400.00000000 -2990.00000000 -870.00000000 27 3 240 0.000000 0.000000 0.000000 0.000000 -60.708740 0.000000 118.000000 0.902264 0.022523 -0.430596
2430.00000000 -3010.00000000 -880.00000000 27 3 240 0.000000 0.000000 0.000000 0.000000 -60.708740 0.000000 118.000000 0.941851 0.159474 -0.295777
2430.00000000 -3000.00000000 -940.00000000 27 3 240 0.000000 0.000000 0.000000 0.000000 -60.708740 0.000000 118.000000 0.964992 0.209668 -0.157576
2420.00000000 -3030.00000000 -880.00000000 27 3 240 0.000000 0.000000 0.000000 0.000000 -60.708740 0.000000 118.000000 0.992728 -0.082822 -0.087360
2400.00000000 -2900.00000000 -1040.00000000 27 3 240 0.000000 0.000000 0.000000 0.000000 -60.708740 0.000000 118.000000 0.975367 0.209269 -0.069756
2450.00000000 -3120.00000000 -120.00000000 27 3 240 0.000000 0.000000 0.000000 0.000000 -60.708740 0.000000 118.000000 0.833391 0.465764 -0.297528
2400.00000000 -3090.00000000 -50.00000000 27 3 240 0.000000 0.000000 0.000000 0.000000 -60.708740 0.000000 118.000000 0.718647 -0.176214 -0.672678
2400.00000000 -3140.00000000 -80.00000000 27 3 240 0.000000 0.000000 0.000000 0.000000 -60.708740 0.000000 118.000000 0.690895 0.258887 -0.675012
2400.00000000 -3140.00000000 -80.00000000 27 3 240 0.000000 0.000000 0.000000 0.000000 -60.708740 0.000000 118.000000 0.690895 0.258887 -0.675012
2400.00000000 -3140.00000000 -80.00000000 27 3 240 0.000000 0.000000 0.000000 0.000000 -60.708740 0.000000 118.000000 0.690895 0.258887 -0.675012
2400.00000000 -3130.00000000 -80.00000000 27 3 240 0.000000 0.000000 0.000000 0.000000 -60.708740 0.000000 118.000000 0.682369 0.120418 -0.721022
2390.00000000 -3090.00000000 -50.00000000 27 3 240 0.000000 0.000000 0.000000 0.000000 -60.708740 0.000000 118.000000 0.774318 -0.269671 -0.572459
2370.00000000 -3150.00000000 -20.00000000 27 3 240 0.000000 0.000000 0.000000 0.000000 -60.708740 0.000000 118.000000 0.963234 -0.010932 -0.268442
2390.00000000 -3140.00000000 -90.00000000 27 3 240 0.000000 0.000000 0.000000 0.000000 -60.708740 0.000000 118.000000 -0.669324 -0.322507 0.669324
2390.00000000 -3140.00000000 -90.00000000 27 3 240 0.000000 0.000000 0.000000 0.000000 -60.708740 0.000000 118.000000 -0.669324 -0.322507 0.669324
2360.00000000 -3150.00000000 -100.00000000 27 3 240 0.000000 0.000000 0.000000 0.000000 -60.708740 0.000000 118.000000 0.964441 0.056145 -0.258266
2360.00000000 -3130.00000000 -90.00000000 27 3 240 0.000000 0.000000 0.000000 0.000000 -60.708740 0.000000 118.000000 0.816280 -0.127957 -0.563307
2410.00000000 -3110.00000000 -150.00000000 27 3 240 0.000000 0.000000 0.000000 0.000000 -60.708740 0.000000 118.000000 0.792664 0.119564 -0.597819
2400.00000000 -3110.00000000 -160.00000000 27 3 240 0.000000 0.000000 0.000000 0.000000 -60.708740 0.000000 118.000000 0.881493 0.088289 -0.463870
2430.00000000 -3110.00000000 -160.00000000 27 3 240 0.000000 0.000000 0.000000 0.000000 -60.708740 0.000000 118.000000 0.947543 0.246770 -0.203142
2390.00000000 -3090.00000000 -110.00000000 27 3 240 0.000000 0.000000 0.000000 0.000000 -60.708740 0.000000 118.000000 0.831916 -0.043198 -0.553217
2380.00000000 -3100.00000000 -110.00000000 27 3 240 0.000000 0.000000 0.000000 0.000000 -60.708740 0.000000 118.000000 0.855657 -0.077531 -0.511703
2380.00000000 -3120.00000000 -120.00000000 27 3 240 0.000000 0.000000 0.000000 0.000000 -60.708740 0.000000 118.000000 0.947478 0.079719 -0.309727
2380.00000000 -3110.00000000 -110.00000000 27 3 240 0.000000 0.000000 0.000000 0.000000 -60.708740 0.000000 118.000000 0.912450 -0.132745 -0.387058
2380.00000000 -3130.00000000 -150.00000000 27 3 240 0.000000 0.000000 0.000000 0.000000 -60.708740 0.000000 118.000000 0.904133 0.350223 -0.244717
2390.00000000 -3160.00000000 -50.00000000 27 3 240 0.000000 0.000000 0.000000 0.000000 -60.708740 0.000000 118.000000 0.788720 -0.009669 -0.614677
2360.00000000 -3190.00000000 -30.00000000 27 3 240 0.000000 0.000000 0.000000 0.000000 -60.708740 0.000000 118.000000 0.759185 0.079838 -0.645960
2360.00000000 -3210.00000000 -80.00000000 27 3 240 0.000000 0.000000 0.000000 0.000000 -60.708740 0.000000 118.000000 0.911551 0.094867 -0.400093
2380.00000000 -3180.00000000 -150.00000000 27 3 240 0.000000 0.000000 0.000000 0.000000 -60.708740 0.000000 118.000000 0.906683 0.320781 -0.273909
2440.00000000 -3090.00000000 -330.00000000 27 3 240 0.000000 0.000000 0.000000 0.000000 -60.708740 0.000000 118.000000 -0.646159 -0.041004 0.762100
2400.00000000 -3070.00000000 -220.00000000 27 3 240 0.000000 0.000000 0.000000 0.000000 -60.708740 0.000000 118.000000 0.908327 -0.203615 -0.365353
2420.00000000 -3070.00000000 -210.00000000 27 3 240 0.000000 0.000000 0.000000 0.000000 -60.708740 0.000000 118.000000 0.785695 -0.526463 -0.324839
2400.00000000 -3070.00000000 -230.00000000 27 3 240 0.000000 0.000000 0.000000 0.000000 -60.708740 0.000000 118.000000 0.826120 -0.378969 -0.417024
2400.00000000 -3070.00000000 -230.00000000 27 3 240 0.000000 0.000000 0.000000 0.000000 -60.708740 0.000000 118.000000 0.826120 -0.378969 -0.417024
2400.00000000 -3090.00000000 -250.00000000 27 3 240 0.000000 0.000000 0.000000 0.000000 -60.708740 0.000000 118.000000 -0.732631 0.095433 0.673903
2400.00000000 -3070.00000000 -270.00000000 27 3 240 0.000000 0.000000 0.000000 0.000000 -60.708740 0.000000 118.000000 0.839657 -0.279886 -0.465445
2400.00000000 -3120.00000000 -230.00000000 27 3 240 0.000000 0.000000 0.000000 0.000000 -60.708740 0.000000 118.000000 0.913533 0.374167 -0.159551
2390.00000000 -3090.00000000 -250.00000000 27 3 240 0.000000 0.000000 0.000000 0.000000 -60.708740 0.000000 118.000000 0.637283 0.195968 -0.745297
2390.00000000 -3110.00000000 -230.00000000 27 3 240 0.000000 0.000000 0.000000 0.000000 -60.708740 0.000000 118.000000 0.906235 -0.148912 -0.395680
2420.00000000 -3080.00000000 -300.00000000 27 3 240 0.000000 0.000000 0.000000 0.000000 -60.708740 0.000000 118.000000 0.920338 -0.272213 -0.280854
2420.00000000 -3100.00000000 -290.00000000 27 3 240 0.000000 0.000000 0.000000 0.000000 -60.708740 0.000000 118.000000 0.893395 0.064303 -0.444646
2400.00000000 -3100.00000000 -330.00000000 27 3 240 0.000000 0.000000 0.000000 0.000000 -60.708740 0.000000 118.000000 0.875712 0.402436 -0.266783
2400.00000000 -3120.00000000 -310.00000000 27 3 240 0.000000 0.000000 0.000000 0.000000 -60.708740 0.000000 118.000000 0.933244 0.158997 -0.322142
2400.00000000 -3120.00000000 -350.00000000 27 3 240 0.000000 0.000000 0.000000 0.000000 -60.708740 0.000000 118.000000 0.881095 0.127095 -0.455542
2380.00000000 -3080.00000000 -320.00000000 27 3 240 0.000000 0.000000 0.000000 0.000000 -60.708740 0.000000 118.000000 0.877095 -0.097455 -0.470326
2390.00000000 -3160.00000000 -200.00000000 27 3 240 0.000000 0.000000 0.000000 0.000000 -60.708740 0.000000 118.000000 0.779795 0.276803 -0.561516
2390.00000000 -3200.00000000 -240.00000000 27 3 240 0.000000 0.000000 0.000000 0.000000 -60.708740 0.000000 118.000000 0.630074 0.666456 -0.398551
2370.00000000 -3190.00000000 -300.00000000 27 3 240 0.000000 0.000000 0.000000 0.000000 -60.708740 0.000000 118.000000 0.713988 0.700124 0.006932
2370.00000000 -3210.00000000 -280.00000000 27 3 240 0.000000 0.000000 0.000000 0.000000 -60.708740 0.000000 118.000000 0.675382 0.629146 -0.384753
2400.00000000 -3090.00000000 -370.00000000 27 3 240 0.000000 0.000000 0.000000 0.000000 -60.708740 0.000000 118.000000 0.932414 -0.232049 -0.277052
2400.00000000 -3080.00000000 -420.00000000 27 3 240 0.000000 0.000000 0.000000 0.000000 -60.708740 0.000000 118.000000 0.844175 -0.306266 -0.439966
2430.00000000 -3120.00000000 -370.00000000 27 3 240 0.000000 0.000000 0.000000 0.000000 -60.708740 0.000000 118.000000 0.818257 0.488442 -0.303116
2430.00000000 -3120.00000000 -360.00000000 27 3 240 0.000000 0.000000 0.000000 0.000000 -60.708740 0.000000 118.000000 0.609357 0.766710 -0.202090
2390.00000000 -3120.00000000 -360.00000000 27 3 240 0.000000 0.000000 0.000000 0.000000 -60.708740 0.000000 118.000000 0.876827 0.480581 0.014725
2380.00000000 -3140.00000000 -360.00000000 27 3 240 0.000000 0.000000 0.000000 0.000000 -60.708740 0.000000 118.000000 0.887895 0.194547 -0.416886
2390.00000000 -3140.00000000 -400.00000000 27 3 240 0.000000 0.000000 0.000000 0.000000 -60.708740 0.000000 118.000000 0.850481 0.467080 -0.241908
2390.00000000 -3140.00000000 -400.00000000 27 3 240 0.000000 0.000000 0.000000 0.000000 -60.708740 0.000000 118.000000 0.850481 0.467080 -0.241908
2410.00000000 -3120.00000000 -510.00000000 27 3 240 0.000000 0.000000 0.000000 0.000000 -60.708740 0.000000 118.000000 -0.243363 0.895281 0.373157
2410.00000000 -3120.00000000 -490.00000000 27 3 240 0.000000 0.000000 0.000000 0.000000 -60.708740 0.000000 118.000000 0.039860 0.989658 -0.137800
2410.00000000 -3120.00000000 -510.00000000 27 3 240 0.000000 0.000000 0.000000 0.000000 -60.708740 0.000000 118.000000 -0.243363 0.895281 0.373157
2400.00000000 -3110.00000000 -510.00000000 27 3 240 0.000000 0.000000 0.000000 0.000000 -60.708740 0.000000 118.000000 -0.056140 0.980653 -0.187531
2400.00000000 -3110.00000000 -510.00000000 27 3 240 0.000000 0.000000 0.000000 0.000000 -60.708740 0.000000 118.000000 -0.056140 0.980653 -0.187531
2390.00000000 -3160.00000000 -370.00000000 27 3 240 0.000000 0.000000 0.000000 0.000000 -60.708740 0.000000 118.000000 0.880363 0.429122 -0.202026
2360.00000000 -3200.00000000 -380.00000000 27 3 240 0.000000 0.000000 0.000000 0.000000 -60.708740 0.000000 118.000000 -0.418881 -0.750700 0.510870
2370.00000000 -3220.00000000 -390.00000000 27 3 240 0.000000 0.000000 0.000000 0.000000 -60.708740 0.000000 118.000000 0.364426 0.772582 -0.519914
2420.00000000 -3100.00000000 -550.00000000 27 3 240 0.000000 0.000000 0.000000 0.000000 -60.708740 0.000000 118.000000 0.416494 -0.612296 -0.672032
2430.00000000 -3070.00000000 -590.00000000 27 3 240 0.000000 0.000000 0.000000 0.000000 -60.708740 0.000000 118.000000 0.948719 -0.194644 -0.249090
2360.00000000 -3110.00000000 -580.00000000 27 3 240 0.000000 0.000000 0.000000 0.000000 -60.708740 0.000000 118.000000 0.170002 0.966803 0.190765
2410.00000000 -3100.00000000 -650.00000000 27 3 240 0.000000 0.000000 0.000000 0.000000 -60.708740 0.000000 118.000000 0.928776 -0.323601 -0.180712
2410.00000000 -3100.00000000 -620.00000000 27 3 240 0.000000 0.000000 0.000000 0.000000 -60.708740 0.000000 118.000000 0.557132 -0.523469 -0.644658
2420.00000000 -3100.00000000 -610.00000000 27 3 240 0.000000 0.000000 0.000000 0.000000 -60.708740 0.000000 118.000000 0.826286 -0.385389 -0.410764
2410.00000000 -3100.00000000 -620.00000000 27 3 240 0.000000 0.000000 0.000000 0.000000 -60.708740 0.000000 118.000000 0.557132 -0.523469 -0.644658
2420.00000000 -3090.00000000 -650.00000000 27 3 240 0.000000 0.000000 0.000000 0.000000 -60.708740 0.000000 118.000000 0.894739 -0.305194 -0.326036
2400.00000000 -3120.00000000 -610.00000000 27 3 240 0.000000 0.000000 0.000000 0.000000 -60.708740 0.000000 118.000000 -0.373216 0.659294 0.652718
2410.00000000 -3140.00000000 -660.00000000 27 3 240 0.000000 0.000000 0.000000 0.000000 -60.708740 0.000000 118.000000 0.336517 -0.700670 -0.629140
2390.00000000 -3070.00000000 -610.00000000 27 3 240 0.000000 0.000000 0.000000 0.000000 -60.708740 0.000000 118.000000 0.956594 -0.268265 -0.113849
2390.00000000 -3110.00000000 -610.00000000 27 3 240 0.000000 0.000000 0.000000 0.000000 -60.708740 0.000000 118.000000 0.614946 -0.467493 -0.635053
2390.00000000 -3130.00000000 -680.00000000 27 3 240 0.000000 0.000000 0.000000 0.000000 -60.708740 0.000000 118.000000 0.756251 -0.500340 -0.421598
2400.00000000 -3180.00000000 -530.00000000 27 3 240 0.000000 0.000000 0.000000 0.000000 -60.708740 0.000000 118.000000 0.154177 0.982118 0.108045
2380.00000000 -3170.00000000 -550.00000000 27 3 240 0.000000 0.000000 0.000000 0.000000 -60.708740 0.000000 118.000000 0.178819 0.888281 0.423060
2360.00000000 -3210.00000000 -550.00000000 27 3 240 0.000000 0.000000 0.000000 0.000000 -60.708740 0.000000 118.000000 0.067814 0.983897 0.165371
2440.00000000 -3100.00000000 -740.00000000 27 3 240 0.000000 0.000000 0.000000 0.000000 -60.708740 0.000000 118.000000 0.880574 -0.389861 -0.269441
2450.00000000 -3090.00000000 -790.00000000 27 3 240 0.000000 0.000000 0.000000 0.000000 -60.708740 0.000000 118.000000 0.704018 -0.412472 -0.578123
2440.00000000 -3140.00000000 -800.00000000 27 3 240 0.000000 0.000000 0.000000 0.000000 -60.708740 0.000000 118.000000 0.617930 -0.601093 -0.506804
2440.00000000 -3110.00000000 -830.00000000 27 3 240 0.000000 0.000000 0.000000 0.000000 -60.708740 0.000000 118.000000 0.922424 0.003849 -0.386161
2450.00000000 -3150.00000000 -840.00000000 27 3 240 0.000000 0.000000 0.000000 0.000000 -60.708740 0.000000 118.000000 0.794993 -0.430554 -0.427329
2430.00000000 -3130.00000000 -730.00000000 27 3 240 0.000000 0.000000 0.000000 0.000000 -60.708740 0.000000 118.000000 0.893207 -0.428796 -0.135334
2400.00000000 -3120.00000000 -770.00000000 27 3 240 0.000000 0.000000 0.000000 0.000000 -60.708740 0.000000 118.000000 0.790405 -0.515759 -0.330533
2410.00000000 -3140.00000000 -750.00000000 27 3 240 0.000000 0.000000 0.000000 0.000000 -60.708740 0.000000 118.000000 -0.815954 0.492088 0.303428
2410.00000000 -3110.00000000 -770.00000000 27 3 240 0.000000 0.000000 0.000000 0.000000 -60.708740 0.000000 118.000000 0.827302 -0.555821 -0.081444
2420.00000000 -3110.00000000 -770.00000000 27 3 240 0.000000 0.000000 0.000000 0.000000 -60.708740 0.000000 118.000000 0.896004 -0.427542 -0.119938
2430.00000000 -3080.00000000 -810.00000000 27 3 240 0.000000 0.000000 0.000000 0.000000 -60.708740 0.000000 118.000000 0.842235 -0.458979 -0.282805
2430.00000000 -3090.00000000 -790.00000000 27 3 240 0.000000 0.000000 0.000000 0.000000 -60.708740 0.000000 118.000000 0.910714 -0.379346 -0.163389
2420.00000000 -3070.00000000 -790.00000000 27 3 240 0.000000 0.000000 0.000000 0.000000 -60.708740 0.000000 118.000000 0.863104 -0.400125 -0.308142
2430.00000000 -3080.00000000 -810.00000000 27 3 240 0.000000 0.000000 0.000000 0.000000 -60.708740 0.000000 118.000000 0.842235 -0.458979 -0.282805
2420.00000000 -3120.00000000 -820.00000000 27 3 240 0.000000 0.000000 0.000000 0.000000 -60.708740 0.000000 118.000000 0.774529 -0.540406 -0.328734
2430.00000000 -3150.00000000 -810.00000000 27 3 240 0.000000 0.000000 0.000000 0.000000 -60.708740 0.000000 118.000000 0.609786 -0.472038 -0.636664
2430.00000000 -3150.00000000 -810.00000000 27 3 240 0.000000 0.000000 0.000000 0.000000 -60.708740 0.000000 118.000000 0.609786 -0.472038 -0.636664
2420.00000000 -3110.00000000 -790.00000000 27 3 240 0.000000 0.000000 0.000000 0.000000 -60.708740 0.000000 118.000000 0.920057 -0.158727 -0.358190
2430.00000000 -3130.00000000 -850.00000000 27 3 240 0.000000 0.000000 0.000000 0.000000 -60.708740 0.000000 118.000000 -0.774620 0.464772 0.428895
2400.00000000 -3160.00000000 -720.00000000 27 3 240 0.000000 0.000000 0.000000 0.000000 -60.708740 0.000000 118.000000 0.752542 -0.530534 -0.390146
2410.00000000 -3190.00000000 -770.00000000 27 3 240 0.000000 0.000000 0.000000 0.000000 -60.708740 0.000000 118.000000 0.677620 -0.699529 -0.226916
2400.00000000 -3210.00000000 -770.00000000 27 3 240 0.000000 0.000000 0.000000 0.000000 -60.708740 0.000000 118.000000 0.698338 -0.612894 -0.369708
2400.00000000 -3200.00000000 -770.00000000 27 3 240 0.000000 0.000000 0.000000 0.000000 -60.708740 0.000000 118.000000 0.735696 -0.510854 -0.444724
2400.00000000 -3200.00000000 -770.00000000 27 3 240 0.000000 0.000000 0.000000 0.000000 -60.708740 0.000000 118.000000 0.735696 -0.510854 -0.444724
2380.00000000 -3160.00000000 -720.00000000 27 3 240 0.000000 0.000000 0.000000 0.000000 -60.708740 0.000000 118.000000 -0.611374 0.693769 0.380667
2390.00000000 -3160.00000000 -730.00000000 27 3 240 0.000000 0.000000 0.000000 0.000000 -60.708740 0.000000 118.000000 -0.572453 0.818789 -0.043389
2390.00000000 -3210.00000000 -770.00000000 27 3 240 0.000000 0.000000 0.000000 0.000000 -60.708740 0.000000 118.000000 0.728933 -0.623660 -0.282322
2380.00000000 -3230.00000000 -750.00000000 27 3 240 0.000000 0.000000 0.000000 0.000000 -60.708740 0.000000 118.000000 0.634235 -0.587130 -0.503014
2380.00000000 -3220.00000000 -760.00000000 27 3 240 0.000000 0.000000 0.000000 0.000000 -60.708740 0.000000 118.000000 0.720275 -0.657778 -0.220301
2400.00000000 -3170.00000000 -780.00000000 27 3 240 0.000000 0.000000 0.000000 0.000000 -60.708740 0.000000 118.000000 0.701624 -0.379567 -0.603036
2400.00000000 -3180.00000000 -790.00000000 27 3 240 0.000000 0.000000 0.000000 0.000000 -60.708740 0.000000 118.000000 -0.740412 0.588781 0.324233
2400.00000000 -3180.00000000 -830.00000000 27 3 240 0.000000 0.000000 0.000000 0.000000 -60.708740 0.000000 118.000000 0.767272 -0.639156 -0.052670
2430.00000000 -3200.00000000 -840.00000000 27 3 240 0.000000 0.000000 0.000000 0.000000 -60.708740 0.000000 118.000000 0.815712 -0.391095 -0.426214
2370.00000000 -3200.00000000 -840.00000000 27 3 240 0.000000 0.000000 0.000000 0.000000 -60.708740 0.000000 118.000000 0.806504 -0.474320 -0.352946
2450.00000000 -3100.00000000 -870.00000000 27 3 240 0.000000 0.000000 0.000000 0.000000 -60.708740 0.000000 118.000000 0.969924 -0.232832 -0.070970
2450.00000000 -3100.00000000 -870.00000000 27 3 240 0.000000 0.000000 0.000000 0.000000 -60.708740 0.000000 118.000000 0.969924 -0.232832 -0.070970
2450.00000000 -3100.00000000 -880.00000000 27 3 240 0.000000 0.000000 0.000000 0.000000 -60.708740 0.000000 118.000000 0.975790 -0.146934 -0.162004
2440.00000000 -3090.00000000 -920.00000000 27 3 240 0.000000 0.000000 0.000000 0.000000 -60.708740 0.000000 118.000000 0.957698 -0.113360 -0.264507
2460.00000000 -3100.00000000 -910.00000000 27 3 240 0.000000 0.000000 0.000000 0.000000 -60.708740 0.000000 118.000000 -0.613212 0.267785 0.743143
2440.00000000 -3150.00000000 -900.00000000 27 3 240 0.000000 0.000000 0.000000 0.000000 -60.708740 0.000000 118.000000 0.846549 -0.466903 -0.255649
2470.00000000 -3110.00000000 -900.00000000 27 3 240 0.000000 0.000000 0.000000 0.000000 -60.708740 0.000000 118.000000 0.852681 -0.170536 -0.493814
2440.00000000 -3120.00000000 -920.00000000 27 3 240 0.000000 0.000000 0.000000 0.000000 -60.708740 0.000000 118.000000 0.953401 -0.264612 -0.144938
2450.00000000 -3130.00000000 -910.00000000 27 3 240 0.000000 0.000000 0.000000 0.000000 -60.708740 0.000000 118.000000 0.863970 -0.054085 -0.500631
2440.00000000 -3130.00000000 -920.00000000 27 3 240 0.000000 0.000000 0.000000 0.000000 -60.708740 0.000000 118.000000 0.807830 -0.504301 -0.305110
2450.00000000 -3130.00000000 -910.00000000 27 3 240 0.000000 0.000000 0.000000 0.000000 -60.708740 0.000000 118.000000 0.863970 -0.054085 -0.500631
2440.00000000 -3150.00000000 -910.00000000 27 3 240 0.000000 0.000000 0.000000 0.000000 -60.708740 0.000000 118.000000 0.755498 -0.630345 -0.178572
2460.00000000 -3070.00000000 -980.00000000 27 3 240 0.000000 0.000000 0.000000 0.000000 -60.708740 0.000000 118.000000 0.900696 -0.044429 -0.432172
2460.00000000 -3080.00000000 -980.00000000 27 3 240 0.000000 0.000000 0.000000 0.000000 -60.708740 0.000000 118.000000 0.720750 -0.346546 -0.600354
2460.00000000 -3100.00000000 -1000.00000000 27 3 240 0.000000 0.000000 0.000000 0.000000 -60.708740 0.000000 118.000000 0.899781 -0.119316 -0.419711
2460.00000000 -3070.00000000 -990.00000000 27 3 240 0.000000 0.000000 0.000000 0.000000 -60.708740 0.000000 118.000000 0.950049 0.036686 -0.309936
2460.00000000 -3100.00000000 -1000.00000000 27 3 240 0.000000 0.000000 0.000000 0.000000 -60.708740 0.000000 118.000000 0.899781 -0.119316 -0.419711
2460.00000000 -3080.00000000 -1020.00000000 27 3 240 0.000000 0.000000 0.000000 0.000000 -60.708740 0.000000 118.000000 0.979126 -0.119767 -0.164217
2450.00000000 -3110.00000000 -990.00000000 27 3 240 0.000000 0.000000 0.000000 0.000000 -60.708740 0.000000 118.000000 0.900661 -0.104404 -0.421793
2440.00000000 -3160.00000000 -890.00000000 27 3 240 0.000000 0.000000 0.000000 0.000000 -60.708740 0.000000 118.000000 0.795932 -0.079161 -0.600188
2430.00000000 -3130.00000000 -930.00000000 27 3 240 0.000000 0.000000 0.000000 0.000000 -60.708740 0.000000 118.000000 0.693136 -0.526115 -0.492711
2410.00000000 -3140.00000000 -880.00000000 27 3 240 0.000000 0.000000 0.000000 0.000000 -60.708740 0.000000 118.000000 -0.667202 0.663939 0.337679
2390.00000000 -3070.00000000 -890.00000000 27 3 240 0.000000 0.000000 0.000000 0.000000 -60.708740 0.000000 118.000000 0.801509 0.213838 -0.558441
2420.00000000 -3150.00000000 -870.00000000 27 3 240 0.000000 0.000000 0.000000 0.000000 -60.708740 0.000000 118.000000 0.889564 -0.408877 -0.203706
2410.00000000 -3180.00000000 -940.00000000 27 3 240 0.000000 0.000000 0.000000 0.000000 -60.708740 0.000000 118.000000 0.898950 -0.297675 -0.321371
2400.00000000 -3200.00000000 -940.00000000 27 3 240 0.000000 0.000000 0.000000 0.000000 -60.708740 0.000000 118.000000 0.847376 -0.348002 -0.401060
2410.00000000 -3230.00000000 -940.00000000 27 3 240 0.000000 0.000000 0.000000 0.000000 -60.708740 0.000000 118.000000 0.779701 -0.441125 -0.444381
2420.00000000 -3190.00000000 -960.00000000 27 3 240 0.000000 0.000000 0.000000 0.000000 -60.708740 0.000000 118.000000 -0.604343 0.268068 0.750273
2400.00000000 -3180.00000000 -970.00000000 27 3 240 0.000000 0.000000 0.000000 0.000000 -60.708740 0.000000 118.000000 0.775797 -0.630423 -0.026559
2420.00000000 -3180.00000000 -960.00000000 27 3 240 0.000000 0.000000 0.000000 0.000000 -60.708740 0.000000 118.000000 0.691572 -0.571588 -0.441606
2360.00000000 -3240.00000000 -800.00000000 27 3 240 0.000000 0.000000 0.000000 0.000000 -60.708740 0.000000 118.000000 -0.543278 0.728224 0.417779
2390.00000000 -3240.00000000 -830.00000000 27 3 240 0.000000 0.000000 0.000000 0.000000 -60.708740 0.000000 118.000000 -0.589032 0.796751 0.135017
2420.00000000 -3240.00000000 -930.00000000 27 3 240 0.000000 0.000000 0.000000 0.000000 -60.708740 0.000000 118.000000 0.790540 -0.508319 -0.341552
2370.00000000 -3260.00000000 -930.00000000 27 3 240 0.000000 0.000000 0.000000 0.000000 -60.708740 0.000000 118.000000 -0.668063 0.570951 0.477187
2400.00000000 -3260.00000000 -970.00000000 27 3 240 0.000000 0.000000 0.000000 0.000000 -60.708740 0.000000 118.000000 -0.594660 0.801869 0.058189
2190.00000000 -2700.00000000 -240.00000000 27 3 240 0.000000 0.000000 0.000000 0.000000 -60.708740 0.000000 118.000000 0.730687 -0.656849 -0.186133
2250.00000000 -2720.00000000 -240.00000000 27 3 240 0.000000 0.000000 0.000000 0.000000 -60.708740 0.000000 118.000000 0.717719 -0.532073 -0.449196
2190.00000000 -2710.00000000 -470.00000000 27 3 240 0.000000 0.000000 0.000000 0.000000 -60.708740 0.000000 118.000000 0.560284 -0.590753 -0.580597
2190.00000000 -2720.00000000 -660.00000000 27 3 240 0.000000 0.000000 0.000000 0.000000 -60.708740 0.000000 118.000000 -0.040622 0.816643 0.575712
2160.00000000 -2720.00000000 -470.00000000 27 3 240 0.000000 0.000000 0.000000 0.000000 -60.708740 0.000000 118.000000 -0.076205 0.885362 0.458615
2160.00000000 -2720.00000000 -470.00000000 27 3 240 0.000000 0.000000 0.000000 0.000000 -60.708740 0.000000 118.000000 -0.076205 0.885362 0.458615
2100.00000000 -2720.00000000 -510.00000000 27 3 240 0.000000 0.000000 0.000000 0.000000 -60.708740 0.000000 118.000000 -0.619958 0.525360 0.582794
2180.00000000 -2700.00000000 -600.00000000 27 3 240 0.000000 0.000000 0.000000 0.000000 -60.708740 0.000000 118.000000 -0.086386 0.856776 0.508401
2160.00000000 -2720.00000000 -570.00000000 27 3 240 0.000000 0.000000 0.000000 0.000000 -60.708740 0.000000 118.000000 -0.469350 0.721439 0.509153
2160.00000000 -2720.00000000 -570.00000000 27 3 240 0.000000 0.000000 0.000000 0.000000 -60.708740 0.000000 118.000000 -0.469350 0.721439 0.509153
2100.00000000 -2710.00000000 -560.00000000 27 3 240 0.000000 0.000000 0.000000 0.000000 -60.708740 0.000000 118.000000 -0.307973 0.807047 0.503812
2100.00000000 -2710.00000000 -560.00000000 27 3 240 0.000000 0.000000 0.000000 0.000000 -60.708740 0.000000 118.000000 -0.307973 0.807047 0.503812
2150.00000000 -2720.00000000 -660.00000000 27 3 240 0.000000 0.000000 0.000000 0.000000 -60.708740 0.000000 118.000000 -0.376011 0.804823 0.459213
2130.00000000 -2720.00000000 -670.00000000 27 3 240 0.000000 0.000000 0.000000 0.000000 -60.708740 0.000000 118.000000 -0.079980 0.871357 0.484087
2110.00000000 -2700.00000000 -690.00000000 27 3 240 0.000000 0.000000 0.000000 0.000000 -60.708740 0.000000 118.000000 -0.084792 0.814861 0.573421
2090.00000000 -2710.00000000 -550.00000000 27 3 240 0.000000 0.000000 0.000000 0.000000 -60.708740 0.000000 118.000000 -0.298912 0.762464 0.573846
2080.00000000 -2700.00000000 -650.00000000 27 3 240 0.000000 0.000000 0.000000 0.000000 -60.708740 0.000000 118.000000 -0.268570 0.824340 0.498330
2080.00000000 -2720.00000000 -640.00000000 27 3 240 0.000000 0.000000 0.000000 0.000000 -60.708740 0.000000 118.000000 -0.615765 0.578650 0.534788
2090.00000000 -2710.00000000 -610.00000000 27 3 240 0.000000 0.000000 0.000000 0.000000 -60.708740 0.000000 118.000000 -0.507424 0.825143 0.248314
2080.00000000 -2710.00000000 -680.00000000 27 3 240 0.000000 0.000000 0.000000 0.000000 -60.708740 0.000000 118.000000 0.456013 -0.794398 -0.401227
2020.00000000 -2720.00000000 -680.00000000 27 3 240 0.000000 0.000000 0.000000 0.000000 -60.708740 0.000000 118.000000 -0.316141 0.795913 0.516311
2310.00000000 -2810.00000000 -40.00000000 27 3 240 0.000000 0.000000 0.000000 0.000000 -60.708740 0.000000 118.000000 -0.601004 0.798054 0.043633
2310.00000000 -2800.00000000 -80.00000000 27 3 240 0.000000 0.000000 0.000000 0.000000 -60.708740 0.000000 118.000000 -0.200866 0.835181 0.511982
2280.00000000 -2800.00000000 -30.00000000 27 3 240 0.000000 0.000000 0.000000 0.000000 -60.708740 0.000000 118.000000 0.870814 -0.359651 -0.335164
2280.00000000 -2800.00000000 -30.00000000 27 3 240 0.000000 0.000000 0.000000 0.000000 -60.708740 0.000000 118.000000 0.870814 -0.359651 -0.335164
2290.00000000 -2810.00000000 -100.00000000 27 3 240 0.000000 0.000000 0.000000 0.000000 -60.708740 0.000000 118.000000 -0.466316 0.553228 0.690281
2350.00000000 -2780.00000000 -110.00000000 27 3 240 0.000000 0.000000 0.000000 0.000000 -60.708740 0.000000 118.000000 -0.589627 0.806340 -0.046438
2330.00000000 -2800.00000000 -110.00000000 27 3 240 0.000000 0.000000 0.000000 0.000000 -60.708740 0.000000 118.000000 -0.478310 0.779888 0.403726
2280.00000000 -2800.00000000 -110.00000000 27 3 240 0.000000 0.000000 0.000000 0.000000 -60.708740 0.000000 118.000000 -0.363069 0.924797 0.113716
2290.00000000 -2810.00000000 -130.00000000 27 3 240 0.000000 0.000000 0.000000 0.000000 -60.708740 0.000000 118.000000 -0.467989 0.753709 0.461421
2290.00000000 -2810.00000000 -130.00000000 27 3 240 0.000000 0.000000 0.000000 0.000000 -60.708740 0.000000 118.000000 -0.467989 0.753709 0.461421
2280.00000000 -2790.00000000 -120.00000000 27 3 240 0.000000 0.000000 0.000000 0.000000 -60.708740 0.000000 118.000000 0.470594 -0.523806 -0.710048
2270.00000000 -2780.00000000 -140.00000000 27 3 240 0.000000 0.000000 0.000000 0.000000 -60.708740 0.000000 118.000000 -0.567538 0.467089 0.678032
2300.00000000 -2790.00000000 -160.00000000 27 3 240 0.000000 0.000000 0.000000 0.000000 -60.708740 0.000000 118.000000 -0.181950 0.831555 0.524797
2330.00000000 -2880.00000000 -50.00000000 27 3 240 0.000000 0.000000 0.000000 0.000000 -60.708740 0.000000 118.000000 0.703652 -0.694573 -0.149810
2310.00000000 -2890.00000000 -130.00000000 27 3 240 0.000000 0.000000 0.000000 0.000000 -60.708740 0.000000 118.000000 -0.559164 0.579436 0.592950
2320.00000000 -2890.00000000 -120.00000000 27 3 240 0.000000 0.000000 0.000000 0.000000 -60.708740 0.000000 118.000000 -0.576197 0.699074 0.423430
2310.00000000 -2890.00000000 -140.00000000 27 3 240 0.000000 0.000000 0.000000 0.000000 -60.708740 0.000000 118.000000 -0.457177 0.594498 0.661484
2350.00000000 -2890.00000000 -170.00000000 27 3 240 0.000000 0.000000 0.000000 0.000000 -60.708740 0.000000 118.000000 -0.458077 0.554690 0.694611
2300.00000000 -2840.00000000 -120.00000000 27 3 240 0.000000 0.000000 0.000000 0.000000 -60.708740 0.000000 118.000000 0.680035 -0.344094 -0.647419
2230.00000000 -2760.00000000 -80.00000000 27 3 240 0.000000 0.000000 0.000000 0.000000 -60.708740 0.000000 118.000000 -0.432801 0.704753 0.562144
2240.00000000 -2750.00000000 -80.00000000 27 3 240 0.000000 0.000000 0.000000 0.000000 -60.708740 0.000000 118.000000 -0.461552 0.694827 0.551530
2250.00000000 -2770.00000000 -100.00000000 27 3 240 0.000000 0.000000 0.000000 0.000000 -60.708740 0.000000 118.000000 -0.652446 0.727189 0.213330
2240.00000000 -2750.00000000 -80.00000000 27 3 240 0.000000 0.000000 0.000000 0.000000 -60.708740 0.000000 118.000000 -0.461552 0.694827 0.551530
2230.00000000 -2760.00000000 -80.00000000 27 3 240 0.000000 0.000000 0.000000 0.000000 -60.708740 0.000000 118.000000 -0.432801 0.704753 0.562144
2260.00000000 -2760.00000000 -100.00000000 27 3 240 0.000000 0.000000 0.000000 0.000000 -60.708740 0.000000 118.000000 -0.225938 0.916704 0.329553
2250.00000000 -2780.00000000 -40.00000000 27 3 240 0.000000 0.000000 0.000000 0.000000 -60.708740 0.000000 118.000000 -0.382754 0.724441 0.573310
2260.00000000 -2810.00000000 -50.00000000 27 3 240 0.000000 0.000000 0.000000 0.000000 -60.708740 0.000000 118.000000 -0.364873 0.892078 0.266581
2250.00000000 -2780.00000000 -40.00000000 27 3 240 0.000000 0.000000 0.000000 0.000000 -60.708740 0.000000 118.000000 -0.382754 0.724441 0.573310
2220.00000000 -2740.00000000 -40.00000000 27 3 240 0.000000 0.000000 0.000000 0.000000 -60.708740 0.000000 118.000000 0.524410 -0.514358 -0.678550
2200.00000000 -2760.00000000 -60.00000000 27 3 240 0.000000 0.000000 0.000000 0.000000 -60.708740 0.000000 118.000000 -0.312117 0.806435 0.502240
2200.00000000 -2760.00000000 -50.00000000 27 3 240 0.000000 0.000000 0.000000 0.000000 -60.708740 0.000000 118.000000 -0.564374 0.470590 0.678253
2220.00000000 -2740.00000000 -20.00000000 27 3 240 0.000000 0.000000 0.000000 0.000000 -60.708740 0.000000 118.000000 -0.316852 0.877786 0.359301
2220.00000000 -2760.00000000 -90.00000000 27 3 240 0.000000 0.000000 0.000000 0.000000 -60.708740 0.000000 118.000000 0.520732 -0.500639 -0.691519
2220.00000000 -2760.00000000 -90.00000000 27 3 240 0.000000 0.000000 0.000000 0.000000 -60.708740 0.000000 118.000000 0.520732 -0.500639 -0.691519
2190.00000000 -2770.00000000 -90.00000000 27 3 240 0.000000 0.000000 0.000000 0.000000 -60.708740 0.000000 118.000000 0.784903 -0.593612 -0.177628
2220.00000000 -2760.00000000 -90.00000000 27 3 240 0.000000 0.000000 0.000000 0.000000 -60.708740 0.000000 118.000000 0.520732 -0.500639 -0.691519
2210.00000000 -2800.00000000 -40.00000000 27 3 240 0.000000 0.000000 0.000000 0.000000 -60.708740 0.000000 118.000000 0.750797 -0.487936 -0.445221
2190.00000000 -2780.00000000 -20.00000000 27 3 240 0.000000 0.000000 0.000000 0.000000 -60.708740 0.000000 118.000000 -0.616579 0.669761 0.413823
2190.00000000 -2780.00000000 -90.00000000 27 3 240 0.000000 0.000000 0.000000 0.000000 -60.708740 0.000000 118.000000 -0.429456 0.832169 0.350801
2240.00000000 -2750.00000000 -170.00000000 27 3 240 0.000000 0.000000 0.000000 0.000000 -60.708740 0.000000 118.000000 0.545177 -0.612691 -0.572182
2250.00000000 -2780.00000000 -130.00000000 27 3 240 0.000000 0.000000 0.000000 0.000000 -60.708740 0.000000 118.000000 -0.315389 0.625926 0.713265
2250.00000000 -2780.00000000 -130.00000000 27 3 240 0.000000 0.000000 0.000000 0.000000 -60.708740 0.000000 118.000000 -0.315389 0.625926 0.713265
2190.00000000 -2730.00000000 -180.00000000 27 3 240 0.000000 0.000000 0.000000 0.000000 -60.708740 0.000000 118.000000 -0.379994 0.689254 0.616874
2220.00000000 -2750.00000000 -170.00000000 27 3 240 0.000000 0.000000 0.000000 0.000000 -60.708740 0.000000 118.000000 0.528184 -0.558559 -0.639558
2200.00000000 -2760.00000000 -150.00000000 27 3 240 0.000000 0.000000 0.000000 0.000000 -60.708740 0.000000 118.000000 0.786273 -0.564303 -0.251670
2310.00000000 -2780.00000000 -300.00000000 27 3 240 0.000000 0.000000 0.000000 0.000000 -60.708740 0.000000 118.000000 -0.043278 0.965718 0.255959
2310.00000000 -2780.00000000 -310.00000000 27 3 240 0.000000 0.000000 0.000000 0.000000 -60.708740 0.000000 118.000000 -0.287802 0.835404 0.468262
2280.00000000 -2730.00000000 -300.00000000 27 3 240 0.000000 0.000000 0.000000 0.000000 -60.708740 0.000000 118.000000 -0.618912 0.777683 0.110258
2300.00000000 -2780.00000000 -310.00000000 27 3 240 0.000000 0.000000 0.000000 0.000000 -60.708740 0.000000 118.000000 -0.086747 0.969301 0.230067
2300.00000000 -2810.00000000 -320.00000000 27 3 240 0.000000 0.000000 0.000000 0.000000 -60.708740 0.000000 118.000000 -0.415362 0.909655 0.001294
2290.00000000 -2780.00000000 -350.00000000 27 3 240 0.000000 0.000000 0.000000 0.000000 -60.708740 0.000000 118.000000 -0.203082 0.873104 0.443223
2320.00000000 -2840.00000000 -230.00000000 27 3 240 0.000000 0.000000 0.000000 0.000000 -60.708740 0.000000 118.000000 -0.143865 0.895954 0.420201
2330.00000000 -2820.00000000 -240.00000000 27 3 240 0.000000 0.000000 0.000000 0.000000 -60.708740 0.000000 118.000000 -0.470326 0.877095 0.097455
2310.00000000 -2820.00000000 -290.00000000 27 3 240 0.000000 0.000000 0.000000 0.000000 -60.708740 0.000000 118.000000 -0.081908 0.966511 0.243203
2310.00000000 -2820.00000000 -290.00000000 27 3 240 0.000000 0.000000 0.000000 0.000000 -60.708740 0.000000 118.000000 -0.081908 0.966511 0.243203
2280.00000000 -2840.00000000 -350.00000000 27 3 240 0.000000 0.000000 0.000000 0.000000 -60.708740 0.000000 118.000000 -0.145468 0.951548 0.270917
2230.00000000 -2770.00000000 -270.00000000 27 3 240 0.000000 0.000000 0.000000 0.000000 -60.708740 0.000000 118.000000 -0.376346 0.593279 0.711606
2250.00000000 -2770.00000000 -260.00000000 27 3 240 0.000000 0.000000 0.000000 0.000000 -60.708740 0.000000 118.000000 -0.361733 0.757531 0.543411
2260.00000000 -2790.00000000 -250.00000000 27 3 240 0.000000 0.000000 0.000000 0.000000 -60.708740 0.000000 118.000000 -0.205869 0.895018 0.395677
