//X Y Z R G B PointSourceId ScanDirectionFlag NumberOfReturns ReturnNumber GpsTime Intensity Classification Nx Ny Nz
15070.00000000 8380.00000000 -20.00000000 250 107 77 0.000000 0.000000 0.000000 0.000000 -60.708740 0.000000 38.000000 -0.588363 0.158000 0.793010
15110.00000000 8260.00000000 -40.00000000 250 107 77 0.000000 0.000000 0.000000 0.000000 -60.708740 0.000000 38.000000 -0.245849 0.309109 0.918700
15050.00000000 8370.00000000 -40.00000000 250 107 77 0.000000 0.000000 0.000000 0.000000 -60.708740 0.000000 38.000000 -0.464202 0.319434 0.826122
15140.00000000 8360.00000000 -360.00000000 250 107 77 0.000000 0.000000 0.000000 0.000000 -60.708740 0.000000 38.000000 -0.556631 0.566782 0.607388
15140.00000000 8360.00000000 -360.00000000 250 107 77 0.000000 0.000000 0.000000 0.000000 -60.708740 0.000000 38.000000 -0.556631 0.566782 0.607388
15120.00000000 8360.00000000 -440.00000000 250 107 77 0.000000 0.000000 0.000000 0.000000 -60.708740 0.000000 38.000000 0.920864 -0.140707 -0.363609
15040.00000000 8340.00000000 -380.00000000 250 107 77 0.000000 0.000000 0.000000 0.000000 -60.708740 0.000000 38.000000 -0.595979 0.191510 0.779829
14990.00000000 8380.00000000 -420.00000000 250 107 77 0.000000 0.000000 0.000000 0.000000 -60.708740 0.000000 38.000000 0.796310 0.020846 -0.604529
15000.00000000 8350.00000000 -430.00000000 250 107 77 0.000000 0.000000 0.000000 0.000000 -60.708740 0.000000 38.000000 0.910342 0.227224 -0.345901
14990.00000000 8380.00000000 -410.00000000 250 107 77 0.000000 0.000000 0.000000 0.000000 -60.708740 0.000000 38.000000 0.922520 0.149334 -0.355889
14990.00000000 8370.00000000 -420.00000000 250 107 77 0.000000 0.000000 0.000000 0.000000 -60.708740 0.000000 38.000000 0.911033 -0.295904 -0.287158
15010.00000000 8350.00000000 -400.00000000 250 107 77 0.000000 0.000000 0.000000 0.000000 -60.708740 0.000000 38.000000 0.896678 -0.399654 -0.190381
14990.00000000 8320.00000000 -470.00000000 250 107 77 0.000000 0.000000 0.000000 0.000000 -60.708740 0.000000 38.000000 0.927407 -0.371225 0.045911
14960.00000000 8360.00000000 -410.00000000 250 107 77 0.000000 0.000000 0.000000 0.000000 -60.708740 0.000000 38.000000 0.967726 -0.209481 -0.140083
14930.00000000 8360.00000000 -400.00000000 250 107 77 0.000000 0.000000 0.000000 0.000000 -60.708740 0.000000 38.000000 0.960847 -0.265983 0.077631
15070.00000000 7970.00000000 -100.00000000 250 107 77 0.000000 0.000000 0.000000 0.000000 -60.708740 0.000000 38.000000 0.661032 -0.587398 -0.466906
15140.00000000 7980.00000000 -100.00000000 250 107 77 0.000000 0.000000 0.000000 0.000000 -60.708740 0.000000 38.000000 -0.451755 0.111877 0.885100
15130.00000000 8000.00000000 -110.00000000 250 107 77 0.000000 0.000000 0.000000 0.000000 -60.708740 0.000000 38.000000 -0.422898 0.084028 0.902273
15130.00000000 7960.00000000 -150.00000000 250 107 77 0.000000 0.000000 0.000000 0.000000 -60.708740 0.000000 38.000000 -0.367853 0.421531 0.828852
15060.00000000 7930.00000000 -80.00000000 250 107 77 0.000000 0.000000 0.000000 0.000000 -60.708740 0.000000 38.000000 -0.468138 0.326278 0.821212
15060.00000000 7900.00000000 -80.00000000 250 107 77 0.000000 0.000000 0.000000 0.000000 -60.708740 0.000000 38.000000 0.786598 -0.361931 -0.500270
14990.00000000 7930.00000000 -80.00000000 250 107 77 0.000000 0.000000 0.000000 0.000000 -60.708740 0.000000 38.000000 -0.653401 0.606611 0.452869
15130.00000000 7850.00000000 -130.00000000 250 107 77 0.000000 0.000000 0.000000 0.000000 -60.708740 0.000000 38.000000 0.659850 -0.452707 -0.599712
15150.00000000 7830.00000000 -160.00000000 250 107 77 0.000000 0.000000 0.000000 0.000000 -60.708740 0.000000 38.000000 0.999956 0.002961 0.008884
15090.00000000 7870.00000000 -150.00000000 250 107 77 0.000000 0.000000 0.000000 0.000000 -60.708740 0.000000 38.000000 0.964543 -0.048413 -0.259446
15080.00000000 7850.00000000 -170.00000000 250 107 77 0.000000 0.000000 0.000000 0.000000 -60.708740 0.000000 38.000000 0.956574 0.057166 -0.285829
15070.00000000 7720.00000000 -50.00000000 250 107 77 0.000000 0.000000 0.000000 0.000000 -60.708740 0.000000 38.000000 -0.685350 0.322423 0.652946
15080.00000000 7780.00000000 -120.00000000 250 107 77 0.000000 0.000000 0.000000 0.000000 -60.708740 0.000000 38.000000 0.899786 -0.398785 -0.177078
15080.00000000 7790.00000000 -110.00000000 250 107 77 0.000000 0.000000 0.000000 0.000000 -60.708740 0.000000 38.000000 0.995675 0.088142 -0.029381
15070.00000000 7770.00000000 -120.00000000 250 107 77 0.000000 0.000000 0.000000 0.000000 -60.708740 0.000000 38.000000 0.836494 -0.419031 -0.353116
15070.00000000 7760.00000000 -110.00000000 250 107 77 0.000000 0.000000 0.000000 0.000000 -60.708740 0.000000 38.000000 0.783014 -0.300182 -0.544775
15080.00000000 7790.00000000 -110.00000000 250 107 77 0.000000 0.000000 0.000000 0.000000 -60.708740 0.000000 38.000000 0.995675 0.088142 -0.029381
15110.00000000 7780.00000000 -150.00000000 250 107 77 0.000000 0.000000 0.000000 0.000000 -60.708740 0.000000 38.000000 0.987250 -0.139694 -0.076304
15100.00000000 7750.00000000 -120.00000000 250 107 77 0.000000 0.000000 0.000000 0.000000 -60.708740 0.000000 38.000000 0.947717 -0.277150 0.158178
15040.00000000 7850.00000000 -100.00000000 250 107 77 0.000000 0.000000 0.000000 0.000000 -60.708740 0.000000 38.000000 0.996784 -0.061824 -0.050978
15060.00000000 7830.00000000 -80.00000000 250 107 77 0.000000 0.000000 0.000000 0.000000 -60.708740 0.000000 38.000000 0.720022 -0.282581 -0.633811
15020.00000000 7800.00000000 -100.00000000 250 107 77 0.000000 0.000000 0.000000 0.000000 -60.708740 0.000000 38.000000 0.977014 -0.203190 -0.064485
15050.00000000 7800.00000000 -130.00000000 250 107 77 0.000000 0.000000 0.000000 0.000000 -60.708740 0.000000 38.000000 0.983965 -0.166954 -0.062756
15060.00000000 7810.00000000 -140.00000000 250 107 77 0.000000 0.000000 0.000000 0.000000 -60.708740 0.000000 38.000000 0.994189 -0.088347 0.061508
15060.00000000 7820.00000000 -140.00000000 250 107 77 0.000000 0.000000 0.000000 0.000000 -60.708740 0.000000 38.000000 0.918738 -0.382009 -0.099952
15050.00000000 7820.00000000 -180.00000000 250 107 77 0.000000 0.000000 0.000000 0.000000 -60.708740 0.000000 38.000000 0.903894 -0.173330 -0.391067
15060.00000000 7830.00000000 -160.00000000 250 107 77 0.000000 0.000000 0.000000 0.000000 -60.708740 0.000000 38.000000 0.921848 -0.143213 -0.360119
15060.00000000 7820.00000000 -150.00000000 250 107 77 0.000000 0.000000 0.000000 0.000000 -60.708740 0.000000 38.000000 0.957698 -0.113360 -0.264507
15060.00000000 7820.00000000 -150.00000000 250 107 77 0.000000 0.000000 0.000000 0.000000 -60.708740 0.000000 38.000000 0.957698 -0.113360 -0.264507
15060.00000000 7820.00000000 -160.00000000 250 107 77 0.000000 0.000000 0.000000 0.000000 -60.708740 0.000000 38.000000 0.959022 -0.281628 -0.031016
14990.00000000 7860.00000000 -130.00000000 250 107 77 0.000000 0.000000 0.000000 0.000000 -60.708740 0.000000 38.000000 0.852967 -0.407133 -0.326635
15010.00000000 7850.00000000 -170.00000000 250 107 77 0.000000 0.000000 0.000000 0.000000 -60.708740 0.000000 38.000000 0.970898 0.099482 -0.217854
15010.00000000 7850.00000000 -170.00000000 250 107 77 0.000000 0.000000 0.000000 0.000000 -60.708740 0.000000 38.000000 0.970898 0.099482 -0.217854
15000.00000000 7810.00000000 -140.00000000 250 107 77 0.000000 0.000000 0.000000 0.000000 -60.708740 0.000000 38.000000 0.971852 0.106866 -0.209960
15060.00000000 7750.00000000 -100.00000000 250 107 77 0.000000 0.000000 0.000000 0.000000 -60.708740 0.000000 38.000000 0.986936 -0.062049 0.148684
15010.00000000 7790.00000000 -100.00000000 250 107 77 0.000000 0.000000 0.000000 0.000000 -60.708740 0.000000 38.000000 0.997353 -0.072516 0.005255
15060.00000000 7780.00000000 -150.00000000 250 107 77 0.000000 0.000000 0.000000 0.000000 -60.708740 0.000000 38.000000 0.914966 -0.389376 0.105943
15060.00000000 7760.00000000 -160.00000000 250 107 77 0.000000 0.000000 0.000000 0.000000 -60.708740 0.000000 38.000000 0.977395 0.128244 -0.168087
15060.00000000 7770.00000000 -150.00000000 250 107 77 0.000000 0.000000 0.000000 0.000000 -60.708740 0.000000 38.000000 0.999105 0.040129 -0.013376
15060.00000000 7760.00000000 -170.00000000 250 107 77 0.000000 0.000000 0.000000 0.000000 -60.708740 0.000000 38.000000 0.976420 0.185333 -0.110702
15060.00000000 7740.00000000 -120.00000000 250 107 77 0.000000 0.000000 0.000000 0.000000 -60.708740 0.000000 38.000000 0.962333 -0.196153 0.188254
15060.00000000 7730.00000000 -140.00000000 250 107 77 0.000000 0.000000 0.000000 0.000000 -60.708740 0.000000 38.000000 0.939471 -0.249134 0.235216
15060.00000000 7750.00000000 -160.00000000 250 107 77 0.000000 0.000000 0.000000 0.000000 -60.708740 0.000000 38.000000 0.957603 0.286908 0.026083
15000.00000000 7760.00000000 -170.00000000 250 107 77 0.000000 0.000000 0.000000 0.000000 -60.708740 0.000000 38.000000 0.974518 -0.100812 0.200380
15130.00000000 7830.00000000 -190.00000000 250 107 77 0.000000 0.000000 0.000000 0.000000 -60.708740 0.000000 38.000000 0.988112 -0.142818 -0.056895
15070.00000000 7880.00000000 -200.00000000 250 107 77 0.000000 0.000000 0.000000 0.000000 -60.708740 0.000000 38.000000 0.981287 0.180921 0.065898
15100.00000000 7740.00000000 -190.00000000 250 107 77 0.000000 0.000000 0.000000 0.000000 -60.708740 0.000000 38.000000 0.963288 0.232697 0.133898
15060.00000000 7850.00000000 -220.00000000 250 107 77 0.000000 0.000000 0.000000 0.000000 -60.708740 0.000000 38.000000 0.952126 -0.243755 0.184500
15060.00000000 7880.00000000 -210.00000000 250 107 77 0.000000 0.000000 0.000000 0.000000 -60.708740 0.000000 38.000000 0.911766 0.041262 -0.408631
15050.00000000 7820.00000000 -190.00000000 250 107 77 0.000000 0.000000 0.000000 0.000000 -60.708740 0.000000 38.000000 0.979251 -0.200113 -0.031971
14950.00000000 7930.00000000 -130.00000000 250 107 77 0.000000 0.000000 0.000000 0.000000 -60.708740 0.000000 38.000000 0.936041 -0.058912 -0.346924
14980.00000000 7900.00000000 -60.00000000 250 107 77 0.000000 0.000000 0.000000 0.000000 -60.708740 0.000000 38.000000 0.658250 -0.513469 -0.550506
15110.00000000 7660.00000000 -120.00000000 250 107 77 0.000000 0.000000 0.000000 0.000000 -60.708740 0.000000 38.000000 0.897633 0.424156 0.119778
15110.00000000 7650.00000000 -150.00000000 250 107 77 0.000000 0.000000 0.000000 0.000000 -60.708740 0.000000 38.000000 0.919543 0.384831 0.079667
15110.00000000 7650.00000000 -160.00000000 250 107 77 0.000000 0.000000 0.000000 0.000000 -60.708740 0.000000 38.000000 0.827125 -0.031866 0.561115
15110.00000000 7580.00000000 -100.00000000 250 107 77 0.000000 0.000000 0.000000 0.000000 -60.708740 0.000000 38.000000 0.879670 0.346720 0.325523
15110.00000000 7580.00000000 -80.00000000 250 107 77 0.000000 0.000000 0.000000 0.000000 -60.708740 0.000000 38.000000 0.943547 -0.331179 0.006249
15150.00000000 7590.00000000 -130.00000000 250 107 77 0.000000 0.000000 0.000000 0.000000 -60.708740 0.000000 38.000000 0.765892 0.512221 0.388637
15120.00000000 7580.00000000 -140.00000000 250 107 77 0.000000 0.000000 0.000000 0.000000 -60.708740 0.000000 38.000000 0.931780 0.209405 0.296539
15130.00000000 7580.00000000 -160.00000000 250 107 77 0.000000 0.000000 0.000000 0.000000 -60.708740 0.000000 38.000000 0.799529 0.333536 0.499506
15060.00000000 7690.00000000 -130.00000000 250 107 77 0.000000 0.000000 0.000000 0.000000 -60.708740 0.000000 38.000000 0.988637 0.145489 -0.037804
15040.00000000 7600.00000000 -20.00000000 250 107 77 0.000000 0.000000 0.000000 0.000000 -60.708740 0.000000 38.000000 0.878704 0.300967 -0.370538
15050.00000000 7580.00000000 -40.00000000 250 107 77 0.000000 0.000000 0.000000 0.000000 -60.708740 0.000000 38.000000 0.898795 -0.436634 -0.038961
15050.00000000 7580.00000000 -40.00000000 250 107 77 0.000000 0.000000 0.000000 0.000000 -60.708740 0.000000 38.000000 0.898795 -0.436634 -0.038961
15020.00000000 7580.00000000 -30.00000000 250 107 77 0.000000 0.000000 0.000000 0.000000 -60.708740 0.000000 38.000000 0.882423 0.291124 -0.369562
15010.00000000 7560.00000000 -100.00000000 250 107 77 0.000000 0.000000 0.000000 0.000000 -60.708740 0.000000 38.000000 0.896126 -0.187359 0.402313
15010.00000000 7560.00000000 -100.00000000 250 107 77 0.000000 0.000000 0.000000 0.000000 -60.708740 0.000000 38.000000 0.896126 -0.187359 0.402313
15140.00000000 7690.00000000 -190.00000000 250 107 77 0.000000 0.000000 0.000000 0.000000 -60.708740 0.000000 38.000000 0.818540 0.491753 0.296937
15110.00000000 7510.00000000 -70.00000000 250 107 77 0.000000 0.000000 0.000000 0.000000 -60.708740 0.000000 38.000000 0.833928 0.277976 0.476752
15110.00000000 7470.00000000 -40.00000000 250 107 77 0.000000 0.000000 0.000000 0.000000 -60.708740 0.000000 38.000000 0.867096 0.496072 -0.045347
15110.00000000 7470.00000000 -40.00000000 250 107 77 0.000000 0.000000 0.000000 0.000000 -60.708740 0.000000 38.000000 0.867096 0.496072 -0.045347
15110.00000000 7500.00000000 -60.00000000 250 107 77 0.000000 0.000000 0.000000 0.000000 -60.708740 0.000000 38.000000 0.885613 0.418574 0.201209
15130.00000000 7530.00000000 -120.00000000 250 107 77 0.000000 0.000000 0.000000 0.000000 -60.708740 0.000000 38.000000 0.916625 0.341768 0.207349
15130.00000000 7540.00000000 -170.00000000 250 107 77 0.000000 0.000000 0.000000 0.000000 -60.708740 0.000000 38.000000 0.709612 0.029626 0.703969
15140.00000000 7540.00000000 -150.00000000 250 107 77 0.000000 0.000000 0.000000 0.000000 -60.708740 0.000000 38.000000 0.544589 0.326111 0.772706
15130.00000000 7500.00000000 -160.00000000 250 107 77 0.000000 0.000000 0.000000 0.000000 -60.708740 0.000000 38.000000 0.669424 0.026665 0.742402
15070.00000000 7490.00000000 -160.00000000 250 107 77 0.000000 0.000000 0.000000 0.000000 -60.708740 0.000000 38.000000 0.961313 -0.033405 0.273424
15140.00000000 7420.00000000 -50.00000000 250 107 77 0.000000 0.000000 0.000000 0.000000 -60.708740 0.000000 38.000000 0.623724 0.380159 0.682970
15080.00000000 7450.00000000 -150.00000000 250 107 77 0.000000 0.000000 0.000000 0.000000 -60.708740 0.000000 38.000000 0.833731 0.488526 0.257362
15130.00000000 7440.00000000 -110.00000000 250 107 77 0.000000 0.000000 0.000000 0.000000 -60.708740 0.000000 38.000000 0.764535 0.374963 0.524299
15120.00000000 7430.00000000 -120.00000000 250 107 77 0.000000 0.000000 0.000000 0.000000 -60.708740 0.000000 38.000000 0.848864 -0.026056 0.527969
15130.00000000 7450.00000000 -120.00000000 250 107 77 0.000000 0.000000 0.000000 0.000000 -60.708740 0.000000 38.000000 0.878960 0.139540 0.456024
14990.00000000 7510.00000000 -110.00000000 250 107 77 0.000000 0.000000 0.000000 0.000000 -60.708740 0.000000 38.000000 0.940253 -0.072327 0.332705
14970.00000000 7690.00000000 -70.00000000 250 107 77 0.000000 0.000000 0.000000 0.000000 -60.708740 0.000000 38.000000 0.925146 -0.379116 -0.019409
14980.00000000 7580.00000000 -30.00000000 250 107 77 0.000000 0.000000 0.000000 0.000000 -60.708740 0.000000 38.000000 0.946846 -0.228833 -0.226092
15220.00000000 8420.00000000 10.00000000 250 107 77 0.000000 0.000000 0.000000 0.000000 -60.708740 0.000000 38.000000 0.172578 0.302356 0.937442
15190.00000000 8400.00000000 20.00000000 250 107 77 0.000000 0.000000 0.000000 0.000000 -60.708740 0.000000 38.000000 0.275336 0.418328 0.865559
15200.00000000 8410.00000000 10.00000000 250 107 77 0.000000 0.000000 0.000000 0.000000 -60.708740 0.000000 38.000000 -0.120498 0.242292 0.962691
15500.00000000 7720.00000000 520.00000000 250 107 77 0.000000 0.000000 0.000000 0.000000 -60.708740 0.000000 63.000000 0.589471 0.589471 0.552312
15580.00000000 7770.00000000 330.00000000 250 107 77 0.000000 0.000000 0.000000 0.000000 -60.708740 0.000000 63.000000 0.217041 0.493275 0.842362
15540.00000000 7820.00000000 410.00000000 250 107 77 0.000000 0.000000 0.000000 0.000000 -60.708740 0.000000 63.000000 0.248054 0.718884 0.649365
15530.00000000 7760.00000000 420.00000000 250 107 77 0.000000 0.000000 0.000000 0.000000 -60.708740 0.000000 63.000000 0.376001 0.701102 0.605870
15530.00000000 7730.00000000 450.00000000 250 107 77 0.000000 0.000000 0.000000 0.000000 -60.708740 0.000000 63.000000 0.318945 0.402149 0.858225
15560.00000000 7790.00000000 340.00000000 250 107 77 0.000000 0.000000 0.000000 0.000000 -60.708740 0.000000 63.000000 0.775575 0.417867 0.473149
15570.00000000 7720.00000000 360.00000000 250 107 77 0.000000 0.000000 0.000000 0.000000 -60.708740 0.000000 63.000000 0.239943 0.530971 0.812710
15510.00000000 7790.00000000 340.00000000 250 107 77 0.000000 0.000000 0.000000 0.000000 -60.708740 0.000000 63.000000 0.469587 0.333612 0.817429
15500.00000000 7780.00000000 350.00000000 250 107 77 0.000000 0.000000 0.000000 0.000000 -60.708740 0.000000 63.000000 0.563567 0.144237 0.813380
15530.00000000 7790.00000000 320.00000000 250 107 77 0.000000 0.000000 0.000000 0.000000 -60.708740 0.000000 63.000000 0.591614 0.474296 0.651948
15580.00000000 7810.00000000 310.00000000 250 107 77 0.000000 0.000000 0.000000 0.000000 -60.708740 0.000000 63.000000 0.723181 0.130262 0.678263
15580.00000000 7760.00000000 280.00000000 250 107 77 0.000000 0.000000 0.000000 0.000000 -60.708740 0.000000 63.000000 0.754127 0.015333 0.656550
15360.00000000 8240.00000000 50.00000000 250 107 77 0.000000 0.000000 0.000000 0.000000 -60.708740 0.000000 38.000000 0.584180 0.371453 0.721634
15350.00000000 8230.00000000 10.00000000 250 107 77 0.000000 0.000000 0.000000 0.000000 -60.708740 0.000000 38.000000 -0.118414 0.341633 0.932344
15360.00000000 8170.00000000 20.00000000 250 107 77 0.000000 0.000000 0.000000 0.000000 -60.708740 0.000000 38.000000 0.547809 0.182603 0.816432
15370.00000000 8160.00000000 20.00000000 250 107 77 0.000000 0.000000 0.000000 0.000000 -60.708740 0.000000 38.000000 0.179092 0.274790 0.944678
15360.00000000 8200.00000000 10.00000000 250 107 77 0.000000 0.000000 0.000000 0.000000 -60.708740 0.000000 38.000000 0.398909 0.686918 0.607467
15300.00000000 8230.00000000 0.00000000 250 107 77 0.000000 0.000000 0.000000 0.000000 -60.708740 0.000000 38.000000 0.005576 0.146102 0.989254
15210.00000000 8350.00000000 20.00000000 250 107 77 0.000000 0.000000 0.000000 0.000000 -60.708740 0.000000 38.000000 0.022635 0.448696 0.893398
15210.00000000 8350.00000000 10.00000000 250 107 77 0.000000 0.000000 0.000000 0.000000 -60.708740 0.000000 38.000000 0.208719 0.319467 0.924325
15160.00000000 8360.00000000 50.00000000 250 107 77 0.000000 0.000000 0.000000 0.000000 -60.708740 0.000000 38.000000 -0.079512 0.773436 0.628868
15170.00000000 8350.00000000 50.00000000 250 107 77 0.000000 0.000000 0.000000 0.000000 -60.708740 0.000000 38.000000 -0.204556 0.419414 0.884448
15170.00000000 8330.00000000 0.00000000 250 107 77 0.000000 0.000000 0.000000 0.000000 -60.708740 0.000000 38.000000 0.121667 0.224124 0.966936
15200.00000000 8290.00000000 70.00000000 250 107 77 0.000000 0.000000 0.000000 0.000000 -60.708740 0.000000 38.000000 -0.218816 0.530974 0.818649
15200.00000000 8270.00000000 80.00000000 250 107 77 0.000000 0.000000 0.000000 0.000000 -60.708740 0.000000 38.000000 -0.133475 0.676373 0.724364
15190.00000000 8290.00000000 70.00000000 250 107 77 0.000000 0.000000 0.000000 0.000000 -60.708740 0.000000 38.000000 0.411053 -0.553023 -0.724708
15200.00000000 8270.00000000 20.00000000 250 107 77 0.000000 0.000000 0.000000 0.000000 -60.708740 0.000000 38.000000 -0.286920 0.192666 0.938380
15230.00000000 8290.00000000 -10.00000000 250 107 77 0.000000 0.000000 0.000000 0.000000 -60.708740 0.000000 38.000000 0.337737 0.377833 0.862077
15230.00000000 8280.00000000 0.00000000 250 107 77 0.000000 0.000000 0.000000 0.000000 -60.708740 0.000000 38.000000 0.037070 0.325964 0.944655
15220.00000000 8230.00000000 -10.00000000 250 107 77 0.000000 0.000000 0.000000 0.000000 -60.708740 0.000000 38.000000 -0.249660 0.437283 0.863975
15190.00000000 8300.00000000 60.00000000 250 107 77 0.000000 0.000000 0.000000 0.000000 -60.708740 0.000000 38.000000 -0.230072 0.402255 0.886148
15190.00000000 8290.00000000 20.00000000 250 107 77 0.000000 0.000000 0.000000 0.000000 -60.708740 0.000000 38.000000 0.133641 0.541905 0.829746
15180.00000000 8260.00000000 60.00000000 250 107 77 0.000000 0.000000 0.000000 0.000000 -60.708740 0.000000 38.000000 -0.038010 0.155495 0.987105
15160.00000000 8230.00000000 50.00000000 250 107 77 0.000000 0.000000 0.000000 0.000000 -60.708740 0.000000 38.000000 0.564166 -0.506907 -0.651738
15190.00000000 8230.00000000 0.00000000 250 107 77 0.000000 0.000000 0.000000 0.000000 -60.708740 0.000000 38.000000 -0.304747 0.187858 0.933723
15310.00000000 8190.00000000 0.00000000 250 107 77 0.000000 0.000000 0.000000 0.000000 -60.708740 0.000000 38.000000 -0.166869 0.485839 0.857971
15320.00000000 8160.00000000 30.00000000 250 107 77 0.000000 0.000000 0.000000 0.000000 -60.708740 0.000000 38.000000 0.341968 0.388389 0.855694
15320.00000000 8170.00000000 20.00000000 250 107 77 0.000000 0.000000 0.000000 0.000000 -60.708740 0.000000 38.000000 -0.142946 0.714730 0.684636
15250.00000000 8210.00000000 40.00000000 250 107 77 0.000000 0.000000 0.000000 0.000000 -60.708740 0.000000 38.000000 -0.248738 0.564745 0.786888
15240.00000000 8200.00000000 40.00000000 250 107 77 0.000000 0.000000 0.000000 0.000000 -60.708740 0.000000 38.000000 -0.412639 0.581672 0.700990
15260.00000000 8200.00000000 0.00000000 250 107 77 0.000000 0.000000 0.000000 0.000000 -60.708740 0.000000 38.000000 0.129857 0.389572 0.911795
15250.00000000 8180.00000000 10.00000000 250 107 77 0.000000 0.000000 0.000000 0.000000 -60.708740 0.000000 38.000000 -0.111404 0.375472 0.920114
15240.00000000 8120.00000000 10.00000000 250 107 77 0.000000 0.000000 0.000000 0.000000 -60.708740 0.000000 38.000000 -0.104265 0.418448 0.902236
15370.00000000 7830.00000000 490.00000000 250 107 77 0.000000 0.000000 0.000000 0.000000 -60.708740 0.000000 63.000000 -0.026752 0.713859 0.699779
15390.00000000 7730.00000000 500.00000000 250 107 77 0.000000 0.000000 0.000000 0.000000 -60.708740 0.000000 63.000000 0.367451 0.266290 0.891106
15390.00000000 7730.00000000 500.00000000 250 107 77 0.000000 0.000000 0.000000 0.000000 -60.708740 0.000000 63.000000 0.367451 0.266290 0.891106
15440.00000000 7810.00000000 390.00000000 250 107 77 0.000000 0.000000 0.000000 0.000000 -60.708740 0.000000 63.000000 0.627870 0.431349 0.647856
15460.00000000 7780.00000000 440.00000000 250 107 77 0.000000 0.000000 0.000000 0.000000 -60.708740 0.000000 63.000000 0.299089 0.577386 0.759718
15440.00000000 7740.00000000 410.00000000 250 107 77 0.000000 0.000000 0.000000 0.000000 -60.708740 0.000000 63.000000 0.520103 0.540301 0.661490
15370.00000000 7870.00000000 440.00000000 250 107 77 0.000000 0.000000 0.000000 0.000000 -60.708740 0.000000 63.000000 0.386553 0.593812 0.705666
15380.00000000 7800.00000000 410.00000000 250 107 77 0.000000 0.000000 0.000000 0.000000 -60.708740 0.000000 63.000000 0.205409 0.534062 0.820113
15370.00000000 7820.00000000 340.00000000 250 107 77 0.000000 0.000000 0.000000 0.000000 -60.708740 0.000000 63.000000 0.161329 0.141319 0.976730
15330.00000000 7810.00000000 380.00000000 250 107 77 0.000000 0.000000 0.000000 0.000000 -60.708740 0.000000 63.000000 0.155837 0.636965 0.754977
15360.00000000 7800.00000000 400.00000000 250 107 77 0.000000 0.000000 0.000000 0.000000 -60.708740 0.000000 63.000000 -0.248028 0.458015 0.853642
15350.00000000 7810.00000000 400.00000000 250 107 77 0.000000 0.000000 0.000000 0.000000 -60.708740 0.000000 63.000000 0.301667 0.124689 0.945225
15340.00000000 7800.00000000 380.00000000 250 107 77 0.000000 0.000000 0.000000 0.000000 -60.708740 0.000000 63.000000 0.251117 0.712287 0.655430
15350.00000000 7810.00000000 340.00000000 250 107 77 0.000000 0.000000 0.000000 0.000000 -60.708740 0.000000 63.000000 0.452793 0.656634 0.603167
15350.00000000 7810.00000000 340.00000000 250 107 77 0.000000 0.000000 0.000000 0.000000 -60.708740 0.000000 63.000000 0.452793 0.656634 0.603167
15400.00000000 7780.00000000 470.00000000 250 107 77 0.000000 0.000000 0.000000 0.000000 -60.708740 0.000000 63.000000 0.398491 0.277277 0.874255
15390.00000000 7790.00000000 410.00000000 250 107 77 0.000000 0.000000 0.000000 0.000000 -60.708740 0.000000 63.000000 0.044147 0.716316 0.696378
15350.00000000 7780.00000000 480.00000000 250 107 77 0.000000 0.000000 0.000000 0.000000 -60.708740 0.000000 63.000000 0.336250 0.618896 0.709862
15340.00000000 7750.00000000 410.00000000 250 107 77 0.000000 0.000000 0.000000 0.000000 -60.708740 0.000000 63.000000 0.003865 0.395470 0.918471
15360.00000000 7750.00000000 350.00000000 250 107 77 0.000000 0.000000 0.000000 0.000000 -60.708740 0.000000 63.000000 0.171857 0.628113 0.758907
15240.00000000 7910.00000000 510.00000000 250 107 77 0.000000 0.000000 0.000000 0.000000 -60.708740 0.000000 38.000000 0.257681 0.630765 0.731940
15230.00000000 7900.00000000 460.00000000 250 107 77 0.000000 0.000000 0.000000 0.000000 -60.708740 0.000000 38.000000 -0.423630 0.398053 0.813690
15220.00000000 7890.00000000 470.00000000 250 107 77 0.000000 0.000000 0.000000 0.000000 -60.708740 0.000000 38.000000 0.108531 0.325592 0.939261
15280.00000000 7860.00000000 540.00000000 250 107 77 0.000000 0.000000 0.000000 0.000000 -60.708740 0.000000 38.000000 -0.036851 0.492712 0.869412
15290.00000000 7880.00000000 530.00000000 250 107 77 0.000000 0.000000 0.000000 0.000000 -60.708740 0.000000 38.000000 -0.326428 0.561198 0.760593
15280.00000000 7870.00000000 530.00000000 250 107 77 0.000000 0.000000 0.000000 0.000000 -60.708740 0.000000 38.000000 -0.365286 0.460994 0.808734
15200.00000000 7860.00000000 510.00000000 250 107 77 0.000000 0.000000 0.000000 0.000000 -60.708740 0.000000 38.000000 -0.309326 0.243145 0.919346
15210.00000000 7750.00000000 490.00000000 250 107 77 0.000000 0.000000 0.000000 0.000000 -60.708740 0.000000 38.000000 -0.102630 0.318554 0.942333
15310.00000000 7720.00000000 420.00000000 250 107 77 0.000000 0.000000 0.000000 0.000000 -60.708740 0.000000 63.000000 0.230603 0.723183 0.651021
15320.00000000 7720.00000000 430.00000000 250 107 77 0.000000 0.000000 0.000000 0.000000 -60.708740 0.000000 63.000000 0.066799 0.564238 0.822906
15270.00000000 7780.00000000 480.00000000 250 107 77 0.000000 0.000000 0.000000 0.000000 -60.708740 0.000000 38.000000 -0.108776 0.198798 0.973985
15290.00000000 7790.00000000 340.00000000 250 107 77 0.000000 0.000000 0.000000 0.000000 -60.708740 0.000000 63.000000 -0.360100 0.521579 0.773488
15280.00000000 7790.00000000 340.00000000 250 107 77 0.000000 0.000000 0.000000 0.000000 -60.708740 0.000000 63.000000 0.087463 0.554888 0.827314
15320.00000000 7790.00000000 350.00000000 250 107 77 0.000000 0.000000 0.000000 0.000000 -60.708740 0.000000 63.000000 0.036324 0.445303 0.894643
15210.00000000 7870.00000000 430.00000000 250 107 77 0.000000 0.000000 0.000000 0.000000 -60.708740 0.000000 38.000000 -0.308706 0.204394 0.928937
15220.00000000 7850.00000000 440.00000000 250 107 77 0.000000 0.000000 0.000000 0.000000 -60.708740 0.000000 38.000000 0.136056 0.641409 0.755039
15210.00000000 7840.00000000 450.00000000 250 107 77 0.000000 0.000000 0.000000 0.000000 -60.708740 0.000000 38.000000 0.023864 0.672411 0.739793
15220.00000000 7830.00000000 470.00000000 250 107 77 0.000000 0.000000 0.000000 0.000000 -60.708740 0.000000 38.000000 0.168214 0.326696 0.930040
15160.00000000 7870.00000000 480.00000000 250 107 77 0.000000 0.000000 0.000000 0.000000 -60.708740 0.000000 38.000000 0.029334 0.332877 0.942514
15170.00000000 7840.00000000 450.00000000 250 107 77 0.000000 0.000000 0.000000 0.000000 -60.708740 0.000000 38.000000 -0.135257 0.598995 0.789247
15200.00000000 7750.00000000 480.00000000 250 107 77 0.000000 0.000000 0.000000 0.000000 -60.708740 0.000000 38.000000 0.445921 -0.586210 -0.676396
15350.00000000 7720.00000000 310.00000000 250 107 77 0.000000 0.000000 0.000000 0.000000 -60.708740 0.000000 63.000000 -0.088694 0.477261 0.874274
15530.00000000 7500.00000000 660.00000000 250 107 77 0.000000 0.000000 0.000000 0.000000 -60.708740 0.000000 63.000000 0.328106 0.364732 0.871388
15500.00000000 7520.00000000 660.00000000 250 107 77 0.000000 0.000000 0.000000 0.000000 -60.708740 0.000000 63.000000 0.423805 0.315137 0.849163
15490.00000000 7390.00000000 790.00000000 250 107 77 0.000000 0.000000 0.000000 0.000000 -60.708740 0.000000 63.000000 0.081414 0.437430 0.895559
15490.00000000 7410.00000000 740.00000000 250 107 77 0.000000 0.000000 0.000000 0.000000 -60.708740 0.000000 63.000000 0.638387 0.425036 0.641721
15500.00000000 7450.00000000 660.00000000 250 107 77 0.000000 0.000000 0.000000 0.000000 -60.708740 0.000000 63.000000 0.591312 0.496972 0.635113
15540.00000000 7220.00000000 850.00000000 250 107 77 0.000000 0.000000 0.000000 0.000000 -60.708740 0.000000 63.000000 0.660809 0.563285 0.496027
15540.00000000 7210.00000000 860.00000000 250 107 77 0.000000 0.000000 0.000000 0.000000 -60.708740 0.000000 63.000000 0.143594 0.468494 0.871719
15490.00000000 7360.00000000 770.00000000 250 107 77 0.000000 0.000000 0.000000 0.000000 -60.708740 0.000000 63.000000 0.029560 0.722112 0.691144
15500.00000000 7360.00000000 770.00000000 250 107 77 0.000000 0.000000 0.000000 0.000000 -60.708740 0.000000 63.000000 0.098339 0.647274 0.755887
15490.00000000 7310.00000000 730.00000000 250 107 77 0.000000 0.000000 0.000000 0.000000 -60.708740 0.000000 63.000000 0.637189 0.206195 0.742612
15490.00000000 7310.00000000 730.00000000 250 107 77 0.000000 0.000000 0.000000 0.000000 -60.708740 0.000000 63.000000 0.637189 0.206195 0.742612
15580.00000000 7160.00000000 840.00000000 250 107 77 0.000000 0.000000 0.000000 0.000000 -60.708740 0.000000 63.000000 0.684528 0.351250 0.638784
15590.00000000 7160.00000000 830.00000000 250 107 77 0.000000 0.000000 0.000000 0.000000 -60.708740 0.000000 63.000000 0.718383 0.462884 0.519293
15590.00000000 7070.00000000 920.00000000 250 107 77 0.000000 0.000000 0.000000 0.000000 -60.708740 0.000000 63.000000 0.705197 0.175917 0.686841
15620.00000000 7060.00000000 900.00000000 250 107 77 0.000000 0.000000 0.000000 0.000000 -60.708740 0.000000 63.000000 0.481440 0.378390 0.790593
15650.00000000 7060.00000000 880.00000000 250 107 77 0.000000 0.000000 0.000000 0.000000 -60.708740 0.000000 63.000000 0.708110 0.531499 0.464853
15640.00000000 7070.00000000 850.00000000 250 107 77 0.000000 0.000000 0.000000 0.000000 -60.708740 0.000000 63.000000 0.423430 0.576197 0.699074
15600.00000000 7100.00000000 840.00000000 250 107 77 0.000000 0.000000 0.000000 0.000000 -60.708740 0.000000 63.000000 0.291444 0.439478 0.849658
15610.00000000 7060.00000000 900.00000000 250 107 77 0.000000 0.000000 0.000000 0.000000 -60.708740 0.000000 63.000000 0.470964 0.380951 0.795656
15600.00000000 7070.00000000 900.00000000 250 107 77 0.000000 0.000000 0.000000 0.000000 -60.708740 0.000000 63.000000 0.486122 0.492758 0.721717
15490.00000000 7170.00000000 920.00000000 250 107 77 0.000000 0.000000 0.000000 0.000000 -60.708740 0.000000 63.000000 0.366632 0.465895 0.805309
15490.00000000 7130.00000000 930.00000000 250 107 77 0.000000 0.000000 0.000000 0.000000 -60.708740 0.000000 63.000000 0.617001 0.373491 0.692686
15550.00000000 7200.00000000 850.00000000 250 107 77 0.000000 0.000000 0.000000 0.000000 -60.708740 0.000000 63.000000 0.421606 0.473696 0.773215
15540.00000000 7190.00000000 860.00000000 250 107 77 0.000000 0.000000 0.000000 0.000000 -60.708740 0.000000 63.000000 0.208705 0.475968 0.854340
15550.00000000 7090.00000000 920.00000000 250 107 77 0.000000 0.000000 0.000000 0.000000 -60.708740 0.000000 63.000000 0.384079 0.641231 0.664309
15560.00000000 7080.00000000 920.00000000 250 107 77 0.000000 0.000000 0.000000 0.000000 -60.708740 0.000000 63.000000 0.232151 0.596736 0.768122
15550.00000000 7080.00000000 930.00000000 250 107 77 0.000000 0.000000 0.000000 0.000000 -60.708740 0.000000 63.000000 0.330521 0.333539 0.882897
15550.00000000 7080.00000000 930.00000000 250 107 77 0.000000 0.000000 0.000000 0.000000 -60.708740 0.000000 63.000000 0.330521 0.333539 0.882897
15550.00000000 7060.00000000 920.00000000 250 107 77 0.000000 0.000000 0.000000 0.000000 -60.708740 0.000000 63.000000 0.705483 0.471990 0.528695
15560.00000000 7070.00000000 930.00000000 250 107 77 0.000000 0.000000 0.000000 0.000000 -60.708740 0.000000 63.000000 0.486045 0.292252 0.823619
15530.00000000 7120.00000000 920.00000000 250 107 77 0.000000 0.000000 0.000000 0.000000 -60.708740 0.000000 63.000000 0.343955 0.760577 0.550651
15530.00000000 7070.00000000 930.00000000 250 107 77 0.000000 0.000000 0.000000 0.000000 -60.708740 0.000000 63.000000 0.257410 0.156047 0.953619
15500.00000000 7120.00000000 870.00000000 250 107 77 0.000000 0.000000 0.000000 0.000000 -60.708740 0.000000 63.000000 0.603036 0.379567 0.701624
15530.00000000 7050.00000000 890.00000000 250 107 77 0.000000 0.000000 0.000000 0.000000 -60.708740 0.000000 63.000000 0.410218 0.619479 0.669303
15530.00000000 7060.00000000 880.00000000 250 107 77 0.000000 0.000000 0.000000 0.000000 -60.708740 0.000000 63.000000 0.233667 0.657089 0.716682
15590.00000000 7170.00000000 820.00000000 250 107 77 0.000000 0.000000 0.000000 0.000000 -60.708740 0.000000 63.000000 0.639575 0.626216 0.445866
15400.00000000 7610.00000000 660.00000000 250 107 77 0.000000 0.000000 0.000000 0.000000 -60.708740 0.000000 63.000000 0.014647 0.459374 0.888122
15460.00000000 7530.00000000 670.00000000 250 107 77 0.000000 0.000000 0.000000 0.000000 -60.708740 0.000000 63.000000 0.621803 0.344358 0.703405
15470.00000000 7480.00000000 700.00000000 250 107 77 0.000000 0.000000 0.000000 0.000000 -60.708740 0.000000 63.000000 0.108765 0.234166 0.966093
15470.00000000 7440.00000000 670.00000000 250 107 77 0.000000 0.000000 0.000000 0.000000 -60.708740 0.000000 63.000000 0.564349 0.160173 0.809848
15460.00000000 7440.00000000 670.00000000 250 107 77 0.000000 0.000000 0.000000 0.000000 -60.708740 0.000000 63.000000 0.348622 0.240681 0.905834
15480.00000000 7400.00000000 690.00000000 250 107 77 0.000000 0.000000 0.000000 0.000000 -60.708740 0.000000 63.000000 0.562831 0.241659 0.790457
15430.00000000 7390.00000000 720.00000000 250 107 77 0.000000 0.000000 0.000000 0.000000 -60.708740 0.000000 63.000000 0.303090 0.245632 0.920761
15410.00000000 7380.00000000 690.00000000 250 107 77 0.000000 0.000000 0.000000 0.000000 -60.708740 0.000000 63.000000 0.272400 0.546374 0.792006
15370.00000000 7400.00000000 680.00000000 250 107 77 0.000000 0.000000 0.000000 0.000000 -60.708740 0.000000 63.000000 -0.037039 0.328246 0.943866
15440.00000000 7300.00000000 860.00000000 250 107 77 0.000000 0.000000 0.000000 0.000000 -60.708740 0.000000 63.000000 -0.167981 0.591716 0.788451
15410.00000000 7220.00000000 900.00000000 250 107 77 0.000000 0.000000 0.000000 0.000000 -60.708740 0.000000 63.000000 0.100299 0.574175 0.812566
15400.00000000 7320.00000000 860.00000000 250 107 77 0.000000 0.000000 0.000000 0.000000 -60.708740 0.000000 63.000000 0.003983 0.479313 0.877635
15390.00000000 7270.00000000 890.00000000 250 107 77 0.000000 0.000000 0.000000 0.000000 -60.708740 0.000000 63.000000 0.549082 0.373115 0.747860
15370.00000000 7290.00000000 860.00000000 250 107 77 0.000000 0.000000 0.000000 0.000000 -60.708740 0.000000 63.000000 0.099575 0.314656 0.943968
15450.00000000 7350.00000000 820.00000000 250 107 77 0.000000 0.000000 0.000000 0.000000 -60.708740 0.000000 63.000000 0.547723 0.635358 0.544352
15460.00000000 7370.00000000 670.00000000 250 107 77 0.000000 0.000000 0.000000 0.000000 -60.708740 0.000000 63.000000 0.212341 0.609125 0.764119
15480.00000000 7150.00000000 930.00000000 250 107 77 0.000000 0.000000 0.000000 0.000000 -60.708740 0.000000 63.000000 -0.050969 0.491781 0.869226
15470.00000000 7160.00000000 930.00000000 250 107 77 0.000000 0.000000 0.000000 0.000000 -60.708740 0.000000 63.000000 0.484905 0.134615 0.864145
15730.00000000 7650.00000000 360.00000000 250 107 77 0.000000 0.000000 0.000000 0.000000 -60.708740 0.000000 63.000000 0.763173 0.611468 0.208983
15690.00000000 7630.00000000 350.00000000 250 107 77 0.000000 0.000000 0.000000 0.000000 -60.708740 0.000000 63.000000 0.739156 0.481196 0.471274
15670.00000000 7560.00000000 410.00000000 250 107 77 0.000000 0.000000 0.000000 0.000000 -60.708740 0.000000 63.000000 0.712231 0.038231 0.700903
15740.00000000 7600.00000000 400.00000000 250 107 77 0.000000 0.000000 0.000000 0.000000 -60.708740 0.000000 63.000000 0.847525 0.453756 0.275330
15720.00000000 7570.00000000 400.00000000 250 107 77 0.000000 0.000000 0.000000 0.000000 -60.708740 0.000000 63.000000 0.644775 0.550500 0.530298
15660.00000000 7620.00000000 400.00000000 250 107 77 0.000000 0.000000 0.000000 0.000000 -60.708740 0.000000 63.000000 0.713223 0.227291 0.663062
15690.00000000 7580.00000000 350.00000000 250 107 77 0.000000 0.000000 0.000000 0.000000 -60.708740 0.000000 63.000000 0.862722 0.453193 0.224338
15680.00000000 7490.00000000 600.00000000 250 107 77 0.000000 0.000000 0.000000 0.000000 -60.708740 0.000000 63.000000 0.861936 0.318041 0.394862
15670.00000000 7480.00000000 560.00000000 250 107 77 0.000000 0.000000 0.000000 0.000000 -60.708740 0.000000 63.000000 0.688042 0.089109 0.720179
15690.00000000 7440.00000000 530.00000000 250 107 77 0.000000 0.000000 0.000000 0.000000 -60.708740 0.000000 63.000000 0.791739 0.507033 0.340688
15660.00000000 7440.00000000 490.00000000 250 107 77 0.000000 0.000000 0.000000 0.000000 -60.708740 0.000000 63.000000 0.598973 0.369230 0.710563
15660.00000000 7420.00000000 500.00000000 250 107 77 0.000000 0.000000 0.000000 0.000000 -60.708740 0.000000 63.000000 0.372357 0.538210 0.756096
15680.00000000 7450.00000000 520.00000000 250 107 77 0.000000 0.000000 0.000000 0.000000 -60.708740 0.000000 63.000000 0.747731 0.282193 0.601054
15660.00000000 7430.00000000 500.00000000 250 107 77 0.000000 0.000000 0.000000 0.000000 -60.708740 0.000000 63.000000 0.454707 0.142908 0.879101
15690.00000000 7510.00000000 460.00000000 250 107 77 0.000000 0.000000 0.000000 0.000000 -60.708740 0.000000 63.000000 0.699006 0.518833 0.492141
15670.00000000 7510.00000000 460.00000000 250 107 77 0.000000 0.000000 0.000000 0.000000 -60.708740 0.000000 63.000000 0.668138 0.092107 0.738314
15680.00000000 7510.00000000 450.00000000 250 107 77 0.000000 0.000000 0.000000 0.000000 -60.708740 0.000000 63.000000 0.803319 0.125288 0.582222
15670.00000000 7480.00000000 470.00000000 250 107 77 0.000000 0.000000 0.000000 0.000000 -60.708740 0.000000 63.000000 0.667816 0.641433 0.377605
15660.00000000 7500.00000000 360.00000000 250 107 77 0.000000 0.000000 0.000000 0.000000 -60.708740 0.000000 63.000000 0.764464 0.576924 0.287667
15690.00000000 7470.00000000 400.00000000 250 107 77 0.000000 0.000000 0.000000 0.000000 -60.708740 0.000000 63.000000 0.709050 0.570215 0.414852
15660.00000000 7480.00000000 360.00000000 250 107 77 0.000000 0.000000 0.000000 0.000000 -60.708740 0.000000 63.000000 0.872986 0.364125 0.324513
15670.00000000 7500.00000000 340.00000000 250 107 77 0.000000 0.000000 0.000000 0.000000 -60.708740 0.000000 63.000000 0.749918 -0.001381 0.661530
15700.00000000 7420.00000000 470.00000000 250 107 77 0.000000 0.000000 0.000000 0.000000 -60.708740 0.000000 63.000000 0.682319 0.662963 0.308092
15710.00000000 7400.00000000 470.00000000 250 107 77 0.000000 0.000000 0.000000 0.000000 -60.708740 0.000000 63.000000 0.899265 0.258409 0.352913
15690.00000000 7440.00000000 480.00000000 250 107 77 0.000000 0.000000 0.000000 0.000000 -60.708740 0.000000 63.000000 0.832144 0.508448 0.221396
15620.00000000 7580.00000000 600.00000000 250 107 77 0.000000 0.000000 0.000000 0.000000 -60.708740 0.000000 63.000000 0.142176 0.621083 0.770741
15590.00000000 7580.00000000 580.00000000 250 107 77 0.000000 0.000000 0.000000 0.000000 -60.708740 0.000000 63.000000 0.162619 0.685430 0.709747
15550.00000000 7590.00000000 620.00000000 250 107 77 0.000000 0.000000 0.000000 0.000000 -60.708740 0.000000 63.000000 0.447131 0.408390 0.795796
15540.00000000 7590.00000000 620.00000000 250 107 77 0.000000 0.000000 0.000000 0.000000 -60.708740 0.000000 63.000000 0.307065 0.492878 0.814115
15550.00000000 7590.00000000 590.00000000 250 107 77 0.000000 0.000000 0.000000 0.000000 -60.708740 0.000000 63.000000 0.638409 0.409577 0.651675
15550.00000000 7560.00000000 610.00000000 250 107 77 0.000000 0.000000 0.000000 0.000000 -60.708740 0.000000 63.000000 0.660824 0.230739 0.714192
15490.00000000 7610.00000000 620.00000000 250 107 77 0.000000 0.000000 0.000000 0.000000 -60.708740 0.000000 63.000000 0.575663 0.521642 0.629684
15500.00000000 7600.00000000 580.00000000 250 107 77 0.000000 0.000000 0.000000 0.000000 -60.708740 0.000000 63.000000 0.098341 0.732422 0.673711
15520.00000000 7570.00000000 620.00000000 250 107 77 0.000000 0.000000 0.000000 0.000000 -60.708740 0.000000 63.000000 0.482295 0.144251 0.864051
15500.00000000 7570.00000000 570.00000000 250 107 77 0.000000 0.000000 0.000000 0.000000 -60.708740 0.000000 63.000000 0.583294 0.610345 0.535954
15500.00000000 7560.00000000 590.00000000 250 107 77 0.000000 0.000000 0.000000 0.000000 -60.708740 0.000000 63.000000 0.346100 0.208235 0.914797
15540.00000000 7600.00000000 500.00000000 250 107 77 0.000000 0.000000 0.000000 0.000000 -60.708740 0.000000 63.000000 0.136076 0.513578 0.847184
15540.00000000 7600.00000000 490.00000000 250 107 77 0.000000 0.000000 0.000000 0.000000 -60.708740 0.000000 63.000000 0.343226 0.539815 0.768632
15560.00000000 7610.00000000 490.00000000 250 107 77 0.000000 0.000000 0.000000 0.000000 -60.708740 0.000000 63.000000 0.428980 0.095792 0.898220
15550.00000000 7570.00000000 550.00000000 250 107 77 0.000000 0.000000 0.000000 0.000000 -60.708740 0.000000 63.000000 0.483192 0.546726 0.683825
15510.00000000 7610.00000000 520.00000000 250 107 77 0.000000 0.000000 0.000000 0.000000 -60.708740 0.000000 63.000000 0.561870 0.639485 0.524749
15520.00000000 7570.00000000 560.00000000 250 107 77 0.000000 0.000000 0.000000 0.000000 -60.708740 0.000000 63.000000 0.159035 0.286807 0.944696
15620.00000000 7650.00000000 480.00000000 250 107 77 0.000000 0.000000 0.000000 0.000000 -60.708740 0.000000 63.000000 0.643958 0.456625 0.613851
15620.00000000 7690.00000000 380.00000000 250 107 77 0.000000 0.000000 0.000000 0.000000 -60.708740 0.000000 63.000000 0.527033 0.467180 0.709915
15630.00000000 7710.00000000 340.00000000 250 107 77 0.000000 0.000000 0.000000 0.000000 -60.708740 0.000000 63.000000 0.832543 0.165317 0.528717
15640.00000000 7640.00000000 340.00000000 250 107 77 0.000000 0.000000 0.000000 0.000000 -60.708740 0.000000 63.000000 0.353258 0.527467 0.772650
15630.00000000 7650.00000000 340.00000000 250 107 77 0.000000 0.000000 0.000000 0.000000 -60.708740 0.000000 63.000000 0.438639 0.638778 0.632107
15610.00000000 7690.00000000 370.00000000 250 107 77 0.000000 0.000000 0.000000 0.000000 -60.708740 0.000000 63.000000 0.815037 0.173252 0.552900
15650.00000000 7600.00000000 420.00000000 250 107 77 0.000000 0.000000 0.000000 0.000000 -60.708740 0.000000 63.000000 0.452339 0.689358 0.565841
15630.00000000 7580.00000000 410.00000000 250 107 77 0.000000 0.000000 0.000000 0.000000 -60.708740 0.000000 63.000000 0.381348 0.317024 0.868371
15620.00000000 7600.00000000 370.00000000 250 107 77 0.000000 0.000000 0.000000 0.000000 -60.708740 0.000000 63.000000 0.565966 0.535556 0.626787
15630.00000000 7560.00000000 390.00000000 250 107 77 0.000000 0.000000 0.000000 0.000000 -60.708740 0.000000 63.000000 0.530380 0.299229 0.793195
15550.00000000 7680.00000000 420.00000000 250 107 77 0.000000 0.000000 0.000000 0.000000 -60.708740 0.000000 63.000000 0.812280 0.287519 0.507478
15490.00000000 7710.00000000 460.00000000 250 107 77 0.000000 0.000000 0.000000 0.000000 -60.708740 0.000000 63.000000 0.069524 0.557607 0.827188
15510.00000000 7650.00000000 460.00000000 250 107 77 0.000000 0.000000 0.000000 0.000000 -60.708740 0.000000 63.000000 0.364043 0.449888 0.815521
15540.00000000 7710.00000000 360.00000000 250 107 77 0.000000 0.000000 0.000000 0.000000 -60.708740 0.000000 63.000000 0.532518 0.589996 0.606901
15570.00000000 7690.00000000 320.00000000 250 107 77 0.000000 0.000000 0.000000 0.000000 -60.708740 0.000000 63.000000 0.719702 0.268498 0.640264
15490.00000000 7650.00000000 390.00000000 250 107 77 0.000000 0.000000 0.000000 0.000000 -60.708740 0.000000 63.000000 0.276411 0.554401 0.785007
15560.00000000 7610.00000000 450.00000000 250 107 77 0.000000 0.000000 0.000000 0.000000 -60.708740 0.000000 63.000000 0.536533 0.057436 0.841923
15560.00000000 7550.00000000 480.00000000 250 107 77 0.000000 0.000000 0.000000 0.000000 -60.708740 0.000000 63.000000 0.719656 0.070952 0.690696
15570.00000000 7560.00000000 420.00000000 250 107 77 0.000000 0.000000 0.000000 0.000000 -60.708740 0.000000 63.000000 0.815048 0.374826 0.441817
15530.00000000 7570.00000000 470.00000000 250 107 77 0.000000 0.000000 0.000000 0.000000 -60.708740 0.000000 63.000000 0.300467 0.786938 0.538933
15560.00000000 7600.00000000 400.00000000 250 107 77 0.000000 0.000000 0.000000 0.000000 -60.708740 0.000000 63.000000 0.415583 0.774126 0.477514
15500.00000000 7620.00000000 340.00000000 250 107 77 0.000000 0.000000 0.000000 0.000000 -60.708740 0.000000 63.000000 0.145273 0.600561 0.786271
15510.00000000 7610.00000000 340.00000000 250 107 77 0.000000 0.000000 0.000000 0.000000 -60.708740 0.000000 63.000000 0.541948 0.031717 0.839813
15520.00000000 7570.00000000 360.00000000 250 107 77 0.000000 0.000000 0.000000 0.000000 -60.708740 0.000000 63.000000 0.729762 0.307692 0.610551
15530.00000000 7560.00000000 320.00000000 250 107 77 0.000000 0.000000 0.000000 0.000000 -60.708740 0.000000 63.000000 0.449321 0.579607 0.679828
15600.00000000 7530.00000000 570.00000000 250 107 77 0.000000 0.000000 0.000000 0.000000 -60.708740 0.000000 63.000000 0.589507 0.426770 0.685820
15630.00000000 7510.00000000 520.00000000 250 107 77 0.000000 0.000000 0.000000 0.000000 -60.708740 0.000000 63.000000 0.406263 0.494368 0.768473
15640.00000000 7470.00000000 490.00000000 250 107 77 0.000000 0.000000 0.000000 0.000000 -60.708740 0.000000 63.000000 0.297510 0.548882 0.781163
15600.00000000 7470.00000000 560.00000000 250 107 77 0.000000 0.000000 0.000000 0.000000 -60.708740 0.000000 63.000000 0.398555 0.696231 0.597006
15620.00000000 7410.00000000 570.00000000 250 107 77 0.000000 0.000000 0.000000 0.000000 -60.708740 0.000000 63.000000 0.547575 0.121197 0.827933
15610.00000000 7430.00000000 600.00000000 250 107 77 0.000000 0.000000 0.000000 0.000000 -60.708740 0.000000 63.000000 0.447614 0.762419 0.467289
15630.00000000 7430.00000000 530.00000000 250 107 77 0.000000 0.000000 0.000000 0.000000 -60.708740 0.000000 63.000000 0.459118 0.124434 0.879618
15650.00000000 7430.00000000 550.00000000 250 107 77 0.000000 0.000000 0.000000 0.000000 -60.708740 0.000000 63.000000 0.722129 0.581306 0.374983
15640.00000000 7430.00000000 520.00000000 250 107 77 0.000000 0.000000 0.000000 0.000000 -60.708740 0.000000 63.000000 0.595820 0.144849 0.789947
15640.00000000 7440.00000000 520.00000000 250 107 77 0.000000 0.000000 0.000000 0.000000 -60.708740 0.000000 63.000000 0.825626 0.149709 0.543994
15650.00000000 7440.00000000 510.00000000 250 107 77 0.000000 0.000000 0.000000 0.000000 -60.708740 0.000000 63.000000 0.539095 0.623593 0.566135
15630.00000000 7440.00000000 520.00000000 250 107 77 0.000000 0.000000 0.000000 0.000000 -60.708740 0.000000 63.000000 0.497666 0.464599 0.732446
15540.00000000 7530.00000000 570.00000000 250 107 77 0.000000 0.000000 0.000000 0.000000 -60.708740 0.000000 63.000000 0.401880 0.405056 0.821232
15540.00000000 7520.00000000 570.00000000 250 107 77 0.000000 0.000000 0.000000 0.000000 -60.708740 0.000000 63.000000 0.206174 0.295937 0.932692
15570.00000000 7530.00000000 570.00000000 250 107 77 0.000000 0.000000 0.000000 0.000000 -60.708740 0.000000 63.000000 0.504281 0.399834 0.765397
15550.00000000 7480.00000000 570.00000000 250 107 77 0.000000 0.000000 0.000000 0.000000 -60.708740 0.000000 63.000000 0.551924 0.488176 0.676065
15510.00000000 7520.00000000 590.00000000 250 107 77 0.000000 0.000000 0.000000 0.000000 -60.708740 0.000000 63.000000 0.224504 0.289455 0.930491
