//X Y Z R G B PointSourceId ScanDirectionFlag NumberOfReturns ReturnNumber GpsTime Intensity Classification Nx Ny Nz
-16710.00000000 6660.00000000 30.00000000 233 162 58 0.000000 0.000000 0.000000 0.000000 -60.708740 0.000000 89.000000 -0.256463 0.948508 0.185902
-16710.00000000 6630.00000000 60.00000000 233 162 58 0.000000 0.000000 0.000000 0.000000 -60.708740 0.000000 89.000000 -0.470964 0.827708 0.305110
-16720.00000000 6650.00000000 30.00000000 233 162 58 0.000000 0.000000 0.000000 0.000000 -60.708740 0.000000 89.000000 -0.122675 0.939613 0.319496
-16690.00000000 6660.00000000 30.00000000 233 162 58 0.000000 0.000000 0.000000 0.000000 -60.708740 0.000000 89.000000 -0.274143 0.873927 0.401370
-16720.00000000 6650.00000000 30.00000000 233 162 58 0.000000 0.000000 0.000000 0.000000 -60.708740 0.000000 89.000000 -0.122675 0.939613 0.319496
-16710.00000000 6660.00000000 40.00000000 233 162 58 0.000000 0.000000 0.000000 0.000000 -60.708740 0.000000 89.000000 -0.384447 0.918022 0.097138
-16690.00000000 6660.00000000 30.00000000 233 162 58 0.000000 0.000000 0.000000 0.000000 -60.708740 0.000000 89.000000 -0.274143 0.873927 0.401370
-16720.00000000 6650.00000000 50.00000000 233 162 58 0.000000 0.000000 0.000000 0.000000 -60.708740 0.000000 89.000000 -0.323436 0.928303 0.183420
-16720.00000000 6650.00000000 0.00000000 233 162 58 0.000000 0.000000 0.000000 0.000000 -60.708740 0.000000 89.000000 -0.560869 0.826617 0.046156
-16710.00000000 6650.00000000 20.00000000 233 162 58 0.000000 0.000000 0.000000 0.000000 -60.708740 0.000000 89.000000 -0.210417 0.971447 0.109618
-16700.00000000 6660.00000000 10.00000000 233 162 58 0.000000 0.000000 0.000000 0.000000 -60.708740 0.000000 89.000000 -0.522081 0.851671 -0.045699
-16700.00000000 6650.00000000 20.00000000 233 162 58 0.000000 0.000000 0.000000 0.000000 -60.708740 0.000000 89.000000 0.027729 0.999286 0.025675
-16700.00000000 6660.00000000 10.00000000 233 162 58 0.000000 0.000000 0.000000 0.000000 -60.708740 0.000000 89.000000 -0.522081 0.851671 -0.045699
-16710.00000000 6660.00000000 0.00000000 233 162 58 0.000000 0.000000 0.000000 0.000000 -60.708740 0.000000 89.000000 -0.103878 0.932203 0.346709
-16720.00000000 6660.00000000 20.00000000 233 162 58 0.000000 0.000000 0.000000 0.000000 -60.708740 0.000000 89.000000 -0.022086 0.998081 -0.057845
-16740.00000000 6650.00000000 -10.00000000 233 162 58 0.000000 0.000000 0.000000 0.000000 -60.708740 0.000000 89.000000 -0.098652 0.994277 0.041013
-16740.00000000 6630.00000000 20.00000000 233 162 58 0.000000 0.000000 0.000000 0.000000 -60.708740 0.000000 89.000000 -0.534248 0.843917 -0.048822
-16730.00000000 6640.00000000 -10.00000000 233 162 58 0.000000 0.000000 0.000000 0.000000 -60.708740 0.000000 89.000000 -0.656815 0.740983 -0.139780
-16740.00000000 6620.00000000 0.00000000 233 162 58 0.000000 0.000000 0.000000 0.000000 -60.708740 0.000000 89.000000 -0.606097 0.793462 -0.055358
-16760.00000000 6610.00000000 130.00000000 233 162 58 0.000000 0.000000 0.000000 0.000000 -60.708740 0.000000 89.000000 -0.471583 0.861345 0.188931
-16780.00000000 6630.00000000 110.00000000 233 162 58 0.000000 0.000000 0.000000 0.000000 -60.708740 0.000000 89.000000 -0.651693 0.717967 -0.244582
-16790.00000000 6620.00000000 120.00000000 233 162 58 0.000000 0.000000 0.000000 0.000000 -60.708740 0.000000 89.000000 0.802900 -0.566128 0.186686
-16770.00000000 6640.00000000 110.00000000 233 162 58 0.000000 0.000000 0.000000 0.000000 -60.708740 0.000000 89.000000 0.791541 -0.599920 0.116446
-16770.00000000 6640.00000000 110.00000000 233 162 58 0.000000 0.000000 0.000000 0.000000 -60.708740 0.000000 89.000000 0.791541 -0.599920 0.116446
-16770.00000000 6630.00000000 110.00000000 233 162 58 0.000000 0.000000 0.000000 0.000000 -60.708740 0.000000 89.000000 0.688668 -0.712674 0.133533
-16790.00000000 6630.00000000 80.00000000 233 162 58 0.000000 0.000000 0.000000 0.000000 -60.708740 0.000000 89.000000 0.607467 -0.686918 -0.398909
-16770.00000000 6640.00000000 70.00000000 233 162 58 0.000000 0.000000 0.000000 0.000000 -60.708740 0.000000 89.000000 -0.384878 0.828359 0.407052
-16770.00000000 6640.00000000 80.00000000 233 162 58 0.000000 0.000000 0.000000 0.000000 -60.708740 0.000000 89.000000 -0.434427 0.848757 -0.301471
-16780.00000000 6620.00000000 90.00000000 233 162 58 0.000000 0.000000 0.000000 0.000000 -60.708740 0.000000 89.000000 0.689558 -0.673633 -0.265950
-16770.00000000 6620.00000000 100.00000000 233 162 58 0.000000 0.000000 0.000000 0.000000 -60.708740 0.000000 89.000000 -0.412791 0.872455 -0.261585
-16800.00000000 6680.00000000 30.00000000 233 162 58 0.000000 0.000000 0.000000 0.000000 -60.708740 0.000000 89.000000 -0.385998 0.833441 0.395451
-16770.00000000 6630.00000000 0.00000000 233 162 58 0.000000 0.000000 0.000000 0.000000 -60.708740 0.000000 89.000000 0.742825 -0.656137 0.133021
-16810.00000000 6620.00000000 30.00000000 233 162 58 0.000000 0.000000 0.000000 0.000000 -60.708740 0.000000 89.000000 0.669278 -0.656187 0.348548
-16800.00000000 6590.00000000 130.00000000 233 162 58 0.000000 0.000000 0.000000 0.000000 -60.708740 0.000000 89.000000 0.851778 -0.516186 -0.089586
-16780.00000000 6600.00000000 140.00000000 233 162 58 0.000000 0.000000 0.000000 0.000000 -60.708740 0.000000 89.000000 -0.611221 0.690301 0.387161
-16770.00000000 6610.00000000 120.00000000 233 162 58 0.000000 0.000000 0.000000 0.000000 -60.708740 0.000000 89.000000 -0.406648 0.814891 0.413027
-16780.00000000 6590.00000000 110.00000000 233 162 58 0.000000 0.000000 0.000000 0.000000 -60.708740 0.000000 89.000000 0.909782 -0.361894 -0.203295
-16780.00000000 6600.00000000 110.00000000 233 162 58 0.000000 0.000000 0.000000 0.000000 -60.708740 0.000000 89.000000 0.482519 -0.796717 -0.363893
-16780.00000000 6600.00000000 110.00000000 233 162 58 0.000000 0.000000 0.000000 0.000000 -60.708740 0.000000 89.000000 0.482519 -0.796717 -0.363893
-16800.00000000 6600.00000000 120.00000000 233 162 58 0.000000 0.000000 0.000000 0.000000 -60.708740 0.000000 89.000000 0.864778 -0.454121 -0.214321
-16770.00000000 6610.00000000 140.00000000 233 162 58 0.000000 0.000000 0.000000 0.000000 -60.708740 0.000000 89.000000 -0.321971 0.942064 -0.094074
-16790.00000000 6600.00000000 140.00000000 233 162 58 0.000000 0.000000 0.000000 0.000000 -60.708740 0.000000 89.000000 0.902533 -0.371803 -0.217249
-16800.00000000 6610.00000000 70.00000000 233 162 58 0.000000 0.000000 0.000000 0.000000 -60.708740 0.000000 89.000000 -0.630552 0.748296 0.206053
-16790.00000000 6610.00000000 100.00000000 233 162 58 0.000000 0.000000 0.000000 0.000000 -60.708740 0.000000 89.000000 -0.569734 0.814530 0.109284
-16790.00000000 6610.00000000 90.00000000 233 162 58 0.000000 0.000000 0.000000 0.000000 -60.708740 0.000000 89.000000 -0.596645 0.801610 -0.037904
-16800.00000000 6610.00000000 90.00000000 233 162 58 0.000000 0.000000 0.000000 0.000000 -60.708740 0.000000 89.000000 0.803923 -0.567742 0.177136
-16770.00000000 6610.00000000 100.00000000 233 162 58 0.000000 0.000000 0.000000 0.000000 -60.708740 0.000000 89.000000 -0.399092 0.912015 0.094630
-16780.00000000 6610.00000000 100.00000000 233 162 58 0.000000 0.000000 0.000000 0.000000 -60.708740 0.000000 89.000000 0.682834 -0.707386 -0.182601
-16800.00000000 6600.00000000 80.00000000 233 162 58 0.000000 0.000000 0.000000 0.000000 -60.708740 0.000000 89.000000 0.878566 -0.477394 -0.014710
-16790.00000000 6570.00000000 140.00000000 233 162 58 0.000000 0.000000 0.000000 0.000000 -60.708740 0.000000 89.000000 0.957083 -0.237611 -0.165930
-16800.00000000 6570.00000000 140.00000000 233 162 58 0.000000 0.000000 0.000000 0.000000 -60.708740 0.000000 89.000000 -0.703840 0.615656 0.354369
-16790.00000000 6540.00000000 140.00000000 233 162 58 0.000000 0.000000 0.000000 0.000000 -60.708740 0.000000 89.000000 0.929507 -0.244756 -0.275881
-16800.00000000 6550.00000000 90.00000000 233 162 58 0.000000 0.000000 0.000000 0.000000 -60.708740 0.000000 89.000000 0.939188 -0.312154 0.143127
-16800.00000000 6560.00000000 100.00000000 233 162 58 0.000000 0.000000 0.000000 0.000000 -60.708740 0.000000 89.000000 0.945233 -0.325986 0.016362
-16800.00000000 6570.00000000 70.00000000 233 162 58 0.000000 0.000000 0.000000 0.000000 -60.708740 0.000000 89.000000 0.949515 -0.235002 0.207834
-16810.00000000 6590.00000000 110.00000000 233 162 58 0.000000 0.000000 0.000000 0.000000 -60.708740 0.000000 89.000000 0.956161 -0.292400 -0.016039
-16810.00000000 6600.00000000 70.00000000 233 162 58 0.000000 0.000000 0.000000 0.000000 -60.708740 0.000000 89.000000 -0.651206 0.654504 0.384129
-16810.00000000 6600.00000000 70.00000000 233 162 58 0.000000 0.000000 0.000000 0.000000 -60.708740 0.000000 89.000000 -0.651206 0.654504 0.384129
-16820.00000000 6550.00000000 110.00000000 233 162 58 0.000000 0.000000 0.000000 0.000000 -60.708740 0.000000 89.000000 0.987769 -0.150638 -0.040247
-16810.00000000 6560.00000000 140.00000000 233 162 58 0.000000 0.000000 0.000000 0.000000 -60.708740 0.000000 89.000000 0.815997 -0.556430 0.156636
-16810.00000000 6560.00000000 140.00000000 233 162 58 0.000000 0.000000 0.000000 0.000000 -60.708740 0.000000 89.000000 0.815997 -0.556430 0.156636
-16820.00000000 6550.00000000 120.00000000 233 162 58 0.000000 0.000000 0.000000 0.000000 -60.708740 0.000000 89.000000 0.968336 -0.129197 -0.213622
-16810.00000000 6540.00000000 130.00000000 233 162 58 0.000000 0.000000 0.000000 0.000000 -60.708740 0.000000 89.000000 0.994485 0.005399 -0.104739
-16810.00000000 6560.00000000 130.00000000 233 162 58 0.000000 0.000000 0.000000 0.000000 -60.708740 0.000000 89.000000 0.943423 -0.317128 0.096863
-16810.00000000 6540.00000000 100.00000000 233 162 58 0.000000 0.000000 0.000000 0.000000 -60.708740 0.000000 89.000000 0.996295 0.003183 -0.085942
-16830.00000000 6540.00000000 100.00000000 233 162 58 0.000000 0.000000 0.000000 0.000000 -60.708740 0.000000 89.000000 0.795929 -0.602286 0.061225
-16810.00000000 6550.00000000 100.00000000 233 162 58 0.000000 0.000000 0.000000 0.000000 -60.708740 0.000000 89.000000 0.999544 -0.029369 0.007089
-16810.00000000 6550.00000000 90.00000000 233 162 58 0.000000 0.000000 0.000000 0.000000 -60.708740 0.000000 89.000000 0.932508 -0.191535 -0.306176
-16780.00000000 6610.00000000 30.00000000 233 162 58 0.000000 0.000000 0.000000 0.000000 -60.708740 0.000000 89.000000 0.884304 -0.445735 0.139023
-16790.00000000 6580.00000000 40.00000000 233 162 58 0.000000 0.000000 0.000000 0.000000 -60.708740 0.000000 89.000000 0.885810 -0.463614 -0.020041
-16790.00000000 6600.00000000 30.00000000 233 162 58 0.000000 0.000000 0.000000 0.000000 -60.708740 0.000000 89.000000 -0.480458 0.867134 0.131296
-16790.00000000 6590.00000000 50.00000000 233 162 58 0.000000 0.000000 0.000000 0.000000 -60.708740 0.000000 89.000000 0.939175 -0.341401 -0.037361
-16780.00000000 6600.00000000 30.00000000 233 162 58 0.000000 0.000000 0.000000 0.000000 -60.708740 0.000000 89.000000 0.733656 -0.671906 0.101447
-16780.00000000 6610.00000000 30.00000000 233 162 58 0.000000 0.000000 0.000000 0.000000 -60.708740 0.000000 89.000000 0.884304 -0.445735 0.139023
-16790.00000000 6600.00000000 30.00000000 233 162 58 0.000000 0.000000 0.000000 0.000000 -60.708740 0.000000 89.000000 -0.480458 0.867134 0.131296
-16790.00000000 6590.00000000 30.00000000 233 162 58 0.000000 0.000000 0.000000 0.000000 -60.708740 0.000000 89.000000 0.955605 -0.275079 -0.105599
-16790.00000000 6580.00000000 40.00000000 233 162 58 0.000000 0.000000 0.000000 0.000000 -60.708740 0.000000 89.000000 0.885810 -0.463614 -0.020041
-16790.00000000 6600.00000000 10.00000000 233 162 58 0.000000 0.000000 0.000000 0.000000 -60.708740 0.000000 89.000000 0.734388 -0.647807 0.202536
-16780.00000000 6610.00000000 10.00000000 233 162 58 0.000000 0.000000 0.000000 0.000000 -60.708740 0.000000 89.000000 -0.654323 0.755638 -0.029550
-16790.00000000 6600.00000000 20.00000000 233 162 58 0.000000 0.000000 0.000000 0.000000 -60.708740 0.000000 89.000000 0.778629 -0.606272 -0.161773
-16780.00000000 6610.00000000 0.00000000 233 162 58 0.000000 0.000000 0.000000 0.000000 -60.708740 0.000000 89.000000 0.827282 -0.543135 -0.143553
-16800.00000000 6580.00000000 -10.00000000 233 162 58 0.000000 0.000000 0.000000 0.000000 -60.708740 0.000000 89.000000 0.781989 -0.579884 -0.228534
-16800.00000000 6590.00000000 -10.00000000 233 162 58 0.000000 0.000000 0.000000 0.000000 -60.708740 0.000000 89.000000 -0.609356 0.780035 -0.142233
-16780.00000000 6610.00000000 20.00000000 233 162 58 0.000000 0.000000 0.000000 0.000000 -60.708740 0.000000 89.000000 -0.628303 0.777297 0.032329
-16800.00000000 6580.00000000 -10.00000000 233 162 58 0.000000 0.000000 0.000000 0.000000 -60.708740 0.000000 89.000000 0.781989 -0.579884 -0.228534
-16770.00000000 6610.00000000 20.00000000 233 162 58 0.000000 0.000000 0.000000 0.000000 -60.708740 0.000000 89.000000 -0.559921 0.770490 0.304686
-16800.00000000 6580.00000000 20.00000000 233 162 58 0.000000 0.000000 0.000000 0.000000 -60.708740 0.000000 89.000000 -0.666260 0.741741 -0.076932
-16780.00000000 6560.00000000 40.00000000 233 162 58 0.000000 0.000000 0.000000 0.000000 -60.708740 0.000000 89.000000 0.952386 -0.288721 -0.097982
-16810.00000000 6580.00000000 50.00000000 233 162 58 0.000000 0.000000 0.000000 0.000000 -60.708740 0.000000 89.000000 0.935690 -0.328241 0.129389
-16810.00000000 6580.00000000 50.00000000 233 162 58 0.000000 0.000000 0.000000 0.000000 -60.708740 0.000000 89.000000 0.935690 -0.328241 0.129389
-16810.00000000 6590.00000000 50.00000000 233 162 58 0.000000 0.000000 0.000000 0.000000 -60.708740 0.000000 89.000000 0.891515 -0.449171 -0.058706
-16810.00000000 6600.00000000 50.00000000 233 162 58 0.000000 0.000000 0.000000 0.000000 -60.708740 0.000000 89.000000 0.970324 -0.238004 -0.042719
-16820.00000000 6610.00000000 0.00000000 233 162 58 0.000000 0.000000 0.000000 0.000000 -60.708740 0.000000 89.000000 0.752905 -0.497016 -0.431403
-16820.00000000 6610.00000000 -10.00000000 233 162 58 0.000000 0.000000 0.000000 0.000000 -60.708740 0.000000 89.000000 0.951942 -0.296592 0.076414
-16830.00000000 6590.00000000 0.00000000 233 162 58 0.000000 0.000000 0.000000 0.000000 -60.708740 0.000000 89.000000 0.838307 -0.448034 -0.310657
-16810.00000000 6580.00000000 -10.00000000 233 162 58 0.000000 0.000000 0.000000 0.000000 -60.708740 0.000000 89.000000 0.815043 -0.357475 -0.455979
-16820.00000000 6590.00000000 20.00000000 233 162 58 0.000000 0.000000 0.000000 0.000000 -60.708740 0.000000 89.000000 0.806886 -0.590235 -0.023609
-16840.00000000 6580.00000000 0.00000000 233 162 58 0.000000 0.000000 0.000000 0.000000 -60.708740 0.000000 89.000000 -0.730964 0.664375 0.155878
-16810.00000000 6600.00000000 20.00000000 233 162 58 0.000000 0.000000 0.000000 0.000000 -60.708740 0.000000 89.000000 0.840224 -0.528598 -0.120864
-16820.00000000 6590.00000000 10.00000000 233 162 58 0.000000 0.000000 0.000000 0.000000 -60.708740 0.000000 89.000000 0.785696 -0.442258 -0.432538
-16820.00000000 6560.00000000 40.00000000 233 162 58 0.000000 0.000000 0.000000 0.000000 -60.708740 0.000000 89.000000 0.977557 -0.190593 0.089763
-16810.00000000 6570.00000000 40.00000000 233 162 58 0.000000 0.000000 0.000000 0.000000 -60.708740 0.000000 89.000000 0.915931 -0.273477 0.293735
-16810.00000000 6570.00000000 30.00000000 233 162 58 0.000000 0.000000 0.000000 0.000000 -60.708740 0.000000 89.000000 0.946670 -0.286829 -0.146781
-16830.00000000 6540.00000000 -10.00000000 233 162 58 0.000000 0.000000 0.000000 0.000000 -60.708740 0.000000 89.000000 0.971560 0.008324 -0.236647
-16820.00000000 6560.00000000 10.00000000 233 162 58 0.000000 0.000000 0.000000 0.000000 -60.708740 0.000000 89.000000 0.967209 -0.142956 0.209927
-16830.00000000 6550.00000000 -10.00000000 233 162 58 0.000000 0.000000 0.000000 0.000000 -60.708740 0.000000 89.000000 0.926351 -0.217047 -0.307838
-16820.00000000 6570.00000000 -10.00000000 233 162 58 0.000000 0.000000 0.000000 0.000000 -60.708740 0.000000 89.000000 0.937837 -0.163401 -0.306205
-16850.00000000 6560.00000000 0.00000000 233 162 58 0.000000 0.000000 0.000000 0.000000 -60.708740 0.000000 89.000000 0.968855 -0.055681 0.241286
-16810.00000000 6570.00000000 0.00000000 233 162 58 0.000000 0.000000 0.000000 0.000000 -60.708740 0.000000 89.000000 0.813021 -0.532243 0.236038
-16810.00000000 6560.00000000 -10.00000000 233 162 58 0.000000 0.000000 0.000000 0.000000 -60.708740 0.000000 89.000000 0.798011 -0.568258 0.200652
-16810.00000000 6560.00000000 0.00000000 233 162 58 0.000000 0.000000 0.000000 0.000000 -60.708740 0.000000 89.000000 0.850221 -0.478721 0.218974
-16810.00000000 6560.00000000 0.00000000 233 162 58 0.000000 0.000000 0.000000 0.000000 -60.708740 0.000000 89.000000 0.850221 -0.478721 0.218974
-16810.00000000 6570.00000000 -10.00000000 233 162 58 0.000000 0.000000 0.000000 0.000000 -60.708740 0.000000 89.000000 0.904628 -0.272124 -0.328020
-16720.00000000 6390.00000000 210.00000000 233 162 58 0.000000 0.000000 0.000000 0.000000 -60.708740 0.000000 89.000000 0.287291 0.943568 -0.164750
-16720.00000000 6380.00000000 200.00000000 233 162 58 0.000000 0.000000 0.000000 0.000000 -60.708740 0.000000 89.000000 0.559237 0.782932 -0.272530
-16690.00000000 6390.00000000 190.00000000 233 162 58 0.000000 0.000000 0.000000 0.000000 -60.708740 0.000000 89.000000 -0.072500 0.974449 0.212585
-16690.00000000 6390.00000000 160.00000000 233 162 58 0.000000 0.000000 0.000000 0.000000 -60.708740 0.000000 89.000000 0.015291 0.977464 -0.210549
-16720.00000000 6400.00000000 150.00000000 233 162 58 0.000000 0.000000 0.000000 0.000000 -60.708740 0.000000 89.000000 0.220738 0.972972 0.067824
-16690.00000000 6390.00000000 180.00000000 233 162 58 0.000000 0.000000 0.000000 0.000000 -60.708740 0.000000 89.000000 -0.038858 0.993663 0.105473
-16700.00000000 6390.00000000 180.00000000 233 162 58 0.000000 0.000000 0.000000 0.000000 -60.708740 0.000000 89.000000 -0.060955 0.990237 0.125361
-16720.00000000 6380.00000000 180.00000000 233 162 58 0.000000 0.000000 0.000000 0.000000 -60.708740 0.000000 89.000000 0.308359 0.950456 0.039338
-16720.00000000 6400.00000000 160.00000000 233 162 58 0.000000 0.000000 0.000000 0.000000 -60.708740 0.000000 89.000000 0.453104 0.888194 -0.076210
-16750.00000000 6410.00000000 170.00000000 233 162 58 0.000000 0.000000 0.000000 0.000000 -60.708740 0.000000 89.000000 0.905229 0.417693 0.078061
-16750.00000000 6420.00000000 190.00000000 233 162 58 0.000000 0.000000 0.000000 0.000000 -60.708740 0.000000 89.000000 0.762623 0.626170 -0.162228
-16750.00000000 6420.00000000 190.00000000 233 162 58 0.000000 0.000000 0.000000 0.000000 -60.708740 0.000000 89.000000 0.762623 0.626170 -0.162228
-16740.00000000 6410.00000000 150.00000000 233 162 58 0.000000 0.000000 0.000000 0.000000 -60.708740 0.000000 89.000000 0.553097 0.827479 -0.096756
-16730.00000000 6390.00000000 200.00000000 233 162 58 0.000000 0.000000 0.000000 0.000000 -60.708740 0.000000 89.000000 0.550935 0.811984 -0.192751
-16740.00000000 6400.00000000 180.00000000 233 162 58 0.000000 0.000000 0.000000 0.000000 -60.708740 0.000000 89.000000 0.632829 0.713341 -0.301117
-16750.00000000 6390.00000000 180.00000000 233 162 58 0.000000 0.000000 0.000000 0.000000 -60.708740 0.000000 89.000000 0.788779 0.549469 -0.275522
-16730.00000000 6390.00000000 150.00000000 233 162 58 0.000000 0.000000 0.000000 0.000000 -60.708740 0.000000 89.000000 0.427682 0.871870 -0.238601
-16740.00000000 6380.00000000 170.00000000 233 162 58 0.000000 0.000000 0.000000 0.000000 -60.708740 0.000000 89.000000 0.323987 0.943103 0.074766
-16730.00000000 6390.00000000 180.00000000 233 162 58 0.000000 0.000000 0.000000 0.000000 -60.708740 0.000000 89.000000 0.461236 0.860874 -0.214843
-16730.00000000 6380.00000000 180.00000000 233 162 58 0.000000 0.000000 0.000000 0.000000 -60.708740 0.000000 89.000000 0.315309 0.948461 0.031658
-16800.00000000 6510.00000000 190.00000000 233 162 58 0.000000 0.000000 0.000000 0.000000 -60.708740 0.000000 89.000000 0.903860 -0.427731 -0.009156
-16800.00000000 6500.00000000 190.00000000 233 162 58 0.000000 0.000000 0.000000 0.000000 -60.708740 0.000000 89.000000 0.875347 -0.405281 -0.263659
-16800.00000000 6500.00000000 170.00000000 233 162 58 0.000000 0.000000 0.000000 0.000000 -60.708740 0.000000 89.000000 0.988411 0.094972 -0.118422
-16790.00000000 6520.00000000 170.00000000 233 162 58 0.000000 0.000000 0.000000 0.000000 -60.708740 0.000000 89.000000 0.785517 -0.515646 -0.342158
-16800.00000000 6490.00000000 150.00000000 233 162 58 0.000000 0.000000 0.000000 0.000000 -60.708740 0.000000 89.000000 0.976302 -0.146633 -0.159166
-16800.00000000 6490.00000000 150.00000000 233 162 58 0.000000 0.000000 0.000000 0.000000 -60.708740 0.000000 89.000000 0.976302 -0.146633 -0.159166
-16800.00000000 6490.00000000 150.00000000 233 162 58 0.000000 0.000000 0.000000 0.000000 -60.708740 0.000000 89.000000 0.976302 -0.146633 -0.159166
-16790.00000000 6490.00000000 170.00000000 233 162 58 0.000000 0.000000 0.000000 0.000000 -60.708740 0.000000 89.000000 0.966689 0.229188 -0.113954
-16800.00000000 6490.00000000 150.00000000 233 162 58 0.000000 0.000000 0.000000 0.000000 -60.708740 0.000000 89.000000 0.976302 -0.146633 -0.159166
-16800.00000000 6490.00000000 150.00000000 233 162 58 0.000000 0.000000 0.000000 0.000000 -60.708740 0.000000 89.000000 0.976302 -0.146633 -0.159166
-16810.00000000 6510.00000000 170.00000000 233 162 58 0.000000 0.000000 0.000000 0.000000 -60.708740 0.000000 89.000000 0.915642 -0.390072 -0.097176
-16820.00000000 6500.00000000 170.00000000 233 162 58 0.000000 0.000000 0.000000 0.000000 -60.708740 0.000000 89.000000 0.966872 0.079211 -0.242661
-16810.00000000 6470.00000000 150.00000000 233 162 58 0.000000 0.000000 0.000000 0.000000 -60.708740 0.000000 89.000000 0.950522 -0.221020 -0.218308
-16810.00000000 6490.00000000 190.00000000 233 162 58 0.000000 0.000000 0.000000 0.000000 -60.708740 0.000000 89.000000 0.970010 0.242201 0.020485
-16790.00000000 6450.00000000 150.00000000 233 162 58 0.000000 0.000000 0.000000 0.000000 -60.708740 0.000000 89.000000 0.999105 -0.013376 -0.040129
-16790.00000000 6440.00000000 150.00000000 233 162 58 0.000000 0.000000 0.000000 0.000000 -60.708740 0.000000 89.000000 0.972997 0.145886 0.178869
-16790.00000000 6430.00000000 170.00000000 233 162 58 0.000000 0.000000 0.000000 0.000000 -60.708740 0.000000 89.000000 0.972739 0.127759 0.193536
-16790.00000000 6440.00000000 160.00000000 233 162 58 0.000000 0.000000 0.000000 0.000000 -60.708740 0.000000 89.000000 0.986152 -0.045407 0.159507
-16780.00000000 6430.00000000 160.00000000 233 162 58 0.000000 0.000000 0.000000 0.000000 -60.708740 0.000000 89.000000 0.808973 0.457939 0.368585
-16800.00000000 6390.00000000 170.00000000 233 162 58 0.000000 0.000000 0.000000 0.000000 -60.708740 0.000000 89.000000 0.862853 0.304987 0.403073
-16800.00000000 6400.00000000 150.00000000 233 162 58 0.000000 0.000000 0.000000 0.000000 -60.708740 0.000000 89.000000 0.987105 0.155495 -0.038010
-16840.00000000 6390.00000000 210.00000000 233 162 58 0.000000 0.000000 0.000000 0.000000 -60.708740 0.000000 89.000000 0.746243 0.585068 0.317516
-16830.00000000 6390.00000000 210.00000000 233 162 58 0.000000 0.000000 0.000000 0.000000 -60.708740 0.000000 89.000000 0.818902 0.515490 0.252327
-16700.00000000 6410.00000000 80.00000000 233 162 58 0.000000 0.000000 0.000000 0.000000 -60.708740 0.000000 89.000000 0.492361 0.749245 0.442960
-16690.00000000 6370.00000000 120.00000000 233 162 58 0.000000 0.000000 0.000000 0.000000 -60.708740 0.000000 89.000000 0.244805 0.962381 -0.117869
-16700.00000000 6380.00000000 130.00000000 233 162 58 0.000000 0.000000 0.000000 0.000000 -60.708740 0.000000 89.000000 0.072293 0.984850 0.157623
-16740.00000000 6400.00000000 140.00000000 233 162 58 0.000000 0.000000 0.000000 0.000000 -60.708740 0.000000 89.000000 0.421088 0.882068 0.211283
-16760.00000000 6370.00000000 110.00000000 233 162 58 0.000000 0.000000 0.000000 0.000000 -60.708740 0.000000 89.000000 0.537629 0.726213 0.428449
-16730.00000000 6390.00000000 130.00000000 233 162 58 0.000000 0.000000 0.000000 0.000000 -60.708740 0.000000 89.000000 0.698934 0.713228 -0.052885
-16740.00000000 6390.00000000 120.00000000 233 162 58 0.000000 0.000000 0.000000 0.000000 -60.708740 0.000000 89.000000 0.388054 0.920470 -0.046355
-16730.00000000 6390.00000000 140.00000000 233 162 58 0.000000 0.000000 0.000000 0.000000 -60.708740 0.000000 89.000000 0.552758 0.828419 -0.090451
-16760.00000000 6400.00000000 70.00000000 233 162 58 0.000000 0.000000 0.000000 0.000000 -60.708740 0.000000 89.000000 0.528360 0.837429 0.139817
-16750.00000000 6380.00000000 90.00000000 233 162 58 0.000000 0.000000 0.000000 0.000000 -60.708740 0.000000 89.000000 0.537186 0.839264 0.084069
-16760.00000000 6400.00000000 90.00000000 233 162 58 0.000000 0.000000 0.000000 0.000000 -60.708740 0.000000 89.000000 0.829419 0.546629 0.115157
-16750.00000000 6380.00000000 70.00000000 233 162 58 0.000000 0.000000 0.000000 0.000000 -60.708740 0.000000 89.000000 0.692363 0.720681 0.035397
-16750.00000000 6380.00000000 70.00000000 233 162 58 0.000000 0.000000 0.000000 0.000000 -60.708740 0.000000 89.000000 0.692363 0.720681 0.035397
-16730.00000000 6370.00000000 70.00000000 233 162 58 0.000000 0.000000 0.000000 0.000000 -60.708740 0.000000 89.000000 0.231321 0.906371 0.353528
-16690.00000000 6380.00000000 60.00000000 233 162 58 0.000000 0.000000 0.000000 0.000000 -60.708740 0.000000 89.000000 0.246758 0.925698 -0.286695
-16690.00000000 6370.00000000 40.00000000 233 162 58 0.000000 0.000000 0.000000 0.000000 -60.708740 0.000000 89.000000 0.019167 0.999702 -0.015132
-16710.00000000 6380.00000000 50.00000000 233 162 58 0.000000 0.000000 0.000000 0.000000 -60.708740 0.000000 89.000000 0.076525 0.967224 0.242120
-16700.00000000 6390.00000000 0.00000000 233 162 58 0.000000 0.000000 0.000000 0.000000 -60.708740 0.000000 89.000000 0.628500 0.756952 0.178916
-16700.00000000 6400.00000000 10.00000000 233 162 58 0.000000 0.000000 0.000000 0.000000 -60.708740 0.000000 89.000000 0.515893 0.763262 0.388954
-16700.00000000 6370.00000000 20.00000000 233 162 58 0.000000 0.000000 0.000000 0.000000 -60.708740 0.000000 89.000000 -0.118496 0.991979 0.044013
-16730.00000000 6380.00000000 50.00000000 233 162 58 0.000000 0.000000 0.000000 0.000000 -60.708740 0.000000 89.000000 0.468947 0.854961 -0.221656
-16730.00000000 6380.00000000 50.00000000 233 162 58 0.000000 0.000000 0.000000 0.000000 -60.708740 0.000000 89.000000 0.468947 0.854961 -0.221656
-16760.00000000 6380.00000000 50.00000000 233 162 58 0.000000 0.000000 0.000000 0.000000 -60.708740 0.000000 89.000000 0.434687 0.895762 0.093048
-16760.00000000 6380.00000000 60.00000000 233 162 58 0.000000 0.000000 0.000000 0.000000 -60.708740 0.000000 89.000000 0.477621 0.877679 0.039462
-16750.00000000 6400.00000000 -10.00000000 233 162 58 0.000000 0.000000 0.000000 0.000000 -60.708740 0.000000 89.000000 0.447457 0.893569 -0.036280
-16790.00000000 6520.00000000 120.00000000 233 162 58 0.000000 0.000000 0.000000 0.000000 -60.708740 0.000000 89.000000 0.834890 -0.531562 -0.142830
-16800.00000000 6510.00000000 110.00000000 233 162 58 0.000000 0.000000 0.000000 0.000000 -60.708740 0.000000 89.000000 0.970197 -0.241647 0.018033
-16800.00000000 6530.00000000 110.00000000 233 162 58 0.000000 0.000000 0.000000 0.000000 -60.708740 0.000000 89.000000 0.819114 -0.561217 0.118691
-16800.00000000 6510.00000000 70.00000000 233 162 58 0.000000 0.000000 0.000000 0.000000 -60.708740 0.000000 89.000000 0.976113 -0.133731 -0.171226
-16790.00000000 6460.00000000 130.00000000 233 162 58 0.000000 0.000000 0.000000 0.000000 -60.708740 0.000000 89.000000 0.881367 0.472113 -0.017387
-16800.00000000 6460.00000000 130.00000000 233 162 58 0.000000 0.000000 0.000000 0.000000 -60.708740 0.000000 89.000000 0.869903 0.474624 0.134164
-16800.00000000 6460.00000000 110.00000000 233 162 58 0.000000 0.000000 0.000000 0.000000 -60.708740 0.000000 89.000000 0.962527 -0.187778 0.195657
-16800.00000000 6470.00000000 130.00000000 233 162 58 0.000000 0.000000 0.000000 0.000000 -60.708740 0.000000 89.000000 0.899534 0.435774 0.030651
-16800.00000000 6460.00000000 120.00000000 233 162 58 0.000000 0.000000 0.000000 0.000000 -60.708740 0.000000 89.000000 0.948983 0.256592 -0.183280
-16790.00000000 6480.00000000 130.00000000 233 162 58 0.000000 0.000000 0.000000 0.000000 -60.708740 0.000000 89.000000 0.998042 0.059946 0.017879
-16790.00000000 6480.00000000 110.00000000 233 162 58 0.000000 0.000000 0.000000 0.000000 -60.708740 0.000000 89.000000 0.984407 0.111782 0.135822
-16800.00000000 6460.00000000 110.00000000 233 162 58 0.000000 0.000000 0.000000 0.000000 -60.708740 0.000000 89.000000 0.962527 -0.187778 0.195657
-16800.00000000 6470.00000000 140.00000000 233 162 58 0.000000 0.000000 0.000000 0.000000 -60.708740 0.000000 89.000000 0.910870 -0.038562 0.410889
-16800.00000000 6470.00000000 120.00000000 233 162 58 0.000000 0.000000 0.000000 0.000000 -60.708740 0.000000 89.000000 0.906026 0.406246 -0.118663
-16800.00000000 6470.00000000 110.00000000 233 162 58 0.000000 0.000000 0.000000 0.000000 -60.708740 0.000000 89.000000 0.906189 -0.086631 0.413904
-16790.00000000 6480.00000000 70.00000000 233 162 58 0.000000 0.000000 0.000000 0.000000 -60.708740 0.000000 89.000000 0.999527 -0.029368 -0.009114
-16800.00000000 6460.00000000 100.00000000 233 162 58 0.000000 0.000000 0.000000 0.000000 -60.708740 0.000000 89.000000 0.972197 -0.217842 -0.085892
-16790.00000000 6470.00000000 100.00000000 233 162 58 0.000000 0.000000 0.000000 0.000000 -60.708740 0.000000 89.000000 0.986979 -0.146349 -0.066735
-16810.00000000 6530.00000000 130.00000000 233 162 58 0.000000 0.000000 0.000000 0.000000 -60.708740 0.000000 89.000000 0.991757 -0.088284 0.092870
-16810.00000000 6530.00000000 130.00000000 233 162 58 0.000000 0.000000 0.000000 0.000000 -60.708740 0.000000 89.000000 0.991757 -0.088284 0.092870
-16810.00000000 6510.00000000 110.00000000 233 162 58 0.000000 0.000000 0.000000 0.000000 -60.708740 0.000000 89.000000 0.882855 -0.464296 -0.070684
-16810.00000000 6520.00000000 120.00000000 233 162 58 0.000000 0.000000 0.000000 0.000000 -60.708740 0.000000 89.000000 0.993741 0.086461 0.070741
-16830.00000000 6510.00000000 140.00000000 233 162 58 0.000000 0.000000 0.000000 0.000000 -60.708740 0.000000 89.000000 0.954671 -0.142072 -0.261572
-16810.00000000 6520.00000000 130.00000000 233 162 58 0.000000 0.000000 0.000000 0.000000 -60.708740 0.000000 89.000000 0.996649 -0.037875 0.072503
-16810.00000000 6510.00000000 130.00000000 233 162 58 0.000000 0.000000 0.000000 0.000000 -60.708740 0.000000 89.000000 0.993423 -0.114249 0.007617
-16830.00000000 6530.00000000 70.00000000 233 162 58 0.000000 0.000000 0.000000 0.000000 -60.708740 0.000000 89.000000 0.834930 -0.544767 0.078230
-16810.00000000 6520.00000000 100.00000000 233 162 58 0.000000 0.000000 0.000000 0.000000 -60.708740 0.000000 89.000000 0.914390 -0.404815 0.003880
-16820.00000000 6510.00000000 100.00000000 233 162 58 0.000000 0.000000 0.000000 0.000000 -60.708740 0.000000 89.000000 0.839554 -0.504938 -0.200468
-16810.00000000 6500.00000000 70.00000000 233 162 58 0.000000 0.000000 0.000000 0.000000 -60.708740 0.000000 89.000000 0.991678 -0.081398 -0.099741
-16810.00000000 6500.00000000 90.00000000 233 162 58 0.000000 0.000000 0.000000 0.000000 -60.708740 0.000000 89.000000 0.960139 0.064515 0.271976
-16810.00000000 6520.00000000 80.00000000 233 162 58 0.000000 0.000000 0.000000 0.000000 -60.708740 0.000000 89.000000 0.951209 0.076356 -0.298951
-16830.00000000 6530.00000000 80.00000000 233 162 58 0.000000 0.000000 0.000000 0.000000 -60.708740 0.000000 89.000000 0.890150 -0.410726 0.197324
-16820.00000000 6480.00000000 110.00000000 233 162 58 0.000000 0.000000 0.000000 0.000000 -60.708740 0.000000 89.000000 0.914902 0.392492 0.094362
-16810.00000000 6470.00000000 140.00000000 233 162 58 0.000000 0.000000 0.000000 0.000000 -60.708740 0.000000 89.000000 0.941197 -0.319980 -0.108445
-16820.00000000 6490.00000000 110.00000000 233 162 58 0.000000 0.000000 0.000000 0.000000 -60.708740 0.000000 89.000000 0.975599 0.100667 0.195120
-16820.00000000 6460.00000000 110.00000000 233 162 58 0.000000 0.000000 0.000000 0.000000 -60.708740 0.000000 89.000000 0.932048 0.164805 0.322685
-16830.00000000 6490.00000000 120.00000000 233 162 58 0.000000 0.000000 0.000000 0.000000 -60.708740 0.000000 89.000000 0.897627 -0.318991 0.304155
-16820.00000000 6480.00000000 110.00000000 233 162 58 0.000000 0.000000 0.000000 0.000000 -60.708740 0.000000 89.000000 0.914902 0.392492 0.094362
-16830.00000000 6470.00000000 120.00000000 233 162 58 0.000000 0.000000 0.000000 0.000000 -60.708740 0.000000 89.000000 0.906820 0.115616 0.405353
-16810.00000000 6490.00000000 70.00000000 233 162 58 0.000000 0.000000 0.000000 0.000000 -60.708740 0.000000 89.000000 0.984979 0.163575 0.055309
-16810.00000000 6490.00000000 70.00000000 233 162 58 0.000000 0.000000 0.000000 0.000000 -60.708740 0.000000 89.000000 0.984979 0.163575 0.055309
-16820.00000000 6470.00000000 90.00000000 233 162 58 0.000000 0.000000 0.000000 0.000000 -60.708740 0.000000 89.000000 0.923640 -0.043481 0.380787
-16820.00000000 6470.00000000 90.00000000 233 162 58 0.000000 0.000000 0.000000 0.000000 -60.708740 0.000000 89.000000 0.923640 -0.043481 0.380787
-16810.00000000 6490.00000000 70.00000000 233 162 58 0.000000 0.000000 0.000000 0.000000 -60.708740 0.000000 89.000000 0.984979 0.163575 0.055309
-16810.00000000 6470.00000000 70.00000000 233 162 58 0.000000 0.000000 0.000000 0.000000 -60.708740 0.000000 89.000000 0.952956 0.217010 0.211618
-16810.00000000 6470.00000000 80.00000000 233 162 58 0.000000 0.000000 0.000000 0.000000 -60.708740 0.000000 89.000000 0.945534 0.052888 0.321198
-16820.00000000 6460.00000000 100.00000000 233 162 58 0.000000 0.000000 0.000000 0.000000 -60.708740 0.000000 89.000000 0.897340 0.374503 0.233514
-16810.00000000 6490.00000000 70.00000000 233 162 58 0.000000 0.000000 0.000000 0.000000 -60.708740 0.000000 89.000000 0.984979 0.163575 0.055309
-16800.00000000 6520.00000000 60.00000000 233 162 58 0.000000 0.000000 0.000000 0.000000 -60.708740 0.000000 89.000000 0.981179 0.184791 -0.056033
-16800.00000000 6500.00000000 20.00000000 233 162 58 0.000000 0.000000 0.000000 0.000000 -60.708740 0.000000 89.000000 0.933019 0.359825 0.001263
-16800.00000000 6460.00000000 40.00000000 233 162 58 0.000000 0.000000 0.000000 0.000000 -60.708740 0.000000 89.000000 0.942960 0.295270 0.153758
-16800.00000000 6460.00000000 60.00000000 233 162 58 0.000000 0.000000 0.000000 0.000000 -60.708740 0.000000 89.000000 0.998543 0.032550 -0.043050
-16780.00000000 6470.00000000 30.00000000 233 162 58 0.000000 0.000000 0.000000 0.000000 -60.708740 0.000000 89.000000 0.936520 0.256178 0.239380
-16800.00000000 6460.00000000 30.00000000 233 162 58 0.000000 0.000000 0.000000 0.000000 -60.708740 0.000000 89.000000 0.935917 0.152550 -0.317470
-16790.00000000 6470.00000000 10.00000000 233 162 58 0.000000 0.000000 0.000000 0.000000 -60.708740 0.000000 89.000000 0.968268 0.242378 -0.060905
-16800.00000000 6490.00000000 10.00000000 233 162 58 0.000000 0.000000 0.000000 0.000000 -60.708740 0.000000 89.000000 0.948041 0.307296 -0.082382
-16790.00000000 6470.00000000 10.00000000 233 162 58 0.000000 0.000000 0.000000 0.000000 -60.708740 0.000000 89.000000 0.968268 0.242378 -0.060905
-16830.00000000 6530.00000000 50.00000000 233 162 58 0.000000 0.000000 0.000000 0.000000 -60.708740 0.000000 89.000000 0.985069 -0.151274 -0.082188
-16810.00000000 6510.00000000 40.00000000 233 162 58 0.000000 0.000000 0.000000 0.000000 -60.708740 0.000000 89.000000 0.927129 -0.374688 -0.006394
-16830.00000000 6520.00000000 40.00000000 233 162 58 0.000000 0.000000 0.000000 0.000000 -60.708740 0.000000 89.000000 0.980283 -0.024654 0.196057
-16810.00000000 6500.00000000 60.00000000 233 162 58 0.000000 0.000000 0.000000 0.000000 -60.708740 0.000000 89.000000 0.973670 0.222449 -0.049838
-16810.00000000 6500.00000000 30.00000000 233 162 58 0.000000 0.000000 0.000000 0.000000 -60.708740 0.000000 89.000000 0.905852 -0.011798 0.423430
-16830.00000000 6530.00000000 50.00000000 233 162 58 0.000000 0.000000 0.000000 0.000000 -60.708740 0.000000 89.000000 0.985069 -0.151274 -0.082188
-16820.00000000 6500.00000000 -10.00000000 233 162 58 0.000000 0.000000 0.000000 0.000000 -60.708740 0.000000 89.000000 0.921336 0.071078 0.382214
-16820.00000000 6530.00000000 10.00000000 233 162 58 0.000000 0.000000 0.000000 0.000000 -60.708740 0.000000 89.000000 0.874172 -0.352415 0.334107
-16810.00000000 6480.00000000 60.00000000 233 162 58 0.000000 0.000000 0.000000 0.000000 -60.708740 0.000000 89.000000 0.976450 0.173342 -0.128447
-16810.00000000 6460.00000000 40.00000000 233 162 58 0.000000 0.000000 0.000000 0.000000 -60.708740 0.000000 89.000000 0.899874 0.220945 0.376045
-16810.00000000 6490.00000000 50.00000000 233 162 58 0.000000 0.000000 0.000000 0.000000 -60.708740 0.000000 89.000000 0.940731 0.316269 -0.122470
-16810.00000000 6460.00000000 20.00000000 233 162 58 0.000000 0.000000 0.000000 0.000000 -60.708740 0.000000 89.000000 0.962965 0.198373 -0.182609
-16810.00000000 6460.00000000 10.00000000 233 162 58 0.000000 0.000000 0.000000 0.000000 -60.708740 0.000000 89.000000 0.958238 0.282573 0.043956
-16820.00000000 6480.00000000 -10.00000000 233 162 58 0.000000 0.000000 0.000000 0.000000 -60.708740 0.000000 89.000000 0.906102 0.145598 0.397215
-16810.00000000 6460.00000000 0.00000000 233 162 58 0.000000 0.000000 0.000000 0.000000 -60.708740 0.000000 89.000000 0.952830 0.297999 -0.057553
-16820.00000000 6470.00000000 0.00000000 233 162 58 0.000000 0.000000 0.000000 0.000000 -60.708740 0.000000 89.000000 0.934255 0.350180 0.067393
-16820.00000000 6490.00000000 0.00000000 233 162 58 0.000000 0.000000 0.000000 0.000000 -60.708740 0.000000 89.000000 0.965483 0.196745 0.170686
-16810.00000000 6470.00000000 -10.00000000 233 162 58 0.000000 0.000000 0.000000 0.000000 -60.708740 0.000000 89.000000 0.998557 0.009332 0.052883
-16820.00000000 6490.00000000 0.00000000 233 162 58 0.000000 0.000000 0.000000 0.000000 -60.708740 0.000000 89.000000 0.965483 0.196745 0.170686
-16790.00000000 6410.00000000 110.00000000 233 162 58 0.000000 0.000000 0.000000 0.000000 -60.708740 0.000000 89.000000 0.901842 0.403193 0.155293
-16800.00000000 6430.00000000 140.00000000 233 162 58 0.000000 0.000000 0.000000 0.000000 -60.708740 0.000000 89.000000 0.998796 0.030267 -0.038616
-16780.00000000 6410.00000000 130.00000000 233 162 58 0.000000 0.000000 0.000000 0.000000 -60.708740 0.000000 89.000000 0.722575 0.687961 -0.067786
-16800.00000000 6450.00000000 120.00000000 233 162 58 0.000000 0.000000 0.000000 0.000000 -60.708740 0.000000 89.000000 0.981238 0.126177 -0.145777
-16780.00000000 6420.00000000 140.00000000 233 162 58 0.000000 0.000000 0.000000 0.000000 -60.708740 0.000000 89.000000 0.861274 0.442029 0.250635
-16790.00000000 6450.00000000 140.00000000 233 162 58 0.000000 0.000000 0.000000 0.000000 -60.708740 0.000000 89.000000 0.985318 0.169010 0.024144
-16800.00000000 6450.00000000 110.00000000 233 162 58 0.000000 0.000000 0.000000 0.000000 -60.708740 0.000000 89.000000 0.966149 0.193750 -0.170344
-16770.00000000 6420.00000000 90.00000000 233 162 58 0.000000 0.000000 0.000000 0.000000 -60.708740 0.000000 89.000000 0.723181 0.678263 -0.130262
-16770.00000000 6410.00000000 100.00000000 233 162 58 0.000000 0.000000 0.000000 0.000000 -60.708740 0.000000 89.000000 0.694939 0.612795 0.376220
-16800.00000000 6440.00000000 90.00000000 233 162 58 0.000000 0.000000 0.000000 0.000000 -60.708740 0.000000 89.000000 0.939108 0.342768 0.024210
-16780.00000000 6420.00000000 100.00000000 233 162 58 0.000000 0.000000 0.000000 0.000000 -60.708740 0.000000 89.000000 0.949552 0.313190 0.016221
-16780.00000000 6420.00000000 70.00000000 233 162 58 0.000000 0.000000 0.000000 0.000000 -60.708740 0.000000 89.000000 0.798533 0.597101 -0.076256
-16800.00000000 6450.00000000 90.00000000 233 162 58 0.000000 0.000000 0.000000 0.000000 -60.708740 0.000000 89.000000 0.926786 0.367772 0.076229
-16800.00000000 6450.00000000 70.00000000 233 162 58 0.000000 0.000000 0.000000 0.000000 -60.708740 0.000000 89.000000 0.996168 -0.011770 -0.086670
-16790.00000000 6430.00000000 100.00000000 233 162 58 0.000000 0.000000 0.000000 0.000000 -60.708740 0.000000 89.000000 0.734766 0.662345 -0.146350
-16800.00000000 6450.00000000 70.00000000 233 162 58 0.000000 0.000000 0.000000 0.000000 -60.708740 0.000000 89.000000 0.996168 -0.011770 -0.086670
-16800.00000000 6440.00000000 90.00000000 233 162 58 0.000000 0.000000 0.000000 0.000000 -60.708740 0.000000 89.000000 0.939108 0.342768 0.024210
-16770.00000000 6410.00000000 70.00000000 233 162 58 0.000000 0.000000 0.000000 0.000000 -60.708740 0.000000 89.000000 0.521732 0.815884 0.249255
-16790.00000000 6440.00000000 80.00000000 233 162 58 0.000000 0.000000 0.000000 0.000000 -60.708740 0.000000 89.000000 0.759009 0.632256 0.155423
-16770.00000000 6400.00000000 110.00000000 233 162 58 0.000000 0.000000 0.000000 0.000000 -60.708740 0.000000 89.000000 0.683779 0.724601 -0.086019
-16770.00000000 6400.00000000 80.00000000 233 162 58 0.000000 0.000000 0.000000 0.000000 -60.708740 0.000000 89.000000 0.726032 0.686249 -0.044045
-16820.00000000 6410.00000000 90.00000000 233 162 58 0.000000 0.000000 0.000000 0.000000 -60.708740 0.000000 89.000000 0.832078 0.304419 0.463653
-16810.00000000 6410.00000000 70.00000000 233 162 58 0.000000 0.000000 0.000000 0.000000 -60.708740 0.000000 89.000000 0.797266 0.554822 -0.237781
-16790.00000000 6450.00000000 50.00000000 233 162 58 0.000000 0.000000 0.000000 0.000000 -60.708740 0.000000 89.000000 0.961860 0.193425 0.193425
-16780.00000000 6410.00000000 60.00000000 233 162 58 0.000000 0.000000 0.000000 0.000000 -60.708740 0.000000 89.000000 0.823837 0.524260 -0.215512
-16780.00000000 6410.00000000 50.00000000 233 162 58 0.000000 0.000000 0.000000 0.000000 -60.708740 0.000000 89.000000 0.792601 0.570981 -0.213925
-16780.00000000 6420.00000000 20.00000000 233 162 58 0.000000 0.000000 0.000000 0.000000 -60.708740 0.000000 89.000000 0.724238 0.505475 0.469014
-16770.00000000 6410.00000000 10.00000000 233 162 58 0.000000 0.000000 0.000000 0.000000 -60.708740 0.000000 89.000000 0.630276 0.737156 -0.243623
-16770.00000000 6410.00000000 10.00000000 233 162 58 0.000000 0.000000 0.000000 0.000000 -60.708740 0.000000 89.000000 0.630276 0.737156 -0.243623
-16800.00000000 6440.00000000 10.00000000 233 162 58 0.000000 0.000000 0.000000 0.000000 -60.708740 0.000000 89.000000 0.938875 0.240630 -0.246194
-16800.00000000 6440.00000000 0.00000000 233 162 58 0.000000 0.000000 0.000000 0.000000 -60.708740 0.000000 89.000000 0.969870 0.235981 0.060540
-16800.00000000 6450.00000000 20.00000000 233 162 58 0.000000 0.000000 0.000000 0.000000 -60.708740 0.000000 89.000000 0.949263 0.268710 -0.163387
-16800.00000000 6410.00000000 -10.00000000 233 162 58 0.000000 0.000000 0.000000 0.000000 -60.708740 0.000000 89.000000 0.950641 0.196638 0.240033
-16770.00000000 6390.00000000 50.00000000 233 162 58 0.000000 0.000000 0.000000 0.000000 -60.708740 0.000000 89.000000 0.435164 0.898797 -0.052870
-16810.00000000 6430.00000000 60.00000000 233 162 58 0.000000 0.000000 0.000000 0.000000 -60.708740 0.000000 89.000000 0.906217 0.210242 0.366837
-16810.00000000 6400.00000000 30.00000000 233 162 58 0.000000 0.000000 0.000000 0.000000 -60.708740 0.000000 89.000000 0.804727 0.556412 0.206930
-16820.00000000 6370.00000000 20.00000000 233 162 58 0.000000 0.000000 0.000000 0.000000 -60.708740 0.000000 89.000000 0.535430 0.736423 0.413517
-16840.00000000 6390.00000000 20.00000000 233 162 58 0.000000 0.000000 0.000000 0.000000 -60.708740 0.000000 89.000000 0.941286 0.139500 0.307442
-16880.00000000 6640.00000000 10.00000000 233 162 58 0.000000 0.000000 0.000000 0.000000 -60.708740 0.000000 89.000000 0.927860 -0.372926 -0.001273
-16860.00000000 6670.00000000 30.00000000 233 162 58 0.000000 0.000000 0.000000 0.000000 -60.708740 0.000000 89.000000 -0.529135 0.848511 -0.006766
-16870.00000000 6650.00000000 20.00000000 233 162 58 0.000000 0.000000 0.000000 0.000000 -60.708740 0.000000 89.000000 -0.710294 0.698626 0.086052
-16910.00000000 6610.00000000 40.00000000 233 162 58 0.000000 0.000000 0.000000 0.000000 -60.708740 0.000000 89.000000 0.842355 -0.474112 0.256235
-16900.00000000 6590.00000000 0.00000000 233 162 58 0.000000 0.000000 0.000000 0.000000 -60.708740 0.000000 89.000000 0.931323 -0.269928 0.244490
-16870.00000000 6400.00000000 140.00000000 233 162 58 0.000000 0.000000 0.000000 0.000000 -60.708740 0.000000 89.000000 0.824065 0.562186 -0.069740
-16870.00000000 6420.00000000 0.00000000 233 162 58 0.000000 0.000000 0.000000 0.000000 -60.708740 0.000000 89.000000 0.851056 0.464351 -0.245116
-16910.00000000 6380.00000000 20.00000000 233 162 58 0.000000 0.000000 0.000000 0.000000 -60.708740 0.000000 89.000000 0.786726 0.616849 0.023671
-16900.00000000 6380.00000000 20.00000000 233 162 58 0.000000 0.000000 0.000000 0.000000 -60.708740 0.000000 89.000000 0.683455 0.716501 0.139695
-16590.00000000 6350.00000000 330.00000000 233 162 58 0.000000 0.000000 0.000000 0.000000 -60.708740 0.000000 89.000000 -0.641280 0.767021 0.020957
-16580.00000000 6340.00000000 200.00000000 233 162 58 0.000000 0.000000 0.000000 0.000000 -60.708740 0.000000 89.000000 0.663774 -0.620521 -0.417562
-16570.00000000 6350.00000000 200.00000000 233 162 58 0.000000 0.000000 0.000000 0.000000 -60.708740 0.000000 89.000000 0.726709 -0.672544 -0.139925
-16590.00000000 6340.00000000 180.00000000 233 162 58 0.000000 0.000000 0.000000 0.000000 -60.708740 0.000000 89.000000 0.753113 -0.572495 -0.324145
-16590.00000000 6320.00000000 230.00000000 233 162 58 0.000000 0.000000 0.000000 0.000000 -60.708740 0.000000 89.000000 -0.607780 0.680647 0.409051
-16580.00000000 6290.00000000 160.00000000 233 162 58 0.000000 0.000000 0.000000 0.000000 -60.708740 0.000000 89.000000 -0.628876 0.777495 -0.004128
-16590.00000000 6280.00000000 210.00000000 233 162 58 0.000000 0.000000 0.000000 0.000000 -60.708740 0.000000 89.000000 -0.322089 0.910886 0.257963
-16640.00000000 6340.00000000 160.00000000 233 162 58 0.000000 0.000000 0.000000 0.000000 -60.708740 0.000000 89.000000 -0.370367 0.925245 0.082154
-16600.00000000 6300.00000000 200.00000000 233 162 58 0.000000 0.000000 0.000000 0.000000 -60.708740 0.000000 89.000000 -0.467856 0.877761 -0.103183
-16630.00000000 6310.00000000 150.00000000 233 162 58 0.000000 0.000000 0.000000 0.000000 -60.708740 0.000000 89.000000 0.537559 -0.775047 -0.332163
-16650.00000000 6310.00000000 210.00000000 233 162 58 0.000000 0.000000 0.000000 0.000000 -60.708740 0.000000 89.000000 -0.311577 0.937477 0.155102
-16670.00000000 6290.00000000 190.00000000 233 162 58 0.000000 0.000000 0.000000 0.000000 -60.708740 0.000000 89.000000 -0.373184 0.925655 -0.062419
-16650.00000000 6300.00000000 170.00000000 233 162 58 0.000000 0.000000 0.000000 0.000000 -60.708740 0.000000 89.000000 -0.213006 0.936949 -0.277047
-16660.00000000 6300.00000000 160.00000000 233 162 58 0.000000 0.000000 0.000000 0.000000 -60.708740 0.000000 89.000000 0.278915 0.959318 -0.043776
-16650.00000000 6300.00000000 170.00000000 233 162 58 0.000000 0.000000 0.000000 0.000000 -60.708740 0.000000 89.000000 -0.213006 0.936949 -0.277047
-16540.00000000 6350.00000000 110.00000000 233 162 58 0.000000 0.000000 0.000000 0.000000 -60.708740 0.000000 89.000000 0.735610 -0.603619 -0.307443
-16530.00000000 6360.00000000 110.00000000 233 162 58 0.000000 0.000000 0.000000 0.000000 -60.708740 0.000000 89.000000 0.649522 -0.691635 0.315852
-16590.00000000 6290.00000000 120.00000000 233 162 58 0.000000 0.000000 0.000000 0.000000 -60.708740 0.000000 89.000000 -0.620425 0.763717 0.178353
-16580.00000000 6290.00000000 120.00000000 233 162 58 0.000000 0.000000 0.000000 0.000000 -60.708740 0.000000 89.000000 -0.621660 0.782362 0.038061
-16640.00000000 6340.00000000 130.00000000 233 162 58 0.000000 0.000000 0.000000 0.000000 -60.708740 0.000000 89.000000 0.112491 0.977803 0.176771
