//X Y Z R G B PointSourceId ScanDirectionFlag NumberOfReturns ReturnNumber GpsTime Intensity Classification Nx Ny Nz
1420.00000000 740.00000000 590.00000000 92 197 111 97.000000 1.000000 4.000000 1.000000 -60.708740 114.000000 50.000000 0.974656 -0.174809 -0.139596
1420.00000000 750.00000000 570.00000000 92 197 111 97.000000 1.000000 4.000000 1.000000 -60.708740 114.000000 50.000000 0.842337 -0.497538 -0.207182
1400.00000000 780.00000000 490.00000000 92 197 111 97.000000 1.000000 4.000000 1.000000 -60.708740 114.000000 50.000000 0.861936 -0.499612 -0.086335
1420.00000000 760.00000000 560.00000000 92 197 111 97.000000 1.000000 4.000000 1.000000 -60.708740 114.000000 50.000000 0.926734 -0.334072 -0.171928
1420.00000000 720.00000000 610.00000000 92 197 111 97.000000 1.000000 4.000000 1.000000 -60.708740 114.000000 50.000000 0.878997 -0.476403 0.020130
1400.00000000 780.00000000 480.00000000 92 197 111 97.000000 1.000000 4.000000 1.000000 -60.708740 114.000000 50.000000 0.973389 -0.214518 0.080599
1400.00000000 780.00000000 460.00000000 92 197 111 97.000000 1.000000 4.000000 1.000000 -60.708740 114.000000 50.000000 0.884225 -0.249014 -0.395143
1390.00000000 790.00000000 430.00000000 92 197 111 97.000000 1.000000 4.000000 1.000000 -60.708740 114.000000 50.000000 0.977162 -0.175070 -0.120438
1390.00000000 780.00000000 420.00000000 92 197 111 97.000000 1.000000 4.000000 1.000000 -60.708740 114.000000 50.000000 0.893975 -0.403966 0.193962
1390.00000000 800.00000000 420.00000000 92 197 111 97.000000 1.000000 4.000000 1.000000 -60.708740 114.000000 50.000000 0.933345 -0.340014 -0.115144
1410.00000000 790.00000000 440.00000000 92 197 111 97.000000 1.000000 4.000000 1.000000 -60.708740 114.000000 50.000000 0.942141 -0.327985 -0.069256
1390.00000000 770.00000000 450.00000000 92 197 111 97.000000 1.000000 4.000000 1.000000 -60.708740 114.000000 50.000000 0.857124 -0.393814 -0.332039
1390.00000000 790.00000000 320.00000000 92 197 111 97.000000 1.000000 4.000000 1.000000 -60.708740 114.000000 50.000000 0.893982 -0.444950 0.053067
1380.00000000 790.00000000 350.00000000 92 197 111 97.000000 1.000000 4.000000 1.000000 -60.708740 114.000000 50.000000 0.961164 -0.260503 -0.091112
1370.00000000 760.00000000 390.00000000 92 197 111 97.000000 1.000000 4.000000 1.000000 -60.708740 114.000000 50.000000 0.793903 -0.391315 -0.465392
1390.00000000 820.00000000 310.00000000 92 197 111 97.000000 1.000000 4.000000 1.000000 -60.708740 114.000000 50.000000 0.904967 -0.403928 0.133704
1370.00000000 840.00000000 300.00000000 92 197 111 97.000000 1.000000 4.000000 1.000000 -60.708740 114.000000 50.000000 0.966005 -0.165118 -0.198922
1420.00000000 820.00000000 60.00000000 92 197 111 97.000000 1.000000 4.000000 1.000000 -60.708740 114.000000 50.000000 0.959217 -0.259002 -0.113232
1410.00000000 780.00000000 250.00000000 92 197 111 97.000000 1.000000 4.000000 1.000000 -60.708740 114.000000 50.000000 0.868719 -0.452922 -0.200474
1380.00000000 790.00000000 290.00000000 92 197 111 97.000000 1.000000 4.000000 1.000000 -60.708740 114.000000 50.000000 0.841113 -0.536791 0.066218
1360.00000000 770.00000000 250.00000000 92 197 111 97.000000 1.000000 4.000000 1.000000 -60.708740 114.000000 50.000000 -0.456922 0.851189 0.258260
1400.00000000 780.00000000 210.00000000 92 197 111 97.000000 1.000000 4.000000 1.000000 -60.708740 114.000000 50.000000 0.802268 -0.393899 -0.448563
1450.00000000 760.00000000 -10.00000000 92 197 111 97.000000 1.000000 4.000000 1.000000 -60.708740 114.000000 50.000000 0.890028 -0.448485 -0.081921
1020.00000000 870.00000000 370.00000000 92 197 111 97.000000 1.000000 4.000000 1.000000 -60.708740 114.000000 50.000000 0.953456 0.148019 -0.262701
1160.00000000 840.00000000 -10.00000000 92 197 111 97.000000 1.000000 4.000000 1.000000 -60.708740 114.000000 50.000000 0.045288 0.970640 0.236234
1070.00000000 690.00000000 180.00000000 92 197 111 97.000000 1.000000 4.000000 1.000000 -60.708740 114.000000 50.000000 0.414854 0.881751 0.224527
1050.00000000 750.00000000 0.00000000 92 197 111 97.000000 1.000000 4.000000 1.000000 -60.708740 114.000000 50.000000 0.377417 0.877608 0.295568
970.00000000 1160.00000000 290.00000000 92 197 111 97.000000 1.000000 4.000000 1.000000 -60.708740 114.000000 50.000000 -0.449707 0.851833 0.268596
970.00000000 1200.00000000 220.00000000 92 197 111 97.000000 1.000000 4.000000 1.000000 -60.708740 114.000000 50.000000 -0.405103 0.908371 0.103695
890.00000000 1010.00000000 190.00000000 92 197 111 97.000000 1.000000 4.000000 1.000000 -60.708740 114.000000 50.000000 0.916144 -0.324618 -0.235168
930.00000000 760.00000000 660.00000000 92 197 111 97.000000 1.000000 4.000000 1.000000 -60.708740 114.000000 50.000000 0.944451 0.173081 -0.279383
970.00000000 740.00000000 660.00000000 92 197 111 97.000000 1.000000 4.000000 1.000000 -60.708740 114.000000 50.000000 0.905004 0.330026 -0.268421
970.00000000 710.00000000 660.00000000 92 197 111 97.000000 1.000000 4.000000 1.000000 -60.708740 114.000000 50.000000 0.987712 0.155358 -0.017010
920.00000000 750.00000000 650.00000000 92 197 111 97.000000 1.000000 4.000000 1.000000 -60.708740 114.000000 50.000000 0.961613 0.051403 -0.269552
930.00000000 970.00000000 160.00000000 92 197 111 97.000000 1.000000 4.000000 1.000000 -60.708740 114.000000 50.000000 0.937233 0.029489 -0.347456
990.00000000 800.00000000 300.00000000 92 197 111 97.000000 1.000000 4.000000 1.000000 -60.708740 114.000000 50.000000 0.882899 0.411030 -0.227031
930.00000000 750.00000000 220.00000000 92 197 111 97.000000 1.000000 4.000000 1.000000 -60.708740 114.000000 50.000000 0.814147 0.525707 -0.246570
930.00000000 740.00000000 160.00000000 92 197 111 97.000000 1.000000 4.000000 1.000000 -60.708740 114.000000 50.000000 0.477491 0.759720 0.441392
970.00000000 720.00000000 190.00000000 92 197 111 97.000000 1.000000 4.000000 1.000000 -60.708740 114.000000 50.000000 0.589673 0.572776 0.569397
720.00000000 820.00000000 200.00000000 92 197 111 97.000000 1.000000 4.000000 1.000000 -60.708740 114.000000 50.000000 0.949347 0.202364 -0.240393
1350.00000000 1690.00000000 -1010.00000000 92 197 111 97.000000 1.000000 4.000000 1.000000 -60.708740 114.000000 50.000000 0.687196 0.722064 0.079907
1350.00000000 1850.00000000 -1070.00000000 92 197 111 97.000000 1.000000 4.000000 1.000000 -60.708740 114.000000 50.000000 0.488190 0.787871 0.375407
1350.00000000 1850.00000000 -1070.00000000 92 197 111 97.000000 1.000000 4.000000 1.000000 -60.708740 114.000000 50.000000 0.488190 0.787871 0.375407
1360.00000000 1790.00000000 -1070.00000000 92 197 111 97.000000 1.000000 4.000000 1.000000 -60.708740 114.000000 50.000000 0.453514 0.885968 0.096881
1320.00000000 1750.00000000 -1010.00000000 92 197 111 97.000000 1.000000 4.000000 1.000000 -60.708740 114.000000 50.000000 0.490023 0.826038 0.278457
1320.00000000 1790.00000000 -1060.00000000 92 197 111 97.000000 1.000000 4.000000 1.000000 -60.708740 114.000000 50.000000 0.449323 0.807502 0.382164
1330.00000000 1750.00000000 -1070.00000000 92 197 111 97.000000 1.000000 4.000000 1.000000 -60.708740 114.000000 50.000000 0.265189 0.943964 0.196487
1290.00000000 1760.00000000 -1070.00000000 92 197 111 97.000000 1.000000 4.000000 1.000000 -60.708740 114.000000 50.000000 0.214073 0.976783 0.008189
1710.00000000 1140.00000000 -690.00000000 92 197 111 97.000000 1.000000 4.000000 1.000000 -60.708740 114.000000 50.000000 0.953922 0.128336 0.271226
1710.00000000 1390.00000000 -710.00000000 92 197 111 97.000000 1.000000 4.000000 1.000000 -60.708740 114.000000 50.000000 0.858302 0.198529 0.473185
1720.00000000 1360.00000000 -960.00000000 92 197 111 97.000000 1.000000 4.000000 1.000000 -60.708740 114.000000 50.000000 0.982432 0.163135 0.090630
1720.00000000 1280.00000000 -750.00000000 92 197 111 97.000000 1.000000 4.000000 1.000000 -60.708740 114.000000 50.000000 0.981329 0.145427 -0.125874
1720.00000000 1310.00000000 -720.00000000 92 197 111 97.000000 1.000000 4.000000 1.000000 -60.708740 114.000000 50.000000 0.963566 0.263017 -0.048615
1690.00000000 1150.00000000 -750.00000000 92 197 111 97.000000 1.000000 4.000000 1.000000 -60.708740 114.000000 50.000000 0.874912 -0.469569 0.118463
1680.00000000 1060.00000000 -910.00000000 92 197 111 97.000000 1.000000 4.000000 1.000000 -60.708740 114.000000 50.000000 0.832949 -0.548180 0.075464
1680.00000000 900.00000000 -180.00000000 92 197 111 97.000000 1.000000 4.000000 1.000000 -60.708740 114.000000 50.000000 0.936992 -0.175255 -0.302211
1680.00000000 910.00000000 -330.00000000 92 197 111 97.000000 1.000000 4.000000 1.000000 -60.708740 114.000000 50.000000 0.737677 -0.663164 0.126672
1540.00000000 1390.00000000 -100.00000000 92 197 111 97.000000 1.000000 4.000000 1.000000 -60.708740 114.000000 50.000000 0.799433 0.435908 0.413389
1460.00000000 1480.00000000 -20.00000000 92 197 111 97.000000 1.000000 4.000000 1.000000 -60.708740 114.000000 50.000000 0.326126 0.857820 0.397225
1430.00000000 1400.00000000 -60.00000000 92 197 111 97.000000 1.000000 4.000000 1.000000 -60.708740 114.000000 50.000000 0.604488 0.614590 0.506827
1490.00000000 1480.00000000 -170.00000000 92 197 111 97.000000 1.000000 4.000000 1.000000 -60.708740 114.000000 50.000000 0.743143 0.613212 0.267785
1470.00000000 1470.00000000 -160.00000000 92 197 111 97.000000 1.000000 4.000000 1.000000 -60.708740 114.000000 50.000000 0.733995 0.629815 0.254136
1420.00000000 1380.00000000 -70.00000000 92 197 111 97.000000 1.000000 4.000000 1.000000 -60.708740 114.000000 50.000000 0.234399 0.834952 0.497907
1420.00000000 1370.00000000 -70.00000000 92 197 111 97.000000 1.000000 4.000000 1.000000 -60.708740 114.000000 50.000000 0.308279 0.916154 0.256176
1390.00000000 1380.00000000 -140.00000000 92 197 111 97.000000 1.000000 4.000000 1.000000 -60.708740 114.000000 50.000000 0.489219 0.804741 0.336238
1470.00000000 1470.00000000 -220.00000000 92 197 111 97.000000 1.000000 4.000000 1.000000 -60.708740 114.000000 50.000000 0.601885 0.605257 0.520959
1480.00000000 1480.00000000 -210.00000000 92 197 111 97.000000 1.000000 4.000000 1.000000 -60.708740 114.000000 50.000000 0.659600 0.629694 0.410381
1470.00000000 1450.00000000 -210.00000000 92 197 111 97.000000 1.000000 4.000000 1.000000 -60.708740 114.000000 50.000000 0.549323 0.736257 0.395184
1400.00000000 1390.00000000 -230.00000000 92 197 111 97.000000 1.000000 4.000000 1.000000 -60.708740 114.000000 50.000000 0.864460 0.487607 0.122261
1390.00000000 1380.00000000 -220.00000000 92 197 111 97.000000 1.000000 4.000000 1.000000 -60.708740 114.000000 50.000000 0.792734 0.578895 0.190928
1390.00000000 1370.00000000 -220.00000000 92 197 111 97.000000 1.000000 4.000000 1.000000 -60.708740 114.000000 50.000000 0.751113 0.627218 0.205975
1520.00000000 1440.00000000 -690.00000000 92 197 111 97.000000 1.000000 4.000000 1.000000 -60.708740 114.000000 50.000000 0.896019 0.406755 -0.178046
1540.00000000 1430.00000000 -650.00000000 92 197 111 97.000000 1.000000 4.000000 1.000000 -60.708740 114.000000 50.000000 0.807852 0.588914 0.023557
1570.00000000 1370.00000000 -580.00000000 92 197 111 97.000000 1.000000 4.000000 1.000000 -60.708740 114.000000 50.000000 0.858222 0.512757 0.023122
1410.00000000 1530.00000000 -380.00000000 92 197 111 97.000000 1.000000 4.000000 1.000000 -60.708740 114.000000 50.000000 0.747327 0.664444 0.004144
1500.00000000 1480.00000000 -370.00000000 92 197 111 97.000000 1.000000 4.000000 1.000000 -60.708740 114.000000 50.000000 0.882679 0.464203 0.073441
1390.00000000 1360.00000000 -530.00000000 92 197 111 97.000000 1.000000 4.000000 1.000000 -60.708740 114.000000 50.000000 0.588354 0.734227 0.338749
1640.00000000 1060.00000000 -260.00000000 92 197 111 97.000000 1.000000 4.000000 1.000000 -60.708740 114.000000 50.000000 0.870357 -0.480050 0.109685
1620.00000000 980.00000000 -280.00000000 92 197 111 97.000000 1.000000 4.000000 1.000000 -60.708740 114.000000 50.000000 0.818308 -0.568946 -0.081687
1610.00000000 990.00000000 -350.00000000 92 197 111 97.000000 1.000000 4.000000 1.000000 -60.708740 114.000000 50.000000 0.812019 -0.572071 -0.115585
1350.00000000 1220.00000000 -110.00000000 92 197 111 97.000000 1.000000 4.000000 1.000000 -60.708740 114.000000 50.000000 0.381278 0.886657 0.261661
1440.00000000 1150.00000000 -270.00000000 92 197 111 97.000000 1.000000 4.000000 1.000000 -60.708740 114.000000 50.000000 0.998208 0.022042 -0.055631
1390.00000000 1080.00000000 -180.00000000 92 197 111 97.000000 1.000000 4.000000 1.000000 -60.708740 114.000000 50.000000 0.910220 -0.410070 -0.057813
1400.00000000 1110.00000000 -270.00000000 92 197 111 97.000000 1.000000 4.000000 1.000000 -60.708740 114.000000 50.000000 0.988872 -0.026113 0.146458
1360.00000000 1100.00000000 -270.00000000 92 197 111 97.000000 1.000000 4.000000 1.000000 -60.708740 114.000000 50.000000 0.989074 -0.085245 0.120277
1590.00000000 1310.00000000 -440.00000000 92 197 111 97.000000 1.000000 4.000000 1.000000 -60.708740 114.000000 50.000000 0.963363 0.241163 0.117357
1670.00000000 1250.00000000 -570.00000000 92 197 111 97.000000 1.000000 4.000000 1.000000 -60.708740 114.000000 50.000000 0.997677 0.045981 0.050258
1650.00000000 1020.00000000 -360.00000000 92 197 111 97.000000 1.000000 4.000000 1.000000 -60.708740 114.000000 50.000000 0.868952 -0.492818 0.045301
1570.00000000 990.00000000 -400.00000000 92 197 111 97.000000 1.000000 4.000000 1.000000 -60.708740 114.000000 50.000000 0.703784 -0.655908 -0.272896
1570.00000000 1020.00000000 -610.00000000 92 197 111 97.000000 1.000000 4.000000 1.000000 -60.708740 114.000000 50.000000 0.768823 -0.590318 -0.245836
1360.00000000 1250.00000000 -560.00000000 92 197 111 97.000000 1.000000 4.000000 1.000000 -60.708740 114.000000 50.000000 0.907660 0.399819 -0.127662
1460.00000000 980.00000000 -430.00000000 92 197 111 97.000000 1.000000 4.000000 1.000000 -60.708740 114.000000 50.000000 0.739979 -0.662867 -0.114185
1330.00000000 1430.00000000 -340.00000000 92 197 111 97.000000 1.000000 4.000000 1.000000 -60.708740 114.000000 50.000000 0.705447 0.683930 0.185968
1270.00000000 1190.00000000 -30.00000000 92 197 111 97.000000 1.000000 4.000000 1.000000 -60.708740 114.000000 50.000000 0.287423 0.895032 0.341036
1280.00000000 1010.00000000 -290.00000000 92 197 111 97.000000 1.000000 4.000000 1.000000 -60.708740 114.000000 50.000000 0.757890 -0.652203 0.015297
1260.00000000 1220.00000000 -380.00000000 92 197 111 97.000000 1.000000 4.000000 1.000000 -60.708740 114.000000 50.000000 0.502857 0.860633 0.080288
1240.00000000 1230.00000000 -400.00000000 92 197 111 97.000000 1.000000 4.000000 1.000000 -60.708740 114.000000 50.000000 0.529317 0.785180 0.321428
1230.00000000 1270.00000000 -430.00000000 92 197 111 97.000000 1.000000 4.000000 1.000000 -60.708740 114.000000 50.000000 0.466976 0.832436 0.298302
1250.00000000 1280.00000000 -480.00000000 92 197 111 97.000000 1.000000 4.000000 1.000000 -60.708740 114.000000 50.000000 0.477514 0.774126 0.415583
1240.00000000 1260.00000000 -560.00000000 92 197 111 97.000000 1.000000 4.000000 1.000000 -60.708740 114.000000 50.000000 0.575408 0.786340 0.224890
1240.00000000 1270.00000000 -570.00000000 92 197 111 97.000000 1.000000 4.000000 1.000000 -60.708740 114.000000 50.000000 0.583980 0.715581 0.383288
1240.00000000 1300.00000000 -690.00000000 92 197 111 97.000000 1.000000 4.000000 1.000000 -60.708740 114.000000 50.000000 0.372335 0.860541 0.347615
1260.00000000 1140.00000000 -520.00000000 92 197 111 97.000000 1.000000 4.000000 1.000000 -60.708740 114.000000 50.000000 -0.720987 0.435907 0.538668
1310.00000000 1140.00000000 -690.00000000 92 197 111 97.000000 1.000000 4.000000 1.000000 -60.708740 114.000000 50.000000 0.675209 -0.608850 -0.416407
1280.00000000 1090.00000000 -660.00000000 92 197 111 97.000000 1.000000 4.000000 1.000000 -60.708740 114.000000 50.000000 0.741736 -0.632427 -0.223302
1300.00000000 1020.00000000 -670.00000000 92 197 111 97.000000 1.000000 4.000000 1.000000 -60.708740 114.000000 50.000000 -0.663294 0.740112 -0.110795
1300.00000000 1020.00000000 -670.00000000 92 197 111 97.000000 1.000000 4.000000 1.000000 -60.708740 114.000000 50.000000 -0.663294 0.740112 -0.110795
1620.00000000 1360.00000000 -700.00000000 92 197 111 97.000000 1.000000 4.000000 1.000000 -60.708740 114.000000 50.000000 0.799341 0.506938 0.322597
1560.00000000 1470.00000000 -700.00000000 92 197 111 97.000000 1.000000 4.000000 1.000000 -60.708740 114.000000 50.000000 0.685050 0.595479 0.419655
1560.00000000 1450.00000000 -760.00000000 92 197 111 97.000000 1.000000 4.000000 1.000000 -60.708740 114.000000 50.000000 0.768654 0.636967 -0.058687
1520.00000000 1460.00000000 -770.00000000 92 197 111 97.000000 1.000000 4.000000 1.000000 -60.708740 114.000000 50.000000 0.936644 0.316786 -0.149479
1530.00000000 1470.00000000 -800.00000000 92 197 111 97.000000 1.000000 4.000000 1.000000 -60.708740 114.000000 50.000000 0.774572 0.611504 -0.161558
1590.00000000 1380.00000000 -720.00000000 92 197 111 97.000000 1.000000 4.000000 1.000000 -60.708740 114.000000 50.000000 0.836707 0.545191 0.051856
1580.00000000 1360.00000000 -850.00000000 92 197 111 97.000000 1.000000 4.000000 1.000000 -60.708740 114.000000 50.000000 0.908837 0.325314 -0.261126
1570.00000000 1350.00000000 -820.00000000 92 197 111 97.000000 1.000000 4.000000 1.000000 -60.708740 114.000000 50.000000 0.940106 0.316965 -0.125437
1520.00000000 1460.00000000 -920.00000000 92 197 111 97.000000 1.000000 4.000000 1.000000 -60.708740 114.000000 50.000000 0.872173 0.228889 0.432347
1530.00000000 1420.00000000 -870.00000000 92 197 111 97.000000 1.000000 4.000000 1.000000 -60.708740 114.000000 50.000000 0.732538 0.641947 0.226478
1530.00000000 1420.00000000 -900.00000000 92 197 111 97.000000 1.000000 4.000000 1.000000 -60.708740 114.000000 50.000000 0.898474 0.304442 -0.316322
1520.00000000 1460.00000000 -890.00000000 92 197 111 97.000000 1.000000 4.000000 1.000000 -60.708740 114.000000 50.000000 0.720170 0.627142 0.296729
1510.00000000 1410.00000000 -1010.00000000 92 197 111 97.000000 1.000000 4.000000 1.000000 -60.708740 114.000000 50.000000 0.770285 0.620132 0.148651
1400.00000000 1630.00000000 -1030.00000000 92 197 111 97.000000 1.000000 4.000000 1.000000 -60.708740 114.000000 50.000000 0.720323 0.606502 0.336584
1490.00000000 1450.00000000 -830.00000000 92 197 111 97.000000 1.000000 4.000000 1.000000 -60.708740 114.000000 50.000000 0.691356 0.722208 0.021035
1490.00000000 1450.00000000 -830.00000000 92 197 111 97.000000 1.000000 4.000000 1.000000 -60.708740 114.000000 50.000000 0.691356 0.722208 0.021035
1500.00000000 1420.00000000 -810.00000000 92 197 111 97.000000 1.000000 4.000000 1.000000 -60.708740 114.000000 50.000000 0.900371 0.431907 -0.052804
1350.00000000 1360.00000000 -790.00000000 92 197 111 97.000000 1.000000 4.000000 1.000000 -60.708740 114.000000 50.000000 0.853842 0.446082 0.268263
1480.00000000 1480.00000000 -900.00000000 92 197 111 97.000000 1.000000 4.000000 1.000000 -60.708740 114.000000 50.000000 0.920203 0.391439 0.001283
1490.00000000 1480.00000000 -920.00000000 92 197 111 97.000000 1.000000 4.000000 1.000000 -60.708740 114.000000 50.000000 0.867451 0.339304 0.363869
1500.00000000 1430.00000000 -880.00000000 92 197 111 97.000000 1.000000 4.000000 1.000000 -60.708740 114.000000 50.000000 0.782530 0.471462 0.406657
1480.00000000 1480.00000000 -980.00000000 92 197 111 97.000000 1.000000 4.000000 1.000000 -60.708740 114.000000 50.000000 0.876642 0.464778 -0.124417
1480.00000000 1480.00000000 -1020.00000000 92 197 111 97.000000 1.000000 4.000000 1.000000 -60.708740 114.000000 50.000000 0.925661 0.346601 0.151725
1350.00000000 1370.00000000 -950.00000000 92 197 111 97.000000 1.000000 4.000000 1.000000 -60.708740 114.000000 50.000000 0.720097 0.497250 0.483945
1360.00000000 1380.00000000 -1000.00000000 92 197 111 97.000000 1.000000 4.000000 1.000000 -60.708740 114.000000 50.000000 0.822554 0.456273 0.339442
1620.00000000 1510.00000000 -1150.00000000 92 197 111 97.000000 1.000000 4.000000 1.000000 -60.708740 114.000000 50.000000 0.924521 0.079398 0.372769
1510.00000000 1520.00000000 -1130.00000000 92 197 111 97.000000 1.000000 4.000000 1.000000 -60.708740 114.000000 50.000000 0.772040 0.580209 0.259443
1590.00000000 1450.00000000 -1180.00000000 92 197 111 97.000000 1.000000 4.000000 1.000000 -60.708740 114.000000 50.000000 0.905815 0.292151 -0.306832
1570.00000000 1320.00000000 -1040.00000000 92 197 111 97.000000 1.000000 4.000000 1.000000 -60.708740 114.000000 50.000000 0.973963 0.207729 -0.090804
1450.00000000 1630.00000000 -1060.00000000 92 197 111 97.000000 1.000000 4.000000 1.000000 -60.708740 114.000000 50.000000 0.751271 0.631436 0.192043
1430.00000000 1610.00000000 -1050.00000000 92 197 111 97.000000 1.000000 4.000000 1.000000 -60.708740 114.000000 50.000000 0.788868 0.506097 0.348644
1440.00000000 1610.00000000 -1110.00000000 92 197 111 97.000000 1.000000 4.000000 1.000000 -60.708740 114.000000 50.000000 0.815214 0.438716 0.378093
1460.00000000 1580.00000000 -1150.00000000 92 197 111 97.000000 1.000000 4.000000 1.000000 -60.708740 114.000000 50.000000 0.749684 0.472877 0.462992
1470.00000000 1560.00000000 -1110.00000000 92 197 111 97.000000 1.000000 4.000000 1.000000 -60.708740 114.000000 50.000000 0.673869 0.583574 0.453147
1470.00000000 1550.00000000 -1100.00000000 92 197 111 97.000000 1.000000 4.000000 1.000000 -60.708740 114.000000 50.000000 0.847120 0.418120 0.327968
1500.00000000 1510.00000000 -1070.00000000 92 197 111 97.000000 1.000000 4.000000 1.000000 -60.708740 114.000000 50.000000 0.906323 0.406379 -0.115909
1470.00000000 1550.00000000 -1120.00000000 92 197 111 97.000000 1.000000 4.000000 1.000000 -60.708740 114.000000 50.000000 0.780068 0.475177 0.407063
1390.00000000 1630.00000000 -1060.00000000 92 197 111 97.000000 1.000000 4.000000 1.000000 -60.708740 114.000000 50.000000 0.653579 0.756703 -0.015329
1390.00000000 1630.00000000 -1080.00000000 92 197 111 97.000000 1.000000 4.000000 1.000000 -60.708740 114.000000 50.000000 0.588628 0.780203 0.211659
1400.00000000 1590.00000000 -1110.00000000 92 197 111 97.000000 1.000000 4.000000 1.000000 -60.708740 114.000000 50.000000 0.516328 0.851012 0.095828
1500.00000000 1440.00000000 -1060.00000000 92 197 111 97.000000 1.000000 4.000000 1.000000 -60.708740 114.000000 50.000000 0.910719 0.338433 0.236758
1480.00000000 1460.00000000 -1040.00000000 92 197 111 97.000000 1.000000 4.000000 1.000000 -60.708740 114.000000 50.000000 0.948513 0.311893 0.055191
1350.00000000 1440.00000000 -1060.00000000 92 197 111 97.000000 1.000000 4.000000 1.000000 -60.708740 114.000000 50.000000 0.908619 0.402130 -0.112708
1360.00000000 1380.00000000 -1070.00000000 92 197 111 97.000000 1.000000 4.000000 1.000000 -60.708740 114.000000 50.000000 0.939107 0.221212 -0.262950
1660.00000000 990.00000000 -720.00000000 92 197 111 97.000000 1.000000 4.000000 1.000000 -60.708740 114.000000 50.000000 0.983781 -0.048190 -0.172779
1530.00000000 990.00000000 -700.00000000 92 197 111 97.000000 1.000000 4.000000 1.000000 -60.708740 114.000000 50.000000 0.817540 -0.520815 0.245726
1520.00000000 1020.00000000 -840.00000000 92 197 111 97.000000 1.000000 4.000000 1.000000 -60.708740 114.000000 50.000000 -0.551481 0.701430 0.451514
1350.00000000 1280.00000000 -730.00000000 92 197 111 97.000000 1.000000 4.000000 1.000000 -60.708740 114.000000 50.000000 0.957711 0.091764 -0.272708
1440.00000000 1000.00000000 -760.00000000 92 197 111 97.000000 1.000000 4.000000 1.000000 -60.708740 114.000000 50.000000 -0.440143 0.897572 -0.025265
1490.00000000 980.00000000 -820.00000000 92 197 111 97.000000 1.000000 4.000000 1.000000 -60.708740 114.000000 50.000000 -0.427375 0.778374 0.459875
1490.00000000 990.00000000 -850.00000000 92 197 111 97.000000 1.000000 4.000000 1.000000 -60.708740 114.000000 50.000000 0.774477 -0.615687 0.145308
1360.00000000 1080.00000000 -860.00000000 92 197 111 97.000000 1.000000 4.000000 1.000000 -60.708740 114.000000 50.000000 -0.501670 0.859803 -0.095218
1390.00000000 1060.00000000 -770.00000000 92 197 111 97.000000 1.000000 4.000000 1.000000 -60.708740 114.000000 50.000000 -0.561079 0.817320 -0.131066
1440.00000000 1020.00000000 -910.00000000 92 197 111 97.000000 1.000000 4.000000 1.000000 -60.708740 114.000000 50.000000 0.763344 -0.627839 0.152067
1500.00000000 1010.00000000 -990.00000000 92 197 111 97.000000 1.000000 4.000000 1.000000 -60.708740 114.000000 50.000000 -0.634058 0.768157 -0.088914
1410.00000000 1060.00000000 -910.00000000 92 197 111 97.000000 1.000000 4.000000 1.000000 -60.708740 114.000000 50.000000 -0.499933 0.856408 0.128968
1580.00000000 1240.00000000 -1070.00000000 92 197 111 97.000000 1.000000 4.000000 1.000000 -60.708740 114.000000 50.000000 0.919835 -0.335134 0.203932
1650.00000000 1040.00000000 -1080.00000000 92 197 111 97.000000 1.000000 4.000000 1.000000 -60.708740 114.000000 50.000000 0.724545 -0.666336 0.176158
1520.00000000 1000.00000000 -1040.00000000 92 197 111 97.000000 1.000000 4.000000 1.000000 -60.708740 114.000000 50.000000 0.842969 -0.514077 0.158520
1520.00000000 980.00000000 -1230.00000000 92 197 111 97.000000 1.000000 4.000000 1.000000 -60.708740 114.000000 50.000000 0.615155 -0.661833 -0.428441
1450.00000000 1270.00000000 -1160.00000000 92 197 111 97.000000 1.000000 4.000000 1.000000 -60.708740 114.000000 50.000000 0.984498 -0.131026 -0.116601
1360.00000000 1310.00000000 -1210.00000000 92 197 111 97.000000 1.000000 4.000000 1.000000 -60.708740 114.000000 50.000000 0.959745 -0.231025 -0.159738
1430.00000000 1110.00000000 -1060.00000000 92 197 111 97.000000 1.000000 4.000000 1.000000 -60.708740 114.000000 50.000000 -0.589620 0.805577 -0.058252
1500.00000000 1020.00000000 -1170.00000000 92 197 111 97.000000 1.000000 4.000000 1.000000 -60.708740 114.000000 50.000000 -0.567845 0.743567 0.353072
1390.00000000 1110.00000000 -1160.00000000 92 197 111 97.000000 1.000000 4.000000 1.000000 -60.708740 114.000000 50.000000 -0.589702 0.806442 0.043629
1390.00000000 1090.00000000 -1190.00000000 92 197 111 97.000000 1.000000 4.000000 1.000000 -60.708740 114.000000 50.000000 -0.562432 0.816339 0.131382
1350.00000000 1080.00000000 -1170.00000000 92 197 111 97.000000 1.000000 4.000000 1.000000 -60.708740 114.000000 50.000000 0.633405 -0.757365 -0.158729
1490.00000000 1080.00000000 -1220.00000000 92 197 111 97.000000 1.000000 4.000000 1.000000 -60.708740 114.000000 50.000000 -0.604567 0.687385 0.402493
1450.00000000 1090.00000000 -1220.00000000 92 197 111 97.000000 1.000000 4.000000 1.000000 -60.708740 114.000000 50.000000 -0.666723 0.741929 0.070866
1490.00000000 1000.00000000 -1210.00000000 92 197 111 97.000000 1.000000 4.000000 1.000000 -60.708740 114.000000 50.000000 0.730384 -0.659949 0.176088
1340.00000000 1400.00000000 -820.00000000 92 197 111 97.000000 1.000000 4.000000 1.000000 -60.708740 114.000000 50.000000 0.738908 0.569269 0.360483
1240.00000000 1320.00000000 -780.00000000 92 197 111 97.000000 1.000000 4.000000 1.000000 -60.708740 114.000000 50.000000 0.317755 0.942630 0.102373
1200.00000000 1320.00000000 -870.00000000 92 197 111 97.000000 1.000000 4.000000 1.000000 -60.708740 114.000000 50.000000 0.366361 0.857934 0.360178
1330.00000000 1370.00000000 -1110.00000000 92 197 111 97.000000 1.000000 4.000000 1.000000 -60.708740 114.000000 50.000000 0.908327 0.326179 -0.261820
1250.00000000 1290.00000000 -720.00000000 92 197 111 97.000000 1.000000 4.000000 1.000000 -60.708740 114.000000 50.000000 0.399707 0.829431 0.390228
1210.00000000 1310.00000000 -730.00000000 92 197 111 97.000000 1.000000 4.000000 1.000000 -60.708740 114.000000 50.000000 0.096678 0.829703 0.549769
1210.00000000 1300.00000000 -760.00000000 92 197 111 97.000000 1.000000 4.000000 1.000000 -60.708740 114.000000 50.000000 0.150246 0.988462 -0.019204
1210.00000000 1280.00000000 -770.00000000 92 197 111 97.000000 1.000000 4.000000 1.000000 -60.708740 114.000000 50.000000 0.564083 0.693872 0.447606
1340.00000000 1030.00000000 -720.00000000 92 197 111 97.000000 1.000000 4.000000 1.000000 -60.708740 114.000000 50.000000 -0.241081 0.968070 0.068702
1280.00000000 1020.00000000 -740.00000000 92 197 111 97.000000 1.000000 4.000000 1.000000 -60.708740 114.000000 50.000000 -0.533511 0.843201 0.066161
1310.00000000 1090.00000000 -990.00000000 92 197 111 97.000000 1.000000 4.000000 1.000000 -60.708740 114.000000 50.000000 -0.315667 0.921290 0.227109
1340.00000000 1050.00000000 -990.00000000 92 197 111 97.000000 1.000000 4.000000 1.000000 -60.708740 114.000000 50.000000 -0.648643 0.760720 -0.023816
1300.00000000 1050.00000000 -950.00000000 92 197 111 97.000000 1.000000 4.000000 1.000000 -60.708740 114.000000 50.000000 -0.080433 0.912027 0.402165
1200.00000000 1290.00000000 -1200.00000000 92 197 111 97.000000 1.000000 4.000000 1.000000 -60.708740 114.000000 50.000000 0.310014 0.906535 0.286506
1290.00000000 1100.00000000 -1190.00000000 92 197 111 97.000000 1.000000 4.000000 1.000000 -60.708740 114.000000 50.000000 -0.196552 0.961655 0.191276
1340.00000000 1110.00000000 -1180.00000000 92 197 111 97.000000 1.000000 4.000000 1.000000 -60.708740 114.000000 50.000000 0.718104 -0.691991 0.073987
1330.00000000 1060.00000000 -1070.00000000 92 197 111 97.000000 1.000000 4.000000 1.000000 -60.708740 114.000000 50.000000 -0.446283 0.885436 0.129750
1330.00000000 1050.00000000 -1040.00000000 92 197 111 97.000000 1.000000 4.000000 1.000000 -60.708740 114.000000 50.000000 -0.576668 0.814703 0.060926
1630.00000000 930.00000000 -190.00000000 92 197 111 97.000000 1.000000 4.000000 1.000000 -60.708740 114.000000 50.000000 0.894962 -0.409167 -0.177836
1400.00000000 820.00000000 -130.00000000 92 197 111 97.000000 1.000000 4.000000 1.000000 -60.708740 114.000000 50.000000 0.812624 -0.561204 -0.157137
1370.00000000 810.00000000 -160.00000000 92 197 111 97.000000 1.000000 4.000000 1.000000 -60.708740 114.000000 50.000000 -0.313341 0.925844 0.211257
1440.00000000 830.00000000 -270.00000000 92 197 111 97.000000 1.000000 4.000000 1.000000 -60.708740 114.000000 50.000000 -0.517443 0.849983 0.098902
1380.00000000 870.00000000 -300.00000000 92 197 111 97.000000 1.000000 4.000000 1.000000 -60.708740 114.000000 50.000000 -0.454719 0.882355 0.121163
1350.00000000 870.00000000 -290.00000000 92 197 111 97.000000 1.000000 4.000000 1.000000 -60.708740 114.000000 50.000000 -0.337327 0.928691 0.154088
1350.00000000 860.00000000 -330.00000000 92 197 111 97.000000 1.000000 4.000000 1.000000 -60.708740 114.000000 50.000000 -0.451175 0.868103 0.206975
1460.00000000 760.00000000 -70.00000000 92 197 111 97.000000 1.000000 4.000000 1.000000 -60.708740 114.000000 50.000000 0.899841 -0.421232 -0.113355
1460.00000000 760.00000000 -70.00000000 92 197 111 97.000000 1.000000 4.000000 1.000000 -60.708740 114.000000 50.000000 0.899841 -0.421232 -0.113355
1640.00000000 920.00000000 -420.00000000 92 197 111 97.000000 1.000000 4.000000 1.000000 -60.708740 114.000000 50.000000 0.735225 -0.670654 -0.098323
1660.00000000 940.00000000 -500.00000000 92 197 111 97.000000 1.000000 4.000000 1.000000 -60.708740 114.000000 50.000000 0.907858 -0.407638 -0.098109
1660.00000000 960.00000000 -660.00000000 92 197 111 97.000000 1.000000 4.000000 1.000000 -60.708740 114.000000 50.000000 0.844710 -0.524153 -0.108296
1430.00000000 890.00000000 -390.00000000 92 197 111 97.000000 1.000000 4.000000 1.000000 -60.708740 114.000000 50.000000 0.883001 -0.403530 -0.239735
1350.00000000 950.00000000 -600.00000000 92 197 111 97.000000 1.000000 4.000000 1.000000 -60.708740 114.000000 50.000000 -0.410261 0.896817 -0.165544
1180.00000000 930.00000000 -20.00000000 92 197 111 97.000000 1.000000 4.000000 1.000000 -60.708740 114.000000 50.000000 0.263092 0.844664 0.466181
1180.00000000 900.00000000 -180.00000000 92 197 111 97.000000 1.000000 4.000000 1.000000 -60.708740 114.000000 50.000000 0.327697 0.784875 0.525914
1230.00000000 890.00000000 -90.00000000 92 197 111 97.000000 1.000000 4.000000 1.000000 -60.708740 114.000000 50.000000 -0.015015 0.982879 0.183640
1270.00000000 900.00000000 -210.00000000 92 197 111 97.000000 1.000000 4.000000 1.000000 -60.708740 114.000000 50.000000 -0.512508 0.848340 0.132872
1300.00000000 910.00000000 -290.00000000 92 197 111 97.000000 1.000000 4.000000 1.000000 -60.708740 114.000000 50.000000 -0.427317 0.868225 0.252163
1190.00000000 720.00000000 -30.00000000 92 197 111 97.000000 1.000000 4.000000 1.000000 -60.708740 114.000000 50.000000 0.186435 0.813948 0.550210
1160.00000000 850.00000000 -20.00000000 92 197 111 97.000000 1.000000 4.000000 1.000000 -60.708740 114.000000 50.000000 0.341850 0.812489 0.472229
1140.00000000 860.00000000 -130.00000000 92 197 111 97.000000 1.000000 4.000000 1.000000 -60.708740 114.000000 50.000000 0.226772 0.931031 0.285929
1120.00000000 890.00000000 -180.00000000 92 197 111 97.000000 1.000000 4.000000 1.000000 -60.708740 114.000000 50.000000 0.056542 0.988912 0.137317
1110.00000000 810.00000000 -150.00000000 92 197 111 97.000000 1.000000 4.000000 1.000000 -60.708740 114.000000 50.000000 0.097812 0.953341 0.285611
1170.00000000 900.00000000 -240.00000000 92 197 111 97.000000 1.000000 4.000000 1.000000 -60.708740 114.000000 50.000000 0.121684 0.822468 0.555643
1170.00000000 770.00000000 -60.00000000 92 197 111 97.000000 1.000000 4.000000 1.000000 -60.708740 114.000000 50.000000 0.085784 0.873312 0.479548
1110.00000000 740.00000000 -120.00000000 92 197 111 97.000000 1.000000 4.000000 1.000000 -60.708740 114.000000 50.000000 0.065417 0.971381 0.228342
1620.00000000 970.00000000 -770.00000000 92 197 111 97.000000 1.000000 4.000000 1.000000 -60.708740 114.000000 50.000000 0.828276 -0.486399 -0.278164
1610.00000000 900.00000000 -740.00000000 92 197 111 97.000000 1.000000 4.000000 1.000000 -60.708740 114.000000 50.000000 0.880115 -0.468561 -0.076471
1600.00000000 950.00000000 -820.00000000 92 197 111 97.000000 1.000000 4.000000 1.000000 -60.708740 114.000000 50.000000 -0.676518 0.660294 0.326091
1560.00000000 910.00000000 -710.00000000 92 197 111 97.000000 1.000000 4.000000 1.000000 -60.708740 114.000000 50.000000 -0.632921 0.722200 0.278995
1460.00000000 1460.00000000 170.00000000 92 197 111 97.000000 1.000000 4.000000 1.000000 -60.708740 114.000000 50.000000 0.369284 0.759717 0.535218
1350.00000000 1380.00000000 280.00000000 92 197 111 97.000000 1.000000 4.000000 1.000000 -60.708740 114.000000 50.000000 0.523693 0.694354 0.493577
1570.00000000 1230.00000000 570.00000000 92 197 111 97.000000 1.000000 4.000000 1.000000 -60.708740 114.000000 50.000000 0.915050 0.401245 -0.041051
1400.00000000 1200.00000000 220.00000000 92 197 111 97.000000 1.000000 4.000000 1.000000 -60.708740 114.000000 50.000000 0.562392 0.822838 -0.081568
1350.00000000 1180.00000000 110.00000000 92 197 111 97.000000 1.000000 4.000000 1.000000 -60.708740 114.000000 50.000000 0.396492 0.832475 0.387014
1350.00000000 1180.00000000 110.00000000 92 197 111 97.000000 1.000000 4.000000 1.000000 -60.708740 114.000000 50.000000 0.396492 0.832475 0.387014
1350.00000000 1170.00000000 60.00000000 92 197 111 97.000000 1.000000 4.000000 1.000000 -60.708740 114.000000 50.000000 0.480433 0.877023 0.003993
1290.00000000 1390.00000000 490.00000000 92 197 111 97.000000 1.000000 4.000000 1.000000 -60.708740 114.000000 50.000000 0.399884 0.801374 0.444851
1280.00000000 1390.00000000 410.00000000 92 197 111 97.000000 1.000000 4.000000 1.000000 -60.708740 114.000000 50.000000 -0.186754 0.847115 0.497512
1300.00000000 1330.00000000 430.00000000 92 197 111 97.000000 1.000000 4.000000 1.000000 -60.708740 114.000000 50.000000 0.503368 0.863502 0.031375
1320.00000000 1280.00000000 420.00000000 92 197 111 97.000000 1.000000 4.000000 1.000000 -60.708740 114.000000 50.000000 0.603838 0.717770 0.346678
1280.00000000 1300.00000000 420.00000000 92 197 111 97.000000 1.000000 4.000000 1.000000 -60.708740 114.000000 50.000000 0.509852 0.740852 0.437251
1310.00000000 1270.00000000 370.00000000 92 197 111 97.000000 1.000000 4.000000 1.000000 -60.708740 114.000000 50.000000 0.539495 0.837148 -0.090154
1280.00000000 1240.00000000 360.00000000 92 197 111 97.000000 1.000000 4.000000 1.000000 -60.708740 114.000000 50.000000 0.322023 0.945541 0.047470
1240.00000000 1290.00000000 480.00000000 92 197 111 97.000000 1.000000 4.000000 1.000000 -60.708740 114.000000 50.000000 -0.033556 0.895262 0.444275
1240.00000000 1310.00000000 460.00000000 92 197 111 97.000000 1.000000 4.000000 1.000000 -60.708740 114.000000 50.000000 0.332920 0.856301 0.394858
1220.00000000 1200.00000000 320.00000000 92 197 111 97.000000 1.000000 4.000000 1.000000 -60.708740 114.000000 50.000000 -0.003800 0.933535 0.358467
1340.00000000 980.00000000 370.00000000 92 197 111 97.000000 1.000000 4.000000 1.000000 -60.708740 114.000000 50.000000 0.983231 0.150802 -0.102546
1290.00000000 1240.00000000 180.00000000 92 197 111 97.000000 1.000000 4.000000 1.000000 -60.708740 114.000000 50.000000 0.413480 0.786423 0.458882
1310.00000000 1150.00000000 260.00000000 92 197 111 97.000000 1.000000 4.000000 1.000000 -60.708740 114.000000 50.000000 0.343329 0.896224 0.280906
1310.00000000 1200.00000000 280.00000000 92 197 111 97.000000 1.000000 4.000000 1.000000 -60.708740 114.000000 50.000000 0.664573 0.708564 0.237235
1320.00000000 1200.00000000 130.00000000 92 197 111 97.000000 1.000000 4.000000 1.000000 -60.708740 114.000000 50.000000 0.589620 0.805577 -0.058252
1310.00000000 1170.00000000 0.00000000 92 197 111 97.000000 1.000000 4.000000 1.000000 -60.708740 114.000000 50.000000 0.486278 0.855076 0.179938
1270.00000000 1100.00000000 300.00000000 92 197 111 97.000000 1.000000 4.000000 1.000000 -60.708740 114.000000 50.000000 0.541455 0.744296 0.390960
1260.00000000 1130.00000000 170.00000000 92 197 111 97.000000 1.000000 4.000000 1.000000 -60.708740 114.000000 50.000000 0.055681 0.968855 0.241286
1280.00000000 1140.00000000 0.00000000 92 197 111 97.000000 1.000000 4.000000 1.000000 -60.708740 114.000000 50.000000 0.403037 0.884897 0.233494
1410.00000000 820.00000000 580.00000000 92 197 111 97.000000 1.000000 4.000000 1.000000 -60.708740 114.000000 50.000000 0.961730 -0.150475 -0.228983
1400.00000000 810.00000000 330.00000000 92 197 111 97.000000 1.000000 4.000000 1.000000 -60.708740 114.000000 50.000000 0.746800 -0.607271 -0.271131
1410.00000000 810.00000000 360.00000000 92 197 111 97.000000 1.000000 4.000000 1.000000 -60.708740 114.000000 50.000000 0.892078 -0.417845 -0.172054
1420.00000000 780.00000000 610.00000000 92 197 111 97.000000 1.000000 4.000000 1.000000 -60.708740 114.000000 50.000000 0.990130 0.058513 -0.127352
1430.00000000 740.00000000 480.00000000 92 197 111 97.000000 1.000000 4.000000 1.000000 -60.708740 114.000000 50.000000 0.673370 -0.673370 -0.305197
1390.00000000 790.00000000 370.00000000 92 197 111 97.000000 1.000000 4.000000 1.000000 -60.708740 114.000000 50.000000 0.819131 -0.408770 -0.402408
1360.00000000 760.00000000 360.00000000 92 197 111 97.000000 1.000000 4.000000 1.000000 -60.708740 114.000000 50.000000 0.684055 -0.590851 -0.427743
1390.00000000 800.00000000 360.00000000 92 197 111 97.000000 1.000000 4.000000 1.000000 -60.708740 114.000000 50.000000 -0.527267 0.796442 0.296093
1410.00000000 820.00000000 210.00000000 92 197 111 97.000000 1.000000 4.000000 1.000000 -60.708740 114.000000 50.000000 0.980103 -0.195075 -0.036650
1410.00000000 820.00000000 220.00000000 92 197 111 97.000000 1.000000 4.000000 1.000000 -60.708740 114.000000 50.000000 0.967410 -0.249535 -0.043023
1390.00000000 790.00000000 260.00000000 92 197 111 97.000000 1.000000 4.000000 1.000000 -60.708740 114.000000 50.000000 0.897441 -0.438599 0.047234
1420.00000000 800.00000000 310.00000000 92 197 111 97.000000 1.000000 4.000000 1.000000 -60.708740 114.000000 50.000000 0.942318 -0.231082 -0.242152
1530.00000000 620.00000000 120.00000000 92 197 111 97.000000 1.000000 4.000000 1.000000 -60.708740 114.000000 50.000000 0.858423 -0.508332 -0.068618
1020.00000000 870.00000000 370.00000000 92 197 111 97.000000 1.000000 4.000000 1.000000 -60.708740 114.000000 50.000000 0.953456 0.148019 -0.262701
1170.00000000 850.00000000 -10.00000000 92 197 111 97.000000 1.000000 4.000000 1.000000 -60.708740 114.000000 50.000000 0.160423 0.888829 0.429240
930.00000000 1150.00000000 280.00000000 92 197 111 97.000000 1.000000 4.000000 1.000000 -60.708740 114.000000 50.000000 -0.714531 0.644510 0.272126
950.00000000 700.00000000 670.00000000 92 197 111 97.000000 1.000000 4.000000 1.000000 -60.708740 114.000000 50.000000 0.991551 0.129333 0.009949
970.00000000 830.00000000 140.00000000 92 197 111 97.000000 1.000000 4.000000 1.000000 -60.708740 114.000000 50.000000 0.635374 0.621963 0.457671
800.00000000 810.00000000 290.00000000 92 197 111 97.000000 1.000000 4.000000 1.000000 -60.708740 114.000000 50.000000 0.916105 0.228667 -0.329338
1360.00000000 1720.00000000 -1050.00000000 92 197 111 97.000000 1.000000 4.000000 1.000000 -60.708740 114.000000 50.000000 0.530534 0.752542 0.390146
1290.00000000 1850.00000000 -1050.00000000 92 197 111 97.000000 1.000000 4.000000 1.000000 -60.708740 114.000000 50.000000 0.350055 0.899508 0.261433
1280.00000000 1800.00000000 -1120.00000000 92 197 111 97.000000 1.000000 4.000000 1.000000 -60.708740 114.000000 50.000000 0.359526 0.924299 -0.128107
1710.00000000 1250.00000000 -760.00000000 92 197 111 97.000000 1.000000 4.000000 1.000000 -60.708740 114.000000 50.000000 0.915674 0.102962 -0.388509
1700.00000000 1090.00000000 -830.00000000 92 197 111 97.000000 1.000000 4.000000 1.000000 -60.708740 114.000000 50.000000 0.974431 -0.155052 0.162615
1680.00000000 910.00000000 -330.00000000 92 197 111 97.000000 1.000000 4.000000 1.000000 -60.708740 114.000000 50.000000 0.737677 -0.663164 0.126672
1350.00000000 1620.00000000 -260.00000000 92 197 111 97.000000 1.000000 4.000000 1.000000 -60.708740 114.000000 50.000000 0.284670 0.854009 0.435468
1460.00000000 1470.00000000 -100.00000000 92 197 111 97.000000 1.000000 4.000000 1.000000 -60.708740 114.000000 50.000000 0.369872 0.744633 0.555623
1460.00000000 1470.00000000 -100.00000000 92 197 111 97.000000 1.000000 4.000000 1.000000 -60.708740 114.000000 50.000000 0.369872 0.744633 0.555623
1470.00000000 1480.00000000 -160.00000000 92 197 111 97.000000 1.000000 4.000000 1.000000 -60.708740 114.000000 50.000000 0.758922 0.605573 0.239413
1390.00000000 1380.00000000 -220.00000000 92 197 111 97.000000 1.000000 4.000000 1.000000 -60.708740 114.000000 50.000000 0.792734 0.578895 0.190928
1600.00000000 1320.00000000 -640.00000000 92 197 111 97.000000 1.000000 4.000000 1.000000 -60.708740 114.000000 50.000000 0.829959 0.496121 0.255015
1560.00000000 1340.00000000 -600.00000000 92 197 111 97.000000 1.000000 4.000000 1.000000 -60.708740 114.000000 50.000000 0.985622 0.120664 -0.118275
1400.00000000 1530.00000000 -380.00000000 92 197 111 97.000000 1.000000 4.000000 1.000000 -60.708740 114.000000 50.000000 0.548329 0.820252 0.162855
1490.00000000 1480.00000000 -460.00000000 92 197 111 97.000000 1.000000 4.000000 1.000000 -60.708740 114.000000 50.000000 0.808853 0.579411 0.100199
1410.00000000 1120.00000000 -230.00000000 92 197 111 97.000000 1.000000 4.000000 1.000000 -60.708740 114.000000 50.000000 0.994858 0.038560 -0.093647
1390.00000000 1110.00000000 -330.00000000 92 197 111 97.000000 1.000000 4.000000 1.000000 -60.708740 114.000000 50.000000 0.924605 -0.379023 0.038033
1350.00000000 1120.00000000 -310.00000000 92 197 111 97.000000 1.000000 4.000000 1.000000 -60.708740 114.000000 50.000000 0.988729 -0.137613 0.058977
1670.00000000 1150.00000000 -450.00000000 92 197 111 97.000000 1.000000 4.000000 1.000000 -60.708740 114.000000 50.000000 0.979993 -0.073711 0.184881
1360.00000000 1260.00000000 -590.00000000 92 197 111 97.000000 1.000000 4.000000 1.000000 -60.708740 114.000000 50.000000 0.892265 0.413489 -0.181355
1360.00000000 1250.00000000 -560.00000000 92 197 111 97.000000 1.000000 4.000000 1.000000 -60.708740 114.000000 50.000000 0.907660 0.399819 -0.127662
1360.00000000 1240.00000000 -560.00000000 92 197 111 97.000000 1.000000 4.000000 1.000000 -60.708740 114.000000 50.000000 0.888905 0.420448 -0.181855
1370.00000000 1220.00000000 -560.00000000 92 197 111 97.000000 1.000000 4.000000 1.000000 -60.708740 114.000000 50.000000 0.928742 0.216282 -0.301099
1450.00000000 980.00000000 -480.00000000 92 197 111 97.000000 1.000000 4.000000 1.000000 -60.708740 114.000000 50.000000 -0.676210 0.729246 0.104599
1380.00000000 1080.00000000 -610.00000000 92 197 111 97.000000 1.000000 4.000000 1.000000 -60.708740 114.000000 50.000000 0.667434 -0.614172 -0.421099
1260.00000000 1110.00000000 -30.00000000 92 197 111 97.000000 1.000000 4.000000 1.000000 -60.708740 114.000000 50.000000 0.467915 0.882626 0.045018
1320.00000000 1040.00000000 -350.00000000 92 197 111 97.000000 1.000000 4.000000 1.000000 -60.708740 114.000000 50.000000 -0.580102 0.814347 0.017913
1240.00000000 1230.00000000 -400.00000000 92 197 111 97.000000 1.000000 4.000000 1.000000 -60.708740 114.000000 50.000000 0.529317 0.785180 0.321428
1210.00000000 1280.00000000 -400.00000000 92 197 111 97.000000 1.000000 4.000000 1.000000 -60.708740 114.000000 50.000000 0.447067 0.826206 0.342804
1240.00000000 1270.00000000 -460.00000000 92 197 111 97.000000 1.000000 4.000000 1.000000 -60.708740 114.000000 50.000000 0.485976 0.830662 0.271712
1240.00000000 1010.00000000 -650.00000000 92 197 111 97.000000 1.000000 4.000000 1.000000 -60.708740 114.000000 50.000000 -0.114048 0.973795 0.196764
1540.00000000 1420.00000000 -840.00000000 92 197 111 97.000000 1.000000 4.000000 1.000000 -60.708740 114.000000 50.000000 0.933559 0.338364 -0.118224
1590.00000000 1350.00000000 -730.00000000 92 197 111 97.000000 1.000000 4.000000 1.000000 -60.708740 114.000000 50.000000 0.848945 0.520781 -0.089888
1560.00000000 1390.00000000 -850.00000000 92 197 111 97.000000 1.000000 4.000000 1.000000 -60.708740 114.000000 50.000000 0.944678 0.274790 -0.179092
1560.00000000 1380.00000000 -790.00000000 92 197 111 97.000000 1.000000 4.000000 1.000000 -60.708740 114.000000 50.000000 0.838625 0.337018 0.427934
1630.00000000 1460.00000000 -890.00000000 92 197 111 97.000000 1.000000 4.000000 1.000000 -60.708740 114.000000 50.000000 0.853363 0.518163 -0.057263
1530.00000000 1460.00000000 -880.00000000 92 197 111 97.000000 1.000000 4.000000 1.000000 -60.708740 114.000000 50.000000 0.868447 0.439473 -0.229486
1520.00000000 1390.00000000 -980.00000000 92 197 111 97.000000 1.000000 4.000000 1.000000 -60.708740 114.000000 50.000000 0.939726 0.300438 -0.163252
1390.00000000 1540.00000000 -1030.00000000 92 197 111 97.000000 1.000000 4.000000 1.000000 -60.708740 114.000000 50.000000 0.639228 0.769006 -0.004142
1500.00000000 1440.00000000 -850.00000000 92 197 111 97.000000 1.000000 4.000000 1.000000 -60.708740 114.000000 50.000000 0.786676 0.557425 -0.265366
1410.00000000 1420.00000000 -820.00000000 92 197 111 97.000000 1.000000 4.000000 1.000000 -60.708740 114.000000 50.000000 0.642217 0.601974 0.474536
1370.00000000 1370.00000000 -710.00000000 92 197 111 97.000000 1.000000 4.000000 1.000000 -60.708740 114.000000 50.000000 0.541556 0.698191 0.468238
1350.00000000 1350.00000000 -710.00000000 92 197 111 97.000000 1.000000 4.000000 1.000000 -60.708740 114.000000 50.000000 0.914791 0.398962 -0.063135
1350.00000000 1380.00000000 -830.00000000 92 197 111 97.000000 1.000000 4.000000 1.000000 -60.708740 114.000000 50.000000 0.503560 0.855620 0.119758
1500.00000000 1470.00000000 -970.00000000 92 197 111 97.000000 1.000000 4.000000 1.000000 -60.708740 114.000000 50.000000 0.765536 0.643272 0.012504
1360.00000000 1370.00000000 -1010.00000000 92 197 111 97.000000 1.000000 4.000000 1.000000 -60.708740 114.000000 50.000000 0.875942 0.471226 0.103302
1630.00000000 1570.00000000 -1160.00000000 92 197 111 97.000000 1.000000 4.000000 1.000000 -60.708740 114.000000 50.000000 0.815508 0.337288 0.470302
1510.00000000 1530.00000000 -1140.00000000 92 197 111 97.000000 1.000000 4.000000 1.000000 -60.708740 114.000000 50.000000 0.720824 0.631320 0.286092
1560.00000000 1530.00000000 -1160.00000000 92 197 111 97.000000 1.000000 4.000000 1.000000 -60.708740 114.000000 50.000000 0.923613 0.071047 0.376684
