//X Y Z R G B PointSourceId ScanDirectionFlag NumberOfReturns ReturnNumber GpsTime Intensity Classification Nx Ny Nz
-18370.00000000 3150.00000000 -590.00000000 103 114 147 0.000000 0.000000 0.000000 0.000000 -60.708740 0.000000 128.000000 0.904054 0.401644 -0.146181
-18370.00000000 3140.00000000 -580.00000000 103 114 147 0.000000 0.000000 0.000000 0.000000 -60.708740 0.000000 128.000000 0.969497 0.214738 -0.118169
-18370.00000000 3140.00000000 -590.00000000 103 114 147 0.000000 0.000000 0.000000 0.000000 -60.708740 0.000000 128.000000 0.914502 0.391929 0.100389
-18370.00000000 3130.00000000 -570.00000000 103 114 147 0.000000 0.000000 0.000000 0.000000 -60.708740 0.000000 128.000000 0.933250 0.225945 0.279273
-18370.00000000 3090.00000000 -600.00000000 103 114 147 0.000000 0.000000 0.000000 0.000000 -60.708740 0.000000 128.000000 0.908186 -0.409574 -0.086298
-18370.00000000 3090.00000000 -600.00000000 103 114 147 0.000000 0.000000 0.000000 0.000000 -60.708740 0.000000 128.000000 0.908186 -0.409574 -0.086298
-18430.00000000 3110.00000000 -560.00000000 103 114 147 0.000000 0.000000 0.000000 0.000000 -60.708740 0.000000 128.000000 0.986699 -0.147005 -0.069386
-18420.00000000 3120.00000000 -540.00000000 103 114 147 0.000000 0.000000 0.000000 0.000000 -60.708740 0.000000 128.000000 0.921954 -0.273862 -0.273862
-18400.00000000 3120.00000000 -630.00000000 103 114 147 0.000000 0.000000 0.000000 0.000000 -60.708740 0.000000 128.000000 0.949704 0.275374 0.149105
-18400.00000000 3120.00000000 -660.00000000 103 114 147 0.000000 0.000000 0.000000 0.000000 -60.708740 0.000000 128.000000 0.989703 0.125878 -0.068136
-18420.00000000 3140.00000000 -610.00000000 103 114 147 0.000000 0.000000 0.000000 0.000000 -60.708740 0.000000 128.000000 0.989576 0.112795 0.089539
-18450.00000000 3160.00000000 -690.00000000 103 114 147 0.000000 0.000000 0.000000 0.000000 -60.708740 0.000000 128.000000 0.949169 0.205631 0.238314
-18410.00000000 3040.00000000 -560.00000000 103 114 147 0.000000 0.000000 0.000000 0.000000 -60.708740 0.000000 128.000000 0.924524 -0.290075 0.247207
-18460.00000000 3140.00000000 -650.00000000 103 114 147 0.000000 0.000000 0.000000 0.000000 -60.708740 0.000000 128.000000 0.956670 -0.240831 -0.163658
-18500.00000000 3150.00000000 -660.00000000 103 114 147 0.000000 0.000000 0.000000 0.000000 -60.708740 0.000000 128.000000 0.981308 0.053656 -0.184815
-18510.00000000 3100.00000000 -610.00000000 103 114 147 0.000000 0.000000 0.000000 0.000000 -60.708740 0.000000 128.000000 0.888646 -0.343170 -0.304208
-18530.00000000 3040.00000000 -600.00000000 103 114 147 0.000000 0.000000 0.000000 0.000000 -60.708740 0.000000 128.000000 0.883982 -0.099782 -0.456748
-18520.00000000 3080.00000000 -620.00000000 103 114 147 0.000000 0.000000 0.000000 0.000000 -60.708740 0.000000 128.000000 0.885335 -0.400261 -0.236585
-18510.00000000 3030.00000000 -640.00000000 103 114 147 0.000000 0.000000 0.000000 0.000000 -60.708740 0.000000 128.000000 0.951648 0.101072 -0.290088
-18450.00000000 3670.00000000 -920.00000000 103 114 147 0.000000 0.000000 0.000000 0.000000 -60.708740 0.000000 107.000000 0.869958 0.493110 -0.004009
-18440.00000000 3650.00000000 -950.00000000 103 114 147 0.000000 0.000000 0.000000 0.000000 -60.708740 0.000000 107.000000 0.966280 0.183372 0.180771
-18460.00000000 3640.00000000 -970.00000000 103 114 147 0.000000 0.000000 0.000000 0.000000 -60.708740 0.000000 107.000000 0.882899 0.227031 0.411030
-18460.00000000 3640.00000000 -970.00000000 103 114 147 0.000000 0.000000 0.000000 0.000000 -60.708740 0.000000 107.000000 0.882899 0.227031 0.411030
-18520.00000000 3630.00000000 -1030.00000000 103 114 147 0.000000 0.000000 0.000000 0.000000 -60.708740 0.000000 107.000000 0.808325 0.547575 -0.216269
-18530.00000000 3180.00000000 -760.00000000 103 114 147 0.000000 0.000000 0.000000 0.000000 -60.708740 0.000000 128.000000 0.966514 -0.143235 0.212917
-18470.00000000 3170.00000000 -730.00000000 103 114 147 0.000000 0.000000 0.000000 0.000000 -60.708740 0.000000 128.000000 0.912393 -0.181336 0.366956
-18500.00000000 3190.00000000 -810.00000000 103 114 147 0.000000 0.000000 0.000000 0.000000 -60.708740 0.000000 128.000000 0.969727 0.131597 -0.205700
-18500.00000000 3180.00000000 -820.00000000 103 114 147 0.000000 0.000000 0.000000 0.000000 -60.708740 0.000000 128.000000 0.938417 0.265537 -0.221049
-18510.00000000 3200.00000000 -790.00000000 103 114 147 0.000000 0.000000 0.000000 0.000000 -60.708740 0.000000 128.000000 0.995934 -0.062589 0.064785
-18480.00000000 3150.00000000 -730.00000000 103 114 147 0.000000 0.000000 0.000000 0.000000 -60.708740 0.000000 128.000000 0.983271 0.159677 0.087642
-18460.00000000 3140.00000000 -700.00000000 103 114 147 0.000000 0.000000 0.000000 0.000000 -60.708740 0.000000 128.000000 0.983257 -0.181400 0.017331
-18520.00000000 3150.00000000 -730.00000000 103 114 147 0.000000 0.000000 0.000000 0.000000 -60.708740 0.000000 128.000000 0.909655 -0.415362 -0.001294
-18500.00000000 3130.00000000 -710.00000000 103 114 147 0.000000 0.000000 0.000000 0.000000 -60.708740 0.000000 128.000000 0.999411 0.029605 0.017354
-18520.00000000 3090.00000000 -700.00000000 103 114 147 0.000000 0.000000 0.000000 0.000000 -60.708740 0.000000 128.000000 0.997027 -0.075388 -0.015927
-18510.00000000 3110.00000000 -750.00000000 103 114 147 0.000000 0.000000 0.000000 0.000000 -60.708740 0.000000 128.000000 0.974056 -0.226057 -0.010652
-18510.00000000 3100.00000000 -740.00000000 103 114 147 0.000000 0.000000 0.000000 0.000000 -60.708740 0.000000 128.000000 0.950837 -0.202104 -0.234657
-18510.00000000 3110.00000000 -750.00000000 103 114 147 0.000000 0.000000 0.000000 0.000000 -60.708740 0.000000 128.000000 0.974056 -0.226057 -0.010652
-18470.00000000 3100.00000000 -800.00000000 103 114 147 0.000000 0.000000 0.000000 0.000000 -60.708740 0.000000 128.000000 0.918779 -0.388766 0.068606
-18500.00000000 3160.00000000 -850.00000000 103 114 147 0.000000 0.000000 0.000000 0.000000 -60.708740 0.000000 128.000000 0.982983 -0.122418 0.136963
-18510.00000000 3150.00000000 -860.00000000 103 114 147 0.000000 0.000000 0.000000 0.000000 -60.708740 0.000000 128.000000 0.859531 -0.462130 -0.218270
-18500.00000000 3150.00000000 -840.00000000 103 114 147 0.000000 0.000000 0.000000 0.000000 -60.708740 0.000000 128.000000 0.997071 -0.013775 0.075231
-18500.00000000 3150.00000000 -840.00000000 103 114 147 0.000000 0.000000 0.000000 0.000000 -60.708740 0.000000 128.000000 0.997071 -0.013775 0.075231
-18510.00000000 3110.00000000 -800.00000000 103 114 147 0.000000 0.000000 0.000000 0.000000 -60.708740 0.000000 128.000000 0.869858 -0.391512 -0.300109
-18520.00000000 3070.00000000 -700.00000000 103 114 147 0.000000 0.000000 0.000000 0.000000 -60.708740 0.000000 128.000000 0.958939 -0.105107 0.263416
-18520.00000000 3080.00000000 -710.00000000 103 114 147 0.000000 0.000000 0.000000 0.000000 -60.708740 0.000000 128.000000 0.929088 -0.001271 -0.369856
-18520.00000000 3060.00000000 -720.00000000 103 114 147 0.000000 0.000000 0.000000 0.000000 -60.708740 0.000000 128.000000 0.925947 -0.278212 0.255384
-18460.00000000 3080.00000000 -820.00000000 103 114 147 0.000000 0.000000 0.000000 0.000000 -60.708740 0.000000 128.000000 0.935626 -0.230760 -0.267122
-18530.00000000 3090.00000000 -880.00000000 103 114 147 0.000000 0.000000 0.000000 0.000000 -60.708740 0.000000 128.000000 -0.761111 0.499223 0.414110
-18320.00000000 2990.00000000 -130.00000000 103 114 147 0.000000 0.000000 0.000000 0.000000 -60.708740 0.000000 128.000000 0.979989 0.106707 0.168033
-18320.00000000 2980.00000000 -150.00000000 103 114 147 0.000000 0.000000 0.000000 0.000000 -60.708740 0.000000 128.000000 0.977227 -0.191009 -0.092424
-18290.00000000 2910.00000000 -70.00000000 103 114 147 0.000000 0.000000 0.000000 0.000000 -60.708740 0.000000 128.000000 0.991009 -0.133681 -0.005524
-18310.00000000 2970.00000000 -190.00000000 103 114 147 0.000000 0.000000 0.000000 0.000000 -60.708740 0.000000 128.000000 0.988731 -0.042489 -0.143544
-18290.00000000 2980.00000000 -280.00000000 103 114 147 0.000000 0.000000 0.000000 0.000000 -60.708740 0.000000 128.000000 0.976047 -0.037126 -0.214371
-18350.00000000 2990.00000000 -450.00000000 103 114 147 0.000000 0.000000 0.000000 0.000000 -60.708740 0.000000 128.000000 0.936107 -0.078119 -0.342930
-18950.00000000 3710.00000000 -320.00000000 103 114 147 0.000000 0.000000 0.000000 0.000000 -60.708740 0.000000 154.000000 0.339517 0.903908 0.260149
-18980.00000000 3710.00000000 -270.00000000 103 114 147 0.000000 0.000000 0.000000 0.000000 -60.708740 0.000000 154.000000 -0.190371 0.967393 0.167060
-19020.00000000 3700.00000000 -250.00000000 103 114 147 0.000000 0.000000 0.000000 0.000000 -60.708740 0.000000 154.000000 -0.085996 0.730235 0.677763
-18970.00000000 3710.00000000 -280.00000000 103 114 147 0.000000 0.000000 0.000000 0.000000 -60.708740 0.000000 154.000000 -0.335089 0.942043 0.016438
-18970.00000000 3710.00000000 -330.00000000 103 114 147 0.000000 0.000000 0.000000 0.000000 -60.708740 0.000000 154.000000 0.250617 0.966311 0.058602
-18960.00000000 3710.00000000 -320.00000000 103 114 147 0.000000 0.000000 0.000000 0.000000 -60.708740 0.000000 154.000000 0.261856 0.956630 0.127638
-19020.00000000 3690.00000000 -340.00000000 103 114 147 0.000000 0.000000 0.000000 0.000000 -60.708740 0.000000 154.000000 -0.224579 0.919771 0.321848
-18990.00000000 3720.00000000 -370.00000000 103 114 147 0.000000 0.000000 0.000000 0.000000 -60.708740 0.000000 154.000000 -0.108895 0.916647 0.384578
-18980.00000000 3740.00000000 -380.00000000 103 114 147 0.000000 0.000000 0.000000 0.000000 -60.708740 0.000000 154.000000 -0.310106 0.897675 0.313073
-19000.00000000 3740.00000000 -380.00000000 103 114 147 0.000000 0.000000 0.000000 0.000000 -60.708740 0.000000 154.000000 0.170339 0.953632 0.248132
-19000.00000000 3740.00000000 -410.00000000 103 114 147 0.000000 0.000000 0.000000 0.000000 -60.708740 0.000000 154.000000 -0.245672 0.911458 0.329985
-19040.00000000 3740.00000000 -400.00000000 103 114 147 0.000000 0.000000 0.000000 0.000000 -60.708740 0.000000 154.000000 0.130955 0.976553 0.170866
-19000.00000000 3730.00000000 -400.00000000 103 114 147 0.000000 0.000000 0.000000 0.000000 -60.708740 0.000000 154.000000 -0.148174 0.980885 0.126131
-19020.00000000 3690.00000000 -380.00000000 103 114 147 0.000000 0.000000 0.000000 0.000000 -60.708740 0.000000 154.000000 -0.286482 0.956215 -0.059843
-18990.00000000 3730.00000000 -480.00000000 103 114 147 0.000000 0.000000 0.000000 0.000000 -60.708740 0.000000 154.000000 0.281646 0.934615 0.217189
-18990.00000000 3680.00000000 -490.00000000 103 114 147 0.000000 0.000000 0.000000 0.000000 -60.708740 0.000000 154.000000 0.211988 0.923356 0.320116
-18980.00000000 3720.00000000 -530.00000000 103 114 147 0.000000 0.000000 0.000000 0.000000 -60.708740 0.000000 154.000000 -0.021311 0.948968 0.314651
-18960.00000000 3700.00000000 -590.00000000 103 114 147 0.000000 0.000000 0.000000 0.000000 -60.708740 0.000000 154.000000 -0.304747 0.933723 0.187858
-19040.00000000 3710.00000000 -540.00000000 103 114 147 0.000000 0.000000 0.000000 0.000000 -60.708740 0.000000 154.000000 -0.073705 0.995574 0.058304
-19010.00000000 3710.00000000 -530.00000000 103 114 147 0.000000 0.000000 0.000000 0.000000 -60.708740 0.000000 154.000000 -0.344964 0.902778 0.256888
-19040.00000000 3700.00000000 -530.00000000 103 114 147 0.000000 0.000000 0.000000 0.000000 -60.708740 0.000000 154.000000 0.161394 0.945307 0.283456
-19000.00000000 3680.00000000 -630.00000000 103 114 147 0.000000 0.000000 0.000000 0.000000 -60.708740 0.000000 154.000000 -0.460046 0.861649 0.214288
-19010.00000000 3680.00000000 -630.00000000 103 114 147 0.000000 0.000000 0.000000 0.000000 -60.708740 0.000000 154.000000 0.231291 0.926582 0.296563
-19000.00000000 3680.00000000 -670.00000000 103 114 147 0.000000 0.000000 0.000000 0.000000 -60.708740 0.000000 154.000000 0.125735 0.985520 0.113760
-19060.00000000 3740.00000000 -410.00000000 103 114 147 0.000000 0.000000 0.000000 0.000000 -60.708740 0.000000 154.000000 0.149056 0.836779 0.526861
-19080.00000000 3720.00000000 -400.00000000 103 114 147 0.000000 0.000000 0.000000 0.000000 -60.708740 0.000000 154.000000 -0.421044 0.906763 0.022438
-19050.00000000 3690.00000000 -360.00000000 103 114 147 0.000000 0.000000 0.000000 0.000000 -60.708740 0.000000 154.000000 -0.415124 0.847350 0.331166
-19100.00000000 3690.00000000 -410.00000000 103 114 147 0.000000 0.000000 0.000000 0.000000 -60.708740 0.000000 154.000000 0.008534 0.959486 0.281628
-19050.00000000 3700.00000000 -490.00000000 103 114 147 0.000000 0.000000 0.000000 0.000000 -60.708740 0.000000 154.000000 -0.078416 0.834066 0.546064
-19060.00000000 3690.00000000 -590.00000000 103 114 147 0.000000 0.000000 0.000000 0.000000 -60.708740 0.000000 154.000000 -0.164063 0.983181 0.080235
-19050.00000000 3720.00000000 -580.00000000 103 114 147 0.000000 0.000000 0.000000 0.000000 -60.708740 0.000000 154.000000 0.167162 0.850604 0.498528
-19050.00000000 3700.00000000 -550.00000000 103 114 147 0.000000 0.000000 0.000000 0.000000 -60.708740 0.000000 154.000000 -0.088980 0.995936 0.013937
-19050.00000000 3690.00000000 -620.00000000 103 114 147 0.000000 0.000000 0.000000 0.000000 -60.708740 0.000000 154.000000 -0.569284 0.798218 0.196884
-19200.00000000 3750.00000000 -590.00000000 103 114 147 0.000000 0.000000 0.000000 0.000000 -60.708740 0.000000 154.000000 -0.242461 0.777441 0.580343
-19150.00000000 3720.00000000 -590.00000000 103 114 147 0.000000 0.000000 0.000000 0.000000 -60.708740 0.000000 154.000000 -0.352867 0.746387 0.564262
-19150.00000000 3730.00000000 -590.00000000 103 114 147 0.000000 0.000000 0.000000 0.000000 -60.708740 0.000000 154.000000 -0.359054 0.824083 0.438140
-19190.00000000 3750.00000000 -590.00000000 103 114 147 0.000000 0.000000 0.000000 0.000000 -60.708740 0.000000 154.000000 -0.062846 0.921292 0.383760
-19170.00000000 3740.00000000 -690.00000000 103 114 147 0.000000 0.000000 0.000000 0.000000 -60.708740 0.000000 154.000000 -0.214153 0.926105 0.310593
-19120.00000000 3700.00000000 -760.00000000 103 114 147 0.000000 0.000000 0.000000 0.000000 -60.708740 0.000000 154.000000 -0.354823 0.933538 0.051063
-19070.00000000 3680.00000000 -840.00000000 103 114 147 0.000000 0.000000 0.000000 0.000000 -60.708740 0.000000 154.000000 -0.110181 0.993810 0.014182
-19080.00000000 3680.00000000 -850.00000000 103 114 147 0.000000 0.000000 0.000000 0.000000 -60.708740 0.000000 154.000000 -0.193522 0.962346 0.190889
-19200.00000000 3770.00000000 -700.00000000 103 114 147 0.000000 0.000000 0.000000 0.000000 -60.708740 0.000000 154.000000 -0.406617 0.900265 0.155513
-19140.00000000 3690.00000000 -770.00000000 103 114 147 0.000000 0.000000 0.000000 0.000000 -60.708740 0.000000 154.000000 -0.448825 0.689089 0.568957
-18860.00000000 3380.00000000 -120.00000000 103 114 147 0.000000 0.000000 0.000000 0.000000 -60.708740 0.000000 106.000000 0.001342 0.854638 0.519223
-18830.00000000 3360.00000000 -540.00000000 103 114 147 0.000000 0.000000 0.000000 0.000000 -60.708740 0.000000 11.000000 0.192814 0.978623 0.071547
-18870.00000000 3340.00000000 -540.00000000 103 114 147 0.000000 0.000000 0.000000 0.000000 -60.708740 0.000000 11.000000 0.283630 0.947674 0.146520
-18860.00000000 3340.00000000 -530.00000000 103 114 147 0.000000 0.000000 0.000000 0.000000 -60.708740 0.000000 11.000000 0.104608 0.988488 0.109310
-18810.00000000 3350.00000000 -540.00000000 103 114 147 0.000000 0.000000 0.000000 0.000000 -60.708740 0.000000 11.000000 0.360581 0.930058 -0.070519
-18570.00000000 3180.00000000 -160.00000000 103 114 147 0.000000 0.000000 0.000000 0.000000 -60.708740 0.000000 11.000000 0.777586 0.478889 0.407462
-18570.00000000 3200.00000000 -170.00000000 103 114 147 0.000000 0.000000 0.000000 0.000000 -60.708740 0.000000 11.000000 0.868867 0.463102 -0.174949
-18650.00000000 3210.00000000 -90.00000000 103 114 147 0.000000 0.000000 0.000000 0.000000 -60.708740 0.000000 11.000000 0.584938 0.808045 0.070078
-18660.00000000 3180.00000000 -60.00000000 103 114 147 0.000000 0.000000 0.000000 0.000000 -60.708740 0.000000 11.000000 0.820979 0.527445 -0.218622
-18660.00000000 3200.00000000 -50.00000000 103 114 147 0.000000 0.000000 0.000000 0.000000 -60.708740 0.000000 11.000000 0.788589 0.608506 0.088589
-18690.00000000 3220.00000000 -30.00000000 103 114 147 0.000000 0.000000 0.000000 0.000000 -60.708740 0.000000 11.000000 0.563424 0.793139 0.231267
-18690.00000000 3210.00000000 -80.00000000 103 114 147 0.000000 0.000000 0.000000 0.000000 -60.708740 0.000000 11.000000 0.808234 0.559546 -0.183483
-18680.00000000 3200.00000000 -40.00000000 103 114 147 0.000000 0.000000 0.000000 0.000000 -60.708740 0.000000 11.000000 0.566653 0.808863 0.156988
-18680.00000000 3200.00000000 -30.00000000 103 114 147 0.000000 0.000000 0.000000 0.000000 -60.708740 0.000000 11.000000 0.682732 0.728534 -0.055821
-18650.00000000 3200.00000000 -110.00000000 103 114 147 0.000000 0.000000 0.000000 0.000000 -60.708740 0.000000 11.000000 0.896312 0.385810 0.218577
-18650.00000000 3200.00000000 -110.00000000 103 114 147 0.000000 0.000000 0.000000 0.000000 -60.708740 0.000000 11.000000 0.896312 0.385810 0.218577
-18680.00000000 3220.00000000 -110.00000000 103 114 147 0.000000 0.000000 0.000000 0.000000 -60.708740 0.000000 11.000000 0.816304 0.478414 0.323679
-18610.00000000 3260.00000000 -340.00000000 103 114 147 0.000000 0.000000 0.000000 0.000000 -60.708740 0.000000 11.000000 0.686083 0.707476 -0.169611
-18560.00000000 3180.00000000 -210.00000000 103 114 147 0.000000 0.000000 0.000000 0.000000 -60.708740 0.000000 11.000000 0.675687 0.731383 0.092339
-18540.00000000 3170.00000000 -250.00000000 103 114 147 0.000000 0.000000 0.000000 0.000000 -60.708740 0.000000 11.000000 0.950204 0.267455 0.159935
-18610.00000000 3220.00000000 -270.00000000 103 114 147 0.000000 0.000000 0.000000 0.000000 -60.708740 0.000000 11.000000 0.790141 0.601802 -0.116240
-18590.00000000 3180.00000000 -260.00000000 103 114 147 0.000000 0.000000 0.000000 0.000000 -60.708740 0.000000 11.000000 0.982860 0.139714 0.120276
-18570.00000000 3220.00000000 -290.00000000 103 114 147 0.000000 0.000000 0.000000 0.000000 -60.708740 0.000000 11.000000 0.923722 0.354209 -0.145851
-18570.00000000 3210.00000000 -280.00000000 103 114 147 0.000000 0.000000 0.000000 0.000000 -60.708740 0.000000 11.000000 0.882329 0.462838 0.085297
-18570.00000000 3170.00000000 -320.00000000 103 114 147 0.000000 0.000000 0.000000 0.000000 -60.708740 0.000000 11.000000 0.930051 0.278874 0.239237
-18600.00000000 3220.00000000 -280.00000000 103 114 147 0.000000 0.000000 0.000000 0.000000 -60.708740 0.000000 11.000000 0.740425 0.456788 0.493067
-18610.00000000 3210.00000000 -300.00000000 103 114 147 0.000000 0.000000 0.000000 0.000000 -60.708740 0.000000 11.000000 0.972571 0.196032 0.125207
-18600.00000000 3210.00000000 -280.00000000 103 114 147 0.000000 0.000000 0.000000 0.000000 -60.708740 0.000000 11.000000 0.718599 0.686003 -0.114087
-18590.00000000 3210.00000000 -320.00000000 103 114 147 0.000000 0.000000 0.000000 0.000000 -60.708740 0.000000 11.000000 0.894456 0.433888 0.108121
-18600.00000000 3210.00000000 -340.00000000 103 114 147 0.000000 0.000000 0.000000 0.000000 -60.708740 0.000000 11.000000 0.973997 0.180183 -0.137342
-18680.00000000 3230.00000000 -210.00000000 103 114 147 0.000000 0.000000 0.000000 0.000000 -60.708740 0.000000 11.000000 0.622638 0.780086 0.061548
-18680.00000000 3220.00000000 -200.00000000 103 114 147 0.000000 0.000000 0.000000 0.000000 -60.708740 0.000000 11.000000 0.602193 0.697884 0.387713
-18620.00000000 3220.00000000 -280.00000000 103 114 147 0.000000 0.000000 0.000000 0.000000 -60.708740 0.000000 11.000000 0.935477 0.337848 0.103643
-18610.00000000 3150.00000000 -90.00000000 103 114 147 0.000000 0.000000 0.000000 0.000000 -60.708740 0.000000 11.000000 0.951242 0.246918 -0.184851
-18600.00000000 3140.00000000 -130.00000000 103 114 147 0.000000 0.000000 0.000000 0.000000 -60.708740 0.000000 11.000000 0.684018 0.680843 0.261863
-18550.00000000 3150.00000000 -170.00000000 103 114 147 0.000000 0.000000 0.000000 0.000000 -60.708740 0.000000 11.000000 0.864217 0.478171 -0.156466
-18580.00000000 3160.00000000 -300.00000000 103 114 147 0.000000 0.000000 0.000000 0.000000 -60.708740 0.000000 11.000000 0.994598 0.034145 -0.098028
-18580.00000000 3130.00000000 -310.00000000 103 114 147 0.000000 0.000000 0.000000 0.000000 -60.708740 0.000000 11.000000 0.995952 -0.062452 0.064644
-18720.00000000 3280.00000000 -140.00000000 103 114 147 0.000000 0.000000 0.000000 0.000000 -60.708740 0.000000 11.000000 0.675298 0.541244 0.501027
-18710.00000000 3220.00000000 -20.00000000 103 114 147 0.000000 0.000000 0.000000 0.000000 -60.708740 0.000000 11.000000 0.410496 0.907485 0.089238
-18720.00000000 3200.00000000 -130.00000000 103 114 147 0.000000 0.000000 0.000000 0.000000 -60.708740 0.000000 11.000000 0.665479 0.718221 -0.203212
-18730.00000000 3260.00000000 -260.00000000 103 114 147 0.000000 0.000000 0.000000 0.000000 -60.708740 0.000000 11.000000 0.725193 0.650011 0.227112
-18760.00000000 3330.00000000 -190.00000000 103 114 147 0.000000 0.000000 0.000000 0.000000 -60.708740 0.000000 11.000000 0.319091 0.947102 0.034325
-18780.00000000 3290.00000000 -260.00000000 103 114 147 0.000000 0.000000 0.000000 0.000000 -60.708740 0.000000 11.000000 0.540835 0.734813 0.409325
-18730.00000000 3200.00000000 -220.00000000 103 114 147 0.000000 0.000000 0.000000 0.000000 -60.708740 0.000000 11.000000 0.675881 0.736947 0.009715
-18810.00000000 3310.00000000 -320.00000000 103 114 147 0.000000 0.000000 0.000000 0.000000 -60.708740 0.000000 11.000000 0.674351 0.717166 0.175851
-18820.00000000 3320.00000000 -330.00000000 103 114 147 0.000000 0.000000 0.000000 0.000000 -60.708740 0.000000 11.000000 0.401757 0.871738 0.280472
-18790.00000000 3270.00000000 -350.00000000 103 114 147 0.000000 0.000000 0.000000 0.000000 -60.708740 0.000000 11.000000 0.289705 0.954096 0.075967
-18790.00000000 3300.00000000 -320.00000000 103 114 147 0.000000 0.000000 0.000000 0.000000 -60.708740 0.000000 11.000000 0.694034 0.711792 0.108027
-18610.00000000 3270.00000000 -410.00000000 103 114 147 0.000000 0.000000 0.000000 0.000000 -60.708740 0.000000 11.000000 0.982155 0.132987 0.132987
-18610.00000000 3220.00000000 -420.00000000 103 114 147 0.000000 0.000000 0.000000 0.000000 -60.708740 0.000000 11.000000 0.772634 0.499365 0.392010
-18610.00000000 3190.00000000 -380.00000000 103 114 147 0.000000 0.000000 0.000000 0.000000 -60.708740 0.000000 11.000000 0.794812 0.600814 0.085417
-18610.00000000 3190.00000000 -370.00000000 103 114 147 0.000000 0.000000 0.000000 0.000000 -60.708740 0.000000 11.000000 0.981166 -0.008090 0.192997
-18620.00000000 3240.00000000 -420.00000000 103 114 147 0.000000 0.000000 0.000000 0.000000 -60.708740 0.000000 11.000000 0.826337 0.468832 0.312032
-18550.00000000 3030.00000000 -510.00000000 103 114 147 0.000000 0.000000 0.000000 0.000000 -60.708740 0.000000 128.000000 0.996674 -0.022530 -0.078318
-18540.00000000 3140.00000000 -620.00000000 103 114 147 0.000000 0.000000 0.000000 0.000000 -60.708740 0.000000 128.000000 0.969948 0.209753 -0.123309
-18550.00000000 3090.00000000 -670.00000000 103 114 147 0.000000 0.000000 0.000000 0.000000 -60.708740 0.000000 128.000000 0.936955 -0.340590 -0.078190
-18570.00000000 3080.00000000 -540.00000000 103 114 147 0.000000 0.000000 0.000000 0.000000 -60.708740 0.000000 128.000000 0.994099 -0.065975 -0.086103
-18540.00000000 3060.00000000 -610.00000000 103 114 147 0.000000 0.000000 0.000000 0.000000 -60.708740 0.000000 128.000000 0.976851 0.024926 0.212462
-18540.00000000 3050.00000000 -690.00000000 103 114 147 0.000000 0.000000 0.000000 0.000000 -60.708740 0.000000 128.000000 0.867451 -0.339304 -0.363869
-18780.00000000 3270.00000000 -380.00000000 103 114 147 0.000000 0.000000 0.000000 0.000000 -60.708740 0.000000 11.000000 0.425141 0.899069 0.104543
-18780.00000000 3270.00000000 -380.00000000 103 114 147 0.000000 0.000000 0.000000 0.000000 -60.708740 0.000000 11.000000 0.425141 0.899069 0.104543
-18820.00000000 3280.00000000 -440.00000000 103 114 147 0.000000 0.000000 0.000000 0.000000 -60.708740 0.000000 11.000000 0.529599 0.837677 0.133500
-18830.00000000 3300.00000000 -420.00000000 103 114 147 0.000000 0.000000 0.000000 0.000000 -60.708740 0.000000 11.000000 0.669424 0.742402 0.026665
-18820.00000000 3290.00000000 -480.00000000 103 114 147 0.000000 0.000000 0.000000 0.000000 -60.708740 0.000000 11.000000 0.695407 0.701468 0.156050
-18800.00000000 3280.00000000 -490.00000000 103 114 147 0.000000 0.000000 0.000000 0.000000 -60.708740 0.000000 11.000000 0.856891 0.509617 0.077643
-18830.00000000 3290.00000000 -540.00000000 103 114 147 0.000000 0.000000 0.000000 0.000000 -60.708740 0.000000 11.000000 0.758067 0.648328 0.070753
-18910.00000000 3340.00000000 -120.00000000 103 114 147 0.000000 0.000000 0.000000 0.000000 -60.708740 0.000000 106.000000 0.178186 0.983996 -0.001135
-18910.00000000 3340.00000000 -120.00000000 103 114 147 0.000000 0.000000 0.000000 0.000000 -60.708740 0.000000 106.000000 0.178186 0.983996 -0.001135
-18910.00000000 3370.00000000 -150.00000000 103 114 147 0.000000 0.000000 0.000000 0.000000 -60.708740 0.000000 106.000000 0.318826 0.807376 0.496481
-18930.00000000 3390.00000000 -180.00000000 103 114 147 0.000000 0.000000 0.000000 0.000000 -60.708740 0.000000 106.000000 -0.321966 0.904151 0.280801
-18910.00000000 3420.00000000 -280.00000000 103 114 147 0.000000 0.000000 0.000000 0.000000 -60.708740 0.000000 106.000000 -0.162088 0.768024 0.619570
-18940.00000000 3390.00000000 -270.00000000 103 114 147 0.000000 0.000000 0.000000 0.000000 -60.708740 0.000000 106.000000 -0.343695 0.934797 0.089601
-19200.00000000 3400.00000000 -30.00000000 103 114 147 0.000000 0.000000 0.000000 0.000000 -60.708740 0.000000 127.000000 -0.464503 0.883788 -0.056179
-19170.00000000 3430.00000000 -80.00000000 103 114 147 0.000000 0.000000 0.000000 0.000000 -60.708740 0.000000 127.000000 -0.255315 0.956440 0.141548
-19200.00000000 3390.00000000 -170.00000000 103 114 147 0.000000 0.000000 0.000000 0.000000 -60.708740 0.000000 127.000000 -0.731508 0.595263 0.332504
-19200.00000000 3430.00000000 -100.00000000 103 114 147 0.000000 0.000000 0.000000 0.000000 -60.708740 0.000000 127.000000 -0.348424 0.921138 0.173507
-19160.00000000 3370.00000000 -110.00000000 103 114 147 0.000000 0.000000 0.000000 0.000000 -60.708740 0.000000 127.000000 -0.384430 0.922370 0.038049
-18990.00000000 3670.00000000 -480.00000000 103 114 147 0.000000 0.000000 0.000000 0.000000 -60.708740 0.000000 154.000000 -0.279174 0.825046 0.491285
-19010.00000000 3630.00000000 -490.00000000 103 114 147 0.000000 0.000000 0.000000 0.000000 -60.708740 0.000000 154.000000 -0.350710 0.936483 -0.001257
-18900.00000000 3660.00000000 -690.00000000 103 114 147 0.000000 0.000000 0.000000 0.000000 -60.708740 0.000000 154.000000 0.370831 0.926414 0.065128
-18950.00000000 3620.00000000 -680.00000000 103 114 147 0.000000 0.000000 0.000000 0.000000 -60.708740 0.000000 154.000000 0.168172 0.984336 -0.052921
-18980.00000000 3670.00000000 -550.00000000 103 114 147 0.000000 0.000000 0.000000 0.000000 -60.708740 0.000000 154.000000 -0.297148 0.925565 0.234590
-19030.00000000 3650.00000000 -550.00000000 103 114 147 0.000000 0.000000 0.000000 0.000000 -60.708740 0.000000 154.000000 0.004145 0.764008 0.645193
-19010.00000000 3640.00000000 -590.00000000 103 114 147 0.000000 0.000000 0.000000 0.000000 -60.708740 0.000000 154.000000 0.209581 0.964593 0.160115
-19010.00000000 3640.00000000 -570.00000000 103 114 147 0.000000 0.000000 0.000000 0.000000 -60.708740 0.000000 154.000000 -0.078950 0.996878 -0.001053
-19010.00000000 3650.00000000 -590.00000000 103 114 147 0.000000 0.000000 0.000000 0.000000 -60.708740 0.000000 154.000000 -0.170477 0.984064 -0.050555
-18970.00000000 3620.00000000 -650.00000000 103 114 147 0.000000 0.000000 0.000000 0.000000 -60.708740 0.000000 154.000000 0.100500 0.805459 0.584067
-19010.00000000 3650.00000000 -610.00000000 103 114 147 0.000000 0.000000 0.000000 0.000000 -60.708740 0.000000 154.000000 -0.399581 0.876063 0.269906
-19010.00000000 3650.00000000 -610.00000000 103 114 147 0.000000 0.000000 0.000000 0.000000 -60.708740 0.000000 154.000000 -0.399581 0.876063 0.269906
-19040.00000000 3660.00000000 -670.00000000 103 114 147 0.000000 0.000000 0.000000 0.000000 -60.708740 0.000000 154.000000 -0.268708 0.827868 0.492372
-19040.00000000 3660.00000000 -670.00000000 103 114 147 0.000000 0.000000 0.000000 0.000000 -60.708740 0.000000 154.000000 -0.268708 0.827868 0.492372
-18930.00000000 3460.00000000 -390.00000000 103 114 147 0.000000 0.000000 0.000000 0.000000 -60.708740 0.000000 106.000000 -0.237214 0.958132 0.160351
-18950.00000000 3390.00000000 -400.00000000 103 114 147 0.000000 0.000000 0.000000 0.000000 -60.708740 0.000000 106.000000 -0.279942 0.949659 0.140641
-18940.00000000 3380.00000000 -440.00000000 103 114 147 0.000000 0.000000 0.000000 0.000000 -60.708740 0.000000 106.000000 -0.017562 0.998948 -0.042355
-18880.00000000 3360.00000000 -520.00000000 103 114 147 0.000000 0.000000 0.000000 0.000000 -60.708740 0.000000 11.000000 0.413833 0.907719 -0.069198
-18920.00000000 3390.00000000 -510.00000000 103 114 147 0.000000 0.000000 0.000000 0.000000 -60.708740 0.000000 106.000000 0.324279 0.927914 0.183898
-18890.00000000 3340.00000000 -480.00000000 103 114 147 0.000000 0.000000 0.000000 0.000000 -60.708740 0.000000 11.000000 0.515930 0.846243 0.133002
-18950.00000000 3400.00000000 -520.00000000 103 114 147 0.000000 0.000000 0.000000 0.000000 -60.708740 0.000000 106.000000 0.063337 0.997285 -0.037573
-18990.00000000 3420.00000000 -490.00000000 103 114 147 0.000000 0.000000 0.000000 0.000000 -60.708740 0.000000 106.000000 -0.212736 0.734484 0.644420
-18970.00000000 3420.00000000 -500.00000000 103 114 147 0.000000 0.000000 0.000000 0.000000 -60.708740 0.000000 106.000000 -0.047679 0.994614 -0.092032
-18990.00000000 3380.00000000 -410.00000000 103 114 147 0.000000 0.000000 0.000000 0.000000 -60.708740 0.000000 106.000000 0.078531 0.971045 0.225621
-19000.00000000 3390.00000000 -450.00000000 103 114 147 0.000000 0.000000 0.000000 0.000000 -60.708740 0.000000 106.000000 -0.200578 0.963559 0.176980
-19030.00000000 3370.00000000 -450.00000000 103 114 147 0.000000 0.000000 0.000000 0.000000 -60.708740 0.000000 106.000000 -0.365459 0.850665 0.377900
-19020.00000000 3380.00000000 -460.00000000 103 114 147 0.000000 0.000000 0.000000 0.000000 -60.708740 0.000000 106.000000 -0.374983 0.867818 0.326006
-18960.00000000 3390.00000000 -520.00000000 103 114 147 0.000000 0.000000 0.000000 0.000000 -60.708740 0.000000 106.000000 0.091169 0.980975 0.171397
-19000.00000000 3410.00000000 -520.00000000 103 114 147 0.000000 0.000000 0.000000 0.000000 -60.708740 0.000000 106.000000 -0.444542 0.895679 -0.011872
-18930.00000000 3390.00000000 -560.00000000 103 114 147 0.000000 0.000000 0.000000 0.000000 -60.708740 0.000000 106.000000 -0.054993 0.993250 0.102131
-19000.00000000 3450.00000000 -570.00000000 103 114 147 0.000000 0.000000 0.000000 0.000000 -60.708740 0.000000 106.000000 -0.100106 0.993189 0.059614
-18980.00000000 3450.00000000 -590.00000000 103 114 147 0.000000 0.000000 0.000000 0.000000 -60.708740 0.000000 106.000000 0.224397 -0.921885 -0.315871
-19000.00000000 3430.00000000 -650.00000000 103 114 147 0.000000 0.000000 0.000000 0.000000 -60.708740 0.000000 106.000000 -0.584161 0.808065 0.076070
-19030.00000000 3420.00000000 -660.00000000 103 114 147 0.000000 0.000000 0.000000 0.000000 -60.708740 0.000000 106.000000 -0.230948 0.907814 0.350053
-18990.00000000 3410.00000000 -540.00000000 103 114 147 0.000000 0.000000 0.000000 0.000000 -60.708740 0.000000 106.000000 -0.435148 0.900351 -0.003920
-19030.00000000 3410.00000000 -610.00000000 103 114 147 0.000000 0.000000 0.000000 0.000000 -60.708740 0.000000 106.000000 -0.090577 0.991762 0.090577
-18980.00000000 3410.00000000 -620.00000000 103 114 147 0.000000 0.000000 0.000000 0.000000 -60.708740 0.000000 106.000000 -0.263814 0.956819 0.122063
-19050.00000000 3670.00000000 -360.00000000 103 114 147 0.000000 0.000000 0.000000 0.000000 -60.708740 0.000000 154.000000 0.005133 0.998822 0.048247
-19050.00000000 3670.00000000 -560.00000000 103 114 147 0.000000 0.000000 0.000000 0.000000 -60.708740 0.000000 154.000000 0.581314 -0.759690 -0.291453
-19070.00000000 3650.00000000 -590.00000000 103 114 147 0.000000 0.000000 0.000000 0.000000 -60.708740 0.000000 154.000000 0.025675 0.999286 0.027729
-19060.00000000 3600.00000000 -530.00000000 103 114 147 0.000000 0.000000 0.000000 0.000000 -60.708740 0.000000 154.000000 0.561808 -0.695175 -0.448446
-19050.00000000 3620.00000000 -680.00000000 103 114 147 0.000000 0.000000 0.000000 0.000000 -60.708740 0.000000 154.000000 0.071561 0.916789 0.392909
-19050.00000000 3410.00000000 -490.00000000 103 114 147 0.000000 0.000000 0.000000 0.000000 -60.708740 0.000000 106.000000 0.013225 0.967826 0.251274
-19200.00000000 3430.00000000 -500.00000000 103 114 147 0.000000 0.000000 0.000000 0.000000 -60.708740 0.000000 127.000000 -0.544364 0.838015 0.037399
-19190.00000000 3480.00000000 -490.00000000 103 114 147 0.000000 0.000000 0.000000 0.000000 -60.708740 0.000000 127.000000 -0.618841 0.781160 0.082609
-19200.00000000 3480.00000000 -510.00000000 103 114 147 0.000000 0.000000 0.000000 0.000000 -60.708740 0.000000 127.000000 0.679234 -0.701095 -0.217043
-19200.00000000 3410.00000000 -430.00000000 103 114 147 0.000000 0.000000 0.000000 0.000000 -60.708740 0.000000 127.000000 0.821066 -0.389093 -0.417680
-19150.00000000 3470.00000000 -540.00000000 103 114 147 0.000000 0.000000 0.000000 0.000000 -60.708740 0.000000 127.000000 -0.581331 0.812174 -0.049265
-19200.00000000 3470.00000000 -590.00000000 103 114 147 0.000000 0.000000 0.000000 0.000000 -60.708740 0.000000 127.000000 -0.528379 0.844552 -0.086876
-19180.00000000 3480.00000000 -600.00000000 103 114 147 0.000000 0.000000 0.000000 0.000000 -60.708740 0.000000 127.000000 -0.566943 0.812668 -0.134705
-19170.00000000 3490.00000000 -600.00000000 103 114 147 0.000000 0.000000 0.000000 0.000000 -60.708740 0.000000 127.000000 0.756837 -0.650966 -0.058658
-19190.00000000 3430.00000000 -530.00000000 103 114 147 0.000000 0.000000 0.000000 0.000000 -60.708740 0.000000 127.000000 0.760720 -0.648643 0.023816
-19200.00000000 3430.00000000 -550.00000000 103 114 147 0.000000 0.000000 0.000000 0.000000 -60.708740 0.000000 127.000000 -0.792106 0.496472 0.355082
-19200.00000000 3490.00000000 -620.00000000 103 114 147 0.000000 0.000000 0.000000 0.000000 -60.708740 0.000000 127.000000 -0.511352 0.794906 0.326564
-19180.00000000 3470.00000000 -620.00000000 103 114 147 0.000000 0.000000 0.000000 0.000000 -60.708740 0.000000 127.000000 0.738287 -0.672851 -0.046943
-19170.00000000 3490.00000000 -610.00000000 103 114 147 0.000000 0.000000 0.000000 0.000000 -60.708740 0.000000 127.000000 0.841230 -0.482673 -0.243635
-19190.00000000 3470.00000000 -630.00000000 103 114 147 0.000000 0.000000 0.000000 0.000000 -60.708740 0.000000 127.000000 -0.531946 0.817082 0.222283
-19200.00000000 3500.00000000 -640.00000000 103 114 147 0.000000 0.000000 0.000000 0.000000 -60.708740 0.000000 127.000000 -0.467777 0.882055 0.056243
-19200.00000000 3490.00000000 -660.00000000 103 114 147 0.000000 0.000000 0.000000 0.000000 -60.708740 0.000000 127.000000 -0.682323 0.682323 0.262432
-19180.00000000 3490.00000000 -690.00000000 103 114 147 0.000000 0.000000 0.000000 0.000000 -60.708740 0.000000 127.000000 -0.628640 0.697218 0.344527
-19190.00000000 3460.00000000 -670.00000000 103 114 147 0.000000 0.000000 0.000000 0.000000 -60.708740 0.000000 127.000000 -0.619334 0.783734 -0.046769
-18880.00000000 3330.00000000 -80.00000000 103 114 147 0.000000 0.000000 0.000000 0.000000 -60.708740 0.000000 106.000000 -0.274322 0.928146 0.251580
-18890.00000000 3330.00000000 -90.00000000 103 114 147 0.000000 0.000000 0.000000 0.000000 -60.708740 0.000000 106.000000 -0.228192 0.928359 0.293390
-18880.00000000 3330.00000000 -20.00000000 103 114 147 0.000000 0.000000 0.000000 0.000000 -60.708740 0.000000 106.000000 0.092011 0.969271 0.228138
-18900.00000000 3330.00000000 -110.00000000 103 114 147 0.000000 0.000000 0.000000 0.000000 -60.708740 0.000000 106.000000 0.129088 0.892269 0.432658
-18540.00000000 3660.00000000 -1150.00000000 103 114 147 0.000000 0.000000 0.000000 0.000000 -60.708740 0.000000 107.000000 0.766383 0.624851 0.149061
-18570.00000000 3650.00000000 -1170.00000000 103 114 147 0.000000 0.000000 0.000000 0.000000 -60.708740 0.000000 107.000000 0.657965 0.726084 -0.199712
-18560.00000000 3640.00000000 -1190.00000000 103 114 147 0.000000 0.000000 0.000000 0.000000 -60.708740 0.000000 107.000000 0.758423 0.635273 -0.145677
-18580.00000000 3650.00000000 -1180.00000000 103 114 147 0.000000 0.000000 0.000000 0.000000 -60.708740 0.000000 107.000000 0.749541 0.647807 -0.136144
-18580.00000000 3650.00000000 -1190.00000000 103 114 147 0.000000 0.000000 0.000000 0.000000 -60.708740 0.000000 107.000000 0.894865 0.425381 -0.135155
-18580.00000000 3620.00000000 -1170.00000000 103 114 147 0.000000 0.000000 0.000000 0.000000 -60.708740 0.000000 107.000000 0.885893 0.460115 0.059060
-18550.00000000 3560.00000000 -1140.00000000 103 114 147 0.000000 0.000000 0.000000 0.000000 -60.708740 0.000000 107.000000 0.978235 0.135143 0.157460
-18560.00000000 3640.00000000 -1270.00000000 103 114 147 0.000000 0.000000 0.000000 0.000000 -60.708740 0.000000 107.000000 0.912930 0.230041 0.337104
-18570.00000000 3610.00000000 -1210.00000000 103 114 147 0.000000 0.000000 0.000000 0.000000 -60.708740 0.000000 107.000000 0.618984 0.602118 0.504295
-18550.00000000 3620.00000000 -1200.00000000 103 114 147 0.000000 0.000000 0.000000 0.000000 -60.708740 0.000000 107.000000 0.957363 0.278109 0.078178
-18570.00000000 3590.00000000 -1240.00000000 103 114 147 0.000000 0.000000 0.000000 0.000000 -60.708740 0.000000 107.000000 0.766502 0.642205 -0.006905
-18580.00000000 3590.00000000 -1210.00000000 103 114 147 0.000000 0.000000 0.000000 0.000000 -60.708740 0.000000 107.000000 0.844699 0.416885 0.335694
-18620.00000000 3590.00000000 -1310.00000000 103 114 147 0.000000 0.000000 0.000000 0.000000 -60.708740 0.000000 107.000000 0.767053 0.618199 0.171638
-18630.00000000 3550.00000000 -1230.00000000 103 114 147 0.000000 0.000000 0.000000 0.000000 -60.708740 0.000000 107.000000 0.891491 0.297164 0.341962
-18640.00000000 3580.00000000 -1360.00000000 103 114 147 0.000000 0.000000 0.000000 0.000000 -60.708740 0.000000 107.000000 0.829004 0.502939 0.244549
-18870.00000000 3530.00000000 -1290.00000000 103 114 147 0.000000 0.000000 0.000000 0.000000 -60.708740 0.000000 154.000000 0.532535 0.819402 0.212099
-18860.00000000 3480.00000000 -1320.00000000 103 114 147 0.000000 0.000000 0.000000 0.000000 -60.708740 0.000000 154.000000 0.701803 0.670261 0.241294
-18590.00000000 3220.00000000 -920.00000000 103 114 147 0.000000 0.000000 0.000000 0.000000 -60.708740 0.000000 128.000000 0.974342 -0.132008 0.182296
-18590.00000000 3220.00000000 -910.00000000 103 114 147 0.000000 0.000000 0.000000 0.000000 -60.708740 0.000000 128.000000 0.940343 -0.148332 -0.306190
-18610.00000000 3180.00000000 -940.00000000 103 114 147 0.000000 0.000000 0.000000 0.000000 -60.708740 0.000000 128.000000 0.867059 -0.326874 -0.375981
-18570.00000000 3170.00000000 -950.00000000 103 114 147 0.000000 0.000000 0.000000 0.000000 -60.708740 0.000000 128.000000 0.978671 0.089415 0.184955
-18570.00000000 3170.00000000 -950.00000000 103 114 147 0.000000 0.000000 0.000000 0.000000 -60.708740 0.000000 128.000000 0.978671 0.089415 0.184955
-18580.00000000 3250.00000000 -1000.00000000 103 114 147 0.000000 0.000000 0.000000 0.000000 -60.708740 0.000000 128.000000 0.921196 -0.096610 -0.376915
-18580.00000000 3200.00000000 -980.00000000 103 114 147 0.000000 0.000000 0.000000 0.000000 -60.708740 0.000000 128.000000 0.998927 0.044328 -0.013401
-18600.00000000 3170.00000000 -950.00000000 103 114 147 0.000000 0.000000 0.000000 0.000000 -60.708740 0.000000 128.000000 0.990653 -0.130498 0.039717
-18600.00000000 3170.00000000 -950.00000000 103 114 147 0.000000 0.000000 0.000000 0.000000 -60.708740 0.000000 128.000000 0.990653 -0.130498 0.039717
-18640.00000000 3210.00000000 -990.00000000 103 114 147 0.000000 0.000000 0.000000 0.000000 -60.708740 0.000000 128.000000 0.952935 -0.219701 -0.208918
-18620.00000000 3200.00000000 -970.00000000 103 114 147 0.000000 0.000000 0.000000 0.000000 -60.708740 0.000000 128.000000 0.973478 0.190162 -0.127194
-18630.00000000 3200.00000000 -960.00000000 103 114 147 0.000000 0.000000 0.000000 0.000000 -60.708740 0.000000 128.000000 0.894693 -0.374145 0.244007
-18540.00000000 3100.00000000 -720.00000000 103 114 147 0.000000 0.000000 0.000000 0.000000 -60.708740 0.000000 128.000000 0.986495 -0.105908 -0.124948
-18550.00000000 3100.00000000 -700.00000000 103 114 147 0.000000 0.000000 0.000000 0.000000 -60.708740 0.000000 128.000000 0.976067 -0.180753 -0.120918
-18560.00000000 3160.00000000 -770.00000000 103 114 147 0.000000 0.000000 0.000000 0.000000 -60.708740 0.000000 128.000000 0.941851 -0.295777 0.159474
-18560.00000000 3150.00000000 -800.00000000 103 114 147 0.000000 0.000000 0.000000 0.000000 -60.708740 0.000000 128.000000 0.987361 -0.157570 -0.017004
-18550.00000000 3110.00000000 -790.00000000 103 114 147 0.000000 0.000000 0.000000 0.000000 -60.708740 0.000000 128.000000 0.967494 -0.192465 0.164048
-18610.00000000 3110.00000000 -850.00000000 103 114 147 0.000000 0.000000 0.000000 0.000000 -60.708740 0.000000 128.000000 0.989931 0.046813 0.133589
-18570.00000000 3030.00000000 -710.00000000 103 114 147 0.000000 0.000000 0.000000 0.000000 -60.708740 0.000000 128.000000 0.995178 -0.025070 -0.094831
-18550.00000000 3130.00000000 -940.00000000 103 114 147 0.000000 0.000000 0.000000 0.000000 -60.708740 0.000000 128.000000 0.992474 -0.080717 0.092085
-18610.00000000 3120.00000000 -920.00000000 103 114 147 0.000000 0.000000 0.000000 0.000000 -60.708740 0.000000 128.000000 0.995733 0.058314 -0.071517
-18600.00000000 3150.00000000 -1010.00000000 103 114 147 0.000000 0.000000 0.000000 0.000000 -60.708740 0.000000 128.000000 0.934104 -0.273910 -0.228961
-18620.00000000 3160.00000000 -890.00000000 103 114 147 0.000000 0.000000 0.000000 0.000000 -60.708740 0.000000 128.000000 0.809293 -0.475400 -0.345023
-18620.00000000 3100.00000000 -890.00000000 103 114 147 0.000000 0.000000 0.000000 0.000000 -60.708740 0.000000 128.000000 0.845568 -0.507933 -0.164375
-18620.00000000 3100.00000000 -930.00000000 103 114 147 0.000000 0.000000 0.000000 0.000000 -60.708740 0.000000 128.000000 0.821556 -0.541172 -0.179386
-18640.00000000 3130.00000000 -1030.00000000 103 114 147 0.000000 0.000000 0.000000 0.000000 -60.708740 0.000000 128.000000 -0.813524 0.429937 0.391578
-18610.00000000 3170.00000000 -1090.00000000 103 114 147 0.000000 0.000000 0.000000 0.000000 -60.708740 0.000000 128.000000 0.996481 -0.076819 -0.033541
-18690.00000000 3260.00000000 -1140.00000000 103 114 147 0.000000 0.000000 0.000000 0.000000 -60.708740 0.000000 128.000000 0.917575 0.027488 -0.396612
-18660.00000000 3210.00000000 -1060.00000000 103 114 147 0.000000 0.000000 0.000000 0.000000 -60.708740 0.000000 128.000000 0.801939 -0.517227 -0.298948
-18670.00000000 3190.00000000 -1050.00000000 103 114 147 0.000000 0.000000 0.000000 0.000000 -60.708740 0.000000 128.000000 0.990473 0.093834 -0.100785
-18670.00000000 3190.00000000 -1060.00000000 103 114 147 0.000000 0.000000 0.000000 0.000000 -60.708740 0.000000 128.000000 0.968951 -0.048017 -0.242546
-18690.00000000 3180.00000000 -1070.00000000 103 114 147 0.000000 0.000000 0.000000 0.000000 -60.708740 0.000000 128.000000 0.973868 -0.180627 0.137680
-18690.00000000 3190.00000000 -1080.00000000 103 114 147 0.000000 0.000000 0.000000 0.000000 -60.708740 0.000000 128.000000 0.908389 -0.305722 -0.285243
-18660.00000000 3210.00000000 -1140.00000000 103 114 147 0.000000 0.000000 0.000000 0.000000 -60.708740 0.000000 128.000000 0.997847 -0.064140 -0.013669
-18660.00000000 3210.00000000 -1120.00000000 103 114 147 0.000000 0.000000 0.000000 0.000000 -60.708740 0.000000 128.000000 0.967003 -0.108294 0.230603
-18650.00000000 3190.00000000 -1120.00000000 103 114 147 0.000000 0.000000 0.000000 0.000000 -60.708740 0.000000 128.000000 0.967437 -0.234569 0.095095
-18660.00000000 3200.00000000 -1160.00000000 103 114 147 0.000000 0.000000 0.000000 0.000000 -60.708740 0.000000 128.000000 0.933723 -0.304747 0.187858
-18650.00000000 3200.00000000 -1170.00000000 103 114 147 0.000000 0.000000 0.000000 0.000000 -60.708740 0.000000 128.000000 0.984003 -0.084890 0.156627
-18690.00000000 3250.00000000 -1130.00000000 103 114 147 0.000000 0.000000 0.000000 0.000000 -60.708740 0.000000 128.000000 0.995733 -0.058314 0.071517
-18700.00000000 3250.00000000 -1150.00000000 103 114 147 0.000000 0.000000 0.000000 0.000000 -60.708740 0.000000 128.000000 0.989624 0.110475 0.091869
-18700.00000000 3250.00000000 -1140.00000000 103 114 147 0.000000 0.000000 0.000000 0.000000 -60.708740 0.000000 128.000000 0.935406 -0.272652 -0.225113
-18690.00000000 3200.00000000 -1190.00000000 103 114 147 0.000000 0.000000 0.000000 0.000000 -60.708740 0.000000 128.000000 0.696072 -0.713510 0.079925
-18700.00000000 3300.00000000 -1230.00000000 103 114 147 0.000000 0.000000 0.000000 0.000000 -60.708740 0.000000 128.000000 0.985528 0.059907 -0.158577
-18660.00000000 3220.00000000 -1230.00000000 103 114 147 0.000000 0.000000 0.000000 0.000000 -60.708740 0.000000 128.000000 0.949929 -0.305472 -0.065735
-18670.00000000 3210.00000000 -1220.00000000 103 114 147 0.000000 0.000000 0.000000 0.000000 -60.708740 0.000000 128.000000 0.777258 -0.557909 -0.290875
-18680.00000000 3200.00000000 -1210.00000000 103 114 147 0.000000 0.000000 0.000000 0.000000 -60.708740 0.000000 128.000000 0.768196 -0.620292 -0.158469
-18610.00000000 3150.00000000 -1080.00000000 103 114 147 0.000000 0.000000 0.000000 0.000000 -60.708740 0.000000 128.000000 0.990534 -0.079566 0.111853
-18620.00000000 3160.00000000 -1060.00000000 103 114 147 0.000000 0.000000 0.000000 0.000000 -60.708740 0.000000 128.000000 0.739591 -0.672986 0.009713
-18640.00000000 3150.00000000 -1110.00000000 103 114 147 0.000000 0.000000 0.000000 0.000000 -60.708740 0.000000 128.000000 0.824137 -0.558566 -0.093816
-18640.00000000 3150.00000000 -1100.00000000 103 114 147 0.000000 0.000000 0.000000 0.000000 -60.708740 0.000000 128.000000 0.946173 -0.323658 -0.001240
-18640.00000000 3150.00000000 -1110.00000000 103 114 147 0.000000 0.000000 0.000000 0.000000 -60.708740 0.000000 128.000000 0.824137 -0.558566 -0.093816
-18630.00000000 3160.00000000 -1120.00000000 103 114 147 0.000000 0.000000 0.000000 0.000000 -60.708740 0.000000 128.000000 0.909643 -0.330382 0.251789
-18650.00000000 3160.00000000 -1140.00000000 103 114 147 0.000000 0.000000 0.000000 0.000000 -60.708740 0.000000 128.000000 0.947139 -0.320705 0.008735
-18730.00000000 3220.00000000 -1160.00000000 103 114 147 0.000000 0.000000 0.000000 0.000000 -60.708740 0.000000 128.000000 0.766300 -0.642481 0.001376
-18710.00000000 3180.00000000 -1160.00000000 103 114 147 0.000000 0.000000 0.000000 0.000000 -60.708740 0.000000 128.000000 -0.640022 0.669637 0.376774
-18720.00000000 3260.00000000 -1260.00000000 103 114 147 0.000000 0.000000 0.000000 0.000000 -60.708740 0.000000 128.000000 0.894983 -0.365390 0.255921
-18770.00000000 3300.00000000 -1340.00000000 103 114 147 0.000000 0.000000 0.000000 0.000000 -60.708740 0.000000 128.000000 0.989372 -0.138398 -0.044608
-18760.00000000 3310.00000000 -1360.00000000 103 114 147 0.000000 0.000000 0.000000 0.000000 -60.708740 0.000000 128.000000 0.982947 -0.031557 -0.181161
-18770.00000000 3280.00000000 -1310.00000000 103 114 147 0.000000 0.000000 0.000000 0.000000 -60.708740 0.000000 128.000000 0.972235 -0.233859 0.008310
-18730.00000000 3220.00000000 -1270.00000000 103 114 147 0.000000 0.000000 0.000000 0.000000 -60.708740 0.000000 128.000000 0.678382 -0.694122 -0.240818
