//X Y Z R G B PointSourceId ScanDirectionFlag NumberOfReturns ReturnNumber GpsTime Intensity Classification Nx Ny Nz
10220.00000000 9060.00000000 -840.00000000 200 98 106 97.000000 1.000000 4.000000 1.000000 -60.708740 114.000000 10.000000 0.740983 0.656815 -0.139780
10250.00000000 9060.00000000 -890.00000000 200 98 106 97.000000 1.000000 4.000000 1.000000 -60.708740 114.000000 10.000000 0.544338 0.827571 -0.137191
10240.00000000 9060.00000000 -920.00000000 200 98 106 97.000000 1.000000 4.000000 1.000000 -60.708740 114.000000 10.000000 0.626848 0.772967 -0.097899
10240.00000000 9060.00000000 -970.00000000 200 98 106 97.000000 1.000000 4.000000 1.000000 -60.708740 114.000000 10.000000 0.717960 0.607254 0.340258
10240.00000000 9060.00000000 -920.00000000 200 98 106 97.000000 1.000000 4.000000 1.000000 -60.708740 114.000000 10.000000 0.626848 0.772967 -0.097899
10260.00000000 9060.00000000 -910.00000000 200 98 106 97.000000 1.000000 4.000000 1.000000 -60.708740 114.000000 10.000000 0.534549 0.828027 0.169199
10310.00000000 9060.00000000 -1050.00000000 200 98 106 97.000000 1.000000 4.000000 1.000000 -60.708740 114.000000 10.000000 0.519351 0.844128 0.133129
10440.00000000 9070.00000000 -480.00000000 200 98 106 97.000000 1.000000 4.000000 1.000000 -60.708740 114.000000 10.000000 0.950663 0.272193 0.148834
10440.00000000 9090.00000000 -480.00000000 200 98 106 97.000000 1.000000 4.000000 1.000000 -60.708740 114.000000 10.000000 0.804816 0.592802 0.029291
10440.00000000 9090.00000000 -680.00000000 200 98 106 97.000000 1.000000 4.000000 1.000000 -60.708740 114.000000 10.000000 0.967983 -0.244165 0.058252
10440.00000000 9080.00000000 -620.00000000 200 98 106 97.000000 1.000000 4.000000 1.000000 -60.708740 114.000000 10.000000 0.994321 0.103917 0.022971
10450.00000000 9100.00000000 -660.00000000 200 98 106 97.000000 1.000000 4.000000 1.000000 -60.708740 114.000000 10.000000 0.995210 0.051914 0.082842
10440.00000000 9090.00000000 -610.00000000 200 98 106 97.000000 1.000000 4.000000 1.000000 -60.708740 114.000000 10.000000 0.924877 0.313975 0.214526
10440.00000000 9150.00000000 -870.00000000 200 98 106 97.000000 1.000000 4.000000 1.000000 -60.708740 114.000000 10.000000 0.957723 -0.127085 -0.258100
10440.00000000 9120.00000000 -770.00000000 200 98 106 97.000000 1.000000 4.000000 1.000000 -60.708740 114.000000 10.000000 0.988470 0.142201 0.052025
10440.00000000 9100.00000000 -780.00000000 200 98 106 97.000000 1.000000 4.000000 1.000000 -60.708740 114.000000 10.000000 0.975627 -0.216673 0.034716
10440.00000000 9040.00000000 -390.00000000 200 98 106 97.000000 1.000000 4.000000 1.000000 -60.708740 114.000000 10.000000 0.995025 0.051905 0.085035
10440.00000000 9030.00000000 -410.00000000 200 98 106 97.000000 1.000000 4.000000 1.000000 -60.708740 114.000000 10.000000 0.979076 -0.076623 0.188518
10440.00000000 9020.00000000 -390.00000000 200 98 106 97.000000 1.000000 4.000000 1.000000 -60.708740 114.000000 10.000000 0.990168 -0.105633 0.091704
10440.00000000 9020.00000000 -480.00000000 200 98 106 97.000000 1.000000 4.000000 1.000000 -60.708740 114.000000 10.000000 0.902119 -0.374547 0.214235
10440.00000000 9040.00000000 -480.00000000 200 98 106 97.000000 1.000000 4.000000 1.000000 -60.708740 114.000000 10.000000 0.986577 0.093565 0.133833
10440.00000000 9020.00000000 -470.00000000 200 98 106 97.000000 1.000000 4.000000 1.000000 -60.708740 114.000000 10.000000 0.889480 -0.207300 0.407249
10440.00000000 9020.00000000 -470.00000000 200 98 106 97.000000 1.000000 4.000000 1.000000 -60.708740 114.000000 10.000000 0.889480 -0.207300 0.407249
10440.00000000 9030.00000000 -480.00000000 200 98 106 97.000000 1.000000 4.000000 1.000000 -60.708740 114.000000 10.000000 0.989247 0.040027 -0.140668
10450.00000000 9050.00000000 -510.00000000 200 98 106 97.000000 1.000000 4.000000 1.000000 -60.708740 114.000000 10.000000 0.999139 0.034026 0.023715
10440.00000000 9060.00000000 -520.00000000 200 98 106 97.000000 1.000000 4.000000 1.000000 -60.708740 114.000000 10.000000 0.918278 0.361405 0.161718
10440.00000000 9020.00000000 -510.00000000 200 98 106 97.000000 1.000000 4.000000 1.000000 -60.708740 114.000000 10.000000 0.879968 -0.243523 0.407863
10450.00000000 9060.00000000 -520.00000000 200 98 106 97.000000 1.000000 4.000000 1.000000 -60.708740 114.000000 10.000000 0.954896 -0.285564 0.081405
10440.00000000 9060.00000000 -520.00000000 200 98 106 97.000000 1.000000 4.000000 1.000000 -60.708740 114.000000 10.000000 0.918278 0.361405 0.161718
10440.00000000 9060.00000000 -490.00000000 200 98 106 97.000000 1.000000 4.000000 1.000000 -60.708740 114.000000 10.000000 0.999794 -0.017048 0.011031
10450.00000000 8990.00000000 -500.00000000 200 98 106 97.000000 1.000000 4.000000 1.000000 -60.708740 114.000000 10.000000 0.919309 -0.185562 0.347043
10440.00000000 8950.00000000 -440.00000000 200 98 106 97.000000 1.000000 4.000000 1.000000 -60.708740 114.000000 10.000000 -0.618652 0.779531 0.097990
10440.00000000 8970.00000000 -400.00000000 200 98 106 97.000000 1.000000 4.000000 1.000000 -60.708740 114.000000 10.000000 0.959404 -0.262833 -0.102285
10440.00000000 9010.00000000 -540.00000000 200 98 106 97.000000 1.000000 4.000000 1.000000 -60.708740 114.000000 10.000000 0.912489 -0.352063 -0.208364
10440.00000000 9020.00000000 -550.00000000 200 98 106 97.000000 1.000000 4.000000 1.000000 -60.708740 114.000000 10.000000 0.964963 -0.178890 -0.191948
10440.00000000 9060.00000000 -570.00000000 200 98 106 97.000000 1.000000 4.000000 1.000000 -60.708740 114.000000 10.000000 0.999627 -0.027126 0.003014
10440.00000000 9050.00000000 -540.00000000 200 98 106 97.000000 1.000000 4.000000 1.000000 -60.708740 114.000000 10.000000 0.990741 -0.062995 0.120263
10450.00000000 9030.00000000 -530.00000000 200 98 106 97.000000 1.000000 4.000000 1.000000 -60.708740 114.000000 10.000000 0.973768 0.173030 -0.147770
10440.00000000 9050.00000000 -550.00000000 200 98 106 97.000000 1.000000 4.000000 1.000000 -60.708740 114.000000 10.000000 0.994010 -0.003245 -0.109244
10440.00000000 9030.00000000 -570.00000000 200 98 106 97.000000 1.000000 4.000000 1.000000 -60.708740 114.000000 10.000000 0.900611 -0.116253 0.418791
10440.00000000 9050.00000000 -540.00000000 200 98 106 97.000000 1.000000 4.000000 1.000000 -60.708740 114.000000 10.000000 0.990741 -0.062995 0.120263
10450.00000000 9050.00000000 -650.00000000 200 98 106 97.000000 1.000000 4.000000 1.000000 -60.708740 114.000000 10.000000 0.987213 0.159082 0.010154
10440.00000000 9010.00000000 -690.00000000 200 98 106 97.000000 1.000000 4.000000 1.000000 -60.708740 114.000000 10.000000 0.940442 -0.234763 0.245876
10370.00000000 9070.00000000 -270.00000000 200 98 106 97.000000 1.000000 4.000000 1.000000 -60.708740 114.000000 10.000000 0.749649 0.644064 0.152343
10360.00000000 9080.00000000 -280.00000000 200 98 106 97.000000 1.000000 4.000000 1.000000 -60.708740 114.000000 10.000000 0.680964 0.731719 -0.029607
10360.00000000 9080.00000000 -340.00000000 200 98 106 97.000000 1.000000 4.000000 1.000000 -60.708740 114.000000 10.000000 0.695733 0.701796 -0.153092
10330.00000000 9070.00000000 -270.00000000 200 98 106 97.000000 1.000000 4.000000 1.000000 -60.708740 114.000000 10.000000 0.875773 0.330509 0.351832
10310.00000000 9130.00000000 -290.00000000 200 98 106 97.000000 1.000000 4.000000 1.000000 -60.708740 114.000000 10.000000 0.264638 0.963775 -0.033234
10340.00000000 9110.00000000 -350.00000000 200 98 106 97.000000 1.000000 4.000000 1.000000 -60.708740 114.000000 10.000000 0.611022 0.611022 0.503294
10340.00000000 9130.00000000 -330.00000000 200 98 106 97.000000 1.000000 4.000000 1.000000 -60.708740 114.000000 10.000000 0.407730 0.909551 -0.080455
10320.00000000 9120.00000000 -330.00000000 200 98 106 97.000000 1.000000 4.000000 1.000000 -60.708740 114.000000 10.000000 0.456167 0.889726 0.017289
10330.00000000 9080.00000000 -300.00000000 200 98 106 97.000000 1.000000 4.000000 1.000000 -60.708740 114.000000 10.000000 0.565963 0.819423 -0.090727
10340.00000000 9100.00000000 -280.00000000 200 98 106 97.000000 1.000000 4.000000 1.000000 -60.708740 114.000000 10.000000 0.681518 0.524116 0.510720
10320.00000000 9090.00000000 -290.00000000 200 98 106 97.000000 1.000000 4.000000 1.000000 -60.708740 114.000000 10.000000 0.659982 0.738157 -0.139814
10350.00000000 9080.00000000 -310.00000000 200 98 106 97.000000 1.000000 4.000000 1.000000 -60.708740 114.000000 10.000000 0.696920 0.533136 0.479655
10330.00000000 9090.00000000 -280.00000000 200 98 106 97.000000 1.000000 4.000000 1.000000 -60.708740 114.000000 10.000000 0.823498 0.542522 0.165895
10330.00000000 9100.00000000 -300.00000000 200 98 106 97.000000 1.000000 4.000000 1.000000 -60.708740 114.000000 10.000000 0.712229 0.694534 -0.101747
10330.00000000 9080.00000000 -280.00000000 200 98 106 97.000000 1.000000 4.000000 1.000000 -60.708740 114.000000 10.000000 0.809591 0.448708 0.378448
10300.00000000 9120.00000000 -350.00000000 200 98 106 97.000000 1.000000 4.000000 1.000000 -60.708740 114.000000 10.000000 0.189996 0.912839 0.361422
10270.00000000 9090.00000000 -300.00000000 200 98 106 97.000000 1.000000 4.000000 1.000000 -60.708740 114.000000 10.000000 -0.347646 0.878982 0.326392
10270.00000000 9090.00000000 -330.00000000 200 98 106 97.000000 1.000000 4.000000 1.000000 -60.708740 114.000000 10.000000 -0.144901 0.962089 0.231058
10260.00000000 9090.00000000 -320.00000000 200 98 106 97.000000 1.000000 4.000000 1.000000 -60.708740 114.000000 10.000000 -0.365572 0.925481 -0.099207
10260.00000000 9120.00000000 -320.00000000 200 98 106 97.000000 1.000000 4.000000 1.000000 -60.708740 114.000000 10.000000 -0.044143 0.908284 0.416018
10260.00000000 9090.00000000 -320.00000000 200 98 106 97.000000 1.000000 4.000000 1.000000 -60.708740 114.000000 10.000000 -0.365572 0.925481 -0.099207
10430.00000000 9070.00000000 -430.00000000 200 98 106 97.000000 1.000000 4.000000 1.000000 -60.708740 114.000000 10.000000 0.967043 0.254611 -0.001195
10370.00000000 9080.00000000 -390.00000000 200 98 106 97.000000 1.000000 4.000000 1.000000 -60.708740 114.000000 10.000000 0.851629 0.362760 0.378329
10390.00000000 9070.00000000 -390.00000000 200 98 106 97.000000 1.000000 4.000000 1.000000 -60.708740 114.000000 10.000000 0.983333 0.180989 0.017292
10410.00000000 9110.00000000 -520.00000000 200 98 106 97.000000 1.000000 4.000000 1.000000 -60.708740 114.000000 10.000000 0.902900 0.134234 0.408354
10410.00000000 9090.00000000 -510.00000000 200 98 106 97.000000 1.000000 4.000000 1.000000 -60.708740 114.000000 10.000000 0.912092 0.377564 0.159793
10410.00000000 9080.00000000 -510.00000000 200 98 106 97.000000 1.000000 4.000000 1.000000 -60.708740 114.000000 10.000000 0.881838 0.366302 0.296961
10410.00000000 9090.00000000 -510.00000000 200 98 106 97.000000 1.000000 4.000000 1.000000 -60.708740 114.000000 10.000000 0.912092 0.377564 0.159793
10380.00000000 9110.00000000 -480.00000000 200 98 106 97.000000 1.000000 4.000000 1.000000 -60.708740 114.000000 10.000000 0.768654 0.636967 0.058687
10380.00000000 9110.00000000 -480.00000000 200 98 106 97.000000 1.000000 4.000000 1.000000 -60.708740 114.000000 10.000000 0.768654 0.636967 0.058687
10360.00000000 9120.00000000 -450.00000000 200 98 106 97.000000 1.000000 4.000000 1.000000 -60.708740 114.000000 10.000000 0.646880 0.710769 0.276322
10380.00000000 9140.00000000 -510.00000000 200 98 106 97.000000 1.000000 4.000000 1.000000 -60.708740 114.000000 10.000000 0.762071 0.598658 0.246691
10380.00000000 9090.00000000 -460.00000000 200 98 106 97.000000 1.000000 4.000000 1.000000 -60.708740 114.000000 10.000000 0.811830 0.582673 0.037727
10320.00000000 9150.00000000 -430.00000000 200 98 106 97.000000 1.000000 4.000000 1.000000 -60.708740 114.000000 10.000000 0.577795 0.762434 0.291285
10330.00000000 9150.00000000 -440.00000000 200 98 106 97.000000 1.000000 4.000000 1.000000 -60.708740 114.000000 10.000000 0.658814 0.608777 0.441989
10290.00000000 9150.00000000 -430.00000000 200 98 106 97.000000 1.000000 4.000000 1.000000 -60.708740 114.000000 10.000000 0.112135 0.878628 0.464154
10310.00000000 9160.00000000 -480.00000000 200 98 106 97.000000 1.000000 4.000000 1.000000 -60.708740 114.000000 10.000000 -0.074506 0.861735 0.501859
10350.00000000 9150.00000000 -500.00000000 200 98 106 97.000000 1.000000 4.000000 1.000000 -60.708740 114.000000 10.000000 0.755572 0.654266 -0.032362
10310.00000000 9160.00000000 -490.00000000 200 98 106 97.000000 1.000000 4.000000 1.000000 -60.708740 114.000000 10.000000 -0.012787 0.979960 0.198782
10310.00000000 9170.00000000 -520.00000000 200 98 106 97.000000 1.000000 4.000000 1.000000 -60.708740 114.000000 10.000000 -0.120473 0.991934 0.039407
10320.00000000 9160.00000000 -490.00000000 200 98 106 97.000000 1.000000 4.000000 1.000000 -60.708740 114.000000 10.000000 0.623246 0.750693 0.219146
10300.00000000 9160.00000000 -450.00000000 200 98 106 97.000000 1.000000 4.000000 1.000000 -60.708740 114.000000 10.000000 -0.103110 0.914246 0.391820
10290.00000000 9160.00000000 -480.00000000 200 98 106 97.000000 1.000000 4.000000 1.000000 -60.708740 114.000000 10.000000 -0.062013 0.932835 0.354926
10300.00000000 9160.00000000 -490.00000000 200 98 106 97.000000 1.000000 4.000000 1.000000 -60.708740 114.000000 10.000000 -0.207052 0.888413 0.409698
10340.00000000 9120.00000000 -360.00000000 200 98 106 97.000000 1.000000 4.000000 1.000000 -60.708740 114.000000 10.000000 0.553077 0.825986 -0.108873
10350.00000000 9110.00000000 -360.00000000 200 98 106 97.000000 1.000000 4.000000 1.000000 -60.708740 114.000000 10.000000 0.768907 0.626131 0.129391
10340.00000000 9120.00000000 -360.00000000 200 98 106 97.000000 1.000000 4.000000 1.000000 -60.708740 114.000000 10.000000 0.553077 0.825986 -0.108873
10320.00000000 9130.00000000 -410.00000000 200 98 106 97.000000 1.000000 4.000000 1.000000 -60.708740 114.000000 10.000000 0.228883 0.916970 0.326770
10310.00000000 9130.00000000 -420.00000000 200 98 106 97.000000 1.000000 4.000000 1.000000 -60.708740 114.000000 10.000000 0.037611 0.932485 0.359246
10320.00000000 9130.00000000 -420.00000000 200 98 106 97.000000 1.000000 4.000000 1.000000 -60.708740 114.000000 10.000000 0.140099 0.904273 0.403314
10320.00000000 9120.00000000 -440.00000000 200 98 106 97.000000 1.000000 4.000000 1.000000 -60.708740 114.000000 10.000000 0.638387 0.641721 0.425036
10330.00000000 9110.00000000 -430.00000000 200 98 106 97.000000 1.000000 4.000000 1.000000 -60.708740 114.000000 10.000000 0.678165 0.594852 0.431559
10330.00000000 9110.00000000 -430.00000000 200 98 106 97.000000 1.000000 4.000000 1.000000 -60.708740 114.000000 10.000000 0.678165 0.594852 0.431559
10340.00000000 9140.00000000 -440.00000000 200 98 106 97.000000 1.000000 4.000000 1.000000 -60.708740 114.000000 10.000000 0.595612 0.737654 0.317982
10330.00000000 9110.00000000 -400.00000000 200 98 106 97.000000 1.000000 4.000000 1.000000 -60.708740 114.000000 10.000000 0.392063 0.894256 0.215855
10330.00000000 9100.00000000 -380.00000000 200 98 106 97.000000 1.000000 4.000000 1.000000 -60.708740 114.000000 10.000000 0.679866 0.692485 0.241344
10330.00000000 9090.00000000 -360.00000000 200 98 106 97.000000 1.000000 4.000000 1.000000 -60.708740 114.000000 10.000000 0.298193 0.867055 0.399120
10340.00000000 9090.00000000 -430.00000000 200 98 106 97.000000 1.000000 4.000000 1.000000 -60.708740 114.000000 10.000000 0.624389 0.667450 0.405770
10350.00000000 9090.00000000 -410.00000000 200 98 106 97.000000 1.000000 4.000000 1.000000 -60.708740 114.000000 10.000000 0.544834 0.672241 0.501247
10290.00000000 9120.00000000 -380.00000000 200 98 106 97.000000 1.000000 4.000000 1.000000 -60.708740 114.000000 10.000000 -0.186818 0.972214 0.141066
10280.00000000 9140.00000000 -400.00000000 200 98 106 97.000000 1.000000 4.000000 1.000000 -60.708740 114.000000 10.000000 -0.043437 0.922711 0.383037
10280.00000000 9100.00000000 -360.00000000 200 98 106 97.000000 1.000000 4.000000 1.000000 -60.708740 114.000000 10.000000 0.169599 0.862743 0.476352
10270.00000000 9100.00000000 -440.00000000 200 98 106 97.000000 1.000000 4.000000 1.000000 -60.708740 114.000000 10.000000 -0.107345 0.978441 0.176440
10340.00000000 9120.00000000 -460.00000000 200 98 106 97.000000 1.000000 4.000000 1.000000 -60.708740 114.000000 10.000000 0.467196 0.737938 0.487006
10340.00000000 9120.00000000 -460.00000000 200 98 106 97.000000 1.000000 4.000000 1.000000 -60.708740 114.000000 10.000000 0.467196 0.737938 0.487006
10330.00000000 9110.00000000 -460.00000000 200 98 106 97.000000 1.000000 4.000000 1.000000 -60.708740 114.000000 10.000000 0.280113 0.953437 0.111782
10330.00000000 9140.00000000 -490.00000000 200 98 106 97.000000 1.000000 4.000000 1.000000 -60.708740 114.000000 10.000000 0.702092 0.707906 0.077041
10330.00000000 9140.00000000 -520.00000000 200 98 106 97.000000 1.000000 4.000000 1.000000 -60.708740 114.000000 10.000000 0.193687 0.842313 0.502985
10350.00000000 9100.00000000 -450.00000000 200 98 106 97.000000 1.000000 4.000000 1.000000 -60.708740 114.000000 10.000000 0.571369 0.628674 0.527547
10280.00000000 9130.00000000 -460.00000000 200 98 106 97.000000 1.000000 4.000000 1.000000 -60.708740 114.000000 10.000000 -0.025995 0.959356 0.280998
10390.00000000 9150.00000000 -580.00000000 200 98 106 97.000000 1.000000 4.000000 1.000000 -60.708740 114.000000 10.000000 0.861357 0.417674 0.289159
10390.00000000 9150.00000000 -590.00000000 200 98 106 97.000000 1.000000 4.000000 1.000000 -60.708740 114.000000 10.000000 0.759234 0.520851 0.390230
10410.00000000 9150.00000000 -600.00000000 200 98 106 97.000000 1.000000 4.000000 1.000000 -60.708740 114.000000 10.000000 0.653401 0.606611 0.452869
10400.00000000 9150.00000000 -630.00000000 200 98 106 97.000000 1.000000 4.000000 1.000000 -60.708740 114.000000 10.000000 0.642952 0.656175 0.395027
10400.00000000 9150.00000000 -630.00000000 200 98 106 97.000000 1.000000 4.000000 1.000000 -60.708740 114.000000 10.000000 0.642952 0.656175 0.395027
10380.00000000 9150.00000000 -640.00000000 200 98 106 97.000000 1.000000 4.000000 1.000000 -60.708740 114.000000 10.000000 0.662194 0.718286 0.213460
10390.00000000 9150.00000000 -650.00000000 200 98 106 97.000000 1.000000 4.000000 1.000000 -60.708740 114.000000 10.000000 0.590033 0.797063 0.128654
10360.00000000 9150.00000000 -620.00000000 200 98 106 97.000000 1.000000 4.000000 1.000000 -60.708740 114.000000 10.000000 0.629083 0.744597 0.223223
10390.00000000 9170.00000000 -630.00000000 200 98 106 97.000000 1.000000 4.000000 1.000000 -60.708740 114.000000 10.000000 0.762886 0.640824 0.085734
10380.00000000 9150.00000000 -650.00000000 200 98 106 97.000000 1.000000 4.000000 1.000000 -60.708740 114.000000 10.000000 0.620406 0.770626 0.145713
10360.00000000 9160.00000000 -690.00000000 200 98 106 97.000000 1.000000 4.000000 1.000000 -60.708740 114.000000 10.000000 0.638440 0.765838 -0.076729
10370.00000000 9150.00000000 -690.00000000 200 98 106 97.000000 1.000000 4.000000 1.000000 -60.708740 114.000000 10.000000 0.513899 0.826840 0.228570
10380.00000000 9160.00000000 -660.00000000 200 98 106 97.000000 1.000000 4.000000 1.000000 -60.708740 114.000000 10.000000 0.577176 0.811518 -0.091133
10410.00000000 9110.00000000 -550.00000000 200 98 106 97.000000 1.000000 4.000000 1.000000 -60.708740 114.000000 10.000000 0.946548 0.245198 0.209583
10410.00000000 9120.00000000 -530.00000000 200 98 106 97.000000 1.000000 4.000000 1.000000 -60.708740 114.000000 10.000000 0.856290 0.512656 0.062860
10430.00000000 9120.00000000 -570.00000000 200 98 106 97.000000 1.000000 4.000000 1.000000 -60.708740 114.000000 10.000000 0.984656 0.161942 0.065013
10400.00000000 9120.00000000 -580.00000000 200 98 106 97.000000 1.000000 4.000000 1.000000 -60.708740 114.000000 10.000000 0.721561 0.601029 0.343678
10420.00000000 9120.00000000 -570.00000000 200 98 106 97.000000 1.000000 4.000000 1.000000 -60.708740 114.000000 10.000000 0.880189 0.437898 -0.183068
10410.00000000 9100.00000000 -560.00000000 200 98 106 97.000000 1.000000 4.000000 1.000000 -60.708740 114.000000 10.000000 0.934771 0.347729 -0.072719
10430.00000000 9080.00000000 -590.00000000 200 98 106 97.000000 1.000000 4.000000 1.000000 -60.708740 114.000000 10.000000 0.920197 0.391437 -0.003850
10420.00000000 9080.00000000 -570.00000000 200 98 106 97.000000 1.000000 4.000000 1.000000 -60.708740 114.000000 10.000000 0.926009 0.351911 0.136624
10430.00000000 9100.00000000 -580.00000000 200 98 106 97.000000 1.000000 4.000000 1.000000 -60.708740 114.000000 10.000000 0.899310 0.435582 -0.038867
10430.00000000 9100.00000000 -570.00000000 200 98 106 97.000000 1.000000 4.000000 1.000000 -60.708740 114.000000 10.000000 0.888950 0.204238 0.409945
10360.00000000 9110.00000000 -540.00000000 200 98 106 97.000000 1.000000 4.000000 1.000000 -60.708740 114.000000 10.000000 0.696231 0.597006 0.398555
10370.00000000 9140.00000000 -560.00000000 200 98 106 97.000000 1.000000 4.000000 1.000000 -60.708740 114.000000 10.000000 0.711394 0.558834 0.426173
10380.00000000 9120.00000000 -600.00000000 200 98 106 97.000000 1.000000 4.000000 1.000000 -60.708740 114.000000 10.000000 0.740707 0.603124 0.295963
10430.00000000 9140.00000000 -650.00000000 200 98 106 97.000000 1.000000 4.000000 1.000000 -60.708740 114.000000 10.000000 0.968892 0.176279 0.173706
10420.00000000 9140.00000000 -640.00000000 200 98 106 97.000000 1.000000 4.000000 1.000000 -60.708740 114.000000 10.000000 0.912845 0.404966 0.052124
10410.00000000 9110.00000000 -640.00000000 200 98 106 97.000000 1.000000 4.000000 1.000000 -60.708740 114.000000 10.000000 0.830580 0.553248 0.063673
10430.00000000 9130.00000000 -680.00000000 200 98 106 97.000000 1.000000 4.000000 1.000000 -60.708740 114.000000 10.000000 0.970896 0.238824 0.018002
10410.00000000 9110.00000000 -660.00000000 200 98 106 97.000000 1.000000 4.000000 1.000000 -60.708740 114.000000 10.000000 0.940003 0.280206 -0.194626
10420.00000000 9110.00000000 -680.00000000 200 98 106 97.000000 1.000000 4.000000 1.000000 -60.708740 114.000000 10.000000 0.939237 0.148588 0.309444
10430.00000000 9110.00000000 -690.00000000 200 98 106 97.000000 1.000000 4.000000 1.000000 -60.708740 114.000000 10.000000 0.964803 0.133389 -0.226632
10420.00000000 9120.00000000 -660.00000000 200 98 106 97.000000 1.000000 4.000000 1.000000 -60.708740 114.000000 10.000000 0.814716 0.577502 0.052243
10400.00000000 9090.00000000 -630.00000000 200 98 106 97.000000 1.000000 4.000000 1.000000 -60.708740 114.000000 10.000000 0.987160 -0.158264 0.021633
10410.00000000 9070.00000000 -620.00000000 200 98 106 97.000000 1.000000 4.000000 1.000000 -60.708740 114.000000 10.000000 0.964963 0.191948 0.178890
10430.00000000 9100.00000000 -610.00000000 200 98 106 97.000000 1.000000 4.000000 1.000000 -60.708740 114.000000 10.000000 0.859228 0.039868 0.510038
10420.00000000 9100.00000000 -620.00000000 200 98 106 97.000000 1.000000 4.000000 1.000000 -60.708740 114.000000 10.000000 0.938422 0.345470 0.003769
10420.00000000 9080.00000000 -690.00000000 200 98 106 97.000000 1.000000 4.000000 1.000000 -60.708740 114.000000 10.000000 0.997923 -0.054085 -0.034996
10420.00000000 9100.00000000 -690.00000000 200 98 106 97.000000 1.000000 4.000000 1.000000 -60.708740 114.000000 10.000000 0.972375 -0.088625 -0.215945
10420.00000000 9080.00000000 -690.00000000 200 98 106 97.000000 1.000000 4.000000 1.000000 -60.708740 114.000000 10.000000 0.997923 -0.054085 -0.034996
10420.00000000 9080.00000000 -670.00000000 200 98 106 97.000000 1.000000 4.000000 1.000000 -60.708740 114.000000 10.000000 0.986355 0.149305 0.069362
10320.00000000 9170.00000000 -540.00000000 200 98 106 97.000000 1.000000 4.000000 1.000000 -60.708740 114.000000 10.000000 0.206542 0.931545 0.299275
10350.00000000 9150.00000000 -550.00000000 200 98 106 97.000000 1.000000 4.000000 1.000000 -60.708740 114.000000 10.000000 0.697116 0.591141 0.405685
10340.00000000 9170.00000000 -590.00000000 200 98 106 97.000000 1.000000 4.000000 1.000000 -60.708740 114.000000 10.000000 0.468494 0.871719 -0.143594
10340.00000000 9150.00000000 -580.00000000 200 98 106 97.000000 1.000000 4.000000 1.000000 -60.708740 114.000000 10.000000 0.601922 0.681515 0.416205
10340.00000000 9150.00000000 -580.00000000 200 98 106 97.000000 1.000000 4.000000 1.000000 -60.708740 114.000000 10.000000 0.601922 0.681515 0.416205
10290.00000000 9150.00000000 -600.00000000 200 98 106 97.000000 1.000000 4.000000 1.000000 -60.708740 114.000000 10.000000 -0.015204 0.803048 0.595721
10320.00000000 9200.00000000 -610.00000000 200 98 106 97.000000 1.000000 4.000000 1.000000 -60.708740 114.000000 10.000000 0.187779 0.867923 0.459836
10310.00000000 9190.00000000 -640.00000000 200 98 106 97.000000 1.000000 4.000000 1.000000 -60.708740 114.000000 10.000000 -0.192211 0.918342 0.345980
10340.00000000 9190.00000000 -650.00000000 200 98 106 97.000000 1.000000 4.000000 1.000000 -60.708740 114.000000 10.000000 0.721943 0.686940 0.083133
10330.00000000 9200.00000000 -660.00000000 200 98 106 97.000000 1.000000 4.000000 1.000000 -60.708740 114.000000 10.000000 0.341970 0.925412 0.163308
10310.00000000 9190.00000000 -670.00000000 200 98 106 97.000000 1.000000 4.000000 1.000000 -60.708740 114.000000 10.000000 0.083009 0.992695 0.087557
10330.00000000 9210.00000000 -690.00000000 200 98 106 97.000000 1.000000 4.000000 1.000000 -60.708740 114.000000 10.000000 0.092191 0.936608 0.338034
10350.00000000 9180.00000000 -650.00000000 200 98 106 97.000000 1.000000 4.000000 1.000000 -60.708740 114.000000 10.000000 0.623281 0.777286 -0.085719
10350.00000000 9160.00000000 -630.00000000 200 98 106 97.000000 1.000000 4.000000 1.000000 -60.708740 114.000000 10.000000 0.496178 0.862980 -0.095255
10320.00000000 9170.00000000 -620.00000000 200 98 106 97.000000 1.000000 4.000000 1.000000 -60.708740 114.000000 10.000000 -0.079077 0.979337 0.186135
10320.00000000 9180.00000000 -670.00000000 200 98 106 97.000000 1.000000 4.000000 1.000000 -60.708740 114.000000 10.000000 0.430916 0.901007 0.049981
10350.00000000 9170.00000000 -680.00000000 200 98 106 97.000000 1.000000 4.000000 1.000000 -60.708740 114.000000 10.000000 0.597819 0.792664 0.119564
10350.00000000 9170.00000000 -670.00000000 200 98 106 97.000000 1.000000 4.000000 1.000000 -60.708740 114.000000 10.000000 0.529317 0.785180 0.321428
10350.00000000 9180.00000000 -680.00000000 200 98 106 97.000000 1.000000 4.000000 1.000000 -60.708740 114.000000 10.000000 0.505795 0.653669 0.562928
10340.00000000 9170.00000000 -670.00000000 200 98 106 97.000000 1.000000 4.000000 1.000000 -60.708740 114.000000 10.000000 0.418441 0.871626 0.255294
10300.00000000 9190.00000000 -610.00000000 200 98 106 97.000000 1.000000 4.000000 1.000000 -60.708740 114.000000 10.000000 0.285593 0.947954 0.140785
10280.00000000 9190.00000000 -690.00000000 200 98 106 97.000000 1.000000 4.000000 1.000000 -60.708740 114.000000 10.000000 -0.410858 0.902194 0.131305
10290.00000000 9200.00000000 -680.00000000 200 98 106 97.000000 1.000000 4.000000 1.000000 -60.708740 114.000000 10.000000 -0.100959 0.908629 0.405218
10300.00000000 9210.00000000 -690.00000000 200 98 106 97.000000 1.000000 4.000000 1.000000 -60.708740 114.000000 10.000000 0.183715 0.937914 0.294221
10280.00000000 9150.00000000 -620.00000000 200 98 106 97.000000 1.000000 4.000000 1.000000 -60.708740 114.000000 10.000000 -0.065013 0.984656 -0.161942
10270.00000000 9160.00000000 -650.00000000 200 98 106 97.000000 1.000000 4.000000 1.000000 -60.708740 114.000000 10.000000 -0.572130 0.766558 0.291643
10340.00000000 9140.00000000 -540.00000000 200 98 106 97.000000 1.000000 4.000000 1.000000 -60.708740 114.000000 10.000000 0.541973 0.729769 0.416776
10350.00000000 9140.00000000 -570.00000000 200 98 106 97.000000 1.000000 4.000000 1.000000 -60.708740 114.000000 10.000000 0.626064 0.778694 -0.040984
10340.00000000 9140.00000000 -580.00000000 200 98 106 97.000000 1.000000 4.000000 1.000000 -60.708740 114.000000 10.000000 0.597853 0.677788 0.427989
10270.00000000 9140.00000000 -580.00000000 200 98 106 97.000000 1.000000 4.000000 1.000000 -60.708740 114.000000 10.000000 -0.439590 0.749115 0.495568
10260.00000000 9080.00000000 -360.00000000 200 98 106 97.000000 1.000000 4.000000 1.000000 -60.708740 114.000000 10.000000 -0.071188 0.967901 0.241039
10260.00000000 9100.00000000 -420.00000000 200 98 106 97.000000 1.000000 4.000000 1.000000 -60.708740 114.000000 10.000000 -0.242445 0.965970 -0.090123
10220.00000000 9080.00000000 -370.00000000 200 98 106 97.000000 1.000000 4.000000 1.000000 -60.708740 114.000000 10.000000 -0.661340 0.687086 -0.300902
10230.00000000 9080.00000000 -480.00000000 200 98 106 97.000000 1.000000 4.000000 1.000000 -60.708740 114.000000 10.000000 0.933571 -0.324061 0.153067
10240.00000000 9090.00000000 -450.00000000 200 98 106 97.000000 1.000000 4.000000 1.000000 -60.708740 114.000000 10.000000 0.768465 -0.575160 -0.280450
10260.00000000 9080.00000000 -520.00000000 200 98 106 97.000000 1.000000 4.000000 1.000000 -60.708740 114.000000 10.000000 0.766034 -0.633196 -0.110699
10240.00000000 9100.00000000 -520.00000000 200 98 106 97.000000 1.000000 4.000000 1.000000 -60.708740 114.000000 10.000000 0.741883 -0.647044 -0.175910
10220.00000000 9080.00000000 -510.00000000 200 98 106 97.000000 1.000000 4.000000 1.000000 -60.708740 114.000000 10.000000 0.782384 -0.543366 -0.304349
10220.00000000 9070.00000000 -500.00000000 200 98 106 97.000000 1.000000 4.000000 1.000000 -60.708740 114.000000 10.000000 0.942785 -0.142026 -0.301637
10250.00000000 9160.00000000 -680.00000000 200 98 106 97.000000 1.000000 4.000000 1.000000 -60.708740 114.000000 10.000000 -0.459822 0.767460 0.446731
10230.00000000 9160.00000000 -660.00000000 200 98 106 97.000000 1.000000 4.000000 1.000000 -60.708740 114.000000 10.000000 -0.438907 0.882188 0.170605
10260.00000000 9170.00000000 -680.00000000 200 98 106 97.000000 1.000000 4.000000 1.000000 -60.708740 114.000000 10.000000 -0.472648 0.802700 0.363698
10260.00000000 9210.00000000 -630.00000000 200 98 106 97.000000 1.000000 4.000000 1.000000 -60.708740 114.000000 10.000000 0.071868 0.986127 0.149627
10250.00000000 9120.00000000 -560.00000000 200 98 106 97.000000 1.000000 4.000000 1.000000 -60.708740 114.000000 10.000000 -0.588068 0.794566 -0.151132
10250.00000000 9120.00000000 -590.00000000 200 98 106 97.000000 1.000000 4.000000 1.000000 -60.708740 114.000000 10.000000 0.806202 -0.517038 -0.287593
10240.00000000 9070.00000000 -560.00000000 200 98 106 97.000000 1.000000 4.000000 1.000000 -60.708740 114.000000 10.000000 0.994348 -0.081467 -0.068075
10240.00000000 9090.00000000 -570.00000000 200 98 106 97.000000 1.000000 4.000000 1.000000 -60.708740 114.000000 10.000000 0.955082 -0.288448 0.067945
10230.00000000 9090.00000000 -580.00000000 200 98 106 97.000000 1.000000 4.000000 1.000000 -60.708740 114.000000 10.000000 0.861883 -0.493532 -0.116548
10240.00000000 9090.00000000 -590.00000000 200 98 106 97.000000 1.000000 4.000000 1.000000 -60.708740 114.000000 10.000000 0.959198 -0.249941 -0.132168
10240.00000000 9100.00000000 -580.00000000 200 98 106 97.000000 1.000000 4.000000 1.000000 -60.708740 114.000000 10.000000 0.874498 -0.484025 0.031184
10220.00000000 9090.00000000 -590.00000000 200 98 106 97.000000 1.000000 4.000000 1.000000 -60.708740 114.000000 10.000000 0.895860 -0.349133 -0.274849
10230.00000000 9110.00000000 -670.00000000 200 98 106 97.000000 1.000000 4.000000 1.000000 -60.708740 114.000000 10.000000 0.994948 -0.097201 0.025119
10240.00000000 9120.00000000 -680.00000000 200 98 106 97.000000 1.000000 4.000000 1.000000 -60.708740 114.000000 10.000000 0.846881 -0.338440 -0.410184
10230.00000000 9110.00000000 -660.00000000 200 98 106 97.000000 1.000000 4.000000 1.000000 -60.708740 114.000000 10.000000 0.987782 0.056876 0.145091
10230.00000000 9090.00000000 -620.00000000 200 98 106 97.000000 1.000000 4.000000 1.000000 -60.708740 114.000000 10.000000 0.856457 -0.391833 0.336078
10240.00000000 9070.00000000 -650.00000000 200 98 106 97.000000 1.000000 4.000000 1.000000 -60.708740 114.000000 10.000000 0.973235 0.202182 -0.109253
10230.00000000 9090.00000000 -650.00000000 200 98 106 97.000000 1.000000 4.000000 1.000000 -60.708740 114.000000 10.000000 0.936279 -0.117541 0.331008
10240.00000000 9100.00000000 -670.00000000 200 98 106 97.000000 1.000000 4.000000 1.000000 -60.708740 114.000000 10.000000 0.960277 -0.239742 0.142797
10230.00000000 9070.00000000 -680.00000000 200 98 106 97.000000 1.000000 4.000000 1.000000 -60.708740 114.000000 10.000000 0.999511 0.031266 -0.001009
10220.00000000 9080.00000000 -660.00000000 200 98 106 97.000000 1.000000 4.000000 1.000000 -60.708740 114.000000 10.000000 0.954616 -0.287286 0.078585
10250.00000000 9400.00000000 -1160.00000000 200 98 106 97.000000 1.000000 4.000000 1.000000 -60.708740 114.000000 10.000000 -0.114698 0.983987 0.136430
10360.00000000 9230.00000000 -790.00000000 200 98 106 97.000000 1.000000 4.000000 1.000000 -60.708740 114.000000 10.000000 0.124383 0.991702 -0.032496
10300.00000000 9230.00000000 -760.00000000 200 98 106 97.000000 1.000000 4.000000 1.000000 -60.708740 114.000000 10.000000 0.084161 0.995718 -0.038255
10290.00000000 9250.00000000 -770.00000000 200 98 106 97.000000 1.000000 4.000000 1.000000 -60.708740 114.000000 10.000000 -0.424200 0.901939 -0.080996
10270.00000000 9230.00000000 -720.00000000 200 98 106 97.000000 1.000000 4.000000 1.000000 -60.708740 114.000000 10.000000 -0.178293 0.960140 -0.215272
10320.00000000 9260.00000000 -860.00000000 200 98 106 97.000000 1.000000 4.000000 1.000000 -60.708740 114.000000 10.000000 -0.217585 0.901005 0.375297
10320.00000000 9230.00000000 -860.00000000 200 98 106 97.000000 1.000000 4.000000 1.000000 -60.708740 114.000000 10.000000 0.153691 0.929071 0.336460
10330.00000000 9240.00000000 -850.00000000 200 98 106 97.000000 1.000000 4.000000 1.000000 -60.708740 114.000000 10.000000 0.115940 0.808642 0.576763
10310.00000000 9250.00000000 -850.00000000 200 98 106 97.000000 1.000000 4.000000 1.000000 -60.708740 114.000000 10.000000 0.308867 0.915001 0.259565
10330.00000000 9230.00000000 -830.00000000 200 98 106 97.000000 1.000000 4.000000 1.000000 -60.708740 114.000000 10.000000 0.211131 0.976927 -0.032206
10310.00000000 9250.00000000 -840.00000000 200 98 106 97.000000 1.000000 4.000000 1.000000 -60.708740 114.000000 10.000000 0.267779 0.959649 -0.085843
10320.00000000 9230.00000000 -830.00000000 200 98 106 97.000000 1.000000 4.000000 1.000000 -60.708740 114.000000 10.000000 0.065297 0.972062 0.225459
10340.00000000 9230.00000000 -840.00000000 200 98 106 97.000000 1.000000 4.000000 1.000000 -60.708740 114.000000 10.000000 0.530027 0.787878 0.313560
10310.00000000 9250.00000000 -830.00000000 200 98 106 97.000000 1.000000 4.000000 1.000000 -60.708740 114.000000 10.000000 -0.024143 0.998274 -0.053535
10320.00000000 9250.00000000 -850.00000000 200 98 106 97.000000 1.000000 4.000000 1.000000 -60.708740 114.000000 10.000000 -0.034635 0.832615 0.552768
10290.00000000 9230.00000000 -790.00000000 200 98 106 97.000000 1.000000 4.000000 1.000000 -60.708740 114.000000 10.000000 -0.087003 0.932944 0.349352
10280.00000000 9230.00000000 -790.00000000 200 98 106 97.000000 1.000000 4.000000 1.000000 -60.708740 114.000000 10.000000 -0.460585 0.845690 0.269573
10280.00000000 9230.00000000 -780.00000000 200 98 106 97.000000 1.000000 4.000000 1.000000 -60.708740 114.000000 10.000000 -0.258266 0.964441 -0.056145
10280.00000000 9270.00000000 -810.00000000 200 98 106 97.000000 1.000000 4.000000 1.000000 -60.708740 114.000000 10.000000 0.096990 0.994970 0.025065
10270.00000000 9230.00000000 -810.00000000 200 98 106 97.000000 1.000000 4.000000 1.000000 -60.708740 114.000000 10.000000 -0.172605 0.966849 -0.188179
10300.00000000 9270.00000000 -820.00000000 200 98 106 97.000000 1.000000 4.000000 1.000000 -60.708740 114.000000 10.000000 0.241252 0.968719 0.058148
10270.00000000 9260.00000000 -820.00000000 200 98 106 97.000000 1.000000 4.000000 1.000000 -60.708740 114.000000 10.000000 -0.447011 0.868606 0.213788
10270.00000000 9260.00000000 -820.00000000 200 98 106 97.000000 1.000000 4.000000 1.000000 -60.708740 114.000000 10.000000 -0.447011 0.868606 0.213788
10270.00000000 9230.00000000 -830.00000000 200 98 106 97.000000 1.000000 4.000000 1.000000 -60.708740 114.000000 10.000000 -0.638031 0.702642 0.314977
10290.00000000 9260.00000000 -830.00000000 200 98 106 97.000000 1.000000 4.000000 1.000000 -60.708740 114.000000 10.000000 -0.059255 0.993920 0.092796
10280.00000000 9250.00000000 -840.00000000 200 98 106 97.000000 1.000000 4.000000 1.000000 -60.708740 114.000000 10.000000 -0.236167 0.961631 0.139613
10290.00000000 9260.00000000 -840.00000000 200 98 106 97.000000 1.000000 4.000000 1.000000 -60.708740 114.000000 10.000000 -0.079134 0.986221 0.145276
10410.00000000 9240.00000000 -920.00000000 200 98 106 97.000000 1.000000 4.000000 1.000000 -60.708740 114.000000 10.000000 0.744128 0.493336 0.450437
10360.00000000 9250.00000000 -890.00000000 200 98 106 97.000000 1.000000 4.000000 1.000000 -60.708740 114.000000 10.000000 -0.040396 0.931708 0.360955
10380.00000000 9250.00000000 -900.00000000 200 98 106 97.000000 1.000000 4.000000 1.000000 -60.708740 114.000000 10.000000 0.709660 0.704039 0.026700
10380.00000000 9230.00000000 -890.00000000 200 98 106 97.000000 1.000000 4.000000 1.000000 -60.708740 114.000000 10.000000 0.269816 0.919106 0.287130
10370.00000000 9230.00000000 -890.00000000 200 98 106 97.000000 1.000000 4.000000 1.000000 -60.708740 114.000000 10.000000 0.433929 0.900830 0.014508
10370.00000000 9250.00000000 -920.00000000 200 98 106 97.000000 1.000000 4.000000 1.000000 -60.708740 114.000000 10.000000 0.641292 0.745368 0.182133
10360.00000000 9250.00000000 -910.00000000 200 98 106 97.000000 1.000000 4.000000 1.000000 -60.708740 114.000000 10.000000 0.253348 0.960123 0.118229
10360.00000000 9230.00000000 -930.00000000 200 98 106 97.000000 1.000000 4.000000 1.000000 -60.708740 114.000000 10.000000 0.614064 0.767198 0.185291
10380.00000000 9250.00000000 -920.00000000 200 98 106 97.000000 1.000000 4.000000 1.000000 -60.708740 114.000000 10.000000 0.648734 0.724132 0.234047
10360.00000000 9240.00000000 -930.00000000 200 98 106 97.000000 1.000000 4.000000 1.000000 -60.708740 114.000000 10.000000 0.735394 0.645598 0.205910
10390.00000000 9230.00000000 -940.00000000 200 98 106 97.000000 1.000000 4.000000 1.000000 -60.708740 114.000000 10.000000 0.493414 0.838651 0.230667
10400.00000000 9230.00000000 -1030.00000000 200 98 106 97.000000 1.000000 4.000000 1.000000 -60.708740 114.000000 10.000000 0.742225 0.398147 0.539055
10370.00000000 9230.00000000 -950.00000000 200 98 106 97.000000 1.000000 4.000000 1.000000 -60.708740 114.000000 10.000000 0.583833 0.798850 0.144838
10360.00000000 9240.00000000 -960.00000000 200 98 106 97.000000 1.000000 4.000000 1.000000 -60.708740 114.000000 10.000000 0.638119 0.708843 0.300575
10360.00000000 9270.00000000 -1030.00000000 200 98 106 97.000000 1.000000 4.000000 1.000000 -60.708740 114.000000 10.000000 0.286122 0.785650 0.548532
10380.00000000 9240.00000000 -990.00000000 200 98 106 97.000000 1.000000 4.000000 1.000000 -60.708740 114.000000 10.000000 0.731106 0.560241 0.389376
10380.00000000 9240.00000000 -990.00000000 200 98 106 97.000000 1.000000 4.000000 1.000000 -60.708740 114.000000 10.000000 0.731106 0.560241 0.389376
10360.00000000 9270.00000000 -1030.00000000 200 98 106 97.000000 1.000000 4.000000 1.000000 -60.708740 114.000000 10.000000 0.286122 0.785650 0.548532
10290.00000000 9320.00000000 -990.00000000 200 98 106 97.000000 1.000000 4.000000 1.000000 -60.708740 114.000000 10.000000 0.103715 0.993656 -0.043493
10350.00000000 9240.00000000 -880.00000000 200 98 106 97.000000 1.000000 4.000000 1.000000 -60.708740 114.000000 10.000000 0.178340 0.976504 0.120972
10330.00000000 9250.00000000 -880.00000000 200 98 106 97.000000 1.000000 4.000000 1.000000 -60.708740 114.000000 10.000000 0.347657 0.886450 0.305517
10350.00000000 9250.00000000 -880.00000000 200 98 106 97.000000 1.000000 4.000000 1.000000 -60.708740 114.000000 10.000000 0.254231 0.877023 0.407673
10350.00000000 9240.00000000 -880.00000000 200 98 106 97.000000 1.000000 4.000000 1.000000 -60.708740 114.000000 10.000000 0.178340 0.976504 0.120972
10330.00000000 9250.00000000 -880.00000000 200 98 106 97.000000 1.000000 4.000000 1.000000 -60.708740 114.000000 10.000000 0.347657 0.886450 0.305517
10350.00000000 9250.00000000 -900.00000000 200 98 106 97.000000 1.000000 4.000000 1.000000 -60.708740 114.000000 10.000000 0.118446 0.959282 0.256416
10320.00000000 9260.00000000 -920.00000000 200 98 106 97.000000 1.000000 4.000000 1.000000 -60.708740 114.000000 10.000000 0.124271 0.828959 0.545329
10320.00000000 9270.00000000 -930.00000000 200 98 106 97.000000 1.000000 4.000000 1.000000 -60.708740 114.000000 10.000000 0.076329 0.980155 0.182946
10330.00000000 9270.00000000 -930.00000000 200 98 106 97.000000 1.000000 4.000000 1.000000 -60.708740 114.000000 10.000000 0.419432 0.864793 0.276063
10330.00000000 9270.00000000 -930.00000000 200 98 106 97.000000 1.000000 4.000000 1.000000 -60.708740 114.000000 10.000000 0.419432 0.864793 0.276063
10300.00000000 9300.00000000 -910.00000000 200 98 106 97.000000 1.000000 4.000000 1.000000 -60.708740 114.000000 10.000000 -0.325046 0.944057 0.055685
10280.00000000 9290.00000000 -940.00000000 200 98 106 97.000000 1.000000 4.000000 1.000000 -60.708740 114.000000 10.000000 0.009835 0.993347 0.114743
10280.00000000 9260.00000000 -890.00000000 200 98 106 97.000000 1.000000 4.000000 1.000000 -60.708740 114.000000 10.000000 -0.589880 0.744182 0.313424
10280.00000000 9260.00000000 -880.00000000 200 98 106 97.000000 1.000000 4.000000 1.000000 -60.708740 114.000000 10.000000 -0.380243 0.855158 0.352307
10340.00000000 9280.00000000 -980.00000000 200 98 106 97.000000 1.000000 4.000000 1.000000 -60.708740 114.000000 10.000000 0.253549 0.894093 0.369203
10330.00000000 9280.00000000 -980.00000000 200 98 106 97.000000 1.000000 4.000000 1.000000 -60.708740 114.000000 10.000000 0.255642 0.869789 0.422037
10320.00000000 9280.00000000 -990.00000000 200 98 106 97.000000 1.000000 4.000000 1.000000 -60.708740 114.000000 10.000000 0.100150 0.881599 0.461252
10340.00000000 9290.00000000 -1010.00000000 200 98 106 97.000000 1.000000 4.000000 1.000000 -60.708740 114.000000 10.000000 0.309860 0.855582 0.414688
10340.00000000 9250.00000000 -1010.00000000 200 98 106 97.000000 1.000000 4.000000 1.000000 -60.708740 114.000000 10.000000 0.327756 0.903901 0.274845
10350.00000000 9260.00000000 -1020.00000000 200 98 106 97.000000 1.000000 4.000000 1.000000 -60.708740 114.000000 10.000000 0.219341 0.904962 0.364600
10280.00000000 9300.00000000 -980.00000000 200 98 106 97.000000 1.000000 4.000000 1.000000 -60.708740 114.000000 10.000000 -0.410093 0.912036 0.003881
10410.00000000 9160.00000000 -750.00000000 200 98 106 97.000000 1.000000 4.000000 1.000000 -60.708740 114.000000 10.000000 0.966776 0.249451 -0.055847
10410.00000000 9160.00000000 -750.00000000 200 98 106 97.000000 1.000000 4.000000 1.000000 -60.708740 114.000000 10.000000 0.966776 0.249451 -0.055847
10410.00000000 9160.00000000 -770.00000000 200 98 106 97.000000 1.000000 4.000000 1.000000 -60.708740 114.000000 10.000000 0.725870 0.606238 0.324944
10410.00000000 9150.00000000 -750.00000000 200 98 106 97.000000 1.000000 4.000000 1.000000 -60.708740 114.000000 10.000000 0.991947 0.125240 0.018841
10420.00000000 9150.00000000 -760.00000000 200 98 106 97.000000 1.000000 4.000000 1.000000 -60.708740 114.000000 10.000000 0.821091 0.439927 0.363694
10370.00000000 9190.00000000 -730.00000000 200 98 106 97.000000 1.000000 4.000000 1.000000 -60.708740 114.000000 10.000000 0.816121 0.573991 0.066942
10360.00000000 9200.00000000 -720.00000000 200 98 106 97.000000 1.000000 4.000000 1.000000 -60.708740 114.000000 10.000000 0.414048 0.730769 0.542716
10360.00000000 9190.00000000 -760.00000000 200 98 106 97.000000 1.000000 4.000000 1.000000 -60.708740 114.000000 10.000000 0.750171 0.554899 0.359626
10380.00000000 9200.00000000 -750.00000000 200 98 106 97.000000 1.000000 4.000000 1.000000 -60.708740 114.000000 10.000000 0.413969 0.823180 0.388592
10370.00000000 9180.00000000 -730.00000000 200 98 106 97.000000 1.000000 4.000000 1.000000 -60.708740 114.000000 10.000000 0.590975 0.677541 0.437821
10380.00000000 9160.00000000 -700.00000000 200 98 106 97.000000 1.000000 4.000000 1.000000 -60.708740 114.000000 10.000000 0.660480 0.489058 0.569727
10390.00000000 9150.00000000 -700.00000000 200 98 106 97.000000 1.000000 4.000000 1.000000 -60.708740 114.000000 10.000000 0.708592 0.627517 0.322677
10380.00000000 9160.00000000 -730.00000000 200 98 106 97.000000 1.000000 4.000000 1.000000 -60.708740 114.000000 10.000000 0.826231 0.434442 0.358612
10390.00000000 9160.00000000 -750.00000000 200 98 106 97.000000 1.000000 4.000000 1.000000 -60.708740 114.000000 10.000000 0.790824 0.460910 0.402690
10380.00000000 9170.00000000 -750.00000000 200 98 106 97.000000 1.000000 4.000000 1.000000 -60.708740 114.000000 10.000000 0.696602 0.621206 0.358955
10410.00000000 9190.00000000 -800.00000000 200 98 106 97.000000 1.000000 4.000000 1.000000 -60.708740 114.000000 10.000000 0.663518 0.733044 -0.149632
10410.00000000 9200.00000000 -790.00000000 200 98 106 97.000000 1.000000 4.000000 1.000000 -60.708740 114.000000 10.000000 0.718245 0.556434 0.417738
10410.00000000 9190.00000000 -780.00000000 200 98 106 97.000000 1.000000 4.000000 1.000000 -60.708740 114.000000 10.000000 0.697536 0.681932 0.220028
10410.00000000 9210.00000000 -840.00000000 200 98 106 97.000000 1.000000 4.000000 1.000000 -60.708740 114.000000 10.000000 0.516262 0.667610 0.536442
10400.00000000 9200.00000000 -830.00000000 200 98 106 97.000000 1.000000 4.000000 1.000000 -60.708740 114.000000 10.000000 0.779222 0.536015 0.324809
10400.00000000 9190.00000000 -830.00000000 200 98 106 97.000000 1.000000 4.000000 1.000000 -60.708740 114.000000 10.000000 0.936173 0.351537 -0.001260
10400.00000000 9210.00000000 -830.00000000 200 98 106 97.000000 1.000000 4.000000 1.000000 -60.708740 114.000000 10.000000 0.541117 0.632146 0.554603
10410.00000000 9190.00000000 -850.00000000 200 98 106 97.000000 1.000000 4.000000 1.000000 -60.708740 114.000000 10.000000 0.678550 0.514358 0.524410
10410.00000000 9200.00000000 -850.00000000 200 98 106 97.000000 1.000000 4.000000 1.000000 -60.708740 114.000000 10.000000 0.806200 0.574584 -0.141048
10420.00000000 9170.00000000 -790.00000000 200 98 106 97.000000 1.000000 4.000000 1.000000 -60.708740 114.000000 10.000000 0.837889 0.530809 0.127219
10420.00000000 9170.00000000 -790.00000000 200 98 106 97.000000 1.000000 4.000000 1.000000 -60.708740 114.000000 10.000000 0.837889 0.530809 0.127219
10420.00000000 9180.00000000 -810.00000000 200 98 106 97.000000 1.000000 4.000000 1.000000 -60.708740 114.000000 10.000000 0.918526 0.394403 -0.027516
10400.00000000 9160.00000000 -820.00000000 200 98 106 97.000000 1.000000 4.000000 1.000000 -60.708740 114.000000 10.000000 0.899217 0.428133 0.090060
10410.00000000 9180.00000000 -790.00000000 200 98 106 97.000000 1.000000 4.000000 1.000000 -60.708740 114.000000 10.000000 0.920617 0.341863 0.188663
10420.00000000 9170.00000000 -800.00000000 200 98 106 97.000000 1.000000 4.000000 1.000000 -60.708740 114.000000 10.000000 0.934017 0.340990 0.106475
10400.00000000 9160.00000000 -800.00000000 200 98 106 97.000000 1.000000 4.000000 1.000000 -60.708740 114.000000 10.000000 0.966256 0.206221 0.154342
10420.00000000 9160.00000000 -780.00000000 200 98 106 97.000000 1.000000 4.000000 1.000000 -60.708740 114.000000 10.000000 0.895836 0.104817 0.431846
10430.00000000 9160.00000000 -800.00000000 200 98 106 97.000000 1.000000 4.000000 1.000000 -60.708740 114.000000 10.000000 0.929562 0.348074 0.121485
10430.00000000 9150.00000000 -800.00000000 200 98 106 97.000000 1.000000 4.000000 1.000000 -60.708740 114.000000 10.000000 0.940206 0.214627 0.264476
10400.00000000 9170.00000000 -840.00000000 200 98 106 97.000000 1.000000 4.000000 1.000000 -60.708740 114.000000 10.000000 0.861105 0.482629 -0.159898
10430.00000000 9170.00000000 -850.00000000 200 98 106 97.000000 1.000000 4.000000 1.000000 -60.708740 114.000000 10.000000 0.986277 0.122541 -0.110644
