//X Y Z R G B PointSourceId ScanDirectionFlag NumberOfReturns ReturnNumber GpsTime Intensity Classification Nx Ny Nz
2680.00000000 12850.00000000 -950.00000000 150 182 89 97.000000 1.000000 4.000000 1.000000 -60.708740 114.000000 201.000000 0.920261 0.266429 -0.286592
2590.00000000 12930.00000000 -870.00000000 150 182 89 97.000000 1.000000 4.000000 1.000000 -60.708740 114.000000 201.000000 -0.287896 0.893521 0.344580
2580.00000000 12910.00000000 -870.00000000 150 182 89 97.000000 1.000000 4.000000 1.000000 -60.708740 114.000000 201.000000 -0.684995 0.727541 -0.038292
2580.00000000 12930.00000000 -890.00000000 150 182 89 97.000000 1.000000 4.000000 1.000000 -60.708740 114.000000 201.000000 -0.309725 0.880826 0.358072
2580.00000000 12910.00000000 -880.00000000 150 182 89 97.000000 1.000000 4.000000 1.000000 -60.708740 114.000000 201.000000 -0.367957 0.925958 0.084913
2570.00000000 12910.00000000 -890.00000000 150 182 89 97.000000 1.000000 4.000000 1.000000 -60.708740 114.000000 201.000000 -0.676105 0.718647 0.162569
2570.00000000 12900.00000000 -870.00000000 150 182 89 97.000000 1.000000 4.000000 1.000000 -60.708740 114.000000 201.000000 0.816777 -0.425106 -0.390078
2570.00000000 12900.00000000 -870.00000000 150 182 89 97.000000 1.000000 4.000000 1.000000 -60.708740 114.000000 201.000000 0.816777 -0.425106 -0.390078
2580.00000000 12910.00000000 -870.00000000 150 182 89 97.000000 1.000000 4.000000 1.000000 -60.708740 114.000000 201.000000 -0.684995 0.727541 -0.038292
2580.00000000 12890.00000000 -870.00000000 150 182 89 97.000000 1.000000 4.000000 1.000000 -60.708740 114.000000 201.000000 0.919196 -0.387807 -0.068437
2570.00000000 12890.00000000 -900.00000000 150 182 89 97.000000 1.000000 4.000000 1.000000 -60.708740 114.000000 201.000000 0.866867 -0.497872 0.025775
2550.00000000 12930.00000000 -900.00000000 150 182 89 97.000000 1.000000 4.000000 1.000000 -60.708740 114.000000 201.000000 -0.651350 0.744615 -0.145914
2550.00000000 12920.00000000 -880.00000000 150 182 89 97.000000 1.000000 4.000000 1.000000 -60.708740 114.000000 201.000000 -0.386968 0.885992 0.255488
2540.00000000 12910.00000000 -940.00000000 150 182 89 97.000000 1.000000 4.000000 1.000000 -60.708740 114.000000 201.000000 0.705185 -0.465122 -0.535141
2560.00000000 12900.00000000 -910.00000000 150 182 89 97.000000 1.000000 4.000000 1.000000 -60.708740 114.000000 201.000000 0.679907 -0.663758 -0.311692
2560.00000000 12890.00000000 -890.00000000 150 182 89 97.000000 1.000000 4.000000 1.000000 -60.708740 114.000000 201.000000 0.930231 -0.307271 0.200638
2560.00000000 12880.00000000 -870.00000000 150 182 89 97.000000 1.000000 4.000000 1.000000 -60.708740 114.000000 201.000000 0.804392 -0.525285 -0.277539
2550.00000000 12870.00000000 -900.00000000 150 182 89 97.000000 1.000000 4.000000 1.000000 -60.708740 114.000000 201.000000 0.843368 -0.422463 -0.332047
2550.00000000 12860.00000000 -890.00000000 150 182 89 97.000000 1.000000 4.000000 1.000000 -60.708740 114.000000 201.000000 0.948629 0.107167 -0.297687
2550.00000000 12870.00000000 -870.00000000 150 182 89 97.000000 1.000000 4.000000 1.000000 -60.708740 114.000000 201.000000 0.970110 -0.110039 0.216283
2520.00000000 12860.00000000 -900.00000000 150 182 89 97.000000 1.000000 4.000000 1.000000 -60.708740 114.000000 201.000000 0.979174 0.200097 -0.034336
2550.00000000 12870.00000000 -900.00000000 150 182 89 97.000000 1.000000 4.000000 1.000000 -60.708740 114.000000 201.000000 0.843368 -0.422463 -0.332047
2550.00000000 12870.00000000 -880.00000000 150 182 89 97.000000 1.000000 4.000000 1.000000 -60.708740 114.000000 201.000000 0.984318 -0.033702 -0.173156
2560.00000000 12880.00000000 -910.00000000 150 182 89 97.000000 1.000000 4.000000 1.000000 -60.708740 114.000000 201.000000 0.791242 -0.560268 -0.245020
2560.00000000 12880.00000000 -940.00000000 150 182 89 97.000000 1.000000 4.000000 1.000000 -60.708740 114.000000 201.000000 0.825588 -0.366048 -0.429433
2550.00000000 12860.00000000 -930.00000000 150 182 89 97.000000 1.000000 4.000000 1.000000 -60.708740 114.000000 201.000000 0.974071 -0.126943 -0.187273
2550.00000000 12870.00000000 -920.00000000 150 182 89 97.000000 1.000000 4.000000 1.000000 -60.708740 114.000000 201.000000 0.868559 -0.465877 -0.169009
2570.00000000 12920.00000000 -980.00000000 150 182 89 97.000000 1.000000 4.000000 1.000000 -60.708740 114.000000 201.000000 -0.420454 0.904861 -0.066674
2570.00000000 12930.00000000 -950.00000000 150 182 89 97.000000 1.000000 4.000000 1.000000 -60.708740 114.000000 201.000000 -0.331307 0.943146 -0.026657
2570.00000000 12900.00000000 -950.00000000 150 182 89 97.000000 1.000000 4.000000 1.000000 -60.708740 114.000000 201.000000 -0.721880 0.567309 0.396294
2550.00000000 12900.00000000 -960.00000000 150 182 89 97.000000 1.000000 4.000000 1.000000 -60.708740 114.000000 201.000000 -0.555504 0.672983 0.488374
2560.00000000 12930.00000000 -970.00000000 150 182 89 97.000000 1.000000 4.000000 1.000000 -60.708740 114.000000 201.000000 -0.353707 0.920201 0.167694
2540.00000000 12930.00000000 -950.00000000 150 182 89 97.000000 1.000000 4.000000 1.000000 -60.708740 114.000000 201.000000 -0.602286 0.795929 0.061225
2540.00000000 12900.00000000 -980.00000000 150 182 89 97.000000 1.000000 4.000000 1.000000 -60.708740 114.000000 201.000000 0.815475 -0.484237 -0.317041
2560.00000000 12930.00000000 -950.00000000 150 182 89 97.000000 1.000000 4.000000 1.000000 -60.708740 114.000000 201.000000 -0.208347 0.977445 0.034526
2560.00000000 12910.00000000 -990.00000000 150 182 89 97.000000 1.000000 4.000000 1.000000 -60.708740 114.000000 201.000000 -0.312461 0.949832 0.013694
2520.00000000 12900.00000000 -1020.00000000 150 182 89 97.000000 1.000000 4.000000 1.000000 -60.708740 114.000000 201.000000 -0.615717 0.785075 0.067456
2520.00000000 12900.00000000 -1020.00000000 150 182 89 97.000000 1.000000 4.000000 1.000000 -60.708740 114.000000 201.000000 -0.615717 0.785075 0.067456
2540.00000000 12920.00000000 -1000.00000000 150 182 89 97.000000 1.000000 4.000000 1.000000 -60.708740 114.000000 201.000000 -0.640563 0.767845 -0.009685
2530.00000000 12880.00000000 -970.00000000 150 182 89 97.000000 1.000000 4.000000 1.000000 -60.708740 114.000000 201.000000 0.997102 0.063462 0.041949
2530.00000000 12870.00000000 -980.00000000 150 182 89 97.000000 1.000000 4.000000 1.000000 -60.708740 114.000000 201.000000 0.992409 0.094569 -0.078618
2530.00000000 12870.00000000 -980.00000000 150 182 89 97.000000 1.000000 4.000000 1.000000 -60.708740 114.000000 201.000000 0.992409 0.094569 -0.078618
2530.00000000 12870.00000000 -1010.00000000 150 182 89 97.000000 1.000000 4.000000 1.000000 -60.708740 114.000000 201.000000 0.987336 0.146056 0.061928
2520.00000000 12860.00000000 -1010.00000000 150 182 89 97.000000 1.000000 4.000000 1.000000 -60.708740 114.000000 201.000000 0.992328 0.016557 0.122523
2540.00000000 12860.00000000 -990.00000000 150 182 89 97.000000 1.000000 4.000000 1.000000 -60.708740 114.000000 201.000000 0.901605 0.337917 -0.270039
2530.00000000 12870.00000000 -1020.00000000 150 182 89 97.000000 1.000000 4.000000 1.000000 -60.708740 114.000000 201.000000 0.984828 0.119045 0.126260
2540.00000000 12870.00000000 -1030.00000000 150 182 89 97.000000 1.000000 4.000000 1.000000 -60.708740 114.000000 201.000000 0.992634 0.105262 0.059988
2570.00000000 12820.00000000 -880.00000000 150 182 89 97.000000 1.000000 4.000000 1.000000 -60.708740 114.000000 201.000000 0.657626 0.604079 -0.450131
2580.00000000 12830.00000000 -900.00000000 150 182 89 97.000000 1.000000 4.000000 1.000000 -60.708740 114.000000 201.000000 0.698679 0.653707 -0.290715
2600.00000000 12820.00000000 -870.00000000 150 182 89 97.000000 1.000000 4.000000 1.000000 -60.708740 114.000000 201.000000 0.236567 0.936469 0.258964
2580.00000000 12820.00000000 -870.00000000 150 182 89 97.000000 1.000000 4.000000 1.000000 -60.708740 114.000000 201.000000 0.248100 0.922128 -0.296859
2580.00000000 12810.00000000 -930.00000000 150 182 89 97.000000 1.000000 4.000000 1.000000 -60.708740 114.000000 201.000000 0.605905 0.795508 -0.006870
2580.00000000 12810.00000000 -920.00000000 150 182 89 97.000000 1.000000 4.000000 1.000000 -60.708740 114.000000 201.000000 0.696709 0.711377 -0.092406
2590.00000000 12800.00000000 -880.00000000 150 182 89 97.000000 1.000000 4.000000 1.000000 -60.708740 114.000000 201.000000 0.422752 0.879622 -0.218051
2590.00000000 12800.00000000 -880.00000000 150 182 89 97.000000 1.000000 4.000000 1.000000 -60.708740 114.000000 201.000000 0.422752 0.879622 -0.218051
2600.00000000 12770.00000000 -870.00000000 150 182 89 97.000000 1.000000 4.000000 1.000000 -60.708740 114.000000 201.000000 0.200757 0.940098 -0.275522
2590.00000000 12770.00000000 -910.00000000 150 182 89 97.000000 1.000000 4.000000 1.000000 -60.708740 114.000000 201.000000 0.414927 0.901588 0.122368
2550.00000000 12850.00000000 -870.00000000 150 182 89 97.000000 1.000000 4.000000 1.000000 -60.708740 114.000000 201.000000 0.903235 0.413107 0.116230
2560.00000000 12850.00000000 -880.00000000 150 182 89 97.000000 1.000000 4.000000 1.000000 -60.708740 114.000000 201.000000 0.974786 0.179864 0.132068
2560.00000000 12830.00000000 -870.00000000 150 182 89 97.000000 1.000000 4.000000 1.000000 -60.708740 114.000000 201.000000 0.921564 0.347521 -0.173057
2560.00000000 12850.00000000 -890.00000000 150 182 89 97.000000 1.000000 4.000000 1.000000 -60.708740 114.000000 201.000000 0.973632 0.132596 -0.185634
2560.00000000 12850.00000000 -880.00000000 150 182 89 97.000000 1.000000 4.000000 1.000000 -60.708740 114.000000 201.000000 0.974786 0.179864 0.132068
2560.00000000 12850.00000000 -900.00000000 150 182 89 97.000000 1.000000 4.000000 1.000000 -60.708740 114.000000 201.000000 0.938745 0.026821 -0.343568
2560.00000000 12840.00000000 -880.00000000 150 182 89 97.000000 1.000000 4.000000 1.000000 -60.708740 114.000000 201.000000 0.980049 0.141768 -0.139303
2560.00000000 12830.00000000 -870.00000000 150 182 89 97.000000 1.000000 4.000000 1.000000 -60.708740 114.000000 201.000000 0.921564 0.347521 -0.173057
2550.00000000 12840.00000000 -910.00000000 150 182 89 97.000000 1.000000 4.000000 1.000000 -60.708740 114.000000 201.000000 0.985513 0.167134 -0.028816
2550.00000000 12850.00000000 -920.00000000 150 182 89 97.000000 1.000000 4.000000 1.000000 -60.708740 114.000000 201.000000 0.912587 0.235739 -0.334085
2550.00000000 12840.00000000 -910.00000000 150 182 89 97.000000 1.000000 4.000000 1.000000 -60.708740 114.000000 201.000000 0.985513 0.167134 -0.028816
2550.00000000 12840.00000000 -910.00000000 150 182 89 97.000000 1.000000 4.000000 1.000000 -60.708740 114.000000 201.000000 0.985513 0.167134 -0.028816
2560.00000000 12830.00000000 -910.00000000 150 182 89 97.000000 1.000000 4.000000 1.000000 -60.708740 114.000000 201.000000 0.941526 0.322695 -0.096941
2560.00000000 12830.00000000 -940.00000000 150 182 89 97.000000 1.000000 4.000000 1.000000 -60.708740 114.000000 201.000000 0.886849 0.451155 0.099788
2540.00000000 12850.00000000 -960.00000000 150 182 89 97.000000 1.000000 4.000000 1.000000 -60.708740 114.000000 201.000000 0.948828 0.266646 0.169192
2560.00000000 12850.00000000 -970.00000000 150 182 89 97.000000 1.000000 4.000000 1.000000 -60.708740 114.000000 201.000000 0.977143 0.212320 0.010557
2540.00000000 12840.00000000 -980.00000000 150 182 89 97.000000 1.000000 4.000000 1.000000 -60.708740 114.000000 201.000000 0.864488 0.502609 -0.006701
2560.00000000 12840.00000000 -950.00000000 150 182 89 97.000000 1.000000 4.000000 1.000000 -60.708740 114.000000 201.000000 0.835648 0.522839 -0.168321
2550.00000000 12820.00000000 -980.00000000 150 182 89 97.000000 1.000000 4.000000 1.000000 -60.708740 114.000000 201.000000 0.744983 0.633468 0.209091
2540.00000000 12830.00000000 -970.00000000 150 182 89 97.000000 1.000000 4.000000 1.000000 -60.708740 114.000000 201.000000 0.758582 0.639822 0.123214
2550.00000000 12850.00000000 -980.00000000 150 182 89 97.000000 1.000000 4.000000 1.000000 -60.708740 114.000000 201.000000 0.913032 0.352272 -0.205612
2540.00000000 12840.00000000 -980.00000000 150 182 89 97.000000 1.000000 4.000000 1.000000 -60.708740 114.000000 201.000000 0.864488 0.502609 -0.006701
2550.00000000 12830.00000000 -1010.00000000 150 182 89 97.000000 1.000000 4.000000 1.000000 -60.708740 114.000000 201.000000 0.877659 0.478601 -0.025615
2540.00000000 12840.00000000 -1030.00000000 150 182 89 97.000000 1.000000 4.000000 1.000000 -60.708740 114.000000 201.000000 0.661890 0.645384 -0.381288
2560.00000000 12850.00000000 -1000.00000000 150 182 89 97.000000 1.000000 4.000000 1.000000 -60.708740 114.000000 201.000000 0.791789 0.581255 -0.187649
2560.00000000 12820.00000000 -990.00000000 150 182 89 97.000000 1.000000 4.000000 1.000000 -60.708740 114.000000 201.000000 0.728872 0.683583 0.038213
2550.00000000 12830.00000000 -1020.00000000 150 182 89 97.000000 1.000000 4.000000 1.000000 -60.708740 114.000000 201.000000 0.826338 0.517797 -0.221477
2540.00000000 12840.00000000 -1030.00000000 150 182 89 97.000000 1.000000 4.000000 1.000000 -60.708740 114.000000 201.000000 0.661890 0.645384 -0.381288
2530.00000000 12850.00000000 -1030.00000000 150 182 89 97.000000 1.000000 4.000000 1.000000 -60.708740 114.000000 201.000000 0.896126 0.187359 -0.402313
2560.00000000 12830.00000000 -1000.00000000 150 182 89 97.000000 1.000000 4.000000 1.000000 -60.708740 114.000000 201.000000 0.889804 0.438516 -0.126304
2550.00000000 12820.00000000 -990.00000000 150 182 89 97.000000 1.000000 4.000000 1.000000 -60.708740 114.000000 201.000000 0.647794 0.757934 -0.076808
2540.00000000 12850.00000000 -1020.00000000 150 182 89 97.000000 1.000000 4.000000 1.000000 -60.708740 114.000000 201.000000 0.814839 0.547778 -0.189674
2560.00000000 12830.00000000 -1020.00000000 150 182 89 97.000000 1.000000 4.000000 1.000000 -60.708740 114.000000 201.000000 0.784937 0.616226 0.064339
2490.00000000 13030.00000000 -1020.00000000 150 182 89 97.000000 1.000000 4.000000 1.000000 -60.708740 114.000000 201.000000 0.774567 -0.625780 -0.091898
2460.00000000 12950.00000000 -930.00000000 150 182 89 97.000000 1.000000 4.000000 1.000000 -60.708740 114.000000 201.000000 -0.731085 0.643418 -0.226997
2490.00000000 12990.00000000 -980.00000000 150 182 89 97.000000 1.000000 4.000000 1.000000 -60.708740 114.000000 201.000000 0.779074 -0.626857 -0.009687
2480.00000000 13000.00000000 -990.00000000 150 182 89 97.000000 1.000000 4.000000 1.000000 -60.708740 114.000000 201.000000 -0.593333 0.796510 -0.116311
2490.00000000 12960.00000000 -1020.00000000 150 182 89 97.000000 1.000000 4.000000 1.000000 -60.708740 114.000000 201.000000 0.884217 -0.413227 -0.217722
2470.00000000 12980.00000000 -990.00000000 150 182 89 97.000000 1.000000 4.000000 1.000000 -60.708740 114.000000 201.000000 0.712534 -0.625285 -0.318298
2460.00000000 12970.00000000 -980.00000000 150 182 89 97.000000 1.000000 4.000000 1.000000 -60.708740 114.000000 201.000000 -0.581792 0.806343 0.106443
2460.00000000 12970.00000000 -950.00000000 150 182 89 97.000000 1.000000 4.000000 1.000000 -60.708740 114.000000 201.000000 0.819944 -0.421913 -0.386886
2460.00000000 12940.00000000 -950.00000000 150 182 89 97.000000 1.000000 4.000000 1.000000 -60.708740 114.000000 201.000000 -0.581270 0.687864 0.434704
2460.00000000 12940.00000000 -950.00000000 150 182 89 97.000000 1.000000 4.000000 1.000000 -60.708740 114.000000 201.000000 -0.581270 0.687864 0.434704
2460.00000000 12970.00000000 -1000.00000000 150 182 89 97.000000 1.000000 4.000000 1.000000 -60.708740 114.000000 201.000000 0.825926 -0.450074 -0.339530
2460.00000000 12970.00000000 -1000.00000000 150 182 89 97.000000 1.000000 4.000000 1.000000 -60.708740 114.000000 201.000000 0.825926 -0.450074 -0.339530
2440.00000000 12970.00000000 -1020.00000000 150 182 89 97.000000 1.000000 4.000000 1.000000 -60.708740 114.000000 201.000000 0.834120 -0.544116 0.090447
2440.00000000 12860.00000000 -710.00000000 150 182 89 97.000000 1.000000 4.000000 1.000000 -60.708740 114.000000 201.000000 0.956424 -0.110909 -0.270095
2440.00000000 12880.00000000 -730.00000000 150 182 89 97.000000 1.000000 4.000000 1.000000 -60.708740 114.000000 201.000000 0.934184 -0.355326 -0.032302
2450.00000000 12870.00000000 -730.00000000 150 182 89 97.000000 1.000000 4.000000 1.000000 -60.708740 114.000000 201.000000 0.967037 0.253589 0.023054
2440.00000000 12860.00000000 -750.00000000 150 182 89 97.000000 1.000000 4.000000 1.000000 -60.708740 114.000000 201.000000 0.972020 0.216421 0.091322
2440.00000000 12870.00000000 -750.00000000 150 182 89 97.000000 1.000000 4.000000 1.000000 -60.708740 114.000000 201.000000 0.866956 -0.159356 -0.472221
2440.00000000 12880.00000000 -740.00000000 150 182 89 97.000000 1.000000 4.000000 1.000000 -60.708740 114.000000 201.000000 0.934020 -0.302060 -0.190701
2440.00000000 12860.00000000 -750.00000000 150 182 89 97.000000 1.000000 4.000000 1.000000 -60.708740 114.000000 201.000000 0.972020 0.216421 0.091322
2450.00000000 12880.00000000 -770.00000000 150 182 89 97.000000 1.000000 4.000000 1.000000 -60.708740 114.000000 201.000000 0.946724 -0.280360 0.158465
2450.00000000 12930.00000000 -860.00000000 150 182 89 97.000000 1.000000 4.000000 1.000000 -60.708740 114.000000 201.000000 0.933404 -0.240742 -0.266083
2450.00000000 12870.00000000 -790.00000000 150 182 89 97.000000 1.000000 4.000000 1.000000 -60.708740 114.000000 201.000000 0.958627 0.284535 -0.008548
2440.00000000 12830.00000000 -700.00000000 150 182 89 97.000000 1.000000 4.000000 1.000000 -60.708740 114.000000 201.000000 0.987554 -0.102649 -0.119167
2420.00000000 12860.00000000 -780.00000000 150 182 89 97.000000 1.000000 4.000000 1.000000 -60.708740 114.000000 201.000000 0.912244 -0.280803 -0.298262
2430.00000000 12830.00000000 -720.00000000 150 182 89 97.000000 1.000000 4.000000 1.000000 -60.708740 114.000000 201.000000 0.876973 0.479700 -0.028377
2450.00000000 12900.00000000 -890.00000000 150 182 89 97.000000 1.000000 4.000000 1.000000 -60.708740 114.000000 201.000000 0.905292 -0.408707 0.115777
2450.00000000 12920.00000000 -900.00000000 150 182 89 97.000000 1.000000 4.000000 1.000000 -60.708740 114.000000 201.000000 0.758822 -0.460538 -0.460538
2450.00000000 12910.00000000 -900.00000000 150 182 89 97.000000 1.000000 4.000000 1.000000 -60.708740 114.000000 201.000000 0.987570 -0.155693 0.021592
2470.00000000 12930.00000000 -940.00000000 150 182 89 97.000000 1.000000 4.000000 1.000000 -60.708740 114.000000 201.000000 0.678893 -0.694645 -0.237849
2450.00000000 12880.00000000 -870.00000000 150 182 89 97.000000 1.000000 4.000000 1.000000 -60.708740 114.000000 201.000000 0.990221 -0.119011 0.072793
2440.00000000 12860.00000000 -870.00000000 150 182 89 97.000000 1.000000 4.000000 1.000000 -60.708740 114.000000 201.000000 0.881852 -0.383087 -0.274921
2440.00000000 12890.00000000 -890.00000000 150 182 89 97.000000 1.000000 4.000000 1.000000 -60.708740 114.000000 201.000000 0.952402 -0.238437 0.189942
2650.00000000 12950.00000000 -1060.00000000 150 182 89 97.000000 1.000000 4.000000 1.000000 -60.708740 114.000000 201.000000 0.419035 0.851987 -0.313890
2620.00000000 12980.00000000 -1060.00000000 150 182 89 97.000000 1.000000 4.000000 1.000000 -60.708740 114.000000 201.000000 0.335845 0.934111 -0.121013
2610.00000000 12980.00000000 -1050.00000000 150 182 89 97.000000 1.000000 4.000000 1.000000 -60.708740 114.000000 201.000000 0.552261 0.830521 -0.072404
2610.00000000 12980.00000000 -1070.00000000 150 182 89 97.000000 1.000000 4.000000 1.000000 -60.708740 114.000000 201.000000 0.488806 0.872392 0.001332
2630.00000000 12990.00000000 -1040.00000000 150 182 89 97.000000 1.000000 4.000000 1.000000 -60.708740 114.000000 201.000000 0.525879 0.848419 -0.060301
2610.00000000 12990.00000000 -1110.00000000 150 182 89 97.000000 1.000000 4.000000 1.000000 -60.708740 114.000000 201.000000 0.081649 0.994323 0.068227
2640.00000000 12950.00000000 -1060.00000000 150 182 89 97.000000 1.000000 4.000000 1.000000 -60.708740 114.000000 201.000000 0.570764 0.706424 -0.418561
2640.00000000 12950.00000000 -1050.00000000 150 182 89 97.000000 1.000000 4.000000 1.000000 -60.708740 114.000000 201.000000 0.467753 0.830691 0.301927
2630.00000000 12970.00000000 -1050.00000000 150 182 89 97.000000 1.000000 4.000000 1.000000 -60.708740 114.000000 201.000000 0.600100 0.757606 -0.256736
2610.00000000 12970.00000000 -1060.00000000 150 182 89 97.000000 1.000000 4.000000 1.000000 -60.708740 114.000000 201.000000 0.347286 0.912165 -0.217594
2630.00000000 12940.00000000 -1040.00000000 150 182 89 97.000000 1.000000 4.000000 1.000000 -60.708740 114.000000 201.000000 0.586477 0.763527 -0.270317
2640.00000000 12950.00000000 -1060.00000000 150 182 89 97.000000 1.000000 4.000000 1.000000 -60.708740 114.000000 201.000000 0.570764 0.706424 -0.418561
2630.00000000 12970.00000000 -1050.00000000 150 182 89 97.000000 1.000000 4.000000 1.000000 -60.708740 114.000000 201.000000 0.600100 0.757606 -0.256736
2610.00000000 12970.00000000 -1060.00000000 150 182 89 97.000000 1.000000 4.000000 1.000000 -60.708740 114.000000 201.000000 0.347286 0.912165 -0.217594
2640.00000000 12950.00000000 -1060.00000000 150 182 89 97.000000 1.000000 4.000000 1.000000 -60.708740 114.000000 201.000000 0.570764 0.706424 -0.418561
2630.00000000 12940.00000000 -1100.00000000 150 182 89 97.000000 1.000000 4.000000 1.000000 -60.708740 114.000000 201.000000 0.841703 0.488583 -0.229832
2640.00000000 12950.00000000 -1080.00000000 150 182 89 97.000000 1.000000 4.000000 1.000000 -60.708740 114.000000 201.000000 0.749002 0.660210 -0.055853
2630.00000000 12970.00000000 -1100.00000000 150 182 89 97.000000 1.000000 4.000000 1.000000 -60.708740 114.000000 201.000000 0.631198 0.775472 -0.015260
2610.00000000 12960.00000000 -1090.00000000 150 182 89 97.000000 1.000000 4.000000 1.000000 -60.708740 114.000000 201.000000 0.428763 0.862103 0.270075
2620.00000000 12960.00000000 -1110.00000000 150 182 89 97.000000 1.000000 4.000000 1.000000 -60.708740 114.000000 201.000000 0.458998 0.886482 0.058916
2630.00000000 12950.00000000 -1080.00000000 150 182 89 97.000000 1.000000 4.000000 1.000000 -60.708740 114.000000 201.000000 0.677459 0.725105 0.123580
2640.00000000 12940.00000000 -1090.00000000 150 182 89 97.000000 1.000000 4.000000 1.000000 -60.708740 114.000000 201.000000 0.896386 0.410064 -0.168342
2620.00000000 12950.00000000 -1090.00000000 150 182 89 97.000000 1.000000 4.000000 1.000000 -60.708740 114.000000 201.000000 0.616741 0.782173 0.088520
2610.00000000 12990.00000000 -1120.00000000 150 182 89 97.000000 1.000000 4.000000 1.000000 -60.708740 114.000000 201.000000 0.599228 0.794597 0.097684
2610.00000000 12980.00000000 -1150.00000000 150 182 89 97.000000 1.000000 4.000000 1.000000 -60.708740 114.000000 201.000000 0.437794 0.898348 -0.036148
2620.00000000 12990.00000000 -1180.00000000 150 182 89 97.000000 1.000000 4.000000 1.000000 -60.708740 114.000000 201.000000 0.740763 0.660278 -0.123709
2610.00000000 13000.00000000 -1180.00000000 150 182 89 97.000000 1.000000 4.000000 1.000000 -60.708740 114.000000 201.000000 0.622848 0.782341 0.001375
2640.00000000 12980.00000000 -1180.00000000 150 182 89 97.000000 1.000000 4.000000 1.000000 -60.708740 114.000000 201.000000 0.751094 0.549065 -0.366586
2640.00000000 12960.00000000 -1130.00000000 150 182 89 97.000000 1.000000 4.000000 1.000000 -60.708740 114.000000 201.000000 0.813601 0.558883 0.160323
2640.00000000 12960.00000000 -1130.00000000 150 182 89 97.000000 1.000000 4.000000 1.000000 -60.708740 114.000000 201.000000 0.813601 0.558883 0.160323
2640.00000000 12960.00000000 -1130.00000000 150 182 89 97.000000 1.000000 4.000000 1.000000 -60.708740 114.000000 201.000000 0.813601 0.558883 0.160323
2630.00000000 12960.00000000 -1190.00000000 150 182 89 97.000000 1.000000 4.000000 1.000000 -60.708740 114.000000 201.000000 0.827458 0.561244 0.017839
2530.00000000 13040.00000000 -1040.00000000 150 182 89 97.000000 1.000000 4.000000 1.000000 -60.708740 114.000000 201.000000 -0.270088 0.940459 0.206375
2520.00000000 13020.00000000 -1190.00000000 150 182 89 97.000000 1.000000 4.000000 1.000000 -60.708740 114.000000 201.000000 -0.164415 0.902140 0.398886
2540.00000000 13030.00000000 -1190.00000000 150 182 89 97.000000 1.000000 4.000000 1.000000 -60.708740 114.000000 201.000000 0.324108 0.943688 -0.066384
2600.00000000 13000.00000000 -1070.00000000 150 182 89 97.000000 1.000000 4.000000 1.000000 -60.708740 114.000000 201.000000 0.140758 0.958996 -0.245997
2590.00000000 12980.00000000 -1070.00000000 150 182 89 97.000000 1.000000 4.000000 1.000000 -60.708740 114.000000 201.000000 0.393042 0.904711 0.164363
2590.00000000 12980.00000000 -1060.00000000 150 182 89 97.000000 1.000000 4.000000 1.000000 -60.708740 114.000000 201.000000 -0.080094 0.916332 -0.392326
2590.00000000 12990.00000000 -1050.00000000 150 182 89 97.000000 1.000000 4.000000 1.000000 -60.708740 114.000000 201.000000 -0.143157 0.960073 0.240347
2580.00000000 13000.00000000 -1060.00000000 150 182 89 97.000000 1.000000 4.000000 1.000000 -60.708740 114.000000 201.000000 0.050151 0.945149 0.322765
2570.00000000 13000.00000000 -1060.00000000 150 182 89 97.000000 1.000000 4.000000 1.000000 -60.708740 114.000000 201.000000 -0.157630 0.981218 0.111197
2590.00000000 13000.00000000 -1100.00000000 150 182 89 97.000000 1.000000 4.000000 1.000000 -60.708740 114.000000 201.000000 0.362634 0.930804 0.045820
2570.00000000 13010.00000000 -1090.00000000 150 182 89 97.000000 1.000000 4.000000 1.000000 -60.708740 114.000000 201.000000 -0.181202 0.946881 0.265672
2600.00000000 12990.00000000 -1110.00000000 150 182 89 97.000000 1.000000 4.000000 1.000000 -60.708740 114.000000 201.000000 0.519538 0.848721 0.098755
2590.00000000 13000.00000000 -1080.00000000 150 182 89 97.000000 1.000000 4.000000 1.000000 -60.708740 114.000000 201.000000 0.129646 0.990944 0.034948
2570.00000000 13010.00000000 -1090.00000000 150 182 89 97.000000 1.000000 4.000000 1.000000 -60.708740 114.000000 201.000000 -0.181202 0.946881 0.265672
2590.00000000 13010.00000000 -1090.00000000 150 182 89 97.000000 1.000000 4.000000 1.000000 -60.708740 114.000000 201.000000 0.366095 0.907280 0.206923
2600.00000000 12970.00000000 -1070.00000000 150 182 89 97.000000 1.000000 4.000000 1.000000 -60.708740 114.000000 201.000000 0.215373 0.960590 -0.175734
2600.00000000 12960.00000000 -1040.00000000 150 182 89 97.000000 1.000000 4.000000 1.000000 -60.708740 114.000000 201.000000 -0.024868 0.976960 0.211971
2560.00000000 12990.00000000 -1050.00000000 150 182 89 97.000000 1.000000 4.000000 1.000000 -60.708740 114.000000 201.000000 -0.252634 0.906853 0.337332
2550.00000000 12990.00000000 -1040.00000000 150 182 89 97.000000 1.000000 4.000000 1.000000 -60.708740 114.000000 201.000000 -0.261162 0.898575 0.352643
2540.00000000 12980.00000000 -1060.00000000 150 182 89 97.000000 1.000000 4.000000 1.000000 -60.708740 114.000000 201.000000 -0.567881 0.795649 -0.210839
2540.00000000 12990.00000000 -1060.00000000 150 182 89 97.000000 1.000000 4.000000 1.000000 -60.708740 114.000000 201.000000 -0.523920 0.843207 -0.120458
2540.00000000 12980.00000000 -1060.00000000 150 182 89 97.000000 1.000000 4.000000 1.000000 -60.708740 114.000000 201.000000 -0.567881 0.795649 -0.210839
2540.00000000 12990.00000000 -1050.00000000 150 182 89 97.000000 1.000000 4.000000 1.000000 -60.708740 114.000000 201.000000 0.008130 0.979093 0.203252
2540.00000000 12990.00000000 -1050.00000000 150 182 89 97.000000 1.000000 4.000000 1.000000 -60.708740 114.000000 201.000000 0.008130 0.979093 0.203252
2560.00000000 12990.00000000 -1110.00000000 150 182 89 97.000000 1.000000 4.000000 1.000000 -60.708740 114.000000 201.000000 -0.360456 0.925124 -0.119238
2530.00000000 12950.00000000 -1040.00000000 150 182 89 97.000000 1.000000 4.000000 1.000000 -60.708740 114.000000 201.000000 0.680357 -0.716723 0.153042
2540.00000000 12950.00000000 -1040.00000000 150 182 89 97.000000 1.000000 4.000000 1.000000 -60.708740 114.000000 201.000000 0.705176 -0.705176 0.073848
2530.00000000 12950.00000000 -1040.00000000 150 182 89 97.000000 1.000000 4.000000 1.000000 -60.708740 114.000000 201.000000 0.680357 -0.716723 0.153042
2520.00000000 12970.00000000 -1050.00000000 150 182 89 97.000000 1.000000 4.000000 1.000000 -60.708740 114.000000 201.000000 -0.353672 0.934980 0.027008
2530.00000000 12970.00000000 -1070.00000000 150 182 89 97.000000 1.000000 4.000000 1.000000 -60.708740 114.000000 201.000000 -0.315439 0.926515 0.205106
2540.00000000 12970.00000000 -1070.00000000 150 182 89 97.000000 1.000000 4.000000 1.000000 -60.708740 114.000000 201.000000 -0.243755 0.952126 0.184500
2530.00000000 12970.00000000 -1080.00000000 150 182 89 97.000000 1.000000 4.000000 1.000000 -60.708740 114.000000 201.000000 -0.408744 0.909078 -0.080655
2560.00000000 12960.00000000 -1080.00000000 150 182 89 97.000000 1.000000 4.000000 1.000000 -60.708740 114.000000 201.000000 0.309691 0.945022 0.105002
2580.00000000 12990.00000000 -1150.00000000 150 182 89 97.000000 1.000000 4.000000 1.000000 -60.708740 114.000000 201.000000 0.198859 0.951005 0.236737
2600.00000000 12980.00000000 -1130.00000000 150 182 89 97.000000 1.000000 4.000000 1.000000 -60.708740 114.000000 201.000000 0.523524 0.827016 0.204857
2580.00000000 12990.00000000 -1120.00000000 150 182 89 97.000000 1.000000 4.000000 1.000000 -60.708740 114.000000 201.000000 -0.073886 0.992351 -0.098894
2570.00000000 13000.00000000 -1150.00000000 150 182 89 97.000000 1.000000 4.000000 1.000000 -60.708740 114.000000 201.000000 0.298470 0.898379 0.322228
2600.00000000 12990.00000000 -1150.00000000 150 182 89 97.000000 1.000000 4.000000 1.000000 -60.708740 114.000000 201.000000 0.498866 0.806104 -0.318324
2580.00000000 13000.00000000 -1130.00000000 150 182 89 97.000000 1.000000 4.000000 1.000000 -60.708740 114.000000 201.000000 -0.161792 0.985885 0.043067
2570.00000000 13000.00000000 -1120.00000000 150 182 89 97.000000 1.000000 4.000000 1.000000 -60.708740 114.000000 201.000000 -0.123919 0.975083 -0.184002
2570.00000000 13010.00000000 -1170.00000000 150 182 89 97.000000 1.000000 4.000000 1.000000 -60.708740 114.000000 201.000000 0.385909 0.917726 0.094091
2570.00000000 13010.00000000 -1180.00000000 150 182 89 97.000000 1.000000 4.000000 1.000000 -60.708740 114.000000 201.000000 0.228096 0.963217 0.142071
2590.00000000 13000.00000000 -1180.00000000 150 182 89 97.000000 1.000000 4.000000 1.000000 -60.708740 114.000000 201.000000 0.131271 0.969879 0.205191
2590.00000000 13010.00000000 -1160.00000000 150 182 89 97.000000 1.000000 4.000000 1.000000 -60.708740 114.000000 201.000000 0.160910 0.985424 -0.055203
2590.00000000 13010.00000000 -1190.00000000 150 182 89 97.000000 1.000000 4.000000 1.000000 -60.708740 114.000000 201.000000 0.253508 0.940610 0.225802
2580.00000000 13000.00000000 -1180.00000000 150 182 89 97.000000 1.000000 4.000000 1.000000 -60.708740 114.000000 201.000000 0.108483 0.985881 0.127557
2560.00000000 13000.00000000 -1130.00000000 150 182 89 97.000000 1.000000 4.000000 1.000000 -60.708740 114.000000 201.000000 0.174426 0.957348 0.230349
2560.00000000 13000.00000000 -1150.00000000 150 182 89 97.000000 1.000000 4.000000 1.000000 -60.708740 114.000000 201.000000 0.122997 0.919025 0.374520
2560.00000000 12990.00000000 -1130.00000000 150 182 89 97.000000 1.000000 4.000000 1.000000 -60.708740 114.000000 201.000000 0.087113 0.977877 0.190177
2560.00000000 13010.00000000 -1180.00000000 150 182 89 97.000000 1.000000 4.000000 1.000000 -60.708740 114.000000 201.000000 -0.146694 0.964546 -0.219392
2550.00000000 13010.00000000 -1180.00000000 150 182 89 97.000000 1.000000 4.000000 1.000000 -60.708740 114.000000 201.000000 -0.206174 0.932692 -0.295937
2550.00000000 13010.00000000 -1160.00000000 150 182 89 97.000000 1.000000 4.000000 1.000000 -60.708740 114.000000 201.000000 -0.077768 0.959995 0.269002
2540.00000000 13000.00000000 -1180.00000000 150 182 89 97.000000 1.000000 4.000000 1.000000 -60.708740 114.000000 201.000000 -0.208267 0.974786 0.080103
2520.00000000 12970.00000000 -1150.00000000 150 182 89 97.000000 1.000000 4.000000 1.000000 -60.708740 114.000000 201.000000 -0.588807 0.773103 0.235835
2620.00000000 13020.00000000 -1250.00000000 150 182 89 97.000000 1.000000 4.000000 1.000000 -60.708740 114.000000 201.000000 0.405516 0.912075 -0.060625
2620.00000000 13000.00000000 -1240.00000000 150 182 89 97.000000 1.000000 4.000000 1.000000 -60.708740 114.000000 201.000000 0.342217 0.810178 -0.475920
2610.00000000 13000.00000000 -1210.00000000 150 182 89 97.000000 1.000000 4.000000 1.000000 -60.708740 114.000000 201.000000 0.254009 0.939695 0.229025
2610.00000000 13000.00000000 -1210.00000000 150 182 89 97.000000 1.000000 4.000000 1.000000 -60.708740 114.000000 201.000000 0.254009 0.939695 0.229025
2630.00000000 12990.00000000 -1210.00000000 150 182 89 97.000000 1.000000 4.000000 1.000000 -60.708740 114.000000 201.000000 0.800158 0.599775 0.004117
2610.00000000 13000.00000000 -1200.00000000 150 182 89 97.000000 1.000000 4.000000 1.000000 -60.708740 114.000000 201.000000 0.505777 0.862638 0.006708
2620.00000000 13000.00000000 -1260.00000000 150 182 89 97.000000 1.000000 4.000000 1.000000 -60.708740 114.000000 201.000000 0.667534 0.743743 -0.035282
2610.00000000 13000.00000000 -1250.00000000 150 182 89 97.000000 1.000000 4.000000 1.000000 -60.708740 114.000000 201.000000 0.263412 0.941938 0.208247
2610.00000000 13000.00000000 -1270.00000000 150 182 89 97.000000 1.000000 4.000000 1.000000 -60.708740 114.000000 201.000000 0.658898 0.750371 0.052883
2610.00000000 13000.00000000 -1260.00000000 150 182 89 97.000000 1.000000 4.000000 1.000000 -60.708740 114.000000 201.000000 0.456319 0.856545 0.241046
2640.00000000 12970.00000000 -1220.00000000 150 182 89 97.000000 1.000000 4.000000 1.000000 -60.708740 114.000000 201.000000 0.709116 0.691050 -0.140017
2640.00000000 12960.00000000 -1240.00000000 150 182 89 97.000000 1.000000 4.000000 1.000000 -60.708740 114.000000 201.000000 0.876746 0.466172 0.118325
2640.00000000 12960.00000000 -1230.00000000 150 182 89 97.000000 1.000000 4.000000 1.000000 -60.708740 114.000000 201.000000 0.860969 0.486761 -0.147636
2640.00000000 12960.00000000 -1230.00000000 150 182 89 97.000000 1.000000 4.000000 1.000000 -60.708740 114.000000 201.000000 0.860969 0.486761 -0.147636
2620.00000000 12970.00000000 -1230.00000000 150 182 89 97.000000 1.000000 4.000000 1.000000 -60.708740 114.000000 201.000000 0.658250 0.751679 -0.041052
2630.00000000 12970.00000000 -1230.00000000 150 182 89 97.000000 1.000000 4.000000 1.000000 -60.708740 114.000000 201.000000 0.745129 0.665649 0.041160
2640.00000000 12960.00000000 -1250.00000000 150 182 89 97.000000 1.000000 4.000000 1.000000 -60.708740 114.000000 201.000000 0.883153 0.461807 0.082316
2610.00000000 12960.00000000 -1250.00000000 150 182 89 97.000000 1.000000 4.000000 1.000000 -60.708740 114.000000 201.000000 0.562128 0.767121 -0.309091
2640.00000000 12970.00000000 -1260.00000000 150 182 89 97.000000 1.000000 4.000000 1.000000 -60.708740 114.000000 201.000000 0.842599 0.532841 -0.078150
2650.00000000 12960.00000000 -1300.00000000 150 182 89 97.000000 1.000000 4.000000 1.000000 -60.708740 114.000000 201.000000 0.733618 0.664323 0.143108
2630.00000000 13010.00000000 -1320.00000000 150 182 89 97.000000 1.000000 4.000000 1.000000 -60.708740 114.000000 201.000000 0.651815 0.723718 -0.226650
2620.00000000 13010.00000000 -1310.00000000 150 182 89 97.000000 1.000000 4.000000 1.000000 -60.708740 114.000000 201.000000 0.535051 0.843574 0.045862
2630.00000000 13010.00000000 -1340.00000000 150 182 89 97.000000 1.000000 4.000000 1.000000 -60.708740 114.000000 201.000000 0.435501 0.774768 -0.458337
2610.00000000 13000.00000000 -1330.00000000 150 182 89 97.000000 1.000000 4.000000 1.000000 -60.708740 114.000000 201.000000 0.519402 0.808133 -0.277747
2630.00000000 12990.00000000 -1340.00000000 150 182 89 97.000000 1.000000 4.000000 1.000000 -60.708740 114.000000 201.000000 0.801942 0.591738 0.082066
2630.00000000 12960.00000000 -1300.00000000 150 182 89 97.000000 1.000000 4.000000 1.000000 -60.708740 114.000000 201.000000 0.866829 0.486966 0.107104
2580.00000000 13020.00000000 -1210.00000000 150 182 89 97.000000 1.000000 4.000000 1.000000 -60.708740 114.000000 201.000000 0.196238 0.978780 -0.058992
2570.00000000 13020.00000000 -1210.00000000 150 182 89 97.000000 1.000000 4.000000 1.000000 -60.708740 114.000000 201.000000 -0.279055 0.960098 -0.018440
2580.00000000 13020.00000000 -1250.00000000 150 182 89 97.000000 1.000000 4.000000 1.000000 -60.708740 114.000000 201.000000 0.513276 0.857295 -0.039906
2570.00000000 13020.00000000 -1260.00000000 150 182 89 97.000000 1.000000 4.000000 1.000000 -60.708740 114.000000 201.000000 0.473584 0.863073 -0.175565
2600.00000000 13020.00000000 -1260.00000000 150 182 89 97.000000 1.000000 4.000000 1.000000 -60.708740 114.000000 201.000000 0.610238 0.791774 0.026532
2580.00000000 13020.00000000 -1250.00000000 150 182 89 97.000000 1.000000 4.000000 1.000000 -60.708740 114.000000 201.000000 0.513276 0.857295 -0.039906
2570.00000000 13020.00000000 -1250.00000000 150 182 89 97.000000 1.000000 4.000000 1.000000 -60.708740 114.000000 201.000000 0.354896 0.928714 0.107421
2530.00000000 13030.00000000 -1230.00000000 150 182 89 97.000000 1.000000 4.000000 1.000000 -60.708740 114.000000 201.000000 0.322761 0.929160 0.180243
2550.00000000 13030.00000000 -1250.00000000 150 182 89 97.000000 1.000000 4.000000 1.000000 -60.708740 114.000000 201.000000 0.075545 0.989062 -0.126684
2550.00000000 13030.00000000 -1250.00000000 150 182 89 97.000000 1.000000 4.000000 1.000000 -60.708740 114.000000 201.000000 0.075545 0.989062 -0.126684
2560.00000000 13030.00000000 -1250.00000000 150 182 89 97.000000 1.000000 4.000000 1.000000 -60.708740 114.000000 201.000000 0.285243 0.908389 0.305722
2560.00000000 13030.00000000 -1250.00000000 150 182 89 97.000000 1.000000 4.000000 1.000000 -60.708740 114.000000 201.000000 0.285243 0.908389 0.305722
2540.00000000 13030.00000000 -1260.00000000 150 182 89 97.000000 1.000000 4.000000 1.000000 -60.708740 114.000000 201.000000 0.238179 0.948635 -0.208237
2530.00000000 13040.00000000 -1290.00000000 150 182 89 97.000000 1.000000 4.000000 1.000000 -60.708740 114.000000 201.000000 0.044108 0.997273 0.059169
2540.00000000 13060.00000000 -1290.00000000 150 182 89 97.000000 1.000000 4.000000 1.000000 -60.708740 114.000000 201.000000 0.410126 0.901143 0.140493
2590.00000000 13010.00000000 -1230.00000000 150 182 89 97.000000 1.000000 4.000000 1.000000 -60.708740 114.000000 201.000000 0.344283 0.878149 0.332150
2600.00000000 12990.00000000 -1240.00000000 150 182 89 97.000000 1.000000 4.000000 1.000000 -60.708740 114.000000 201.000000 0.471979 0.804765 -0.359984
2600.00000000 13000.00000000 -1230.00000000 150 182 89 97.000000 1.000000 4.000000 1.000000 -60.708740 114.000000 201.000000 0.285394 0.956007 0.067829
2600.00000000 13000.00000000 -1220.00000000 150 182 89 97.000000 1.000000 4.000000 1.000000 -60.708740 114.000000 201.000000 0.413353 0.901476 0.128379
2590.00000000 13010.00000000 -1210.00000000 150 182 89 97.000000 1.000000 4.000000 1.000000 -60.708740 114.000000 201.000000 0.551929 0.828614 -0.093669
2590.00000000 13010.00000000 -1200.00000000 150 182 89 97.000000 1.000000 4.000000 1.000000 -60.708740 114.000000 201.000000 0.527667 0.847888 0.051514
2600.00000000 13000.00000000 -1200.00000000 150 182 89 97.000000 1.000000 4.000000 1.000000 -60.708740 114.000000 201.000000 0.537962 0.840125 -0.069187
2600.00000000 12990.00000000 -1210.00000000 150 182 89 97.000000 1.000000 4.000000 1.000000 -60.708740 114.000000 201.000000 0.493933 0.868166 0.048155
2600.00000000 13000.00000000 -1220.00000000 150 182 89 97.000000 1.000000 4.000000 1.000000 -60.708740 114.000000 201.000000 0.413353 0.901476 0.128379
2600.00000000 13000.00000000 -1240.00000000 150 182 89 97.000000 1.000000 4.000000 1.000000 -60.708740 114.000000 201.000000 0.482150 0.855332 -0.189576
2590.00000000 13010.00000000 -1210.00000000 150 182 89 97.000000 1.000000 4.000000 1.000000 -60.708740 114.000000 201.000000 0.551929 0.828614 -0.093669
2580.00000000 13000.00000000 -1270.00000000 150 182 89 97.000000 1.000000 4.000000 1.000000 -60.708740 114.000000 201.000000 0.459533 0.880653 0.115239
2580.00000000 13000.00000000 -1280.00000000 150 182 89 97.000000 1.000000 4.000000 1.000000 -60.708740 114.000000 201.000000 0.638260 0.767346 -0.061675
2600.00000000 13010.00000000 -1260.00000000 150 182 89 97.000000 1.000000 4.000000 1.000000 -60.708740 114.000000 201.000000 0.359676 0.912803 0.193451
2530.00000000 13000.00000000 -1200.00000000 150 182 89 97.000000 1.000000 4.000000 1.000000 -60.708740 114.000000 201.000000 -0.278488 0.892054 0.355928
2560.00000000 13000.00000000 -1210.00000000 150 182 89 97.000000 1.000000 4.000000 1.000000 -60.708740 114.000000 201.000000 0.127675 0.978018 0.164862
2550.00000000 13010.00000000 -1210.00000000 150 182 89 97.000000 1.000000 4.000000 1.000000 -60.708740 114.000000 201.000000 0.184854 0.943440 0.275227
2530.00000000 13010.00000000 -1230.00000000 150 182 89 97.000000 1.000000 4.000000 1.000000 -60.708740 114.000000 201.000000 -0.426536 0.883854 0.192015
2540.00000000 13010.00000000 -1240.00000000 150 182 89 97.000000 1.000000 4.000000 1.000000 -60.708740 114.000000 201.000000 0.141253 0.965445 0.219007
2550.00000000 13010.00000000 -1220.00000000 150 182 89 97.000000 1.000000 4.000000 1.000000 -60.708740 114.000000 201.000000 0.202255 0.964299 0.170938
2530.00000000 13010.00000000 -1250.00000000 150 182 89 97.000000 1.000000 4.000000 1.000000 -60.708740 114.000000 201.000000 -0.233720 0.972037 -0.022773
2520.00000000 13010.00000000 -1250.00000000 150 182 89 97.000000 1.000000 4.000000 1.000000 -60.708740 114.000000 201.000000 0.166596 0.981334 -0.096066
2520.00000000 13010.00000000 -1260.00000000 150 182 89 97.000000 1.000000 4.000000 1.000000 -60.708740 114.000000 201.000000 -0.240111 0.964296 -0.111709
2600.00000000 13010.00000000 -1310.00000000 150 182 89 97.000000 1.000000 4.000000 1.000000 -60.708740 114.000000 201.000000 0.552835 0.753866 -0.355047
2590.00000000 13000.00000000 -1350.00000000 150 182 89 97.000000 1.000000 4.000000 1.000000 -60.708740 114.000000 201.000000 0.355159 0.904705 -0.235311
2680.00000000 12920.00000000 -1070.00000000 150 182 89 97.000000 1.000000 4.000000 1.000000 -60.708740 114.000000 201.000000 0.714576 0.677853 -0.172906
2650.00000000 12920.00000000 -1050.00000000 150 182 89 97.000000 1.000000 4.000000 1.000000 -60.708740 114.000000 201.000000 0.857889 0.481544 -0.179282
2680.00000000 12900.00000000 -1050.00000000 150 182 89 97.000000 1.000000 4.000000 1.000000 -60.708740 114.000000 201.000000 0.987870 0.139120 -0.068976
2660.00000000 12920.00000000 -1060.00000000 150 182 89 97.000000 1.000000 4.000000 1.000000 -60.708740 114.000000 201.000000 0.744469 0.636126 0.202756
2660.00000000 12930.00000000 -1040.00000000 150 182 89 97.000000 1.000000 4.000000 1.000000 -60.708740 114.000000 201.000000 0.725785 0.674905 -0.133185
2670.00000000 12910.00000000 -1080.00000000 150 182 89 97.000000 1.000000 4.000000 1.000000 -60.708740 114.000000 201.000000 0.942875 0.190771 -0.273118
2670.00000000 12910.00000000 -1100.00000000 150 182 89 97.000000 1.000000 4.000000 1.000000 -60.708740 114.000000 201.000000 0.931612 0.328071 -0.156422
2670.00000000 12930.00000000 -1090.00000000 150 182 89 97.000000 1.000000 4.000000 1.000000 -60.708740 114.000000 201.000000 0.782932 0.559237 -0.272530
2660.00000000 12920.00000000 -1100.00000000 150 182 89 97.000000 1.000000 4.000000 1.000000 -60.708740 114.000000 201.000000 0.686316 0.721437 -0.092192
2650.00000000 12900.00000000 -1100.00000000 150 182 89 97.000000 1.000000 4.000000 1.000000 -60.708740 114.000000 201.000000 0.934112 0.327831 -0.141283
2660.00000000 12900.00000000 -1090.00000000 150 182 89 97.000000 1.000000 4.000000 1.000000 -60.708740 114.000000 201.000000 0.983590 0.171625 -0.055630
2670.00000000 12930.00000000 -1080.00000000 150 182 89 97.000000 1.000000 4.000000 1.000000 -60.708740 114.000000 201.000000 0.841874 0.469418 -0.266260
2660.00000000 12880.00000000 -1050.00000000 150 182 89 97.000000 1.000000 4.000000 1.000000 -60.708740 114.000000 201.000000 0.922774 0.367184 0.116894
2670.00000000 12860.00000000 -1040.00000000 150 182 89 97.000000 1.000000 4.000000 1.000000 -60.708740 114.000000 201.000000 0.999220 -0.029904 -0.025780
2670.00000000 12870.00000000 -1050.00000000 150 182 89 97.000000 1.000000 4.000000 1.000000 -60.708740 114.000000 201.000000 0.978597 -0.081651 -0.188895
2660.00000000 12880.00000000 -1050.00000000 150 182 89 97.000000 1.000000 4.000000 1.000000 -60.708740 114.000000 201.000000 0.922774 0.367184 0.116894
2670.00000000 12870.00000000 -1040.00000000 150 182 89 97.000000 1.000000 4.000000 1.000000 -60.708740 114.000000 201.000000 0.971163 -0.025272 -0.237074
2660.00000000 12870.00000000 -1090.00000000 150 182 89 97.000000 1.000000 4.000000 1.000000 -60.708740 114.000000 201.000000 0.921803 -0.217984 -0.320565
2650.00000000 12870.00000000 -1100.00000000 150 182 89 97.000000 1.000000 4.000000 1.000000 -60.708740 114.000000 201.000000 0.954005 -0.141973 -0.264043
2660.00000000 12860.00000000 -1110.00000000 150 182 89 97.000000 1.000000 4.000000 1.000000 -60.708740 114.000000 201.000000 0.822610 -0.293006 -0.487299
2630.00000000 12900.00000000 -1060.00000000 150 182 89 97.000000 1.000000 4.000000 1.000000 -60.708740 114.000000 201.000000 0.864609 0.478388 -0.153611
2660.00000000 12920.00000000 -1120.00000000 150 182 89 97.000000 1.000000 4.000000 1.000000 -60.708740 114.000000 201.000000 0.961833 0.188156 -0.198682
2650.00000000 12930.00000000 -1130.00000000 150 182 89 97.000000 1.000000 4.000000 1.000000 -60.708740 114.000000 201.000000 0.881645 0.369236 -0.293882
2650.00000000 12900.00000000 -1140.00000000 150 182 89 97.000000 1.000000 4.000000 1.000000 -60.708740 114.000000 201.000000 0.992187 0.107970 -0.062509
2660.00000000 12930.00000000 -1120.00000000 150 182 89 97.000000 1.000000 4.000000 1.000000 -60.708740 114.000000 201.000000 0.951152 0.254990 -0.174041
2650.00000000 12930.00000000 -1130.00000000 150 182 89 97.000000 1.000000 4.000000 1.000000 -60.708740 114.000000 201.000000 0.881645 0.369236 -0.293882
2650.00000000 12890.00000000 -1120.00000000 150 182 89 97.000000 1.000000 4.000000 1.000000 -60.708740 114.000000 201.000000 0.999342 0.033755 0.013297
2650.00000000 12860.00000000 -1150.00000000 150 182 89 97.000000 1.000000 4.000000 1.000000 -60.708740 114.000000 201.000000 0.906026 -0.324525 -0.271661
2650.00000000 12890.00000000 -1120.00000000 150 182 89 97.000000 1.000000 4.000000 1.000000 -60.708740 114.000000 201.000000 0.999342 0.033755 0.013297
2640.00000000 12930.00000000 -1120.00000000 150 182 89 97.000000 1.000000 4.000000 1.000000 -60.708740 114.000000 201.000000 0.879618 0.459118 0.124434
2620.00000000 12920.00000000 -1120.00000000 150 182 89 97.000000 1.000000 4.000000 1.000000 -60.708740 114.000000 201.000000 0.650814 0.749107 -0.123610
2640.00000000 12870.00000000 -1120.00000000 150 182 89 97.000000 1.000000 4.000000 1.000000 -60.708740 114.000000 201.000000 0.976463 -0.198248 0.084963
2630.00000000 12880.00000000 -1160.00000000 150 182 89 97.000000 1.000000 4.000000 1.000000 -60.708740 114.000000 201.000000 0.957775 -0.006116 -0.287455
2640.00000000 12880.00000000 -1160.00000000 150 182 89 97.000000 1.000000 4.000000 1.000000 -60.708740 114.000000 201.000000 0.884761 0.076392 -0.459742
2650.00000000 12850.00000000 -1130.00000000 150 182 89 97.000000 1.000000 4.000000 1.000000 -60.708740 114.000000 201.000000 0.942200 -0.297751 -0.153634
2540.00000000 12860.00000000 -1060.00000000 150 182 89 97.000000 1.000000 4.000000 1.000000 -60.708740 114.000000 201.000000 0.960076 0.270856 0.069939
2520.00000000 12880.00000000 -1040.00000000 150 182 89 97.000000 1.000000 4.000000 1.000000 -60.708740 114.000000 201.000000 0.905278 -0.022467 -0.424225
2520.00000000 12880.00000000 -1040.00000000 150 182 89 97.000000 1.000000 4.000000 1.000000 -60.708740 114.000000 201.000000 0.905278 -0.022467 -0.424225
