//X Y Z R G B PointSourceId ScanDirectionFlag NumberOfReturns ReturnNumber GpsTime Intensity Classification Nx Ny Nz
-5090.00000000 -10730.00000000 -880.00000000 27 80 202 0.000000 0.000000 0.000000 0.000000 -60.708740 0.000000 170.000000 0.741180 0.660972 0.117341
-5130.00000000 -10660.00000000 -870.00000000 27 80 202 0.000000 0.000000 0.000000 0.000000 -60.708740 0.000000 170.000000 0.752729 0.629583 0.192415
-5110.00000000 -10660.00000000 -890.00000000 27 80 202 0.000000 0.000000 0.000000 0.000000 -60.708740 0.000000 170.000000 0.653142 0.755596 -0.049804
-5080.00000000 -10730.00000000 -1020.00000000 27 80 202 0.000000 0.000000 0.000000 0.000000 -60.708740 0.000000 170.000000 0.986655 -0.154929 -0.050090
-5110.00000000 -10650.00000000 -960.00000000 27 80 202 0.000000 0.000000 0.000000 0.000000 -60.708740 0.000000 170.000000 0.976356 0.214727 -0.024913
-5110.00000000 -10650.00000000 -990.00000000 27 80 202 0.000000 0.000000 0.000000 0.000000 -60.708740 0.000000 170.000000 0.820123 0.542218 0.182753
-5140.00000000 -10720.00000000 -960.00000000 27 80 202 0.000000 0.000000 0.000000 0.000000 -60.708740 0.000000 170.000000 0.744311 0.646896 -0.165910
-5140.00000000 -10730.00000000 -1000.00000000 27 80 202 0.000000 0.000000 0.000000 0.000000 -60.708740 0.000000 170.000000 0.901945 0.386548 -0.192550
-5090.00000000 -10800.00000000 -930.00000000 27 80 202 0.000000 0.000000 0.000000 0.000000 -60.708740 0.000000 170.000000 0.920353 0.277978 -0.275098
-5120.00000000 -10800.00000000 -870.00000000 27 80 202 0.000000 0.000000 0.000000 0.000000 -60.708740 0.000000 170.000000 0.888263 0.295089 -0.352010
-5090.00000000 -10740.00000000 -1030.00000000 27 80 202 0.000000 0.000000 0.000000 0.000000 -60.708740 0.000000 170.000000 0.996580 -0.076494 -0.031244
-5070.00000000 -10800.00000000 -1010.00000000 27 80 202 0.000000 0.000000 0.000000 0.000000 -60.708740 0.000000 170.000000 0.979842 -0.178928 0.088855
-5070.00000000 -10810.00000000 -1000.00000000 27 80 202 0.000000 0.000000 0.000000 0.000000 -60.708740 0.000000 170.000000 0.923704 -0.362048 -0.125271
-5140.00000000 -10740.00000000 -990.00000000 27 80 202 0.000000 0.000000 0.000000 0.000000 -60.708740 0.000000 170.000000 0.896099 -0.107981 -0.430520
-5150.00000000 -10660.00000000 -900.00000000 27 80 202 0.000000 0.000000 0.000000 0.000000 -60.708740 0.000000 170.000000 0.828123 0.557255 0.060663
-5180.00000000 -10680.00000000 -910.00000000 27 80 202 0.000000 0.000000 0.000000 0.000000 -60.708740 0.000000 170.000000 0.553441 0.803184 0.220452
-5170.00000000 -10730.00000000 -870.00000000 27 80 202 0.000000 0.000000 0.000000 0.000000 -60.708740 0.000000 170.000000 0.747891 0.498046 0.438872
-5180.00000000 -10700.00000000 -900.00000000 27 80 202 0.000000 0.000000 0.000000 0.000000 -60.708740 0.000000 170.000000 0.476356 0.829328 0.292061
-5160.00000000 -10690.00000000 -940.00000000 27 80 202 0.000000 0.000000 0.000000 0.000000 -60.708740 0.000000 170.000000 0.960458 0.259130 0.101847
-5220.00000000 -10680.00000000 -920.00000000 27 80 202 0.000000 0.000000 0.000000 0.000000 -60.708740 0.000000 170.000000 0.634886 0.772605 -0.001377
-5190.00000000 -10680.00000000 -920.00000000 27 80 202 0.000000 0.000000 0.000000 0.000000 -60.708740 0.000000 170.000000 0.759741 0.637826 -0.126376
-5190.00000000 -10670.00000000 -920.00000000 27 80 202 0.000000 0.000000 0.000000 0.000000 -60.708740 0.000000 170.000000 0.835753 0.536335 0.117732
-5190.00000000 -10690.00000000 -890.00000000 27 80 202 0.000000 0.000000 0.000000 0.000000 -60.708740 0.000000 170.000000 0.604852 0.742101 0.288861
-5160.00000000 -10770.00000000 -870.00000000 27 80 202 0.000000 0.000000 0.000000 0.000000 -60.708740 0.000000 170.000000 0.859603 0.505070 0.077378
-5160.00000000 -10740.00000000 -900.00000000 27 80 202 0.000000 0.000000 0.000000 0.000000 -60.708740 0.000000 170.000000 0.912335 0.224108 -0.342668
-5180.00000000 -10750.00000000 -920.00000000 27 80 202 0.000000 0.000000 0.000000 0.000000 -60.708740 0.000000 170.000000 0.788027 0.441748 -0.428803
-5210.00000000 -10740.00000000 -900.00000000 27 80 202 0.000000 0.000000 0.000000 0.000000 -60.708740 0.000000 170.000000 0.639951 0.592921 0.488782
-5200.00000000 -10760.00000000 -870.00000000 27 80 202 0.000000 0.000000 0.000000 0.000000 -60.708740 0.000000 170.000000 0.685925 0.689064 0.233874
-5200.00000000 -10740.00000000 -930.00000000 27 80 202 0.000000 0.000000 0.000000 0.000000 -60.708740 0.000000 170.000000 0.941345 0.315572 -0.119515
-5200.00000000 -10800.00000000 -900.00000000 27 80 202 0.000000 0.000000 0.000000 0.000000 -60.708740 0.000000 170.000000 0.927659 0.237242 -0.288384
-5200.00000000 -10790.00000000 -900.00000000 27 80 202 0.000000 0.000000 0.000000 0.000000 -60.708740 0.000000 170.000000 0.947405 -0.279762 -0.155423
-5200.00000000 -10790.00000000 -900.00000000 27 80 202 0.000000 0.000000 0.000000 0.000000 -60.708740 0.000000 170.000000 0.947405 -0.279762 -0.155423
-5190.00000000 -10800.00000000 -940.00000000 27 80 202 0.000000 0.000000 0.000000 0.000000 -60.708740 0.000000 170.000000 0.766490 -0.533140 -0.358127
-5200.00000000 -10810.00000000 -930.00000000 27 80 202 0.000000 0.000000 0.000000 0.000000 -60.708740 0.000000 170.000000 0.814583 -0.490011 -0.310393
-5170.00000000 -10750.00000000 -1030.00000000 27 80 202 0.000000 0.000000 0.000000 0.000000 -60.708740 0.000000 170.000000 0.994477 0.099997 -0.031867
-5200.00000000 -10800.00000000 -950.00000000 27 80 202 0.000000 0.000000 0.000000 0.000000 -60.708740 0.000000 170.000000 0.875126 -0.426343 -0.228879
-5230.00000000 -10700.00000000 -700.00000000 27 80 202 0.000000 0.000000 0.000000 0.000000 -60.708740 0.000000 170.000000 -0.107494 0.770128 0.628766
-5230.00000000 -10700.00000000 -700.00000000 27 80 202 0.000000 0.000000 0.000000 0.000000 -60.708740 0.000000 170.000000 -0.107494 0.770128 0.628766
-5230.00000000 -10790.00000000 -860.00000000 27 80 202 0.000000 0.000000 0.000000 0.000000 -60.708740 0.000000 170.000000 0.701707 0.633643 -0.325735
-5230.00000000 -10740.00000000 -890.00000000 27 80 202 0.000000 0.000000 0.000000 0.000000 -60.708740 0.000000 170.000000 0.718619 0.632193 0.289688
-5090.00000000 -10830.00000000 -710.00000000 27 80 202 0.000000 0.000000 0.000000 0.000000 -60.708740 0.000000 170.000000 0.823322 0.492118 -0.282773
-5070.00000000 -10840.00000000 -750.00000000 27 80 202 0.000000 0.000000 0.000000 0.000000 -60.708740 0.000000 170.000000 0.876005 0.453307 -0.164706
-5060.00000000 -10880.00000000 -730.00000000 27 80 202 0.000000 0.000000 0.000000 0.000000 -60.708740 0.000000 170.000000 0.960900 -0.252869 -0.112818
-5060.00000000 -10890.00000000 -730.00000000 27 80 202 0.000000 0.000000 0.000000 0.000000 -60.708740 0.000000 170.000000 0.752023 -0.256981 -0.606978
-5070.00000000 -10890.00000000 -760.00000000 27 80 202 0.000000 0.000000 0.000000 0.000000 -60.708740 0.000000 170.000000 0.999336 -0.023623 0.027731
-5140.00000000 -10860.00000000 -740.00000000 27 80 202 0.000000 0.000000 0.000000 0.000000 -60.708740 0.000000 170.000000 0.753370 -0.541840 -0.372617
-5060.00000000 -10830.00000000 -830.00000000 27 80 202 0.000000 0.000000 0.000000 0.000000 -60.708740 0.000000 170.000000 0.961369 -0.275196 -0.006062
-5060.00000000 -10890.00000000 -780.00000000 27 80 202 0.000000 0.000000 0.000000 0.000000 -60.708740 0.000000 170.000000 0.684499 -0.520487 -0.510445
-5060.00000000 -10880.00000000 -800.00000000 27 80 202 0.000000 0.000000 0.000000 0.000000 -60.708740 0.000000 170.000000 0.955822 0.081264 -0.282490
-5080.00000000 -10860.00000000 -800.00000000 27 80 202 0.000000 0.000000 0.000000 0.000000 -60.708740 0.000000 170.000000 0.974459 -0.179803 0.134538
-5060.00000000 -10870.00000000 -780.00000000 27 80 202 0.000000 0.000000 0.000000 0.000000 -60.708740 0.000000 170.000000 0.898442 0.249321 -0.361442
-5060.00000000 -10870.00000000 -780.00000000 27 80 202 0.000000 0.000000 0.000000 0.000000 -60.708740 0.000000 170.000000 0.898442 0.249321 -0.361442
-5060.00000000 -10870.00000000 -810.00000000 27 80 202 0.000000 0.000000 0.000000 0.000000 -60.708740 0.000000 170.000000 0.769183 -0.012473 -0.638907
-5080.00000000 -10860.00000000 -850.00000000 27 80 202 0.000000 0.000000 0.000000 0.000000 -60.708740 0.000000 170.000000 0.911397 0.175433 -0.372261
-5080.00000000 -10860.00000000 -850.00000000 27 80 202 0.000000 0.000000 0.000000 0.000000 -60.708740 0.000000 170.000000 0.911397 0.175433 -0.372261
-5070.00000000 -10890.00000000 -840.00000000 27 80 202 0.000000 0.000000 0.000000 0.000000 -60.708740 0.000000 170.000000 0.893984 -0.019925 -0.447656
-5120.00000000 -10840.00000000 -800.00000000 27 80 202 0.000000 0.000000 0.000000 0.000000 -60.708740 0.000000 170.000000 0.923313 0.054313 -0.380188
-5070.00000000 -10920.00000000 -730.00000000 27 80 202 0.000000 0.000000 0.000000 0.000000 -60.708740 0.000000 170.000000 0.845741 -0.009503 -0.533509
-5060.00000000 -10900.00000000 -720.00000000 27 80 202 0.000000 0.000000 0.000000 0.000000 -60.708740 0.000000 170.000000 0.911308 -0.066154 -0.406376
-5060.00000000 -10920.00000000 -720.00000000 27 80 202 0.000000 0.000000 0.000000 0.000000 -60.708740 0.000000 170.000000 0.965594 0.010877 -0.259828
-5070.00000000 -10930.00000000 -740.00000000 27 80 202 0.000000 0.000000 0.000000 0.000000 -60.708740 0.000000 170.000000 0.737762 -0.257506 -0.624017
-5070.00000000 -10950.00000000 -710.00000000 27 80 202 0.000000 0.000000 0.000000 0.000000 -60.708740 0.000000 170.000000 -0.552365 0.439570 0.708288
-5070.00000000 -10950.00000000 -710.00000000 27 80 202 0.000000 0.000000 0.000000 0.000000 -60.708740 0.000000 170.000000 -0.552365 0.439570 0.708288
-5060.00000000 -10950.00000000 -700.00000000 27 80 202 0.000000 0.000000 0.000000 0.000000 -60.708740 0.000000 170.000000 0.873206 -0.426867 -0.235151
-5060.00000000 -10950.00000000 -740.00000000 27 80 202 0.000000 0.000000 0.000000 0.000000 -60.708740 0.000000 170.000000 0.936985 -0.333776 -0.103216
-5060.00000000 -10950.00000000 -740.00000000 27 80 202 0.000000 0.000000 0.000000 0.000000 -60.708740 0.000000 170.000000 0.936985 -0.333776 -0.103216
-5080.00000000 -10930.00000000 -810.00000000 27 80 202 0.000000 0.000000 0.000000 0.000000 -60.708740 0.000000 170.000000 0.645040 -0.425027 -0.635040
-5060.00000000 -10930.00000000 -800.00000000 27 80 202 0.000000 0.000000 0.000000 0.000000 -60.708740 0.000000 170.000000 0.890644 -0.448774 -0.073185
-5110.00000000 -10940.00000000 -800.00000000 27 80 202 0.000000 0.000000 0.000000 0.000000 -60.708740 0.000000 170.000000 -0.523469 0.557132 0.644658
-5180.00000000 -10820.00000000 -720.00000000 27 80 202 0.000000 0.000000 0.000000 0.000000 -60.708740 0.000000 170.000000 0.448158 0.889336 -0.090749
-5180.00000000 -10840.00000000 -730.00000000 27 80 202 0.000000 0.000000 0.000000 0.000000 -60.708740 0.000000 170.000000 0.790287 0.421810 -0.444436
-5190.00000000 -10820.00000000 -730.00000000 27 80 202 0.000000 0.000000 0.000000 0.000000 -60.708740 0.000000 170.000000 0.435070 0.871635 -0.225758
-5190.00000000 -10840.00000000 -720.00000000 27 80 202 0.000000 0.000000 0.000000 0.000000 -60.708740 0.000000 170.000000 0.973172 0.188071 -0.132533
-5190.00000000 -10820.00000000 -730.00000000 27 80 202 0.000000 0.000000 0.000000 0.000000 -60.708740 0.000000 170.000000 0.435070 0.871635 -0.225758
-5190.00000000 -10830.00000000 -770.00000000 27 80 202 0.000000 0.000000 0.000000 0.000000 -60.708740 0.000000 170.000000 0.825043 0.192258 -0.531358
-5190.00000000 -10860.00000000 -750.00000000 27 80 202 0.000000 0.000000 0.000000 0.000000 -60.708740 0.000000 170.000000 0.879286 -0.381577 -0.285052
-5180.00000000 -10850.00000000 -810.00000000 27 80 202 0.000000 0.000000 0.000000 0.000000 -60.708740 0.000000 170.000000 0.931161 -0.364588 -0.003811
-5180.00000000 -10850.00000000 -830.00000000 27 80 202 0.000000 0.000000 0.000000 0.000000 -60.708740 0.000000 170.000000 0.850029 -0.525947 0.028838
-5210.00000000 -10850.00000000 -790.00000000 27 80 202 0.000000 0.000000 0.000000 0.000000 -60.708740 0.000000 170.000000 -0.702767 0.566534 0.430300
-5200.00000000 -10850.00000000 -830.00000000 27 80 202 0.000000 0.000000 0.000000 0.000000 -60.708740 0.000000 170.000000 0.674756 -0.618388 -0.402864
-5210.00000000 -10830.00000000 -850.00000000 27 80 202 0.000000 0.000000 0.000000 0.000000 -60.708740 0.000000 170.000000 0.937736 -0.327870 -0.114687
-5210.00000000 -10870.00000000 -790.00000000 27 80 202 0.000000 0.000000 0.000000 0.000000 -60.708740 0.000000 170.000000 0.506712 -0.716043 -0.480131
-5150.00000000 -10900.00000000 -710.00000000 27 80 202 0.000000 0.000000 0.000000 0.000000 -60.708740 0.000000 170.000000 0.860718 -0.409647 -0.302249
-5200.00000000 -10970.00000000 -840.00000000 27 80 202 0.000000 0.000000 0.000000 0.000000 -60.708740 0.000000 170.000000 -0.442561 0.714396 0.542013
-5070.00000000 -10830.00000000 -890.00000000 27 80 202 0.000000 0.000000 0.000000 0.000000 -60.708740 0.000000 170.000000 0.971373 0.075869 -0.225120
-5060.00000000 -10850.00000000 -930.00000000 27 80 202 0.000000 0.000000 0.000000 0.000000 -60.708740 0.000000 170.000000 0.971948 0.096568 -0.214456
-5060.00000000 -10840.00000000 -920.00000000 27 80 202 0.000000 0.000000 0.000000 0.000000 -60.708740 0.000000 170.000000 0.983477 -0.012653 -0.180592
-5060.00000000 -10890.00000000 -890.00000000 27 80 202 0.000000 0.000000 0.000000 0.000000 -60.708740 0.000000 170.000000 0.724560 -0.311448 -0.614827
-5080.00000000 -10890.00000000 -880.00000000 27 80 202 0.000000 0.000000 0.000000 0.000000 -60.708740 0.000000 170.000000 0.877922 -0.417274 -0.234810
-5070.00000000 -10890.00000000 -930.00000000 27 80 202 0.000000 0.000000 0.000000 0.000000 -60.708740 0.000000 170.000000 0.915524 -0.398112 0.057639
-5060.00000000 -10880.00000000 -910.00000000 27 80 202 0.000000 0.000000 0.000000 0.000000 -60.708740 0.000000 170.000000 0.918004 -0.074141 -0.389579
-5070.00000000 -10820.00000000 -990.00000000 27 80 202 0.000000 0.000000 0.000000 0.000000 -60.708740 0.000000 170.000000 0.927993 -0.035141 -0.370937
-5060.00000000 -10850.00000000 -990.00000000 27 80 202 0.000000 0.000000 0.000000 0.000000 -60.708740 0.000000 170.000000 0.915918 -0.398974 0.043741
-5070.00000000 -10820.00000000 -1000.00000000 27 80 202 0.000000 0.000000 0.000000 0.000000 -60.708740 0.000000 170.000000 0.960021 -0.213191 -0.181411
-5060.00000000 -10870.00000000 -950.00000000 27 80 202 0.000000 0.000000 0.000000 0.000000 -60.708740 0.000000 170.000000 0.931681 -0.342390 -0.121405
-5080.00000000 -10890.00000000 -970.00000000 27 80 202 0.000000 0.000000 0.000000 0.000000 -60.708740 0.000000 170.000000 0.887356 -0.337826 -0.313803
-5060.00000000 -10860.00000000 -950.00000000 27 80 202 0.000000 0.000000 0.000000 0.000000 -60.708740 0.000000 170.000000 0.961171 0.015917 -0.275495
-5070.00000000 -10860.00000000 -990.00000000 27 80 202 0.000000 0.000000 0.000000 0.000000 -60.708740 0.000000 170.000000 0.931261 -0.361794 -0.043102
-5060.00000000 -10900.00000000 -880.00000000 27 80 202 0.000000 0.000000 0.000000 0.000000 -60.708740 0.000000 170.000000 0.930842 -0.141620 -0.336863
-5070.00000000 -10900.00000000 -910.00000000 27 80 202 0.000000 0.000000 0.000000 0.000000 -60.708740 0.000000 170.000000 0.782530 -0.406657 -0.471462
-5070.00000000 -10920.00000000 -910.00000000 27 80 202 0.000000 0.000000 0.000000 0.000000 -60.708740 0.000000 170.000000 0.749439 -0.513292 -0.418177
-5090.00000000 -10920.00000000 -930.00000000 27 80 202 0.000000 0.000000 0.000000 0.000000 -60.708740 0.000000 170.000000 0.870580 -0.490641 0.036901
-5070.00000000 -10920.00000000 -910.00000000 27 80 202 0.000000 0.000000 0.000000 0.000000 -60.708740 0.000000 170.000000 0.749439 -0.513292 -0.418177
-5080.00000000 -10900.00000000 -930.00000000 27 80 202 0.000000 0.000000 0.000000 0.000000 -60.708740 0.000000 170.000000 0.894099 -0.443637 0.061427
-5100.00000000 -10930.00000000 -960.00000000 27 80 202 0.000000 0.000000 0.000000 0.000000 -60.708740 0.000000 170.000000 0.809217 -0.518087 -0.277043
-5090.00000000 -10930.00000000 -970.00000000 27 80 202 0.000000 0.000000 0.000000 0.000000 -60.708740 0.000000 170.000000 -0.756048 0.316224 0.573056
-5080.00000000 -10900.00000000 -1000.00000000 27 80 202 0.000000 0.000000 0.000000 0.000000 -60.708740 0.000000 170.000000 0.840189 -0.299735 -0.451931
-5090.00000000 -10900.00000000 -1010.00000000 27 80 202 0.000000 0.000000 0.000000 0.000000 -60.708740 0.000000 170.000000 0.489896 -0.523336 -0.697224
-5060.00000000 -10930.00000000 -990.00000000 27 80 202 0.000000 0.000000 0.000000 0.000000 -60.708740 0.000000 170.000000 0.859156 -0.442503 -0.256986
-5100.00000000 -10950.00000000 -950.00000000 27 80 202 0.000000 0.000000 0.000000 0.000000 -60.708740 0.000000 170.000000 0.868370 -0.422819 -0.259147
-5210.00000000 -10820.00000000 -870.00000000 27 80 202 0.000000 0.000000 0.000000 0.000000 -60.708740 0.000000 170.000000 0.937682 -0.346003 -0.032156
-5210.00000000 -10830.00000000 -930.00000000 27 80 202 0.000000 0.000000 0.000000 0.000000 -60.708740 0.000000 170.000000 0.660951 -0.499497 -0.560042
-5200.00000000 -10820.00000000 -930.00000000 27 80 202 0.000000 0.000000 0.000000 0.000000 -60.708740 0.000000 170.000000 0.863929 -0.429687 -0.262671
-5220.00000000 -10830.00000000 -930.00000000 27 80 202 0.000000 0.000000 0.000000 0.000000 -60.708740 0.000000 170.000000 0.586320 -0.576182 -0.569423
-5200.00000000 -10830.00000000 -930.00000000 27 80 202 0.000000 0.000000 0.000000 0.000000 -60.708740 0.000000 170.000000 0.862776 -0.315275 -0.395247
-5200.00000000 -10820.00000000 -920.00000000 27 80 202 0.000000 0.000000 0.000000 0.000000 -60.708740 0.000000 170.000000 0.955558 -0.269449 -0.119609
-5200.00000000 -10830.00000000 -920.00000000 27 80 202 0.000000 0.000000 0.000000 0.000000 -60.708740 0.000000 170.000000 0.947393 -0.267771 -0.175342
-5200.00000000 -10820.00000000 -940.00000000 27 80 202 0.000000 0.000000 0.000000 0.000000 -60.708740 0.000000 170.000000 0.931198 -0.316915 -0.180097
-5210.00000000 -10830.00000000 -920.00000000 27 80 202 0.000000 0.000000 0.000000 0.000000 -60.708740 0.000000 170.000000 0.753149 -0.608494 -0.250002
-5190.00000000 -10820.00000000 -920.00000000 27 80 202 0.000000 0.000000 0.000000 0.000000 -60.708740 0.000000 170.000000 0.830752 -0.436657 -0.345227
-5190.00000000 -10850.00000000 -920.00000000 27 80 202 0.000000 0.000000 0.000000 0.000000 -60.708740 0.000000 170.000000 -0.508754 0.532261 0.676660
-5200.00000000 -10860.00000000 -920.00000000 27 80 202 0.000000 0.000000 0.000000 0.000000 -60.708740 0.000000 170.000000 0.570029 -0.610625 -0.549731
-5200.00000000 -10860.00000000 -910.00000000 27 80 202 0.000000 0.000000 0.000000 0.000000 -60.708740 0.000000 170.000000 0.775597 -0.617798 -0.129514
-5210.00000000 -10820.00000000 -970.00000000 27 80 202 0.000000 0.000000 0.000000 0.000000 -60.708740 0.000000 170.000000 0.795211 -0.606331 -0.001369
-5120.00000000 -11050.00000000 -710.00000000 27 80 202 0.000000 0.000000 0.000000 0.000000 -60.708740 0.000000 170.000000 -0.473478 0.687630 0.550439
-5220.00000000 -10990.00000000 -720.00000000 27 80 202 0.000000 0.000000 0.000000 0.000000 -60.708740 0.000000 170.000000 0.482599 0.775083 0.407853
-5260.00000000 -10830.00000000 -700.00000000 27 80 202 0.000000 0.000000 0.000000 0.000000 -60.708740 0.000000 170.000000 0.794796 -0.193741 -0.575121
-5270.00000000 -10850.00000000 -710.00000000 27 80 202 0.000000 0.000000 0.000000 0.000000 -60.708740 0.000000 170.000000 0.955200 0.163863 -0.246460
-5320.00000000 -10950.00000000 -800.00000000 27 80 202 0.000000 0.000000 0.000000 0.000000 -60.708740 0.000000 170.000000 0.744266 0.662703 0.083020
-5360.00000000 -10930.00000000 -830.00000000 27 80 202 0.000000 0.000000 0.000000 0.000000 -60.708740 0.000000 170.000000 0.783394 0.620829 0.029430
-5370.00000000 -10930.00000000 -840.00000000 27 80 202 0.000000 0.000000 0.000000 0.000000 -60.708740 0.000000 170.000000 0.892518 0.439974 0.099169
-5360.00000000 -10980.00000000 -790.00000000 27 80 202 0.000000 0.000000 0.000000 0.000000 -60.708740 0.000000 170.000000 0.642326 0.764809 -0.049848
-5360.00000000 -10950.00000000 -820.00000000 27 80 202 0.000000 0.000000 0.000000 0.000000 -60.708740 0.000000 170.000000 0.772550 0.569498 0.280783
-5370.00000000 -10970.00000000 -840.00000000 27 80 202 0.000000 0.000000 0.000000 0.000000 -60.708740 0.000000 170.000000 0.665973 0.724150 -0.179124
-5380.00000000 -10960.00000000 -840.00000000 27 80 202 0.000000 0.000000 0.000000 0.000000 -60.708740 0.000000 170.000000 0.761477 0.598191 0.249639
-5380.00000000 -10960.00000000 -850.00000000 27 80 202 0.000000 0.000000 0.000000 0.000000 -60.708740 0.000000 170.000000 0.824052 0.521339 -0.221684
-5360.00000000 -10970.00000000 -830.00000000 27 80 202 0.000000 0.000000 0.000000 0.000000 -60.708740 0.000000 170.000000 0.590104 0.663658 0.459713
-5310.00000000 -10880.00000000 -1030.00000000 27 80 202 0.000000 0.000000 0.000000 0.000000 -60.708740 0.000000 170.000000 0.536523 0.802438 0.261222
-5290.00000000 -10980.00000000 -950.00000000 27 80 202 0.000000 0.000000 0.000000 0.000000 -60.708740 0.000000 170.000000 0.360581 0.927786 -0.095885
-5370.00000000 -10890.00000000 -880.00000000 27 80 202 0.000000 0.000000 0.000000 0.000000 -60.708740 0.000000 170.000000 0.558873 0.803859 -0.203644
-5330.00000000 -10880.00000000 -1030.00000000 27 80 202 0.000000 0.000000 0.000000 0.000000 -60.708740 0.000000 170.000000 0.583826 0.810005 -0.055131
-5330.00000000 -10880.00000000 -1030.00000000 27 80 202 0.000000 0.000000 0.000000 0.000000 -60.708740 0.000000 170.000000 0.583826 0.810005 -0.055131
-5330.00000000 -10940.00000000 -940.00000000 27 80 202 0.000000 0.000000 0.000000 0.000000 -60.708740 0.000000 170.000000 0.733145 0.670939 0.111083
-5350.00000000 -10950.00000000 -910.00000000 27 80 202 0.000000 0.000000 0.000000 0.000000 -60.708740 0.000000 170.000000 0.523920 0.843207 -0.120458
-5370.00000000 -10940.00000000 -870.00000000 27 80 202 0.000000 0.000000 0.000000 0.000000 -60.708740 0.000000 170.000000 0.711215 0.589667 0.382709
-5360.00000000 -10940.00000000 -910.00000000 27 80 202 0.000000 0.000000 0.000000 0.000000 -60.708740 0.000000 170.000000 0.737762 0.624017 0.257506
-5390.00000000 -10960.00000000 -880.00000000 27 80 202 0.000000 0.000000 0.000000 0.000000 -60.708740 0.000000 170.000000 0.792638 0.598522 0.116175
-5350.00000000 -10940.00000000 -960.00000000 27 80 202 0.000000 0.000000 0.000000 0.000000 -60.708740 0.000000 170.000000 0.456522 0.880129 -0.130231
-5320.00000000 -10910.00000000 -970.00000000 27 80 202 0.000000 0.000000 0.000000 0.000000 -60.708740 0.000000 170.000000 0.396294 0.721880 0.567309
-5230.00000000 -11010.00000000 -720.00000000 27 80 202 0.000000 0.000000 0.000000 0.000000 -60.708740 0.000000 170.000000 0.137348 0.978760 -0.152197
-5230.00000000 -11010.00000000 -720.00000000 27 80 202 0.000000 0.000000 0.000000 0.000000 -60.708740 0.000000 170.000000 0.137348 0.978760 -0.152197
-5240.00000000 -11010.00000000 -730.00000000 27 80 202 0.000000 0.000000 0.000000 0.000000 -60.708740 0.000000 170.000000 0.462553 0.886225 -0.025474
-5300.00000000 -11000.00000000 -710.00000000 27 80 202 0.000000 0.000000 0.000000 0.000000 -60.708740 0.000000 170.000000 0.389345 0.889720 -0.238344
-5290.00000000 -11010.00000000 -830.00000000 27 80 202 0.000000 0.000000 0.000000 0.000000 -60.708740 0.000000 170.000000 0.245420 0.956477 -0.157865
-5330.00000000 -11000.00000000 -760.00000000 27 80 202 0.000000 0.000000 0.000000 0.000000 -60.708740 0.000000 170.000000 0.801669 0.581545 -0.138321
-5370.00000000 -11000.00000000 -850.00000000 27 80 202 0.000000 0.000000 0.000000 0.000000 -60.708740 0.000000 170.000000 0.689957 0.723546 -0.020993
-5370.00000000 -11000.00000000 -840.00000000 27 80 202 0.000000 0.000000 0.000000 0.000000 -60.708740 0.000000 170.000000 0.648985 0.743217 -0.162626
-5380.00000000 -11000.00000000 -860.00000000 27 80 202 0.000000 0.000000 0.000000 0.000000 -60.708740 0.000000 170.000000 0.769719 0.634479 -0.070498
-5390.00000000 -11040.00000000 -840.00000000 27 80 202 0.000000 0.000000 0.000000 0.000000 -60.708740 0.000000 170.000000 0.843732 0.529653 -0.087086
-5320.00000000 -11020.00000000 -890.00000000 27 80 202 0.000000 0.000000 0.000000 0.000000 -60.708740 0.000000 170.000000 0.528598 0.840224 -0.120864
-5370.00000000 -11010.00000000 -870.00000000 27 80 202 0.000000 0.000000 0.000000 0.000000 -60.708740 0.000000 170.000000 0.786602 0.580330 0.210889
-5380.00000000 -11020.00000000 -930.00000000 27 80 202 0.000000 0.000000 0.000000 0.000000 -60.708740 0.000000 170.000000 0.746591 0.650450 0.139704
-5060.00000000 -10870.00000000 -1040.00000000 27 80 202 0.000000 0.000000 0.000000 0.000000 -60.708740 0.000000 170.000000 0.925595 -0.223223 -0.305688
-5430.00000000 -10980.00000000 -820.00000000 27 80 202 0.000000 0.000000 0.000000 0.000000 -60.708740 0.000000 170.000000 0.910149 0.381950 -0.160447
-5520.00000000 -10960.00000000 -760.00000000 27 80 202 0.000000 0.000000 0.000000 0.000000 -60.708740 0.000000 170.000000 0.880632 0.328911 0.341036
-5420.00000000 -10940.00000000 -870.00000000 27 80 202 0.000000 0.000000 0.000000 0.000000 -60.708740 0.000000 170.000000 0.860343 0.483851 0.160303
-5460.00000000 -10910.00000000 -890.00000000 27 80 202 0.000000 0.000000 0.000000 0.000000 -60.708740 0.000000 170.000000 0.991534 0.114977 0.060334
-5440.00000000 -11010.00000000 -730.00000000 27 80 202 0.000000 0.000000 0.000000 0.000000 -60.708740 0.000000 170.000000 0.584701 0.740189 -0.332032
-5430.00000000 -11000.00000000 -780.00000000 27 80 202 0.000000 0.000000 0.000000 0.000000 -60.708740 0.000000 170.000000 0.850112 0.526389 -0.014962
-5430.00000000 -11000.00000000 -790.00000000 27 80 202 0.000000 0.000000 0.000000 0.000000 -60.708740 0.000000 170.000000 0.881789 0.471093 -0.022816
-5430.00000000 -11000.00000000 -800.00000000 27 80 202 0.000000 0.000000 0.000000 0.000000 -60.708740 0.000000 170.000000 0.893342 0.379486 0.240686
-5430.00000000 -11010.00000000 -800.00000000 27 80 202 0.000000 0.000000 0.000000 0.000000 -60.708740 0.000000 170.000000 0.905034 0.381294 -0.188489
-5430.00000000 -11000.00000000 -780.00000000 27 80 202 0.000000 0.000000 0.000000 0.000000 -60.708740 0.000000 170.000000 0.850112 0.526389 -0.014962
-5440.00000000 -10990.00000000 -790.00000000 27 80 202 0.000000 0.000000 0.000000 0.000000 -60.708740 0.000000 170.000000 0.844574 0.533926 0.040218
-5500.00000000 -11020.00000000 -760.00000000 27 80 202 0.000000 0.000000 0.000000 0.000000 -60.708740 0.000000 170.000000 0.958801 0.206122 0.195484
-5500.00000000 -11040.00000000 -750.00000000 27 80 202 0.000000 0.000000 0.000000 0.000000 -60.708740 0.000000 170.000000 0.641100 0.714642 0.279782
-5220.00000000 -11180.00000000 -140.00000000 27 80 202 0.000000 0.000000 0.000000 0.000000 -60.708740 0.000000 170.000000 0.937430 0.342195 -0.064243
-5190.00000000 -11160.00000000 -210.00000000 27 80 202 0.000000 0.000000 0.000000 0.000000 -60.708740 0.000000 170.000000 0.838660 0.506218 0.200976
-5260.00000000 -11160.00000000 -50.00000000 27 80 202 0.000000 0.000000 0.000000 0.000000 -60.708740 0.000000 170.000000 0.912960 0.401703 -0.071684
-5260.00000000 -11160.00000000 -20.00000000 27 80 202 0.000000 0.000000 0.000000 0.000000 -60.708740 0.000000 170.000000 0.948550 0.240880 -0.205497
-5260.00000000 -11160.00000000 -50.00000000 27 80 202 0.000000 0.000000 0.000000 0.000000 -60.708740 0.000000 170.000000 0.912960 0.401703 -0.071684
-5270.00000000 -11200.00000000 -70.00000000 27 80 202 0.000000 0.000000 0.000000 0.000000 -60.708740 0.000000 170.000000 0.778447 0.574829 -0.252173
-5280.00000000 -11180.00000000 -50.00000000 27 80 202 0.000000 0.000000 0.000000 0.000000 -60.708740 0.000000 170.000000 0.979950 0.188776 -0.063727
-5280.00000000 -11180.00000000 -50.00000000 27 80 202 0.000000 0.000000 0.000000 0.000000 -60.708740 0.000000 170.000000 0.979950 0.188776 -0.063727
-5280.00000000 -11180.00000000 -100.00000000 27 80 202 0.000000 0.000000 0.000000 0.000000 -60.708740 0.000000 170.000000 0.951325 0.301702 -0.062908
-5310.00000000 -11210.00000000 -70.00000000 27 80 202 0.000000 0.000000 0.000000 0.000000 -60.708740 0.000000 170.000000 0.883684 0.449694 -0.129912
-5310.00000000 -11200.00000000 -70.00000000 27 80 202 0.000000 0.000000 0.000000 0.000000 -60.708740 0.000000 170.000000 0.680647 0.607780 -0.409051
-5280.00000000 -11180.00000000 -110.00000000 27 80 202 0.000000 0.000000 0.000000 0.000000 -60.708740 0.000000 170.000000 0.893708 0.366079 -0.259368
-5300.00000000 -11210.00000000 -120.00000000 27 80 202 0.000000 0.000000 0.000000 0.000000 -60.708740 0.000000 170.000000 0.737082 0.602192 -0.306716
-5320.00000000 -11160.00000000 -70.00000000 27 80 202 0.000000 0.000000 0.000000 0.000000 -60.708740 0.000000 170.000000 0.827836 0.457116 -0.325165
-5330.00000000 -11180.00000000 -120.00000000 27 80 202 0.000000 0.000000 0.000000 0.000000 -60.708740 0.000000 170.000000 0.825143 0.507424 -0.248314
-5330.00000000 -11180.00000000 -120.00000000 27 80 202 0.000000 0.000000 0.000000 0.000000 -60.708740 0.000000 170.000000 0.825143 0.507424 -0.248314
-5390.00000000 -11260.00000000 -40.00000000 27 80 202 0.000000 0.000000 0.000000 0.000000 -60.708740 0.000000 170.000000 0.764788 0.626010 -0.152354
-5380.00000000 -11280.00000000 -30.00000000 27 80 202 0.000000 0.000000 0.000000 0.000000 -60.708740 0.000000 170.000000 0.959876 0.276575 -0.046304
-5390.00000000 -11300.00000000 -70.00000000 27 80 202 0.000000 0.000000 0.000000 0.000000 -60.708740 0.000000 170.000000 0.713471 0.692791 -0.104879
-5030.00000000 -11060.00000000 630.00000000 27 80 202 0.000000 0.000000 0.000000 0.000000 -60.708740 0.000000 170.000000 -0.070684 0.882855 0.464296
-5030.00000000 -11080.00000000 550.00000000 27 80 202 0.000000 0.000000 0.000000 0.000000 -60.708740 0.000000 170.000000 -0.237266 0.705512 0.667801
-5040.00000000 -11150.00000000 520.00000000 27 80 202 0.000000 0.000000 0.000000 0.000000 -60.708740 0.000000 170.000000 0.890715 -0.446052 -0.087543
-5030.00000000 -11000.00000000 360.00000000 27 80 202 0.000000 0.000000 0.000000 0.000000 -60.708740 0.000000 170.000000 0.049605 0.988638 0.141893
-5040.00000000 -11050.00000000 370.00000000 27 80 202 0.000000 0.000000 0.000000 0.000000 -60.708740 0.000000 170.000000 -0.145573 0.952233 0.268442
-5030.00000000 -11050.00000000 360.00000000 27 80 202 0.000000 0.000000 0.000000 0.000000 -60.708740 0.000000 170.000000 -0.067662 0.973103 0.220209
-5030.00000000 -11110.00000000 410.00000000 27 80 202 0.000000 0.000000 0.000000 0.000000 -60.708740 0.000000 170.000000 0.352435 -0.751969 -0.557074
-5050.00000000 -10930.00000000 70.00000000 27 80 202 0.000000 0.000000 0.000000 0.000000 -60.708740 0.000000 170.000000 0.096782 0.958791 0.267119
-4940.00000000 -11150.00000000 310.00000000 27 80 202 0.000000 0.000000 0.000000 0.000000 -60.708740 0.000000 170.000000 0.759515 0.649195 -0.041017
-5050.00000000 -11030.00000000 280.00000000 27 80 202 0.000000 0.000000 0.000000 0.000000 -60.708740 0.000000 170.000000 -0.123190 0.893482 0.431873
-4990.00000000 -11140.00000000 260.00000000 27 80 202 0.000000 0.000000 0.000000 0.000000 -60.708740 0.000000 170.000000 -0.241234 0.789070 0.564955
-5040.00000000 -11130.00000000 310.00000000 27 80 202 0.000000 0.000000 0.000000 0.000000 -60.708740 0.000000 170.000000 0.765758 -0.280619 -0.578678
-4990.00000000 -11110.00000000 160.00000000 27 80 202 0.000000 0.000000 0.000000 0.000000 -60.708740 0.000000 170.000000 0.599201 0.799405 -0.043706
-5020.00000000 -11090.00000000 190.00000000 27 80 202 0.000000 0.000000 0.000000 0.000000 -60.708740 0.000000 170.000000 -0.269874 0.812743 0.516349
-5050.00000000 -11120.00000000 190.00000000 27 80 202 0.000000 0.000000 0.000000 0.000000 -60.708740 0.000000 170.000000 0.924753 -0.373381 -0.073606
-4950.00000000 -11120.00000000 90.00000000 27 80 202 0.000000 0.000000 0.000000 0.000000 -60.708740 0.000000 170.000000 0.978614 -0.155040 -0.135195
-4970.00000000 -11080.00000000 40.00000000 27 80 202 0.000000 0.000000 0.000000 0.000000 -60.708740 0.000000 170.000000 0.931229 0.129907 -0.340494
-5040.00000000 -11020.00000000 120.00000000 27 80 202 0.000000 0.000000 0.000000 0.000000 -60.708740 0.000000 170.000000 0.050784 0.936240 0.347672
-5050.00000000 -11030.00000000 90.00000000 27 80 202 0.000000 0.000000 0.000000 0.000000 -60.708740 0.000000 170.000000 -0.164376 0.966842 0.195439
-5040.00000000 -11060.00000000 80.00000000 27 80 202 0.000000 0.000000 0.000000 0.000000 -60.708740 0.000000 170.000000 -0.062569 0.869012 0.490818
-4980.00000000 -11040.00000000 40.00000000 27 80 202 0.000000 0.000000 0.000000 0.000000 -60.708740 0.000000 170.000000 0.573206 0.777362 0.259121
-5000.00000000 -11050.00000000 -10.00000000 27 80 202 0.000000 0.000000 0.000000 0.000000 -60.708740 0.000000 170.000000 0.549724 0.779173 -0.301153
-5050.00000000 -11000.00000000 30.00000000 27 80 202 0.000000 0.000000 0.000000 0.000000 -60.708740 0.000000 170.000000 -0.081337 0.979684 0.183311
-5030.00000000 -11030.00000000 60.00000000 27 80 202 0.000000 0.000000 0.000000 0.000000 -60.708740 0.000000 170.000000 -0.093634 0.995536 0.011839
-5030.00000000 -11060.00000000 30.00000000 27 80 202 0.000000 0.000000 0.000000 0.000000 -60.708740 0.000000 170.000000 -0.170123 0.985343 -0.012559
-5050.00000000 -11060.00000000 20.00000000 27 80 202 0.000000 0.000000 0.000000 0.000000 -60.708740 0.000000 170.000000 -0.531329 0.581932 0.615667
-5040.00000000 -11080.00000000 140.00000000 27 80 202 0.000000 0.000000 0.000000 0.000000 -60.708740 0.000000 170.000000 0.651947 -0.438522 -0.618599
-5040.00000000 -11170.00000000 500.00000000 27 80 202 0.000000 0.000000 0.000000 0.000000 -60.708740 0.000000 170.000000 0.898727 -0.376791 -0.224315
-5050.00000000 -11160.00000000 490.00000000 27 80 202 0.000000 0.000000 0.000000 0.000000 -60.708740 0.000000 170.000000 0.834952 -0.234399 -0.497907
-4960.00000000 -11160.00000000 330.00000000 27 80 202 0.000000 0.000000 0.000000 0.000000 -60.708740 0.000000 170.000000 -0.070262 0.888606 0.453258
-5110.00000000 -10710.00000000 70.00000000 27 80 202 0.000000 0.000000 0.000000 0.000000 -60.708740 0.000000 170.000000 -0.169346 0.825751 0.538012
-5140.00000000 -10690.00000000 80.00000000 27 80 202 0.000000 0.000000 0.000000 0.000000 -60.708740 0.000000 170.000000 0.042997 0.931607 0.360916
-5090.00000000 -10680.00000000 -10.00000000 27 80 202 0.000000 0.000000 0.000000 0.000000 -60.708740 0.000000 170.000000 -0.290910 0.955847 0.041559
-5140.00000000 -10680.00000000 20.00000000 27 80 202 0.000000 0.000000 0.000000 0.000000 -60.708740 0.000000 170.000000 -0.255488 0.885992 0.386968
-5130.00000000 -10670.00000000 10.00000000 27 80 202 0.000000 0.000000 0.000000 0.000000 -60.708740 0.000000 170.000000 -0.231601 0.968169 0.094919
-5130.00000000 -10680.00000000 10.00000000 27 80 202 0.000000 0.000000 0.000000 0.000000 -60.708740 0.000000 170.000000 -0.100667 0.975599 0.195120
-5130.00000000 -10660.00000000 -10.00000000 27 80 202 0.000000 0.000000 0.000000 0.000000 -60.708740 0.000000 170.000000 -0.084482 0.826201 0.557005
-5160.00000000 -10710.00000000 120.00000000 27 80 202 0.000000 0.000000 0.000000 0.000000 -60.708740 0.000000 170.000000 -0.040975 0.767229 0.640064
-5160.00000000 -10700.00000000 90.00000000 27 80 202 0.000000 0.000000 0.000000 0.000000 -60.708740 0.000000 170.000000 -0.011951 0.994127 0.107561
-5170.00000000 -10680.00000000 10.00000000 27 80 202 0.000000 0.000000 0.000000 0.000000 -60.708740 0.000000 170.000000 0.119031 0.870501 0.477556
-5170.00000000 -10720.00000000 -10.00000000 27 80 202 0.000000 0.000000 0.000000 0.000000 -60.708740 0.000000 170.000000 -0.346205 0.935939 0.064502
-5190.00000000 -10670.00000000 0.00000000 27 80 202 0.000000 0.000000 0.000000 0.000000 -60.708740 0.000000 170.000000 -0.023849 0.747738 0.663565
-5230.00000000 -10730.00000000 -10.00000000 27 80 202 0.000000 0.000000 0.000000 0.000000 -60.708740 0.000000 170.000000 -0.283050 0.907813 0.309448
-5300.00000000 -10760.00000000 0.00000000 27 80 202 0.000000 0.000000 0.000000 0.000000 -60.708740 0.000000 170.000000 -0.431630 0.729306 0.530856
-5080.00000000 -11050.00000000 570.00000000 27 80 202 0.000000 0.000000 0.000000 0.000000 -60.708740 0.000000 170.000000 -0.742716 0.559893 0.367277
-5070.00000000 -11050.00000000 600.00000000 27 80 202 0.000000 0.000000 0.000000 0.000000 -60.708740 0.000000 170.000000 -0.534897 0.585518 0.609142
-5080.00000000 -11060.00000000 580.00000000 27 80 202 0.000000 0.000000 0.000000 0.000000 -60.708740 0.000000 170.000000 0.845153 -0.506498 -0.170813
-5090.00000000 -11060.00000000 490.00000000 27 80 202 0.000000 0.000000 0.000000 0.000000 -60.708740 0.000000 170.000000 -0.504305 0.688603 0.521059
-5090.00000000 -11090.00000000 580.00000000 27 80 202 0.000000 0.000000 0.000000 0.000000 -60.708740 0.000000 170.000000 0.830494 -0.482773 -0.277866
-5070.00000000 -11120.00000000 570.00000000 27 80 202 0.000000 0.000000 0.000000 0.000000 -60.708740 0.000000 170.000000 0.598704 -0.622315 -0.504260
-5140.00000000 -11130.00000000 610.00000000 27 80 202 0.000000 0.000000 0.000000 0.000000 -60.708740 0.000000 170.000000 0.743267 -0.585262 -0.324071
-5140.00000000 -11140.00000000 580.00000000 27 80 202 0.000000 0.000000 0.000000 0.000000 -60.708740 0.000000 170.000000 0.968623 -0.158221 -0.191666
-5140.00000000 -11140.00000000 570.00000000 27 80 202 0.000000 0.000000 0.000000 0.000000 -60.708740 0.000000 170.000000 0.920717 -0.390178 -0.006439
-5130.00000000 -11090.00000000 510.00000000 27 80 202 0.000000 0.000000 0.000000 0.000000 -60.708740 0.000000 170.000000 0.924361 -0.349947 -0.151969
-5120.00000000 -11120.00000000 540.00000000 27 80 202 0.000000 0.000000 0.000000 0.000000 -60.708740 0.000000 170.000000 0.860786 -0.508951 -0.004029
-5120.00000000 -11110.00000000 530.00000000 27 80 202 0.000000 0.000000 0.000000 0.000000 -60.708740 0.000000 170.000000 0.889453 -0.343482 -0.301484
-5120.00000000 -11120.00000000 530.00000000 27 80 202 0.000000 0.000000 0.000000 0.000000 -60.708740 0.000000 170.000000 0.795159 -0.223880 -0.563560
-5140.00000000 -11140.00000000 530.00000000 27 80 202 0.000000 0.000000 0.000000 0.000000 -60.708740 0.000000 170.000000 0.788662 -0.530554 -0.310685
-5140.00000000 -11120.00000000 490.00000000 27 80 202 0.000000 0.000000 0.000000 0.000000 -60.708740 0.000000 170.000000 0.910424 -0.365603 -0.193555
-5140.00000000 -11150.00000000 520.00000000 27 80 202 0.000000 0.000000 0.000000 0.000000 -60.708740 0.000000 170.000000 0.954763 -0.065185 -0.290135
-5140.00000000 -11110.00000000 510.00000000 27 80 202 0.000000 0.000000 0.000000 0.000000 -60.708740 0.000000 170.000000 0.877154 -0.427408 -0.218916
-5090.00000000 -11060.00000000 480.00000000 27 80 202 0.000000 0.000000 0.000000 0.000000 -60.708740 0.000000 170.000000 0.592765 -0.452505 -0.666235
-5060.00000000 -11050.00000000 340.00000000 27 80 202 0.000000 0.000000 0.000000 0.000000 -60.708740 0.000000 170.000000 0.566031 -0.582927 -0.582927
-5060.00000000 -11150.00000000 450.00000000 27 80 202 0.000000 0.000000 0.000000 0.000000 -60.708740 0.000000 170.000000 0.941324 -0.336641 0.024137
-5110.00000000 -11080.00000000 430.00000000 27 80 202 0.000000 0.000000 0.000000 0.000000 -60.708740 0.000000 170.000000 -0.456717 0.634050 0.624012
-5120.00000000 -11070.00000000 410.00000000 27 80 202 0.000000 0.000000 0.000000 0.000000 -60.708740 0.000000 170.000000 0.758748 -0.450660 -0.470326
-5130.00000000 -11100.00000000 440.00000000 27 80 202 0.000000 0.000000 0.000000 0.000000 -60.708740 0.000000 170.000000 0.839551 -0.426811 -0.336133
-5120.00000000 -11070.00000000 410.00000000 27 80 202 0.000000 0.000000 0.000000 0.000000 -60.708740 0.000000 170.000000 0.758748 -0.450660 -0.470326
-5060.00000000 -11130.00000000 380.00000000 27 80 202 0.000000 0.000000 0.000000 0.000000 -60.708740 0.000000 170.000000 -0.510160 0.687461 0.516850
-5070.00000000 -11140.00000000 320.00000000 27 80 202 0.000000 0.000000 0.000000 0.000000 -60.708740 0.000000 170.000000 0.696713 -0.269438 -0.664827
-5080.00000000 -11150.00000000 320.00000000 27 80 202 0.000000 0.000000 0.000000 0.000000 -60.708740 0.000000 170.000000 0.819240 -0.570214 -0.060842
-5120.00000000 -11070.00000000 360.00000000 27 80 202 0.000000 0.000000 0.000000 0.000000 -60.708740 0.000000 170.000000 0.846870 -0.529816 0.045890
-5130.00000000 -11090.00000000 370.00000000 27 80 202 0.000000 0.000000 0.000000 0.000000 -60.708740 0.000000 170.000000 -0.520687 0.652123 0.551018
-5120.00000000 -11080.00000000 370.00000000 27 80 202 0.000000 0.000000 0.000000 0.000000 -60.708740 0.000000 170.000000 0.917300 -0.213226 -0.336296
-5110.00000000 -11070.00000000 380.00000000 27 80 202 0.000000 0.000000 0.000000 0.000000 -60.708740 0.000000 170.000000 0.751533 -0.370061 -0.546125
-5110.00000000 -11070.00000000 380.00000000 27 80 202 0.000000 0.000000 0.000000 0.000000 -60.708740 0.000000 170.000000 0.751533 -0.370061 -0.546125
-5130.00000000 -11070.00000000 390.00000000 27 80 202 0.000000 0.000000 0.000000 0.000000 -60.708740 0.000000 170.000000 0.909074 -0.279602 -0.308880
-5160.00000000 -11100.00000000 410.00000000 27 80 202 0.000000 0.000000 0.000000 0.000000 -60.708740 0.000000 170.000000 0.875906 -0.480863 -0.039504
-5150.00000000 -11100.00000000 410.00000000 27 80 202 0.000000 0.000000 0.000000 0.000000 -60.708740 0.000000 170.000000 0.649084 -0.547928 -0.527697
-5160.00000000 -11090.00000000 410.00000000 27 80 202 0.000000 0.000000 0.000000 0.000000 -60.708740 0.000000 170.000000 0.883693 -0.467837 0.014662
-5170.00000000 -11130.00000000 460.00000000 27 80 202 0.000000 0.000000 0.000000 0.000000 -60.708740 0.000000 170.000000 -0.633255 0.558953 0.535312
-5180.00000000 -11140.00000000 450.00000000 27 80 202 0.000000 0.000000 0.000000 0.000000 -60.708740 0.000000 170.000000 -0.678165 0.431559 0.594852
-5170.00000000 -11150.00000000 480.00000000 27 80 202 0.000000 0.000000 0.000000 0.000000 -60.708740 0.000000 170.000000 0.913832 -0.309453 -0.262963
-5170.00000000 -11150.00000000 460.00000000 27 80 202 0.000000 0.000000 0.000000 0.000000 -60.708740 0.000000 170.000000 0.960768 -0.051492 -0.272532
-5160.00000000 -11150.00000000 460.00000000 27 80 202 0.000000 0.000000 0.000000 0.000000 -60.708740 0.000000 170.000000 0.991423 -0.014433 -0.129895
-5170.00000000 -11120.00000000 450.00000000 27 80 202 0.000000 0.000000 0.000000 0.000000 -60.708740 0.000000 170.000000 0.777654 -0.577373 -0.248787
-5160.00000000 -11150.00000000 410.00000000 27 80 202 0.000000 0.000000 0.000000 0.000000 -60.708740 0.000000 170.000000 0.893267 -0.447309 -0.044596
-5170.00000000 -11110.00000000 420.00000000 27 80 202 0.000000 0.000000 0.000000 0.000000 -60.708740 0.000000 170.000000 0.728518 -0.421252 -0.540193
-5160.00000000 -11120.00000000 440.00000000 27 80 202 0.000000 0.000000 0.000000 0.000000 -60.708740 0.000000 170.000000 0.873719 -0.440568 -0.206192
-5150.00000000 -11070.00000000 390.00000000 27 80 202 0.000000 0.000000 0.000000 0.000000 -60.708740 0.000000 170.000000 0.781465 -0.583391 -0.221286
-5150.00000000 -11080.00000000 390.00000000 27 80 202 0.000000 0.000000 0.000000 0.000000 -60.708740 0.000000 170.000000 0.747826 -0.590895 -0.302653
-5150.00000000 -11090.00000000 360.00000000 27 80 202 0.000000 0.000000 0.000000 0.000000 -60.708740 0.000000 170.000000 0.793785 -0.425184 -0.434884
-5150.00000000 -11070.00000000 390.00000000 27 80 202 0.000000 0.000000 0.000000 0.000000 -60.708740 0.000000 170.000000 0.781465 -0.583391 -0.221286
-5170.00000000 -11090.00000000 380.00000000 27 80 202 0.000000 0.000000 0.000000 0.000000 -60.708740 0.000000 170.000000 0.809633 -0.144100 -0.568972
-5170.00000000 -11090.00000000 370.00000000 27 80 202 0.000000 0.000000 0.000000 0.000000 -60.708740 0.000000 170.000000 0.932915 -0.141517 -0.331123
-5160.00000000 -11100.00000000 330.00000000 27 80 202 0.000000 0.000000 0.000000 0.000000 -60.708740 0.000000 170.000000 0.795638 -0.581253 -0.170602
-5180.00000000 -11080.00000000 340.00000000 27 80 202 0.000000 0.000000 0.000000 0.000000 -60.708740 0.000000 170.000000 0.674957 -0.551019 -0.490725
-5150.00000000 -11090.00000000 330.00000000 27 80 202 0.000000 0.000000 0.000000 0.000000 -60.708740 0.000000 170.000000 0.616968 -0.443080 -0.650408
-5150.00000000 -11080.00000000 320.00000000 27 80 202 0.000000 0.000000 0.000000 0.000000 -60.708740 0.000000 170.000000 0.814628 -0.579506 0.023512
-5150.00000000 -11090.00000000 330.00000000 27 80 202 0.000000 0.000000 0.000000 0.000000 -60.708740 0.000000 170.000000 0.616968 -0.443080 -0.650408
-5180.00000000 -11150.00000000 390.00000000 27 80 202 0.000000 0.000000 0.000000 0.000000 -60.708740 0.000000 170.000000 0.876583 -0.480707 0.022891
-5180.00000000 -11130.00000000 360.00000000 27 80 202 0.000000 0.000000 0.000000 0.000000 -60.708740 0.000000 170.000000 0.904712 -0.408172 -0.122031
-5160.00000000 -11140.00000000 390.00000000 27 80 202 0.000000 0.000000 0.000000 0.000000 -60.708740 0.000000 170.000000 0.978374 0.104606 -0.178445
-5180.00000000 -11120.00000000 390.00000000 27 80 202 0.000000 0.000000 0.000000 0.000000 -60.708740 0.000000 170.000000 0.968011 -0.235394 0.086857
-5170.00000000 -11110.00000000 380.00000000 27 80 202 0.000000 0.000000 0.000000 0.000000 -60.708740 0.000000 170.000000 0.875347 -0.263659 -0.405281
-5160.00000000 -11140.00000000 390.00000000 27 80 202 0.000000 0.000000 0.000000 0.000000 -60.708740 0.000000 170.000000 0.978374 0.104606 -0.178445
-5170.00000000 -11110.00000000 390.00000000 27 80 202 0.000000 0.000000 0.000000 0.000000 -60.708740 0.000000 170.000000 0.995081 -0.089260 -0.042977
-5160.00000000 -11140.00000000 390.00000000 27 80 202 0.000000 0.000000 0.000000 0.000000 -60.708740 0.000000 170.000000 0.978374 0.104606 -0.178445
-5170.00000000 -11110.00000000 370.00000000 27 80 202 0.000000 0.000000 0.000000 0.000000 -60.708740 0.000000 170.000000 0.949684 0.095888 -0.298172
-5160.00000000 -11150.00000000 340.00000000 27 80 202 0.000000 0.000000 0.000000 0.000000 -60.708740 0.000000 170.000000 0.964296 0.240111 -0.111709
-5150.00000000 -11130.00000000 350.00000000 27 80 202 0.000000 0.000000 0.000000 0.000000 -60.708740 0.000000 170.000000 0.862710 -0.477650 -0.166075
-5160.00000000 -11150.00000000 340.00000000 27 80 202 0.000000 0.000000 0.000000 0.000000 -60.708740 0.000000 170.000000 0.964296 0.240111 -0.111709
-5190.00000000 -11090.00000000 330.00000000 27 80 202 0.000000 0.000000 0.000000 0.000000 -60.708740 0.000000 170.000000 0.980927 -0.194345 0.003450
-5190.00000000 -11080.00000000 330.00000000 27 80 202 0.000000 0.000000 0.000000 0.000000 -60.708740 0.000000 170.000000 0.964990 -0.181507 -0.189342
-5090.00000000 -10970.00000000 170.00000000 27 80 202 0.000000 0.000000 0.000000 0.000000 -60.708740 0.000000 170.000000 0.561614 -0.625702 -0.541375
-5060.00000000 -10950.00000000 140.00000000 27 80 202 0.000000 0.000000 0.000000 0.000000 -60.708740 0.000000 170.000000 -0.113961 0.738525 0.664525
-5070.00000000 -10930.00000000 110.00000000 27 80 202 0.000000 0.000000 0.000000 0.000000 -60.708740 0.000000 170.000000 0.514867 -0.672513 -0.531637
-5100.00000000 -10960.00000000 20.00000000 27 80 202 0.000000 0.000000 0.000000 0.000000 -60.708740 0.000000 170.000000 -0.095738 0.929058 0.357330
-5100.00000000 -10960.00000000 20.00000000 27 80 202 0.000000 0.000000 0.000000 0.000000 -60.708740 0.000000 170.000000 -0.095738 0.929058 0.357330
-5140.00000000 -11060.00000000 270.00000000 27 80 202 0.000000 0.000000 0.000000 0.000000 -60.708740 0.000000 170.000000 0.731335 -0.567725 -0.377938
-5140.00000000 -11050.00000000 270.00000000 27 80 202 0.000000 0.000000 0.000000 0.000000 -60.708740 0.000000 170.000000 -0.843950 0.396140 0.361693
-5060.00000000 -11000.00000000 200.00000000 27 80 202 0.000000 0.000000 0.000000 0.000000 -60.708740 0.000000 170.000000 -0.553515 0.661190 0.506408
-5060.00000000 -11030.00000000 160.00000000 27 80 202 0.000000 0.000000 0.000000 0.000000 -60.708740 0.000000 170.000000 0.629964 -0.565786 -0.532007
-5090.00000000 -11030.00000000 160.00000000 27 80 202 0.000000 0.000000 0.000000 0.000000 -60.708740 0.000000 170.000000 0.853379 -0.380834 -0.355963
