//X Y Z R G B PointSourceId ScanDirectionFlag NumberOfReturns ReturnNumber GpsTime Intensity Classification Nx Ny Nz
-9690.00000000 14950.00000000 -1400.00000000 58 249 102 0.000000 0.000000 0.000000 0.000000 -60.708740 0.000000 55.000000 0.761919 0.633186 0.136217
-9660.00000000 14930.00000000 -1370.00000000 58 249 102 0.000000 0.000000 0.000000 0.000000 -60.708740 0.000000 55.000000 0.460345 0.886741 -0.042096
-9660.00000000 14920.00000000 -1400.00000000 58 249 102 0.000000 0.000000 0.000000 0.000000 -60.708740 0.000000 55.000000 0.584522 0.809879 -0.049297
-9690.00000000 14950.00000000 -1400.00000000 58 249 102 0.000000 0.000000 0.000000 0.000000 -60.708740 0.000000 55.000000 0.761919 0.633186 0.136217
-9690.00000000 14950.00000000 -1390.00000000 58 249 102 0.000000 0.000000 0.000000 0.000000 -60.708740 0.000000 55.000000 0.768711 0.621287 0.151937
-9690.00000000 14940.00000000 -1380.00000000 58 249 102 0.000000 0.000000 0.000000 0.000000 -60.708740 0.000000 55.000000 0.850504 0.470136 0.235829
-9680.00000000 14930.00000000 -1380.00000000 58 249 102 0.000000 0.000000 0.000000 0.000000 -60.708740 0.000000 55.000000 0.720688 0.685317 0.104640
-9660.00000000 14950.00000000 -1390.00000000 58 249 102 0.000000 0.000000 0.000000 0.000000 -60.708740 0.000000 55.000000 0.420762 0.906564 0.033183
-9680.00000000 14940.00000000 -1400.00000000 58 249 102 0.000000 0.000000 0.000000 0.000000 -60.708740 0.000000 55.000000 0.787628 0.605075 0.116304
-9660.00000000 14920.00000000 -1390.00000000 58 249 102 0.000000 0.000000 0.000000 0.000000 -60.708740 0.000000 55.000000 0.590189 0.738949 -0.325008
-9670.00000000 14940.00000000 -1390.00000000 58 249 102 0.000000 0.000000 0.000000 0.000000 -60.708740 0.000000 55.000000 0.432182 0.801705 0.412902
-9680.00000000 14940.00000000 -1370.00000000 58 249 102 0.000000 0.000000 0.000000 0.000000 -60.708740 0.000000 55.000000 0.765451 0.603977 -0.222027
-9670.00000000 14940.00000000 -1450.00000000 58 249 102 0.000000 0.000000 0.000000 0.000000 -60.708740 0.000000 55.000000 0.874319 0.437902 0.209302
-9670.00000000 14920.00000000 -1410.00000000 58 249 102 0.000000 0.000000 0.000000 0.000000 -60.708740 0.000000 55.000000 0.826006 0.530033 -0.191778
-9660.00000000 14930.00000000 -1450.00000000 58 249 102 0.000000 0.000000 0.000000 0.000000 -60.708740 0.000000 55.000000 0.867554 0.475193 0.146772
-9680.00000000 14940.00000000 -1420.00000000 58 249 102 0.000000 0.000000 0.000000 0.000000 -60.708740 0.000000 55.000000 0.889027 0.432306 0.150804
-9690.00000000 14950.00000000 -1420.00000000 58 249 102 0.000000 0.000000 0.000000 0.000000 -60.708740 0.000000 55.000000 0.809293 0.475400 0.345023
-9670.00000000 14920.00000000 -1410.00000000 58 249 102 0.000000 0.000000 0.000000 0.000000 -60.708740 0.000000 55.000000 0.826006 0.530033 -0.191778
-9650.00000000 14910.00000000 -1390.00000000 58 249 102 0.000000 0.000000 0.000000 0.000000 -60.708740 0.000000 55.000000 0.552628 0.813044 -0.183200
-9680.00000000 14910.00000000 -1380.00000000 58 249 102 0.000000 0.000000 0.000000 0.000000 -60.708740 0.000000 55.000000 0.700649 0.709352 -0.076883
-9650.00000000 14900.00000000 -1400.00000000 58 249 102 0.000000 0.000000 0.000000 0.000000 -60.708740 0.000000 55.000000 0.594441 0.750622 -0.288455
-9670.00000000 14910.00000000 -1400.00000000 58 249 102 0.000000 0.000000 0.000000 0.000000 -60.708740 0.000000 55.000000 0.538621 0.830804 0.140189
-9630.00000000 14890.00000000 -1470.00000000 58 249 102 0.000000 0.000000 0.000000 0.000000 -60.708740 0.000000 55.000000 0.577415 0.814592 -0.055059
-9640.00000000 14890.00000000 -1470.00000000 58 249 102 0.000000 0.000000 0.000000 0.000000 -60.708740 0.000000 55.000000 0.597313 0.800653 -0.046599
-9620.00000000 14880.00000000 -1470.00000000 58 249 102 0.000000 0.000000 0.000000 0.000000 -60.708740 0.000000 55.000000 0.642294 0.751106 -0.152639
-9630.00000000 14890.00000000 -1470.00000000 58 249 102 0.000000 0.000000 0.000000 0.000000 -60.708740 0.000000 55.000000 0.577415 0.814592 -0.055059
-9640.00000000 14900.00000000 -1500.00000000 58 249 102 0.000000 0.000000 0.000000 0.000000 -60.708740 0.000000 55.000000 0.840464 0.530895 -0.108494
-9650.00000000 14920.00000000 -1470.00000000 58 249 102 0.000000 0.000000 0.000000 0.000000 -60.708740 0.000000 55.000000 0.735627 0.586228 0.339395
-9670.00000000 14940.00000000 -1480.00000000 58 249 102 0.000000 0.000000 0.000000 0.000000 -60.708740 0.000000 55.000000 0.709014 0.449983 0.542968
-9660.00000000 14920.00000000 -1490.00000000 58 249 102 0.000000 0.000000 0.000000 0.000000 -60.708740 0.000000 55.000000 0.917072 0.354032 -0.183414
-9660.00000000 14920.00000000 -1470.00000000 58 249 102 0.000000 0.000000 0.000000 0.000000 -60.708740 0.000000 55.000000 0.693322 0.512891 0.506209
-9660.00000000 14940.00000000 -1520.00000000 58 249 102 0.000000 0.000000 0.000000 0.000000 -60.708740 0.000000 55.000000 0.910849 0.407378 0.066317
-9650.00000000 14930.00000000 -1520.00000000 58 249 102 0.000000 0.000000 0.000000 0.000000 -60.708740 0.000000 55.000000 0.889931 0.392399 0.232478
-9670.00000000 14940.00000000 -1500.00000000 58 249 102 0.000000 0.000000 0.000000 0.000000 -60.708740 0.000000 55.000000 0.763282 0.547045 0.343719
-9650.00000000 14900.00000000 -1460.00000000 58 249 102 0.000000 0.000000 0.000000 0.000000 -60.708740 0.000000 55.000000 0.640470 0.756920 0.129886
-9650.00000000 14910.00000000 -1460.00000000 58 249 102 0.000000 0.000000 0.000000 0.000000 -60.708740 0.000000 55.000000 0.612326 0.731255 0.300538
-9650.00000000 14900.00000000 -1460.00000000 58 249 102 0.000000 0.000000 0.000000 0.000000 -60.708740 0.000000 55.000000 0.640470 0.756920 0.129886
-9610.00000000 14870.00000000 -1410.00000000 58 249 102 0.000000 0.000000 0.000000 0.000000 -60.708740 0.000000 55.000000 0.226772 0.931031 -0.285929
-9610.00000000 14870.00000000 -1410.00000000 58 249 102 0.000000 0.000000 0.000000 0.000000 -60.708740 0.000000 55.000000 0.226772 0.931031 -0.285929
-9620.00000000 14850.00000000 -1450.00000000 58 249 102 0.000000 0.000000 0.000000 0.000000 -60.708740 0.000000 55.000000 0.330488 0.865418 -0.376603
-9640.00000000 14870.00000000 -1500.00000000 58 249 102 0.000000 0.000000 0.000000 0.000000 -60.708740 0.000000 55.000000 0.472295 0.837743 -0.274086
-9720.00000000 14920.00000000 -1400.00000000 58 249 102 0.000000 0.000000 0.000000 0.000000 -60.708740 0.000000 55.000000 0.780737 0.538054 0.317723
-9720.00000000 14920.00000000 -1450.00000000 58 249 102 0.000000 0.000000 0.000000 0.000000 -60.708740 0.000000 55.000000 0.794901 0.358107 0.489787
-9720.00000000 14930.00000000 -1440.00000000 58 249 102 0.000000 0.000000 0.000000 0.000000 -60.708740 0.000000 55.000000 0.572097 0.682179 0.455342
-9740.00000000 14930.00000000 -1380.00000000 58 249 102 0.000000 0.000000 0.000000 0.000000 -60.708740 0.000000 55.000000 0.895734 0.444588 -0.001311
-9700.00000000 14950.00000000 -1470.00000000 58 249 102 0.000000 0.000000 0.000000 0.000000 -60.708740 0.000000 55.000000 0.949517 0.177442 0.258713
-9730.00000000 14930.00000000 -1470.00000000 58 249 102 0.000000 0.000000 0.000000 0.000000 -60.708740 0.000000 55.000000 0.987454 0.157223 -0.014704
-9640.00000000 14920.00000000 -1550.00000000 58 249 102 0.000000 0.000000 0.000000 0.000000 -60.708740 0.000000 55.000000 0.788144 0.299717 0.537587
-9710.00000000 15210.00000000 -690.00000000 58 249 102 0.000000 0.000000 0.000000 0.000000 -60.708740 0.000000 55.000000 0.850682 0.110833 0.513864
-9720.00000000 15230.00000000 -680.00000000 58 249 102 0.000000 0.000000 0.000000 0.000000 -60.708740 0.000000 55.000000 0.947447 0.060750 0.314092
-9720.00000000 15220.00000000 -670.00000000 58 249 102 0.000000 0.000000 0.000000 0.000000 -60.708740 0.000000 55.000000 0.951262 0.055053 0.303431
-9720.00000000 15240.00000000 -690.00000000 58 249 102 0.000000 0.000000 0.000000 0.000000 -60.708740 0.000000 55.000000 0.930054 0.286496 0.230044
-9720.00000000 15230.00000000 -680.00000000 58 249 102 0.000000 0.000000 0.000000 0.000000 -60.708740 0.000000 55.000000 0.947447 0.060750 0.314092
-9710.00000000 15180.00000000 -690.00000000 58 249 102 0.000000 0.000000 0.000000 0.000000 -60.708740 0.000000 55.000000 0.967076 -0.179951 0.179951
-9710.00000000 15190.00000000 -680.00000000 58 249 102 0.000000 0.000000 0.000000 0.000000 -60.708740 0.000000 55.000000 0.997475 0.028743 -0.064937
-9730.00000000 15170.00000000 -680.00000000 58 249 102 0.000000 0.000000 0.000000 0.000000 -60.708740 0.000000 55.000000 0.976874 -0.125687 0.172975
-9710.00000000 15190.00000000 -660.00000000 58 249 102 0.000000 0.000000 0.000000 0.000000 -60.708740 0.000000 55.000000 0.779454 0.460512 0.424713
-9730.00000000 15150.00000000 -680.00000000 58 249 102 0.000000 0.000000 0.000000 0.000000 -60.708740 0.000000 55.000000 0.884410 -0.335986 0.323932
-9730.00000000 15150.00000000 -690.00000000 58 249 102 0.000000 0.000000 0.000000 0.000000 -60.708740 0.000000 55.000000 0.953933 -0.300017 0.001225
-9730.00000000 15160.00000000 -670.00000000 58 249 102 0.000000 0.000000 0.000000 0.000000 -60.708740 0.000000 55.000000 0.832242 -0.409015 0.374272
-9740.00000000 15150.00000000 -670.00000000 58 249 102 0.000000 0.000000 0.000000 0.000000 -60.708740 0.000000 55.000000 0.815043 -0.357475 0.455979
-9760.00000000 15130.00000000 -680.00000000 58 249 102 0.000000 0.000000 0.000000 0.000000 -60.708740 0.000000 55.000000 0.869205 -0.216927 0.444327
-9740.00000000 15160.00000000 -670.00000000 58 249 102 0.000000 0.000000 0.000000 0.000000 -60.708740 0.000000 55.000000 0.790405 -0.313299 0.526406
-9770.00000000 15310.00000000 -700.00000000 58 249 102 0.000000 0.000000 0.000000 0.000000 -60.708740 0.000000 55.000000 0.424318 0.900110 -0.098776
-9760.00000000 15300.00000000 -740.00000000 58 249 102 0.000000 0.000000 0.000000 0.000000 -60.708740 0.000000 55.000000 0.507505 0.861261 -0.025851
-9770.00000000 15310.00000000 -700.00000000 58 249 102 0.000000 0.000000 0.000000 0.000000 -60.708740 0.000000 55.000000 0.424318 0.900110 -0.098776
-9750.00000000 15300.00000000 -790.00000000 58 249 102 0.000000 0.000000 0.000000 0.000000 -60.708740 0.000000 55.000000 0.276063 0.864793 -0.419432
-9750.00000000 15300.00000000 -730.00000000 58 249 102 0.000000 0.000000 0.000000 0.000000 -60.708740 0.000000 55.000000 0.338433 0.910719 0.236758
-9690.00000000 15230.00000000 -720.00000000 58 249 102 0.000000 0.000000 0.000000 0.000000 -60.708740 0.000000 55.000000 0.786349 0.492477 0.372991
-9690.00000000 15240.00000000 -770.00000000 58 249 102 0.000000 0.000000 0.000000 0.000000 -60.708740 0.000000 55.000000 0.683103 0.683103 0.258343
-9680.00000000 15180.00000000 -810.00000000 58 249 102 0.000000 0.000000 0.000000 0.000000 -60.708740 0.000000 55.000000 0.878109 0.329101 0.347300
-9670.00000000 15190.00000000 -840.00000000 58 249 102 0.000000 0.000000 0.000000 0.000000 -60.708740 0.000000 55.000000 0.787928 0.422278 0.448164
-9690.00000000 15130.00000000 -820.00000000 58 249 102 0.000000 0.000000 0.000000 0.000000 -60.708740 0.000000 55.000000 0.946832 -0.223348 0.231570
-9680.00000000 15130.00000000 -840.00000000 58 249 102 0.000000 0.000000 0.000000 0.000000 -60.708740 0.000000 55.000000 0.821882 0.075756 0.564597
-9690.00000000 15160.00000000 -860.00000000 58 249 102 0.000000 0.000000 0.000000 0.000000 -60.708740 0.000000 55.000000 0.954005 0.141973 0.264043
-9680.00000000 15130.00000000 -840.00000000 58 249 102 0.000000 0.000000 0.000000 0.000000 -60.708740 0.000000 55.000000 0.821882 0.075756 0.564597
-9670.00000000 15130.00000000 -850.00000000 58 249 102 0.000000 0.000000 0.000000 0.000000 -60.708740 0.000000 55.000000 0.868676 0.255315 0.424518
-9730.00000000 15270.00000000 -720.00000000 58 249 102 0.000000 0.000000 0.000000 0.000000 -60.708740 0.000000 55.000000 0.819446 0.566867 0.084671
-9730.00000000 15270.00000000 -720.00000000 58 249 102 0.000000 0.000000 0.000000 0.000000 -60.708740 0.000000 55.000000 0.819446 0.566867 0.084671
-9730.00000000 15260.00000000 -710.00000000 58 249 102 0.000000 0.000000 0.000000 0.000000 -60.708740 0.000000 55.000000 0.864687 0.501327 -0.031418
-9730.00000000 15270.00000000 -740.00000000 58 249 102 0.000000 0.000000 0.000000 0.000000 -60.708740 0.000000 55.000000 0.792407 0.607464 -0.055483
-9730.00000000 15290.00000000 -750.00000000 58 249 102 0.000000 0.000000 0.000000 0.000000 -60.708740 0.000000 55.000000 0.698386 0.695329 -0.169630
-9710.00000000 15230.00000000 -700.00000000 58 249 102 0.000000 0.000000 0.000000 0.000000 -60.708740 0.000000 55.000000 0.951138 0.244887 0.188063
-9720.00000000 15250.00000000 -720.00000000 58 249 102 0.000000 0.000000 0.000000 0.000000 -60.708740 0.000000 55.000000 0.883082 0.433513 -0.179536
-9710.00000000 15220.00000000 -700.00000000 58 249 102 0.000000 0.000000 0.000000 0.000000 -60.708740 0.000000 55.000000 0.974304 0.223552 -0.027496
-9720.00000000 15240.00000000 -700.00000000 58 249 102 0.000000 0.000000 0.000000 0.000000 -60.708740 0.000000 55.000000 0.924556 0.220132 0.311026
-9720.00000000 15240.00000000 -750.00000000 58 249 102 0.000000 0.000000 0.000000 0.000000 -60.708740 0.000000 55.000000 0.913969 0.403104 0.046563
-9710.00000000 15230.00000000 -760.00000000 58 249 102 0.000000 0.000000 0.000000 0.000000 -60.708740 0.000000 55.000000 0.977833 0.181263 0.104812
-9710.00000000 15230.00000000 -760.00000000 58 249 102 0.000000 0.000000 0.000000 0.000000 -60.708740 0.000000 55.000000 0.977833 0.181263 0.104812
-9740.00000000 15260.00000000 -760.00000000 58 249 102 0.000000 0.000000 0.000000 0.000000 -60.708740 0.000000 55.000000 0.480797 0.792753 0.374668
-9770.00000000 15280.00000000 -750.00000000 58 249 102 0.000000 0.000000 0.000000 0.000000 -60.708740 0.000000 55.000000 0.717019 0.637173 -0.282656
-9740.00000000 15270.00000000 -770.00000000 58 249 102 0.000000 0.000000 0.000000 0.000000 -60.708740 0.000000 55.000000 0.601999 0.766887 0.222444
-9750.00000000 15250.00000000 -750.00000000 58 249 102 0.000000 0.000000 0.000000 0.000000 -60.708740 0.000000 55.000000 0.771267 0.589792 -0.239359
-9730.00000000 15260.00000000 -830.00000000 58 249 102 0.000000 0.000000 0.000000 0.000000 -60.708740 0.000000 55.000000 0.794268 0.606557 0.035021
-9730.00000000 15260.00000000 -830.00000000 58 249 102 0.000000 0.000000 0.000000 0.000000 -60.708740 0.000000 55.000000 0.794268 0.606557 0.035021
-9700.00000000 15230.00000000 -780.00000000 58 249 102 0.000000 0.000000 0.000000 0.000000 -60.708740 0.000000 55.000000 0.844101 0.273137 0.461401
-9720.00000000 15230.00000000 -780.00000000 58 249 102 0.000000 0.000000 0.000000 0.000000 -60.708740 0.000000 55.000000 0.504217 0.812087 0.293734
-9730.00000000 15250.00000000 -820.00000000 58 249 102 0.000000 0.000000 0.000000 0.000000 -60.708740 0.000000 55.000000 0.844562 0.526238 0.098938
-9700.00000000 15240.00000000 -790.00000000 58 249 102 0.000000 0.000000 0.000000 0.000000 -60.708740 0.000000 55.000000 0.631895 0.721480 0.283153
-9700.00000000 15240.00000000 -800.00000000 58 249 102 0.000000 0.000000 0.000000 0.000000 -60.708740 0.000000 55.000000 0.626727 0.643439 0.439544
-9700.00000000 15210.00000000 -840.00000000 58 249 102 0.000000 0.000000 0.000000 0.000000 -60.708740 0.000000 55.000000 0.850221 0.478721 0.218974
-9700.00000000 15210.00000000 -840.00000000 58 249 102 0.000000 0.000000 0.000000 0.000000 -60.708740 0.000000 55.000000 0.850221 0.478721 0.218974
-9700.00000000 15240.00000000 -860.00000000 58 249 102 0.000000 0.000000 0.000000 0.000000 -60.708740 0.000000 55.000000 0.549137 0.835405 -0.023397
-9700.00000000 15240.00000000 -850.00000000 58 249 102 0.000000 0.000000 0.000000 0.000000 -60.708740 0.000000 55.000000 0.592612 0.805345 0.015195
-9720.00000000 15250.00000000 -840.00000000 58 249 102 0.000000 0.000000 0.000000 0.000000 -60.708740 0.000000 55.000000 0.849628 0.526742 0.025995
-9730.00000000 15250.00000000 -830.00000000 58 249 102 0.000000 0.000000 0.000000 0.000000 -60.708740 0.000000 55.000000 0.851981 0.523571 -0.001346
-9770.00000000 15290.00000000 -790.00000000 58 249 102 0.000000 0.000000 0.000000 0.000000 -60.708740 0.000000 55.000000 0.303660 0.952780 0.001229
-9740.00000000 15270.00000000 -780.00000000 58 249 102 0.000000 0.000000 0.000000 0.000000 -60.708740 0.000000 55.000000 0.626779 0.771307 -0.110608
-9760.00000000 15290.00000000 -780.00000000 58 249 102 0.000000 0.000000 0.000000 0.000000 -60.708740 0.000000 55.000000 0.276421 0.923789 -0.264963
-9750.00000000 15280.00000000 -780.00000000 58 249 102 0.000000 0.000000 0.000000 0.000000 -60.708740 0.000000 55.000000 0.641995 0.750756 -0.155589
-9770.00000000 15290.00000000 -790.00000000 58 249 102 0.000000 0.000000 0.000000 0.000000 -60.708740 0.000000 55.000000 0.303660 0.952780 0.001229
-9740.00000000 15260.00000000 -800.00000000 58 249 102 0.000000 0.000000 0.000000 0.000000 -60.708740 0.000000 55.000000 0.559898 0.802265 -0.207086
-9740.00000000 15270.00000000 -790.00000000 58 249 102 0.000000 0.000000 0.000000 0.000000 -60.708740 0.000000 55.000000 0.479241 0.872246 -0.097545
-9770.00000000 15290.00000000 -800.00000000 58 249 102 0.000000 0.000000 0.000000 0.000000 -60.708740 0.000000 55.000000 0.410499 0.884722 -0.220810
-9760.00000000 15280.00000000 -790.00000000 58 249 102 0.000000 0.000000 0.000000 0.000000 -60.708740 0.000000 55.000000 0.445903 0.827205 -0.341911
-9770.00000000 15270.00000000 -860.00000000 58 249 102 0.000000 0.000000 0.000000 0.000000 -60.708740 0.000000 55.000000 0.210183 0.936775 -0.279780
-9750.00000000 15260.00000000 -850.00000000 58 249 102 0.000000 0.000000 0.000000 0.000000 -60.708740 0.000000 55.000000 0.455104 0.774818 -0.438792
-9750.00000000 15260.00000000 -850.00000000 58 249 102 0.000000 0.000000 0.000000 0.000000 -60.708740 0.000000 55.000000 0.455104 0.774818 -0.438792
-9740.00000000 15260.00000000 -850.00000000 58 249 102 0.000000 0.000000 0.000000 0.000000 -60.708740 0.000000 55.000000 0.353198 0.869999 -0.344024
-9740.00000000 15260.00000000 -860.00000000 58 249 102 0.000000 0.000000 0.000000 0.000000 -60.708740 0.000000 55.000000 0.269787 0.911444 -0.310620
-9750.00000000 15230.00000000 -860.00000000 58 249 102 0.000000 0.000000 0.000000 0.000000 -60.708740 0.000000 55.000000 0.420038 0.907230 -0.022384
-9720.00000000 15190.00000000 -720.00000000 58 249 102 0.000000 0.000000 0.000000 0.000000 -60.708740 0.000000 55.000000 0.983368 0.164094 0.077855
-9730.00000000 15200.00000000 -710.00000000 58 249 102 0.000000 0.000000 0.000000 0.000000 -60.708740 0.000000 55.000000 0.995698 -0.001065 0.092648
-9710.00000000 15190.00000000 -760.00000000 58 249 102 0.000000 0.000000 0.000000 0.000000 -60.708740 0.000000 55.000000 0.996275 0.016086 0.084721
-9720.00000000 15170.00000000 -760.00000000 58 249 102 0.000000 0.000000 0.000000 0.000000 -60.708740 0.000000 55.000000 0.876735 -0.167761 0.450767
-9730.00000000 15130.00000000 -720.00000000 58 249 102 0.000000 0.000000 0.000000 0.000000 -60.708740 0.000000 55.000000 0.725734 -0.564460 0.393312
-9710.00000000 15160.00000000 -730.00000000 58 249 102 0.000000 0.000000 0.000000 0.000000 -60.708740 0.000000 55.000000 0.948717 -0.293240 0.118092
-9710.00000000 15140.00000000 -770.00000000 58 249 102 0.000000 0.000000 0.000000 0.000000 -60.708740 0.000000 55.000000 0.903871 -0.314069 0.290477
-9740.00000000 15140.00000000 -710.00000000 58 249 102 0.000000 0.000000 0.000000 0.000000 -60.708740 0.000000 55.000000 0.897753 -0.356439 0.258825
-9700.00000000 15140.00000000 -830.00000000 58 249 102 0.000000 0.000000 0.000000 0.000000 -60.708740 0.000000 55.000000 0.838315 0.108590 0.534263
-9700.00000000 15150.00000000 -840.00000000 58 249 102 0.000000 0.000000 0.000000 0.000000 -60.708740 0.000000 55.000000 0.948696 0.273948 0.157891
-9700.00000000 15190.00000000 -790.00000000 58 249 102 0.000000 0.000000 0.000000 0.000000 -60.708740 0.000000 55.000000 0.970662 -0.022853 0.239358
-9690.00000000 15210.00000000 -910.00000000 58 249 102 0.000000 0.000000 0.000000 0.000000 -60.708740 0.000000 55.000000 0.547372 0.836755 -0.015015
-9690.00000000 15210.00000000 -1000.00000000 58 249 102 0.000000 0.000000 0.000000 0.000000 -60.708740 0.000000 55.000000 0.179385 0.983762 0.005713
-9680.00000000 15210.00000000 -970.00000000 58 249 102 0.000000 0.000000 0.000000 0.000000 -60.708740 0.000000 55.000000 0.689177 0.710289 -0.143264
-9690.00000000 15180.00000000 -900.00000000 58 249 102 0.000000 0.000000 0.000000 0.000000 -60.708740 0.000000 55.000000 0.913365 0.402203 -0.063223
-9690.00000000 15170.00000000 -890.00000000 58 249 102 0.000000 0.000000 0.000000 0.000000 -60.708740 0.000000 55.000000 0.845969 0.530996 0.048779
-9680.00000000 15170.00000000 -870.00000000 58 249 102 0.000000 0.000000 0.000000 0.000000 -60.708740 0.000000 55.000000 0.919685 0.342572 0.191897
-9680.00000000 15180.00000000 -890.00000000 58 249 102 0.000000 0.000000 0.000000 0.000000 -60.708740 0.000000 55.000000 0.930532 0.347417 -0.115806
-9680.00000000 15170.00000000 -880.00000000 58 249 102 0.000000 0.000000 0.000000 0.000000 -60.708740 0.000000 55.000000 0.981580 0.190766 0.010405
-9670.00000000 15180.00000000 -910.00000000 58 249 102 0.000000 0.000000 0.000000 0.000000 -60.708740 0.000000 55.000000 0.925925 0.373804 0.054155
-9680.00000000 15160.00000000 -900.00000000 58 249 102 0.000000 0.000000 0.000000 0.000000 -60.708740 0.000000 55.000000 0.921881 0.040768 0.385323
-9680.00000000 15150.00000000 -900.00000000 58 249 102 0.000000 0.000000 0.000000 0.000000 -60.708740 0.000000 55.000000 0.971265 0.052799 0.232072
-9680.00000000 15140.00000000 -940.00000000 58 249 102 0.000000 0.000000 0.000000 0.000000 -60.708740 0.000000 55.000000 0.954837 0.296923 -0.011088
-9650.00000000 15130.00000000 -910.00000000 58 249 102 0.000000 0.000000 0.000000 0.000000 -60.708740 0.000000 55.000000 0.810216 -0.072877 0.581583
-9680.00000000 15140.00000000 -910.00000000 58 249 102 0.000000 0.000000 0.000000 0.000000 -60.708740 0.000000 55.000000 0.969959 0.242189 0.022893
-9690.00000000 15170.00000000 -980.00000000 58 249 102 0.000000 0.000000 0.000000 0.000000 -60.708740 0.000000 55.000000 0.855481 0.502288 0.125934
-9690.00000000 15170.00000000 -980.00000000 58 249 102 0.000000 0.000000 0.000000 0.000000 -60.708740 0.000000 55.000000 0.855481 0.502288 0.125934
-9670.00000000 15170.00000000 -1000.00000000 58 249 102 0.000000 0.000000 0.000000 0.000000 -60.708740 0.000000 55.000000 0.833469 0.515813 0.198157
-9660.00000000 15140.00000000 -960.00000000 58 249 102 0.000000 0.000000 0.000000 0.000000 -60.708740 0.000000 55.000000 0.819760 0.505545 0.269105
-9670.00000000 15160.00000000 -980.00000000 58 249 102 0.000000 0.000000 0.000000 0.000000 -60.708740 0.000000 55.000000 0.718006 0.695525 0.026697
-9690.00000000 15160.00000000 -970.00000000 58 249 102 0.000000 0.000000 0.000000 0.000000 -60.708740 0.000000 55.000000 0.822981 0.559743 0.096906
-9670.00000000 15150.00000000 -970.00000000 58 249 102 0.000000 0.000000 0.000000 0.000000 -60.708740 0.000000 55.000000 0.898666 0.344957 0.270932
-9670.00000000 15150.00000000 -970.00000000 58 249 102 0.000000 0.000000 0.000000 0.000000 -60.708740 0.000000 55.000000 0.898666 0.344957 0.270932
-9680.00000000 15160.00000000 -980.00000000 58 249 102 0.000000 0.000000 0.000000 0.000000 -60.708740 0.000000 55.000000 0.695361 0.717928 0.032441
-9660.00000000 15140.00000000 -970.00000000 58 249 102 0.000000 0.000000 0.000000 0.000000 -60.708740 0.000000 55.000000 0.856104 0.373094 0.357613
-9670.00000000 15130.00000000 -1010.00000000 58 249 102 0.000000 0.000000 0.000000 0.000000 -60.708740 0.000000 55.000000 0.866549 0.153436 0.474921
-9650.00000000 15140.00000000 -1030.00000000 58 249 102 0.000000 0.000000 0.000000 0.000000 -60.708740 0.000000 55.000000 0.941411 0.337203 0.006268
-9710.00000000 15210.00000000 -890.00000000 58 249 102 0.000000 0.000000 0.000000 0.000000 -60.708740 0.000000 55.000000 0.621925 0.773325 -0.123198
-9710.00000000 15220.00000000 -900.00000000 58 249 102 0.000000 0.000000 0.000000 0.000000 -60.708740 0.000000 55.000000 0.680730 0.731679 0.035381
-9730.00000000 15240.00000000 -870.00000000 58 249 102 0.000000 0.000000 0.000000 0.000000 -60.708740 0.000000 55.000000 0.661823 0.712128 -0.234232
-9730.00000000 15230.00000000 -900.00000000 58 249 102 0.000000 0.000000 0.000000 0.000000 -60.708740 0.000000 55.000000 0.728494 0.682514 0.058912
-9730.00000000 15230.00000000 -920.00000000 58 249 102 0.000000 0.000000 0.000000 0.000000 -60.708740 0.000000 55.000000 0.440568 0.873719 -0.206192
-9710.00000000 15220.00000000 -940.00000000 58 249 102 0.000000 0.000000 0.000000 0.000000 -60.708740 0.000000 55.000000 0.196938 0.979973 -0.029482
-9730.00000000 15230.00000000 -940.00000000 58 249 102 0.000000 0.000000 0.000000 0.000000 -60.708740 0.000000 55.000000 0.357421 0.930367 -0.081658
-9760.00000000 15260.00000000 -880.00000000 58 249 102 0.000000 0.000000 0.000000 0.000000 -60.708740 0.000000 55.000000 0.346441 0.799847 -0.490126
-9760.00000000 15270.00000000 -870.00000000 58 249 102 0.000000 0.000000 0.000000 0.000000 -60.708740 0.000000 55.000000 0.510255 0.775911 -0.370947
-9760.00000000 15260.00000000 -880.00000000 58 249 102 0.000000 0.000000 0.000000 0.000000 -60.708740 0.000000 55.000000 0.346441 0.799847 -0.490126
-9770.00000000 15250.00000000 -900.00000000 58 249 102 0.000000 0.000000 0.000000 0.000000 -60.708740 0.000000 55.000000 -0.069203 0.944032 -0.322512
-9740.00000000 15240.00000000 -920.00000000 58 249 102 0.000000 0.000000 0.000000 0.000000 -60.708740 0.000000 55.000000 0.546786 0.789452 -0.278908
-9740.00000000 15230.00000000 -920.00000000 58 249 102 0.000000 0.000000 0.000000 0.000000 -60.708740 0.000000 55.000000 0.475173 0.871390 -0.122023
-9750.00000000 15240.00000000 -940.00000000 58 249 102 0.000000 0.000000 0.000000 0.000000 -60.708740 0.000000 55.000000 0.230804 0.910151 -0.344028
-9760.00000000 15230.00000000 -950.00000000 58 249 102 0.000000 0.000000 0.000000 0.000000 -60.708740 0.000000 55.000000 0.062285 0.873372 -0.483054
-9730.00000000 15220.00000000 -950.00000000 58 249 102 0.000000 0.000000 0.000000 0.000000 -60.708740 0.000000 55.000000 0.534276 0.827604 -0.172106
-9770.00000000 15220.00000000 -980.00000000 58 249 102 0.000000 0.000000 0.000000 0.000000 -60.708740 0.000000 55.000000 -0.312208 0.931023 -0.189005
-9760.00000000 15220.00000000 -980.00000000 58 249 102 0.000000 0.000000 0.000000 0.000000 -60.708740 0.000000 55.000000 -0.090566 0.993990 -0.061495
-9710.00000000 15210.00000000 -990.00000000 58 249 102 0.000000 0.000000 0.000000 0.000000 -60.708740 0.000000 55.000000 0.111194 0.989039 0.097148
-9730.00000000 15220.00000000 -1000.00000000 58 249 102 0.000000 0.000000 0.000000 0.000000 -60.708740 0.000000 55.000000 0.402458 0.840934 -0.361743
-9750.00000000 15210.00000000 -1010.00000000 58 249 102 0.000000 0.000000 0.000000 0.000000 -60.708740 0.000000 55.000000 -0.183209 0.850506 -0.493025
-9700.00000000 15170.00000000 -980.00000000 58 249 102 0.000000 0.000000 0.000000 0.000000 -60.708740 0.000000 55.000000 0.798614 0.542307 -0.260995
-9760.00000000 15200.00000000 -1010.00000000 58 249 102 0.000000 0.000000 0.000000 0.000000 -60.708740 0.000000 55.000000 -0.349902 0.836312 -0.422079
-9710.00000000 15200.00000000 -1020.00000000 58 249 102 0.000000 0.000000 0.000000 0.000000 -60.708740 0.000000 55.000000 0.402815 0.856560 -0.322560
-9710.00000000 15200.00000000 -1010.00000000 58 249 102 0.000000 0.000000 0.000000 0.000000 -60.708740 0.000000 55.000000 0.660656 0.733556 -0.159469
-9580.00000000 15140.00000000 -1320.00000000 58 249 102 0.000000 0.000000 0.000000 0.000000 -60.708740 0.000000 55.000000 0.668852 0.734106 0.117160
-9640.00000000 15130.00000000 -1070.00000000 58 249 102 0.000000 0.000000 0.000000 0.000000 -60.708740 0.000000 55.000000 0.832479 0.523487 -0.181495
-9670.00000000 15170.00000000 -1040.00000000 58 249 102 0.000000 0.000000 0.000000 0.000000 -60.708740 0.000000 55.000000 0.740272 0.634296 -0.222861
-9690.00000000 15170.00000000 -1070.00000000 58 249 102 0.000000 0.000000 0.000000 0.000000 -60.708740 0.000000 55.000000 0.452996 0.891465 0.009245
-9670.00000000 15170.00000000 -1050.00000000 58 249 102 0.000000 0.000000 0.000000 0.000000 -60.708740 0.000000 55.000000 0.683814 0.711227 0.162958
-9660.00000000 15180.00000000 -1100.00000000 58 249 102 0.000000 0.000000 0.000000 0.000000 -60.708740 0.000000 55.000000 0.273749 0.875695 -0.397768
-9650.00000000 15130.00000000 -1040.00000000 58 249 102 0.000000 0.000000 0.000000 0.000000 -60.708740 0.000000 55.000000 0.930486 0.361929 -0.056593
-9650.00000000 15140.00000000 -1050.00000000 58 249 102 0.000000 0.000000 0.000000 0.000000 -60.708740 0.000000 55.000000 0.936105 0.351199 0.019156
-9680.00000000 15160.00000000 -1110.00000000 58 249 102 0.000000 0.000000 0.000000 0.000000 -60.708740 0.000000 55.000000 0.311883 0.941051 -0.130964
-9690.00000000 15160.00000000 -1100.00000000 58 249 102 0.000000 0.000000 0.000000 0.000000 -60.708740 0.000000 55.000000 0.166556 0.981102 0.098475
-9660.00000000 15150.00000000 -1110.00000000 58 249 102 0.000000 0.000000 0.000000 0.000000 -60.708740 0.000000 55.000000 0.672455 0.733987 -0.095228
-9680.00000000 15160.00000000 -1110.00000000 58 249 102 0.000000 0.000000 0.000000 0.000000 -60.708740 0.000000 55.000000 0.311883 0.941051 -0.130964
-9640.00000000 15150.00000000 -1180.00000000 58 249 102 0.000000 0.000000 0.000000 0.000000 -60.708740 0.000000 55.000000 0.462710 0.829742 0.312134
-9640.00000000 15140.00000000 -1160.00000000 58 249 102 0.000000 0.000000 0.000000 0.000000 -60.708740 0.000000 55.000000 0.719456 0.694504 0.006931
-9640.00000000 15140.00000000 -1160.00000000 58 249 102 0.000000 0.000000 0.000000 0.000000 -60.708740 0.000000 55.000000 0.719456 0.694504 0.006931
-9680.00000000 15170.00000000 -1130.00000000 58 249 102 0.000000 0.000000 0.000000 0.000000 -60.708740 0.000000 55.000000 0.471658 0.865440 0.168974
-9670.00000000 15180.00000000 -1150.00000000 58 249 102 0.000000 0.000000 0.000000 0.000000 -60.708740 0.000000 55.000000 0.400221 0.892802 0.206708
-9650.00000000 15170.00000000 -1140.00000000 58 249 102 0.000000 0.000000 0.000000 0.000000 -60.708740 0.000000 55.000000 0.064383 0.992849 0.100527
-9660.00000000 15170.00000000 -1120.00000000 58 249 102 0.000000 0.000000 0.000000 0.000000 -60.708740 0.000000 55.000000 0.151027 0.977307 -0.148531
-9660.00000000 15180.00000000 -1160.00000000 58 249 102 0.000000 0.000000 0.000000 0.000000 -60.708740 0.000000 55.000000 0.400452 0.916244 -0.011664
-9670.00000000 15150.00000000 -1150.00000000 58 249 102 0.000000 0.000000 0.000000 0.000000 -60.708740 0.000000 55.000000 0.261427 0.958567 -0.113155
-9680.00000000 15160.00000000 -1120.00000000 58 249 102 0.000000 0.000000 0.000000 0.000000 -60.708740 0.000000 55.000000 0.287217 0.956971 0.041389
-9670.00000000 15160.00000000 -1120.00000000 58 249 102 0.000000 0.000000 0.000000 0.000000 -60.708740 0.000000 55.000000 0.291937 0.956430 -0.003664
-9650.00000000 15130.00000000 -1170.00000000 58 249 102 0.000000 0.000000 0.000000 0.000000 -60.708740 0.000000 55.000000 0.504079 0.859899 0.080483
-9670.00000000 15150.00000000 -1180.00000000 58 249 102 0.000000 0.000000 0.000000 0.000000 -60.708740 0.000000 55.000000 0.080222 0.993168 0.084741
-9660.00000000 15150.00000000 -1190.00000000 58 249 102 0.000000 0.000000 0.000000 0.000000 -60.708740 0.000000 55.000000 0.332102 0.942865 0.026721
-9670.00000000 15150.00000000 -1170.00000000 58 249 102 0.000000 0.000000 0.000000 0.000000 -60.708740 0.000000 55.000000 -0.066647 0.992925 -0.098276
-9680.00000000 15150.00000000 -1160.00000000 58 249 102 0.000000 0.000000 0.000000 0.000000 -60.708740 0.000000 55.000000 0.276480 0.960982 -0.008526
-9760.00000000 15210.00000000 -1050.00000000 58 249 102 0.000000 0.000000 0.000000 0.000000 -60.708740 0.000000 55.000000 0.134762 0.862189 -0.488332
-9740.00000000 15210.00000000 -1040.00000000 58 249 102 0.000000 0.000000 0.000000 0.000000 -60.708740 0.000000 55.000000 0.058778 0.892607 -0.446987
-9770.00000000 15220.00000000 -1040.00000000 58 249 102 0.000000 0.000000 0.000000 0.000000 -60.708740 0.000000 55.000000 -0.327657 0.832469 -0.446806
-9720.00000000 15190.00000000 -1040.00000000 58 249 102 0.000000 0.000000 0.000000 0.000000 -60.708740 0.000000 55.000000 0.268697 0.932702 -0.240561
-9730.00000000 15200.00000000 -1050.00000000 58 249 102 0.000000 0.000000 0.000000 0.000000 -60.708740 0.000000 55.000000 0.428175 0.845451 -0.319185
-9700.00000000 15180.00000000 -1070.00000000 58 249 102 0.000000 0.000000 0.000000 0.000000 -60.708740 0.000000 55.000000 0.439661 0.891964 -0.105350
-9710.00000000 15180.00000000 -1090.00000000 58 249 102 0.000000 0.000000 0.000000 0.000000 -60.708740 0.000000 55.000000 0.149512 0.956614 -0.250069
-9770.00000000 15180.00000000 -1070.00000000 58 249 102 0.000000 0.000000 0.000000 0.000000 -60.708740 0.000000 55.000000 -0.392274 0.909682 -0.136382
-9740.00000000 15200.00000000 -1050.00000000 58 249 102 0.000000 0.000000 0.000000 0.000000 -60.708740 0.000000 55.000000 0.213343 0.904169 -0.370085
-9750.00000000 15200.00000000 -1060.00000000 58 249 102 0.000000 0.000000 0.000000 0.000000 -60.708740 0.000000 55.000000 0.235475 0.948705 -0.210975
-9740.00000000 15190.00000000 -1060.00000000 58 249 102 0.000000 0.000000 0.000000 0.000000 -60.708740 0.000000 55.000000 0.191993 0.886686 -0.420626
-9750.00000000 15200.00000000 -1050.00000000 58 249 102 0.000000 0.000000 0.000000 0.000000 -60.708740 0.000000 55.000000 0.180234 0.880657 -0.438131
-9770.00000000 15170.00000000 -1070.00000000 58 249 102 0.000000 0.000000 0.000000 0.000000 -60.708740 0.000000 55.000000 -0.278082 0.960538 -0.006072
-9760.00000000 15140.00000000 -1150.00000000 58 249 102 0.000000 0.000000 0.000000 0.000000 -60.708740 0.000000 55.000000 0.695895 -0.552377 0.458923
-9740.00000000 15170.00000000 -1140.00000000 58 249 102 0.000000 0.000000 0.000000 0.000000 -60.708740 0.000000 55.000000 -0.531925 0.705342 -0.468561
-9700.00000000 15160.00000000 -1170.00000000 58 249 102 0.000000 0.000000 0.000000 0.000000 -60.708740 0.000000 55.000000 0.161573 0.954747 -0.249703
-9700.00000000 15160.00000000 -1180.00000000 58 249 102 0.000000 0.000000 0.000000 0.000000 -60.708740 0.000000 55.000000 0.294665 0.880971 -0.370219
-9760.00000000 15130.00000000 -1170.00000000 58 249 102 0.000000 0.000000 0.000000 0.000000 -60.708740 0.000000 55.000000 -0.533517 0.694074 -0.483343
-9710.00000000 15170.00000000 -1140.00000000 58 249 102 0.000000 0.000000 0.000000 0.000000 -60.708740 0.000000 55.000000 0.076336 0.992368 -0.096844
-9760.00000000 15150.00000000 -1140.00000000 58 249 102 0.000000 0.000000 0.000000 0.000000 -60.708740 0.000000 55.000000 -0.567132 0.680892 -0.463408
-9730.00000000 15140.00000000 -1150.00000000 58 249 102 0.000000 0.000000 0.000000 0.000000 -60.708740 0.000000 55.000000 0.061565 0.978998 -0.194351
-9760.00000000 15160.00000000 -1140.00000000 58 249 102 0.000000 0.000000 0.000000 0.000000 -60.708740 0.000000 55.000000 -0.426013 0.785614 -0.448691
-9750.00000000 15160.00000000 -1140.00000000 58 249 102 0.000000 0.000000 0.000000 0.000000 -60.708740 0.000000 55.000000 -0.364989 0.814451 -0.451056
-9750.00000000 15140.00000000 -1180.00000000 58 249 102 0.000000 0.000000 0.000000 0.000000 -60.708740 0.000000 55.000000 0.618388 -0.674756 0.402864
-9760.00000000 15130.00000000 -1190.00000000 58 249 102 0.000000 0.000000 0.000000 0.000000 -60.708740 0.000000 55.000000 -0.571964 0.817296 -0.069891
-9640.00000000 15170.00000000 -1250.00000000 58 249 102 0.000000 0.000000 0.000000 0.000000 -60.708740 0.000000 55.000000 -0.166454 0.983159 0.075443
-9630.00000000 15130.00000000 -1220.00000000 58 249 102 0.000000 0.000000 0.000000 0.000000 -60.708740 0.000000 55.000000 0.413375 0.908886 0.055206
-9690.00000000 15150.00000000 -1210.00000000 58 249 102 0.000000 0.000000 0.000000 0.000000 -60.708740 0.000000 55.000000 0.032063 0.993952 0.105034
-9680.00000000 15140.00000000 -1240.00000000 58 249 102 0.000000 0.000000 0.000000 0.000000 -60.708740 0.000000 55.000000 0.107867 0.982925 -0.149075
-9650.00000000 15140.00000000 -1240.00000000 58 249 102 0.000000 0.000000 0.000000 0.000000 -60.708740 0.000000 55.000000 0.458367 0.884690 0.084986
-9650.00000000 15140.00000000 -1320.00000000 58 249 102 0.000000 0.000000 0.000000 0.000000 -60.708740 0.000000 55.000000 0.261117 0.926037 -0.272532
-9650.00000000 15140.00000000 -1300.00000000 58 249 102 0.000000 0.000000 0.000000 0.000000 -60.708740 0.000000 55.000000 -0.068757 0.997507 -0.015867
-9650.00000000 15140.00000000 -1310.00000000 58 249 102 0.000000 0.000000 0.000000 0.000000 -60.708740 0.000000 55.000000 0.216379 0.974317 -0.062346
-9710.00000000 15150.00000000 -1220.00000000 58 249 102 0.000000 0.000000 0.000000 0.000000 -60.708740 0.000000 55.000000 -0.562373 0.803172 -0.196602
-9700.00000000 15160.00000000 -1220.00000000 58 249 102 0.000000 0.000000 0.000000 0.000000 -60.708740 0.000000 55.000000 -0.010495 0.978409 -0.206411
-9730.00000000 15140.00000000 -1200.00000000 58 249 102 0.000000 0.000000 0.000000 0.000000 -60.708740 0.000000 55.000000 -0.513185 0.799171 -0.312995
-9750.00000000 15130.00000000 -1200.00000000 58 249 102 0.000000 0.000000 0.000000 0.000000 -60.708740 0.000000 55.000000 -0.436005 0.858241 -0.270782
-9710.00000000 15140.00000000 -1240.00000000 58 249 102 0.000000 0.000000 0.000000 0.000000 -60.708740 0.000000 55.000000 0.628640 -0.693953 0.351058
-9760.00000000 15130.00000000 -1240.00000000 58 249 102 0.000000 0.000000 0.000000 0.000000 -60.708740 0.000000 55.000000 0.801020 -0.574743 0.167445
-9740.00000000 15130.00000000 -1270.00000000 58 249 102 0.000000 0.000000 0.000000 0.000000 -60.708740 0.000000 55.000000 -0.551837 0.797443 -0.244052
-9710.00000000 15130.00000000 -1240.00000000 58 249 102 0.000000 0.000000 0.000000 0.000000 -60.708740 0.000000 55.000000 -0.569529 0.791785 -0.220712
-9830.00000000 15130.00000000 -690.00000000 58 249 102 0.000000 0.000000 0.000000 0.000000 -60.708740 0.000000 55.000000 -0.514693 0.685698 -0.514693
-9780.00000000 15310.00000000 -760.00000000 58 249 102 0.000000 0.000000 0.000000 0.000000 -60.708740 0.000000 55.000000 0.133994 0.924143 -0.357777
-9780.00000000 15270.00000000 -860.00000000 58 249 102 0.000000 0.000000 0.000000 0.000000 -60.708740 0.000000 55.000000 -0.034048 0.952091 -0.303913
-9850.00000000 15140.00000000 -770.00000000 58 249 102 0.000000 0.000000 0.000000 0.000000 -60.708740 0.000000 55.000000 0.812881 0.568870 0.124946
-9840.00000000 15130.00000000 -800.00000000 58 249 102 0.000000 0.000000 0.000000 0.000000 -60.708740 0.000000 55.000000 0.634310 0.702446 -0.322833
-9860.00000000 15140.00000000 -780.00000000 58 249 102 0.000000 0.000000 0.000000 0.000000 -60.708740 0.000000 55.000000 0.865163 0.416560 0.279233
-9870.00000000 15180.00000000 -760.00000000 58 249 102 0.000000 0.000000 0.000000 0.000000 -60.708740 0.000000 55.000000 0.935173 -0.336015 0.112005
-9850.00000000 15130.00000000 -870.00000000 58 249 102 0.000000 0.000000 0.000000 0.000000 -60.708740 0.000000 55.000000 0.986514 0.134147 0.093784
-9840.00000000 15150.00000000 -880.00000000 58 249 102 0.000000 0.000000 0.000000 0.000000 -60.708740 0.000000 55.000000 0.917617 -0.153170 0.366766
-9860.00000000 15130.00000000 -880.00000000 58 249 102 0.000000 0.000000 0.000000 0.000000 -60.708740 0.000000 55.000000 0.888222 0.090635 0.450386
-9780.00000000 15210.00000000 -980.00000000 58 249 102 0.000000 0.000000 0.000000 0.000000 -60.708740 0.000000 55.000000 -0.385500 0.878334 -0.282700
-9780.00000000 15130.00000000 -1160.00000000 58 249 102 0.000000 0.000000 0.000000 0.000000 -60.708740 0.000000 55.000000 0.569104 -0.495238 0.656400
-9790.00000000 15140.00000000 -1110.00000000 58 249 102 0.000000 0.000000 0.000000 0.000000 -60.708740 0.000000 55.000000 0.870545 -0.325880 0.368719
-9800.00000000 15150.00000000 -1080.00000000 58 249 102 0.000000 0.000000 0.000000 0.000000 -60.708740 0.000000 55.000000 0.918181 -0.333754 0.213430
-9790.00000000 15170.00000000 -1080.00000000 58 249 102 0.000000 0.000000 0.000000 0.000000 -60.708740 0.000000 55.000000 -0.563832 0.715951 -0.411713
-9780.00000000 15170.00000000 -1090.00000000 58 249 102 0.000000 0.000000 0.000000 0.000000 -60.708740 0.000000 55.000000 0.314738 -0.731160 0.605265
-9790.00000000 15190.00000000 -1040.00000000 58 249 102 0.000000 0.000000 0.000000 0.000000 -60.708740 0.000000 55.000000 0.673687 -0.637449 0.373904
-9790.00000000 15140.00000000 -1120.00000000 58 249 102 0.000000 0.000000 0.000000 0.000000 -60.708740 0.000000 55.000000 0.851662 -0.365888 0.375230
-9780.00000000 15140.00000000 -1130.00000000 58 249 102 0.000000 0.000000 0.000000 0.000000 -60.708740 0.000000 55.000000 0.788149 -0.485139 0.378763
-9800.00000000 15130.00000000 -1080.00000000 58 249 102 0.000000 0.000000 0.000000 0.000000 -60.708740 0.000000 55.000000 0.907457 -0.261570 0.328789
-9760.00000000 15120.00000000 -680.00000000 58 249 102 0.000000 0.000000 0.000000 0.000000 -60.708740 0.000000 55.000000 -0.717549 0.674710 -0.172885
-9690.00000000 15110.00000000 -830.00000000 58 249 102 0.000000 0.000000 0.000000 0.000000 -60.708740 0.000000 55.000000 0.887417 -0.039290 0.459289
-9690.00000000 15110.00000000 -800.00000000 58 249 102 0.000000 0.000000 0.000000 0.000000 -60.708740 0.000000 55.000000 0.913696 -0.250506 0.320011
-9680.00000000 15110.00000000 -850.00000000 58 249 102 0.000000 0.000000 0.000000 0.000000 -60.708740 0.000000 55.000000 -0.728898 0.381648 -0.568377
-9690.00000000 15120.00000000 -830.00000000 58 249 102 0.000000 0.000000 0.000000 0.000000 -60.708740 0.000000 55.000000 0.812735 -0.075970 0.577659
-9680.00000000 15120.00000000 -840.00000000 58 249 102 0.000000 0.000000 0.000000 0.000000 -60.708740 0.000000 55.000000 0.766353 -0.225398 0.601580
-9730.00000000 15120.00000000 -730.00000000 58 249 102 0.000000 0.000000 0.000000 0.000000 -60.708740 0.000000 55.000000 0.691803 -0.653101 0.308006
-9710.00000000 15110.00000000 -750.00000000 58 249 102 0.000000 0.000000 0.000000 0.000000 -60.708740 0.000000 55.000000 0.863380 -0.406387 0.299039
-9720.00000000 15110.00000000 -770.00000000 58 249 102 0.000000 0.000000 0.000000 0.000000 -60.708740 0.000000 55.000000 0.831764 -0.544348 0.108870
-9730.00000000 15110.00000000 -740.00000000 58 249 102 0.000000 0.000000 0.000000 0.000000 -60.708740 0.000000 55.000000 -0.656452 0.475130 -0.585938
-9740.00000000 15120.00000000 -730.00000000 58 249 102 0.000000 0.000000 0.000000 0.000000 -60.708740 0.000000 55.000000 0.659894 -0.650020 0.376847
-9770.00000000 15110.00000000 -700.00000000 58 249 102 0.000000 0.000000 0.000000 0.000000 -60.708740 0.000000 55.000000 0.909245 -0.206057 0.361681
-9770.00000000 15100.00000000 -700.00000000 58 249 102 0.000000 0.000000 0.000000 0.000000 -60.708740 0.000000 55.000000 0.733811 -0.482029 0.478716
-9740.00000000 15100.00000000 -770.00000000 58 249 102 0.000000 0.000000 0.000000 0.000000 -60.708740 0.000000 55.000000 0.973141 -0.101447 0.206652
-9740.00000000 15090.00000000 -770.00000000 58 249 102 0.000000 0.000000 0.000000 0.000000 -60.708740 0.000000 55.000000 0.733606 -0.539077 0.413787
-9770.00000000 15070.00000000 -740.00000000 58 249 102 0.000000 0.000000 0.000000 0.000000 -60.708740 0.000000 55.000000 -0.315255 0.907641 -0.277131
-9730.00000000 15090.00000000 -790.00000000 58 249 102 0.000000 0.000000 0.000000 0.000000 -60.708740 0.000000 55.000000 -0.637370 0.689533 -0.343952
-9730.00000000 15100.00000000 -800.00000000 58 249 102 0.000000 0.000000 0.000000 0.000000 -60.708740 0.000000 55.000000 0.595026 -0.628739 0.500631
-9700.00000000 15100.00000000 -820.00000000 58 249 102 0.000000 0.000000 0.000000 0.000000 -60.708740 0.000000 55.000000 0.608035 -0.350476 0.712362
-9720.00000000 15090.00000000 -780.00000000 58 249 102 0.000000 0.000000 0.000000 0.000000 -60.708740 0.000000 55.000000 0.818841 -0.424525 0.386366
-9710.00000000 15100.00000000 -820.00000000 58 249 102 0.000000 0.000000 0.000000 0.000000 -60.708740 0.000000 55.000000 0.697884 -0.602193 0.387713
-9710.00000000 15110.00000000 -800.00000000 58 249 102 0.000000 0.000000 0.000000 0.000000 -60.708740 0.000000 55.000000 0.730941 -0.553544 0.399143
-9730.00000000 15110.00000000 -830.00000000 58 249 102 0.000000 0.000000 0.000000 0.000000 -60.708740 0.000000 55.000000 0.870706 -0.271054 0.410367
-9730.00000000 15050.00000000 -860.00000000 58 249 102 0.000000 0.000000 0.000000 0.000000 -60.708740 0.000000 55.000000 -0.244714 0.708880 -0.661516
-9710.00000000 15060.00000000 -840.00000000 58 249 102 0.000000 0.000000 0.000000 0.000000 -60.708740 0.000000 55.000000 0.737256 -0.670100 0.086135
-9740.00000000 15090.00000000 -790.00000000 58 249 102 0.000000 0.000000 0.000000 0.000000 -60.708740 0.000000 55.000000 -0.689915 0.713757 -0.120698
-9740.00000000 15080.00000000 -780.00000000 58 249 102 0.000000 0.000000 0.000000 0.000000 -60.708740 0.000000 55.000000 0.703126 -0.665205 0.251229
-9740.00000000 15070.00000000 -860.00000000 58 249 102 0.000000 0.000000 0.000000 0.000000 -60.708740 0.000000 55.000000 -0.309747 0.819179 -0.482703
-9760.00000000 15070.00000000 -840.00000000 58 249 102 0.000000 0.000000 0.000000 0.000000 -60.708740 0.000000 55.000000 -0.495620 0.845114 -0.200357
-9760.00000000 15040.00000000 -830.00000000 58 249 102 0.000000 0.000000 0.000000 0.000000 -60.708740 0.000000 55.000000 -0.292252 0.823619 -0.486045
-9750.00000000 15040.00000000 -860.00000000 58 249 102 0.000000 0.000000 0.000000 0.000000 -60.708740 0.000000 55.000000 -0.570424 0.788025 -0.231589
-9680.00000000 15100.00000000 -900.00000000 58 249 102 0.000000 0.000000 0.000000 0.000000 -60.708740 0.000000 55.000000 0.799991 -0.536980 0.267707
-9680.00000000 15100.00000000 -900.00000000 58 249 102 0.000000 0.000000 0.000000 0.000000 -60.708740 0.000000 55.000000 0.799991 -0.536980 0.267707
-9670.00000000 15090.00000000 -920.00000000 58 249 102 0.000000 0.000000 0.000000 0.000000 -60.708740 0.000000 55.000000 0.836126 -0.139599 0.530477
-9660.00000000 15110.00000000 -930.00000000 58 249 102 0.000000 0.000000 0.000000 0.000000 -60.708740 0.000000 55.000000 0.815036 -0.087995 0.572689
-9650.00000000 15120.00000000 -940.00000000 58 249 102 0.000000 0.000000 0.000000 0.000000 -60.708740 0.000000 55.000000 0.769917 0.442989 0.459335
-9660.00000000 15120.00000000 -910.00000000 58 249 102 0.000000 0.000000 0.000000 0.000000 -60.708740 0.000000 55.000000 0.979557 -0.134643 0.149466
-9670.00000000 15060.00000000 -880.00000000 58 249 102 0.000000 0.000000 0.000000 0.000000 -60.708740 0.000000 55.000000 0.728442 -0.554142 0.402863
-9660.00000000 15060.00000000 -940.00000000 58 249 102 0.000000 0.000000 0.000000 0.000000 -60.708740 0.000000 55.000000 0.732298 -0.575726 0.363702
-9670.00000000 15070.00000000 -930.00000000 58 249 102 0.000000 0.000000 0.000000 0.000000 -60.708740 0.000000 55.000000 0.729586 -0.346106 0.589843
-9690.00000000 15050.00000000 -930.00000000 58 249 102 0.000000 0.000000 0.000000 0.000000 -60.708740 0.000000 55.000000 0.727977 -0.374622 0.574202
-9680.00000000 15070.00000000 -920.00000000 58 249 102 0.000000 0.000000 0.000000 0.000000 -60.708740 0.000000 55.000000 0.771047 -0.467844 0.431982
-9660.00000000 15060.00000000 -940.00000000 58 249 102 0.000000 0.000000 0.000000 0.000000 -60.708740 0.000000 55.000000 0.732298 -0.575726 0.363702
-9670.00000000 15060.00000000 -930.00000000 58 249 102 0.000000 0.000000 0.000000 0.000000 -60.708740 0.000000 55.000000 0.776970 -0.526023 0.345856
-9680.00000000 15060.00000000 -940.00000000 58 249 102 0.000000 0.000000 0.000000 0.000000 -60.708740 0.000000 55.000000 0.593948 -0.549952 0.587179
-9630.00000000 15090.00000000 -980.00000000 58 249 102 0.000000 0.000000 0.000000 0.000000 -60.708740 0.000000 55.000000 0.906686 0.350740 0.234312
-9630.00000000 15100.00000000 -980.00000000 58 249 102 0.000000 0.000000 0.000000 0.000000 -60.708740 0.000000 55.000000 0.889219 0.222673 0.399632
-9640.00000000 15100.00000000 -1010.00000000 58 249 102 0.000000 0.000000 0.000000 0.000000 -60.708740 0.000000 55.000000 0.983451 -0.176998 0.038682
