//X Y Z R G B PointSourceId ScanDirectionFlag NumberOfReturns ReturnNumber GpsTime Intensity Classification Nx Ny Nz
16390.00000000 1710.00000000 -880.00000000 1 137 186 0.000000 0.000000 0.000000 0.000000 -60.708740 0.000000 45.000000 0.876321 -0.391998 -0.279999
16380.00000000 1680.00000000 -890.00000000 1 137 186 0.000000 0.000000 0.000000 0.000000 -60.708740 0.000000 45.000000 0.822682 -0.309882 -0.476621
16330.00000000 1810.00000000 -930.00000000 1 137 186 0.000000 0.000000 0.000000 0.000000 -60.708740 0.000000 45.000000 0.971324 -0.214872 -0.101782
16330.00000000 1810.00000000 -930.00000000 1 137 186 0.000000 0.000000 0.000000 0.000000 -60.708740 0.000000 45.000000 0.971324 -0.214872 -0.101782
16290.00000000 1770.00000000 -980.00000000 1 137 186 0.000000 0.000000 0.000000 0.000000 -60.708740 0.000000 45.000000 0.868170 -0.490705 -0.074095
16260.00000000 1740.00000000 -980.00000000 1 137 186 0.000000 0.000000 0.000000 0.000000 -60.708740 0.000000 45.000000 0.940223 0.024174 -0.339702
16320.00000000 1700.00000000 -870.00000000 1 137 186 0.000000 0.000000 0.000000 0.000000 -60.708740 0.000000 45.000000 -0.462921 0.376423 0.802502
16310.00000000 1730.00000000 -890.00000000 1 137 186 0.000000 0.000000 0.000000 0.000000 -60.708740 0.000000 45.000000 -0.595662 0.468140 0.652711
16290.00000000 1720.00000000 -880.00000000 1 137 186 0.000000 0.000000 0.000000 0.000000 -60.708740 0.000000 45.000000 0.699823 -0.269408 -0.661564
16290.00000000 1720.00000000 -920.00000000 1 137 186 0.000000 0.000000 0.000000 0.000000 -60.708740 0.000000 45.000000 0.908854 -0.041372 -0.415057
16280.00000000 1710.00000000 -900.00000000 1 137 186 0.000000 0.000000 0.000000 0.000000 -60.708740 0.000000 45.000000 0.897306 -0.264609 -0.353305
16280.00000000 1720.00000000 -930.00000000 1 137 186 0.000000 0.000000 0.000000 0.000000 -60.708740 0.000000 45.000000 -0.621816 0.350894 0.700155
16280.00000000 1690.00000000 -910.00000000 1 137 186 0.000000 0.000000 0.000000 0.000000 -60.708740 0.000000 45.000000 0.908469 -0.370010 -0.194363
16250.00000000 1730.00000000 -980.00000000 1 137 186 0.000000 0.000000 0.000000 0.000000 -60.708740 0.000000 45.000000 0.891443 -0.279229 -0.356876
16250.00000000 1730.00000000 -990.00000000 1 137 186 0.000000 0.000000 0.000000 0.000000 -60.708740 0.000000 45.000000 0.895018 -0.395677 -0.205869
16420.00000000 1580.00000000 -770.00000000 1 137 186 0.000000 0.000000 0.000000 0.000000 -60.708740 0.000000 45.000000 -0.471274 0.481196 0.739156
16460.00000000 1590.00000000 -720.00000000 1 137 186 0.000000 0.000000 0.000000 0.000000 -60.708740 0.000000 45.000000 0.740763 -0.123709 -0.660278
16470.00000000 1540.00000000 -700.00000000 1 137 186 0.000000 0.000000 0.000000 0.000000 -60.708740 0.000000 45.000000 -0.582373 0.091041 0.807808
16460.00000000 1540.00000000 -700.00000000 1 137 186 0.000000 0.000000 0.000000 0.000000 -60.708740 0.000000 45.000000 -0.137052 0.236252 0.961978
16440.00000000 1530.00000000 -710.00000000 1 137 186 0.000000 0.000000 0.000000 0.000000 -60.708740 0.000000 45.000000 -0.617093 -0.110458 0.779099
16440.00000000 1530.00000000 -730.00000000 1 137 186 0.000000 0.000000 0.000000 0.000000 -60.708740 0.000000 45.000000 -0.116840 0.133704 0.984110
16430.00000000 1530.00000000 -710.00000000 1 137 186 0.000000 0.000000 0.000000 0.000000 -60.708740 0.000000 45.000000 -0.043627 0.272978 0.961031
16440.00000000 1530.00000000 -710.00000000 1 137 186 0.000000 0.000000 0.000000 0.000000 -60.708740 0.000000 45.000000 -0.617093 -0.110458 0.779099
16440.00000000 1560.00000000 -740.00000000 1 137 186 0.000000 0.000000 0.000000 0.000000 -60.708740 0.000000 45.000000 -0.415463 0.278497 0.865927
16410.00000000 1610.00000000 -780.00000000 1 137 186 0.000000 0.000000 0.000000 0.000000 -60.708740 0.000000 45.000000 0.762737 -0.322758 -0.560411
16370.00000000 1570.00000000 -820.00000000 1 137 186 0.000000 0.000000 0.000000 0.000000 -60.708740 0.000000 45.000000 -0.517223 0.356095 0.778252
16410.00000000 1530.00000000 -730.00000000 1 137 186 0.000000 0.000000 0.000000 0.000000 -60.708740 0.000000 45.000000 -0.392082 -0.173780 0.903367
16380.00000000 1550.00000000 -740.00000000 1 137 186 0.000000 0.000000 0.000000 0.000000 -60.708740 0.000000 45.000000 0.778161 -0.194924 -0.597051
16440.00000000 1650.00000000 -940.00000000 1 137 186 0.000000 0.000000 0.000000 0.000000 -60.708740 0.000000 45.000000 0.801454 -0.527479 -0.281847
16430.00000000 1610.00000000 -990.00000000 1 137 186 0.000000 0.000000 0.000000 0.000000 -60.708740 0.000000 45.000000 0.812652 -0.400738 -0.423090
16400.00000000 1640.00000000 -920.00000000 1 137 186 0.000000 0.000000 0.000000 0.000000 -60.708740 0.000000 45.000000 0.725070 -0.237496 -0.646429
16400.00000000 1590.00000000 -1000.00000000 1 137 186 0.000000 0.000000 0.000000 0.000000 -60.708740 0.000000 45.000000 0.803817 -0.295312 -0.516401
16370.00000000 1610.00000000 -1010.00000000 1 137 186 0.000000 0.000000 0.000000 0.000000 -60.708740 0.000000 45.000000 0.596657 -0.456267 -0.660167
16370.00000000 1570.00000000 -980.00000000 1 137 186 0.000000 0.000000 0.000000 0.000000 -60.708740 0.000000 45.000000 0.759648 -0.574134 -0.305458
16350.00000000 1600.00000000 -950.00000000 1 137 186 0.000000 0.000000 0.000000 0.000000 -60.708740 0.000000 45.000000 -0.745082 0.576994 0.334560
16370.00000000 1580.00000000 -990.00000000 1 137 186 0.000000 0.000000 0.000000 0.000000 -60.708740 0.000000 45.000000 0.954271 -0.156153 -0.254917
16370.00000000 1580.00000000 -1010.00000000 1 137 186 0.000000 0.000000 0.000000 0.000000 -60.708740 0.000000 45.000000 0.825772 -0.507811 -0.245416
16370.00000000 1560.00000000 -960.00000000 1 137 186 0.000000 0.000000 0.000000 0.000000 -60.708740 0.000000 45.000000 -0.686992 0.058803 0.724282
16320.00000000 1570.00000000 -840.00000000 1 137 186 0.000000 0.000000 0.000000 0.000000 -60.708740 0.000000 45.000000 0.758814 -0.457255 -0.463810
16290.00000000 1560.00000000 -840.00000000 1 137 186 0.000000 0.000000 0.000000 0.000000 -60.708740 0.000000 45.000000 -0.599504 0.485313 0.636448
16310.00000000 1580.00000000 -890.00000000 1 137 186 0.000000 0.000000 0.000000 0.000000 -60.708740 0.000000 45.000000 -0.699100 0.498880 0.512228
16310.00000000 1580.00000000 -890.00000000 1 137 186 0.000000 0.000000 0.000000 0.000000 -60.708740 0.000000 45.000000 -0.699100 0.498880 0.512228
16260.00000000 1610.00000000 -890.00000000 1 137 186 0.000000 0.000000 0.000000 0.000000 -60.708740 0.000000 45.000000 0.959073 -0.011024 -0.282945
16310.00000000 1540.00000000 -900.00000000 1 137 186 0.000000 0.000000 0.000000 0.000000 -60.708740 0.000000 45.000000 -0.555575 0.220075 0.801813
16320.00000000 1550.00000000 -890.00000000 1 137 186 0.000000 0.000000 0.000000 0.000000 -60.708740 0.000000 45.000000 -0.674905 -0.083088 0.733212
16300.00000000 1530.00000000 -900.00000000 1 137 186 0.000000 0.000000 0.000000 0.000000 -60.708740 0.000000 45.000000 -0.696392 0.308610 0.647919
16310.00000000 1560.00000000 -930.00000000 1 137 186 0.000000 0.000000 0.000000 0.000000 -60.708740 0.000000 45.000000 0.883088 -0.368580 -0.290351
16300.00000000 1530.00000000 -910.00000000 1 137 186 0.000000 0.000000 0.000000 0.000000 -60.708740 0.000000 45.000000 0.940089 -0.134298 -0.313363
16240.00000000 1540.00000000 -900.00000000 1 137 186 0.000000 0.000000 0.000000 0.000000 -60.708740 0.000000 45.000000 0.768462 -0.029502 -0.639215
16330.00000000 1460.00000000 -910.00000000 1 137 186 0.000000 0.000000 0.000000 0.000000 -60.708740 0.000000 45.000000 0.509651 -0.546656 -0.664397
17370.00000000 3190.00000000 -860.00000000 1 137 186 0.000000 0.000000 0.000000 0.000000 -60.708740 0.000000 45.000000 0.813021 -0.532243 0.236038
17450.00000000 3280.00000000 -880.00000000 1 137 186 0.000000 0.000000 0.000000 0.000000 -60.708740 0.000000 45.000000 -0.621334 0.116592 0.774823
17450.00000000 3220.00000000 -940.00000000 1 137 186 0.000000 0.000000 0.000000 0.000000 -60.708740 0.000000 45.000000 -0.029665 0.017390 0.999409
17370.00000000 3210.00000000 -930.00000000 1 137 186 0.000000 0.000000 0.000000 0.000000 -60.708740 0.000000 45.000000 0.216847 -0.096516 0.971423
17370.00000000 3160.00000000 -980.00000000 1 137 186 0.000000 0.000000 0.000000 0.000000 -60.708740 0.000000 45.000000 0.295146 -0.156414 0.942562
17350.00000000 3090.00000000 -880.00000000 1 137 186 0.000000 0.000000 0.000000 0.000000 -60.708740 0.000000 45.000000 0.363930 -0.093350 0.926737
17310.00000000 3020.00000000 -840.00000000 1 137 186 0.000000 0.000000 0.000000 0.000000 -60.708740 0.000000 45.000000 -0.045505 -0.247201 0.967895
17260.00000000 3010.00000000 -860.00000000 1 137 186 0.000000 0.000000 0.000000 0.000000 -60.708740 0.000000 45.000000 0.756259 -0.257349 -0.601534
17320.00000000 3160.00000000 -910.00000000 1 137 186 0.000000 0.000000 0.000000 0.000000 -60.708740 0.000000 45.000000 0.809922 -0.384992 0.442502
17320.00000000 3120.00000000 -960.00000000 1 137 186 0.000000 0.000000 0.000000 0.000000 -60.708740 0.000000 45.000000 0.322619 -0.467405 0.823073
17340.00000000 3080.00000000 -880.00000000 1 137 186 0.000000 0.000000 0.000000 0.000000 -60.708740 0.000000 45.000000 0.609135 -0.040797 0.792016
17330.00000000 3060.00000000 -920.00000000 1 137 186 0.000000 0.000000 0.000000 0.000000 -60.708740 0.000000 45.000000 0.183674 -0.494277 0.849679
17280.00000000 3060.00000000 -880.00000000 1 137 186 0.000000 0.000000 0.000000 0.000000 -60.708740 0.000000 45.000000 0.884664 -0.258963 0.387695
17280.00000000 3050.00000000 -900.00000000 1 137 186 0.000000 0.000000 0.000000 0.000000 -60.708740 0.000000 45.000000 0.710738 -0.673576 0.202847
17280.00000000 3010.00000000 -880.00000000 1 137 186 0.000000 0.000000 0.000000 0.000000 -60.708740 0.000000 45.000000 0.701507 -0.704461 0.107811
17280.00000000 3010.00000000 -880.00000000 1 137 186 0.000000 0.000000 0.000000 0.000000 -60.708740 0.000000 45.000000 0.701507 -0.704461 0.107811
17520.00000000 2890.00000000 -520.00000000 1 137 186 0.000000 0.000000 0.000000 0.000000 -60.708740 0.000000 45.000000 0.576932 -0.174140 0.798013
17600.00000000 2860.00000000 -620.00000000 1 137 186 0.000000 0.000000 0.000000 0.000000 -60.708740 0.000000 45.000000 0.678458 -0.018185 0.734414
17540.00000000 2870.00000000 -660.00000000 1 137 186 0.000000 0.000000 0.000000 0.000000 -60.708740 0.000000 45.000000 0.567418 -0.411916 0.712995
17510.00000000 2870.00000000 -620.00000000 1 137 186 0.000000 0.000000 0.000000 0.000000 -60.708740 0.000000 45.000000 0.349140 -0.110040 0.930587
17480.00000000 2820.00000000 -540.00000000 1 137 186 0.000000 0.000000 0.000000 0.000000 -60.708740 0.000000 45.000000 0.531499 -0.474850 0.701446
17490.00000000 2820.00000000 -550.00000000 1 137 186 0.000000 0.000000 0.000000 0.000000 -60.708740 0.000000 45.000000 0.623450 -0.532214 0.572763
17470.00000000 2810.00000000 -540.00000000 1 137 186 0.000000 0.000000 0.000000 0.000000 -60.708740 0.000000 45.000000 0.735696 -0.419692 0.531610
17470.00000000 2810.00000000 -620.00000000 1 137 186 0.000000 0.000000 0.000000 0.000000 -60.708740 0.000000 45.000000 0.697419 -0.506758 0.506758
17470.00000000 2710.00000000 -630.00000000 1 137 186 0.000000 0.000000 0.000000 0.000000 -60.708740 0.000000 45.000000 0.651004 -0.107763 0.751386
17490.00000000 2690.00000000 -660.00000000 1 137 186 0.000000 0.000000 0.000000 0.000000 -60.708740 0.000000 45.000000 0.788213 -0.544957 0.285905
17480.00000000 2650.00000000 -690.00000000 1 137 186 0.000000 0.000000 0.000000 0.000000 -60.708740 0.000000 45.000000 -0.568125 0.484330 -0.665326
17680.00000000 2870.00000000 -770.00000000 1 137 186 0.000000 0.000000 0.000000 0.000000 -60.708740 0.000000 45.000000 -0.599709 0.714095 -0.361133
17550.00000000 2690.00000000 -740.00000000 1 137 186 0.000000 0.000000 0.000000 0.000000 -60.708740 0.000000 45.000000 0.603913 -0.634192 0.482794
17560.00000000 2710.00000000 -730.00000000 1 137 186 0.000000 0.000000 0.000000 0.000000 -60.708740 0.000000 45.000000 -0.591778 0.756778 -0.277644
17470.00000000 2810.00000000 -730.00000000 1 137 186 0.000000 0.000000 0.000000 0.000000 -60.708740 0.000000 45.000000 0.565420 -0.214151 0.796517
17480.00000000 2680.00000000 -700.00000000 1 137 186 0.000000 0.000000 0.000000 0.000000 -60.708740 0.000000 45.000000 0.651029 -0.526543 0.546730
17420.00000000 2750.00000000 -790.00000000 1 137 186 0.000000 0.000000 0.000000 0.000000 -60.708740 0.000000 45.000000 0.631250 -0.247148 0.735147
17420.00000000 2750.00000000 -810.00000000 1 137 186 0.000000 0.000000 0.000000 0.000000 -60.708740 0.000000 45.000000 -0.580942 0.712600 -0.393329
17350.00000000 2720.00000000 -710.00000000 1 137 186 0.000000 0.000000 0.000000 0.000000 -60.708740 0.000000 45.000000 0.362371 -0.275879 0.890269
17290.00000000 2990.00000000 -850.00000000 1 137 186 0.000000 0.000000 0.000000 0.000000 -60.708740 0.000000 45.000000 -0.399581 0.269906 0.876063
17240.00000000 2960.00000000 -850.00000000 1 137 186 0.000000 0.000000 0.000000 0.000000 -60.708740 0.000000 45.000000 0.805085 -0.422629 -0.416201
17230.00000000 2920.00000000 -860.00000000 1 137 186 0.000000 0.000000 0.000000 0.000000 -60.708740 0.000000 45.000000 -0.454392 0.470796 0.756227
17240.00000000 2920.00000000 -850.00000000 1 137 186 0.000000 0.000000 0.000000 0.000000 -60.708740 0.000000 45.000000 -0.414354 0.159146 0.896093
17190.00000000 2890.00000000 -840.00000000 1 137 186 0.000000 0.000000 0.000000 0.000000 -60.708740 0.000000 45.000000 -0.534822 -0.159404 0.829793
17190.00000000 2860.00000000 -860.00000000 1 137 186 0.000000 0.000000 0.000000 0.000000 -60.708740 0.000000 45.000000 0.618894 -0.384539 -0.684909
17200.00000000 2850.00000000 -860.00000000 1 137 186 0.000000 0.000000 0.000000 0.000000 -60.708740 0.000000 45.000000 -0.630146 -0.209017 0.747815
17200.00000000 2860.00000000 -850.00000000 1 137 186 0.000000 0.000000 0.000000 0.000000 -60.708740 0.000000 45.000000 0.780067 0.067520 -0.622042
17200.00000000 2860.00000000 -850.00000000 1 137 186 0.000000 0.000000 0.000000 0.000000 -60.708740 0.000000 45.000000 0.780067 0.067520 -0.622042
17290.00000000 2970.00000000 -870.00000000 1 137 186 0.000000 0.000000 0.000000 0.000000 -60.708740 0.000000 45.000000 -0.425633 -0.387374 0.817789
17190.00000000 2910.00000000 -870.00000000 1 137 186 0.000000 0.000000 0.000000 0.000000 -60.708740 0.000000 45.000000 0.699747 -0.532743 -0.475961
17190.00000000 2890.00000000 -900.00000000 1 137 186 0.000000 0.000000 0.000000 0.000000 -60.708740 0.000000 45.000000 0.746921 -0.628904 0.215846
17180.00000000 2890.00000000 -910.00000000 1 137 186 0.000000 0.000000 0.000000 0.000000 -60.708740 0.000000 45.000000 0.937483 -0.347919 -0.008856
17200.00000000 2910.00000000 -930.00000000 1 137 186 0.000000 0.000000 0.000000 0.000000 -60.708740 0.000000 45.000000 0.764672 -0.530887 0.365289
17310.00000000 2670.00000000 -700.00000000 1 137 186 0.000000 0.000000 0.000000 0.000000 -60.708740 0.000000 45.000000 0.241095 0.015593 0.970376
17180.00000000 2790.00000000 -850.00000000 1 137 186 0.000000 0.000000 0.000000 0.000000 -60.708740 0.000000 45.000000 -0.144199 -0.190138 0.971110
17180.00000000 2790.00000000 -850.00000000 1 137 186 0.000000 0.000000 0.000000 0.000000 -60.708740 0.000000 45.000000 -0.144199 -0.190138 0.971110
17490.00000000 2650.00000000 -790.00000000 1 137 186 0.000000 0.000000 0.000000 0.000000 -60.708740 0.000000 45.000000 0.758260 -0.586579 0.284546
17390.00000000 2620.00000000 -730.00000000 1 137 186 0.000000 0.000000 0.000000 0.000000 -60.708740 0.000000 45.000000 0.384543 -0.264841 0.884300
17330.00000000 2650.00000000 -730.00000000 1 137 186 0.000000 0.000000 0.000000 0.000000 -60.708740 0.000000 45.000000 -0.609510 0.602756 -0.514960
17320.00000000 2590.00000000 -760.00000000 1 137 186 0.000000 0.000000 0.000000 0.000000 -60.708740 0.000000 45.000000 0.436218 -0.363251 0.823263
17270.00000000 2630.00000000 -740.00000000 1 137 186 0.000000 0.000000 0.000000 0.000000 -60.708740 0.000000 45.000000 0.400425 -0.054908 0.914683
17290.00000000 2600.00000000 -760.00000000 1 137 186 0.000000 0.000000 0.000000 0.000000 -60.708740 0.000000 45.000000 0.450334 -0.117911 0.885040
17270.00000000 2560.00000000 -770.00000000 1 137 186 0.000000 0.000000 0.000000 0.000000 -60.708740 0.000000 45.000000 0.566174 -0.653536 0.502332
17270.00000000 2550.00000000 -770.00000000 1 137 186 0.000000 0.000000 0.000000 0.000000 -60.708740 0.000000 45.000000 0.494408 -0.467951 0.732518
17300.00000000 2520.00000000 -790.00000000 1 137 186 0.000000 0.000000 0.000000 0.000000 -60.708740 0.000000 45.000000 0.816462 -0.361280 0.450407
17240.00000000 2520.00000000 -800.00000000 1 137 186 0.000000 0.000000 0.000000 0.000000 -60.708740 0.000000 45.000000 0.439285 -0.359992 0.823064
17140.00000000 2850.00000000 -870.00000000 1 137 186 0.000000 0.000000 0.000000 0.000000 -60.708740 0.000000 45.000000 0.917284 -0.380472 -0.117601
17130.00000000 2750.00000000 -860.00000000 1 137 186 0.000000 0.000000 0.000000 0.000000 -60.708740 0.000000 45.000000 -0.601999 0.222444 0.766887
17140.00000000 2720.00000000 -860.00000000 1 137 186 0.000000 0.000000 0.000000 0.000000 -60.708740 0.000000 45.000000 -0.500333 -0.116792 0.857920
17150.00000000 2750.00000000 -850.00000000 1 137 186 0.000000 0.000000 0.000000 0.000000 -60.708740 0.000000 45.000000 -0.460257 0.165108 0.872297
17140.00000000 2760.00000000 -860.00000000 1 137 186 0.000000 0.000000 0.000000 0.000000 -60.708740 0.000000 45.000000 0.756703 -0.015329 -0.653579
17070.00000000 2720.00000000 -860.00000000 1 137 186 0.000000 0.000000 0.000000 0.000000 -60.708740 0.000000 45.000000 0.852148 -0.135470 -0.505462
17140.00000000 2820.00000000 -890.00000000 1 137 186 0.000000 0.000000 0.000000 0.000000 -60.708740 0.000000 45.000000 0.920623 -0.380994 -0.085419
17140.00000000 2820.00000000 -890.00000000 1 137 186 0.000000 0.000000 0.000000 0.000000 -60.708740 0.000000 45.000000 0.920623 -0.380994 -0.085419
17140.00000000 2770.00000000 -870.00000000 1 137 186 0.000000 0.000000 0.000000 0.000000 -60.708740 0.000000 45.000000 0.891337 -0.141641 -0.430646
17140.00000000 2780.00000000 -870.00000000 1 137 186 0.000000 0.000000 0.000000 0.000000 -60.708740 0.000000 45.000000 0.933551 -0.064702 -0.352557
17130.00000000 2820.00000000 -920.00000000 1 137 186 0.000000 0.000000 0.000000 0.000000 -60.708740 0.000000 45.000000 0.793230 -0.607909 0.035099
17110.00000000 2770.00000000 -870.00000000 1 137 186 0.000000 0.000000 0.000000 0.000000 -60.708740 0.000000 45.000000 0.678253 -0.470590 -0.564374
17140.00000000 2680.00000000 -910.00000000 1 137 186 0.000000 0.000000 0.000000 0.000000 -60.708740 0.000000 45.000000 0.678901 -0.287289 -0.675691
17070.00000000 2740.00000000 -910.00000000 1 137 186 0.000000 0.000000 0.000000 0.000000 -60.708740 0.000000 45.000000 0.688193 -0.578215 -0.438244
17060.00000000 2730.00000000 -920.00000000 1 137 186 0.000000 0.000000 0.000000 0.000000 -60.708740 0.000000 45.000000 0.840538 -0.352181 -0.411660
17060.00000000 2740.00000000 -940.00000000 1 137 186 0.000000 0.000000 0.000000 0.000000 -60.708740 0.000000 45.000000 0.820486 -0.498543 -0.279747
17040.00000000 2690.00000000 -910.00000000 1 137 186 0.000000 0.000000 0.000000 0.000000 -60.708740 0.000000 45.000000 0.897119 -0.439817 -0.041695
17080.00000000 2690.00000000 -950.00000000 1 137 186 0.000000 0.000000 0.000000 0.000000 -60.708740 0.000000 45.000000 0.752879 -0.527505 0.393588
17160.00000000 2600.00000000 -790.00000000 1 137 186 0.000000 0.000000 0.000000 0.000000 -60.708740 0.000000 45.000000 0.150915 0.176279 0.972703
17100.00000000 2590.00000000 -820.00000000 1 137 186 0.000000 0.000000 0.000000 0.000000 -60.708740 0.000000 45.000000 -0.357229 0.061955 0.931960
17130.00000000 2580.00000000 -820.00000000 1 137 186 0.000000 0.000000 0.000000 0.000000 -60.708740 0.000000 45.000000 -0.142971 0.019138 0.989542
17110.00000000 2540.00000000 -800.00000000 1 137 186 0.000000 0.000000 0.000000 0.000000 -60.708740 0.000000 45.000000 -0.355159 -0.235311 0.904705
17080.00000000 2620.00000000 -850.00000000 1 137 186 0.000000 0.000000 0.000000 0.000000 -60.708740 0.000000 45.000000 -0.322228 -0.298470 0.898379
17040.00000000 2590.00000000 -860.00000000 1 137 186 0.000000 0.000000 0.000000 0.000000 -60.708740 0.000000 45.000000 -0.546042 0.562948 0.620426
17070.00000000 2570.00000000 -830.00000000 1 137 186 0.000000 0.000000 0.000000 0.000000 -60.708740 0.000000 45.000000 -0.273749 0.397768 0.875695
17040.00000000 2540.00000000 -820.00000000 1 137 186 0.000000 0.000000 0.000000 0.000000 -60.708740 0.000000 45.000000 -0.484294 -0.335036 0.808214
17020.00000000 2540.00000000 -830.00000000 1 137 186 0.000000 0.000000 0.000000 0.000000 -60.708740 0.000000 45.000000 -0.319374 0.164526 0.933237
17050.00000000 2540.00000000 -820.00000000 1 137 186 0.000000 0.000000 0.000000 0.000000 -60.708740 0.000000 45.000000 -0.422898 0.084028 0.902273
17020.00000000 2560.00000000 -850.00000000 1 137 186 0.000000 0.000000 0.000000 0.000000 -60.708740 0.000000 45.000000 -0.455226 0.478234 0.751041
17050.00000000 2560.00000000 -810.00000000 1 137 186 0.000000 0.000000 0.000000 0.000000 -60.708740 0.000000 45.000000 0.673062 -0.067739 -0.736477
17030.00000000 2550.00000000 -820.00000000 1 137 186 0.000000 0.000000 0.000000 0.000000 -60.708740 0.000000 45.000000 -0.570904 0.112429 0.813283
17020.00000000 2640.00000000 -880.00000000 1 137 186 0.000000 0.000000 0.000000 0.000000 -60.708740 0.000000 45.000000 0.898149 -0.089953 -0.430392
17020.00000000 2620.00000000 -880.00000000 1 137 186 0.000000 0.000000 0.000000 0.000000 -60.708740 0.000000 45.000000 0.672543 -0.518244 -0.528307
17040.00000000 2660.00000000 -910.00000000 1 137 186 0.000000 0.000000 0.000000 0.000000 -60.708740 0.000000 45.000000 0.887245 -0.410517 -0.210408
17050.00000000 2630.00000000 -870.00000000 1 137 186 0.000000 0.000000 0.000000 0.000000 -60.708740 0.000000 45.000000 -0.579249 0.170901 0.797034
17050.00000000 2640.00000000 -870.00000000 1 137 186 0.000000 0.000000 0.000000 0.000000 -60.708740 0.000000 45.000000 0.537440 -0.530701 -0.655374
17030.00000000 2650.00000000 -890.00000000 1 137 186 0.000000 0.000000 0.000000 0.000000 -60.708740 0.000000 45.000000 0.954189 -0.081345 -0.287935
17040.00000000 2610.00000000 -960.00000000 1 137 186 0.000000 0.000000 0.000000 0.000000 -60.708740 0.000000 45.000000 0.849133 -0.525654 -0.051589
17170.00000000 2490.00000000 -800.00000000 1 137 186 0.000000 0.000000 0.000000 0.000000 -60.708740 0.000000 45.000000 0.507740 -0.034214 0.860831
17160.00000000 2480.00000000 -800.00000000 1 137 186 0.000000 0.000000 0.000000 0.000000 -60.708740 0.000000 45.000000 0.558424 -0.173096 0.811295
17160.00000000 2460.00000000 -840.00000000 1 137 186 0.000000 0.000000 0.000000 0.000000 -60.708740 0.000000 45.000000 0.258278 -0.667086 0.698777
17130.00000000 2450.00000000 -830.00000000 1 137 186 0.000000 0.000000 0.000000 0.000000 -60.708740 0.000000 45.000000 0.385389 -0.410764 0.826286
17030.00000000 2410.00000000 -830.00000000 1 137 186 0.000000 0.000000 0.000000 0.000000 -60.708740 0.000000 45.000000 -0.094535 -0.331539 0.938693
17010.00000000 2340.00000000 -850.00000000 1 137 186 0.000000 0.000000 0.000000 0.000000 -60.708740 0.000000 45.000000 0.267236 0.080554 0.960258
17150.00000000 2450.00000000 -900.00000000 1 137 186 0.000000 0.000000 0.000000 0.000000 -60.708740 0.000000 45.000000 -0.446699 0.746697 -0.492853
17070.00000000 2450.00000000 -870.00000000 1 137 186 0.000000 0.000000 0.000000 0.000000 -60.708740 0.000000 45.000000 0.283725 -0.269323 0.920307
16920.00000000 2500.00000000 -860.00000000 1 137 186 0.000000 0.000000 0.000000 0.000000 -60.708740 0.000000 45.000000 0.724220 -0.061911 -0.686785
16970.00000000 2590.00000000 -870.00000000 1 137 186 0.000000 0.000000 0.000000 0.000000 -60.708740 0.000000 45.000000 -0.678017 0.547436 0.490516
16970.00000000 2580.00000000 -880.00000000 1 137 186 0.000000 0.000000 0.000000 0.000000 -60.708740 0.000000 45.000000 0.684529 -0.203341 -0.700052
16990.00000000 2610.00000000 -870.00000000 1 137 186 0.000000 0.000000 0.000000 0.000000 -60.708740 0.000000 45.000000 0.741060 0.023815 -0.671016
16970.00000000 2600.00000000 -930.00000000 1 137 186 0.000000 0.000000 0.000000 0.000000 -60.708740 0.000000 45.000000 0.944997 -0.325992 -0.026638
16970.00000000 2580.00000000 -940.00000000 1 137 186 0.000000 0.000000 0.000000 0.000000 -60.708740 0.000000 45.000000 0.979093 -0.008130 -0.203252
16960.00000000 2610.00000000 -970.00000000 1 137 186 0.000000 0.000000 0.000000 0.000000 -60.708740 0.000000 45.000000 0.986467 -0.144965 -0.076607
17000.00000000 2630.00000000 -950.00000000 1 137 186 0.000000 0.000000 0.000000 0.000000 -60.708740 0.000000 45.000000 0.845101 -0.510613 0.158364
16960.00000000 2570.00000000 -900.00000000 1 137 186 0.000000 0.000000 0.000000 0.000000 -60.708740 0.000000 45.000000 0.863499 0.017567 -0.504045
16930.00000000 2530.00000000 -900.00000000 1 137 186 0.000000 0.000000 0.000000 0.000000 -60.708740 0.000000 45.000000 0.779429 -0.497474 -0.380802
16950.00000000 2520.00000000 -870.00000000 1 137 186 0.000000 0.000000 0.000000 0.000000 -60.708740 0.000000 45.000000 -0.658857 0.073850 0.748635
16940.00000000 2530.00000000 -930.00000000 1 137 186 0.000000 0.000000 0.000000 0.000000 -60.708740 0.000000 45.000000 0.994518 -0.104516 0.003232
16950.00000000 2550.00000000 -880.00000000 1 137 186 0.000000 0.000000 0.000000 0.000000 -60.708740 0.000000 45.000000 0.754291 -0.566930 -0.331113
16960.00000000 2540.00000000 -870.00000000 1 137 186 0.000000 0.000000 0.000000 0.000000 -60.708740 0.000000 45.000000 -0.610296 0.620384 0.492608
16930.00000000 2530.00000000 -960.00000000 1 137 186 0.000000 0.000000 0.000000 0.000000 -60.708740 0.000000 45.000000 0.919852 -0.370438 0.129029
16910.00000000 2510.00000000 -890.00000000 1 137 186 0.000000 0.000000 0.000000 0.000000 -60.708740 0.000000 45.000000 0.814701 -0.563341 -0.137509
16970.00000000 2350.00000000 -820.00000000 1 137 186 0.000000 0.000000 0.000000 0.000000 -60.708740 0.000000 45.000000 -0.318625 -0.257519 0.912229
16990.00000000 2330.00000000 -840.00000000 1 137 186 0.000000 0.000000 0.000000 0.000000 -60.708740 0.000000 45.000000 -0.438791 -0.186376 0.879049
16860.00000000 2430.00000000 -860.00000000 1 137 186 0.000000 0.000000 0.000000 0.000000 -60.708740 0.000000 45.000000 0.725631 -0.332784 -0.602258
16880.00000000 2390.00000000 -830.00000000 1 137 186 0.000000 0.000000 0.000000 0.000000 -60.708740 0.000000 45.000000 0.849417 -0.196250 -0.489875
16850.00000000 2390.00000000 -840.00000000 1 137 186 0.000000 0.000000 0.000000 0.000000 -60.708740 0.000000 45.000000 -0.586814 0.194583 0.785994
16920.00000000 2380.00000000 -790.00000000 1 137 186 0.000000 0.000000 0.000000 0.000000 -60.708740 0.000000 45.000000 -0.419223 0.328833 0.846239
16850.00000000 2400.00000000 -840.00000000 1 137 186 0.000000 0.000000 0.000000 0.000000 -60.708740 0.000000 45.000000 0.661982 -0.480984 -0.574835
16850.00000000 2400.00000000 -840.00000000 1 137 186 0.000000 0.000000 0.000000 0.000000 -60.708740 0.000000 45.000000 0.661982 -0.480984 -0.574835
16900.00000000 2370.00000000 -830.00000000 1 137 186 0.000000 0.000000 0.000000 0.000000 -60.708740 0.000000 45.000000 0.496673 -0.516740 -0.697349
16860.00000000 2440.00000000 -910.00000000 1 137 186 0.000000 0.000000 0.000000 0.000000 -60.708740 0.000000 45.000000 0.777566 -0.592063 -0.211782
16890.00000000 2470.00000000 -910.00000000 1 137 186 0.000000 0.000000 0.000000 0.000000 -60.708740 0.000000 45.000000 0.648148 -0.667839 -0.365917
16840.00000000 2430.00000000 -950.00000000 1 137 186 0.000000 0.000000 0.000000 0.000000 -60.708740 0.000000 45.000000 0.733035 -0.679774 0.023827
16890.00000000 2480.00000000 -950.00000000 1 137 186 0.000000 0.000000 0.000000 0.000000 -60.708740 0.000000 45.000000 -0.687961 0.722575 -0.067786
16860.00000000 2450.00000000 -970.00000000 1 137 186 0.000000 0.000000 0.000000 0.000000 -60.708740 0.000000 45.000000 -0.711322 0.693502 -0.114346
16800.00000000 2360.00000000 -860.00000000 1 137 186 0.000000 0.000000 0.000000 0.000000 -60.708740 0.000000 45.000000 0.874977 -0.308905 -0.372816
16790.00000000 2340.00000000 -860.00000000 1 137 186 0.000000 0.000000 0.000000 0.000000 -60.708740 0.000000 45.000000 0.654504 -0.651206 -0.384129
16800.00000000 2350.00000000 -860.00000000 1 137 186 0.000000 0.000000 0.000000 0.000000 -60.708740 0.000000 45.000000 -0.642493 0.625804 0.442235
16800.00000000 2350.00000000 -860.00000000 1 137 186 0.000000 0.000000 0.000000 0.000000 -60.708740 0.000000 45.000000 -0.642493 0.625804 0.442235
16790.00000000 2330.00000000 -850.00000000 1 137 186 0.000000 0.000000 0.000000 0.000000 -60.708740 0.000000 45.000000 0.536866 -0.431145 -0.725182
16810.00000000 2380.00000000 -850.00000000 1 137 186 0.000000 0.000000 0.000000 0.000000 -60.708740 0.000000 45.000000 0.824810 -0.506028 -0.252240
16780.00000000 2340.00000000 -860.00000000 1 137 186 0.000000 0.000000 0.000000 0.000000 -60.708740 0.000000 45.000000 -0.542965 0.583561 0.603859
16810.00000000 2330.00000000 -840.00000000 1 137 186 0.000000 0.000000 0.000000 0.000000 -60.708740 0.000000 45.000000 0.677541 -0.590975 -0.437821
16830.00000000 2410.00000000 -950.00000000 1 137 186 0.000000 0.000000 0.000000 0.000000 -60.708740 0.000000 45.000000 0.980892 -0.191939 0.031794
16810.00000000 2390.00000000 -900.00000000 1 137 186 0.000000 0.000000 0.000000 0.000000 -60.708740 0.000000 45.000000 0.913437 -0.406977 -0.001292
16800.00000000 2370.00000000 -870.00000000 1 137 186 0.000000 0.000000 0.000000 0.000000 -60.708740 0.000000 45.000000 0.836799 -0.428604 -0.340685
16760.00000000 2330.00000000 -920.00000000 1 137 186 0.000000 0.000000 0.000000 0.000000 -60.708740 0.000000 45.000000 0.827377 -0.560391 -0.037545
16790.00000000 2370.00000000 -900.00000000 1 137 186 0.000000 0.000000 0.000000 0.000000 -60.708740 0.000000 45.000000 0.842338 -0.518927 -0.145535
16800.00000000 2380.00000000 -870.00000000 1 137 186 0.000000 0.000000 0.000000 0.000000 -60.708740 0.000000 45.000000 0.946804 -0.189361 -0.260201
16750.00000000 2340.00000000 -880.00000000 1 137 186 0.000000 0.000000 0.000000 0.000000 -60.708740 0.000000 45.000000 -0.543830 0.421510 0.725658
16750.00000000 2340.00000000 -880.00000000 1 137 186 0.000000 0.000000 0.000000 0.000000 -60.708740 0.000000 45.000000 -0.543830 0.421510 0.725658
17020.00000000 2190.00000000 -860.00000000 1 137 186 0.000000 0.000000 0.000000 0.000000 -60.708740 0.000000 45.000000 0.183494 -0.262328 0.947372
16940.00000000 2300.00000000 -840.00000000 1 137 186 0.000000 0.000000 0.000000 0.000000 -60.708740 0.000000 45.000000 -0.392273 -0.148696 0.907751
16950.00000000 2320.00000000 -840.00000000 1 137 186 0.000000 0.000000 0.000000 0.000000 -60.708740 0.000000 45.000000 -0.084916 -0.082652 0.992954
16950.00000000 2160.00000000 -850.00000000 1 137 186 0.000000 0.000000 0.000000 0.000000 -60.708740 0.000000 45.000000 0.324862 -0.131848 0.936526
16970.00000000 2170.00000000 -860.00000000 1 137 186 0.000000 0.000000 0.000000 0.000000 -60.708740 0.000000 45.000000 0.521964 -0.232497 0.820669
16960.00000000 2170.00000000 -850.00000000 1 137 186 0.000000 0.000000 0.000000 0.000000 -60.708740 0.000000 45.000000 0.436821 -0.030724 0.899023
16920.00000000 2300.00000000 -820.00000000 1 137 186 0.000000 0.000000 0.000000 0.000000 -60.708740 0.000000 45.000000 -0.098447 -0.098447 0.990261
16890.00000000 2270.00000000 -840.00000000 1 137 186 0.000000 0.000000 0.000000 0.000000 -60.708740 0.000000 45.000000 -0.087153 -0.149235 0.984953
16840.00000000 2230.00000000 -820.00000000 1 137 186 0.000000 0.000000 0.000000 0.000000 -60.708740 0.000000 45.000000 -0.226891 0.156069 0.961334
16800.00000000 2320.00000000 -840.00000000 1 137 186 0.000000 0.000000 0.000000 0.000000 -60.708740 0.000000 45.000000 -0.430591 0.529577 0.730849
16780.00000000 2310.00000000 -850.00000000 1 137 186 0.000000 0.000000 0.000000 0.000000 -60.708740 0.000000 45.000000 -0.639283 0.635945 0.432309
16790.00000000 2270.00000000 -820.00000000 1 137 186 0.000000 0.000000 0.000000 0.000000 -60.708740 0.000000 45.000000 -0.646405 0.146157 0.748865
16790.00000000 2270.00000000 -830.00000000 1 137 186 0.000000 0.000000 0.000000 0.000000 -60.708740 0.000000 45.000000 -0.526389 -0.014962 0.850112
16800.00000000 2220.00000000 -820.00000000 1 137 186 0.000000 0.000000 0.000000 0.000000 -60.708740 0.000000 45.000000 -0.397337 -0.009060 0.917628
16760.00000000 2200.00000000 -830.00000000 1 137 186 0.000000 0.000000 0.000000 0.000000 -60.708740 0.000000 45.000000 0.697963 -0.301430 -0.649606
16740.00000000 2270.00000000 -850.00000000 1 137 186 0.000000 0.000000 0.000000 0.000000 -60.708740 0.000000 45.000000 -0.615174 0.457609 0.641993
16700.00000000 2210.00000000 -850.00000000 1 137 186 0.000000 0.000000 0.000000 0.000000 -60.708740 0.000000 45.000000 -0.680882 0.387427 0.621531
16730.00000000 2190.00000000 -820.00000000 1 137 186 0.000000 0.000000 0.000000 0.000000 -60.708740 0.000000 45.000000 -0.419470 0.001299 0.907768
16730.00000000 2210.00000000 -860.00000000 1 137 186 0.000000 0.000000 0.000000 0.000000 -60.708740 0.000000 45.000000 0.791573 -0.200573 -0.577220
16720.00000000 2320.00000000 -910.00000000 1 137 186 0.000000 0.000000 0.000000 0.000000 -60.708740 0.000000 45.000000 0.866965 -0.310395 -0.389905
16720.00000000 2230.00000000 -880.00000000 1 137 186 0.000000 0.000000 0.000000 0.000000 -60.708740 0.000000 45.000000 -0.575217 0.635944 0.514490
16690.00000000 2230.00000000 -900.00000000 1 137 186 0.000000 0.000000 0.000000 0.000000 -60.708740 0.000000 45.000000 -0.692377 0.643732 0.325920
16700.00000000 2210.00000000 -880.00000000 1 137 186 0.000000 0.000000 0.000000 0.000000 -60.708740 0.000000 45.000000 0.709225 -0.539808 -0.453439
16700.00000000 2210.00000000 -880.00000000 1 137 186 0.000000 0.000000 0.000000 0.000000 -60.708740 0.000000 45.000000 0.709225 -0.539808 -0.453439
16670.00000000 2200.00000000 -930.00000000 1 137 186 0.000000 0.000000 0.000000 0.000000 -60.708740 0.000000 45.000000 0.776308 -0.627623 -0.058616
16680.00000000 2210.00000000 -930.00000000 1 137 186 0.000000 0.000000 0.000000 0.000000 -60.708740 0.000000 45.000000 -0.713576 0.369091 0.595467
16680.00000000 2200.00000000 -940.00000000 1 137 186 0.000000 0.000000 0.000000 0.000000 -60.708740 0.000000 45.000000 0.864237 -0.501505 -0.039846
16710.00000000 2190.00000000 -870.00000000 1 137 186 0.000000 0.000000 0.000000 0.000000 -60.708740 0.000000 45.000000 0.852247 -0.173414 -0.493562
16670.00000000 2170.00000000 -930.00000000 1 137 186 0.000000 0.000000 0.000000 0.000000 -60.708740 0.000000 45.000000 0.755895 -0.396723 -0.520801
16700.00000000 2200.00000000 -980.00000000 1 137 186 0.000000 0.000000 0.000000 0.000000 -60.708740 0.000000 45.000000 0.727593 -0.685373 0.029554
16760.00000000 2130.00000000 -820.00000000 1 137 186 0.000000 0.000000 0.000000 0.000000 -60.708740 0.000000 45.000000 -0.188542 0.116122 0.975176
16730.00000000 2120.00000000 -820.00000000 1 137 186 0.000000 0.000000 0.000000 0.000000 -60.708740 0.000000 45.000000 -0.276941 0.268332 0.922660
16720.00000000 2140.00000000 -830.00000000 1 137 186 0.000000 0.000000 0.000000 0.000000 -60.708740 0.000000 45.000000 -0.368689 0.035175 0.928887
16710.00000000 2130.00000000 -840.00000000 1 137 186 0.000000 0.000000 0.000000 0.000000 -60.708740 0.000000 45.000000 -0.554234 -0.150074 0.818720
16750.00000000 2050.00000000 -830.00000000 1 137 186 0.000000 0.000000 0.000000 0.000000 -60.708740 0.000000 45.000000 -0.138020 0.001104 0.990429
16690.00000000 2060.00000000 -860.00000000 1 137 186 0.000000 0.000000 0.000000 0.000000 -60.708740 0.000000 45.000000 -0.632837 -0.126567 0.763871
16670.00000000 2120.00000000 -970.00000000 1 137 186 0.000000 0.000000 0.000000 0.000000 -60.708740 0.000000 45.000000 0.964565 -0.066652 -0.255289
16730.00000000 2020.00000000 -990.00000000 1 137 186 0.000000 0.000000 0.000000 0.000000 -60.708740 0.000000 45.000000 0.623471 -0.489030 -0.610027
16660.00000000 2170.00000000 -850.00000000 1 137 186 0.000000 0.000000 0.000000 0.000000 -60.708740 0.000000 45.000000 0.886334 -0.289446 -0.361432
16640.00000000 2180.00000000 -990.00000000 1 137 186 0.000000 0.000000 0.000000 0.000000 -60.708740 0.000000 45.000000 0.878599 -0.382591 0.285809
16640.00000000 2190.00000000 -930.00000000 1 137 186 0.000000 0.000000 0.000000 0.000000 -60.708740 0.000000 45.000000 0.762686 -0.494848 -0.416456
16630.00000000 2090.00000000 -850.00000000 1 137 186 0.000000 0.000000 0.000000 0.000000 -60.708740 0.000000 45.000000 0.829742 -0.312134 -0.462710
16620.00000000 2110.00000000 -850.00000000 1 137 186 0.000000 0.000000 0.000000 0.000000 -60.708740 0.000000 45.000000 0.834974 -0.096288 -0.541799
16630.00000000 2070.00000000 -840.00000000 1 137 186 0.000000 0.000000 0.000000 0.000000 -60.708740 0.000000 45.000000 -0.564403 0.234779 0.791409
16610.00000000 2060.00000000 -840.00000000 1 137 186 0.000000 0.000000 0.000000 0.000000 -60.708740 0.000000 45.000000 0.854997 -0.420566 -0.303486
16610.00000000 1990.00000000 -820.00000000 1 137 186 0.000000 0.000000 0.000000 0.000000 -60.708740 0.000000 45.000000 -0.329830 0.153185 0.931529
16620.00000000 2000.00000000 -810.00000000 1 137 186 0.000000 0.000000 0.000000 0.000000 -60.708740 0.000000 45.000000 -0.363872 0.216004 0.906057
16600.00000000 2090.00000000 -880.00000000 1 137 186 0.000000 0.000000 0.000000 0.000000 -60.708740 0.000000 45.000000 0.901762 -0.296652 -0.314362
16620.00000000 2150.00000000 -900.00000000 1 137 186 0.000000 0.000000 0.000000 0.000000 -60.708740 0.000000 45.000000 0.964591 -0.249704 -0.084925
16610.00000000 2110.00000000 -900.00000000 1 137 186 0.000000 0.000000 0.000000 0.000000 -60.708740 0.000000 45.000000 0.713975 -0.623311 -0.318941
16650.00000000 2140.00000000 -930.00000000 1 137 186 0.000000 0.000000 0.000000 0.000000 -60.708740 0.000000 45.000000 0.782107 -0.245091 -0.572921
16620.00000000 2120.00000000 -950.00000000 1 137 186 0.000000 0.000000 0.000000 0.000000 -60.708740 0.000000 45.000000 0.735696 -0.531610 -0.419692
16660.00000000 2120.00000000 -1000.00000000 1 137 186 0.000000 0.000000 0.000000 0.000000 -60.708740 0.000000 45.000000 0.841333 -0.283543 -0.460176
16560.00000000 2090.00000000 -940.00000000 1 137 186 0.000000 0.000000 0.000000 0.000000 -60.708740 0.000000 45.000000 0.648785 -0.628771 -0.428632
16580.00000000 2080.00000000 -910.00000000 1 137 186 0.000000 0.000000 0.000000 0.000000 -60.708740 0.000000 45.000000 0.729501 -0.641647 -0.236892
16560.00000000 2080.00000000 -980.00000000 1 137 186 0.000000 0.000000 0.000000 0.000000 -60.708740 0.000000 45.000000 0.979228 -0.163821 0.119478
16550.00000000 2070.00000000 -940.00000000 1 137 186 0.000000 0.000000 0.000000 0.000000 -60.708740 0.000000 45.000000 0.796904 -0.595119 -0.103817
16550.00000000 2020.00000000 -890.00000000 1 137 186 0.000000 0.000000 0.000000 0.000000 -60.708740 0.000000 45.000000 0.853879 -0.453671 -0.255094
16560.00000000 2020.00000000 -870.00000000 1 137 186 0.000000 0.000000 0.000000 0.000000 -60.708740 0.000000 45.000000 0.734766 -0.146350 -0.662345
16540.00000000 2060.00000000 -920.00000000 1 137 186 0.000000 0.000000 0.000000 0.000000 -60.708740 0.000000 45.000000 0.860513 -0.509283 0.012158
16540.00000000 2060.00000000 -910.00000000 1 137 186 0.000000 0.000000 0.000000 0.000000 -60.708740 0.000000 45.000000 0.847235 -0.288585 -0.445995
16510.00000000 2040.00000000 -940.00000000 1 137 186 0.000000 0.000000 0.000000 0.000000 -60.708740 0.000000 45.000000 0.834524 -0.510408 -0.207495
16510.00000000 2010.00000000 -920.00000000 1 137 186 0.000000 0.000000 0.000000 0.000000 -60.708740 0.000000 45.000000 0.724441 -0.382754 -0.573310
16540.00000000 2000.00000000 -1020.00000000 1 137 186 0.000000 0.000000 0.000000 0.000000 -60.708740 0.000000 45.000000 0.744925 -0.664548 0.058848
16530.00000000 2040.00000000 -950.00000000 1 137 186 0.000000 0.000000 0.000000 0.000000 -60.708740 0.000000 45.000000 0.973293 -0.052511 -0.223479
16530.00000000 2020.00000000 -990.00000000 1 137 186 0.000000 0.000000 0.000000 0.000000 -60.708740 0.000000 45.000000 0.840361 -0.529761 -0.114661
16700.00000000 1950.00000000 -960.00000000 1 137 186 0.000000 0.000000 0.000000 0.000000 -60.708740 0.000000 45.000000 0.841954 -0.326472 -0.429568
16670.00000000 1940.00000000 -990.00000000 1 137 186 0.000000 0.000000 0.000000 0.000000 -60.708740 0.000000 45.000000 0.664569 -0.377633 -0.644780
16700.00000000 1940.00000000 -970.00000000 1 137 186 0.000000 0.000000 0.000000 0.000000 -60.708740 0.000000 45.000000 0.931252 -0.167931 -0.323371
16630.00000000 1950.00000000 -850.00000000 1 137 186 0.000000 0.000000 0.000000 0.000000 -60.708740 0.000000 45.000000 0.704333 0.001384 -0.709868
16590.00000000 1980.00000000 -820.00000000 1 137 186 0.000000 0.000000 0.000000 0.000000 -60.708740 0.000000 45.000000 -0.473692 -0.097566 0.875270
16540.00000000 1960.00000000 -860.00000000 1 137 186 0.000000 0.000000 0.000000 0.000000 -60.708740 0.000000 45.000000 -0.476715 0.182667 0.859869
16510.00000000 1870.00000000 -860.00000000 1 137 186 0.000000 0.000000 0.000000 0.000000 -60.708740 0.000000 45.000000 -0.540408 0.166164 0.824833
16520.00000000 1900.00000000 -860.00000000 1 137 186 0.000000 0.000000 0.000000 0.000000 -60.708740 0.000000 45.000000 0.727066 -0.058796 -0.684045
16510.00000000 1870.00000000 -860.00000000 1 137 186 0.000000 0.000000 0.000000 0.000000 -60.708740 0.000000 45.000000 -0.540408 0.166164 0.824833
16510.00000000 1820.00000000 -860.00000000 1 137 186 0.000000 0.000000 0.000000 0.000000 -60.708740 0.000000 45.000000 -0.651042 0.182292 0.736827
16630.00000000 1940.00000000 -870.00000000 1 137 186 0.000000 0.000000 0.000000 0.000000 -60.708740 0.000000 45.000000 -0.372348 0.326379 0.868812
16660.00000000 1920.00000000 -990.00000000 1 137 186 0.000000 0.000000 0.000000 0.000000 -60.708740 0.000000 45.000000 0.663451 -0.485411 -0.569393
16630.00000000 1860.00000000 -990.00000000 1 137 186 0.000000 0.000000 0.000000 0.000000 -60.708740 0.000000 45.000000 0.716557 -0.032507 -0.696771
16520.00000000 1910.00000000 -870.00000000 1 137 186 0.000000 0.000000 0.000000 0.000000 -60.708740 0.000000 45.000000 0.849310 -0.330719 -0.411457
16530.00000000 1940.00000000 -880.00000000 1 137 186 0.000000 0.000000 0.000000 0.000000 -60.708740 0.000000 45.000000 0.880946 -0.009329 -0.473125
16530.00000000 1940.00000000 -870.00000000 1 137 186 0.000000 0.000000 0.000000 0.000000 -60.708740 0.000000 45.000000 0.866406 -0.080041 -0.492883
16520.00000000 1980.00000000 -890.00000000 1 137 186 0.000000 0.000000 0.000000 0.000000 -60.708740 0.000000 45.000000 0.732429 -0.236824 -0.638327
16540.00000000 1970.00000000 -880.00000000 1 137 186 0.000000 0.000000 0.000000 0.000000 -60.708740 0.000000 45.000000 0.880462 -0.319755 -0.350063
16540.00000000 1810.00000000 -910.00000000 1 137 186 0.000000 0.000000 0.000000 0.000000 -60.708740 0.000000 45.000000 0.859287 -0.399561 -0.319340
16520.00000000 1760.00000000 -920.00000000 1 137 186 0.000000 0.000000 0.000000 0.000000 -60.708740 0.000000 45.000000 0.767901 -0.298540 -0.566746
16530.00000000 1770.00000000 -1000.00000000 1 137 186 0.000000 0.000000 0.000000 0.000000 -60.708740 0.000000 45.000000 0.870740 -0.362681 -0.332075
16530.00000000 1780.00000000 -1000.00000000 1 137 186 0.000000 0.000000 0.000000 0.000000 -60.708740 0.000000 45.000000 0.855076 -0.383310 -0.349169
16530.00000000 1780.00000000 -1000.00000000 1 137 186 0.000000 0.000000 0.000000 0.000000 -60.708740 0.000000 45.000000 0.855076 -0.383310 -0.349169
16520.00000000 1710.00000000 -950.00000000 1 137 186 0.000000 0.000000 0.000000 0.000000 -60.708740 0.000000 45.000000 0.747860 -0.373115 -0.549082
16510.00000000 1700.00000000 -960.00000000 1 137 186 0.000000 0.000000 0.000000 0.000000 -60.708740 0.000000 45.000000 -0.465206 0.248618 0.849572
16490.00000000 1990.00000000 -950.00000000 1 137 186 0.000000 0.000000 0.000000 0.000000 -60.708740 0.000000 45.000000 -0.641143 0.693084 0.329499
16450.00000000 1940.00000000 -940.00000000 1 137 186 0.000000 0.000000 0.000000 0.000000 -60.708740 0.000000 45.000000 0.845690 -0.460585 -0.269573
16450.00000000 1920.00000000 -990.00000000 1 137 186 0.000000 0.000000 0.000000 0.000000 -60.708740 0.000000 45.000000 0.913481 -0.406713 0.011695
16450.00000000 1920.00000000 -970.00000000 1 137 186 0.000000 0.000000 0.000000 0.000000 -60.708740 0.000000 45.000000 0.858559 -0.495378 -0.132198
16460.00000000 1900.00000000 -890.00000000 1 137 186 0.000000 0.000000 0.000000 0.000000 -60.708740 0.000000 45.000000 0.819370 -0.137300 -0.556581
16500.00000000 1840.00000000 -870.00000000 1 137 186 0.000000 0.000000 0.000000 0.000000 -60.708740 0.000000 45.000000 -0.515087 0.028692 0.856657
16450.00000000 1900.00000000 -890.00000000 1 137 186 0.000000 0.000000 0.000000 0.000000 -60.708740 0.000000 45.000000 0.908499 0.035914 -0.416340
16430.00000000 1860.00000000 -920.00000000 1 137 186 0.000000 0.000000 0.000000 0.000000 -60.708740 0.000000 45.000000 -0.787188 0.572924 0.228238
16400.00000000 1890.00000000 -900.00000000 1 137 186 0.000000 0.000000 0.000000 0.000000 -60.708740 0.000000 45.000000 -0.615180 0.289214 0.733422
16380.00000000 1820.00000000 -920.00000000 1 137 186 0.000000 0.000000 0.000000 0.000000 -60.708740 0.000000 45.000000 0.905484 -0.421124 -0.052472
16400.00000000 1820.00000000 -890.00000000 1 137 186 0.000000 0.000000 0.000000 0.000000 -60.708740 0.000000 45.000000 0.789440 -0.323750 -0.521509
16410.00000000 1820.00000000 -900.00000000 1 137 186 0.000000 0.000000 0.000000 0.000000 -60.708740 0.000000 45.000000 0.859571 -0.466539 -0.208517
16380.00000000 1870.00000000 -950.00000000 1 137 186 0.000000 0.000000 0.000000 0.000000 -60.708740 0.000000 45.000000 0.762770 -0.618504 -0.188774
16390.00000000 1900.00000000 -1010.00000000 1 137 186 0.000000 0.000000 0.000000 0.000000 -60.708740 0.000000 45.000000 0.845367 -0.532678 -0.040124
16470.00000000 1710.00000000 -890.00000000 1 137 186 0.000000 0.000000 0.000000 0.000000 -60.708740 0.000000 45.000000 -0.541948 0.114783 0.832537
16470.00000000 1670.00000000 -980.00000000 1 137 186 0.000000 0.000000 0.000000 0.000000 -60.708740 0.000000 45.000000 0.896886 -0.218003 -0.384798
16430.00000000 1660.00000000 -990.00000000 1 137 186 0.000000 0.000000 0.000000 0.000000 -60.708740 0.000000 45.000000 0.958338 -0.267714 -0.099584
16460.00000000 1690.00000000 -990.00000000 1 137 186 0.000000 0.000000 0.000000 0.000000 -60.708740 0.000000 45.000000 0.896392 -0.416029 -0.152973
16410.00000000 1810.00000000 -880.00000000 1 137 186 0.000000 0.000000 0.000000 0.000000 -60.708740 0.000000 45.000000 0.852461 -0.060190 -0.519315
16350.00000000 1780.00000000 -900.00000000 1 137 186 0.000000 0.000000 0.000000 0.000000 -60.708740 0.000000 45.000000 0.721634 -0.371453 -0.584180
16340.00000000 1750.00000000 -900.00000000 1 137 186 0.000000 0.000000 0.000000 0.000000 -60.708740 0.000000 45.000000 0.712710 -0.371920 -0.594744
16380.00000000 1680.00000000 -890.00000000 1 137 186 0.000000 0.000000 0.000000 0.000000 -60.708740 0.000000 45.000000 0.822682 -0.309882 -0.476621
16300.00000000 1750.00000000 -900.00000000 1 137 186 0.000000 0.000000 0.000000 0.000000 -60.708740 0.000000 45.000000 0.534508 -0.431909 -0.726468
16300.00000000 1790.00000000 -930.00000000 1 137 186 0.000000 0.000000 0.000000 0.000000 -60.708740 0.000000 45.000000 0.711474 -0.677667 -0.185936
16330.00000000 1810.00000000 -940.00000000 1 137 186 0.000000 0.000000 0.000000 0.000000 -60.708740 0.000000 45.000000 0.808313 -0.404957 -0.427365
16330.00000000 1790.00000000 -980.00000000 1 137 186 0.000000 0.000000 0.000000 0.000000 -60.708740 0.000000 45.000000 0.791951 -0.609733 0.032239
16260.00000000 1750.00000000 -990.00000000 1 137 186 0.000000 0.000000 0.000000 0.000000 -60.708740 0.000000 45.000000 0.888272 -0.232819 -0.395941
16290.00000000 1720.00000000 -920.00000000 1 137 186 0.000000 0.000000 0.000000 0.000000 -60.708740 0.000000 45.000000 0.908854 -0.041372 -0.415057
16270.00000000 1720.00000000 -940.00000000 1 137 186 0.000000 0.000000 0.000000 0.000000 -60.708740 0.000000 45.000000 0.650248 -0.352149 -0.673178
