//X Y Z R G B PointSourceId ScanDirectionFlag NumberOfReturns ReturnNumber GpsTime Intensity Classification Nx Ny Nz
11160.00000000 18670.00000000 -710.00000000 106 103 151 97.000000 1.000000 4.000000 1.000000 -60.708740 114.000000 227.000000 0.537382 0.722573 -0.434866
11130.00000000 18670.00000000 -810.00000000 106 103 151 97.000000 1.000000 4.000000 1.000000 -60.708740 114.000000 227.000000 0.563762 0.762926 -0.316413
11120.00000000 18680.00000000 -850.00000000 106 103 151 97.000000 1.000000 4.000000 1.000000 -60.708740 114.000000 227.000000 0.677729 0.553897 -0.483614
11120.00000000 18670.00000000 -860.00000000 106 103 151 97.000000 1.000000 4.000000 1.000000 -60.708740 114.000000 227.000000 0.469022 0.769720 -0.433070
11140.00000000 18680.00000000 -800.00000000 106 103 151 97.000000 1.000000 4.000000 1.000000 -60.708740 114.000000 227.000000 0.639283 0.635945 -0.432309
11140.00000000 18670.00000000 -930.00000000 106 103 151 97.000000 1.000000 4.000000 1.000000 -60.708740 114.000000 227.000000 0.915205 0.357257 -0.186457
11220.00000000 18640.00000000 -710.00000000 106 103 151 97.000000 1.000000 4.000000 1.000000 -60.708740 114.000000 227.000000 0.746891 0.453411 -0.486386
11210.00000000 18640.00000000 -720.00000000 106 103 151 97.000000 1.000000 4.000000 1.000000 -60.708740 114.000000 227.000000 0.757472 0.400822 -0.515343
11210.00000000 18650.00000000 -710.00000000 106 103 151 97.000000 1.000000 4.000000 1.000000 -60.708740 114.000000 227.000000 0.655195 0.550768 -0.517082
11200.00000000 18630.00000000 -730.00000000 106 103 151 97.000000 1.000000 4.000000 1.000000 -60.708740 114.000000 227.000000 0.914829 0.319395 -0.247134
11200.00000000 18630.00000000 -730.00000000 106 103 151 97.000000 1.000000 4.000000 1.000000 -60.708740 114.000000 227.000000 0.914829 0.319395 -0.247134
11210.00000000 18610.00000000 -710.00000000 106 103 151 97.000000 1.000000 4.000000 1.000000 -60.708740 114.000000 227.000000 0.949515 0.207834 -0.235002
11210.00000000 18610.00000000 -710.00000000 106 103 151 97.000000 1.000000 4.000000 1.000000 -60.708740 114.000000 227.000000 0.949515 0.207834 -0.235002
11200.00000000 18610.00000000 -710.00000000 106 103 151 97.000000 1.000000 4.000000 1.000000 -60.708740 114.000000 227.000000 0.697138 0.486492 -0.526615
11210.00000000 18590.00000000 -720.00000000 106 103 151 97.000000 1.000000 4.000000 1.000000 -60.708740 114.000000 227.000000 0.992115 0.060094 -0.109983
11200.00000000 18580.00000000 -730.00000000 106 103 151 97.000000 1.000000 4.000000 1.000000 -60.708740 114.000000 227.000000 0.845496 0.299414 -0.442140
11220.00000000 18600.00000000 -740.00000000 106 103 151 97.000000 1.000000 4.000000 1.000000 -60.708740 114.000000 227.000000 0.916118 0.138467 -0.376238
11200.00000000 18590.00000000 -740.00000000 106 103 151 97.000000 1.000000 4.000000 1.000000 -60.708740 114.000000 227.000000 0.955540 0.294859 0.001223
11210.00000000 18610.00000000 -770.00000000 106 103 151 97.000000 1.000000 4.000000 1.000000 -60.708740 114.000000 227.000000 0.785251 0.412864 -0.461436
11220.00000000 18620.00000000 -760.00000000 106 103 151 97.000000 1.000000 4.000000 1.000000 -60.708740 114.000000 227.000000 0.851679 0.369009 -0.372123
11220.00000000 18610.00000000 -740.00000000 106 103 151 97.000000 1.000000 4.000000 1.000000 -60.708740 114.000000 227.000000 0.895431 0.156163 -0.416913
11210.00000000 18580.00000000 -780.00000000 106 103 151 97.000000 1.000000 4.000000 1.000000 -60.708740 114.000000 227.000000 0.819423 0.090727 -0.565963
11210.00000000 18580.00000000 -780.00000000 106 103 151 97.000000 1.000000 4.000000 1.000000 -60.708740 114.000000 227.000000 0.819423 0.090727 -0.565963
11210.00000000 18590.00000000 -820.00000000 106 103 151 97.000000 1.000000 4.000000 1.000000 -60.708740 114.000000 227.000000 0.819033 -0.004088 -0.573732
11210.00000000 18600.00000000 -780.00000000 106 103 151 97.000000 1.000000 4.000000 1.000000 -60.708740 114.000000 227.000000 0.798764 0.374471 -0.470901
11200.00000000 18590.00000000 -820.00000000 106 103 151 97.000000 1.000000 4.000000 1.000000 -60.708740 114.000000 227.000000 0.968852 -0.063267 -0.239422
11220.00000000 18590.00000000 -810.00000000 106 103 151 97.000000 1.000000 4.000000 1.000000 -60.708740 114.000000 227.000000 0.894263 0.290152 -0.340742
11200.00000000 18590.00000000 -820.00000000 106 103 151 97.000000 1.000000 4.000000 1.000000 -60.708740 114.000000 227.000000 0.968852 -0.063267 -0.239422
11200.00000000 18580.00000000 -790.00000000 106 103 151 97.000000 1.000000 4.000000 1.000000 -60.708740 114.000000 227.000000 0.849311 0.158046 -0.503678
11200.00000000 18600.00000000 -830.00000000 106 103 151 97.000000 1.000000 4.000000 1.000000 -60.708740 114.000000 227.000000 0.958057 0.246433 -0.146278
11200.00000000 18600.00000000 -830.00000000 106 103 151 97.000000 1.000000 4.000000 1.000000 -60.708740 114.000000 227.000000 0.958057 0.246433 -0.146278
11200.00000000 18590.00000000 -830.00000000 106 103 151 97.000000 1.000000 4.000000 1.000000 -60.708740 114.000000 227.000000 0.984798 -0.111555 -0.133146
11210.00000000 18580.00000000 -840.00000000 106 103 151 97.000000 1.000000 4.000000 1.000000 -60.708740 114.000000 227.000000 0.901420 -0.241844 -0.359102
11250.00000000 18540.00000000 -720.00000000 106 103 151 97.000000 1.000000 4.000000 1.000000 -60.708740 114.000000 227.000000 0.751265 -0.567084 -0.337665
11250.00000000 18530.00000000 -700.00000000 106 103 151 97.000000 1.000000 4.000000 1.000000 -60.708740 114.000000 227.000000 0.777054 -0.591673 -0.214733
11250.00000000 18520.00000000 -720.00000000 106 103 151 97.000000 1.000000 4.000000 1.000000 -60.708740 114.000000 227.000000 0.649273 -0.685073 -0.330332
11240.00000000 18520.00000000 -770.00000000 106 103 151 97.000000 1.000000 4.000000 1.000000 -60.708740 114.000000 227.000000 0.978847 -0.186505 -0.084110
11230.00000000 18560.00000000 -710.00000000 106 103 151 97.000000 1.000000 4.000000 1.000000 -60.708740 114.000000 227.000000 0.865867 -0.471890 -0.166117
11230.00000000 18560.00000000 -730.00000000 106 103 151 97.000000 1.000000 4.000000 1.000000 -60.708740 114.000000 227.000000 0.925815 -0.359659 -0.116240
11230.00000000 18550.00000000 -710.00000000 106 103 151 97.000000 1.000000 4.000000 1.000000 -60.708740 114.000000 227.000000 0.945035 -0.237978 -0.224222
11220.00000000 18550.00000000 -700.00000000 106 103 151 97.000000 1.000000 4.000000 1.000000 -60.708740 114.000000 227.000000 0.953703 -0.269265 -0.133969
11210.00000000 18560.00000000 -730.00000000 106 103 151 97.000000 1.000000 4.000000 1.000000 -60.708740 114.000000 227.000000 0.937483 0.137425 -0.319751
11220.00000000 18550.00000000 -700.00000000 106 103 151 97.000000 1.000000 4.000000 1.000000 -60.708740 114.000000 227.000000 0.953703 -0.269265 -0.133969
11220.00000000 18550.00000000 -750.00000000 106 103 151 97.000000 1.000000 4.000000 1.000000 -60.708740 114.000000 227.000000 0.944922 -0.321039 0.063688
11220.00000000 18550.00000000 -740.00000000 106 103 151 97.000000 1.000000 4.000000 1.000000 -60.708740 114.000000 227.000000 0.747439 -0.607790 -0.268189
11220.00000000 18560.00000000 -760.00000000 106 103 151 97.000000 1.000000 4.000000 1.000000 -60.708740 114.000000 227.000000 0.727122 -0.268892 -0.631657
11210.00000000 18540.00000000 -770.00000000 106 103 151 97.000000 1.000000 4.000000 1.000000 -60.708740 114.000000 227.000000 0.852523 -0.500362 -0.151136
11210.00000000 18550.00000000 -770.00000000 106 103 151 97.000000 1.000000 4.000000 1.000000 -60.708740 114.000000 227.000000 0.971163 -0.025272 -0.237074
11230.00000000 18500.00000000 -730.00000000 106 103 151 97.000000 1.000000 4.000000 1.000000 -60.708740 114.000000 227.000000 0.890586 -0.436061 -0.129256
11210.00000000 18510.00000000 -730.00000000 106 103 151 97.000000 1.000000 4.000000 1.000000 -60.708740 114.000000 227.000000 0.874707 -0.481981 -0.050807
11210.00000000 18520.00000000 -700.00000000 106 103 151 97.000000 1.000000 4.000000 1.000000 -60.708740 114.000000 227.000000 0.968571 -0.247886 -0.020556
11220.00000000 18510.00000000 -750.00000000 106 103 151 97.000000 1.000000 4.000000 1.000000 -60.708740 114.000000 227.000000 0.757210 -0.614164 -0.222343
11210.00000000 18500.00000000 -760.00000000 106 103 151 97.000000 1.000000 4.000000 1.000000 -60.708740 114.000000 227.000000 0.695723 -0.433374 -0.572850
11230.00000000 18510.00000000 -740.00000000 106 103 151 97.000000 1.000000 4.000000 1.000000 -60.708740 114.000000 227.000000 0.884997 -0.262055 -0.384847
11230.00000000 18510.00000000 -760.00000000 106 103 151 97.000000 1.000000 4.000000 1.000000 -60.708740 114.000000 227.000000 0.956306 -0.268184 -0.116431
11210.00000000 18520.00000000 -740.00000000 106 103 151 97.000000 1.000000 4.000000 1.000000 -60.708740 114.000000 227.000000 0.753790 -0.425341 -0.500885
11230.00000000 18500.00000000 -740.00000000 106 103 151 97.000000 1.000000 4.000000 1.000000 -60.708740 114.000000 227.000000 -0.644843 0.734966 0.209768
11210.00000000 18520.00000000 -740.00000000 106 103 151 97.000000 1.000000 4.000000 1.000000 -60.708740 114.000000 227.000000 0.753790 -0.425341 -0.500885
11220.00000000 18500.00000000 -750.00000000 106 103 151 97.000000 1.000000 4.000000 1.000000 -60.708740 114.000000 227.000000 0.730602 -0.427147 -0.532697
11210.00000000 18500.00000000 -760.00000000 106 103 151 97.000000 1.000000 4.000000 1.000000 -60.708740 114.000000 227.000000 0.695723 -0.433374 -0.572850
11230.00000000 18510.00000000 -740.00000000 106 103 151 97.000000 1.000000 4.000000 1.000000 -60.708740 114.000000 227.000000 0.884997 -0.262055 -0.384847
11200.00000000 18540.00000000 -800.00000000 106 103 151 97.000000 1.000000 4.000000 1.000000 -60.708740 114.000000 227.000000 0.941243 -0.337331 -0.016424
11200.00000000 18540.00000000 -790.00000000 106 103 151 97.000000 1.000000 4.000000 1.000000 -60.708740 114.000000 227.000000 0.898795 0.038961 -0.436634
11200.00000000 18560.00000000 -780.00000000 106 103 151 97.000000 1.000000 4.000000 1.000000 -60.708740 114.000000 227.000000 0.777424 -0.322190 -0.540190
11230.00000000 18550.00000000 -790.00000000 106 103 151 97.000000 1.000000 4.000000 1.000000 -60.708740 114.000000 227.000000 0.999394 -0.025625 -0.023575
11230.00000000 18540.00000000 -810.00000000 106 103 151 97.000000 1.000000 4.000000 1.000000 -60.708740 114.000000 227.000000 0.918060 -0.365822 -0.152776
11200.00000000 18560.00000000 -780.00000000 106 103 151 97.000000 1.000000 4.000000 1.000000 -60.708740 114.000000 227.000000 0.777424 -0.322190 -0.540190
11200.00000000 18540.00000000 -790.00000000 106 103 151 97.000000 1.000000 4.000000 1.000000 -60.708740 114.000000 227.000000 0.898795 0.038961 -0.436634
11220.00000000 18550.00000000 -790.00000000 106 103 151 97.000000 1.000000 4.000000 1.000000 -60.708740 114.000000 227.000000 0.738523 -0.565712 -0.366816
11200.00000000 18550.00000000 -810.00000000 106 103 151 97.000000 1.000000 4.000000 1.000000 -60.708740 114.000000 227.000000 0.990487 0.037355 -0.132442
11200.00000000 18570.00000000 -790.00000000 106 103 151 97.000000 1.000000 4.000000 1.000000 -60.708740 114.000000 227.000000 0.984219 0.007983 -0.176772
11200.00000000 18560.00000000 -780.00000000 106 103 151 97.000000 1.000000 4.000000 1.000000 -60.708740 114.000000 227.000000 0.777424 -0.322190 -0.540190
11200.00000000 18560.00000000 -850.00000000 106 103 151 97.000000 1.000000 4.000000 1.000000 -60.708740 114.000000 227.000000 0.995468 0.054018 -0.078270
11200.00000000 18550.00000000 -860.00000000 106 103 151 97.000000 1.000000 4.000000 1.000000 -60.708740 114.000000 227.000000 0.743600 -0.209574 -0.634932
11210.00000000 18550.00000000 -840.00000000 106 103 151 97.000000 1.000000 4.000000 1.000000 -60.708740 114.000000 227.000000 0.960707 -0.259197 -0.099295
11210.00000000 18550.00000000 -850.00000000 106 103 151 97.000000 1.000000 4.000000 1.000000 -60.708740 114.000000 227.000000 0.979395 0.156851 -0.127210
11210.00000000 18550.00000000 -830.00000000 106 103 151 97.000000 1.000000 4.000000 1.000000 -60.708740 114.000000 227.000000 0.746841 -0.377506 -0.547465
11200.00000000 18540.00000000 -860.00000000 106 103 151 97.000000 1.000000 4.000000 1.000000 -60.708740 114.000000 227.000000 0.898251 0.081408 -0.431878
11200.00000000 18510.00000000 -820.00000000 106 103 151 97.000000 1.000000 4.000000 1.000000 -60.708740 114.000000 227.000000 0.869113 -0.258467 -0.421709
11210.00000000 18520.00000000 -790.00000000 106 103 151 97.000000 1.000000 4.000000 1.000000 -60.708740 114.000000 227.000000 0.950675 -0.303132 0.065786
11230.00000000 18500.00000000 -780.00000000 106 103 151 97.000000 1.000000 4.000000 1.000000 -60.708740 114.000000 227.000000 0.765109 -0.635878 -0.101329
11220.00000000 18500.00000000 -790.00000000 106 103 151 97.000000 1.000000 4.000000 1.000000 -60.708740 114.000000 227.000000 -0.653075 0.753991 0.070642
11230.00000000 18500.00000000 -800.00000000 106 103 151 97.000000 1.000000 4.000000 1.000000 -60.708740 114.000000 227.000000 0.963794 -0.266581 0.006031
11200.00000000 18500.00000000 -810.00000000 106 103 151 97.000000 1.000000 4.000000 1.000000 -60.708740 114.000000 227.000000 0.751122 -0.504583 -0.425690
11210.00000000 18530.00000000 -840.00000000 106 103 151 97.000000 1.000000 4.000000 1.000000 -60.708740 114.000000 227.000000 0.999591 -0.013193 -0.025370
11230.00000000 18510.00000000 -840.00000000 106 103 151 97.000000 1.000000 4.000000 1.000000 -60.708740 114.000000 227.000000 0.656771 -0.663322 -0.358685
11200.00000000 18500.00000000 -840.00000000 106 103 151 97.000000 1.000000 4.000000 1.000000 -60.708740 114.000000 227.000000 0.696788 -0.536376 -0.476222
11200.00000000 18520.00000000 -840.00000000 106 103 151 97.000000 1.000000 4.000000 1.000000 -60.708740 114.000000 227.000000 0.942591 -0.133500 -0.306106
11190.00000000 18640.00000000 -710.00000000 106 103 151 97.000000 1.000000 4.000000 1.000000 -60.708740 114.000000 227.000000 0.823852 0.563837 -0.057938
11170.00000000 18650.00000000 -710.00000000 106 103 151 97.000000 1.000000 4.000000 1.000000 -60.708740 114.000000 227.000000 0.602118 0.618984 -0.504295
11180.00000000 18640.00000000 -750.00000000 106 103 151 97.000000 1.000000 4.000000 1.000000 -60.708740 114.000000 227.000000 0.630351 0.453117 -0.630351
11190.00000000 18650.00000000 -760.00000000 106 103 151 97.000000 1.000000 4.000000 1.000000 -60.708740 114.000000 227.000000 0.765895 0.429489 -0.478480
11190.00000000 18620.00000000 -710.00000000 106 103 151 97.000000 1.000000 4.000000 1.000000 -60.708740 114.000000 227.000000 0.565715 0.606243 -0.558960
11130.00000000 18660.00000000 -700.00000000 106 103 151 97.000000 1.000000 4.000000 1.000000 -60.708740 114.000000 227.000000 0.644585 0.723386 -0.247433
11170.00000000 18660.00000000 -800.00000000 106 103 151 97.000000 1.000000 4.000000 1.000000 -60.708740 114.000000 227.000000 0.531262 0.618963 -0.578486
11160.00000000 18660.00000000 -800.00000000 106 103 151 97.000000 1.000000 4.000000 1.000000 -60.708740 114.000000 227.000000 0.440878 0.731494 -0.520137
11180.00000000 18640.00000000 -810.00000000 106 103 151 97.000000 1.000000 4.000000 1.000000 -60.708740 114.000000 227.000000 0.943077 0.332034 -0.018937
11180.00000000 18630.00000000 -810.00000000 106 103 151 97.000000 1.000000 4.000000 1.000000 -60.708740 114.000000 227.000000 0.749700 0.466297 -0.469592
11190.00000000 18630.00000000 -790.00000000 106 103 151 97.000000 1.000000 4.000000 1.000000 -60.708740 114.000000 227.000000 0.908875 0.408652 -0.083370
11180.00000000 18630.00000000 -810.00000000 106 103 151 97.000000 1.000000 4.000000 1.000000 -60.708740 114.000000 227.000000 0.749700 0.466297 -0.469592
11160.00000000 18660.00000000 -800.00000000 106 103 151 97.000000 1.000000 4.000000 1.000000 -60.708740 114.000000 227.000000 0.440878 0.731494 -0.520137
11160.00000000 18650.00000000 -790.00000000 106 103 151 97.000000 1.000000 4.000000 1.000000 -60.708740 114.000000 227.000000 0.713145 0.672924 -0.196463
11160.00000000 18660.00000000 -800.00000000 106 103 151 97.000000 1.000000 4.000000 1.000000 -60.708740 114.000000 227.000000 0.440878 0.731494 -0.520137
11170.00000000 18630.00000000 -860.00000000 106 103 151 97.000000 1.000000 4.000000 1.000000 -60.708740 114.000000 227.000000 0.779531 0.618652 -0.097990
11180.00000000 18630.00000000 -850.00000000 106 103 151 97.000000 1.000000 4.000000 1.000000 -60.708740 114.000000 227.000000 0.786761 0.506809 -0.352353
11160.00000000 18640.00000000 -850.00000000 106 103 151 97.000000 1.000000 4.000000 1.000000 -60.708740 114.000000 227.000000 0.850852 0.524760 0.026033
11180.00000000 18630.00000000 -840.00000000 106 103 151 97.000000 1.000000 4.000000 1.000000 -60.708740 114.000000 227.000000 0.731890 0.240815 -0.637452
11160.00000000 18650.00000000 -850.00000000 106 103 151 97.000000 1.000000 4.000000 1.000000 -60.708740 114.000000 227.000000 0.873654 0.467772 -0.133855
11160.00000000 18650.00000000 -840.00000000 106 103 151 97.000000 1.000000 4.000000 1.000000 -60.708740 114.000000 227.000000 0.712244 0.665283 -0.223848
11190.00000000 18620.00000000 -810.00000000 106 103 151 97.000000 1.000000 4.000000 1.000000 -60.708740 114.000000 227.000000 0.755544 0.431037 -0.493316
11190.00000000 18620.00000000 -810.00000000 106 103 151 97.000000 1.000000 4.000000 1.000000 -60.708740 114.000000 227.000000 0.755544 0.431037 -0.493316
11190.00000000 18590.00000000 -840.00000000 106 103 151 97.000000 1.000000 4.000000 1.000000 -60.708740 114.000000 227.000000 0.950480 0.212875 -0.226434
11170.00000000 18620.00000000 -850.00000000 106 103 151 97.000000 1.000000 4.000000 1.000000 -60.708740 114.000000 227.000000 0.824833 0.540408 -0.166164
11180.00000000 18620.00000000 -840.00000000 106 103 151 97.000000 1.000000 4.000000 1.000000 -60.708740 114.000000 227.000000 0.746419 0.295691 -0.596176
11190.00000000 18620.00000000 -830.00000000 106 103 151 97.000000 1.000000 4.000000 1.000000 -60.708740 114.000000 227.000000 0.910561 0.405452 -0.080544
11190.00000000 18620.00000000 -830.00000000 106 103 151 97.000000 1.000000 4.000000 1.000000 -60.708740 114.000000 227.000000 0.910561 0.405452 -0.080544
11120.00000000 18660.00000000 -850.00000000 106 103 151 97.000000 1.000000 4.000000 1.000000 -60.708740 114.000000 227.000000 0.675733 0.592309 -0.438810
11190.00000000 18530.00000000 -800.00000000 106 103 151 97.000000 1.000000 4.000000 1.000000 -60.708740 114.000000 227.000000 0.916739 -0.022232 -0.398867
11190.00000000 18510.00000000 -790.00000000 106 103 151 97.000000 1.000000 4.000000 1.000000 -60.708740 114.000000 227.000000 0.832895 -0.510091 -0.214695
11180.00000000 18510.00000000 -860.00000000 106 103 151 97.000000 1.000000 4.000000 1.000000 -60.708740 114.000000 227.000000 0.626691 -0.619970 -0.472118
11180.00000000 18500.00000000 -840.00000000 106 103 151 97.000000 1.000000 4.000000 1.000000 -60.708740 114.000000 227.000000 -0.620924 0.683510 0.383754
11220.00000000 18580.00000000 -910.00000000 106 103 151 97.000000 1.000000 4.000000 1.000000 -60.708740 114.000000 227.000000 0.798265 0.055297 -0.599762
11200.00000000 18570.00000000 -890.00000000 106 103 151 97.000000 1.000000 4.000000 1.000000 -60.708740 114.000000 227.000000 0.700982 0.070821 -0.709654
11200.00000000 18540.00000000 -890.00000000 106 103 151 97.000000 1.000000 4.000000 1.000000 -60.708740 114.000000 227.000000 -0.826751 0.490445 0.275584
11200.00000000 18540.00000000 -890.00000000 106 103 151 97.000000 1.000000 4.000000 1.000000 -60.708740 114.000000 227.000000 -0.826751 0.490445 0.275584
11200.00000000 18550.00000000 -910.00000000 106 103 151 97.000000 1.000000 4.000000 1.000000 -60.708740 114.000000 227.000000 0.981289 -0.186291 -0.048649
11220.00000000 18500.00000000 -880.00000000 106 103 151 97.000000 1.000000 4.000000 1.000000 -60.708740 114.000000 227.000000 0.821457 -0.504676 -0.265537
11200.00000000 18520.00000000 -930.00000000 106 103 151 97.000000 1.000000 4.000000 1.000000 -60.708740 114.000000 227.000000 0.804392 -0.277539 -0.525285
11210.00000000 18500.00000000 -910.00000000 106 103 151 97.000000 1.000000 4.000000 1.000000 -60.708740 114.000000 227.000000 0.679502 -0.370189 -0.633434
11210.00000000 18500.00000000 -920.00000000 106 103 151 97.000000 1.000000 4.000000 1.000000 -60.708740 114.000000 227.000000 0.696868 -0.380559 -0.607906
11220.00000000 18510.00000000 -910.00000000 106 103 151 97.000000 1.000000 4.000000 1.000000 -60.708740 114.000000 227.000000 0.918266 -0.043727 -0.393543
11210.00000000 18540.00000000 -970.00000000 106 103 151 97.000000 1.000000 4.000000 1.000000 -60.708740 114.000000 227.000000 0.993347 -0.009835 -0.114743
11200.00000000 18510.00000000 -1030.00000000 106 103 151 97.000000 1.000000 4.000000 1.000000 -60.708740 114.000000 227.000000 0.965142 -0.191465 -0.178441
11200.00000000 18530.00000000 -980.00000000 106 103 151 97.000000 1.000000 4.000000 1.000000 -60.708740 114.000000 227.000000 0.944110 -0.319080 -0.082725
11200.00000000 18510.00000000 -1010.00000000 106 103 151 97.000000 1.000000 4.000000 1.000000 -60.708740 114.000000 227.000000 0.765892 -0.512221 -0.388637
11210.00000000 18540.00000000 -980.00000000 106 103 151 97.000000 1.000000 4.000000 1.000000 -60.708740 114.000000 227.000000 0.938282 -0.011396 -0.345683
11200.00000000 18510.00000000 -980.00000000 106 103 151 97.000000 1.000000 4.000000 1.000000 -60.708740 114.000000 227.000000 0.882656 -0.348536 -0.315342
11200.00000000 18540.00000000 -980.00000000 106 103 151 97.000000 1.000000 4.000000 1.000000 -60.708740 114.000000 227.000000 0.908744 0.206598 -0.362631
11200.00000000 18500.00000000 -990.00000000 106 103 151 97.000000 1.000000 4.000000 1.000000 -60.708740 114.000000 227.000000 0.958421 -0.028517 -0.283931
11200.00000000 18520.00000000 -1010.00000000 106 103 151 97.000000 1.000000 4.000000 1.000000 -60.708740 114.000000 227.000000 0.798173 0.049444 -0.600396
11200.00000000 18500.00000000 -970.00000000 106 103 151 97.000000 1.000000 4.000000 1.000000 -60.708740 114.000000 227.000000 0.964202 -0.250261 -0.087655
11200.00000000 18510.00000000 -980.00000000 106 103 151 97.000000 1.000000 4.000000 1.000000 -60.708740 114.000000 227.000000 0.882656 -0.348536 -0.315342
11160.00000000 18640.00000000 -900.00000000 106 103 151 97.000000 1.000000 4.000000 1.000000 -60.708740 114.000000 227.000000 0.892385 0.087434 -0.442723
11180.00000000 18630.00000000 -870.00000000 106 103 151 97.000000 1.000000 4.000000 1.000000 -60.708740 114.000000 227.000000 0.843051 0.448696 -0.296543
11160.00000000 18630.00000000 -900.00000000 106 103 151 97.000000 1.000000 4.000000 1.000000 -60.708740 114.000000 227.000000 0.929564 0.045888 -0.365794
11160.00000000 18640.00000000 -900.00000000 106 103 151 97.000000 1.000000 4.000000 1.000000 -60.708740 114.000000 227.000000 0.892385 0.087434 -0.442723
11180.00000000 18640.00000000 -920.00000000 106 103 151 97.000000 1.000000 4.000000 1.000000 -60.708740 114.000000 227.000000 0.857179 0.511520 -0.059933
11180.00000000 18640.00000000 -930.00000000 106 103 151 97.000000 1.000000 4.000000 1.000000 -60.708740 114.000000 227.000000 0.875205 0.482918 0.028407
11190.00000000 18620.00000000 -870.00000000 106 103 151 97.000000 1.000000 4.000000 1.000000 -60.708740 114.000000 227.000000 0.890801 0.078967 -0.447479
11170.00000000 18610.00000000 -900.00000000 106 103 151 97.000000 1.000000 4.000000 1.000000 -60.708740 114.000000 227.000000 0.839305 0.429812 -0.332909
11180.00000000 18620.00000000 -870.00000000 106 103 151 97.000000 1.000000 4.000000 1.000000 -60.708740 114.000000 227.000000 0.879852 0.400205 -0.256311
11180.00000000 18620.00000000 -890.00000000 106 103 151 97.000000 1.000000 4.000000 1.000000 -60.708740 114.000000 227.000000 0.823486 0.511395 -0.245655
11190.00000000 18590.00000000 -870.00000000 106 103 151 97.000000 1.000000 4.000000 1.000000 -60.708740 114.000000 227.000000 0.912162 0.326290 -0.247981
11180.00000000 18620.00000000 -890.00000000 106 103 151 97.000000 1.000000 4.000000 1.000000 -60.708740 114.000000 227.000000 0.823486 0.511395 -0.245655
11180.00000000 18600.00000000 -890.00000000 106 103 151 97.000000 1.000000 4.000000 1.000000 -60.708740 114.000000 227.000000 0.899570 0.354822 -0.254706
11180.00000000 18600.00000000 -900.00000000 106 103 151 97.000000 1.000000 4.000000 1.000000 -60.708740 114.000000 227.000000 0.870854 0.396672 -0.290285
11180.00000000 18600.00000000 -870.00000000 106 103 151 97.000000 1.000000 4.000000 1.000000 -60.708740 114.000000 227.000000 0.818204 0.452792 -0.354290
11180.00000000 18600.00000000 -870.00000000 106 103 151 97.000000 1.000000 4.000000 1.000000 -60.708740 114.000000 227.000000 0.818204 0.452792 -0.354290
11170.00000000 18610.00000000 -900.00000000 106 103 151 97.000000 1.000000 4.000000 1.000000 -60.708740 114.000000 227.000000 0.839305 0.429812 -0.332909
11190.00000000 18580.00000000 -880.00000000 106 103 151 97.000000 1.000000 4.000000 1.000000 -60.708740 114.000000 227.000000 0.938386 0.314611 -0.143005
11190.00000000 18590.00000000 -870.00000000 106 103 151 97.000000 1.000000 4.000000 1.000000 -60.708740 114.000000 227.000000 0.912162 0.326290 -0.247981
11180.00000000 18600.00000000 -900.00000000 106 103 151 97.000000 1.000000 4.000000 1.000000 -60.708740 114.000000 227.000000 0.870854 0.396672 -0.290285
11170.00000000 18610.00000000 -930.00000000 106 103 151 97.000000 1.000000 4.000000 1.000000 -60.708740 114.000000 227.000000 0.726812 0.307807 -0.614003
11170.00000000 18610.00000000 -930.00000000 106 103 151 97.000000 1.000000 4.000000 1.000000 -60.708740 114.000000 227.000000 0.726812 0.307807 -0.614003
11190.00000000 18620.00000000 -940.00000000 106 103 151 97.000000 1.000000 4.000000 1.000000 -60.708740 114.000000 227.000000 0.894805 0.438413 -0.084363
11170.00000000 18580.00000000 -920.00000000 106 103 151 97.000000 1.000000 4.000000 1.000000 -60.708740 114.000000 227.000000 0.909239 0.346584 -0.230573
11190.00000000 18590.00000000 -910.00000000 106 103 151 97.000000 1.000000 4.000000 1.000000 -60.708740 114.000000 227.000000 0.957807 0.283189 -0.049086
11180.00000000 18620.00000000 -920.00000000 106 103 151 97.000000 1.000000 4.000000 1.000000 -60.708740 114.000000 227.000000 0.734179 0.152891 -0.661518
11190.00000000 18580.00000000 -940.00000000 106 103 151 97.000000 1.000000 4.000000 1.000000 -60.708740 114.000000 227.000000 0.833249 -0.314227 -0.454926
11160.00000000 18610.00000000 -940.00000000 106 103 151 97.000000 1.000000 4.000000 1.000000 -60.708740 114.000000 227.000000 0.912770 0.396678 -0.097454
11160.00000000 18620.00000000 -930.00000000 106 103 151 97.000000 1.000000 4.000000 1.000000 -60.708740 114.000000 227.000000 0.752759 0.537218 -0.380462
11190.00000000 18590.00000000 -930.00000000 106 103 151 97.000000 1.000000 4.000000 1.000000 -60.708740 114.000000 227.000000 0.949774 0.302732 -0.079256
11190.00000000 18590.00000000 -910.00000000 106 103 151 97.000000 1.000000 4.000000 1.000000 -60.708740 114.000000 227.000000 0.957807 0.283189 -0.049086
11170.00000000 18600.00000000 -930.00000000 106 103 151 97.000000 1.000000 4.000000 1.000000 -60.708740 114.000000 227.000000 0.675693 0.410064 -0.612606
11160.00000000 18600.00000000 -930.00000000 106 103 151 97.000000 1.000000 4.000000 1.000000 -60.708740 114.000000 227.000000 0.764983 0.460300 -0.450472
11150.00000000 18660.00000000 -890.00000000 106 103 151 97.000000 1.000000 4.000000 1.000000 -60.708740 114.000000 227.000000 0.734646 0.561211 -0.381231
11150.00000000 18630.00000000 -910.00000000 106 103 151 97.000000 1.000000 4.000000 1.000000 -60.708740 114.000000 227.000000 0.982381 0.118080 -0.144862
11140.00000000 18650.00000000 -940.00000000 106 103 151 97.000000 1.000000 4.000000 1.000000 -60.708740 114.000000 227.000000 0.813669 0.577120 -0.069824
11140.00000000 18660.00000000 -920.00000000 106 103 151 97.000000 1.000000 4.000000 1.000000 -60.708740 114.000000 227.000000 0.824311 0.564883 0.037659
11150.00000000 18610.00000000 -930.00000000 106 103 151 97.000000 1.000000 4.000000 1.000000 -60.708740 114.000000 227.000000 0.891834 0.372463 -0.256718
11170.00000000 18640.00000000 -980.00000000 106 103 151 97.000000 1.000000 4.000000 1.000000 -60.708740 114.000000 227.000000 0.966654 0.253609 -0.035530
11180.00000000 18580.00000000 -980.00000000 106 103 151 97.000000 1.000000 4.000000 1.000000 -60.708740 114.000000 227.000000 0.915793 0.299477 -0.267649
11170.00000000 18620.00000000 -970.00000000 106 103 151 97.000000 1.000000 4.000000 1.000000 -60.708740 114.000000 227.000000 0.947540 0.239278 -0.211932
11170.00000000 18600.00000000 -980.00000000 106 103 151 97.000000 1.000000 4.000000 1.000000 -60.708740 114.000000 227.000000 0.823695 0.475390 -0.309082
11180.00000000 18600.00000000 -970.00000000 106 103 151 97.000000 1.000000 4.000000 1.000000 -60.708740 114.000000 227.000000 0.931882 0.311559 -0.185817
11160.00000000 18610.00000000 -970.00000000 106 103 151 97.000000 1.000000 4.000000 1.000000 -60.708740 114.000000 227.000000 0.685729 0.445474 -0.575612
11180.00000000 18590.00000000 -980.00000000 106 103 151 97.000000 1.000000 4.000000 1.000000 -60.708740 114.000000 227.000000 0.865024 0.475690 -0.159539
11190.00000000 18600.00000000 -950.00000000 106 103 151 97.000000 1.000000 4.000000 1.000000 -60.708740 114.000000 227.000000 0.892963 -0.017249 -0.449799
11170.00000000 18610.00000000 -980.00000000 106 103 151 97.000000 1.000000 4.000000 1.000000 -60.708740 114.000000 227.000000 0.873164 0.330675 -0.358104
11190.00000000 18610.00000000 -950.00000000 106 103 151 97.000000 1.000000 4.000000 1.000000 -60.708740 114.000000 227.000000 0.788144 0.299717 -0.537587
11170.00000000 18590.00000000 -970.00000000 106 103 151 97.000000 1.000000 4.000000 1.000000 -60.708740 114.000000 227.000000 0.849043 0.471013 -0.239317
11180.00000000 18580.00000000 -950.00000000 106 103 151 97.000000 1.000000 4.000000 1.000000 -60.708740 114.000000 227.000000 0.999642 -0.023295 -0.013167
11160.00000000 18620.00000000 -990.00000000 106 103 151 97.000000 1.000000 4.000000 1.000000 -60.708740 114.000000 227.000000 0.959206 0.264653 -0.099406
11160.00000000 18620.00000000 -1000.00000000 106 103 151 97.000000 1.000000 4.000000 1.000000 -60.708740 114.000000 227.000000 0.900696 0.432172 0.044429
11180.00000000 18590.00000000 -1020.00000000 106 103 151 97.000000 1.000000 4.000000 1.000000 -60.708740 114.000000 227.000000 0.843611 0.111420 -0.525267
11160.00000000 18610.00000000 -1030.00000000 106 103 151 97.000000 1.000000 4.000000 1.000000 -60.708740 114.000000 227.000000 0.891084 0.114386 -0.439187
11170.00000000 18580.00000000 -1000.00000000 106 103 151 97.000000 1.000000 4.000000 1.000000 -60.708740 114.000000 227.000000 0.844573 0.092889 -0.527322
11160.00000000 18580.00000000 -1010.00000000 106 103 151 97.000000 1.000000 4.000000 1.000000 -60.708740 114.000000 227.000000 0.937114 0.328598 -0.117646
11160.00000000 18610.00000000 -1030.00000000 106 103 151 97.000000 1.000000 4.000000 1.000000 -60.708740 114.000000 227.000000 0.891084 0.114386 -0.439187
11160.00000000 18620.00000000 -1020.00000000 106 103 151 97.000000 1.000000 4.000000 1.000000 -60.708740 114.000000 227.000000 0.821874 0.561879 -0.093887
11160.00000000 18620.00000000 -990.00000000 106 103 151 97.000000 1.000000 4.000000 1.000000 -60.708740 114.000000 227.000000 0.959206 0.264653 -0.099406
11190.00000000 18580.00000000 -1010.00000000 106 103 151 97.000000 1.000000 4.000000 1.000000 -60.708740 114.000000 227.000000 0.945322 0.099160 -0.310700
11140.00000000 18640.00000000 -960.00000000 106 103 151 97.000000 1.000000 4.000000 1.000000 -60.708740 114.000000 227.000000 0.762757 0.589044 -0.266886
11130.00000000 18650.00000000 -960.00000000 106 103 151 97.000000 1.000000 4.000000 1.000000 -60.708740 114.000000 227.000000 0.811373 0.533188 -0.239548
11140.00000000 18630.00000000 -1030.00000000 106 103 151 97.000000 1.000000 4.000000 1.000000 -60.708740 114.000000 227.000000 0.843014 0.253365 -0.474483
11150.00000000 18620.00000000 -970.00000000 106 103 151 97.000000 1.000000 4.000000 1.000000 -60.708740 114.000000 227.000000 0.738314 0.551689 -0.387983
11150.00000000 18610.00000000 -950.00000000 106 103 151 97.000000 1.000000 4.000000 1.000000 -60.708740 114.000000 227.000000 0.987513 0.154478 -0.030896
11130.00000000 18620.00000000 -1030.00000000 106 103 151 97.000000 1.000000 4.000000 1.000000 -60.708740 114.000000 227.000000 0.666807 0.633714 -0.392142
11140.00000000 18620.00000000 -1020.00000000 106 103 151 97.000000 1.000000 4.000000 1.000000 -60.708740 114.000000 227.000000 0.947653 -0.096215 -0.304461
11120.00000000 18620.00000000 -1010.00000000 106 103 151 97.000000 1.000000 4.000000 1.000000 -60.708740 114.000000 227.000000 0.750995 0.646065 -0.136408
11190.00000000 18550.00000000 -890.00000000 106 103 151 97.000000 1.000000 4.000000 1.000000 -60.708740 114.000000 227.000000 0.906986 0.237301 -0.347945
11190.00000000 18560.00000000 -870.00000000 106 103 151 97.000000 1.000000 4.000000 1.000000 -60.708740 114.000000 227.000000 0.788474 -0.148119 -0.596966
11190.00000000 18550.00000000 -870.00000000 106 103 151 97.000000 1.000000 4.000000 1.000000 -60.708740 114.000000 227.000000 0.979177 -0.041642 -0.198691
11190.00000000 18550.00000000 -870.00000000 106 103 151 97.000000 1.000000 4.000000 1.000000 -60.708740 114.000000 227.000000 0.979177 -0.041642 -0.198691
11180.00000000 18570.00000000 -900.00000000 106 103 151 97.000000 1.000000 4.000000 1.000000 -60.708740 114.000000 227.000000 0.949175 -0.001234 -0.314746
11180.00000000 18550.00000000 -890.00000000 106 103 151 97.000000 1.000000 4.000000 1.000000 -60.708740 114.000000 227.000000 0.971003 0.138715 -0.194710
11190.00000000 18570.00000000 -930.00000000 106 103 151 97.000000 1.000000 4.000000 1.000000 -60.708740 114.000000 227.000000 0.799540 -0.082115 -0.594973
11190.00000000 18540.00000000 -940.00000000 106 103 151 97.000000 1.000000 4.000000 1.000000 -60.708740 114.000000 227.000000 0.965411 0.168068 -0.199336
11190.00000000 18570.00000000 -930.00000000 106 103 151 97.000000 1.000000 4.000000 1.000000 -60.708740 114.000000 227.000000 0.799540 -0.082115 -0.594973
11180.00000000 18530.00000000 -890.00000000 106 103 151 97.000000 1.000000 4.000000 1.000000 -60.708740 114.000000 227.000000 0.859796 -0.292729 -0.418403
11180.00000000 18520.00000000 -900.00000000 106 103 151 97.000000 1.000000 4.000000 1.000000 -60.708740 114.000000 227.000000 0.950312 -0.234528 -0.204703
11180.00000000 18520.00000000 -940.00000000 106 103 151 97.000000 1.000000 4.000000 1.000000 -60.708740 114.000000 227.000000 0.988087 -0.144796 -0.052127
11180.00000000 18510.00000000 -930.00000000 106 103 151 97.000000 1.000000 4.000000 1.000000 -60.708740 114.000000 227.000000 0.981878 -0.003445 -0.189485
11180.00000000 18510.00000000 -930.00000000 106 103 151 97.000000 1.000000 4.000000 1.000000 -60.708740 114.000000 227.000000 0.981878 -0.003445 -0.189485
11180.00000000 18530.00000000 -940.00000000 106 103 151 97.000000 1.000000 4.000000 1.000000 -60.708740 114.000000 227.000000 0.945912 -0.324419 0.001243
11180.00000000 18520.00000000 -940.00000000 106 103 151 97.000000 1.000000 4.000000 1.000000 -60.708740 114.000000 227.000000 0.988087 -0.144796 -0.052127
11180.00000000 18520.00000000 -940.00000000 106 103 151 97.000000 1.000000 4.000000 1.000000 -60.708740 114.000000 227.000000 0.988087 -0.144796 -0.052127
11150.00000000 18500.00000000 -890.00000000 106 103 151 97.000000 1.000000 4.000000 1.000000 -60.708740 114.000000 227.000000 0.929482 -0.363595 -0.062142
11180.00000000 18550.00000000 -970.00000000 106 103 151 97.000000 1.000000 4.000000 1.000000 -60.708740 114.000000 227.000000 0.871082 -0.216650 -0.440771
11190.00000000 18550.00000000 -950.00000000 106 103 151 97.000000 1.000000 4.000000 1.000000 -60.708740 114.000000 227.000000 0.774446 -0.397776 -0.491943
11180.00000000 18570.00000000 -980.00000000 106 103 151 97.000000 1.000000 4.000000 1.000000 -60.708740 114.000000 227.000000 0.982315 0.112924 -0.149351
11180.00000000 18560.00000000 -980.00000000 106 103 151 97.000000 1.000000 4.000000 1.000000 -60.708740 114.000000 227.000000 0.988833 -0.101809 -0.108830
11180.00000000 18560.00000000 -980.00000000 106 103 151 97.000000 1.000000 4.000000 1.000000 -60.708740 114.000000 227.000000 0.988833 -0.101809 -0.108830
11170.00000000 18550.00000000 -980.00000000 106 103 151 97.000000 1.000000 4.000000 1.000000 -60.708740 114.000000 227.000000 0.913275 -0.398792 -0.083025
11180.00000000 18560.00000000 -970.00000000 106 103 151 97.000000 1.000000 4.000000 1.000000 -60.708740 114.000000 227.000000 0.965162 -0.018211 -0.261019
11180.00000000 18550.00000000 -960.00000000 106 103 151 97.000000 1.000000 4.000000 1.000000 -60.708740 114.000000 227.000000 0.925055 -0.134126 -0.355365
11180.00000000 18560.00000000 -980.00000000 106 103 151 97.000000 1.000000 4.000000 1.000000 -60.708740 114.000000 227.000000 0.988833 -0.101809 -0.108830
11180.00000000 18550.00000000 -980.00000000 106 103 151 97.000000 1.000000 4.000000 1.000000 -60.708740 114.000000 227.000000 0.995293 -0.080461 0.054008
11190.00000000 18560.00000000 -970.00000000 106 103 151 97.000000 1.000000 4.000000 1.000000 -60.708740 114.000000 227.000000 0.762647 0.004137 -0.646802
11180.00000000 18550.00000000 -950.00000000 106 103 151 97.000000 1.000000 4.000000 1.000000 -60.708740 114.000000 227.000000 0.968566 0.226632 -0.102554
11180.00000000 18560.00000000 -970.00000000 106 103 151 97.000000 1.000000 4.000000 1.000000 -60.708740 114.000000 227.000000 0.965162 -0.018211 -0.261019
11180.00000000 18540.00000000 -1010.00000000 106 103 151 97.000000 1.000000 4.000000 1.000000 -60.708740 114.000000 227.000000 0.962346 0.193522 -0.190889
11190.00000000 18550.00000000 -1000.00000000 106 103 151 97.000000 1.000000 4.000000 1.000000 -60.708740 114.000000 227.000000 0.794828 -0.055453 -0.604296
11190.00000000 18560.00000000 -1010.00000000 106 103 151 97.000000 1.000000 4.000000 1.000000 -60.708740 114.000000 227.000000 0.993541 0.014209 -0.112579
11170.00000000 18540.00000000 -1020.00000000 106 103 151 97.000000 1.000000 4.000000 1.000000 -60.708740 114.000000 227.000000 0.983554 -0.159333 -0.085058
11160.00000000 18560.00000000 -1000.00000000 106 103 151 97.000000 1.000000 4.000000 1.000000 -60.708740 114.000000 227.000000 0.889977 0.114244 -0.441462
11180.00000000 18540.00000000 -1010.00000000 106 103 151 97.000000 1.000000 4.000000 1.000000 -60.708740 114.000000 227.000000 0.962346 0.193522 -0.190889
11190.00000000 18570.00000000 -1000.00000000 106 103 151 97.000000 1.000000 4.000000 1.000000 -60.708740 114.000000 227.000000 -0.698384 0.064799 0.712784
11170.00000000 18570.00000000 -1010.00000000 106 103 151 97.000000 1.000000 4.000000 1.000000 -60.708740 114.000000 227.000000 0.970638 0.213869 -0.110098
11160.00000000 18570.00000000 -1020.00000000 106 103 151 97.000000 1.000000 4.000000 1.000000 -60.708740 114.000000 227.000000 0.945659 0.315220 -0.079786
11180.00000000 18530.00000000 -970.00000000 106 103 151 97.000000 1.000000 4.000000 1.000000 -60.708740 114.000000 227.000000 0.940702 0.077624 -0.330233
11180.00000000 18520.00000000 -980.00000000 106 103 151 97.000000 1.000000 4.000000 1.000000 -60.708740 114.000000 227.000000 0.990669 -0.133813 0.025863
11160.00000000 18500.00000000 -950.00000000 106 103 151 97.000000 1.000000 4.000000 1.000000 -60.708740 114.000000 227.000000 0.934570 -0.343611 -0.092254
11180.00000000 18530.00000000 -980.00000000 106 103 151 97.000000 1.000000 4.000000 1.000000 -60.708740 114.000000 227.000000 0.983930 0.112277 -0.138837
11180.00000000 18500.00000000 -980.00000000 106 103 151 97.000000 1.000000 4.000000 1.000000 -60.708740 114.000000 227.000000 0.736494 -0.481617 -0.474997
11180.00000000 18520.00000000 -990.00000000 106 103 151 97.000000 1.000000 4.000000 1.000000 -60.708740 114.000000 227.000000 0.959953 -0.230441 -0.159334
11190.00000000 18500.00000000 -1010.00000000 106 103 151 97.000000 1.000000 4.000000 1.000000 -60.708740 114.000000 227.000000 0.762217 -0.613793 -0.205628
11190.00000000 18500.00000000 -1010.00000000 106 103 151 97.000000 1.000000 4.000000 1.000000 -60.708740 114.000000 227.000000 0.762217 -0.613793 -0.205628
11190.00000000 18500.00000000 -1010.00000000 106 103 151 97.000000 1.000000 4.000000 1.000000 -60.708740 114.000000 227.000000 0.762217 -0.613793 -0.205628
11180.00000000 18520.00000000 -990.00000000 106 103 151 97.000000 1.000000 4.000000 1.000000 -60.708740 114.000000 227.000000 0.959953 -0.230441 -0.159334
11180.00000000 18510.00000000 -990.00000000 106 103 151 97.000000 1.000000 4.000000 1.000000 -60.708740 114.000000 227.000000 0.981139 -0.191070 -0.029305
11190.00000000 18520.00000000 -1020.00000000 106 103 151 97.000000 1.000000 4.000000 1.000000 -60.708740 114.000000 227.000000 0.757760 -0.113738 -0.642545
11160.00000000 18530.00000000 -1010.00000000 106 103 151 97.000000 1.000000 4.000000 1.000000 -60.708740 114.000000 227.000000 0.906091 0.100984 -0.410854
11170.00000000 18500.00000000 -1010.00000000 106 103 151 97.000000 1.000000 4.000000 1.000000 -60.708740 114.000000 227.000000 0.803309 -0.589862 -0.082206
11180.00000000 18520.00000000 -1020.00000000 106 103 151 97.000000 1.000000 4.000000 1.000000 -60.708740 114.000000 227.000000 0.969809 0.083842 -0.229000
11170.00000000 18530.00000000 -1000.00000000 106 103 151 97.000000 1.000000 4.000000 1.000000 -60.708740 114.000000 227.000000 0.947029 0.063481 -0.314813
11210.00000000 18540.00000000 -1050.00000000 106 103 151 97.000000 1.000000 4.000000 1.000000 -60.708740 114.000000 227.000000 0.805309 -0.465895 -0.366632
11190.00000000 18580.00000000 -1060.00000000 106 103 151 97.000000 1.000000 4.000000 1.000000 -60.708740 114.000000 227.000000 0.953464 -0.229961 -0.194996
11180.00000000 18580.00000000 -1070.00000000 106 103 151 97.000000 1.000000 4.000000 1.000000 -60.708740 114.000000 227.000000 0.945356 -0.226392 -0.234624
11160.00000000 18590.00000000 -1050.00000000 106 103 151 97.000000 1.000000 4.000000 1.000000 -60.708740 114.000000 227.000000 0.917961 0.357849 -0.171145
11160.00000000 18610.00000000 -1050.00000000 106 103 151 97.000000 1.000000 4.000000 1.000000 -60.708740 114.000000 227.000000 0.975866 0.085126 -0.201095
11160.00000000 18590.00000000 -1050.00000000 106 103 151 97.000000 1.000000 4.000000 1.000000 -60.708740 114.000000 227.000000 0.917961 0.357849 -0.171145
11160.00000000 18600.00000000 -1060.00000000 106 103 151 97.000000 1.000000 4.000000 1.000000 -60.708740 114.000000 227.000000 0.959445 0.268439 -0.086055
11130.00000000 18630.00000000 -1040.00000000 106 103 151 97.000000 1.000000 4.000000 1.000000 -60.708740 114.000000 227.000000 0.580888 0.644870 -0.496701
11140.00000000 18630.00000000 -1040.00000000 106 103 151 97.000000 1.000000 4.000000 1.000000 -60.708740 114.000000 227.000000 0.686078 0.326009 -0.650396
11120.00000000 18630.00000000 -1090.00000000 106 103 151 97.000000 1.000000 4.000000 1.000000 -60.708740 114.000000 227.000000 0.845323 0.533960 -0.017753
11130.00000000 18640.00000000 -1090.00000000 106 103 151 97.000000 1.000000 4.000000 1.000000 -60.708740 114.000000 227.000000 0.688472 0.636142 -0.348324
11150.00000000 18610.00000000 -1040.00000000 106 103 151 97.000000 1.000000 4.000000 1.000000 -60.708740 114.000000 227.000000 0.721768 0.546694 -0.424472
11140.00000000 18620.00000000 -1040.00000000 106 103 151 97.000000 1.000000 4.000000 1.000000 -60.708740 114.000000 227.000000 0.638842 0.638842 -0.428675
11150.00000000 18600.00000000 -1070.00000000 106 103 151 97.000000 1.000000 4.000000 1.000000 -60.708740 114.000000 227.000000 0.894045 0.373873 -0.246786
11140.00000000 18620.00000000 -1070.00000000 106 103 151 97.000000 1.000000 4.000000 1.000000 -60.708740 114.000000 227.000000 0.748183 0.638021 -0.182073
11150.00000000 18590.00000000 -1070.00000000 106 103 151 97.000000 1.000000 4.000000 1.000000 -60.708740 114.000000 227.000000 0.966385 0.253013 -0.045666
11150.00000000 18590.00000000 -1050.00000000 106 103 151 97.000000 1.000000 4.000000 1.000000 -60.708740 114.000000 227.000000 0.867818 0.326006 -0.374983
11150.00000000 18600.00000000 -1040.00000000 106 103 151 97.000000 1.000000 4.000000 1.000000 -60.708740 114.000000 227.000000 0.925490 0.370999 -0.076343
11150.00000000 18600.00000000 -1040.00000000 106 103 151 97.000000 1.000000 4.000000 1.000000 -60.708740 114.000000 227.000000 0.925490 0.370999 -0.076343
11140.00000000 18620.00000000 -1040.00000000 106 103 151 97.000000 1.000000 4.000000 1.000000 -60.708740 114.000000 227.000000 0.638842 0.638842 -0.428675
11140.00000000 18590.00000000 -1100.00000000 106 103 151 97.000000 1.000000 4.000000 1.000000 -60.708740 114.000000 227.000000 0.892580 0.385063 -0.234579
11150.00000000 18580.00000000 -1100.00000000 106 103 151 97.000000 1.000000 4.000000 1.000000 -60.708740 114.000000 227.000000 0.973356 0.155686 -0.168344
11130.00000000 18620.00000000 -1080.00000000 106 103 151 97.000000 1.000000 4.000000 1.000000 -60.708740 114.000000 227.000000 0.766759 0.613713 -0.188246
11150.00000000 18580.00000000 -1080.00000000 106 103 151 97.000000 1.000000 4.000000 1.000000 -60.708740 114.000000 227.000000 0.928533 0.361469 -0.084656
11150.00000000 18600.00000000 -1080.00000000 106 103 151 97.000000 1.000000 4.000000 1.000000 -60.708740 114.000000 227.000000 0.984795 0.155619 -0.077216
11150.00000000 18580.00000000 -1100.00000000 106 103 151 97.000000 1.000000 4.000000 1.000000 -60.708740 114.000000 227.000000 0.973356 0.155686 -0.168344
11120.00000000 18620.00000000 -1090.00000000 106 103 151 97.000000 1.000000 4.000000 1.000000 -60.708740 114.000000 227.000000 0.776244 0.619517 -0.116806
11150.00000000 18590.00000000 -1100.00000000 106 103 151 97.000000 1.000000 4.000000 1.000000 -60.708740 114.000000 227.000000 0.892883 0.401870 -0.203127
11150.00000000 18580.00000000 -1110.00000000 106 103 151 97.000000 1.000000 4.000000 1.000000 -60.708740 114.000000 227.000000 0.995489 0.093833 0.014021
11150.00000000 18600.00000000 -1080.00000000 106 103 151 97.000000 1.000000 4.000000 1.000000 -60.708740 114.000000 227.000000 0.984795 0.155619 -0.077216
11150.00000000 18590.00000000 -1110.00000000 106 103 151 97.000000 1.000000 4.000000 1.000000 -60.708740 114.000000 227.000000 0.947803 0.310734 -0.071508
11180.00000000 18580.00000000 -1130.00000000 106 103 151 97.000000 1.000000 4.000000 1.000000 -60.708740 114.000000 227.000000 0.946976 -0.050111 -0.317372
11180.00000000 18580.00000000 -1130.00000000 106 103 151 97.000000 1.000000 4.000000 1.000000 -60.708740 114.000000 227.000000 0.946976 -0.050111 -0.317372
11160.00000000 18600.00000000 -1150.00000000 106 103 151 97.000000 1.000000 4.000000 1.000000 -60.708740 114.000000 227.000000 0.949787 -0.029011 -0.311550
11150.00000000 18580.00000000 -1130.00000000 106 103 151 97.000000 1.000000 4.000000 1.000000 -60.708740 114.000000 227.000000 0.918290 0.386577 -0.085454
11140.00000000 18580.00000000 -1140.00000000 106 103 151 97.000000 1.000000 4.000000 1.000000 -60.708740 114.000000 227.000000 0.797948 0.480053 -0.364455
11150.00000000 18580.00000000 -1120.00000000 106 103 151 97.000000 1.000000 4.000000 1.000000 -60.708740 114.000000 227.000000 0.991659 0.128773 -0.005503
11140.00000000 18600.00000000 -1130.00000000 106 103 151 97.000000 1.000000 4.000000 1.000000 -60.708740 114.000000 227.000000 0.996825 0.007400 -0.079281
11150.00000000 18580.00000000 -1130.00000000 106 103 151 97.000000 1.000000 4.000000 1.000000 -60.708740 114.000000 227.000000 0.918290 0.386577 -0.085454
11140.00000000 18590.00000000 -1120.00000000 106 103 151 97.000000 1.000000 4.000000 1.000000 -60.708740 114.000000 227.000000 0.713366 0.493869 -0.497195
11180.00000000 18550.00000000 -1060.00000000 106 103 151 97.000000 1.000000 4.000000 1.000000 -60.708740 114.000000 227.000000 0.990032 0.140800 -0.003326
11180.00000000 18560.00000000 -1070.00000000 106 103 151 97.000000 1.000000 4.000000 1.000000 -60.708740 114.000000 227.000000 0.914513 0.350635 -0.201794
11180.00000000 18560.00000000 -1070.00000000 106 103 151 97.000000 1.000000 4.000000 1.000000 -60.708740 114.000000 227.000000 0.914513 0.350635 -0.201794
