//X Y Z R G B PointSourceId ScanDirectionFlag NumberOfReturns ReturnNumber GpsTime Intensity Classification Nx Ny Nz
6700.00000000 4330.00000000 -820.00000000 146 88 138 97.000000 1.000000 4.000000 1.000000 -60.708740 114.000000 149.000000 0.304514 -0.681532 0.665421
6730.00000000 4320.00000000 -820.00000000 146 88 138 97.000000 1.000000 4.000000 1.000000 -60.708740 114.000000 149.000000 -0.088803 -0.624532 0.775934
6700.00000000 4310.00000000 -800.00000000 146 88 138 97.000000 1.000000 4.000000 1.000000 -60.708740 114.000000 149.000000 -0.009622 -0.586918 0.809589
6720.00000000 4330.00000000 -780.00000000 146 88 138 97.000000 1.000000 4.000000 1.000000 -60.708740 114.000000 149.000000 -0.189662 -0.670757 0.717017
6710.00000000 4340.00000000 -810.00000000 146 88 138 97.000000 1.000000 4.000000 1.000000 -60.708740 114.000000 149.000000 0.063807 0.905512 -0.419495
6730.00000000 4320.00000000 -820.00000000 146 88 138 97.000000 1.000000 4.000000 1.000000 -60.708740 114.000000 149.000000 -0.088803 -0.624532 0.775934
6710.00000000 4330.00000000 -830.00000000 146 88 138 97.000000 1.000000 4.000000 1.000000 -60.708740 114.000000 149.000000 -0.103755 -0.591840 0.799350
6730.00000000 4300.00000000 -800.00000000 146 88 138 97.000000 1.000000 4.000000 1.000000 -60.708740 114.000000 149.000000 -0.295238 -0.585689 0.754853
6650.00000000 4330.00000000 -860.00000000 146 88 138 97.000000 1.000000 4.000000 1.000000 -60.708740 114.000000 149.000000 0.049471 -0.410474 0.910529
6650.00000000 4320.00000000 -860.00000000 146 88 138 97.000000 1.000000 4.000000 1.000000 -60.708740 114.000000 149.000000 0.020852 -0.618608 0.785423
6690.00000000 4310.00000000 -880.00000000 146 88 138 97.000000 1.000000 4.000000 1.000000 -60.708740 114.000000 149.000000 0.032115 -0.599020 0.800090
6700.00000000 4300.00000000 -880.00000000 146 88 138 97.000000 1.000000 4.000000 1.000000 -60.708740 114.000000 149.000000 -0.117934 -0.543077 0.831360
6700.00000000 4300.00000000 -880.00000000 146 88 138 97.000000 1.000000 4.000000 1.000000 -60.708740 114.000000 149.000000 -0.117934 -0.543077 0.831360
6670.00000000 4330.00000000 -870.00000000 146 88 138 97.000000 1.000000 4.000000 1.000000 -60.708740 114.000000 149.000000 -0.405822 -0.464028 0.787392
6660.00000000 4310.00000000 -870.00000000 146 88 138 97.000000 1.000000 4.000000 1.000000 -60.708740 114.000000 149.000000 0.462939 -0.336539 0.820018
5650.00000000 4610.00000000 -670.00000000 146 88 138 97.000000 1.000000 4.000000 1.000000 -60.708740 114.000000 153.000000 -0.028381 0.146448 0.988811
5650.00000000 4610.00000000 -670.00000000 146 88 138 97.000000 1.000000 4.000000 1.000000 -60.708740 114.000000 153.000000 -0.028381 0.146448 0.988811
5670.00000000 4590.00000000 -670.00000000 146 88 138 97.000000 1.000000 4.000000 1.000000 -60.708740 114.000000 153.000000 0.185899 0.043810 0.981592
5600.00000000 4600.00000000 -670.00000000 146 88 138 97.000000 1.000000 4.000000 1.000000 -60.708740 114.000000 153.000000 0.519707 0.158429 0.839527
5590.00000000 4610.00000000 -660.00000000 146 88 138 97.000000 1.000000 4.000000 1.000000 -60.708740 114.000000 153.000000 0.346132 0.086867 0.934156
5580.00000000 4610.00000000 -660.00000000 146 88 138 97.000000 1.000000 4.000000 1.000000 -60.708740 114.000000 153.000000 0.091290 0.388324 0.916990
5610.00000000 4610.00000000 -670.00000000 146 88 138 97.000000 1.000000 4.000000 1.000000 -60.708740 114.000000 153.000000 0.349327 0.053642 0.935464
5610.00000000 4590.00000000 -670.00000000 146 88 138 97.000000 1.000000 4.000000 1.000000 -60.708740 114.000000 153.000000 0.410299 0.359994 0.837890
5620.00000000 4580.00000000 -680.00000000 146 88 138 97.000000 1.000000 4.000000 1.000000 -60.708740 114.000000 153.000000 0.039782 -0.135260 0.990011
5620.00000000 4590.00000000 -670.00000000 146 88 138 97.000000 1.000000 4.000000 1.000000 -60.708740 114.000000 153.000000 0.026384 0.307813 0.951081
5620.00000000 4580.00000000 -670.00000000 146 88 138 97.000000 1.000000 4.000000 1.000000 -60.708740 114.000000 153.000000 -0.080345 0.404446 0.911026
5560.00000000 4580.00000000 -640.00000000 146 88 138 97.000000 1.000000 4.000000 1.000000 -60.708740 114.000000 153.000000 0.169650 -0.062877 0.983496
5560.00000000 4590.00000000 -640.00000000 146 88 138 97.000000 1.000000 4.000000 1.000000 -60.708740 114.000000 153.000000 0.491395 0.210166 0.845199
5590.00000000 4590.00000000 -650.00000000 146 88 138 97.000000 1.000000 4.000000 1.000000 -60.708740 114.000000 153.000000 0.106987 0.483582 0.868736
5570.00000000 4580.00000000 -640.00000000 146 88 138 97.000000 1.000000 4.000000 1.000000 -60.708740 114.000000 153.000000 0.298613 0.352634 0.886837
5590.00000000 4590.00000000 -660.00000000 146 88 138 97.000000 1.000000 4.000000 1.000000 -60.708740 114.000000 153.000000 0.338538 0.220410 0.914774
5570.00000000 4590.00000000 -670.00000000 146 88 138 97.000000 1.000000 4.000000 1.000000 -60.708740 114.000000 153.000000 -0.080050 0.119495 0.989602
5580.00000000 4510.00000000 -670.00000000 146 88 138 97.000000 1.000000 4.000000 1.000000 -60.708740 114.000000 153.000000 0.419466 0.137926 0.897231
5490.00000000 4610.00000000 -610.00000000 146 88 138 97.000000 1.000000 4.000000 1.000000 -60.708740 114.000000 153.000000 0.070976 0.300681 0.951080
5540.00000000 4580.00000000 -630.00000000 146 88 138 97.000000 1.000000 4.000000 1.000000 -60.708740 114.000000 153.000000 0.375356 -0.114119 0.919829
5540.00000000 4590.00000000 -680.00000000 146 88 138 97.000000 1.000000 4.000000 1.000000 -60.708740 114.000000 153.000000 0.091175 0.467099 0.879492
5540.00000000 4540.00000000 -650.00000000 146 88 138 97.000000 1.000000 4.000000 1.000000 -60.708740 114.000000 153.000000 0.499644 0.077410 0.862765
5450.00000000 4590.00000000 -590.00000000 146 88 138 97.000000 1.000000 4.000000 1.000000 -60.708740 114.000000 153.000000 0.310279 0.418336 0.853652
5410.00000000 4590.00000000 -590.00000000 146 88 138 97.000000 1.000000 4.000000 1.000000 -60.708740 114.000000 153.000000 -0.040575 0.370408 0.927983
5460.00000000 4590.00000000 -610.00000000 146 88 138 97.000000 1.000000 4.000000 1.000000 -60.708740 114.000000 153.000000 0.217043 0.679234 0.701095
5440.00000000 4560.00000000 -660.00000000 146 88 138 97.000000 1.000000 4.000000 1.000000 -60.708740 114.000000 153.000000 0.328051 0.450482 0.830330
5450.00000000 4550.00000000 -620.00000000 146 88 138 97.000000 1.000000 4.000000 1.000000 -60.708740 114.000000 153.000000 0.165359 0.329328 0.929623
5420.00000000 4550.00000000 -650.00000000 146 88 138 97.000000 1.000000 4.000000 1.000000 -60.708740 114.000000 153.000000 -0.073297 0.613681 0.786144
5250.00000000 4700.00000000 -590.00000000 146 88 138 97.000000 1.000000 4.000000 1.000000 -60.708740 114.000000 153.000000 0.255296 0.015729 0.966735
5210.00000000 4700.00000000 -630.00000000 146 88 138 97.000000 1.000000 4.000000 1.000000 -60.708740 114.000000 153.000000 0.168302 0.404212 0.899048
5340.00000000 4600.00000000 -650.00000000 146 88 138 97.000000 1.000000 4.000000 1.000000 -60.708740 114.000000 153.000000 0.461824 0.221134 0.858963
5340.00000000 4530.00000000 -590.00000000 146 88 138 97.000000 1.000000 4.000000 1.000000 -60.708740 114.000000 153.000000 0.580592 0.493082 0.647907
5320.00000000 4530.00000000 -570.00000000 146 88 138 97.000000 1.000000 4.000000 1.000000 -60.708740 114.000000 153.000000 0.579495 0.589632 0.562600
5350.00000000 4570.00000000 -610.00000000 146 88 138 97.000000 1.000000 4.000000 1.000000 -60.708740 114.000000 153.000000 0.370747 0.470255 0.800879
5280.00000000 4680.00000000 -600.00000000 146 88 138 97.000000 1.000000 4.000000 1.000000 -60.708740 114.000000 153.000000 0.522597 0.379330 0.763545
5220.00000000 4650.00000000 -590.00000000 146 88 138 97.000000 1.000000 4.000000 1.000000 -60.708740 114.000000 153.000000 0.501402 0.119932 0.856862
5250.00000000 4630.00000000 -550.00000000 146 88 138 97.000000 1.000000 4.000000 1.000000 -60.708740 114.000000 153.000000 -0.017987 0.590788 0.806626
5240.00000000 4610.00000000 -610.00000000 146 88 138 97.000000 1.000000 4.000000 1.000000 -60.708740 114.000000 153.000000 0.026123 0.537582 0.842807
5280.00000000 4550.00000000 -570.00000000 146 88 138 97.000000 1.000000 4.000000 1.000000 -60.708740 114.000000 153.000000 0.365189 0.540480 0.757970
5210.00000000 4660.00000000 -580.00000000 146 88 138 97.000000 1.000000 4.000000 1.000000 -60.708740 114.000000 153.000000 0.369677 0.114064 0.922132
5210.00000000 4660.00000000 -590.00000000 146 88 138 97.000000 1.000000 4.000000 1.000000 -60.708740 114.000000 153.000000 0.359994 0.410299 0.837890
5180.00000000 4650.00000000 -580.00000000 146 88 138 97.000000 1.000000 4.000000 1.000000 -60.708740 114.000000 153.000000 0.301955 0.278615 0.911700
5190.00000000 4640.00000000 -570.00000000 146 88 138 97.000000 1.000000 4.000000 1.000000 -60.708740 114.000000 153.000000 0.371772 0.591232 0.715702
5180.00000000 4610.00000000 -580.00000000 146 88 138 97.000000 1.000000 4.000000 1.000000 -60.708740 114.000000 153.000000 0.479050 0.692704 0.539140
5150.00000000 4630.00000000 -570.00000000 146 88 138 97.000000 1.000000 4.000000 1.000000 -60.708740 114.000000 153.000000 0.268769 0.704526 0.656815
5170.00000000 4610.00000000 -570.00000000 146 88 138 97.000000 1.000000 4.000000 1.000000 -60.708740 114.000000 153.000000 0.457146 0.486852 0.744307
5190.00000000 4650.00000000 -620.00000000 146 88 138 97.000000 1.000000 4.000000 1.000000 -60.708740 114.000000 153.000000 -0.125478 0.421549 0.898082
5710.00000000 4530.00000000 -730.00000000 146 88 138 97.000000 1.000000 4.000000 1.000000 -60.708740 114.000000 153.000000 0.494590 -0.119682 0.860847
5720.00000000 4520.00000000 -730.00000000 146 88 138 97.000000 1.000000 4.000000 1.000000 -60.708740 114.000000 153.000000 0.323922 0.077374 0.942914
5670.00000000 4550.00000000 -710.00000000 146 88 138 97.000000 1.000000 4.000000 1.000000 -60.708740 114.000000 153.000000 0.536015 0.324809 0.779222
5650.00000000 4550.00000000 -700.00000000 146 88 138 97.000000 1.000000 4.000000 1.000000 -60.708740 114.000000 153.000000 0.095566 0.007516 0.995395
6440.00000000 4520.00000000 -680.00000000 146 88 138 97.000000 1.000000 4.000000 1.000000 -60.708740 114.000000 149.000000 -0.022773 0.972037 -0.233720
6410.00000000 4530.00000000 -690.00000000 146 88 138 97.000000 1.000000 4.000000 1.000000 -60.708740 114.000000 149.000000 0.494085 0.865704 0.080236
6400.00000000 4530.00000000 -680.00000000 146 88 138 97.000000 1.000000 4.000000 1.000000 -60.708740 114.000000 149.000000 0.108709 0.938118 -0.328811
6410.00000000 4520.00000000 -680.00000000 146 88 138 97.000000 1.000000 4.000000 1.000000 -60.708740 114.000000 149.000000 0.546613 0.834750 -0.066385
6400.00000000 4530.00000000 -680.00000000 146 88 138 97.000000 1.000000 4.000000 1.000000 -60.708740 114.000000 149.000000 0.108709 0.938118 -0.328811
6830.00000000 4370.00000000 -750.00000000 146 88 138 97.000000 1.000000 4.000000 1.000000 -60.708740 114.000000 149.000000 0.160982 0.904633 -0.394619
6740.00000000 4410.00000000 -740.00000000 146 88 138 97.000000 1.000000 4.000000 1.000000 -60.708740 114.000000 149.000000 0.435986 0.832623 -0.341549
6790.00000000 4380.00000000 -800.00000000 146 88 138 97.000000 1.000000 4.000000 1.000000 -60.708740 114.000000 149.000000 0.086875 0.990378 -0.107725
6780.00000000 4380.00000000 -790.00000000 146 88 138 97.000000 1.000000 4.000000 1.000000 -60.708740 114.000000 149.000000 -0.075096 0.840227 -0.537009
6790.00000000 4380.00000000 -810.00000000 146 88 138 97.000000 1.000000 4.000000 1.000000 -60.708740 114.000000 149.000000 -0.048905 0.839763 -0.540746
6770.00000000 4370.00000000 -810.00000000 146 88 138 97.000000 1.000000 4.000000 1.000000 -60.708740 114.000000 149.000000 0.024913 0.913906 -0.405161
6690.00000000 4410.00000000 -760.00000000 146 88 138 97.000000 1.000000 4.000000 1.000000 -60.708740 114.000000 149.000000 -0.169620 -0.704459 0.689178
6700.00000000 4390.00000000 -840.00000000 146 88 138 97.000000 1.000000 4.000000 1.000000 -60.708740 114.000000 149.000000 0.295963 0.740707 -0.603124
6690.00000000 4390.00000000 -840.00000000 146 88 138 97.000000 1.000000 4.000000 1.000000 -60.708740 114.000000 149.000000 0.507859 0.615842 -0.602344
6690.00000000 4350.00000000 -800.00000000 146 88 138 97.000000 1.000000 4.000000 1.000000 -60.708740 114.000000 149.000000 -0.162228 -0.626170 0.762623
6690.00000000 4380.00000000 -800.00000000 146 88 138 97.000000 1.000000 4.000000 1.000000 -60.708740 114.000000 149.000000 -0.011900 0.892505 -0.450880
6680.00000000 4350.00000000 -800.00000000 146 88 138 97.000000 1.000000 4.000000 1.000000 -60.708740 114.000000 149.000000 0.423862 0.764261 -0.486051
6660.00000000 4380.00000000 -790.00000000 146 88 138 97.000000 1.000000 4.000000 1.000000 -60.708740 114.000000 149.000000 -0.046620 0.789710 -0.611707
6650.00000000 4380.00000000 -790.00000000 146 88 138 97.000000 1.000000 4.000000 1.000000 -60.708740 114.000000 149.000000 -0.006810 -0.554373 0.832241
6680.00000000 4350.00000000 -800.00000000 146 88 138 97.000000 1.000000 4.000000 1.000000 -60.708740 114.000000 149.000000 0.423862 0.764261 -0.486051
6600.00000000 4450.00000000 -770.00000000 146 88 138 97.000000 1.000000 4.000000 1.000000 -60.708740 114.000000 149.000000 0.525420 0.616650 -0.586240
6590.00000000 4400.00000000 -760.00000000 146 88 138 97.000000 1.000000 4.000000 1.000000 -60.708740 114.000000 149.000000 0.236081 0.870643 -0.431562
6570.00000000 4400.00000000 -770.00000000 146 88 138 97.000000 1.000000 4.000000 1.000000 -60.708740 114.000000 149.000000 0.539763 0.667557 -0.512859
6620.00000000 4380.00000000 -800.00000000 146 88 138 97.000000 1.000000 4.000000 1.000000 -60.708740 114.000000 149.000000 0.319745 0.800157 -0.507456
6620.00000000 4380.00000000 -790.00000000 146 88 138 97.000000 1.000000 4.000000 1.000000 -60.708740 114.000000 149.000000 0.125804 0.857493 -0.498879
6620.00000000 4380.00000000 -780.00000000 146 88 138 97.000000 1.000000 4.000000 1.000000 -60.708740 114.000000 149.000000 -0.087863 0.885605 -0.456052
6620.00000000 4380.00000000 -800.00000000 146 88 138 97.000000 1.000000 4.000000 1.000000 -60.708740 114.000000 149.000000 0.319745 0.800157 -0.507456
6580.00000000 4410.00000000 -810.00000000 146 88 138 97.000000 1.000000 4.000000 1.000000 -60.708740 114.000000 149.000000 -0.080564 0.857931 -0.507409
6440.00000000 4520.00000000 -700.00000000 146 88 138 97.000000 1.000000 4.000000 1.000000 -60.708740 114.000000 149.000000 0.367998 0.922062 -0.119909
6410.00000000 4530.00000000 -700.00000000 146 88 138 97.000000 1.000000 4.000000 1.000000 -60.708740 114.000000 149.000000 0.043629 0.806442 -0.589702
6510.00000000 4450.00000000 -770.00000000 146 88 138 97.000000 1.000000 4.000000 1.000000 -60.708740 114.000000 149.000000 0.233400 0.943267 -0.236162
6500.00000000 4440.00000000 -810.00000000 146 88 138 97.000000 1.000000 4.000000 1.000000 -60.708740 114.000000 149.000000 0.301444 0.767167 -0.566204
6560.00000000 4420.00000000 -770.00000000 146 88 138 97.000000 1.000000 4.000000 1.000000 -60.708740 114.000000 149.000000 0.384709 0.744862 -0.545141
6560.00000000 4420.00000000 -780.00000000 146 88 138 97.000000 1.000000 4.000000 1.000000 -60.708740 114.000000 149.000000 0.345169 0.812818 -0.469239
6450.00000000 4510.00000000 -710.00000000 146 88 138 97.000000 1.000000 4.000000 1.000000 -60.708740 114.000000 149.000000 0.639315 0.730422 -0.240332
6470.00000000 4490.00000000 -710.00000000 146 88 138 97.000000 1.000000 4.000000 1.000000 -60.708740 114.000000 149.000000 0.553118 0.833075 -0.006795
6460.00000000 4480.00000000 -740.00000000 146 88 138 97.000000 1.000000 4.000000 1.000000 -60.708740 114.000000 149.000000 0.129334 0.771547 -0.622887
6450.00000000 4480.00000000 -750.00000000 146 88 138 97.000000 1.000000 4.000000 1.000000 -60.708740 114.000000 149.000000 0.394508 0.902348 -0.173584
6450.00000000 4480.00000000 -740.00000000 146 88 138 97.000000 1.000000 4.000000 1.000000 -60.708740 114.000000 149.000000 0.292209 0.848797 -0.440633
6450.00000000 4460.00000000 -770.00000000 146 88 138 97.000000 1.000000 4.000000 1.000000 -60.708740 114.000000 149.000000 0.165018 -0.604055 0.779671
6470.00000000 4460.00000000 -750.00000000 146 88 138 97.000000 1.000000 4.000000 1.000000 -60.708740 114.000000 149.000000 0.245696 0.771516 -0.586853
6470.00000000 4450.00000000 -760.00000000 146 88 138 97.000000 1.000000 4.000000 1.000000 -60.708740 114.000000 149.000000 -0.019777 0.905804 -0.423236
6470.00000000 4460.00000000 -750.00000000 146 88 138 97.000000 1.000000 4.000000 1.000000 -60.708740 114.000000 149.000000 0.245696 0.771516 -0.586853
6400.00000000 4510.00000000 -730.00000000 146 88 138 97.000000 1.000000 4.000000 1.000000 -60.708740 114.000000 149.000000 -0.145007 0.885833 -0.440763
6420.00000000 4480.00000000 -740.00000000 146 88 138 97.000000 1.000000 4.000000 1.000000 -60.708740 114.000000 149.000000 -0.159389 0.870059 -0.466469
6420.00000000 4480.00000000 -750.00000000 146 88 138 97.000000 1.000000 4.000000 1.000000 -60.708740 114.000000 149.000000 0.097510 -0.589428 0.801914
6420.00000000 4480.00000000 -750.00000000 146 88 138 97.000000 1.000000 4.000000 1.000000 -60.708740 114.000000 149.000000 0.097510 -0.589428 0.801914
6400.00000000 4500.00000000 -750.00000000 146 88 138 97.000000 1.000000 4.000000 1.000000 -60.708740 114.000000 149.000000 0.160446 0.939366 -0.303065
6410.00000000 4470.00000000 -770.00000000 146 88 138 97.000000 1.000000 4.000000 1.000000 -60.708740 114.000000 149.000000 0.481422 0.561939 -0.672649
6390.00000000 4520.00000000 -660.00000000 146 88 138 97.000000 1.000000 4.000000 1.000000 -60.708740 114.000000 149.000000 0.647874 0.760793 -0.038110
6390.00000000 4550.00000000 -670.00000000 146 88 138 97.000000 1.000000 4.000000 1.000000 -60.708740 114.000000 149.000000 0.555423 0.819063 0.143669
6120.00000000 4620.00000000 -690.00000000 146 88 138 97.000000 1.000000 4.000000 1.000000 -60.708740 114.000000 149.000000 -0.181562 -0.767444 0.614870
5900.00000000 4670.00000000 -670.00000000 146 88 138 97.000000 1.000000 4.000000 1.000000 -60.708740 114.000000 149.000000 0.372926 0.599639 -0.708067
6300.00000000 4530.00000000 -740.00000000 146 88 138 97.000000 1.000000 4.000000 1.000000 -60.708740 114.000000 149.000000 0.386320 0.803096 -0.453645
6260.00000000 4560.00000000 -740.00000000 146 88 138 97.000000 1.000000 4.000000 1.000000 -60.708740 114.000000 149.000000 0.252291 0.947797 -0.195014
6370.00000000 4490.00000000 -740.00000000 146 88 138 97.000000 1.000000 4.000000 1.000000 -60.708740 114.000000 149.000000 0.469057 0.833707 -0.291408
6390.00000000 4500.00000000 -760.00000000 146 88 138 97.000000 1.000000 4.000000 1.000000 -60.708740 114.000000 149.000000 0.038000 0.967165 -0.251291
6390.00000000 4480.00000000 -740.00000000 146 88 138 97.000000 1.000000 4.000000 1.000000 -60.708740 114.000000 149.000000 0.566643 0.712021 -0.414657
6370.00000000 4500.00000000 -710.00000000 146 88 138 97.000000 1.000000 4.000000 1.000000 -60.708740 114.000000 149.000000 0.339889 0.883711 -0.321761
6360.00000000 4490.00000000 -800.00000000 146 88 138 97.000000 1.000000 4.000000 1.000000 -60.708740 114.000000 149.000000 0.310594 0.835014 -0.454185
6340.00000000 4500.00000000 -790.00000000 146 88 138 97.000000 1.000000 4.000000 1.000000 -60.708740 114.000000 149.000000 0.038043 0.784819 -0.618556
6150.00000000 4600.00000000 -720.00000000 146 88 138 97.000000 1.000000 4.000000 1.000000 -60.708740 114.000000 149.000000 -0.137198 0.900981 -0.411594
6200.00000000 4580.00000000 -700.00000000 146 88 138 97.000000 1.000000 4.000000 1.000000 -60.708740 114.000000 149.000000 0.212237 0.766843 -0.605729
9270.00000000 3370.00000000 -970.00000000 146 88 138 97.000000 1.000000 4.000000 1.000000 -60.708740 114.000000 149.000000 -0.077566 -0.324725 0.942623
9210.00000000 3340.00000000 -990.00000000 146 88 138 97.000000 1.000000 4.000000 1.000000 -60.708740 114.000000 149.000000 -0.282702 -0.288501 0.914794
9180.00000000 3370.00000000 -1030.00000000 146 88 138 97.000000 1.000000 4.000000 1.000000 -60.708740 114.000000 149.000000 0.085479 -0.475036 0.875805
9140.00000000 3450.00000000 -970.00000000 146 88 138 97.000000 1.000000 4.000000 1.000000 -60.708740 114.000000 149.000000 0.485163 0.394296 0.780479
9120.00000000 3380.00000000 -990.00000000 146 88 138 97.000000 1.000000 4.000000 1.000000 -60.708740 114.000000 149.000000 0.161654 -0.455835 0.875261
9120.00000000 3370.00000000 -960.00000000 146 88 138 97.000000 1.000000 4.000000 1.000000 -60.708740 114.000000 149.000000 -0.028663 -0.157076 0.987171
9130.00000000 3370.00000000 -1020.00000000 146 88 138 97.000000 1.000000 4.000000 1.000000 -60.708740 114.000000 149.000000 -0.312128 -0.376076 0.872435
9130.00000000 3340.00000000 -1020.00000000 146 88 138 97.000000 1.000000 4.000000 1.000000 -60.708740 114.000000 149.000000 0.364410 -0.395690 0.842992
9130.00000000 3370.00000000 -990.00000000 146 88 138 97.000000 1.000000 4.000000 1.000000 -60.708740 114.000000 149.000000 0.354926 -0.062013 0.932835
9300.00000000 3340.00000000 -1050.00000000 146 88 138 97.000000 1.000000 4.000000 1.000000 -60.708740 114.000000 149.000000 0.229625 0.283157 0.931179
9300.00000000 3360.00000000 -1050.00000000 146 88 138 97.000000 1.000000 4.000000 1.000000 -60.708740 114.000000 149.000000 0.095792 0.428980 0.898220
9260.00000000 3380.00000000 -1090.00000000 146 88 138 97.000000 1.000000 4.000000 1.000000 -60.708740 114.000000 149.000000 0.364474 -0.174437 0.914730
9190.00000000 3440.00000000 -1060.00000000 146 88 138 97.000000 1.000000 4.000000 1.000000 -60.708740 114.000000 149.000000 0.069661 0.204093 0.976470
9190.00000000 3440.00000000 -1070.00000000 146 88 138 97.000000 1.000000 4.000000 1.000000 -60.708740 114.000000 149.000000 0.178966 0.086439 0.980051
9250.00000000 3340.00000000 -1060.00000000 146 88 138 97.000000 1.000000 4.000000 1.000000 -60.708740 114.000000 149.000000 0.459213 -0.376011 0.804823
9250.00000000 3360.00000000 -1040.00000000 146 88 138 97.000000 1.000000 4.000000 1.000000 -60.708740 114.000000 149.000000 0.289013 0.186683 0.938947
9210.00000000 3380.00000000 -1060.00000000 146 88 138 97.000000 1.000000 4.000000 1.000000 -60.708740 114.000000 149.000000 0.100818 -0.401890 0.910121
9210.00000000 3380.00000000 -1070.00000000 146 88 138 97.000000 1.000000 4.000000 1.000000 -60.708740 114.000000 149.000000 -0.049372 -0.289900 0.955783
9180.00000000 3400.00000000 -1110.00000000 146 88 138 97.000000 1.000000 4.000000 1.000000 -60.708740 114.000000 149.000000 -0.165040 0.172716 0.971046
9180.00000000 3360.00000000 -1080.00000000 146 88 138 97.000000 1.000000 4.000000 1.000000 -60.708740 114.000000 149.000000 0.413103 -0.320271 0.852509
9250.00000000 3350.00000000 -1120.00000000 146 88 138 97.000000 1.000000 4.000000 1.000000 -60.708740 114.000000 149.000000 0.009245 -0.447723 0.894125
9110.00000000 3470.00000000 -1070.00000000 146 88 138 97.000000 1.000000 4.000000 1.000000 -60.708740 114.000000 149.000000 0.408759 0.706641 0.577559
9110.00000000 3470.00000000 -1070.00000000 146 88 138 97.000000 1.000000 4.000000 1.000000 -60.708740 114.000000 149.000000 0.408759 0.706641 0.577559
9170.00000000 3390.00000000 -1070.00000000 146 88 138 97.000000 1.000000 4.000000 1.000000 -60.708740 114.000000 149.000000 0.217610 -0.317170 0.923065
9160.00000000 3370.00000000 -1070.00000000 146 88 138 97.000000 1.000000 4.000000 1.000000 -60.708740 114.000000 149.000000 0.137305 -0.547742 0.825304
9140.00000000 3360.00000000 -1070.00000000 146 88 138 97.000000 1.000000 4.000000 1.000000 -60.708740 114.000000 149.000000 0.326981 -0.196755 0.924322
9170.00000000 3340.00000000 -1100.00000000 146 88 138 97.000000 1.000000 4.000000 1.000000 -60.708740 114.000000 149.000000 -0.254518 0.801028 -0.541826
9130.00000000 3380.00000000 -1070.00000000 146 88 138 97.000000 1.000000 4.000000 1.000000 -60.708740 114.000000 149.000000 -0.041113 -0.041113 0.998308
9110.00000000 3400.00000000 -1060.00000000 146 88 138 97.000000 1.000000 4.000000 1.000000 -60.708740 114.000000 149.000000 0.339517 -0.260149 0.903908
9110.00000000 3340.00000000 -1090.00000000 146 88 138 97.000000 1.000000 4.000000 1.000000 -60.708740 114.000000 149.000000 0.254293 -0.728131 0.636522
9110.00000000 3400.00000000 -1120.00000000 146 88 138 97.000000 1.000000 4.000000 1.000000 -60.708740 114.000000 149.000000 -0.091529 -0.071189 0.993255
9090.00000000 3360.00000000 -1120.00000000 146 88 138 97.000000 1.000000 4.000000 1.000000 -60.708740 114.000000 149.000000 0.586714 0.769177 -0.253246
9090.00000000 3360.00000000 -1120.00000000 146 88 138 97.000000 1.000000 4.000000 1.000000 -60.708740 114.000000 149.000000 0.586714 0.769177 -0.253246
9090.00000000 3380.00000000 -1160.00000000 146 88 138 97.000000 1.000000 4.000000 1.000000 -60.708740 114.000000 149.000000 0.354111 0.933326 0.059238
9360.00000000 3240.00000000 -1010.00000000 146 88 138 97.000000 1.000000 4.000000 1.000000 -60.708740 114.000000 149.000000 -0.343917 -0.425578 0.837021
9370.00000000 3220.00000000 -1020.00000000 146 88 138 97.000000 1.000000 4.000000 1.000000 -60.708740 114.000000 149.000000 0.196002 0.717645 -0.668258
9250.00000000 3320.00000000 -1000.00000000 146 88 138 97.000000 1.000000 4.000000 1.000000 -60.708740 114.000000 149.000000 -0.080471 0.051810 0.995410
9090.00000000 3320.00000000 -1020.00000000 146 88 138 97.000000 1.000000 4.000000 1.000000 -60.708740 114.000000 149.000000 -0.351171 -0.605974 0.713775
9110.00000000 3310.00000000 -1030.00000000 146 88 138 97.000000 1.000000 4.000000 1.000000 -60.708740 114.000000 149.000000 0.223487 0.692340 -0.686089
9120.00000000 3310.00000000 -1030.00000000 146 88 138 97.000000 1.000000 4.000000 1.000000 -60.708740 114.000000 149.000000 -0.123573 0.751859 -0.647641
9350.00000000 3280.00000000 -1110.00000000 146 88 138 97.000000 1.000000 4.000000 1.000000 -60.708740 114.000000 149.000000 -0.102326 -0.183693 0.977643
9380.00000000 3250.00000000 -1050.00000000 146 88 138 97.000000 1.000000 4.000000 1.000000 -60.708740 114.000000 149.000000 0.336687 -0.502637 0.796240
9380.00000000 3190.00000000 -1100.00000000 146 88 138 97.000000 1.000000 4.000000 1.000000 -60.708740 114.000000 149.000000 0.159286 0.826205 -0.540383
9350.00000000 3200.00000000 -1140.00000000 146 88 138 97.000000 1.000000 4.000000 1.000000 -60.708740 114.000000 149.000000 -0.079929 0.962954 -0.257549
9370.00000000 3210.00000000 -1160.00000000 146 88 138 97.000000 1.000000 4.000000 1.000000 -60.708740 114.000000 149.000000 0.164934 0.986194 -0.014787
9380.00000000 3190.00000000 -1130.00000000 146 88 138 97.000000 1.000000 4.000000 1.000000 -60.708740 114.000000 149.000000 0.137128 0.974995 -0.174870
9390.00000000 3220.00000000 -1150.00000000 146 88 138 97.000000 1.000000 4.000000 1.000000 -60.708740 114.000000 149.000000 0.320405 0.895644 -0.308483
9300.00000000 3270.00000000 -1110.00000000 146 88 138 97.000000 1.000000 4.000000 1.000000 -60.708740 114.000000 149.000000 0.064795 0.715628 -0.695470
9290.00000000 3320.00000000 -1050.00000000 146 88 138 97.000000 1.000000 4.000000 1.000000 -60.708740 114.000000 149.000000 -0.218402 -0.265700 0.938991
9260.00000000 3260.00000000 -1080.00000000 146 88 138 97.000000 1.000000 4.000000 1.000000 -60.708740 114.000000 149.000000 0.255358 0.693114 -0.674081
9320.00000000 3310.00000000 -1120.00000000 146 88 138 97.000000 1.000000 4.000000 1.000000 -60.708740 114.000000 149.000000 -0.301975 -0.322801 0.897001
9310.00000000 3260.00000000 -1120.00000000 146 88 138 97.000000 1.000000 4.000000 1.000000 -60.708740 114.000000 149.000000 -0.289341 -0.447163 0.846361
9270.00000000 3180.00000000 -1140.00000000 146 88 138 97.000000 1.000000 4.000000 1.000000 -60.708740 114.000000 149.000000 -0.150070 0.954872 -0.256315
9340.00000000 3200.00000000 -1150.00000000 146 88 138 97.000000 1.000000 4.000000 1.000000 -60.708740 114.000000 149.000000 -0.358685 -0.663322 0.656771
9250.00000000 3330.00000000 -1070.00000000 146 88 138 97.000000 1.000000 4.000000 1.000000 -60.708740 114.000000 149.000000 -0.041273 -0.182779 0.982287
9250.00000000 3300.00000000 -1060.00000000 146 88 138 97.000000 1.000000 4.000000 1.000000 -60.708740 114.000000 149.000000 -0.276803 -0.561516 0.779795
9220.00000000 3330.00000000 -1060.00000000 146 88 138 97.000000 1.000000 4.000000 1.000000 -60.708740 114.000000 149.000000 -0.122921 -0.142393 0.982148
9250.00000000 3330.00000000 -1070.00000000 146 88 138 97.000000 1.000000 4.000000 1.000000 -60.708740 114.000000 149.000000 -0.041273 -0.182779 0.982287
9230.00000000 3320.00000000 -1080.00000000 146 88 138 97.000000 1.000000 4.000000 1.000000 -60.708740 114.000000 149.000000 -0.079920 -0.693124 0.716374
9230.00000000 3290.00000000 -1070.00000000 146 88 138 97.000000 1.000000 4.000000 1.000000 -60.708740 114.000000 149.000000 0.193195 0.804726 -0.561331
9250.00000000 3290.00000000 -1110.00000000 146 88 138 97.000000 1.000000 4.000000 1.000000 -60.708740 114.000000 149.000000 0.459875 0.778374 -0.427375
9250.00000000 3290.00000000 -1110.00000000 146 88 138 97.000000 1.000000 4.000000 1.000000 -60.708740 114.000000 149.000000 0.459875 0.778374 -0.427375
9180.00000000 3300.00000000 -1070.00000000 146 88 138 97.000000 1.000000 4.000000 1.000000 -60.708740 114.000000 149.000000 0.061260 -0.594076 0.802073
9190.00000000 3330.00000000 -1110.00000000 146 88 138 97.000000 1.000000 4.000000 1.000000 -60.708740 114.000000 149.000000 0.033390 0.901541 -0.431404
9210.00000000 3300.00000000 -1090.00000000 146 88 138 97.000000 1.000000 4.000000 1.000000 -60.708740 114.000000 149.000000 0.442960 0.742658 -0.502241
9190.00000000 3290.00000000 -1120.00000000 146 88 138 97.000000 1.000000 4.000000 1.000000 -60.708740 114.000000 149.000000 0.551683 0.622541 -0.555057
9210.00000000 3330.00000000 -1130.00000000 146 88 138 97.000000 1.000000 4.000000 1.000000 -60.708740 114.000000 149.000000 0.015692 0.966893 -0.254700
9240.00000000 3240.00000000 -1090.00000000 146 88 138 97.000000 1.000000 4.000000 1.000000 -60.708740 114.000000 149.000000 -0.070238 0.931654 -0.356493
9250.00000000 3190.00000000 -1070.00000000 146 88 138 97.000000 1.000000 4.000000 1.000000 -60.708740 114.000000 149.000000 0.435303 0.863022 -0.256328
9180.00000000 3240.00000000 -1090.00000000 146 88 138 97.000000 1.000000 4.000000 1.000000 -60.708740 114.000000 149.000000 0.533074 0.746304 -0.398575
9140.00000000 3320.00000000 -1070.00000000 146 88 138 97.000000 1.000000 4.000000 1.000000 -60.708740 114.000000 149.000000 0.208616 0.826850 -0.522301
9170.00000000 3300.00000000 -1070.00000000 146 88 138 97.000000 1.000000 4.000000 1.000000 -60.708740 114.000000 149.000000 -0.216638 -0.446723 0.868047
9150.00000000 3300.00000000 -1100.00000000 146 88 138 97.000000 1.000000 4.000000 1.000000 -60.708740 114.000000 149.000000 0.025697 0.872333 -0.488236
9150.00000000 3310.00000000 -1090.00000000 146 88 138 97.000000 1.000000 4.000000 1.000000 -60.708740 114.000000 149.000000 0.322961 0.857623 -0.400224
9170.00000000 3310.00000000 -1120.00000000 146 88 138 97.000000 1.000000 4.000000 1.000000 -60.708740 114.000000 149.000000 0.502356 0.822744 -0.265953
9120.00000000 3310.00000000 -1120.00000000 146 88 138 97.000000 1.000000 4.000000 1.000000 -60.708740 114.000000 149.000000 0.523985 0.846657 -0.092804
8590.00000000 3750.00000000 -1000.00000000 146 88 138 97.000000 1.000000 4.000000 1.000000 -60.708740 114.000000 149.000000 0.636169 0.770986 -0.029491
8600.00000000 3740.00000000 -1000.00000000 146 88 138 97.000000 1.000000 4.000000 1.000000 -60.708740 114.000000 149.000000 0.347502 0.912734 0.214846
8620.00000000 3740.00000000 -1030.00000000 146 88 138 97.000000 1.000000 4.000000 1.000000 -60.708740 114.000000 149.000000 0.286323 0.953102 0.098056
8620.00000000 3740.00000000 -1030.00000000 146 88 138 97.000000 1.000000 4.000000 1.000000 -60.708740 114.000000 149.000000 0.286323 0.953102 0.098056
8490.00000000 3680.00000000 -1020.00000000 146 88 138 97.000000 1.000000 4.000000 1.000000 -60.708740 114.000000 149.000000 0.526981 0.694276 0.490176
8450.00000000 3680.00000000 -980.00000000 146 88 138 97.000000 1.000000 4.000000 1.000000 -60.708740 114.000000 149.000000 0.636908 0.492386 0.593215
8420.00000000 3690.00000000 -1020.00000000 146 88 138 97.000000 1.000000 4.000000 1.000000 -60.708740 114.000000 149.000000 -0.050709 0.998649 0.011384
8420.00000000 3690.00000000 -1000.00000000 146 88 138 97.000000 1.000000 4.000000 1.000000 -60.708740 114.000000 149.000000 0.302603 0.826280 0.475072
8480.00000000 3780.00000000 -1100.00000000 146 88 138 97.000000 1.000000 4.000000 1.000000 -60.708740 114.000000 149.000000 0.556948 0.800710 -0.220619
8460.00000000 3750.00000000 -1070.00000000 146 88 138 97.000000 1.000000 4.000000 1.000000 -60.708740 114.000000 149.000000 0.049886 -0.736887 0.674173
8450.00000000 3740.00000000 -1100.00000000 146 88 138 97.000000 1.000000 4.000000 1.000000 -60.708740 114.000000 149.000000 0.536179 0.712138 -0.453179
9070.00000000 3420.00000000 -1030.00000000 146 88 138 97.000000 1.000000 4.000000 1.000000 -60.708740 114.000000 149.000000 0.003780 -0.351535 0.936167
9010.00000000 3440.00000000 -1020.00000000 146 88 138 97.000000 1.000000 4.000000 1.000000 -60.708740 114.000000 149.000000 -0.044470 0.207926 0.977133
9030.00000000 3470.00000000 -1020.00000000 146 88 138 97.000000 1.000000 4.000000 1.000000 -60.708740 114.000000 149.000000 0.304020 -0.107535 0.946577
9070.00000000 3430.00000000 -1030.00000000 146 88 138 97.000000 1.000000 4.000000 1.000000 -60.708740 114.000000 149.000000 0.058879 -0.132766 0.989397
9010.00000000 3460.00000000 -1030.00000000 146 88 138 97.000000 1.000000 4.000000 1.000000 -60.708740 114.000000 149.000000 0.082640 0.383396 0.919879
9020.00000000 3460.00000000 -1030.00000000 146 88 138 97.000000 1.000000 4.000000 1.000000 -60.708740 114.000000 149.000000 0.069474 0.423653 0.903157
9010.00000000 3420.00000000 -1020.00000000 146 88 138 97.000000 1.000000 4.000000 1.000000 -60.708740 114.000000 149.000000 0.002944 -0.002944 0.999991
9080.00000000 3400.00000000 -960.00000000 146 88 138 97.000000 1.000000 4.000000 1.000000 -60.708740 114.000000 149.000000 0.161437 0.040650 0.986045
9080.00000000 3410.00000000 -960.00000000 146 88 138 97.000000 1.000000 4.000000 1.000000 -60.708740 114.000000 149.000000 0.203762 -0.022378 0.978765
9080.00000000 3380.00000000 -1010.00000000 146 88 138 97.000000 1.000000 4.000000 1.000000 -60.708740 114.000000 149.000000 -0.326278 -0.468138 0.821212
9040.00000000 3390.00000000 -950.00000000 146 88 138 97.000000 1.000000 4.000000 1.000000 -60.708740 114.000000 149.000000 -0.048649 -0.186291 0.981289
9040.00000000 3370.00000000 -970.00000000 146 88 138 97.000000 1.000000 4.000000 1.000000 -60.708740 114.000000 149.000000 0.050024 -0.721768 0.690325
9000.00000000 3450.00000000 -1030.00000000 146 88 138 97.000000 1.000000 4.000000 1.000000 -60.708740 114.000000 149.000000 0.079499 0.248591 0.965341
8980.00000000 3450.00000000 -1020.00000000 146 88 138 97.000000 1.000000 4.000000 1.000000 -60.708740 114.000000 149.000000 0.529160 -0.028863 0.848031
8770.00000000 3560.00000000 -990.00000000 146 88 138 97.000000 1.000000 4.000000 1.000000 -60.708740 114.000000 149.000000 0.225826 0.050048 0.972881
8770.00000000 3540.00000000 -1010.00000000 146 88 138 97.000000 1.000000 4.000000 1.000000 -60.708740 114.000000 149.000000 0.188347 0.305541 0.933365
8760.00000000 3520.00000000 -1020.00000000 146 88 138 97.000000 1.000000 4.000000 1.000000 -60.708740 114.000000 149.000000 0.034811 -0.575076 0.817359
8760.00000000 3530.00000000 -1010.00000000 146 88 138 97.000000 1.000000 4.000000 1.000000 -60.708740 114.000000 149.000000 0.099993 -0.387643 0.916370
8890.00000000 3490.00000000 -1030.00000000 146 88 138 97.000000 1.000000 4.000000 1.000000 -60.708740 114.000000 149.000000 0.268662 -0.257291 0.928236
8790.00000000 3490.00000000 -1030.00000000 146 88 138 97.000000 1.000000 4.000000 1.000000 -60.708740 114.000000 149.000000 -0.255393 -0.568759 0.781848
8800.00000000 3480.00000000 -1030.00000000 146 88 138 97.000000 1.000000 4.000000 1.000000 -60.708740 114.000000 149.000000 -0.371521 -0.477670 0.796117
8780.00000000 3500.00000000 -1030.00000000 146 88 138 97.000000 1.000000 4.000000 1.000000 -60.708740 114.000000 149.000000 -0.060663 -0.548786 0.833759
8810.00000000 3490.00000000 -1030.00000000 146 88 138 97.000000 1.000000 4.000000 1.000000 -60.708740 114.000000 149.000000 0.003818 -0.372924 0.927854
8800.00000000 3500.00000000 -1030.00000000 146 88 138 97.000000 1.000000 4.000000 1.000000 -60.708740 114.000000 149.000000 -0.096853 -0.377862 0.920782
8760.00000000 3500.00000000 -1030.00000000 146 88 138 97.000000 1.000000 4.000000 1.000000 -60.708740 114.000000 149.000000 0.240949 -0.644106 0.725997
8960.00000000 3520.00000000 -1050.00000000 146 88 138 97.000000 1.000000 4.000000 1.000000 -60.708740 114.000000 149.000000 0.325255 0.238520 0.915050
8980.00000000 3530.00000000 -1110.00000000 146 88 138 97.000000 1.000000 4.000000 1.000000 -60.708740 114.000000 149.000000 0.553354 0.824921 -0.115343
8930.00000000 3510.00000000 -1050.00000000 146 88 138 97.000000 1.000000 4.000000 1.000000 -60.708740 114.000000 149.000000 0.127861 0.559944 0.818605
9080.00000000 3470.00000000 -1060.00000000 146 88 138 97.000000 1.000000 4.000000 1.000000 -60.708740 114.000000 149.000000 0.405510 0.424743 0.809416
9020.00000000 3490.00000000 -1050.00000000 146 88 138 97.000000 1.000000 4.000000 1.000000 -60.708740 114.000000 149.000000 0.014492 0.436066 0.899798
9010.00000000 3420.00000000 -1070.00000000 146 88 138 97.000000 1.000000 4.000000 1.000000 -60.708740 114.000000 149.000000 -0.242310 -0.576853 0.780081
9030.00000000 3420.00000000 -1060.00000000 146 88 138 97.000000 1.000000 4.000000 1.000000 -60.708740 114.000000 149.000000 0.208020 -0.459439 0.863506
9030.00000000 3460.00000000 -1040.00000000 146 88 138 97.000000 1.000000 4.000000 1.000000 -60.708740 114.000000 149.000000 0.230067 -0.086747 0.969301
9050.00000000 3400.00000000 -1090.00000000 146 88 138 97.000000 1.000000 4.000000 1.000000 -60.708740 114.000000 149.000000 -0.101836 -0.520652 0.847674
9060.00000000 3380.00000000 -1100.00000000 146 88 138 97.000000 1.000000 4.000000 1.000000 -60.708740 114.000000 149.000000 0.443953 0.795887 -0.411666
9070.00000000 3380.00000000 -1090.00000000 146 88 138 97.000000 1.000000 4.000000 1.000000 -60.708740 114.000000 149.000000 -0.030609 0.903639 -0.427199
9050.00000000 3360.00000000 -1090.00000000 146 88 138 97.000000 1.000000 4.000000 1.000000 -60.708740 114.000000 149.000000 0.373736 0.774976 -0.509640
9080.00000000 3340.00000000 -1110.00000000 146 88 138 97.000000 1.000000 4.000000 1.000000 -60.708740 114.000000 149.000000 0.442117 0.615627 -0.652331
9010.00000000 3390.00000000 -1100.00000000 146 88 138 97.000000 1.000000 4.000000 1.000000 -60.708740 114.000000 149.000000 0.274125 0.927479 -0.254240
9010.00000000 3400.00000000 -1090.00000000 146 88 138 97.000000 1.000000 4.000000 1.000000 -60.708740 114.000000 149.000000 0.427137 0.599987 -0.676439
9010.00000000 3390.00000000 -1100.00000000 146 88 138 97.000000 1.000000 4.000000 1.000000 -60.708740 114.000000 149.000000 0.274125 0.927479 -0.254240
9010.00000000 3390.00000000 -1090.00000000 146 88 138 97.000000 1.000000 4.000000 1.000000 -60.708740 114.000000 149.000000 0.495730 0.643608 -0.583113
9010.00000000 3390.00000000 -1090.00000000 146 88 138 97.000000 1.000000 4.000000 1.000000 -60.708740 114.000000 149.000000 0.495730 0.643608 -0.583113
9030.00000000 3360.00000000 -1100.00000000 146 88 138 97.000000 1.000000 4.000000 1.000000 -60.708740 114.000000 149.000000 0.393979 0.907987 -0.142623
9020.00000000 3360.00000000 -1100.00000000 146 88 138 97.000000 1.000000 4.000000 1.000000 -60.708740 114.000000 149.000000 -0.023688 0.792868 -0.608933
9030.00000000 3390.00000000 -1120.00000000 146 88 138 97.000000 1.000000 4.000000 1.000000 -60.708740 114.000000 149.000000 0.058530 0.990417 -0.125093
8970.00000000 3500.00000000 -1070.00000000 146 88 138 97.000000 1.000000 4.000000 1.000000 -60.708740 114.000000 149.000000 0.202847 0.673576 0.710738
9000.00000000 3450.00000000 -1060.00000000 146 88 138 97.000000 1.000000 4.000000 1.000000 -60.708740 114.000000 149.000000 0.518439 -0.211328 0.828590
9000.00000000 3430.00000000 -1060.00000000 146 88 138 97.000000 1.000000 4.000000 1.000000 -60.708740 114.000000 149.000000 0.211316 -0.192710 0.958232
8980.00000000 3420.00000000 -1060.00000000 146 88 138 97.000000 1.000000 4.000000 1.000000 -60.708740 114.000000 149.000000 -0.344796 -0.432962 0.832862
8980.00000000 3460.00000000 -1060.00000000 146 88 138 97.000000 1.000000 4.000000 1.000000 -60.708740 114.000000 149.000000 0.343782 0.130117 0.929991
8970.00000000 3420.00000000 -1080.00000000 146 88 138 97.000000 1.000000 4.000000 1.000000 -60.708740 114.000000 149.000000 0.291270 0.771946 -0.565032
8950.00000000 3420.00000000 -1070.00000000 146 88 138 97.000000 1.000000 4.000000 1.000000 -60.708740 114.000000 149.000000 0.146931 0.823704 -0.547652
8950.00000000 3440.00000000 -1060.00000000 146 88 138 97.000000 1.000000 4.000000 1.000000 -60.708740 114.000000 149.000000 0.314358 -0.614207 0.723829
8940.00000000 3420.00000000 -1070.00000000 146 88 138 97.000000 1.000000 4.000000 1.000000 -60.708740 114.000000 149.000000 -0.089755 0.847682 -0.522856
8930.00000000 3450.00000000 -1050.00000000 146 88 138 97.000000 1.000000 4.000000 1.000000 -60.708740 114.000000 149.000000 -0.161676 -0.404906 0.899951
8940.00000000 3440.00000000 -1050.00000000 146 88 138 97.000000 1.000000 4.000000 1.000000 -60.708740 114.000000 149.000000 -0.209425 -0.628274 0.749275
8960.00000000 3420.00000000 -1080.00000000 146 88 138 97.000000 1.000000 4.000000 1.000000 -60.708740 114.000000 149.000000 0.192789 0.735681 -0.649312
8960.00000000 3400.00000000 -1110.00000000 146 88 138 97.000000 1.000000 4.000000 1.000000 -60.708740 114.000000 149.000000 0.501752 0.861551 0.077301
8890.00000000 3520.00000000 -1050.00000000 146 88 138 97.000000 1.000000 4.000000 1.000000 -60.708740 114.000000 149.000000 -0.079298 0.598341 0.797308
8910.00000000 3530.00000000 -1050.00000000 146 88 138 97.000000 1.000000 4.000000 1.000000 -60.708740 114.000000 149.000000 -0.082498 0.623800 0.777218
8920.00000000 3510.00000000 -1050.00000000 146 88 138 97.000000 1.000000 4.000000 1.000000 -60.708740 114.000000 149.000000 0.505784 0.004025 0.862651
8910.00000000 3520.00000000 -1050.00000000 146 88 138 97.000000 1.000000 4.000000 1.000000 -60.708740 114.000000 149.000000 0.075210 0.534988 0.841506
8870.00000000 3540.00000000 -1070.00000000 146 88 138 97.000000 1.000000 4.000000 1.000000 -60.708740 114.000000 149.000000 0.169497 0.888049 0.427364
8870.00000000 3530.00000000 -1060.00000000 146 88 138 97.000000 1.000000 4.000000 1.000000 -60.708740 114.000000 149.000000 -0.009473 0.529123 0.848492
8840.00000000 3510.00000000 -1130.00000000 146 88 138 97.000000 1.000000 4.000000 1.000000 -60.708740 114.000000 149.000000 -0.150610 -0.173391 0.973269
8800.00000000 3560.00000000 -1090.00000000 146 88 138 97.000000 1.000000 4.000000 1.000000 -60.708740 114.000000 149.000000 0.106516 0.911611 -0.397014
8820.00000000 3520.00000000 -1040.00000000 146 88 138 97.000000 1.000000 4.000000 1.000000 -60.708740 114.000000 149.000000 0.480763 -0.073856 0.873735
8830.00000000 3530.00000000 -1070.00000000 146 88 138 97.000000 1.000000 4.000000 1.000000 -60.708740 114.000000 149.000000 0.524935 0.372168 0.765463
8810.00000000 3540.00000000 -1100.00000000 146 88 138 97.000000 1.000000 4.000000 1.000000 -60.708740 114.000000 149.000000 0.157322 0.854246 -0.495492
8790.00000000 3550.00000000 -1090.00000000 146 88 138 97.000000 1.000000 4.000000 1.000000 -60.708740 114.000000 149.000000 0.180910 0.872192 -0.454481
8780.00000000 3560.00000000 -1080.00000000 146 88 138 97.000000 1.000000 4.000000 1.000000 -60.708740 114.000000 149.000000 0.355313 0.914682 -0.192640
8780.00000000 3530.00000000 -1110.00000000 146 88 138 97.000000 1.000000 4.000000 1.000000 -60.708740 114.000000 149.000000 -0.029911 -0.373242 0.927252
8810.00000000 3530.00000000 -1120.00000000 146 88 138 97.000000 1.000000 4.000000 1.000000 -60.708740 114.000000 149.000000 0.075836 -0.439849 0.894864
8760.00000000 3510.00000000 -1140.00000000 146 88 138 97.000000 1.000000 4.000000 1.000000 -60.708740 114.000000 149.000000 0.207439 0.044366 0.977241
8890.00000000 3480.00000000 -1040.00000000 146 88 138 97.000000 1.000000 4.000000 1.000000 -60.708740 114.000000 149.000000 0.301083 -0.430780 0.850751
8910.00000000 3500.00000000 -1050.00000000 146 88 138 97.000000 1.000000 4.000000 1.000000 -60.708740 114.000000 149.000000 -0.003170 -0.083482 0.996504
8890.00000000 3470.00000000 -1040.00000000 146 88 138 97.000000 1.000000 4.000000 1.000000 -60.708740 114.000000 149.000000 0.033234 -0.264638 0.963775
8890.00000000 3470.00000000 -1050.00000000 146 88 138 97.000000 1.000000 4.000000 1.000000 -60.708740 114.000000 149.000000 -0.015162 0.021226 0.999660
8910.00000000 3490.00000000 -1050.00000000 146 88 138 97.000000 1.000000 4.000000 1.000000 -60.708740 114.000000 149.000000 0.211633 -0.132110 0.968379
8920.00000000 3420.00000000 -1070.00000000 146 88 138 97.000000 1.000000 4.000000 1.000000 -60.708740 114.000000 149.000000 -0.073991 -0.715251 0.694940
8920.00000000 3420.00000000 -1070.00000000 146 88 138 97.000000 1.000000 4.000000 1.000000 -60.708740 114.000000 149.000000 -0.073991 -0.715251 0.694940
8900.00000000 3460.00000000 -1060.00000000 146 88 138 97.000000 1.000000 4.000000 1.000000 -60.708740 114.000000 149.000000 0.085574 -0.478373 0.873977
8910.00000000 3420.00000000 -1070.00000000 146 88 138 97.000000 1.000000 4.000000 1.000000 -60.708740 114.000000 149.000000 0.145012 0.784857 -0.602471
8890.00000000 3460.00000000 -1040.00000000 146 88 138 97.000000 1.000000 4.000000 1.000000 -60.708740 114.000000 149.000000 -0.016927 -0.402332 0.915337
8860.00000000 3480.00000000 -1040.00000000 146 88 138 97.000000 1.000000 4.000000 1.000000 -60.708740 114.000000 149.000000 0.093842 -0.313246 0.945024
8850.00000000 3480.00000000 -1040.00000000 146 88 138 97.000000 1.000000 4.000000 1.000000 -60.708740 114.000000 149.000000 -0.180251 -0.499041 0.847625
8850.00000000 3480.00000000 -1040.00000000 146 88 138 97.000000 1.000000 4.000000 1.000000 -60.708740 114.000000 149.000000 -0.180251 -0.499041 0.847625
8870.00000000 3460.00000000 -1050.00000000 146 88 138 97.000000 1.000000 4.000000 1.000000 -60.708740 114.000000 149.000000 0.052785 0.766097 -0.640554
8870.00000000 3460.00000000 -1040.00000000 146 88 138 97.000000 1.000000 4.000000 1.000000 -60.708740 114.000000 149.000000 0.246570 -0.525707 0.814147
8840.00000000 3460.00000000 -1040.00000000 146 88 138 97.000000 1.000000 4.000000 1.000000 -60.708740 114.000000 149.000000 -0.230792 -0.502852 0.832992
8870.00000000 3450.00000000 -1070.00000000 146 88 138 97.000000 1.000000 4.000000 1.000000 -60.708740 114.000000 149.000000 0.154615 0.852590 -0.499185
8870.00000000 3420.00000000 -1110.00000000 146 88 138 97.000000 1.000000 4.000000 1.000000 -60.708740 114.000000 149.000000 0.665807 0.746092 -0.006921
8860.00000000 3450.00000000 -1080.00000000 146 88 138 97.000000 1.000000 4.000000 1.000000 -60.708740 114.000000 149.000000 0.234203 0.961670 -0.142615
8850.00000000 3440.00000000 -1090.00000000 146 88 138 97.000000 1.000000 4.000000 1.000000 -60.708740 114.000000 149.000000 0.389812 0.920784 0.014246
8870.00000000 3440.00000000 -1090.00000000 146 88 138 97.000000 1.000000 4.000000 1.000000 -60.708740 114.000000 149.000000 0.419900 0.783057 -0.458810
8920.00000000 3490.00000000 -1130.00000000 146 88 138 97.000000 1.000000 4.000000 1.000000 -60.708740 114.000000 149.000000 -0.078419 -0.554636 0.828390
8910.00000000 3500.00000000 -1120.00000000 146 88 138 97.000000 1.000000 4.000000 1.000000 -60.708740 114.000000 149.000000 0.179544 0.903464 -0.389251
8920.00000000 3410.00000000 -1070.00000000 146 88 138 97.000000 1.000000 4.000000 1.000000 -60.708740 114.000000 149.000000 0.217041 0.842362 -0.493275
