//X Y Z R G B PointSourceId ScanDirectionFlag NumberOfReturns ReturnNumber GpsTime Intensity Classification Nx Ny Nz
1000.00000000 10800.00000000 160.00000000 108 34 184 97.000000 1.000000 4.000000 1.000000 -60.708740 114.000000 245.000000 0.382240 -0.388532 0.838412
990.00000000 10750.00000000 180.00000000 108 34 184 97.000000 1.000000 4.000000 1.000000 -60.708740 114.000000 245.000000 0.079156 0.804515 -0.588634
980.00000000 10760.00000000 190.00000000 108 34 184 97.000000 1.000000 4.000000 1.000000 -60.708740 114.000000 245.000000 0.045347 -0.496072 0.867096
980.00000000 10750.00000000 190.00000000 108 34 184 97.000000 1.000000 4.000000 1.000000 -60.708740 114.000000 245.000000 0.381772 -0.391199 0.837385
950.00000000 10800.00000000 210.00000000 108 34 184 97.000000 1.000000 4.000000 1.000000 -60.708740 114.000000 245.000000 -0.174563 -0.602621 0.778701
940.00000000 10790.00000000 200.00000000 108 34 184 97.000000 1.000000 4.000000 1.000000 -60.708740 114.000000 245.000000 0.120152 0.766894 -0.630426
940.00000000 10820.00000000 230.00000000 108 34 184 97.000000 1.000000 4.000000 1.000000 -60.708740 114.000000 245.000000 0.126131 -0.429413 0.894257
950.00000000 10800.00000000 210.00000000 108 34 184 97.000000 1.000000 4.000000 1.000000 -60.708740 114.000000 245.000000 -0.174563 -0.602621 0.778701
950.00000000 10810.00000000 220.00000000 108 34 184 97.000000 1.000000 4.000000 1.000000 -60.708740 114.000000 245.000000 -0.136770 -0.710904 0.689862
940.00000000 10810.00000000 170.00000000 108 34 184 97.000000 1.000000 4.000000 1.000000 -60.708740 114.000000 245.000000 0.169079 -0.662609 0.729631
930.00000000 10810.00000000 170.00000000 108 34 184 97.000000 1.000000 4.000000 1.000000 -60.708740 114.000000 245.000000 0.104274 -0.638859 0.762225
920.00000000 10770.00000000 220.00000000 108 34 184 97.000000 1.000000 4.000000 1.000000 -60.708740 114.000000 245.000000 0.272802 0.649300 -0.709922
930.00000000 10750.00000000 160.00000000 108 34 184 97.000000 1.000000 4.000000 1.000000 -60.708740 114.000000 245.000000 -0.113266 -0.494644 0.861683
930.00000000 10760.00000000 160.00000000 108 34 184 97.000000 1.000000 4.000000 1.000000 -60.708740 114.000000 245.000000 0.064619 -0.756757 0.650495
910.00000000 10880.00000000 240.00000000 108 34 184 97.000000 1.000000 4.000000 1.000000 -60.708740 114.000000 245.000000 -0.479105 -0.229666 0.847179
880.00000000 10900.00000000 270.00000000 108 34 184 97.000000 1.000000 4.000000 1.000000 -60.708740 114.000000 245.000000 0.271064 0.534294 -0.800658
910.00000000 10890.00000000 240.00000000 108 34 184 97.000000 1.000000 4.000000 1.000000 -60.708740 114.000000 245.000000 0.399176 0.506709 -0.764137
910.00000000 10880.00000000 250.00000000 108 34 184 97.000000 1.000000 4.000000 1.000000 -60.708740 114.000000 245.000000 -0.177447 -0.292993 0.939504
900.00000000 10860.00000000 250.00000000 108 34 184 97.000000 1.000000 4.000000 1.000000 -60.708740 114.000000 245.000000 -0.130533 -0.350377 0.927468
910.00000000 10860.00000000 250.00000000 108 34 184 97.000000 1.000000 4.000000 1.000000 -60.708740 114.000000 245.000000 -0.057397 -0.388431 0.919688
910.00000000 10860.00000000 240.00000000 108 34 184 97.000000 1.000000 4.000000 1.000000 -60.708740 114.000000 245.000000 -0.061805 -0.699982 0.711481
880.00000000 10870.00000000 250.00000000 108 34 184 97.000000 1.000000 4.000000 1.000000 -60.708740 114.000000 245.000000 -0.240302 -0.617245 0.749175
900.00000000 10860.00000000 240.00000000 108 34 184 97.000000 1.000000 4.000000 1.000000 -60.708740 114.000000 245.000000 -0.225691 -0.362561 0.904220
890.00000000 10890.00000000 160.00000000 108 34 184 97.000000 1.000000 4.000000 1.000000 -60.708740 114.000000 245.000000 -0.219931 -0.492948 0.841803
880.00000000 10910.00000000 160.00000000 108 34 184 97.000000 1.000000 4.000000 1.000000 -60.708740 114.000000 245.000000 -0.372698 -0.191386 0.908002
910.00000000 10830.00000000 210.00000000 108 34 184 97.000000 1.000000 4.000000 1.000000 -60.708740 114.000000 245.000000 -0.235338 -0.512206 0.825991
880.00000000 10840.00000000 200.00000000 108 34 184 97.000000 1.000000 4.000000 1.000000 -60.708740 114.000000 245.000000 0.360004 0.734669 -0.575029
910.00000000 10860.00000000 230.00000000 108 34 184 97.000000 1.000000 4.000000 1.000000 -60.708740 114.000000 245.000000 0.068880 -0.521519 0.850455
890.00000000 10870.00000000 150.00000000 108 34 184 97.000000 1.000000 4.000000 1.000000 -60.708740 114.000000 245.000000 -0.086177 -0.330125 0.939995
870.00000000 10880.00000000 220.00000000 108 34 184 97.000000 1.000000 4.000000 1.000000 -60.708740 114.000000 245.000000 -0.549748 -0.370305 0.748767
850.00000000 10830.00000000 210.00000000 108 34 184 97.000000 1.000000 4.000000 1.000000 -60.708740 114.000000 245.000000 0.400738 0.707475 -0.582141
840.00000000 10870.00000000 150.00000000 108 34 184 97.000000 1.000000 4.000000 1.000000 -60.708740 114.000000 245.000000 0.555754 0.586160 -0.589538
840.00000000 10820.00000000 240.00000000 108 34 184 97.000000 1.000000 4.000000 1.000000 -60.708740 114.000000 245.000000 -0.208616 -0.522301 0.826850
880.00000000 10820.00000000 220.00000000 108 34 184 97.000000 1.000000 4.000000 1.000000 -60.708740 114.000000 245.000000 -0.220153 -0.647967 0.729158
910.00000000 10810.00000000 200.00000000 108 34 184 97.000000 1.000000 4.000000 1.000000 -60.708740 114.000000 245.000000 -0.100131 -0.576118 0.811210
910.00000000 10820.00000000 210.00000000 108 34 184 97.000000 1.000000 4.000000 1.000000 -60.708740 114.000000 245.000000 0.019949 -0.450845 0.892380
890.00000000 10790.00000000 180.00000000 108 34 184 97.000000 1.000000 4.000000 1.000000 -60.708740 114.000000 245.000000 -0.205636 -0.295164 0.933055
900.00000000 10810.00000000 190.00000000 108 34 184 97.000000 1.000000 4.000000 1.000000 -60.708740 114.000000 245.000000 0.051373 -0.517894 0.853901
880.00000000 10770.00000000 220.00000000 108 34 184 97.000000 1.000000 4.000000 1.000000 -60.708740 114.000000 245.000000 0.047407 -0.448335 0.892607
900.00000000 10760.00000000 190.00000000 108 34 184 97.000000 1.000000 4.000000 1.000000 -60.708740 114.000000 245.000000 0.112804 -0.587462 0.801351
890.00000000 10750.00000000 150.00000000 108 34 184 97.000000 1.000000 4.000000 1.000000 -60.708740 114.000000 245.000000 0.077552 -0.406808 0.910216
890.00000000 10760.00000000 170.00000000 108 34 184 97.000000 1.000000 4.000000 1.000000 -60.708740 114.000000 245.000000 0.203313 0.706165 -0.678229
890.00000000 10760.00000000 190.00000000 108 34 184 97.000000 1.000000 4.000000 1.000000 -60.708740 114.000000 245.000000 0.208490 0.764462 -0.610025
890.00000000 10760.00000000 190.00000000 108 34 184 97.000000 1.000000 4.000000 1.000000 -60.708740 114.000000 245.000000 0.208490 0.764462 -0.610025
850.00000000 10820.00000000 200.00000000 108 34 184 97.000000 1.000000 4.000000 1.000000 -60.708740 114.000000 245.000000 -0.121860 -0.404800 0.906249
850.00000000 10770.00000000 200.00000000 108 34 184 97.000000 1.000000 4.000000 1.000000 -60.708740 114.000000 245.000000 -0.413014 -0.400257 0.818055
840.00000000 10770.00000000 190.00000000 108 34 184 97.000000 1.000000 4.000000 1.000000 -60.708740 114.000000 245.000000 -0.148456 -0.271500 0.950920
850.00000000 10770.00000000 180.00000000 108 34 184 97.000000 1.000000 4.000000 1.000000 -60.708740 114.000000 245.000000 -0.375166 -0.451796 0.809401
990.00000000 10870.00000000 140.00000000 108 34 184 97.000000 1.000000 4.000000 1.000000 -60.708740 114.000000 245.000000 -0.046802 0.767263 -0.639622
930.00000000 10840.00000000 10.00000000 108 34 184 97.000000 1.000000 4.000000 1.000000 -60.708740 114.000000 245.000000 0.737492 0.381011 -0.557616
920.00000000 10830.00000000 0.00000000 108 34 184 97.000000 1.000000 4.000000 1.000000 -60.708740 114.000000 245.000000 0.756798 0.226259 -0.613240
930.00000000 10810.00000000 70.00000000 108 34 184 97.000000 1.000000 4.000000 1.000000 -60.708740 114.000000 245.000000 0.216932 0.798493 -0.561560
950.00000000 10820.00000000 10.00000000 108 34 184 97.000000 1.000000 4.000000 1.000000 -60.708740 114.000000 245.000000 -0.218960 0.768690 -0.600976
940.00000000 10820.00000000 10.00000000 108 34 184 97.000000 1.000000 4.000000 1.000000 -60.708740 114.000000 245.000000 -0.269504 -0.466627 0.842393
940.00000000 10820.00000000 10.00000000 108 34 184 97.000000 1.000000 4.000000 1.000000 -60.708740 114.000000 245.000000 -0.269504 -0.466627 0.842393
910.00000000 10840.00000000 120.00000000 108 34 184 97.000000 1.000000 4.000000 1.000000 -60.708740 114.000000 245.000000 0.175067 0.774861 -0.607406
910.00000000 10910.00000000 -10.00000000 108 34 184 97.000000 1.000000 4.000000 1.000000 -60.708740 114.000000 245.000000 0.861210 -0.505039 -0.057043
880.00000000 10900.00000000 20.00000000 108 34 184 97.000000 1.000000 4.000000 1.000000 -60.708740 114.000000 245.000000 0.964312 0.128143 -0.231694
860.00000000 10750.00000000 140.00000000 108 34 184 97.000000 1.000000 4.000000 1.000000 -60.708740 114.000000 245.000000 0.201189 0.787860 -0.582065
910.00000000 10790.00000000 -10.00000000 108 34 184 97.000000 1.000000 4.000000 1.000000 -60.708740 114.000000 245.000000 -0.189634 -0.667572 0.719991
910.00000000 10790.00000000 -10.00000000 108 34 184 97.000000 1.000000 4.000000 1.000000 -60.708740 114.000000 245.000000 -0.189634 -0.667572 0.719991
900.00000000 10790.00000000 -10.00000000 108 34 184 97.000000 1.000000 4.000000 1.000000 -60.708740 114.000000 245.000000 0.517151 0.513804 -0.684514
820.00000000 11020.00000000 200.00000000 108 34 184 97.000000 1.000000 4.000000 1.000000 -60.708740 114.000000 245.000000 0.515181 0.491840 -0.701913
760.00000000 11000.00000000 180.00000000 108 34 184 97.000000 1.000000 4.000000 1.000000 -60.708740 114.000000 245.000000 0.759521 -0.165245 -0.629144
830.00000000 11000.00000000 200.00000000 108 34 184 97.000000 1.000000 4.000000 1.000000 -60.708740 114.000000 245.000000 0.459768 0.526161 -0.715380
820.00000000 11010.00000000 220.00000000 108 34 184 97.000000 1.000000 4.000000 1.000000 -60.708740 114.000000 245.000000 0.739942 0.505930 -0.443306
830.00000000 11000.00000000 220.00000000 108 34 184 97.000000 1.000000 4.000000 1.000000 -60.708740 114.000000 245.000000 0.876035 0.429837 -0.218637
820.00000000 10970.00000000 200.00000000 108 34 184 97.000000 1.000000 4.000000 1.000000 -60.708740 114.000000 245.000000 -0.575097 -0.020687 0.817824
830.00000000 10980.00000000 170.00000000 108 34 184 97.000000 1.000000 4.000000 1.000000 -60.708740 114.000000 245.000000 0.721359 0.325827 -0.611129
830.00000000 10950.00000000 200.00000000 108 34 184 97.000000 1.000000 4.000000 1.000000 -60.708740 114.000000 245.000000 0.769876 0.208283 -0.603249
820.00000000 10950.00000000 200.00000000 108 34 184 97.000000 1.000000 4.000000 1.000000 -60.708740 114.000000 245.000000 -0.540122 -0.176029 0.822972
780.00000000 10920.00000000 170.00000000 108 34 184 97.000000 1.000000 4.000000 1.000000 -60.708740 114.000000 245.000000 0.817686 0.307223 -0.486830
790.00000000 10930.00000000 180.00000000 108 34 184 97.000000 1.000000 4.000000 1.000000 -60.708740 114.000000 245.000000 -0.618174 -0.260866 0.741492
750.00000000 10940.00000000 200.00000000 108 34 184 97.000000 1.000000 4.000000 1.000000 -60.708740 114.000000 245.000000 0.848824 0.077939 -0.522898
750.00000000 10950.00000000 210.00000000 108 34 184 97.000000 1.000000 4.000000 1.000000 -60.708740 114.000000 245.000000 0.847982 0.278557 -0.450923
750.00000000 10940.00000000 170.00000000 108 34 184 97.000000 1.000000 4.000000 1.000000 -60.708740 114.000000 245.000000 0.936949 0.213006 -0.277047
750.00000000 10940.00000000 180.00000000 108 34 184 97.000000 1.000000 4.000000 1.000000 -60.708740 114.000000 245.000000 0.859588 0.472252 -0.195158
740.00000000 10950.00000000 190.00000000 108 34 184 97.000000 1.000000 4.000000 1.000000 -60.708740 114.000000 245.000000 0.788256 -0.029402 -0.614644
740.00000000 10950.00000000 190.00000000 108 34 184 97.000000 1.000000 4.000000 1.000000 -60.708740 114.000000 245.000000 0.788256 -0.029402 -0.614644
740.00000000 10950.00000000 180.00000000 108 34 184 97.000000 1.000000 4.000000 1.000000 -60.708740 114.000000 245.000000 0.946766 -0.071626 -0.313852
830.00000000 10920.00000000 20.00000000 108 34 184 97.000000 1.000000 4.000000 1.000000 -60.708740 114.000000 245.000000 0.910760 -0.217947 -0.350736
790.00000000 10880.00000000 160.00000000 108 34 184 97.000000 1.000000 4.000000 1.000000 -60.708740 114.000000 245.000000 0.901416 0.267032 -0.340797
790.00000000 10880.00000000 150.00000000 108 34 184 97.000000 1.000000 4.000000 1.000000 -60.708740 114.000000 245.000000 0.663794 0.241236 -0.707942
790.00000000 10900.00000000 180.00000000 108 34 184 97.000000 1.000000 4.000000 1.000000 -60.708740 114.000000 245.000000 0.744993 0.098451 -0.659767
790.00000000 10880.00000000 150.00000000 108 34 184 97.000000 1.000000 4.000000 1.000000 -60.708740 114.000000 245.000000 0.663794 0.241236 -0.707942
760.00000000 10840.00000000 160.00000000 108 34 184 97.000000 1.000000 4.000000 1.000000 -60.708740 114.000000 245.000000 -0.447569 -0.244266 0.860242
820.00000000 10770.00000000 180.00000000 108 34 184 97.000000 1.000000 4.000000 1.000000 -60.708740 114.000000 245.000000 -0.576361 -0.309854 0.756173
790.00000000 10770.00000000 230.00000000 108 34 184 97.000000 1.000000 4.000000 1.000000 -60.708740 114.000000 245.000000 0.297231 0.621776 -0.724602
790.00000000 10750.00000000 200.00000000 108 34 184 97.000000 1.000000 4.000000 1.000000 -60.708740 114.000000 245.000000 0.560284 0.189798 -0.806262
790.00000000 10750.00000000 200.00000000 108 34 184 97.000000 1.000000 4.000000 1.000000 -60.708740 114.000000 245.000000 0.560284 0.189798 -0.806262
720.00000000 10910.00000000 190.00000000 108 34 184 97.000000 1.000000 4.000000 1.000000 -60.708740 114.000000 245.000000 0.585002 0.477724 -0.655403
740.00000000 10910.00000000 160.00000000 108 34 184 97.000000 1.000000 4.000000 1.000000 -60.708740 114.000000 245.000000 -0.662211 -0.049844 0.747658
750.00000000 10910.00000000 170.00000000 108 34 184 97.000000 1.000000 4.000000 1.000000 -60.708740 114.000000 245.000000 -0.550877 -0.199903 0.810292
730.00000000 10900.00000000 190.00000000 108 34 184 97.000000 1.000000 4.000000 1.000000 -60.708740 114.000000 245.000000 0.557354 0.527044 -0.641546
760.00000000 10780.00000000 0.00000000 108 34 184 97.000000 1.000000 4.000000 1.000000 -60.708740 114.000000 245.000000 0.985510 -0.130207 -0.108705
710.00000000 10820.00000000 -10.00000000 108 34 184 97.000000 1.000000 4.000000 1.000000 -60.708740 114.000000 245.000000 0.993965 -0.054785 0.095036
970.00000000 10720.00000000 160.00000000 108 34 184 97.000000 1.000000 4.000000 1.000000 -60.708740 114.000000 245.000000 0.166181 -0.339345 0.925867
970.00000000 10740.00000000 190.00000000 108 34 184 97.000000 1.000000 4.000000 1.000000 -60.708740 114.000000 245.000000 0.364928 -0.536849 0.760671
970.00000000 10740.00000000 160.00000000 108 34 184 97.000000 1.000000 4.000000 1.000000 -60.708740 114.000000 245.000000 0.234312 -0.350740 0.906686
1000.00000000 10710.00000000 170.00000000 108 34 184 97.000000 1.000000 4.000000 1.000000 -60.708740 114.000000 245.000000 0.139662 0.749372 -0.647253
970.00000000 10680.00000000 150.00000000 108 34 184 97.000000 1.000000 4.000000 1.000000 -60.708740 114.000000 245.000000 0.265942 -0.283192 0.921454
980.00000000 10700.00000000 150.00000000 108 34 184 97.000000 1.000000 4.000000 1.000000 -60.708740 114.000000 245.000000 0.019099 -0.345052 0.938389
980.00000000 10700.00000000 150.00000000 108 34 184 97.000000 1.000000 4.000000 1.000000 -60.708740 114.000000 245.000000 0.019099 -0.345052 0.938389
980.00000000 10690.00000000 150.00000000 108 34 184 97.000000 1.000000 4.000000 1.000000 -60.708740 114.000000 245.000000 0.078869 -0.444159 0.892470
1000.00000000 10700.00000000 150.00000000 108 34 184 97.000000 1.000000 4.000000 1.000000 -60.708740 114.000000 245.000000 0.376831 -0.336841 0.862866
940.00000000 10710.00000000 170.00000000 108 34 184 97.000000 1.000000 4.000000 1.000000 -60.708740 114.000000 245.000000 -0.182935 -0.253399 0.949907
940.00000000 10740.00000000 190.00000000 108 34 184 97.000000 1.000000 4.000000 1.000000 -60.708740 114.000000 245.000000 -0.090636 -0.444815 0.891025
960.00000000 10710.00000000 160.00000000 108 34 184 97.000000 1.000000 4.000000 1.000000 -60.708740 114.000000 245.000000 0.358025 -0.370424 0.857090
930.00000000 10690.00000000 170.00000000 108 34 184 97.000000 1.000000 4.000000 1.000000 -60.708740 114.000000 245.000000 -0.050684 -0.246003 0.967943
930.00000000 10680.00000000 150.00000000 108 34 184 97.000000 1.000000 4.000000 1.000000 -60.708740 114.000000 245.000000 -0.046045 -0.377565 0.924837
940.00000000 10670.00000000 150.00000000 108 34 184 97.000000 1.000000 4.000000 1.000000 -60.708740 114.000000 245.000000 -0.124793 -0.408031 0.904399
930.00000000 10690.00000000 150.00000000 108 34 184 97.000000 1.000000 4.000000 1.000000 -60.708740 114.000000 245.000000 0.228784 -0.276506 0.933382
920.00000000 10690.00000000 160.00000000 108 34 184 97.000000 1.000000 4.000000 1.000000 -60.708740 114.000000 245.000000 0.014308 -0.404527 0.914414
920.00000000 10690.00000000 150.00000000 108 34 184 97.000000 1.000000 4.000000 1.000000 -60.708740 114.000000 245.000000 -0.085221 -0.599434 0.795875
960.00000000 10700.00000000 150.00000000 108 34 184 97.000000 1.000000 4.000000 1.000000 -60.708740 114.000000 245.000000 0.051643 -0.198163 0.978808
940.00000000 10670.00000000 150.00000000 108 34 184 97.000000 1.000000 4.000000 1.000000 -60.708740 114.000000 245.000000 -0.124793 -0.408031 0.904399
920.00000000 10650.00000000 150.00000000 108 34 184 97.000000 1.000000 4.000000 1.000000 -60.708740 114.000000 245.000000 0.029325 -0.599071 0.800158
920.00000000 10660.00000000 170.00000000 108 34 184 97.000000 1.000000 4.000000 1.000000 -60.708740 114.000000 245.000000 -0.081280 -0.347770 0.934050
950.00000000 10650.00000000 150.00000000 108 34 184 97.000000 1.000000 4.000000 1.000000 -60.708740 114.000000 245.000000 -0.242608 -0.366118 0.898387
890.00000000 10720.00000000 200.00000000 108 34 184 97.000000 1.000000 4.000000 1.000000 -60.708740 114.000000 245.000000 -0.397837 -0.314891 0.861725
910.00000000 10740.00000000 190.00000000 108 34 184 97.000000 1.000000 4.000000 1.000000 -60.708740 114.000000 245.000000 -0.029456 -0.626986 0.778473
900.00000000 10740.00000000 160.00000000 108 34 184 97.000000 1.000000 4.000000 1.000000 -60.708740 114.000000 245.000000 0.193475 -0.568237 0.799797
880.00000000 10710.00000000 180.00000000 108 34 184 97.000000 1.000000 4.000000 1.000000 -60.708740 114.000000 245.000000 -0.089823 -0.421479 0.902379
880.00000000 10700.00000000 170.00000000 108 34 184 97.000000 1.000000 4.000000 1.000000 -60.708740 114.000000 245.000000 0.052724 -0.648359 0.759507
880.00000000 10690.00000000 150.00000000 108 34 184 97.000000 1.000000 4.000000 1.000000 -60.708740 114.000000 245.000000 -0.044962 -0.224810 0.973365
850.00000000 10710.00000000 170.00000000 108 34 184 97.000000 1.000000 4.000000 1.000000 -60.708740 114.000000 245.000000 -0.108020 -0.691032 0.714707
840.00000000 10720.00000000 180.00000000 108 34 184 97.000000 1.000000 4.000000 1.000000 -60.708740 114.000000 245.000000 -0.092411 -0.285043 0.954049
840.00000000 10720.00000000 180.00000000 108 34 184 97.000000 1.000000 4.000000 1.000000 -60.708740 114.000000 245.000000 -0.092411 -0.285043 0.954049
860.00000000 10710.00000000 180.00000000 108 34 184 97.000000 1.000000 4.000000 1.000000 -60.708740 114.000000 245.000000 0.020997 -0.698502 0.715300
870.00000000 10710.00000000 150.00000000 108 34 184 97.000000 1.000000 4.000000 1.000000 -60.708740 114.000000 245.000000 -0.595736 -0.228651 0.769946
850.00000000 10710.00000000 170.00000000 108 34 184 97.000000 1.000000 4.000000 1.000000 -60.708740 114.000000 245.000000 -0.108020 -0.691032 0.714707
860.00000000 10710.00000000 180.00000000 108 34 184 97.000000 1.000000 4.000000 1.000000 -60.708740 114.000000 245.000000 0.020997 -0.698502 0.715300
860.00000000 10700.00000000 170.00000000 108 34 184 97.000000 1.000000 4.000000 1.000000 -60.708740 114.000000 245.000000 -0.012358 -0.572589 0.819750
900.00000000 10660.00000000 150.00000000 108 34 184 97.000000 1.000000 4.000000 1.000000 -60.708740 114.000000 245.000000 0.055952 -0.334408 0.940766
910.00000000 10650.00000000 150.00000000 108 34 184 97.000000 1.000000 4.000000 1.000000 -60.708740 114.000000 245.000000 -0.117760 -0.452594 0.883907
910.00000000 10660.00000000 150.00000000 108 34 184 97.000000 1.000000 4.000000 1.000000 -60.708740 114.000000 245.000000 -0.034860 -0.219979 0.974881
980.00000000 10730.00000000 140.00000000 108 34 184 97.000000 1.000000 4.000000 1.000000 -60.708740 114.000000 245.000000 0.099428 -0.220251 0.970363
990.00000000 10690.00000000 140.00000000 108 34 184 97.000000 1.000000 4.000000 1.000000 -60.708740 114.000000 245.000000 -0.211734 0.768115 -0.604292
980.00000000 10690.00000000 110.00000000 108 34 184 97.000000 1.000000 4.000000 1.000000 -60.708740 114.000000 245.000000 -0.391703 0.735877 -0.552317
1000.00000000 10690.00000000 130.00000000 108 34 184 97.000000 1.000000 4.000000 1.000000 -60.708740 114.000000 245.000000 -0.332475 0.778987 -0.531639
1000.00000000 10680.00000000 130.00000000 108 34 184 97.000000 1.000000 4.000000 1.000000 -60.708740 114.000000 245.000000 0.269105 -0.505545 0.819760
920.00000000 10720.00000000 90.00000000 108 34 184 97.000000 1.000000 4.000000 1.000000 -60.708740 114.000000 245.000000 0.092979 -0.299890 0.949432
950.00000000 10690.00000000 140.00000000 108 34 184 97.000000 1.000000 4.000000 1.000000 -60.708740 114.000000 245.000000 -0.006915 -0.637581 0.770352
930.00000000 10670.00000000 140.00000000 108 34 184 97.000000 1.000000 4.000000 1.000000 -60.708740 114.000000 245.000000 -0.103075 -0.458895 0.882491
1000.00000000 10630.00000000 110.00000000 108 34 184 97.000000 1.000000 4.000000 1.000000 -60.708740 114.000000 245.000000 0.296772 -0.547520 0.782399
980.00000000 10630.00000000 110.00000000 108 34 184 97.000000 1.000000 4.000000 1.000000 -60.708740 114.000000 245.000000 0.081102 -0.427503 0.900369
980.00000000 10620.00000000 110.00000000 108 34 184 97.000000 1.000000 4.000000 1.000000 -60.708740 114.000000 245.000000 0.132707 -0.157512 0.978560
980.00000000 10630.00000000 120.00000000 108 34 184 97.000000 1.000000 4.000000 1.000000 -60.708740 114.000000 245.000000 0.264091 -0.593020 0.760647
970.00000000 10620.00000000 120.00000000 108 34 184 97.000000 1.000000 4.000000 1.000000 -60.708740 114.000000 245.000000 0.004094 -0.579942 0.814648
990.00000000 10660.00000000 130.00000000 108 34 184 97.000000 1.000000 4.000000 1.000000 -60.708740 114.000000 245.000000 0.045456 -0.497257 0.866412
990.00000000 10640.00000000 120.00000000 108 34 184 97.000000 1.000000 4.000000 1.000000 -60.708740 114.000000 245.000000 -0.126066 -0.326688 0.936687
970.00000000 10640.00000000 110.00000000 108 34 184 97.000000 1.000000 4.000000 1.000000 -60.708740 114.000000 245.000000 0.100148 -0.329819 0.938717
990.00000000 10650.00000000 120.00000000 108 34 184 97.000000 1.000000 4.000000 1.000000 -60.708740 114.000000 245.000000 0.100736 -0.241002 0.965282
990.00000000 10630.00000000 120.00000000 108 34 184 97.000000 1.000000 4.000000 1.000000 -60.708740 114.000000 245.000000 -0.202592 -0.484719 0.850884
1000.00000000 10620.00000000 100.00000000 108 34 184 97.000000 1.000000 4.000000 1.000000 -60.708740 114.000000 245.000000 0.392885 -0.238696 0.888068
980.00000000 10600.00000000 110.00000000 108 34 184 97.000000 1.000000 4.000000 1.000000 -60.708740 114.000000 245.000000 -0.060301 -0.525879 0.848419
1000.00000000 10600.00000000 90.00000000 108 34 184 97.000000 1.000000 4.000000 1.000000 -60.708740 114.000000 245.000000 0.308232 -0.547790 0.777766
950.00000000 10640.00000000 140.00000000 108 34 184 97.000000 1.000000 4.000000 1.000000 -60.708740 114.000000 245.000000 0.329113 -0.371974 0.867940
950.00000000 10640.00000000 140.00000000 108 34 184 97.000000 1.000000 4.000000 1.000000 -60.708740 114.000000 245.000000 0.329113 -0.371974 0.867940
960.00000000 10630.00000000 130.00000000 108 34 184 97.000000 1.000000 4.000000 1.000000 -60.708740 114.000000 245.000000 -0.043265 0.833199 -0.551279
960.00000000 10640.00000000 130.00000000 108 34 184 97.000000 1.000000 4.000000 1.000000 -60.708740 114.000000 245.000000 0.121208 -0.397060 0.909754
930.00000000 10650.00000000 140.00000000 108 34 184 97.000000 1.000000 4.000000 1.000000 -60.708740 114.000000 245.000000 0.240355 -0.291555 0.925865
960.00000000 10600.00000000 110.00000000 108 34 184 97.000000 1.000000 4.000000 1.000000 -60.708740 114.000000 245.000000 0.224222 -0.237978 0.945035
950.00000000 10580.00000000 110.00000000 108 34 184 97.000000 1.000000 4.000000 1.000000 -60.708740 114.000000 245.000000 -0.185512 0.743583 -0.642394
920.00000000 10610.00000000 100.00000000 108 34 184 97.000000 1.000000 4.000000 1.000000 -60.708740 114.000000 245.000000 -0.373871 -0.386385 0.843165
870.00000000 10690.00000000 140.00000000 108 34 184 97.000000 1.000000 4.000000 1.000000 -60.708740 114.000000 245.000000 -0.549229 -0.354812 0.756608
900.00000000 10650.00000000 140.00000000 108 34 184 97.000000 1.000000 4.000000 1.000000 -60.708740 114.000000 245.000000 -0.119632 -0.601112 0.790160
880.00000000 10620.00000000 100.00000000 108 34 184 97.000000 1.000000 4.000000 1.000000 -60.708740 114.000000 245.000000 -0.215099 -0.464795 0.858893
910.00000000 10630.00000000 110.00000000 108 34 184 97.000000 1.000000 4.000000 1.000000 -60.708740 114.000000 245.000000 -0.177114 -0.227719 0.957484
910.00000000 10610.00000000 100.00000000 108 34 184 97.000000 1.000000 4.000000 1.000000 -60.708740 114.000000 245.000000 -0.156990 -0.424882 0.891532
900.00000000 10590.00000000 100.00000000 108 34 184 97.000000 1.000000 4.000000 1.000000 -60.708740 114.000000 245.000000 -0.325378 -0.365096 0.872258
910.00000000 10640.00000000 140.00000000 108 34 184 97.000000 1.000000 4.000000 1.000000 -60.708740 114.000000 245.000000 0.179667 0.810765 -0.557118
890.00000000 10650.00000000 140.00000000 108 34 184 97.000000 1.000000 4.000000 1.000000 -60.708740 114.000000 245.000000 0.153480 -0.549846 0.821044
800.00000000 10740.00000000 200.00000000 108 34 184 97.000000 1.000000 4.000000 1.000000 -60.708740 114.000000 245.000000 -0.169997 -0.278795 0.945185
810.00000000 10720.00000000 210.00000000 108 34 184 97.000000 1.000000 4.000000 1.000000 -60.708740 114.000000 245.000000 -0.539440 -0.423964 0.727502
810.00000000 10700.00000000 150.00000000 108 34 184 97.000000 1.000000 4.000000 1.000000 -60.708740 114.000000 245.000000 -0.273976 -0.369792 0.887801
790.00000000 10670.00000000 150.00000000 108 34 184 97.000000 1.000000 4.000000 1.000000 -60.708740 114.000000 245.000000 -0.554445 -0.428660 0.713331
760.00000000 10650.00000000 150.00000000 108 34 184 97.000000 1.000000 4.000000 1.000000 -60.708740 114.000000 245.000000 0.722974 0.055834 -0.688615
1340.00000000 10770.00000000 -20.00000000 108 34 184 97.000000 1.000000 4.000000 1.000000 -60.708740 114.000000 245.000000 0.934173 -0.132284 -0.331393
1300.00000000 10750.00000000 -20.00000000 108 34 184 97.000000 1.000000 4.000000 1.000000 -60.708740 114.000000 245.000000 0.996481 -0.033541 0.076819
1340.00000000 10770.00000000 -20.00000000 108 34 184 97.000000 1.000000 4.000000 1.000000 -60.708740 114.000000 245.000000 0.934173 -0.132284 -0.331393
1010.00000000 10920.00000000 -50.00000000 108 34 184 97.000000 1.000000 4.000000 1.000000 -60.708740 114.000000 245.000000 0.929945 0.309982 -0.197771
1070.00000000 10880.00000000 -90.00000000 108 34 184 97.000000 1.000000 4.000000 1.000000 -60.708740 114.000000 245.000000 0.996231 -0.024825 -0.083109
1070.00000000 10880.00000000 -80.00000000 108 34 184 97.000000 1.000000 4.000000 1.000000 -60.708740 114.000000 245.000000 0.937763 0.232699 -0.257780
1040.00000000 10900.00000000 -90.00000000 108 34 184 97.000000 1.000000 4.000000 1.000000 -60.708740 114.000000 245.000000 -0.624305 -0.026536 0.780730
1060.00000000 10880.00000000 -130.00000000 108 34 184 97.000000 1.000000 4.000000 1.000000 -60.708740 114.000000 245.000000 0.861831 0.383892 -0.331473
1070.00000000 10830.00000000 -140.00000000 108 34 184 97.000000 1.000000 4.000000 1.000000 -60.708740 114.000000 245.000000 0.875387 -0.190430 -0.444336
1060.00000000 10870.00000000 -120.00000000 108 34 184 97.000000 1.000000 4.000000 1.000000 -60.708740 114.000000 245.000000 0.755561 0.586239 -0.292321
1080.00000000 10830.00000000 -140.00000000 108 34 184 97.000000 1.000000 4.000000 1.000000 -60.708740 114.000000 245.000000 0.869101 -0.188034 -0.457500
1080.00000000 10870.00000000 -180.00000000 108 34 184 97.000000 1.000000 4.000000 1.000000 -60.708740 114.000000 245.000000 0.815722 0.140642 -0.561086
1010.00000000 10880.00000000 -140.00000000 108 34 184 97.000000 1.000000 4.000000 1.000000 -60.708740 114.000000 245.000000 0.388577 0.659755 -0.643220
1020.00000000 10910.00000000 -160.00000000 108 34 184 97.000000 1.000000 4.000000 1.000000 -60.708740 114.000000 245.000000 -0.311510 -0.429295 0.847742
1040.00000000 10910.00000000 -160.00000000 108 34 184 97.000000 1.000000 4.000000 1.000000 -60.708740 114.000000 245.000000 0.335921 0.718903 -0.608552
1070.00000000 10820.00000000 -150.00000000 108 34 184 97.000000 1.000000 4.000000 1.000000 -60.708740 114.000000 245.000000 0.815610 -0.043518 -0.576963
1070.00000000 10820.00000000 -150.00000000 108 34 184 97.000000 1.000000 4.000000 1.000000 -60.708740 114.000000 245.000000 0.815610 -0.043518 -0.576963
1070.00000000 10800.00000000 -160.00000000 108 34 184 97.000000 1.000000 4.000000 1.000000 -60.708740 114.000000 245.000000 0.665955 0.498208 -0.555242
1080.00000000 10800.00000000 -150.00000000 108 34 184 97.000000 1.000000 4.000000 1.000000 -60.708740 114.000000 245.000000 0.999469 0.017355 -0.027565
1070.00000000 10810.00000000 -160.00000000 108 34 184 97.000000 1.000000 4.000000 1.000000 -60.708740 114.000000 245.000000 -0.569085 -0.407432 0.714242
1030.00000000 10820.00000000 -160.00000000 108 34 184 97.000000 1.000000 4.000000 1.000000 -60.708740 114.000000 245.000000 0.824044 0.478730 -0.302934
1130.00000000 10790.00000000 -200.00000000 108 34 184 97.000000 1.000000 4.000000 1.000000 -60.708740 114.000000 245.000000 -0.690212 0.009721 0.723542
1130.00000000 10790.00000000 -210.00000000 108 34 184 97.000000 1.000000 4.000000 1.000000 -60.708740 114.000000 245.000000 0.962722 0.246158 -0.112124
1030.00000000 10890.00000000 -240.00000000 108 34 184 97.000000 1.000000 4.000000 1.000000 -60.708740 114.000000 245.000000 0.579063 0.382214 -0.720138
1010.00000000 10770.00000000 -200.00000000 108 34 184 97.000000 1.000000 4.000000 1.000000 -60.708740 114.000000 245.000000 -0.636419 -0.136269 0.759211
1010.00000000 10770.00000000 -200.00000000 108 34 184 97.000000 1.000000 4.000000 1.000000 -60.708740 114.000000 245.000000 -0.636419 -0.136269 0.759211
1300.00000000 10740.00000000 -30.00000000 108 34 184 97.000000 1.000000 4.000000 1.000000 -60.708740 114.000000 245.000000 0.956584 -0.094493 0.275714
1180.00000000 10640.00000000 -20.00000000 108 34 184 97.000000 1.000000 4.000000 1.000000 -60.708740 114.000000 245.000000 -0.606077 0.579066 -0.545301
1030.00000000 10720.00000000 -130.00000000 108 34 184 97.000000 1.000000 4.000000 1.000000 -60.708740 114.000000 245.000000 0.935626 -0.267122 0.230760
1040.00000000 10720.00000000 -170.00000000 108 34 184 97.000000 1.000000 4.000000 1.000000 -60.708740 114.000000 245.000000 0.981370 -0.142989 -0.128324
980.00000000 10960.00000000 -90.00000000 108 34 184 97.000000 1.000000 4.000000 1.000000 -60.708740 114.000000 245.000000 0.124991 -0.478415 0.869193
970.00000000 10970.00000000 -100.00000000 108 34 184 97.000000 1.000000 4.000000 1.000000 -60.708740 114.000000 245.000000 -0.127086 0.716165 -0.686263
970.00000000 10970.00000000 -100.00000000 108 34 184 97.000000 1.000000 4.000000 1.000000 -60.708740 114.000000 245.000000 -0.127086 0.716165 -0.686263
960.00000000 10980.00000000 -80.00000000 108 34 184 97.000000 1.000000 4.000000 1.000000 -60.708740 114.000000 245.000000 -0.063571 0.834903 -0.546713
960.00000000 10950.00000000 -20.00000000 108 34 184 97.000000 1.000000 4.000000 1.000000 -60.708740 114.000000 245.000000 0.073388 -0.608692 0.790005
920.00000000 10940.00000000 -80.00000000 108 34 184 97.000000 1.000000 4.000000 1.000000 -60.708740 114.000000 245.000000 0.608019 -0.296790 0.736361
930.00000000 10930.00000000 -80.00000000 108 34 184 97.000000 1.000000 4.000000 1.000000 -60.708740 114.000000 245.000000 -0.008701 -0.316961 0.948398
950.00000000 10920.00000000 -100.00000000 108 34 184 97.000000 1.000000 4.000000 1.000000 -60.708740 114.000000 245.000000 0.261805 -0.305198 0.915594
980.00000000 10940.00000000 -160.00000000 108 34 184 97.000000 1.000000 4.000000 1.000000 -60.708740 114.000000 245.000000 0.325182 0.719930 -0.613154
910.00000000 10920.00000000 -60.00000000 108 34 184 97.000000 1.000000 4.000000 1.000000 -60.708740 114.000000 245.000000 0.873700 -0.238282 0.424112
900.00000000 10950.00000000 -30.00000000 108 34 184 97.000000 1.000000 4.000000 1.000000 -60.708740 114.000000 245.000000 0.647675 -0.650988 0.395893
970.00000000 10940.00000000 -240.00000000 108 34 184 97.000000 1.000000 4.000000 1.000000 -60.708740 114.000000 245.000000 0.363780 0.742241 -0.562798
970.00000000 10930.00000000 -240.00000000 108 34 184 97.000000 1.000000 4.000000 1.000000 -60.708740 114.000000 245.000000 -0.359187 -0.631447 0.687211
960.00000000 10950.00000000 -240.00000000 108 34 184 97.000000 1.000000 4.000000 1.000000 -60.708740 114.000000 245.000000 0.207441 0.788277 -0.579299
940.00000000 10920.00000000 -250.00000000 108 34 184 97.000000 1.000000 4.000000 1.000000 -60.708740 114.000000 245.000000 0.147148 -0.563323 0.813028
970.00000000 10910.00000000 -100.00000000 108 34 184 97.000000 1.000000 4.000000 1.000000 -60.708740 114.000000 245.000000 0.031378 -0.302484 0.952638
980.00000000 10900.00000000 -70.00000000 108 34 184 97.000000 1.000000 4.000000 1.000000 -60.708740 114.000000 245.000000 -0.218648 -0.357656 0.907896
1000.00000000 10840.00000000 -40.00000000 108 34 184 97.000000 1.000000 4.000000 1.000000 -60.708740 114.000000 245.000000 0.931915 -0.313424 0.182483
960.00000000 10830.00000000 -30.00000000 108 34 184 97.000000 1.000000 4.000000 1.000000 -60.708740 114.000000 245.000000 0.272483 -0.454139 0.848240
950.00000000 10840.00000000 -40.00000000 108 34 184 97.000000 1.000000 4.000000 1.000000 -60.708740 114.000000 245.000000 0.085396 -0.466179 0.880560
920.00000000 10860.00000000 -90.00000000 108 34 184 97.000000 1.000000 4.000000 1.000000 -60.708740 114.000000 245.000000 0.408770 -0.316218 0.856103
920.00000000 10850.00000000 -90.00000000 108 34 184 97.000000 1.000000 4.000000 1.000000 -60.708740 114.000000 245.000000 0.362849 -0.501538 0.785366
950.00000000 10870.00000000 -100.00000000 108 34 184 97.000000 1.000000 4.000000 1.000000 -60.708740 114.000000 245.000000 -0.047057 -0.731524 0.680189
950.00000000 10870.00000000 -100.00000000 108 34 184 97.000000 1.000000 4.000000 1.000000 -60.708740 114.000000 245.000000 -0.047057 -0.731524 0.680189
960.00000000 10860.00000000 -80.00000000 108 34 184 97.000000 1.000000 4.000000 1.000000 -60.708740 114.000000 245.000000 0.532299 0.576235 -0.620170
950.00000000 10870.00000000 -100.00000000 108 34 184 97.000000 1.000000 4.000000 1.000000 -60.708740 114.000000 245.000000 -0.047057 -0.731524 0.680189
980.00000000 10830.00000000 -130.00000000 108 34 184 97.000000 1.000000 4.000000 1.000000 -60.708740 114.000000 245.000000 0.504850 0.528331 -0.682637
950.00000000 10870.00000000 -110.00000000 108 34 184 97.000000 1.000000 4.000000 1.000000 -60.708740 114.000000 245.000000 -0.215809 0.762317 -0.610164
940.00000000 10860.00000000 -160.00000000 108 34 184 97.000000 1.000000 4.000000 1.000000 -60.708740 114.000000 245.000000 0.117629 -0.532960 0.837924
950.00000000 10870.00000000 -160.00000000 108 34 184 97.000000 1.000000 4.000000 1.000000 -60.708740 114.000000 245.000000 -0.123371 -0.652526 0.747656
960.00000000 10870.00000000 -160.00000000 108 34 184 97.000000 1.000000 4.000000 1.000000 -60.708740 114.000000 245.000000 -0.145504 -0.625518 0.766522
980.00000000 10790.00000000 -40.00000000 108 34 184 97.000000 1.000000 4.000000 1.000000 -60.708740 114.000000 245.000000 -0.685075 0.484075 -0.544375
970.00000000 10790.00000000 -30.00000000 108 34 184 97.000000 1.000000 4.000000 1.000000 -60.708740 114.000000 245.000000 0.615186 -0.126002 0.778248
990.00000000 10810.00000000 -50.00000000 108 34 184 97.000000 1.000000 4.000000 1.000000 -60.708740 114.000000 245.000000 0.832292 -0.227544 0.505484
990.00000000 10810.00000000 -40.00000000 108 34 184 97.000000 1.000000 4.000000 1.000000 -60.708740 114.000000 245.000000 0.781029 -0.303822 0.545607
970.00000000 10780.00000000 -60.00000000 108 34 184 97.000000 1.000000 4.000000 1.000000 -60.708740 114.000000 245.000000 0.681358 -0.534037 0.500555
980.00000000 10770.00000000 -60.00000000 108 34 184 97.000000 1.000000 4.000000 1.000000 -60.708740 114.000000 245.000000 0.866300 -0.048204 0.497193
970.00000000 10780.00000000 -50.00000000 108 34 184 97.000000 1.000000 4.000000 1.000000 -60.708740 114.000000 245.000000 0.795811 -0.505555 0.333316
970.00000000 10780.00000000 -40.00000000 108 34 184 97.000000 1.000000 4.000000 1.000000 -60.708740 114.000000 245.000000 0.704024 -0.588610 0.397353
970.00000000 10770.00000000 -80.00000000 108 34 184 97.000000 1.000000 4.000000 1.000000 -60.708740 114.000000 245.000000 0.945228 -0.218130 0.242823
970.00000000 10780.00000000 -80.00000000 108 34 184 97.000000 1.000000 4.000000 1.000000 -60.708740 114.000000 245.000000 0.955694 -0.293774 0.018593
980.00000000 10780.00000000 -90.00000000 108 34 184 97.000000 1.000000 4.000000 1.000000 -60.708740 114.000000 245.000000 0.979251 0.200113 -0.031971
980.00000000 10780.00000000 -80.00000000 108 34 184 97.000000 1.000000 4.000000 1.000000 -60.708740 114.000000 245.000000 0.973899 -0.165474 -0.155369
960.00000000 10800.00000000 -40.00000000 108 34 184 97.000000 1.000000 4.000000 1.000000 -60.708740 114.000000 245.000000 0.273685 -0.474696 0.836517
920.00000000 10810.00000000 -20.00000000 108 34 184 97.000000 1.000000 4.000000 1.000000 -60.708740 114.000000 245.000000 -0.450982 -0.180686 0.874053
950.00000000 10790.00000000 -50.00000000 108 34 184 97.000000 1.000000 4.000000 1.000000 -60.708740 114.000000 245.000000 -0.143007 -0.742131 0.654821
960.00000000 10820.00000000 -30.00000000 108 34 184 97.000000 1.000000 4.000000 1.000000 -60.708740 114.000000 245.000000 0.029557 -0.688264 0.724858
940.00000000 10820.00000000 -30.00000000 108 34 184 97.000000 1.000000 4.000000 1.000000 -60.708740 114.000000 245.000000 0.359813 0.737536 -0.571468
950.00000000 10820.00000000 -30.00000000 108 34 184 97.000000 1.000000 4.000000 1.000000 -60.708740 114.000000 245.000000 0.073739 -0.643406 0.761966
950.00000000 10820.00000000 -20.00000000 108 34 184 97.000000 1.000000 4.000000 1.000000 -60.708740 114.000000 245.000000 0.292682 -0.334282 0.895875
950.00000000 10800.00000000 -100.00000000 108 34 184 97.000000 1.000000 4.000000 1.000000 -60.708740 114.000000 245.000000 -0.612222 -0.222768 0.758656
960.00000000 10790.00000000 -100.00000000 108 34 184 97.000000 1.000000 4.000000 1.000000 -60.708740 114.000000 245.000000 -0.701211 -0.026699 0.712453
940.00000000 10760.00000000 -50.00000000 108 34 184 97.000000 1.000000 4.000000 1.000000 -60.708740 114.000000 245.000000 0.280300 -0.294823 0.913516
960.00000000 10770.00000000 -40.00000000 108 34 184 97.000000 1.000000 4.000000 1.000000 -60.708740 114.000000 245.000000 0.357475 -0.455979 0.815043
950.00000000 10780.00000000 -30.00000000 108 34 184 97.000000 1.000000 4.000000 1.000000 -60.708740 114.000000 245.000000 -0.427137 0.676439 -0.599987
930.00000000 10760.00000000 -70.00000000 108 34 184 97.000000 1.000000 4.000000 1.000000 -60.708740 114.000000 245.000000 -0.327484 -0.473033 0.817920
960.00000000 10760.00000000 -70.00000000 108 34 184 97.000000 1.000000 4.000000 1.000000 -60.708740 114.000000 245.000000 0.524507 -0.184855 0.831096
950.00000000 10750.00000000 -70.00000000 108 34 184 97.000000 1.000000 4.000000 1.000000 -60.708740 114.000000 245.000000 0.478889 -0.407462 0.777586
940.00000000 10750.00000000 -100.00000000 108 34 184 97.000000 1.000000 4.000000 1.000000 -60.708740 114.000000 245.000000 -0.009715 -0.650875 0.759123
950.00000000 10750.00000000 -70.00000000 108 34 184 97.000000 1.000000 4.000000 1.000000 -60.708740 114.000000 245.000000 0.478889 -0.407462 0.777586
960.00000000 10770.00000000 -70.00000000 108 34 184 97.000000 1.000000 4.000000 1.000000 -60.708740 114.000000 245.000000 0.475193 -0.232283 0.848667
980.00000000 10790.00000000 -180.00000000 108 34 184 97.000000 1.000000 4.000000 1.000000 -60.708740 114.000000 245.000000 -0.543982 -0.192439 0.816731
1000.00000000 10750.00000000 -130.00000000 108 34 184 97.000000 1.000000 4.000000 1.000000 -60.708740 114.000000 245.000000 0.927164 0.361391 -0.098807
990.00000000 10750.00000000 -110.00000000 108 34 184 97.000000 1.000000 4.000000 1.000000 -60.708740 114.000000 245.000000 0.992711 0.030015 -0.116724
980.00000000 10780.00000000 -180.00000000 108 34 184 97.000000 1.000000 4.000000 1.000000 -60.708740 114.000000 245.000000 0.618152 0.434873 -0.654808
990.00000000 10760.00000000 -150.00000000 108 34 184 97.000000 1.000000 4.000000 1.000000 -60.708740 114.000000 245.000000 -0.544089 -0.282295 0.790112
970.00000000 10760.00000000 -160.00000000 108 34 184 97.000000 1.000000 4.000000 1.000000 -60.708740 114.000000 245.000000 0.805060 0.213149 -0.553575
950.00000000 10820.00000000 -110.00000000 108 34 184 97.000000 1.000000 4.000000 1.000000 -60.708740 114.000000 245.000000 0.511251 0.588866 -0.625987
940.00000000 10810.00000000 -130.00000000 108 34 184 97.000000 1.000000 4.000000 1.000000 -60.708740 114.000000 245.000000 -0.091387 -0.386006 0.917958
950.00000000 10760.00000000 -170.00000000 108 34 184 97.000000 1.000000 4.000000 1.000000 -60.708740 114.000000 245.000000 -0.185952 -0.483475 0.855379
960.00000000 10770.00000000 -170.00000000 108 34 184 97.000000 1.000000 4.000000 1.000000 -60.708740 114.000000 245.000000 0.059839 -0.499590 0.864193
940.00000000 10750.00000000 -180.00000000 108 34 184 97.000000 1.000000 4.000000 1.000000 -60.708740 114.000000 245.000000 -0.141644 -0.292732 0.945645
880.00000000 10890.00000000 -30.00000000 108 34 184 97.000000 1.000000 4.000000 1.000000 -60.708740 114.000000 245.000000 0.849179 -0.295434 0.437737
900.00000000 10840.00000000 -40.00000000 108 34 184 97.000000 1.000000 4.000000 1.000000 -60.708740 114.000000 245.000000 0.946857 0.121529 -0.297813
880.00000000 10860.00000000 -20.00000000 108 34 184 97.000000 1.000000 4.000000 1.000000 -60.708740 114.000000 245.000000 0.927610 0.369191 0.056900
890.00000000 10850.00000000 -50.00000000 108 34 184 97.000000 1.000000 4.000000 1.000000 -60.708740 114.000000 245.000000 0.976723 -0.165906 0.135968
870.00000000 10850.00000000 -90.00000000 108 34 184 97.000000 1.000000 4.000000 1.000000 -60.708740 114.000000 245.000000 0.946196 -0.258053 0.195247
900.00000000 10840.00000000 -120.00000000 108 34 184 97.000000 1.000000 4.000000 1.000000 -60.708740 114.000000 245.000000 -0.230835 0.705066 -0.670520
910.00000000 10830.00000000 -140.00000000 108 34 184 97.000000 1.000000 4.000000 1.000000 -60.708740 114.000000 245.000000 -0.622937 0.616220 -0.481894
890.00000000 10820.00000000 -60.00000000 108 34 184 97.000000 1.000000 4.000000 1.000000 -60.708740 114.000000 245.000000 0.934701 -0.355414 0.003794
910.00000000 10780.00000000 -30.00000000 108 34 184 97.000000 1.000000 4.000000 1.000000 -60.708740 114.000000 245.000000 -0.335380 -0.256295 0.906550
910.00000000 10780.00000000 -30.00000000 108 34 184 97.000000 1.000000 4.000000 1.000000 -60.708740 114.000000 245.000000 -0.335380 -0.256295 0.906550
870.00000000 10810.00000000 -130.00000000 108 34 184 97.000000 1.000000 4.000000 1.000000 -60.708740 114.000000 245.000000 0.866720 -0.477639 0.143727
990.00000000 10880.00000000 -250.00000000 108 34 184 97.000000 1.000000 4.000000 1.000000 -60.708740 114.000000 245.000000 -0.173719 -0.575540 0.799109
980.00000000 10870.00000000 -260.00000000 108 34 184 97.000000 1.000000 4.000000 1.000000 -60.708740 114.000000 245.000000 0.381014 0.681207 -0.625127
930.00000000 10840.00000000 -230.00000000 108 34 184 97.000000 1.000000 4.000000 1.000000 -60.708740 114.000000 245.000000 -0.308332 -0.560749 0.768434
940.00000000 10850.00000000 -260.00000000 108 34 184 97.000000 1.000000 4.000000 1.000000 -60.708740 114.000000 245.000000 -0.006945 -0.698706 0.715375
950.00000000 10870.00000000 -270.00000000 108 34 184 97.000000 1.000000 4.000000 1.000000 -60.708740 114.000000 245.000000 -0.326588 -0.400883 0.855940
950.00000000 10870.00000000 -270.00000000 108 34 184 97.000000 1.000000 4.000000 1.000000 -60.708740 114.000000 245.000000 -0.326588 -0.400883 0.855940
930.00000000 10860.00000000 -250.00000000 108 34 184 97.000000 1.000000 4.000000 1.000000 -60.708740 114.000000 245.000000 0.103439 -0.469020 0.877109
940.00000000 10850.00000000 -250.00000000 108 34 184 97.000000 1.000000 4.000000 1.000000 -60.708740 114.000000 245.000000 -0.318517 -0.539397 0.779485
990.00000000 10770.00000000 -190.00000000 108 34 184 97.000000 1.000000 4.000000 1.000000 -60.708740 114.000000 245.000000 0.395321 0.686436 -0.610349
980.00000000 10780.00000000 -200.00000000 108 34 184 97.000000 1.000000 4.000000 1.000000 -60.708740 114.000000 245.000000 0.710526 0.390707 -0.585236
940.00000000 10820.00000000 -240.00000000 108 34 184 97.000000 1.000000 4.000000 1.000000 -60.708740 114.000000 245.000000 0.174654 0.776073 -0.605975
800.00000000 10840.00000000 -50.00000000 108 34 184 97.000000 1.000000 4.000000 1.000000 -60.708740 114.000000 245.000000 0.956849 -0.290141 0.016050
710.00000000 10800.00000000 -20.00000000 108 34 184 97.000000 1.000000 4.000000 1.000000 -60.708740 114.000000 245.000000 0.986373 0.164207 0.010192
710.00000000 10800.00000000 -20.00000000 108 34 184 97.000000 1.000000 4.000000 1.000000 -60.708740 114.000000 245.000000 0.986373 0.164207 0.010192
740.00000000 10820.00000000 -20.00000000 108 34 184 97.000000 1.000000 4.000000 1.000000 -60.708740 114.000000 245.000000 0.963652 0.195353 -0.182242
710.00000000 10800.00000000 -20.00000000 108 34 184 97.000000 1.000000 4.000000 1.000000 -60.708740 114.000000 245.000000 0.986373 0.164207 0.010192
710.00000000 10780.00000000 -20.00000000 108 34 184 97.000000 1.000000 4.000000 1.000000 -60.708740 114.000000 245.000000 0.998248 -0.003110 -0.059086
880.00000000 10920.00000000 -480.00000000 108 34 184 97.000000 1.000000 4.000000 1.000000 -60.708740 114.000000 245.000000 0.286003 -0.306536 0.907875
930.00000000 11010.00000000 -590.00000000 108 34 184 97.000000 1.000000 4.000000 1.000000 -60.708740 114.000000 245.000000 -0.153355 0.823352 -0.546420
960.00000000 11000.00000000 -600.00000000 108 34 184 97.000000 1.000000 4.000000 1.000000 -60.708740 114.000000 245.000000 -0.135722 -0.607020 0.783011
950.00000000 11000.00000000 -600.00000000 108 34 184 97.000000 1.000000 4.000000 1.000000 -60.708740 114.000000 245.000000 -0.173776 -0.566662 0.805416
950.00000000 10990.00000000 -600.00000000 108 34 184 97.000000 1.000000 4.000000 1.000000 -60.708740 114.000000 245.000000 0.157266 -0.206655 0.965692
930.00000000 10980.00000000 -570.00000000 108 34 184 97.000000 1.000000 4.000000 1.000000 -60.708740 114.000000 245.000000 0.272213 -0.280854 0.920338
930.00000000 10980.00000000 -570.00000000 108 34 184 97.000000 1.000000 4.000000 1.000000 -60.708740 114.000000 245.000000 0.272213 -0.280854 0.920338
980.00000000 10970.00000000 -610.00000000 108 34 184 97.000000 1.000000 4.000000 1.000000 -60.708740 114.000000 245.000000 -0.123541 0.671289 -0.730827
930.00000000 10980.00000000 -620.00000000 108 34 184 97.000000 1.000000 4.000000 1.000000 -60.708740 114.000000 245.000000 -0.148203 0.785926 -0.600297
