//X Y Z R G B PointSourceId ScanDirectionFlag NumberOfReturns ReturnNumber GpsTime Intensity Classification Nx Ny Nz
12050.00000000 -10390.00000000 -20.00000000 53 216 121 97.000000 1.000000 4.000000 1.000000 -60.708740 114.000000 145.000000 0.074337 0.991545 -0.106360
12060.00000000 -10390.00000000 -60.00000000 53 216 121 97.000000 1.000000 4.000000 1.000000 -60.708740 114.000000 145.000000 0.208214 0.969537 -0.129016
12040.00000000 -10390.00000000 -20.00000000 53 216 121 97.000000 1.000000 4.000000 1.000000 -60.708740 114.000000 145.000000 0.443103 0.881847 -0.161260
12000.00000000 -10350.00000000 -20.00000000 53 216 121 97.000000 1.000000 4.000000 1.000000 -60.708740 114.000000 145.000000 0.139558 0.841756 0.521507
12010.00000000 -10350.00000000 -100.00000000 53 216 121 97.000000 1.000000 4.000000 1.000000 -60.708740 114.000000 145.000000 0.564473 0.821701 -0.078598
12020.00000000 -10360.00000000 -20.00000000 53 216 121 97.000000 1.000000 4.000000 1.000000 -60.708740 114.000000 145.000000 0.168272 0.985591 0.017171
12020.00000000 -10360.00000000 -20.00000000 53 216 121 97.000000 1.000000 4.000000 1.000000 -60.708740 114.000000 145.000000 0.168272 0.985591 0.017171
12010.00000000 -10360.00000000 -90.00000000 53 216 121 97.000000 1.000000 4.000000 1.000000 -60.708740 114.000000 145.000000 0.459380 0.880361 -0.118045
11970.00000000 -10350.00000000 -40.00000000 53 216 121 97.000000 1.000000 4.000000 1.000000 -60.708740 114.000000 145.000000 0.277675 0.872476 0.402098
11960.00000000 -10310.00000000 -50.00000000 53 216 121 97.000000 1.000000 4.000000 1.000000 -60.708740 114.000000 145.000000 0.217016 0.941324 0.258484
11970.00000000 -10350.00000000 -40.00000000 53 216 121 97.000000 1.000000 4.000000 1.000000 -60.708740 114.000000 145.000000 0.277675 0.872476 0.402098
11980.00000000 -10320.00000000 -70.00000000 53 216 121 97.000000 1.000000 4.000000 1.000000 -60.708740 114.000000 145.000000 0.363256 0.930924 -0.037758
11960.00000000 -10310.00000000 -90.00000000 53 216 121 97.000000 1.000000 4.000000 1.000000 -60.708740 114.000000 145.000000 0.163520 0.979891 -0.114341
11910.00000000 -10220.00000000 -80.00000000 53 216 121 97.000000 1.000000 4.000000 1.000000 -60.708740 114.000000 145.000000 0.406872 0.855514 -0.320237
11950.00000000 -10220.00000000 -50.00000000 53 216 121 97.000000 1.000000 4.000000 1.000000 -60.708740 114.000000 145.000000 0.526304 0.833439 0.168477
11890.00000000 -10210.00000000 -80.00000000 53 216 121 97.000000 1.000000 4.000000 1.000000 -60.708740 114.000000 145.000000 0.395578 0.909968 -0.124404
11910.00000000 -10300.00000000 -40.00000000 53 216 121 97.000000 1.000000 4.000000 1.000000 -60.708740 114.000000 145.000000 0.171781 0.896438 0.408522
11790.00000000 -10210.00000000 -170.00000000 53 216 121 97.000000 1.000000 4.000000 1.000000 -60.708740 114.000000 145.000000 0.061577 0.893549 -0.444722
11860.00000000 -10300.00000000 -20.00000000 53 216 121 97.000000 1.000000 4.000000 1.000000 -60.708740 114.000000 145.000000 0.526096 0.846575 0.080829
11790.00000000 -10290.00000000 -120.00000000 53 216 121 97.000000 1.000000 4.000000 1.000000 -60.708740 114.000000 145.000000 0.446570 0.877034 0.177164
11800.00000000 -10290.00000000 -130.00000000 53 216 121 97.000000 1.000000 4.000000 1.000000 -60.708740 114.000000 145.000000 0.285033 0.952298 0.109022
11800.00000000 -10300.00000000 -110.00000000 53 216 121 97.000000 1.000000 4.000000 1.000000 -60.708740 114.000000 145.000000 0.572944 0.774973 -0.266742
11810.00000000 -10290.00000000 -150.00000000 53 216 121 97.000000 1.000000 4.000000 1.000000 -60.708740 114.000000 145.000000 0.026013 0.989614 -0.141374
11800.00000000 -10230.00000000 -250.00000000 53 216 121 97.000000 1.000000 4.000000 1.000000 -60.708740 114.000000 145.000000 -0.369023 -0.497940 0.784779
11820.00000000 -10240.00000000 -210.00000000 53 216 121 97.000000 1.000000 4.000000 1.000000 -60.708740 114.000000 145.000000 0.625702 0.541375 -0.561614
11820.00000000 -10230.00000000 -200.00000000 53 216 121 97.000000 1.000000 4.000000 1.000000 -60.708740 114.000000 145.000000 0.060711 0.831600 -0.552047
11830.00000000 -10300.00000000 -190.00000000 53 216 121 97.000000 1.000000 4.000000 1.000000 -60.708740 114.000000 145.000000 0.244757 0.923206 -0.296285
11940.00000000 -10340.00000000 -40.00000000 53 216 121 97.000000 1.000000 4.000000 1.000000 -60.708740 114.000000 145.000000 0.019868 0.980566 0.195178
11950.00000000 -10340.00000000 -60.00000000 53 216 121 97.000000 1.000000 4.000000 1.000000 -60.708740 114.000000 145.000000 0.354818 0.921406 -0.158476
11920.00000000 -10320.00000000 -30.00000000 53 216 121 97.000000 1.000000 4.000000 1.000000 -60.708740 114.000000 145.000000 0.194937 0.979467 0.051425
11930.00000000 -10320.00000000 -20.00000000 53 216 121 97.000000 1.000000 4.000000 1.000000 -60.708740 114.000000 145.000000 0.348727 0.744492 0.569317
11940.00000000 -10310.00000000 -90.00000000 53 216 121 97.000000 1.000000 4.000000 1.000000 -60.708740 114.000000 145.000000 0.209076 0.923065 -0.322859
11910.00000000 -10320.00000000 -20.00000000 53 216 121 97.000000 1.000000 4.000000 1.000000 -60.708740 114.000000 145.000000 0.558157 0.668783 0.491111
11880.00000000 -10310.00000000 -50.00000000 53 216 121 97.000000 1.000000 4.000000 1.000000 -60.708740 114.000000 145.000000 0.088604 0.959230 0.268379
11910.00000000 -10330.00000000 -20.00000000 53 216 121 97.000000 1.000000 4.000000 1.000000 -60.708740 114.000000 145.000000 0.174911 0.768089 0.615992
11900.00000000 -10320.00000000 -50.00000000 53 216 121 97.000000 1.000000 4.000000 1.000000 -60.708740 114.000000 145.000000 0.005807 0.979109 0.203255
11900.00000000 -10340.00000000 -80.00000000 53 216 121 97.000000 1.000000 4.000000 1.000000 -60.708740 114.000000 145.000000 0.461214 0.857405 0.228339
11870.00000000 -10310.00000000 -70.00000000 53 216 121 97.000000 1.000000 4.000000 1.000000 -60.708740 114.000000 145.000000 0.230617 0.964986 0.124971
11840.00000000 -10330.00000000 -40.00000000 53 216 121 97.000000 1.000000 4.000000 1.000000 -60.708740 114.000000 145.000000 0.694645 0.678893 0.237849
11840.00000000 -10310.00000000 -100.00000000 53 216 121 97.000000 1.000000 4.000000 1.000000 -60.708740 114.000000 145.000000 0.292033 0.950099 0.109678
11860.00000000 -10360.00000000 -60.00000000 53 216 121 97.000000 1.000000 4.000000 1.000000 -60.708740 114.000000 145.000000 -0.059771 0.996549 0.057598
11530.00000000 -10140.00000000 -190.00000000 53 216 121 97.000000 1.000000 4.000000 1.000000 -60.708740 114.000000 145.000000 0.146686 0.828255 -0.540811
11730.00000000 -10220.00000000 -170.00000000 53 216 121 97.000000 1.000000 4.000000 1.000000 -60.708740 114.000000 145.000000 0.654903 0.591255 -0.470659
11750.00000000 -10260.00000000 -100.00000000 53 216 121 97.000000 1.000000 4.000000 1.000000 -60.708740 114.000000 145.000000 0.023133 0.965510 -0.259336
11750.00000000 -10260.00000000 -140.00000000 53 216 121 97.000000 1.000000 4.000000 1.000000 -60.708740 114.000000 145.000000 0.419112 0.741252 -0.524300
11760.00000000 -10270.00000000 -170.00000000 53 216 121 97.000000 1.000000 4.000000 1.000000 -60.708740 114.000000 145.000000 0.217804 0.931640 -0.290874
11770.00000000 -10280.00000000 -180.00000000 53 216 121 97.000000 1.000000 4.000000 1.000000 -60.708740 114.000000 145.000000 0.115250 0.934202 -0.337614
11740.00000000 -10260.00000000 -170.00000000 53 216 121 97.000000 1.000000 4.000000 1.000000 -60.708740 114.000000 145.000000 0.186982 0.953740 -0.235408
11730.00000000 -10260.00000000 -170.00000000 53 216 121 97.000000 1.000000 4.000000 1.000000 -60.708740 114.000000 145.000000 0.324714 0.863339 -0.386271
11720.00000000 -10260.00000000 -180.00000000 53 216 121 97.000000 1.000000 4.000000 1.000000 -60.708740 114.000000 145.000000 0.489201 0.657312 -0.573257
11740.00000000 -10260.00000000 -180.00000000 53 216 121 97.000000 1.000000 4.000000 1.000000 -60.708740 114.000000 145.000000 0.194700 0.960256 -0.199998
11750.00000000 -10220.00000000 -190.00000000 53 216 121 97.000000 1.000000 4.000000 1.000000 -60.708740 114.000000 145.000000 -0.014949 0.852076 -0.523205
11740.00000000 -10220.00000000 -270.00000000 53 216 121 97.000000 1.000000 4.000000 1.000000 -60.708740 114.000000 145.000000 0.528756 0.576057 -0.623358
11780.00000000 -10260.00000000 -240.00000000 53 216 121 97.000000 1.000000 4.000000 1.000000 -60.708740 114.000000 145.000000 0.536751 0.790084 -0.296084
11720.00000000 -10250.00000000 -210.00000000 53 216 121 97.000000 1.000000 4.000000 1.000000 -60.708740 114.000000 145.000000 0.147227 0.893365 -0.424527
11700.00000000 -10240.00000000 -210.00000000 53 216 121 97.000000 1.000000 4.000000 1.000000 -60.708740 114.000000 145.000000 0.372045 0.787576 -0.491229
11720.00000000 -10250.00000000 -220.00000000 53 216 121 97.000000 1.000000 4.000000 1.000000 -60.708740 114.000000 145.000000 0.368859 0.875849 -0.311177
11740.00000000 -10250.00000000 -210.00000000 53 216 121 97.000000 1.000000 4.000000 1.000000 -60.708740 114.000000 145.000000 -0.306019 -0.571984 0.761043
11720.00000000 -10250.00000000 -210.00000000 53 216 121 97.000000 1.000000 4.000000 1.000000 -60.708740 114.000000 145.000000 0.147227 0.893365 -0.424527
11730.00000000 -10250.00000000 -210.00000000 53 216 121 97.000000 1.000000 4.000000 1.000000 -60.708740 114.000000 145.000000 -0.344601 -0.632040 0.694101
11760.00000000 -10290.00000000 -310.00000000 53 216 121 97.000000 1.000000 4.000000 1.000000 -60.708740 114.000000 145.000000 0.107931 0.847621 -0.519509
11760.00000000 -10280.00000000 -310.00000000 53 216 121 97.000000 1.000000 4.000000 1.000000 -60.708740 114.000000 145.000000 -0.289971 -0.310578 0.905239
11680.00000000 -10260.00000000 -210.00000000 53 216 121 97.000000 1.000000 4.000000 1.000000 -60.708740 114.000000 145.000000 0.560411 0.762737 -0.322758
11650.00000000 -10230.00000000 -250.00000000 53 216 121 97.000000 1.000000 4.000000 1.000000 -60.708740 114.000000 145.000000 -0.043702 0.790870 -0.610422
11650.00000000 -10240.00000000 -240.00000000 53 216 121 97.000000 1.000000 4.000000 1.000000 -60.708740 114.000000 145.000000 0.590163 0.670412 -0.449728
11640.00000000 -10280.00000000 -250.00000000 53 216 121 97.000000 1.000000 4.000000 1.000000 -60.708740 114.000000 145.000000 0.266570 0.777627 -0.569418
11630.00000000 -10280.00000000 -260.00000000 53 216 121 97.000000 1.000000 4.000000 1.000000 -60.708740 114.000000 145.000000 -0.404241 -0.512257 0.757748
11780.00000000 -10310.00000000 -130.00000000 53 216 121 97.000000 1.000000 4.000000 1.000000 -60.708740 114.000000 145.000000 0.639711 0.633030 -0.435939
11640.00000000 -10320.00000000 -140.00000000 53 216 121 97.000000 1.000000 4.000000 1.000000 -60.708740 114.000000 145.000000 0.240663 0.737718 -0.630757
11650.00000000 -10330.00000000 -190.00000000 53 216 121 97.000000 1.000000 4.000000 1.000000 -60.708740 114.000000 145.000000 -0.360238 -0.338777 0.869171
11640.00000000 -10330.00000000 -200.00000000 53 216 121 97.000000 1.000000 4.000000 1.000000 -60.708740 114.000000 145.000000 -0.083534 -0.513946 0.853745
11600.00000000 -10270.00000000 -180.00000000 53 216 121 97.000000 1.000000 4.000000 1.000000 -60.708740 114.000000 145.000000 0.311614 0.653904 -0.689425
11600.00000000 -10170.00000000 -210.00000000 53 216 121 97.000000 1.000000 4.000000 1.000000 -60.708740 114.000000 145.000000 0.539640 0.731072 -0.417520
11590.00000000 -10200.00000000 -230.00000000 53 216 121 97.000000 1.000000 4.000000 1.000000 -60.708740 114.000000 145.000000 0.666345 0.542139 -0.511927
11550.00000000 -10160.00000000 -200.00000000 53 216 121 97.000000 1.000000 4.000000 1.000000 -60.708740 114.000000 145.000000 0.557844 0.805435 -0.200212
11560.00000000 -10210.00000000 -260.00000000 53 216 121 97.000000 1.000000 4.000000 1.000000 -60.708740 114.000000 145.000000 0.682681 0.565841 -0.462354
11550.00000000 -10170.00000000 -280.00000000 53 216 121 97.000000 1.000000 4.000000 1.000000 -60.708740 114.000000 145.000000 -0.100453 -0.592530 0.799260
11600.00000000 -10230.00000000 -200.00000000 53 216 121 97.000000 1.000000 4.000000 1.000000 -60.708740 114.000000 145.000000 0.101539 0.710772 -0.696056
11600.00000000 -10240.00000000 -210.00000000 53 216 121 97.000000 1.000000 4.000000 1.000000 -60.708740 114.000000 145.000000 -0.009048 0.918974 -0.394215
11590.00000000 -10270.00000000 -190.00000000 53 216 121 97.000000 1.000000 4.000000 1.000000 -60.708740 114.000000 145.000000 -0.390697 -0.537821 0.747064
11520.00000000 -10200.00000000 -240.00000000 53 216 121 0.000000 0.000000 0.000000 0.000000 -60.708740 0.000000 145.000000 -0.191797 -0.471316 0.860857
11510.00000000 -10220.00000000 -260.00000000 53 216 121 0.000000 0.000000 0.000000 0.000000 -60.708740 0.000000 145.000000 0.087163 0.841625 -0.532982
11530.00000000 -10200.00000000 -240.00000000 53 216 121 97.000000 1.000000 4.000000 1.000000 -60.708740 114.000000 145.000000 -0.020788 -0.600092 0.799661
11510.00000000 -10220.00000000 -260.00000000 53 216 121 0.000000 0.000000 0.000000 0.000000 -60.708740 0.000000 145.000000 0.087163 0.841625 -0.532982
11510.00000000 -10220.00000000 -260.00000000 53 216 121 0.000000 0.000000 0.000000 0.000000 -60.708740 0.000000 145.000000 0.087163 0.841625 -0.532982
11530.00000000 -10200.00000000 -240.00000000 53 216 121 97.000000 1.000000 4.000000 1.000000 -60.708740 114.000000 145.000000 -0.020788 -0.600092 0.799661
11500.00000000 -10220.00000000 -260.00000000 53 216 121 0.000000 0.000000 0.000000 0.000000 -60.708740 0.000000 145.000000 -0.455586 -0.508600 0.730594
11480.00000000 -10220.00000000 -260.00000000 53 216 121 0.000000 0.000000 0.000000 0.000000 -60.708740 0.000000 145.000000 -0.166622 -0.274993 0.946898
11480.00000000 -10220.00000000 -260.00000000 53 216 121 0.000000 0.000000 0.000000 0.000000 -60.708740 0.000000 145.000000 -0.166622 -0.274993 0.946898
11490.00000000 -10200.00000000 -300.00000000 53 216 121 0.000000 0.000000 0.000000 0.000000 -60.708740 0.000000 145.000000 -0.039686 -0.329007 0.943493
11520.00000000 -10220.00000000 -290.00000000 53 216 121 97.000000 1.000000 4.000000 1.000000 -60.708740 114.000000 145.000000 0.618601 0.303677 -0.724647
11490.00000000 -10200.00000000 -300.00000000 53 216 121 0.000000 0.000000 0.000000 0.000000 -60.708740 0.000000 145.000000 -0.039686 -0.329007 0.943493
11460.00000000 -10180.00000000 -280.00000000 53 216 121 0.000000 0.000000 0.000000 0.000000 -60.708740 0.000000 145.000000 0.643975 0.380456 -0.663739
11460.00000000 -10170.00000000 -310.00000000 53 216 121 0.000000 0.000000 0.000000 0.000000 -60.708740 0.000000 145.000000 -0.591893 -0.375467 0.713223
11450.00000000 -10170.00000000 -320.00000000 53 216 121 0.000000 0.000000 0.000000 0.000000 -60.708740 0.000000 145.000000 -0.463430 -0.333733 0.820887
11450.00000000 -10170.00000000 -320.00000000 53 216 121 0.000000 0.000000 0.000000 0.000000 -60.708740 0.000000 145.000000 -0.463430 -0.333733 0.820887
11470.00000000 -10220.00000000 -300.00000000 53 216 121 0.000000 0.000000 0.000000 0.000000 -60.708740 0.000000 145.000000 -0.512864 -0.333921 0.790865
11520.00000000 -10250.00000000 -220.00000000 53 216 121 0.000000 0.000000 0.000000 0.000000 -60.708740 0.000000 145.000000 -0.584844 -0.375152 0.719178
11500.00000000 -10230.00000000 -270.00000000 53 216 121 0.000000 0.000000 0.000000 0.000000 -60.708740 0.000000 145.000000 -0.357452 -0.306172 0.882319
11510.00000000 -10230.00000000 -270.00000000 53 216 121 0.000000 0.000000 0.000000 0.000000 -60.708740 0.000000 145.000000 -0.385390 -0.385390 0.838420
11530.00000000 -10270.00000000 -220.00000000 53 216 121 97.000000 1.000000 4.000000 1.000000 -60.708740 114.000000 145.000000 0.572584 0.663257 -0.481911
11510.00000000 -10270.00000000 -240.00000000 53 216 121 0.000000 0.000000 0.000000 0.000000 -60.708740 0.000000 145.000000 0.416861 0.639409 -0.646052
11590.00000000 -10310.00000000 -170.00000000 53 216 121 97.000000 1.000000 4.000000 1.000000 -60.708740 114.000000 145.000000 -0.270430 -0.432383 0.860182
11500.00000000 -10430.00000000 -180.00000000 53 216 121 0.000000 0.000000 0.000000 0.000000 -60.708740 0.000000 145.000000 -0.073679 0.371074 0.925676
11460.00000000 -10380.00000000 -200.00000000 53 216 121 0.000000 0.000000 0.000000 0.000000 -60.708740 0.000000 145.000000 -0.338546 0.273498 0.900325
11520.00000000 -10410.00000000 -190.00000000 53 216 121 0.000000 0.000000 0.000000 0.000000 -60.708740 0.000000 145.000000 -0.162785 0.262339 0.951146
11310.00000000 -10140.00000000 -350.00000000 53 216 121 0.000000 0.000000 0.000000 0.000000 -60.708740 0.000000 145.000000 -0.385810 -0.218577 0.896312
11270.00000000 -10100.00000000 -440.00000000 53 216 121 0.000000 0.000000 0.000000 0.000000 -60.708740 0.000000 145.000000 -0.540813 -0.189360 0.819551
11140.00000000 -10130.00000000 -440.00000000 53 216 121 0.000000 0.000000 0.000000 0.000000 -60.708740 0.000000 145.000000 -0.118797 -0.403911 0.907052
11190.00000000 -10130.00000000 -450.00000000 53 216 121 0.000000 0.000000 0.000000 0.000000 -60.708740 0.000000 145.000000 -0.338433 -0.236758 0.910719
11120.00000000 -10140.00000000 -460.00000000 53 216 121 0.000000 0.000000 0.000000 0.000000 -60.708740 0.000000 145.000000 -0.184269 -0.592402 0.784286
11130.00000000 -10140.00000000 -480.00000000 53 216 121 0.000000 0.000000 0.000000 0.000000 -60.708740 0.000000 145.000000 -0.483186 -0.250030 0.839057
11410.00000000 -10170.00000000 -300.00000000 53 216 121 0.000000 0.000000 0.000000 0.000000 -60.708740 0.000000 145.000000 -0.584915 -0.350297 0.731551
11420.00000000 -10170.00000000 -300.00000000 53 216 121 0.000000 0.000000 0.000000 0.000000 -60.708740 0.000000 145.000000 -0.473519 -0.284111 0.833703
11440.00000000 -10170.00000000 -330.00000000 53 216 121 0.000000 0.000000 0.000000 0.000000 -60.708740 0.000000 145.000000 -0.373873 -0.246786 0.894045
11380.00000000 -10150.00000000 -330.00000000 53 216 121 0.000000 0.000000 0.000000 0.000000 -60.708740 0.000000 145.000000 -0.463901 -0.355498 0.811429
11380.00000000 -10150.00000000 -340.00000000 53 216 121 0.000000 0.000000 0.000000 0.000000 -60.708740 0.000000 145.000000 0.438565 0.648677 -0.621996
11410.00000000 -10420.00000000 -170.00000000 53 216 121 0.000000 0.000000 0.000000 0.000000 -60.708740 0.000000 145.000000 0.165689 0.755481 0.633874
11400.00000000 -10430.00000000 -160.00000000 53 216 121 0.000000 0.000000 0.000000 0.000000 -60.708740 0.000000 145.000000 -0.144100 0.809633 0.568972
11420.00000000 -10430.00000000 -180.00000000 53 216 121 0.000000 0.000000 0.000000 0.000000 -60.708740 0.000000 145.000000 0.363006 0.675093 0.642242
11360.00000000 -10430.00000000 -170.00000000 53 216 121 0.000000 0.000000 0.000000 0.000000 -60.708740 0.000000 145.000000 0.174086 0.899204 0.401405
11390.00000000 -10380.00000000 -220.00000000 53 216 121 0.000000 0.000000 0.000000 0.000000 -60.708740 0.000000 145.000000 0.122792 -0.016594 0.992294
11430.00000000 -10430.00000000 -190.00000000 53 216 121 0.000000 0.000000 0.000000 0.000000 -60.708740 0.000000 145.000000 0.484970 0.481659 0.729937
11370.00000000 -10180.00000000 -370.00000000 53 216 121 0.000000 0.000000 0.000000 0.000000 -60.708740 0.000000 145.000000 -0.344054 -0.644082 0.683216
11350.00000000 -10170.00000000 -380.00000000 53 216 121 0.000000 0.000000 0.000000 0.000000 -60.708740 0.000000 145.000000 -0.354844 -0.502562 0.788364
11330.00000000 -10170.00000000 -370.00000000 53 216 121 0.000000 0.000000 0.000000 0.000000 -60.708740 0.000000 145.000000 -0.328043 -0.066654 0.942308
11340.00000000 -10170.00000000 -380.00000000 53 216 121 0.000000 0.000000 0.000000 0.000000 -60.708740 0.000000 145.000000 -0.228817 -0.474302 0.850106
11340.00000000 -10190.00000000 -390.00000000 53 216 121 0.000000 0.000000 0.000000 0.000000 -60.708740 0.000000 145.000000 -0.046261 -0.057019 0.997301
11320.00000000 -10180.00000000 -390.00000000 53 216 121 0.000000 0.000000 0.000000 0.000000 -60.708740 0.000000 145.000000 -0.330556 0.021530 0.943541
11300.00000000 -10160.00000000 -360.00000000 53 216 121 0.000000 0.000000 0.000000 0.000000 -60.708740 0.000000 145.000000 -0.396518 -0.139699 0.907335
11250.00000000 -10160.00000000 -400.00000000 53 216 121 0.000000 0.000000 0.000000 0.000000 -60.708740 0.000000 145.000000 -0.131847 -0.124589 0.983409
11250.00000000 -10180.00000000 -430.00000000 53 216 121 0.000000 0.000000 0.000000 0.000000 -60.708740 0.000000 145.000000 -0.387792 -0.435667 0.812288
11250.00000000 -10200.00000000 -420.00000000 53 216 121 0.000000 0.000000 0.000000 0.000000 -60.708740 0.000000 145.000000 -0.255488 -0.386968 0.885992
11230.00000000 -10180.00000000 -440.00000000 53 216 121 0.000000 0.000000 0.000000 0.000000 -60.708740 0.000000 145.000000 0.055848 -0.442698 0.894930
11230.00000000 -10200.00000000 -410.00000000 53 216 121 0.000000 0.000000 0.000000 0.000000 -60.708740 0.000000 145.000000 -0.042856 -0.515649 0.855728
11220.00000000 -10190.00000000 -430.00000000 53 216 121 0.000000 0.000000 0.000000 0.000000 -60.708740 0.000000 145.000000 0.210246 -0.042049 0.976744
11170.00000000 -10180.00000000 -430.00000000 53 216 121 0.000000 0.000000 0.000000 0.000000 -60.708740 0.000000 145.000000 -0.272816 0.028393 0.961647
11170.00000000 -10150.00000000 -470.00000000 53 216 121 0.000000 0.000000 0.000000 0.000000 -60.708740 0.000000 145.000000 -0.469281 -0.149647 0.870277
9140.00000000 -9070.00000000 -150.00000000 53 216 121 0.000000 0.000000 0.000000 0.000000 -60.708740 0.000000 130.000000 0.600449 0.775516 0.195031
9140.00000000 -9060.00000000 -190.00000000 53 216 121 0.000000 0.000000 0.000000 0.000000 -60.708740 0.000000 130.000000 0.474476 0.821269 0.316843
8930.00000000 -9120.00000000 -340.00000000 53 216 121 0.000000 0.000000 0.000000 0.000000 -60.708740 0.000000 125.000000 0.472026 0.881559 -0.006648
9010.00000000 -9120.00000000 -270.00000000 53 216 121 0.000000 0.000000 0.000000 0.000000 -60.708740 0.000000 125.000000 0.392666 0.852071 0.346105
8970.00000000 -9110.00000000 -310.00000000 53 216 121 0.000000 0.000000 0.000000 0.000000 -60.708740 0.000000 125.000000 0.157981 0.969720 0.186238
8840.00000000 -9110.00000000 -270.00000000 53 216 121 0.000000 0.000000 0.000000 0.000000 -60.708740 0.000000 125.000000 0.372063 0.918313 0.135169
8840.00000000 -9120.00000000 -250.00000000 53 216 121 0.000000 0.000000 0.000000 0.000000 -60.708740 0.000000 125.000000 0.336686 0.908033 0.249235
8870.00000000 -9110.00000000 -290.00000000 53 216 121 0.000000 0.000000 0.000000 0.000000 -60.708740 0.000000 125.000000 0.126150 0.961078 0.245797
8840.00000000 -9110.00000000 -280.00000000 53 216 121 0.000000 0.000000 0.000000 0.000000 -60.708740 0.000000 125.000000 0.153149 0.973319 0.170869
8870.00000000 -9120.00000000 -350.00000000 53 216 121 0.000000 0.000000 0.000000 0.000000 -60.708740 0.000000 125.000000 0.366189 0.913336 -0.178108
8860.00000000 -9120.00000000 -340.00000000 53 216 121 0.000000 0.000000 0.000000 0.000000 -60.708740 0.000000 125.000000 0.310362 0.946800 0.085120
8800.00000000 -9000.00000000 -220.00000000 53 216 121 0.000000 0.000000 0.000000 0.000000 -60.708740 0.000000 125.000000 0.126577 0.746062 0.653735
8820.00000000 -8990.00000000 -240.00000000 53 216 121 0.000000 0.000000 0.000000 0.000000 -60.708740 0.000000 125.000000 0.335436 0.928365 -0.160063
8760.00000000 -8990.00000000 -270.00000000 53 216 121 0.000000 0.000000 0.000000 0.000000 -60.708740 0.000000 125.000000 0.230603 0.967003 0.108294
8790.00000000 -9000.00000000 -250.00000000 53 216 121 0.000000 0.000000 0.000000 0.000000 -60.708740 0.000000 125.000000 0.281566 0.832253 0.477573
8790.00000000 -9030.00000000 -220.00000000 53 216 121 0.000000 0.000000 0.000000 0.000000 -60.708740 0.000000 125.000000 0.496051 0.851431 0.170286
8770.00000000 -9030.00000000 -250.00000000 53 216 121 0.000000 0.000000 0.000000 0.000000 -60.708740 0.000000 125.000000 0.604738 0.747590 0.274592
8770.00000000 -9020.00000000 -270.00000000 53 216 121 0.000000 0.000000 0.000000 0.000000 -60.708740 0.000000 125.000000 0.455574 0.824446 0.335769
8820.00000000 -9000.00000000 -300.00000000 53 216 121 0.000000 0.000000 0.000000 0.000000 -60.708740 0.000000 125.000000 0.378780 0.915502 -0.135578
8800.00000000 -9000.00000000 -300.00000000 53 216 121 0.000000 0.000000 0.000000 0.000000 -60.708740 0.000000 125.000000 0.498800 0.866480 0.020276
8770.00000000 -8970.00000000 -310.00000000 53 216 121 0.000000 0.000000 0.000000 0.000000 -60.708740 0.000000 125.000000 0.214274 0.964884 0.151940
8760.00000000 -8970.00000000 -290.00000000 53 216 121 0.000000 0.000000 0.000000 0.000000 -60.708740 0.000000 125.000000 0.381098 0.912667 -0.147658
8790.00000000 -9000.00000000 -280.00000000 53 216 121 0.000000 0.000000 0.000000 0.000000 -60.708740 0.000000 125.000000 0.013694 0.997559 -0.068470
8770.00000000 -8970.00000000 -330.00000000 53 216 121 0.000000 0.000000 0.000000 0.000000 -60.708740 0.000000 125.000000 0.463540 0.884940 0.044859
8780.00000000 -9000.00000000 -340.00000000 53 216 121 0.000000 0.000000 0.000000 0.000000 -60.708740 0.000000 125.000000 0.276395 0.908156 0.314418
8780.00000000 -8980.00000000 -350.00000000 53 216 121 0.000000 0.000000 0.000000 0.000000 -60.708740 0.000000 125.000000 0.271012 0.831621 -0.484725
8770.00000000 -9000.00000000 -330.00000000 53 216 121 0.000000 0.000000 0.000000 0.000000 -60.708740 0.000000 125.000000 0.070737 0.989155 0.128718
8780.00000000 -9020.00000000 -310.00000000 53 216 121 0.000000 0.000000 0.000000 0.000000 -60.708740 0.000000 125.000000 0.640367 0.762897 0.088980
8790.00000000 -9030.00000000 -320.00000000 53 216 121 0.000000 0.000000 0.000000 0.000000 -60.708740 0.000000 125.000000 0.085976 0.995797 0.031561
8830.00000000 -9110.00000000 -270.00000000 53 216 121 0.000000 0.000000 0.000000 0.000000 -60.708740 0.000000 125.000000 0.075840 0.932700 0.352590
8780.00000000 -9060.00000000 -260.00000000 53 216 121 0.000000 0.000000 0.000000 0.000000 -60.708740 0.000000 125.000000 0.408451 0.849515 0.333904
8830.00000000 -9050.00000000 -280.00000000 53 216 121 0.000000 0.000000 0.000000 0.000000 -60.708740 0.000000 125.000000 0.546314 0.736621 0.398661
8820.00000000 -9060.00000000 -330.00000000 53 216 121 0.000000 0.000000 0.000000 0.000000 -60.708740 0.000000 125.000000 0.388172 0.918357 -0.077093
8820.00000000 -9110.00000000 -300.00000000 53 216 121 0.000000 0.000000 0.000000 0.000000 -60.708740 0.000000 125.000000 0.310393 0.814583 0.490011
8820.00000000 -9110.00000000 -280.00000000 53 216 121 0.000000 0.000000 0.000000 0.000000 -60.708740 0.000000 125.000000 0.431779 0.898045 -0.084149
8820.00000000 -9110.00000000 -330.00000000 53 216 121 0.000000 0.000000 0.000000 0.000000 -60.708740 0.000000 125.000000 0.144532 0.979604 -0.139591
8800.00000000 -9110.00000000 -330.00000000 53 216 121 0.000000 0.000000 0.000000 0.000000 -60.708740 0.000000 125.000000 0.206746 0.952651 -0.222961
8830.00000000 -9110.00000000 -320.00000000 53 216 121 0.000000 0.000000 0.000000 0.000000 -60.708740 0.000000 125.000000 0.549357 0.803145 0.230575
8790.00000000 -9070.00000000 -300.00000000 53 216 121 0.000000 0.000000 0.000000 0.000000 -60.708740 0.000000 125.000000 0.700104 0.711604 0.058941
8980.00000000 -9010.00000000 -470.00000000 53 216 121 0.000000 0.000000 0.000000 0.000000 -60.708740 0.000000 125.000000 0.491608 0.865628 -0.094922
8900.00000000 -8990.00000000 -380.00000000 53 216 121 0.000000 0.000000 0.000000 0.000000 -60.708740 0.000000 125.000000 0.347048 0.887901 -0.301976
8880.00000000 -8970.00000000 -380.00000000 53 216 121 0.000000 0.000000 0.000000 0.000000 -60.708740 0.000000 125.000000 0.043202 0.966491 -0.253040
8880.00000000 -9030.00000000 -420.00000000 53 216 121 0.000000 0.000000 0.000000 0.000000 -60.708740 0.000000 125.000000 -0.337478 -0.689629 0.640719
8840.00000000 -8990.00000000 -410.00000000 53 216 121 0.000000 0.000000 0.000000 0.000000 -60.708740 0.000000 125.000000 0.572270 0.779228 -0.255562
8850.00000000 -9040.00000000 -380.00000000 53 216 121 0.000000 0.000000 0.000000 0.000000 -60.708740 0.000000 125.000000 0.228043 0.895989 -0.381053
8860.00000000 -9040.00000000 -390.00000000 53 216 121 0.000000 0.000000 0.000000 0.000000 -60.708740 0.000000 125.000000 0.286117 0.958188 0.003653
8840.00000000 -9020.00000000 -400.00000000 53 216 121 0.000000 0.000000 0.000000 0.000000 -60.708740 0.000000 125.000000 0.422485 0.867685 -0.261971
8840.00000000 -9010.00000000 -400.00000000 53 216 121 0.000000 0.000000 0.000000 0.000000 -60.708740 0.000000 125.000000 0.081726 0.996627 -0.007430
8860.00000000 -9040.00000000 -470.00000000 53 216 121 0.000000 0.000000 0.000000 0.000000 -60.708740 0.000000 125.000000 0.017997 0.796033 -0.604985
8840.00000000 -9020.00000000 -520.00000000 53 216 121 0.000000 0.000000 0.000000 0.000000 -60.708740 0.000000 125.000000 0.567129 0.499814 -0.654638
8860.00000000 -9010.00000000 -490.00000000 53 216 121 0.000000 0.000000 0.000000 0.000000 -60.708740 0.000000 125.000000 0.361388 0.708058 -0.606673
8880.00000000 -9120.00000000 -370.00000000 53 216 121 0.000000 0.000000 0.000000 0.000000 -60.708740 0.000000 125.000000 0.348038 0.833085 -0.429929
8860.00000000 -9080.00000000 -360.00000000 53 216 121 0.000000 0.000000 0.000000 0.000000 -60.708740 0.000000 125.000000 0.670862 0.730627 -0.127001
8870.00000000 -9060.00000000 -360.00000000 53 216 121 0.000000 0.000000 0.000000 0.000000 -60.708740 0.000000 125.000000 0.113526 0.985881 0.123086
8850.00000000 -9060.00000000 -430.00000000 53 216 121 0.000000 0.000000 0.000000 0.000000 -60.708740 0.000000 125.000000 0.577022 0.811301 -0.094001
8850.00000000 -9060.00000000 -420.00000000 53 216 121 0.000000 0.000000 0.000000 0.000000 -60.708740 0.000000 125.000000 0.444459 0.893046 -0.070178
8840.00000000 -9110.00000000 -370.00000000 53 216 121 0.000000 0.000000 0.000000 0.000000 -60.708740 0.000000 125.000000 0.305547 0.948115 0.087861
8880.00000000 -9050.00000000 -460.00000000 53 216 121 0.000000 0.000000 0.000000 0.000000 -60.708740 0.000000 125.000000 0.573861 0.753896 -0.319883
8890.00000000 -9050.00000000 -460.00000000 53 216 121 0.000000 0.000000 0.000000 0.000000 -60.708740 0.000000 125.000000 0.416329 0.788920 -0.451968
8840.00000000 -9050.00000000 -480.00000000 53 216 121 0.000000 0.000000 0.000000 0.000000 -60.708740 0.000000 125.000000 0.094346 0.805568 -0.584944
8830.00000000 -9000.00000000 -430.00000000 53 216 121 0.000000 0.000000 0.000000 0.000000 -60.708740 0.000000 125.000000 0.522693 0.752088 -0.401441
8820.00000000 -9000.00000000 -440.00000000 53 216 121 0.000000 0.000000 0.000000 0.000000 -60.708740 0.000000 125.000000 0.368922 0.898053 -0.239579
8830.00000000 -9010.00000000 -360.00000000 53 216 121 0.000000 0.000000 0.000000 0.000000 -60.708740 0.000000 125.000000 0.449729 0.880658 -0.148946
8830.00000000 -9010.00000000 -400.00000000 53 216 121 0.000000 0.000000 0.000000 0.000000 -60.708740 0.000000 125.000000 0.266127 0.941788 -0.205456
8790.00000000 -9030.00000000 -390.00000000 53 216 121 0.000000 0.000000 0.000000 0.000000 -60.708740 0.000000 125.000000 0.289697 0.957099 0.006112
8790.00000000 -9030.00000000 -370.00000000 53 216 121 0.000000 0.000000 0.000000 0.000000 -60.708740 0.000000 125.000000 0.586471 0.805496 -0.085017
8830.00000000 -9030.00000000 -460.00000000 53 216 121 0.000000 0.000000 0.000000 0.000000 -60.708740 0.000000 125.000000 0.688657 0.656401 -0.308041
8830.00000000 -9040.00000000 -480.00000000 53 216 121 0.000000 0.000000 0.000000 0.000000 -60.708740 0.000000 125.000000 -0.229045 -0.530338 0.816260
8830.00000000 -9080.00000000 -390.00000000 53 216 121 0.000000 0.000000 0.000000 0.000000 -60.708740 0.000000 125.000000 0.365556 0.924159 0.110899
8760.00000000 -9050.00000000 -430.00000000 53 216 121 0.000000 0.000000 0.000000 0.000000 -60.708740 0.000000 125.000000 0.246219 0.932820 -0.263103
8760.00000000 -9100.00000000 -430.00000000 53 216 121 0.000000 0.000000 0.000000 0.000000 -60.708740 0.000000 125.000000 -0.431219 -0.617693 0.657651
8810.00000000 -9060.00000000 -460.00000000 53 216 121 0.000000 0.000000 0.000000 0.000000 -60.708740 0.000000 125.000000 0.498040 0.534932 -0.682499
8760.00000000 -9070.00000000 -450.00000000 53 216 121 0.000000 0.000000 0.000000 0.000000 -60.708740 0.000000 125.000000 -0.023844 -0.702686 0.711101
8760.00000000 -9090.00000000 -480.00000000 53 216 121 0.000000 0.000000 0.000000 0.000000 -60.708740 0.000000 125.000000 -0.097670 -0.610803 0.785735
8850.00000000 -9000.00000000 -540.00000000 53 216 121 0.000000 0.000000 0.000000 0.000000 -60.708740 0.000000 125.000000 -0.222645 -0.529743 0.818414
8920.00000000 -9080.00000000 -590.00000000 53 216 121 0.000000 0.000000 0.000000 0.000000 -60.708740 0.000000 125.000000 -0.001361 0.817758 -0.575560
8910.00000000 -9060.00000000 -570.00000000 53 216 121 0.000000 0.000000 0.000000 0.000000 -60.708740 0.000000 125.000000 0.399325 0.624670 -0.671064
8680.00000000 -8960.00000000 -100.00000000 53 216 121 0.000000 0.000000 0.000000 0.000000 -60.708740 0.000000 125.000000 0.247869 0.902009 0.353470
8680.00000000 -8950.00000000 -110.00000000 53 216 121 0.000000 0.000000 0.000000 0.000000 -60.708740 0.000000 125.000000 0.315093 0.615642 0.722289
8700.00000000 -8960.00000000 -140.00000000 53 216 121 0.000000 0.000000 0.000000 0.000000 -60.708740 0.000000 125.000000 0.397890 0.602613 0.691767
8640.00000000 -8950.00000000 -80.00000000 53 216 121 0.000000 0.000000 0.000000 0.000000 -60.708740 0.000000 125.000000 0.209939 0.847309 0.487845
8680.00000000 -8960.00000000 -210.00000000 53 216 121 0.000000 0.000000 0.000000 0.000000 -60.708740 0.000000 125.000000 0.379457 0.824010 0.420737
8740.00000000 -8960.00000000 -210.00000000 53 216 121 0.000000 0.000000 0.000000 0.000000 -60.708740 0.000000 125.000000 0.519580 0.850866 0.077866
8670.00000000 -8990.00000000 -60.00000000 53 216 121 0.000000 0.000000 0.000000 0.000000 -60.708740 0.000000 125.000000 0.236541 0.486818 0.840867
8670.00000000 -8980.00000000 -60.00000000 53 216 121 0.000000 0.000000 0.000000 0.000000 -60.708740 0.000000 125.000000 0.541532 0.704825 0.458219
8690.00000000 -8980.00000000 -90.00000000 53 216 121 0.000000 0.000000 0.000000 0.000000 -60.708740 0.000000 125.000000 0.244836 0.677642 0.693438
8690.00000000 -8990.00000000 -80.00000000 53 216 121 0.000000 0.000000 0.000000 0.000000 -60.708740 0.000000 125.000000 0.445474 0.685729 0.575612
8710.00000000 -9000.00000000 -110.00000000 53 216 121 0.000000 0.000000 0.000000 0.000000 -60.708740 0.000000 125.000000 0.175255 0.936992 0.302211
8730.00000000 -8990.00000000 -150.00000000 53 216 121 0.000000 0.000000 0.000000 0.000000 -60.708740 0.000000 125.000000 0.052503 0.948900 0.311178
8750.00000000 -8990.00000000 -180.00000000 53 216 121 0.000000 0.000000 0.000000 0.000000 -60.708740 0.000000 125.000000 0.404543 0.889996 0.210363
8720.00000000 -9010.00000000 -110.00000000 53 216 121 0.000000 0.000000 0.000000 0.000000 -60.708740 0.000000 125.000000 0.397513 0.812586 0.426248
8680.00000000 -8980.00000000 -120.00000000 53 216 121 0.000000 0.000000 0.000000 0.000000 -60.708740 0.000000 125.000000 0.189510 0.487952 0.852050
8700.00000000 -9000.00000000 -120.00000000 53 216 121 0.000000 0.000000 0.000000 0.000000 -60.708740 0.000000 125.000000 0.006790 0.549978 0.835152
8670.00000000 -8990.00000000 -110.00000000 53 216 121 0.000000 0.000000 0.000000 0.000000 -60.708740 0.000000 125.000000 0.296840 0.916584 0.267880
8670.00000000 -8980.00000000 -180.00000000 53 216 121 0.000000 0.000000 0.000000 0.000000 -60.708740 0.000000 125.000000 0.461973 0.558704 0.688790
8700.00000000 -9040.00000000 -150.00000000 53 216 121 0.000000 0.000000 0.000000 0.000000 -60.708740 0.000000 125.000000 0.334169 0.760355 0.556948
8630.00000000 -8970.00000000 -50.00000000 53 216 121 0.000000 0.000000 0.000000 0.000000 -60.708740 0.000000 125.000000 0.397497 0.455432 0.796604
8710.00000000 -9000.00000000 -200.00000000 53 216 121 0.000000 0.000000 0.000000 0.000000 -60.708740 0.000000 125.000000 0.218728 0.919229 0.327377
8710.00000000 -9000.00000000 -200.00000000 53 216 121 0.000000 0.000000 0.000000 0.000000 -60.708740 0.000000 125.000000 0.218728 0.919229 0.327377
8740.00000000 -8980.00000000 -270.00000000 53 216 121 0.000000 0.000000 0.000000 0.000000 -60.708740 0.000000 125.000000 0.464539 0.865260 0.188487
8730.00000000 -8990.00000000 -260.00000000 53 216 121 0.000000 0.000000 0.000000 0.000000 -60.708740 0.000000 125.000000 0.387713 0.697884 0.602193
8740.00000000 -9030.00000000 -250.00000000 53 216 121 0.000000 0.000000 0.000000 0.000000 -60.708740 0.000000 125.000000 0.136446 0.990617 0.007765
8690.00000000 -8970.00000000 -200.00000000 53 216 121 0.000000 0.000000 0.000000 0.000000 -60.708740 0.000000 125.000000 0.317693 0.810829 0.491555
8700.00000000 -8970.00000000 -210.00000000 53 216 121 0.000000 0.000000 0.000000 0.000000 -60.708740 0.000000 125.000000 0.260538 0.750034 0.607922
8750.00000000 -8990.00000000 -290.00000000 53 216 121 0.000000 0.000000 0.000000 0.000000 -60.708740 0.000000 125.000000 0.375821 0.925803 -0.040594
8750.00000000 -8990.00000000 -310.00000000 53 216 121 0.000000 0.000000 0.000000 0.000000 -60.708740 0.000000 125.000000 0.570633 0.818239 0.069728
8750.00000000 -8990.00000000 -290.00000000 53 216 121 0.000000 0.000000 0.000000 0.000000 -60.708740 0.000000 125.000000 0.375821 0.925803 -0.040594
8740.00000000 -8980.00000000 -280.00000000 53 216 121 0.000000 0.000000 0.000000 0.000000 -60.708740 0.000000 125.000000 0.312566 0.940403 0.133957
8730.00000000 -8990.00000000 -300.00000000 53 216 121 0.000000 0.000000 0.000000 0.000000 -60.708740 0.000000 125.000000 0.038772 0.998650 0.034581
8690.00000000 -9080.00000000 -350.00000000 53 216 121 0.000000 0.000000 0.000000 0.000000 -60.708740 0.000000 125.000000 0.619573 0.750666 -0.229413
8550.00000000 -9040.00000000 -340.00000000 53 216 121 0.000000 0.000000 0.000000 0.000000 -60.708740 0.000000 125.000000 0.605367 0.785941 -0.125810
8550.00000000 -9070.00000000 -350.00000000 53 216 121 0.000000 0.000000 0.000000 0.000000 -60.708740 0.000000 125.000000 0.393072 0.918920 -0.032866
8490.00000000 -9030.00000000 -330.00000000 53 216 121 0.000000 0.000000 0.000000 0.000000 -60.708740 0.000000 125.000000 0.283453 0.914319 0.289268
8480.00000000 -9030.00000000 -320.00000000 53 216 121 0.000000 0.000000 0.000000 0.000000 -60.708740 0.000000 125.000000 0.120507 0.970397 0.209301
8460.00000000 -9010.00000000 -350.00000000 53 216 121 0.000000 0.000000 0.000000 0.000000 -60.708740 0.000000 125.000000 0.169905 0.953875 -0.247499
8420.00000000 -9040.00000000 -330.00000000 53 216 121 0.000000 0.000000 0.000000 0.000000 -60.708740 0.000000 125.000000 0.014737 0.987397 0.157575
8450.00000000 -9050.00000000 -350.00000000 53 216 121 0.000000 0.000000 0.000000 0.000000 -60.708740 0.000000 125.000000 0.357124 0.925213 -0.128234
8460.00000000 -9050.00000000 -350.00000000 53 216 121 0.000000 0.000000 0.000000 0.000000 -60.708740 0.000000 125.000000 0.201684 0.926619 -0.317335
8750.00000000 -9030.00000000 -370.00000000 53 216 121 0.000000 0.000000 0.000000 0.000000 -60.708740 0.000000 125.000000 -0.010895 0.964818 -0.262692
8740.00000000 -9030.00000000 -380.00000000 53 216 121 0.000000 0.000000 0.000000 0.000000 -60.708740 0.000000 125.000000 0.614921 0.709525 -0.344160
8720.00000000 -9040.00000000 -470.00000000 53 216 121 0.000000 0.000000 0.000000 0.000000 -60.708740 0.000000 125.000000 -0.020867 0.791571 -0.610720
8720.00000000 -9070.00000000 -370.00000000 53 216 121 0.000000 0.000000 0.000000 0.000000 -60.708740 0.000000 125.000000 0.456534 0.843428 -0.283206
8710.00000000 -9090.00000000 -370.00000000 53 216 121 0.000000 0.000000 0.000000 0.000000 -60.708740 0.000000 125.000000 0.370304 0.919519 0.131756
8730.00000000 -9110.00000000 -370.00000000 53 216 121 0.000000 0.000000 0.000000 0.000000 -60.708740 0.000000 125.000000 0.310362 0.946800 0.085120
8690.00000000 -9070.00000000 -390.00000000 53 216 121 0.000000 0.000000 0.000000 0.000000 -60.708740 0.000000 125.000000 -0.012182 0.991203 -0.131791
8680.00000000 -9080.00000000 -360.00000000 53 216 121 0.000000 0.000000 0.000000 0.000000 -60.708740 0.000000 125.000000 0.539883 0.832502 -0.124363
8670.00000000 -9070.00000000 -360.00000000 53 216 121 0.000000 0.000000 0.000000 0.000000 -60.708740 0.000000 125.000000 0.531608 0.805986 -0.260347
8700.00000000 -9120.00000000 -440.00000000 53 216 121 0.000000 0.000000 0.000000 0.000000 -60.708740 0.000000 125.000000 0.657626 0.450131 -0.604079
8680.00000000 -9070.00000000 -460.00000000 53 216 121 0.000000 0.000000 0.000000 0.000000 -60.708740 0.000000 125.000000 0.396414 0.758570 -0.517133
8750.00000000 -9080.00000000 -470.00000000 53 216 121 0.000000 0.000000 0.000000 0.000000 -60.708740 0.000000 125.000000 0.206433 0.731054 -0.650343
8620.00000000 -9020.00000000 -440.00000000 53 216 121 0.000000 0.000000 0.000000 0.000000 -60.708740 0.000000 125.000000 0.158843 0.751855 -0.639909
8610.00000000 -9040.00000000 -460.00000000 53 216 121 0.000000 0.000000 0.000000 0.000000 -60.708740 0.000000 125.000000 0.364162 0.830793 -0.420914
8610.00000000 -9040.00000000 -470.00000000 53 216 121 0.000000 0.000000 0.000000 0.000000 -60.708740 0.000000 125.000000 -0.573477 -0.506207 0.644111
8590.00000000 -9030.00000000 -450.00000000 53 216 121 0.000000 0.000000 0.000000 0.000000 -60.708740 0.000000 125.000000 0.439233 0.864881 -0.243012
8660.00000000 -9050.00000000 -360.00000000 53 216 121 0.000000 0.000000 0.000000 0.000000 -60.708740 0.000000 125.000000 0.137312 0.961183 -0.239315
8640.00000000 -9110.00000000 -410.00000000 53 216 121 0.000000 0.000000 0.000000 0.000000 -60.708740 0.000000 125.000000 0.083025 0.913275 -0.398792
8610.00000000 -9050.00000000 -400.00000000 53 216 121 0.000000 0.000000 0.000000 0.000000 -60.708740 0.000000 125.000000 0.328828 0.924386 -0.193345
8600.00000000 -9050.00000000 -420.00000000 53 216 121 0.000000 0.000000 0.000000 0.000000 -60.708740 0.000000 125.000000 0.419586 0.903829 -0.083917
8610.00000000 -9060.00000000 -420.00000000 53 216 121 0.000000 0.000000 0.000000 0.000000 -60.708740 0.000000 125.000000 0.338199 0.910089 -0.239497
8600.00000000 -9050.00000000 -400.00000000 53 216 121 0.000000 0.000000 0.000000 0.000000 -60.708740 0.000000 125.000000 0.276947 0.837029 -0.471893
8620.00000000 -9050.00000000 -460.00000000 53 216 121 0.000000 0.000000 0.000000 0.000000 -60.708740 0.000000 125.000000 0.587085 0.546480 -0.597236
8640.00000000 -9060.00000000 -450.00000000 53 216 121 0.000000 0.000000 0.000000 0.000000 -60.708740 0.000000 125.000000 0.326808 0.661745 -0.674752
8560.00000000 -9040.00000000 -430.00000000 53 216 121 0.000000 0.000000 0.000000 0.000000 -60.708740 0.000000 125.000000 0.394361 0.916586 -0.065951
8540.00000000 -8990.00000000 -390.00000000 53 216 121 0.000000 0.000000 0.000000 0.000000 -60.708740 0.000000 125.000000 0.533990 0.840354 0.093055
8540.00000000 -9040.00000000 -360.00000000 53 216 121 0.000000 0.000000 0.000000 0.000000 -60.708740 0.000000 125.000000 0.484713 0.750895 -0.448565
8530.00000000 -9030.00000000 -380.00000000 53 216 121 0.000000 0.000000 0.000000 0.000000 -60.708740 0.000000 125.000000 0.101768 0.979671 -0.172883
8530.00000000 -9040.00000000 -370.00000000 53 216 121 0.000000 0.000000 0.000000 0.000000 -60.708740 0.000000 125.000000 0.123604 0.989988 -0.068156
8530.00000000 -9040.00000000 -370.00000000 53 216 121 0.000000 0.000000 0.000000 0.000000 -60.708740 0.000000 125.000000 0.123604 0.989988 -0.068156
8580.00000000 -9050.00000000 -390.00000000 53 216 121 0.000000 0.000000 0.000000 0.000000 -60.708740 0.000000 125.000000 0.298550 0.953595 0.039051
8580.00000000 -9050.00000000 -420.00000000 53 216 121 0.000000 0.000000 0.000000 0.000000 -60.708740 0.000000 125.000000 0.327639 0.926671 -0.184209
8560.00000000 -9060.00000000 -400.00000000 53 216 121 0.000000 0.000000 0.000000 0.000000 -60.708740 0.000000 125.000000 0.426628 0.585992 -0.688914
8500.00000000 -9070.00000000 -360.00000000 53 216 121 0.000000 0.000000 0.000000 0.000000 -60.708740 0.000000 125.000000 0.257399 0.891224 -0.373451
8510.00000000 -9050.00000000 -430.00000000 53 216 121 0.000000 0.000000 0.000000 0.000000 -60.708740 0.000000 125.000000 0.234149 0.718160 -0.655302
8540.00000000 -9060.00000000 -410.00000000 53 216 121 0.000000 0.000000 0.000000 0.000000 -60.708740 0.000000 125.000000 0.397181 0.802401 -0.445421
8560.00000000 -9050.00000000 -450.00000000 53 216 121 0.000000 0.000000 0.000000 0.000000 -60.708740 0.000000 125.000000 0.490375 0.834714 -0.250568
8560.00000000 -9060.00000000 -500.00000000 53 216 121 0.000000 0.000000 0.000000 0.000000 -60.708740 0.000000 125.000000 -0.349763 -0.444721 0.824554
8470.00000000 -9020.00000000 -380.00000000 53 216 121 0.000000 0.000000 0.000000 0.000000 -60.708740 0.000000 125.000000 0.384905 0.922468 -0.030010
8470.00000000 -9030.00000000 -390.00000000 53 216 121 0.000000 0.000000 0.000000 0.000000 -60.708740 0.000000 125.000000 0.176992 0.981285 -0.075854
8440.00000000 -9000.00000000 -380.00000000 53 216 121 0.000000 0.000000 0.000000 0.000000 -60.708740 0.000000 125.000000 0.139827 0.978790 -0.149726
8420.00000000 -8990.00000000 -380.00000000 53 216 121 0.000000 0.000000 0.000000 0.000000 -60.708740 0.000000 125.000000 0.216536 0.961943 -0.166667
8440.00000000 -9000.00000000 -380.00000000 53 216 121 0.000000 0.000000 0.000000 0.000000 -60.708740 0.000000 125.000000 0.139827 0.978790 -0.149726
8440.00000000 -9040.00000000 -410.00000000 53 216 121 0.000000 0.000000 0.000000 0.000000 -60.708740 0.000000 125.000000 0.270754 0.949660 -0.157603
8420.00000000 -9040.00000000 -430.00000000 53 216 121 0.000000 0.000000 0.000000 0.000000 -60.708740 0.000000 125.000000 0.203860 0.929322 -0.307899
8460.00000000 -9050.00000000 -360.00000000 53 216 121 0.000000 0.000000 0.000000 0.000000 -60.708740 0.000000 125.000000 0.341904 0.909319 0.237150
8440.00000000 -9050.00000000 -360.00000000 53 216 121 0.000000 0.000000 0.000000 0.000000 -60.708740 0.000000 125.000000 0.286508 0.815686 -0.502563
11060.00000000 -10140.00000000 -490.00000000 53 216 121 0.000000 0.000000 0.000000 0.000000 -60.708740 0.000000 145.000000 -0.228029 0.076010 0.970683
11100.00000000 -10150.00000000 -510.00000000 53 216 121 0.000000 0.000000 0.000000 0.000000 -60.708740 0.000000 145.000000 -0.531491 -0.037273 0.846244
11110.00000000 -10150.00000000 -470.00000000 53 216 121 0.000000 0.000000 0.000000 0.000000 -60.708740 0.000000 145.000000 -0.358737 -0.192946 0.913279
11100.00000000 -10150.00000000 -480.00000000 53 216 121 0.000000 0.000000 0.000000 0.000000 -60.708740 0.000000 145.000000 -0.327851 -0.383262 0.863495
11060.00000000 -10150.00000000 -520.00000000 53 216 121 0.000000 0.000000 0.000000 0.000000 -60.708740 0.000000 145.000000 -0.386064 0.105790 0.916386
9680.00000000 -9280.00000000 -250.00000000 53 216 121 0.000000 0.000000 0.000000 0.000000 -60.708740 0.000000 130.000000 0.310279 0.853652 0.418336
9710.00000000 -9280.00000000 -190.00000000 53 216 121 0.000000 0.000000 0.000000 0.000000 -60.708740 0.000000 130.000000 0.417972 0.887273 0.195053
9660.00000000 -9280.00000000 -230.00000000 53 216 121 0.000000 0.000000 0.000000 0.000000 -60.708740 0.000000 130.000000 0.536401 0.792734 -0.289562
9720.00000000 -9320.00000000 -90.00000000 53 216 121 0.000000 0.000000 0.000000 0.000000 -60.708740 0.000000 130.000000 0.246086 0.910082 0.333454
9710.00000000 -9320.00000000 -90.00000000 53 216 121 0.000000 0.000000 0.000000 0.000000 -60.708740 0.000000 130.000000 0.149484 0.744401 0.650785
9710.00000000 -9320.00000000 -160.00000000 53 216 121 0.000000 0.000000 0.000000 0.000000 -60.708740 0.000000 130.000000 0.193352 0.980821 -0.024608
9680.00000000 -9360.00000000 -120.00000000 53 216 121 0.000000 0.000000 0.000000 0.000000 -60.708740 0.000000 130.000000 0.579901 0.776848 0.245403
9650.00000000 -9330.00000000 -200.00000000 53 216 121 0.000000 0.000000 0.000000 0.000000 -60.708740 0.000000 130.000000 0.220810 0.884722 0.410499
9640.00000000 -9320.00000000 -220.00000000 53 216 121 0.000000 0.000000 0.000000 0.000000 -60.708740 0.000000 130.000000 0.510920 0.773679 0.374675
9650.00000000 -9320.00000000 -280.00000000 53 216 121 0.000000 0.000000 0.000000 0.000000 -60.708740 0.000000 130.000000 0.431361 0.816561 -0.383609
