//X Y Z R G B PointSourceId ScanDirectionFlag NumberOfReturns ReturnNumber GpsTime Intensity Classification Nx Ny Nz
-10330.00000000 -19230.00000000 -700.00000000 169 152 95 0.000000 0.000000 0.000000 0.000000 -60.708740 0.000000 44.000000 0.437966 0.806949 -0.396255
-10430.00000000 -19120.00000000 -730.00000000 169 152 95 0.000000 0.000000 0.000000 0.000000 -60.708740 0.000000 44.000000 0.511708 0.538552 -0.669415
-10390.00000000 -19230.00000000 -770.00000000 169 152 95 0.000000 0.000000 0.000000 0.000000 -60.708740 0.000000 44.000000 0.394571 0.704944 -0.589379
-10400.00000000 -19230.00000000 -780.00000000 169 152 95 0.000000 0.000000 0.000000 0.000000 -60.708740 0.000000 44.000000 0.452869 0.606611 -0.653401
-10430.00000000 -19180.00000000 -780.00000000 169 152 95 0.000000 0.000000 0.000000 0.000000 -60.708740 0.000000 44.000000 0.381443 0.731782 -0.564798
-10430.00000000 -19180.00000000 -810.00000000 169 152 95 0.000000 0.000000 0.000000 0.000000 -60.708740 0.000000 44.000000 0.658474 0.530484 -0.533852
-10430.00000000 -19170.00000000 -800.00000000 169 152 95 0.000000 0.000000 0.000000 0.000000 -60.708740 0.000000 44.000000 -0.361264 -0.373668 0.854319
-10440.00000000 -19220.00000000 -810.00000000 169 152 95 0.000000 0.000000 0.000000 0.000000 -60.708740 0.000000 44.000000 0.642769 0.043986 -0.764796
-10410.00000000 -19230.00000000 -780.00000000 169 152 95 0.000000 0.000000 0.000000 0.000000 -60.708740 0.000000 44.000000 -0.564205 -0.170014 0.807941
-10410.00000000 -19220.00000000 -780.00000000 169 152 95 0.000000 0.000000 0.000000 0.000000 -60.708740 0.000000 44.000000 -0.627848 -0.038094 0.777403
-9820.00000000 -19300.00000000 -160.00000000 169 152 95 0.000000 0.000000 0.000000 0.000000 -60.708740 0.000000 44.000000 0.292576 0.846767 0.444282
-9800.00000000 -19340.00000000 -140.00000000 169 152 95 0.000000 0.000000 0.000000 0.000000 -60.708740 0.000000 44.000000 0.461973 0.558704 0.688790
-9880.00000000 -19390.00000000 -140.00000000 169 152 95 0.000000 0.000000 0.000000 0.000000 -60.708740 0.000000 44.000000 0.135334 0.428796 0.893207
-9820.00000000 -19310.00000000 -240.00000000 169 152 95 0.000000 0.000000 0.000000 0.000000 -60.708740 0.000000 44.000000 0.304081 0.950736 0.060303
-9840.00000000 -19310.00000000 -310.00000000 169 152 95 0.000000 0.000000 0.000000 0.000000 -60.708740 0.000000 44.000000 0.318455 0.947931 0.003717
-9820.00000000 -19280.00000000 -290.00000000 169 152 95 0.000000 0.000000 0.000000 0.000000 -60.708740 0.000000 44.000000 0.349763 0.740196 0.574262
-9820.00000000 -19300.00000000 -350.00000000 169 152 95 0.000000 0.000000 0.000000 0.000000 -60.708740 0.000000 44.000000 0.431569 0.890380 -0.144812
-9860.00000000 -19320.00000000 -350.00000000 169 152 95 0.000000 0.000000 0.000000 0.000000 -60.708740 0.000000 44.000000 0.294859 0.955540 0.001223
-9850.00000000 -19340.00000000 -310.00000000 169 152 95 0.000000 0.000000 0.000000 0.000000 -60.708740 0.000000 44.000000 0.220538 0.975321 -0.010614
-9900.00000000 -19250.00000000 -260.00000000 169 152 95 0.000000 0.000000 0.000000 0.000000 -60.708740 0.000000 44.000000 0.348485 0.813131 0.466237
-9940.00000000 -19250.00000000 -230.00000000 169 152 95 0.000000 0.000000 0.000000 0.000000 -60.708740 0.000000 44.000000 0.112926 0.805145 0.582227
-9940.00000000 -19250.00000000 -230.00000000 169 152 95 0.000000 0.000000 0.000000 0.000000 -60.708740 0.000000 44.000000 0.112926 0.805145 0.582227
-9930.00000000 -19250.00000000 -220.00000000 169 152 95 0.000000 0.000000 0.000000 0.000000 -60.708740 0.000000 44.000000 0.208529 0.923484 0.322014
-9930.00000000 -19250.00000000 -240.00000000 169 152 95 0.000000 0.000000 0.000000 0.000000 -60.708740 0.000000 44.000000 0.391934 0.733032 0.555924
-9940.00000000 -19320.00000000 -190.00000000 169 152 95 0.000000 0.000000 0.000000 0.000000 -60.708740 0.000000 44.000000 0.394557 0.528804 0.751459
-9920.00000000 -19320.00000000 -220.00000000 169 152 95 0.000000 0.000000 0.000000 0.000000 -60.708740 0.000000 44.000000 0.219848 0.659545 0.718795
-9920.00000000 -19310.00000000 -250.00000000 169 152 95 0.000000 0.000000 0.000000 0.000000 -60.708740 0.000000 44.000000 0.230328 0.936666 0.263830
-9890.00000000 -19250.00000000 -340.00000000 169 152 95 0.000000 0.000000 0.000000 0.000000 -60.708740 0.000000 44.000000 0.519974 0.814884 0.256107
-9930.00000000 -19340.00000000 -190.00000000 169 152 95 0.000000 0.000000 0.000000 0.000000 -60.708740 0.000000 44.000000 0.254143 0.859824 0.442847
-9780.00000000 -19420.00000000 -170.00000000 169 152 95 0.000000 0.000000 0.000000 0.000000 -60.708740 0.000000 44.000000 0.464786 0.544750 0.698013
-9800.00000000 -19480.00000000 -180.00000000 169 152 95 0.000000 0.000000 0.000000 0.000000 -60.708740 0.000000 44.000000 0.309482 0.870513 0.382660
-9810.00000000 -19480.00000000 -170.00000000 169 152 95 0.000000 0.000000 0.000000 0.000000 -60.708740 0.000000 44.000000 0.532117 0.626715 0.569280
-9800.00000000 -19450.00000000 -150.00000000 169 152 95 0.000000 0.000000 0.000000 0.000000 -60.708740 0.000000 44.000000 0.453571 0.427560 0.781963
-9820.00000000 -19420.00000000 -150.00000000 169 152 95 0.000000 0.000000 0.000000 0.000000 -60.708740 0.000000 44.000000 -0.014509 0.439235 0.898255
-9830.00000000 -19470.00000000 -150.00000000 169 152 95 0.000000 0.000000 0.000000 0.000000 -60.708740 0.000000 44.000000 0.449472 0.623245 0.639954
-9800.00000000 -19520.00000000 -140.00000000 169 152 95 0.000000 0.000000 0.000000 0.000000 -60.708740 0.000000 44.000000 0.059886 0.381940 0.922245
-9790.00000000 -19490.00000000 -110.00000000 169 152 95 0.000000 0.000000 0.000000 0.000000 -60.708740 0.000000 44.000000 -0.041250 0.281249 0.958748
-9810.00000000 -19490.00000000 -160.00000000 169 152 95 0.000000 0.000000 0.000000 0.000000 -60.708740 0.000000 44.000000 0.230359 0.555026 0.799300
-9800.00000000 -19540.00000000 -160.00000000 169 152 95 0.000000 0.000000 0.000000 0.000000 -60.708740 0.000000 44.000000 0.246287 0.364269 0.898137
-9800.00000000 -19540.00000000 -160.00000000 169 152 95 0.000000 0.000000 0.000000 0.000000 -60.708740 0.000000 44.000000 0.246287 0.364269 0.898137
-9830.00000000 -19510.00000000 -170.00000000 169 152 95 0.000000 0.000000 0.000000 0.000000 -60.708740 0.000000 44.000000 0.017852 0.564397 0.825310
-9850.00000000 -19530.00000000 -220.00000000 169 152 95 0.000000 0.000000 0.000000 0.000000 -60.708740 0.000000 44.000000 0.466201 0.569802 0.676744
-9850.00000000 -19570.00000000 -330.00000000 169 152 95 0.000000 0.000000 0.000000 0.000000 -60.708740 0.000000 44.000000 -0.103420 0.811334 0.575362
-9900.00000000 -19470.00000000 -200.00000000 169 152 95 0.000000 0.000000 0.000000 0.000000 -60.708740 0.000000 44.000000 0.167668 0.581550 0.796044
-9900.00000000 -19480.00000000 -230.00000000 169 152 95 0.000000 0.000000 0.000000 0.000000 -60.708740 0.000000 44.000000 0.335036 0.484294 0.808214
-9900.00000000 -19490.00000000 -190.00000000 169 152 95 0.000000 0.000000 0.000000 0.000000 -60.708740 0.000000 44.000000 -0.180276 0.393722 0.901379
-9890.00000000 -19540.00000000 -190.00000000 169 152 95 0.000000 0.000000 0.000000 0.000000 -60.708740 0.000000 44.000000 0.145592 0.175977 0.973568
-9870.00000000 -19540.00000000 -190.00000000 169 152 95 0.000000 0.000000 0.000000 0.000000 -60.708740 0.000000 44.000000 -0.211862 0.519748 0.827633
-9970.00000000 -19310.00000000 -210.00000000 169 152 95 0.000000 0.000000 0.000000 0.000000 -60.708740 0.000000 44.000000 0.264859 0.831749 0.487897
-9960.00000000 -19280.00000000 -220.00000000 169 152 95 0.000000 0.000000 0.000000 0.000000 -60.708740 0.000000 44.000000 0.356380 0.782100 0.511187
-9970.00000000 -19310.00000000 -210.00000000 169 152 95 0.000000 0.000000 0.000000 0.000000 -60.708740 0.000000 44.000000 0.264859 0.831749 0.487897
-10010.00000000 -19310.00000000 -210.00000000 169 152 95 0.000000 0.000000 0.000000 0.000000 -60.708740 0.000000 44.000000 0.358501 0.682625 0.636789
-9970.00000000 -19450.00000000 -260.00000000 169 152 95 0.000000 0.000000 0.000000 0.000000 -60.708740 0.000000 44.000000 0.505928 0.417513 0.754798
-10000.00000000 -19460.00000000 -230.00000000 169 152 95 0.000000 0.000000 0.000000 0.000000 -60.708740 0.000000 44.000000 0.059910 0.216411 0.974462
-10040.00000000 -19430.00000000 -240.00000000 169 152 95 0.000000 0.000000 0.000000 0.000000 -60.708740 0.000000 44.000000 -0.116409 0.422159 0.899016
-9790.00000000 -19270.00000000 -410.00000000 169 152 95 0.000000 0.000000 0.000000 0.000000 -60.708740 0.000000 44.000000 0.190233 0.976034 -0.105685
-9780.00000000 -19270.00000000 -420.00000000 169 152 95 0.000000 0.000000 0.000000 0.000000 -60.708740 0.000000 44.000000 0.344747 0.913076 -0.217811
-9790.00000000 -19320.00000000 -440.00000000 169 152 95 0.000000 0.000000 0.000000 0.000000 -60.708740 0.000000 44.000000 0.393361 0.891324 0.225409
-9780.00000000 -19320.00000000 -430.00000000 169 152 95 0.000000 0.000000 0.000000 0.000000 -60.708740 0.000000 44.000000 0.429568 0.902755 -0.022470
-9840.00000000 -19270.00000000 -380.00000000 169 152 95 0.000000 0.000000 0.000000 0.000000 -60.708740 0.000000 44.000000 0.294690 0.898879 0.324307
-9860.00000000 -19320.00000000 -370.00000000 169 152 95 0.000000 0.000000 0.000000 0.000000 -60.708740 0.000000 44.000000 0.118604 0.931113 0.344907
-9820.00000000 -19320.00000000 -410.00000000 169 152 95 0.000000 0.000000 0.000000 0.000000 -60.708740 0.000000 44.000000 0.499506 0.864796 -0.051196
-9780.00000000 -19320.00000000 -480.00000000 169 152 95 0.000000 0.000000 0.000000 0.000000 -60.708740 0.000000 44.000000 0.383215 0.780982 -0.493167
-9810.00000000 -19320.00000000 -510.00000000 169 152 95 0.000000 0.000000 0.000000 0.000000 -60.708740 0.000000 44.000000 0.678216 0.687746 -0.258898
-9810.00000000 -19320.00000000 -510.00000000 169 152 95 0.000000 0.000000 0.000000 0.000000 -60.708740 0.000000 44.000000 0.678216 0.687746 -0.258898
-9810.00000000 -19310.00000000 -500.00000000 169 152 95 0.000000 0.000000 0.000000 0.000000 -60.708740 0.000000 44.000000 0.383355 0.758554 -0.526910
-9810.00000000 -19320.00000000 -520.00000000 169 152 95 0.000000 0.000000 0.000000 0.000000 -60.708740 0.000000 44.000000 0.335312 0.868135 -0.365934
-9800.00000000 -19340.00000000 -440.00000000 169 152 95 0.000000 0.000000 0.000000 0.000000 -60.708740 0.000000 44.000000 0.334986 0.880664 -0.334986
-9830.00000000 -19330.00000000 -420.00000000 169 152 95 0.000000 0.000000 0.000000 0.000000 -60.708740 0.000000 44.000000 0.530824 0.785874 -0.317219
-9850.00000000 -19370.00000000 -390.00000000 169 152 95 0.000000 0.000000 0.000000 0.000000 -60.708740 0.000000 44.000000 0.201238 0.866070 0.457631
-9780.00000000 -19330.00000000 -370.00000000 169 152 95 0.000000 0.000000 0.000000 0.000000 -60.708740 0.000000 44.000000 0.504035 0.850835 -0.148419
-9850.00000000 -19330.00000000 -360.00000000 169 152 95 0.000000 0.000000 0.000000 0.000000 -60.708740 0.000000 44.000000 0.422036 0.857884 0.293123
-9790.00000000 -19340.00000000 -490.00000000 169 152 95 0.000000 0.000000 0.000000 0.000000 -60.708740 0.000000 44.000000 0.368816 0.906855 -0.203934
-9790.00000000 -19340.00000000 -510.00000000 169 152 95 0.000000 0.000000 0.000000 0.000000 -60.708740 0.000000 44.000000 0.767621 0.623411 -0.148717
-9810.00000000 -19330.00000000 -470.00000000 169 152 95 0.000000 0.000000 0.000000 0.000000 -60.708740 0.000000 44.000000 0.295777 0.941851 0.159474
-9880.00000000 -19250.00000000 -370.00000000 169 152 95 0.000000 0.000000 0.000000 0.000000 -60.708740 0.000000 44.000000 0.379916 0.907496 0.179205
-9880.00000000 -19290.00000000 -380.00000000 169 152 95 0.000000 0.000000 0.000000 0.000000 -60.708740 0.000000 44.000000 0.346100 0.914797 -0.208235
-9780.00000000 -19320.00000000 -600.00000000 169 152 95 0.000000 0.000000 0.000000 0.000000 -60.708740 0.000000 44.000000 0.654560 0.690116 -0.308694
-9780.00000000 -19310.00000000 -650.00000000 169 152 95 0.000000 0.000000 0.000000 0.000000 -60.708740 0.000000 44.000000 0.501580 0.858004 -0.110664
-9790.00000000 -19320.00000000 -610.00000000 169 152 95 0.000000 0.000000 0.000000 0.000000 -60.708740 0.000000 44.000000 0.722573 0.537382 -0.434866
-9810.00000000 -19290.00000000 -620.00000000 169 152 95 0.000000 0.000000 0.000000 0.000000 -60.708740 0.000000 44.000000 0.221134 0.858963 -0.461824
-9850.00000000 -19260.00000000 -640.00000000 169 152 95 0.000000 0.000000 0.000000 0.000000 -60.708740 0.000000 44.000000 -0.244631 -0.654979 0.714953
-9820.00000000 -19280.00000000 -630.00000000 169 152 95 0.000000 0.000000 0.000000 0.000000 -60.708740 0.000000 44.000000 0.434781 0.732349 -0.524051
-9860.00000000 -19290.00000000 -640.00000000 169 152 95 0.000000 0.000000 0.000000 0.000000 -60.708740 0.000000 44.000000 0.636413 0.707304 -0.307734
-9820.00000000 -19310.00000000 -610.00000000 169 152 95 0.000000 0.000000 0.000000 0.000000 -60.708740 0.000000 44.000000 0.656536 0.740669 -0.142725
-9840.00000000 -19280.00000000 -690.00000000 169 152 95 0.000000 0.000000 0.000000 0.000000 -60.708740 0.000000 44.000000 -0.538895 -0.420239 0.730063
-9790.00000000 -19330.00000000 -530.00000000 169 152 95 0.000000 0.000000 0.000000 0.000000 -60.708740 0.000000 44.000000 0.376153 0.906514 -0.191679
-9790.00000000 -19330.00000000 -550.00000000 169 152 95 0.000000 0.000000 0.000000 0.000000 -60.708740 0.000000 44.000000 0.629504 0.770372 0.101249
-9790.00000000 -19330.00000000 -560.00000000 169 152 95 0.000000 0.000000 0.000000 0.000000 -60.708740 0.000000 44.000000 0.819282 0.564072 -0.102954
-9790.00000000 -19330.00000000 -530.00000000 169 152 95 0.000000 0.000000 0.000000 0.000000 -60.708740 0.000000 44.000000 0.376153 0.906514 -0.191679
-9790.00000000 -19330.00000000 -570.00000000 169 152 95 0.000000 0.000000 0.000000 0.000000 -60.708740 0.000000 44.000000 0.629314 0.770140 -0.104152
-9780.00000000 -19330.00000000 -600.00000000 169 152 95 0.000000 0.000000 0.000000 0.000000 -60.708740 0.000000 44.000000 0.823440 0.464464 -0.325912
-9830.00000000 -19340.00000000 -530.00000000 169 152 95 0.000000 0.000000 0.000000 0.000000 -60.708740 0.000000 44.000000 0.668505 0.709210 -0.223879
-9830.00000000 -19360.00000000 -580.00000000 169 152 95 0.000000 0.000000 0.000000 0.000000 -60.708740 0.000000 44.000000 0.758300 0.486426 -0.434016
-9840.00000000 -19350.00000000 -570.00000000 169 152 95 0.000000 0.000000 0.000000 0.000000 -60.708740 0.000000 44.000000 0.821417 0.557861 -0.118600
-9860.00000000 -19340.00000000 -600.00000000 169 152 95 0.000000 0.000000 0.000000 0.000000 -60.708740 0.000000 44.000000 0.759551 0.599149 -0.253184
-9850.00000000 -19360.00000000 -590.00000000 169 152 95 0.000000 0.000000 0.000000 0.000000 -60.708740 0.000000 44.000000 0.698378 0.401196 -0.592714
-9820.00000000 -19370.00000000 -580.00000000 169 152 95 0.000000 0.000000 0.000000 0.000000 -60.708740 0.000000 44.000000 0.311525 0.908249 -0.279349
-9780.00000000 -19360.00000000 -640.00000000 169 152 95 0.000000 0.000000 0.000000 0.000000 -60.708740 0.000000 44.000000 0.395650 0.673764 -0.624101
-9780.00000000 -19360.00000000 -630.00000000 169 152 95 0.000000 0.000000 0.000000 0.000000 -60.708740 0.000000 44.000000 0.569258 0.717760 -0.400956
-9780.00000000 -19350.00000000 -620.00000000 169 152 95 0.000000 0.000000 0.000000 0.000000 -60.708740 0.000000 44.000000 0.364132 0.818899 -0.443636
-9850.00000000 -19360.00000000 -650.00000000 169 152 95 0.000000 0.000000 0.000000 0.000000 -60.708740 0.000000 44.000000 0.300656 0.899005 -0.318428
-9820.00000000 -19340.00000000 -680.00000000 169 152 95 0.000000 0.000000 0.000000 0.000000 -60.708740 0.000000 44.000000 0.542076 0.394684 -0.741875
-9830.00000000 -19350.00000000 -680.00000000 169 152 95 0.000000 0.000000 0.000000 0.000000 -60.708740 0.000000 44.000000 0.552285 0.505282 -0.663077
-9820.00000000 -19360.00000000 -690.00000000 169 152 95 0.000000 0.000000 0.000000 0.000000 -60.708740 0.000000 44.000000 -0.414936 -0.480024 0.772920
-9840.00000000 -19370.00000000 -650.00000000 169 152 95 0.000000 0.000000 0.000000 0.000000 -60.708740 0.000000 44.000000 0.324714 0.863339 -0.386271
-9840.00000000 -19380.00000000 -660.00000000 169 152 95 0.000000 0.000000 0.000000 0.000000 -60.708740 0.000000 44.000000 0.441875 0.771244 -0.458181
-9930.00000000 -19310.00000000 -600.00000000 169 152 95 0.000000 0.000000 0.000000 0.000000 -60.708740 0.000000 44.000000 0.598786 0.790988 -0.125671
-9890.00000000 -19310.00000000 -680.00000000 169 152 95 0.000000 0.000000 0.000000 0.000000 -60.708740 0.000000 44.000000 0.737020 0.356308 -0.574322
-9880.00000000 -19310.00000000 -680.00000000 169 152 95 0.000000 0.000000 0.000000 0.000000 -60.708740 0.000000 44.000000 0.593249 0.478969 -0.647028
-9870.00000000 -19350.00000000 -670.00000000 169 152 95 0.000000 0.000000 0.000000 0.000000 -60.708740 0.000000 44.000000 0.707084 0.649624 -0.279322
-9940.00000000 -19340.00000000 -680.00000000 169 152 95 0.000000 0.000000 0.000000 0.000000 -60.708740 0.000000 44.000000 0.262101 0.847614 -0.461360
-10110.00000000 -19240.00000000 -420.00000000 169 152 95 0.000000 0.000000 0.000000 0.000000 -60.708740 0.000000 44.000000 0.553511 0.832337 -0.028987
-10110.00000000 -19340.00000000 -400.00000000 169 152 95 0.000000 0.000000 0.000000 0.000000 -60.708740 0.000000 44.000000 0.478719 0.842729 0.246242
-9960.00000000 -19290.00000000 -640.00000000 169 152 95 0.000000 0.000000 0.000000 0.000000 -60.708740 0.000000 44.000000 0.365189 0.919268 -0.146915
-9950.00000000 -19290.00000000 -680.00000000 169 152 95 0.000000 0.000000 0.000000 0.000000 -60.708740 0.000000 44.000000 0.348077 0.787584 -0.508481
-9950.00000000 -19360.00000000 -670.00000000 169 152 95 0.000000 0.000000 0.000000 0.000000 -60.708740 0.000000 44.000000 -0.314360 -0.387966 0.866407
-9950.00000000 -19360.00000000 -670.00000000 169 152 95 0.000000 0.000000 0.000000 0.000000 -60.708740 0.000000 44.000000 -0.314360 -0.387966 0.866407
-10080.00000000 -19310.00000000 -580.00000000 169 152 95 0.000000 0.000000 0.000000 0.000000 -60.708740 0.000000 44.000000 0.506798 0.861144 -0.039830
-10100.00000000 -19300.00000000 -580.00000000 169 152 95 0.000000 0.000000 0.000000 0.000000 -60.708740 0.000000 44.000000 0.274869 0.952082 -0.134115
-10090.00000000 -19300.00000000 -570.00000000 169 152 95 0.000000 0.000000 0.000000 0.000000 -60.708740 0.000000 44.000000 0.452351 0.840968 -0.296904
-10050.00000000 -19260.00000000 -660.00000000 169 152 95 0.000000 0.000000 0.000000 0.000000 -60.708740 0.000000 44.000000 0.650431 0.695622 -0.305041
-10030.00000000 -19270.00000000 -660.00000000 169 152 95 0.000000 0.000000 0.000000 0.000000 -60.708740 0.000000 44.000000 0.727517 0.635587 -0.258356
-10030.00000000 -19270.00000000 -660.00000000 169 152 95 0.000000 0.000000 0.000000 0.000000 -60.708740 0.000000 44.000000 0.727517 0.635587 -0.258356
-10040.00000000 -19260.00000000 -660.00000000 169 152 95 0.000000 0.000000 0.000000 0.000000 -60.708740 0.000000 44.000000 -0.292769 -0.596737 0.747122
-9890.00000000 -19580.00000000 -200.00000000 169 152 95 0.000000 0.000000 0.000000 0.000000 -60.708740 0.000000 44.000000 0.032297 0.770919 0.636114
-10160.00000000 -19300.00000000 -330.00000000 169 152 95 0.000000 0.000000 0.000000 0.000000 -60.708740 0.000000 44.000000 0.156466 0.864217 0.478171
-10180.00000000 -19280.00000000 -350.00000000 169 152 95 0.000000 0.000000 0.000000 0.000000 -60.708740 0.000000 44.000000 0.273376 0.838663 0.471072
-10160.00000000 -19330.00000000 -330.00000000 169 152 95 0.000000 0.000000 0.000000 0.000000 -60.708740 0.000000 44.000000 0.327684 0.516302 0.791237
-10230.00000000 -19310.00000000 -350.00000000 169 152 95 0.000000 0.000000 0.000000 0.000000 -60.708740 0.000000 44.000000 0.162158 0.750170 0.641054
-10210.00000000 -19330.00000000 -340.00000000 169 152 95 0.000000 0.000000 0.000000 0.000000 -60.708740 0.000000 44.000000 0.082040 0.303418 0.949319
-10160.00000000 -19250.00000000 -390.00000000 169 152 95 0.000000 0.000000 0.000000 0.000000 -60.708740 0.000000 44.000000 -0.023661 0.955161 0.295141
-10180.00000000 -19270.00000000 -420.00000000 169 152 95 0.000000 0.000000 0.000000 0.000000 -60.708740 0.000000 44.000000 0.287419 0.943988 0.162099
-10170.00000000 -19300.00000000 -370.00000000 169 152 95 0.000000 0.000000 0.000000 0.000000 -60.708740 0.000000 44.000000 0.046993 0.707748 0.704900
-10180.00000000 -19300.00000000 -410.00000000 169 152 95 0.000000 0.000000 0.000000 0.000000 -60.708740 0.000000 44.000000 0.249649 0.906622 0.340166
-10180.00000000 -19310.00000000 -400.00000000 169 152 95 0.000000 0.000000 0.000000 0.000000 -60.708740 0.000000 44.000000 0.308870 0.932202 0.188677
-10170.00000000 -19310.00000000 -410.00000000 169 152 95 0.000000 0.000000 0.000000 0.000000 -60.708740 0.000000 44.000000 0.482673 0.841230 0.243635
-10170.00000000 -19310.00000000 -430.00000000 169 152 95 0.000000 0.000000 0.000000 0.000000 -60.708740 0.000000 44.000000 0.001273 0.925729 0.378186
-10180.00000000 -19300.00000000 -410.00000000 169 152 95 0.000000 0.000000 0.000000 0.000000 -60.708740 0.000000 44.000000 0.249649 0.906622 0.340166
-10220.00000000 -19260.00000000 -370.00000000 169 152 95 0.000000 0.000000 0.000000 0.000000 -60.708740 0.000000 44.000000 0.195806 0.732346 0.652173
-10220.00000000 -19280.00000000 -400.00000000 169 152 95 0.000000 0.000000 0.000000 0.000000 -60.708740 0.000000 44.000000 0.210923 0.833071 0.511375
-10230.00000000 -19280.00000000 -400.00000000 169 152 95 0.000000 0.000000 0.000000 0.000000 -60.708740 0.000000 44.000000 0.107550 0.960177 0.257861
-10250.00000000 -19270.00000000 -360.00000000 169 152 95 0.000000 0.000000 0.000000 0.000000 -60.708740 0.000000 44.000000 0.079407 0.781072 0.619371
-10240.00000000 -19280.00000000 -360.00000000 169 152 95 0.000000 0.000000 0.000000 0.000000 -60.708740 0.000000 44.000000 0.291404 0.345201 0.892143
-10240.00000000 -19280.00000000 -360.00000000 169 152 95 0.000000 0.000000 0.000000 0.000000 -60.708740 0.000000 44.000000 0.291404 0.345201 0.892143
-10210.00000000 -19310.00000000 -450.00000000 169 152 95 0.000000 0.000000 0.000000 0.000000 -60.708740 0.000000 44.000000 0.132914 0.946512 0.294023
-10240.00000000 -19320.00000000 -510.00000000 169 152 95 0.000000 0.000000 0.000000 0.000000 -60.708740 0.000000 44.000000 0.343841 0.913554 -0.217239
-10240.00000000 -19330.00000000 -370.00000000 169 152 95 0.000000 0.000000 0.000000 0.000000 -60.708740 0.000000 44.000000 0.286311 0.641401 0.711780
-10200.00000000 -19360.00000000 -500.00000000 169 152 95 0.000000 0.000000 0.000000 0.000000 -60.708740 0.000000 44.000000 0.130964 0.941051 0.311883
-10270.00000000 -19350.00000000 -510.00000000 169 152 95 0.000000 0.000000 0.000000 0.000000 -60.708740 0.000000 44.000000 0.139917 0.988671 -0.054348
-10190.00000000 -19320.00000000 -530.00000000 169 152 95 0.000000 0.000000 0.000000 0.000000 -60.708740 0.000000 44.000000 0.520400 0.844010 -0.129736
-10150.00000000 -19390.00000000 -560.00000000 169 152 95 0.000000 0.000000 0.000000 0.000000 -60.708740 0.000000 44.000000 0.383061 0.896744 -0.221618
-10200.00000000 -19260.00000000 -540.00000000 169 152 95 0.000000 0.000000 0.000000 0.000000 -60.708740 0.000000 44.000000 0.762886 0.640824 -0.085734
-10280.00000000 -19280.00000000 -530.00000000 169 152 95 0.000000 0.000000 0.000000 0.000000 -60.708740 0.000000 44.000000 0.140921 0.986444 -0.084079
-10240.00000000 -19300.00000000 -570.00000000 169 152 95 0.000000 0.000000 0.000000 0.000000 -60.708740 0.000000 44.000000 0.399991 0.782169 -0.477722
-10250.00000000 -19240.00000000 -640.00000000 169 152 95 0.000000 0.000000 0.000000 0.000000 -60.708740 0.000000 44.000000 0.243450 0.742915 -0.623546
-10220.00000000 -19340.00000000 -530.00000000 169 152 95 0.000000 0.000000 0.000000 0.000000 -60.708740 0.000000 44.000000 0.564883 0.824311 0.037659
-10140.00000000 -19440.00000000 -590.00000000 169 152 95 0.000000 0.000000 0.000000 0.000000 -60.708740 0.000000 44.000000 -0.160726 -0.306341 0.938255
-10350.00000000 -19250.00000000 -430.00000000 169 152 95 0.000000 0.000000 0.000000 0.000000 -60.708740 0.000000 44.000000 0.097943 0.615432 0.782081
-10420.00000000 -19240.00000000 -440.00000000 169 152 95 0.000000 0.000000 0.000000 0.000000 -60.708740 0.000000 44.000000 0.145019 0.590543 0.793869
-10390.00000000 -19280.00000000 -440.00000000 169 152 95 0.000000 0.000000 0.000000 0.000000 -60.708740 0.000000 44.000000 0.332736 0.776384 0.535271
-10300.00000000 -19260.00000000 -590.00000000 169 152 95 0.000000 0.000000 0.000000 0.000000 -60.708740 0.000000 44.000000 0.444469 0.895573 0.019902
-10320.00000000 -19250.00000000 -570.00000000 169 152 95 0.000000 0.000000 0.000000 0.000000 -60.708740 0.000000 44.000000 0.736777 0.673829 -0.055795
-10310.00000000 -19260.00000000 -600.00000000 169 152 95 0.000000 0.000000 0.000000 0.000000 -60.708740 0.000000 44.000000 0.750524 0.653965 -0.095096
-9790.00000000 -19310.00000000 -750.00000000 169 152 95 0.000000 0.000000 0.000000 0.000000 -60.708740 0.000000 44.000000 0.338239 0.860270 -0.381484
-9850.00000000 -19300.00000000 -710.00000000 169 152 95 0.000000 0.000000 0.000000 0.000000 -60.708740 0.000000 44.000000 0.694324 0.681786 -0.230396
-9810.00000000 -19390.00000000 -740.00000000 169 152 95 0.000000 0.000000 0.000000 0.000000 -60.708740 0.000000 44.000000 0.219480 0.754947 -0.617967
-9830.00000000 -19370.00000000 -720.00000000 169 152 95 0.000000 0.000000 0.000000 0.000000 -60.708740 0.000000 44.000000 0.710047 0.581547 -0.397034
-9780.00000000 -19420.00000000 -720.00000000 169 152 95 0.000000 0.000000 0.000000 0.000000 -60.708740 0.000000 44.000000 0.354847 0.685165 -0.636108
-9850.00000000 -19410.00000000 -760.00000000 169 152 95 0.000000 0.000000 0.000000 0.000000 -60.708740 0.000000 44.000000 -0.421444 -0.434362 0.796062
-9850.00000000 -19430.00000000 -770.00000000 169 152 95 0.000000 0.000000 0.000000 0.000000 -60.708740 0.000000 44.000000 0.612775 0.565508 -0.552004
-9860.00000000 -19420.00000000 -770.00000000 169 152 95 0.000000 0.000000 0.000000 0.000000 -60.708740 0.000000 44.000000 -0.533339 -0.281615 0.797648
-9950.00000000 -19290.00000000 -720.00000000 169 152 95 0.000000 0.000000 0.000000 0.000000 -60.708740 0.000000 44.000000 0.730546 0.611732 -0.303458
-10000.00000000 -19280.00000000 -830.00000000 169 152 95 0.000000 0.000000 0.000000 0.000000 -60.708740 0.000000 44.000000 0.456686 0.580476 -0.674155
-9950.00000000 -19280.00000000 -780.00000000 169 152 95 0.000000 0.000000 0.000000 0.000000 -60.708740 0.000000 44.000000 -0.518602 -0.260079 0.814500
-10010.00000000 -19330.00000000 -700.00000000 169 152 95 0.000000 0.000000 0.000000 0.000000 -60.708740 0.000000 44.000000 0.560626 0.654905 -0.506752
-10000.00000000 -19330.00000000 -710.00000000 169 152 95 0.000000 0.000000 0.000000 0.000000 -60.708740 0.000000 44.000000 -0.648473 -0.387764 0.655074
-10030.00000000 -19250.00000000 -740.00000000 169 152 95 0.000000 0.000000 0.000000 0.000000 -60.708740 0.000000 44.000000 0.582682 0.720557 -0.375871
-10040.00000000 -19280.00000000 -710.00000000 169 152 95 0.000000 0.000000 0.000000 0.000000 -60.708740 0.000000 44.000000 0.588451 0.524379 -0.615429
-10030.00000000 -19300.00000000 -710.00000000 169 152 95 0.000000 0.000000 0.000000 0.000000 -60.708740 0.000000 44.000000 0.450266 0.533341 -0.716106
-10060.00000000 -19320.00000000 -750.00000000 169 152 95 0.000000 0.000000 0.000000 0.000000 -60.708740 0.000000 44.000000 0.357160 0.722474 -0.592004
-10080.00000000 -19310.00000000 -750.00000000 169 152 95 0.000000 0.000000 0.000000 0.000000 -60.708740 0.000000 44.000000 -0.251733 -0.388771 0.886278
-10100.00000000 -19300.00000000 -760.00000000 169 152 95 0.000000 0.000000 0.000000 0.000000 -60.708740 0.000000 44.000000 -0.373412 -0.505965 0.777537
-10080.00000000 -19300.00000000 -750.00000000 169 152 95 0.000000 0.000000 0.000000 0.000000 -60.708740 0.000000 44.000000 -0.430960 -0.219208 0.875341
-10110.00000000 -19320.00000000 -790.00000000 169 152 95 0.000000 0.000000 0.000000 0.000000 -60.708740 0.000000 44.000000 0.344358 0.703405 -0.621803
-10110.00000000 -19320.00000000 -790.00000000 169 152 95 0.000000 0.000000 0.000000 0.000000 -60.708740 0.000000 44.000000 0.344358 0.703405 -0.621803
-10240.00000000 -19240.00000000 -730.00000000 169 152 95 0.000000 0.000000 0.000000 0.000000 -60.708740 0.000000 44.000000 -0.152688 -0.748323 0.645523
-10270.00000000 -19260.00000000 -710.00000000 169 152 95 0.000000 0.000000 0.000000 0.000000 -60.708740 0.000000 44.000000 -0.376714 -0.260573 0.888925
-10250.00000000 -19280.00000000 -700.00000000 169 152 95 0.000000 0.000000 0.000000 0.000000 -60.708740 0.000000 44.000000 0.636664 0.609786 -0.472038
-10270.00000000 -19260.00000000 -710.00000000 169 152 95 0.000000 0.000000 0.000000 0.000000 -60.708740 0.000000 44.000000 -0.376714 -0.260573 0.888925
-10260.00000000 -19270.00000000 -710.00000000 169 152 95 0.000000 0.000000 0.000000 0.000000 -60.708740 0.000000 44.000000 -0.461758 -0.290736 0.838005
-10270.00000000 -19270.00000000 -710.00000000 169 152 95 0.000000 0.000000 0.000000 0.000000 -60.708740 0.000000 44.000000 -0.320267 -0.353660 0.878837
-10320.00000000 -19240.00000000 -720.00000000 169 152 95 0.000000 0.000000 0.000000 0.000000 -60.708740 0.000000 44.000000 0.533514 0.543612 -0.647958
-10290.00000000 -19240.00000000 -710.00000000 169 152 95 0.000000 0.000000 0.000000 0.000000 -60.708740 0.000000 44.000000 0.167373 0.794646 -0.583544
-10390.00000000 -19240.00000000 -780.00000000 169 152 95 0.000000 0.000000 0.000000 0.000000 -60.708740 0.000000 44.000000 0.534932 0.498040 -0.682499
-10400.00000000 -19270.00000000 -810.00000000 169 152 95 0.000000 0.000000 0.000000 0.000000 -60.708740 0.000000 44.000000 -0.387998 -0.468496 0.793706
-10390.00000000 -19260.00000000 -800.00000000 169 152 95 0.000000 0.000000 0.000000 0.000000 -60.708740 0.000000 44.000000 0.530255 0.486764 -0.694183
-10680.00000000 -18450.00000000 -650.00000000 169 152 95 0.000000 0.000000 1.000000 1.000000 1686050053.314271 15677.000000 44.000000 0.283929 0.896382 0.340417
-10700.00000000 -18500.00000000 -590.00000000 169 152 95 0.000000 0.000000 1.000000 1.000000 1686050355.292603 17990.000000 44.000000 0.403044 0.848104 0.343910
-10670.00000000 -18500.00000000 -610.00000000 169 152 95 0.000000 0.000000 1.000000 1.000000 1686050051.983582 25700.000000 44.000000 0.267198 0.963605 -0.008463
-10530.00000000 -18560.00000000 -750.00000000 169 152 95 0.000000 0.000000 1.000000 1.000000 1686050359.031678 7710.000000 44.000000 0.578911 0.807544 0.112851
-10530.00000000 -18560.00000000 -790.00000000 169 152 95 0.000000 0.000000 1.000000 1.000000 1686050067.266389 8481.000000 44.000000 0.733197 0.660333 -0.162427
-10580.00000000 -18520.00000000 -730.00000000 169 152 95 0.000000 0.000000 1.000000 1.000000 1686050350.196412 1028.000000 44.000000 0.520000 0.834698 0.181326
-10600.00000000 -18530.00000000 -820.00000000 169 152 95 0.000000 0.000000 1.000000 1.000000 1686049644.655610 4883.000000 44.000000 0.292732 0.945645 -0.141644
-10600.00000000 -18550.00000000 -850.00000000 169 152 95 0.000000 0.000000 1.000000 1.000000 1686050351.625245 2570.000000 44.000000 0.335825 0.866398 -0.369561
-10780.00000000 -18390.00000000 -830.00000000 169 152 95 0.000000 0.000000 1.000000 1.000000 1686050050.712525 16962.000000 44.000000 0.451219 0.874513 0.177842
-10700.00000000 -18440.00000000 -830.00000000 169 152 95 0.000000 0.000000 1.000000 1.000000 1686050062.471314 4369.000000 44.000000 0.580759 0.813063 -0.040583
-10680.00000000 -18470.00000000 -800.00000000 169 152 95 0.000000 0.000000 1.000000 1.000000 1686050365.286011 9252.000000 44.000000 0.186818 0.972214 -0.141066
-10680.00000000 -18560.00000000 -730.00000000 169 152 95 0.000000 0.000000 1.000000 1.000000 1686050048.216187 10794.000000 44.000000 0.195947 0.969491 -0.147281
-10650.00000000 -18510.00000000 -820.00000000 169 152 95 0.000000 0.000000 1.000000 1.000000 1686050046.893555 3598.000000 44.000000 0.304368 0.952535 0.006161
-10660.00000000 -18500.00000000 -820.00000000 169 152 95 0.000000 0.000000 1.000000 1.000000 1686050352.698243 4883.000000 44.000000 0.811217 0.562304 -0.160444
-10620.00000000 -18530.00000000 -840.00000000 169 152 95 0.000000 0.000000 1.000000 1.000000 1686050350.196717 7196.000000 44.000000 0.500748 0.861851 0.080402
-10630.00000000 -18530.00000000 -830.00000000 169 152 95 0.000000 0.000000 1.000000 1.000000 1686050046.989655 8738.000000 44.000000 0.340246 0.838856 -0.424916
-10740.00000000 -18430.00000000 -800.00000000 169 152 95 0.000000 0.000000 1.000000 1.000000 1686050049.390961 8481.000000 44.000000 0.400224 0.857623 0.322961
-10780.00000000 -18440.00000000 -830.00000000 169 152 95 0.000000 0.000000 1.000000 1.000000 1686050352.798768 4626.000000 44.000000 0.701093 0.682438 0.206752
-10750.00000000 -18550.00000000 -810.00000000 169 152 95 0.000000 0.000000 1.000000 1.000000 1686050062.471375 2827.000000 44.000000 0.587038 0.721125 -0.367921
-10780.00000000 -18530.00000000 -800.00000000 169 152 95 0.000000 0.000000 1.000000 1.000000 1686050054.577241 23130.000000 44.000000 0.549404 0.818867 0.166169
-10760.00000000 -18540.00000000 -810.00000000 169 152 95 0.000000 0.000000 1.000000 1.000000 1686050051.985932 17990.000000 44.000000 0.540944 0.809104 -0.229631
-10770.00000000 -18540.00000000 -800.00000000 169 152 95 0.000000 0.000000 1.000000 1.000000 1686050356.531617 25700.000000 44.000000 0.318441 0.921050 0.224194
-10680.00000000 -18460.00000000 -870.00000000 169 152 95 0.000000 0.000000 1.000000 1.000000 1686050356.531434 13364.000000 44.000000 0.669472 0.742454 0.023860
-10700.00000000 -18460.00000000 -950.00000000 169 152 95 0.000000 0.000000 1.000000 1.000000 1686050352.698853 5140.000000 44.000000 0.691543 0.715135 0.101741
-10620.00000000 -18550.00000000 -900.00000000 169 152 95 0.000000 0.000000 1.000000 1.000000 1686050356.432801 10537.000000 44.000000 0.162800 0.891798 -0.422128
-10730.00000000 -18430.00000000 -900.00000000 169 152 95 0.000000 0.000000 1.000000 1.000000 1686050054.576997 7967.000000 44.000000 0.552024 0.825851 -0.115066
-10720.00000000 -18450.00000000 -900.00000000 169 152 95 0.000000 0.000000 1.000000 1.000000 1686050350.298096 257.000000 44.000000 0.837128 0.540497 -0.084141
-10730.00000000 -18440.00000000 -920.00000000 169 152 95 0.000000 0.000000 1.000000 1.000000 1686050061.031037 11822.000000 44.000000 0.618430 0.769635 -0.158766
-10730.00000000 -18440.00000000 -920.00000000 169 152 95 0.000000 0.000000 1.000000 1.000000 1686050352.798524 2313.000000 44.000000 0.618430 0.769635 -0.158766
-10760.00000000 -18520.00000000 -910.00000000 169 152 95 0.000000 0.000000 1.000000 1.000000 1686050358.940614 7196.000000 44.000000 0.426364 0.745725 -0.511966
-10850.00000000 -18350.00000000 -840.00000000 169 152 95 0.000000 0.000000 1.000000 1.000000 1686050052.081025 16705.000000 44.000000 0.125488 0.977813 -0.167732
-10840.00000000 -18360.00000000 -810.00000000 169 152 95 0.000000 0.000000 1.000000 1.000000 1686050355.398316 2313.000000 44.000000 0.442483 0.819942 0.363185
-10940.00000000 -18300.00000000 -790.00000000 169 152 95 0.000000 0.000000 1.000000 1.000000 1686050054.675385 24158.000000 44.000000 0.560500 0.825926 -0.060709
-10790.00000000 -18460.00000000 -860.00000000 169 152 95 0.000000 0.000000 1.000000 1.000000 1686050063.728486 5140.000000 44.000000 0.752641 0.564885 -0.338284
-10810.00000000 -18550.00000000 -840.00000000 169 152 95 0.000000 0.000000 1.000000 1.000000 1686050061.031403 5654.000000 44.000000 0.504209 0.776580 -0.377752
-10800.00000000 -18440.00000000 -940.00000000 169 152 95 0.000000 0.000000 1.000000 1.000000 1686050062.471497 5397.000000 44.000000 0.697537 0.588185 -0.409244
-10800.00000000 -18450.00000000 -870.00000000 169 152 95 0.000000 0.000000 1.000000 1.000000 1686050055.920838 7710.000000 44.000000 0.526613 0.803281 0.278240
-10500.00000000 -18640.00000000 -650.00000000 169 152 95 0.000000 0.000000 1.000000 1.000000 1686050061.126923 6682.000000 44.000000 0.106028 0.981063 0.162089
-10480.00000000 -18690.00000000 -580.00000000 169 152 95 0.000000 0.000000 1.000000 1.000000 1686050325.408204 257.000000 44.000000 0.488923 0.842288 -0.226946
-10470.00000000 -18710.00000000 -630.00000000 169 152 95 0.000000 0.000000 0.000000 0.000000 -60.708740 0.000000 44.000000 0.350194 0.862372 0.365621
-10530.00000000 -18720.00000000 -630.00000000 169 152 95 0.000000 0.000000 1.000000 1.000000 1686050053.211030 6682.000000 44.000000 0.230497 0.937353 0.261230
-10560.00000000 -18700.00000000 -630.00000000 169 152 95 0.000000 0.000000 1.000000 1.000000 1686050359.033265 8995.000000 44.000000 0.206531 0.977740 -0.037008
-10550.00000000 -18730.00000000 -680.00000000 169 152 95 0.000000 0.000000 1.000000 1.000000 1686050054.482087 6939.000000 44.000000 0.367006 0.927525 -0.070732
-10450.00000000 -18750.00000000 -690.00000000 169 152 95 0.000000 0.000000 0.000000 0.000000 -60.708740 0.000000 44.000000 0.525522 0.818335 -0.232709
-10480.00000000 -18870.00000000 -660.00000000 169 152 95 0.000000 0.000000 1.000000 1.000000 1686050360.189088 4112.000000 44.000000 0.198340 0.980100 0.008119
-10540.00000000 -18880.00000000 -650.00000000 169 152 95 0.000000 0.000000 1.000000 1.000000 1686050364.040040 5140.000000 44.000000 0.619516 0.784534 0.026571
-10650.00000000 -18570.00000000 -690.00000000 169 152 95 0.000000 0.000000 1.000000 1.000000 1686050046.793580 8738.000000 44.000000 0.457136 0.888651 -0.036409
-10650.00000000 -18570.00000000 -680.00000000 169 152 95 0.000000 0.000000 1.000000 1.000000 1686050362.797059 5654.000000 44.000000 0.268921 0.892936 0.361037
-10660.00000000 -18590.00000000 -690.00000000 169 152 95 0.000000 0.000000 1.000000 1.000000 1686050051.985474 17990.000000 44.000000 0.311098 0.852811 0.419441
-10680.00000000 -18620.00000000 -690.00000000 169 152 95 0.000000 0.000000 1.000000 1.000000 1686050048.117371 8481.000000 44.000000 0.582849 0.749836 -0.313101
-10680.00000000 -18620.00000000 -690.00000000 169 152 95 0.000000 0.000000 1.000000 1.000000 1686050354.122315 1285.000000 44.000000 0.582849 0.749836 -0.313101
-10740.00000000 -18580.00000000 -650.00000000 169 152 95 0.000000 0.000000 1.000000 1.000000 1686050049.494508 14392.000000 44.000000 0.619590 0.761035 0.192181
-10710.00000000 -18600.00000000 -670.00000000 169 152 95 0.000000 0.000000 1.000000 1.000000 1686050048.216004 2827.000000 44.000000 0.322922 0.929624 -0.177537
-10720.00000000 -18600.00000000 -650.00000000 169 152 95 0.000000 0.000000 1.000000 1.000000 1686050357.889344 5911.000000 44.000000 0.386644 0.920772 -0.051818
-10720.00000000 -18880.00000000 -670.00000000 169 152 95 0.000000 0.000000 1.000000 1.000000 1686050052.084199 12079.000000 44.000000 0.406755 0.896019 0.178046
-10670.00000000 -18880.00000000 -690.00000000 169 152 95 0.000000 0.000000 1.000000 1.000000 1686050062.471467 4112.000000 44.000000 0.344221 0.927600 0.145154
-10510.00000000 -18980.00000000 -220.00000000 169 152 95 0.000000 0.000000 1.000000 1.000000 1686050354.029114 4626.000000 44.000000 0.190591 0.580920 0.791332
-10490.00000000 -19050.00000000 -230.00000000 169 152 95 0.000000 0.000000 1.000000 1.000000 1686050058.424470 6168.000000 44.000000 0.261384 0.638411 0.723954
-10480.00000000 -19060.00000000 -220.00000000 169 152 95 0.000000 0.000000 0.000000 0.000000 -60.708740 0.000000 44.000000 0.337859 0.557710 0.758163
-10460.00000000 -19030.00000000 -190.00000000 169 152 95 0.000000 0.000000 0.000000 0.000000 -60.708740 0.000000 44.000000 0.423630 0.398053 0.813690
-10490.00000000 -19040.00000000 -190.00000000 169 152 95 0.000000 0.000000 1.000000 1.000000 1686050354.128419 6939.000000 44.000000 0.412864 0.461436 0.785251
-10470.00000000 -19060.00000000 -240.00000000 169 152 95 0.000000 0.000000 0.000000 0.000000 -60.708740 0.000000 44.000000 0.113730 0.624776 0.772477
-10500.00000000 -19050.00000000 -190.00000000 169 152 95 0.000000 0.000000 1.000000 1.000000 1686050364.144593 3084.000000 44.000000 -0.268892 0.631657 0.727122
-10490.00000000 -19140.00000000 -70.00000000 169 152 95 0.000000 0.000000 1.000000 1.000000 1686050352.890443 4112.000000 44.000000 0.274807 0.200236 0.940418
-10450.00000000 -19140.00000000 -80.00000000 169 152 95 0.000000 0.000000 0.000000 0.000000 -60.708740 0.000000 44.000000 0.232614 0.330860 0.914561
-10480.00000000 -19150.00000000 -130.00000000 169 152 95 0.000000 0.000000 0.000000 0.000000 -60.708740 0.000000 44.000000 0.094244 0.590114 0.801800
-10450.00000000 -19170.00000000 -60.00000000 169 152 95 0.000000 0.000000 0.000000 0.000000 -60.708740 0.000000 44.000000 0.229832 0.488583 0.841703
-10520.00000000 -19190.00000000 -100.00000000 169 152 95 0.000000 0.000000 1.000000 1.000000 1686050057.078675 9766.000000 44.000000 -0.047033 0.671290 0.739701
-10470.00000000 -19090.00000000 -240.00000000 169 152 95 0.000000 0.000000 0.000000 0.000000 -60.708740 0.000000 44.000000 0.237601 0.449475 0.861115
-10510.00000000 -19080.00000000 -250.00000000 169 152 95 0.000000 0.000000 1.000000 1.000000 1686050054.280488 12850.000000 44.000000 -0.162305 0.534565 0.829395
-10560.00000000 -19080.00000000 -220.00000000 169 152 95 0.000000 0.000000 1.000000 1.000000 1686050352.794923 8481.000000 44.000000 0.273213 0.311200 0.910225
-10570.00000000 -19100.00000000 -340.00000000 169 152 95 0.000000 0.000000 1.000000 1.000000 1686050051.783936 12336.000000 44.000000 -0.153901 0.491017 0.857448
-10550.00000000 -19100.00000000 -330.00000000 169 152 95 0.000000 0.000000 1.000000 1.000000 1686050046.496918 3084.000000 44.000000 -0.091384 0.473792 0.875882
-10480.00000000 -18940.00000000 -670.00000000 169 152 95 0.000000 0.000000 0.000000 0.000000 -60.708740 0.000000 44.000000 0.200390 0.947423 -0.249465
-10530.00000000 -18920.00000000 -640.00000000 169 152 95 0.000000 0.000000 1.000000 1.000000 1686050350.196412 5654.000000 44.000000 0.189485 0.981878 0.003445
-10500.00000000 -18970.00000000 -670.00000000 169 152 95 0.000000 0.000000 1.000000 1.000000 1686050351.626649 16191.000000 44.000000 0.386271 0.863339 -0.324714
-10470.00000000 -19060.00000000 -590.00000000 169 152 95 0.000000 0.000000 0.000000 0.000000 -60.708740 0.000000 44.000000 0.084925 0.964591 0.249704
-10490.00000000 -19060.00000000 -530.00000000 169 152 95 0.000000 0.000000 1.000000 1.000000 1686050051.881165 12336.000000 44.000000 0.462726 0.882116 0.088072
-10460.00000000 -19020.00000000 -620.00000000 169 152 95 0.000000 0.000000 0.000000 0.000000 -60.708740 0.000000 44.000000 0.105691 0.986847 0.122317
-10470.00000000 -19020.00000000 -620.00000000 169 152 95 0.000000 0.000000 0.000000 0.000000 -60.708740 0.000000 44.000000 0.581943 0.780579 -0.228121
-10480.00000000 -19030.00000000 -640.00000000 169 152 95 0.000000 0.000000 0.000000 0.000000 -60.708740 0.000000 44.000000 0.301955 0.911700 -0.278615
-10500.00000000 -19030.00000000 -670.00000000 169 152 95 0.000000 0.000000 1.000000 1.000000 1686050325.308533 257.000000 44.000000 0.559122 0.787783 0.258418
-10520.00000000 -19050.00000000 -690.00000000 169 152 95 0.000000 0.000000 1.000000 1.000000 1686050054.484010 12850.000000 44.000000 0.277666 0.836099 -0.473117
-10560.00000000 -18940.00000000 -660.00000000 169 152 95 0.000000 0.000000 1.000000 1.000000 1686050046.693696 1028.000000 44.000000 0.386950 0.841264 0.377551
-10560.00000000 -19050.00000000 -690.00000000 169 152 95 0.000000 0.000000 1.000000 1.000000 1686050350.297913 7710.000000 44.000000 0.592705 0.720063 -0.360848
-10460.00000000 -19070.00000000 -500.00000000 169 152 95 0.000000 0.000000 0.000000 0.000000 -60.708740 0.000000 44.000000 0.099258 0.923234 0.371197
-10450.00000000 -19080.00000000 -580.00000000 169 152 95 0.000000 0.000000 0.000000 0.000000 -60.708740 0.000000 44.000000 0.126976 0.989012 0.075719
-10480.00000000 -19090.00000000 -650.00000000 169 152 95 0.000000 0.000000 1.000000 1.000000 1686050350.397828 8224.000000 44.000000 0.279055 0.960098 -0.018440
-10480.00000000 -19080.00000000 -650.00000000 169 152 95 0.000000 0.000000 1.000000 1.000000 1686050064.966157 3341.000000 44.000000 0.669230 0.685279 -0.287271
-10450.00000000 -19120.00000000 -620.00000000 169 152 95 0.000000 0.000000 0.000000 0.000000 -60.708740 0.000000 44.000000 0.736457 0.668838 -0.101428
-10530.00000000 -19080.00000000 -640.00000000 169 152 95 0.000000 0.000000 1.000000 1.000000 1686050051.988251 20303.000000 44.000000 0.537159 0.842520 -0.040252
-10690.00000000 -18960.00000000 -690.00000000 169 152 95 0.000000 0.000000 1.000000 1.000000 1686050354.027344 25700.000000 44.000000 0.157421 0.987044 0.031025
-10570.00000000 -18600.00000000 -790.00000000 169 152 95 0.000000 0.000000 1.000000 1.000000 1686050351.625733 3855.000000 44.000000 0.545574 0.692395 -0.472163
-10600.00000000 -18600.00000000 -820.00000000 169 152 95 0.000000 0.000000 1.000000 1.000000 1686050353.925416 9252.000000 44.000000 0.352536 0.823638 -0.444227
-10540.00000000 -18650.00000000 -820.00000000 169 152 95 0.000000 0.000000 1.000000 1.000000 1686050361.442017 7453.000000 44.000000 0.186975 0.976974 -0.102774
-10540.00000000 -18650.00000000 -830.00000000 169 152 95 0.000000 0.000000 1.000000 1.000000 1686050350.397584 257.000000 44.000000 0.218974 0.850221 -0.478721
-10540.00000000 -18650.00000000 -830.00000000 169 152 95 0.000000 0.000000 1.000000 1.000000 1686050053.312958 2570.000000 44.000000 0.218974 0.850221 -0.478721
-10600.00000000 -18650.00000000 -800.00000000 169 152 95 0.000000 0.000000 1.000000 1.000000 1686050351.625428 3855.000000 44.000000 0.206773 0.974432 -0.087909
-10600.00000000 -18610.00000000 -890.00000000 169 152 95 0.000000 0.000000 1.000000 1.000000 1686050050.813508 4883.000000 44.000000 0.222829 0.926799 -0.302310
-10480.00000000 -18870.00000000 -740.00000000 169 152 95 0.000000 0.000000 0.000000 0.000000 -60.708740 0.000000 44.000000 0.681103 0.611502 -0.402696
-10480.00000000 -18890.00000000 -760.00000000 169 152 95 0.000000 0.000000 1.000000 1.000000 1686050364.141358 8738.000000 44.000000 0.829547 0.547704 -0.108960
-10450.00000000 -18890.00000000 -830.00000000 169 152 95 0.000000 0.000000 0.000000 0.000000 -60.708740 0.000000 44.000000 0.726350 0.641268 -0.247369
-10510.00000000 -18860.00000000 -790.00000000 169 152 95 0.000000 0.000000 1.000000 1.000000 1686050351.422364 9509.000000 44.000000 0.657133 0.743559 -0.123678
-10500.00000000 -18890.00000000 -790.00000000 169 152 95 0.000000 0.000000 1.000000 1.000000 1686050351.626282 8481.000000 44.000000 0.685547 0.694916 -0.217064
-10510.00000000 -18870.00000000 -800.00000000 169 152 95 0.000000 0.000000 1.000000 1.000000 1686050053.414002 3084.000000 44.000000 0.371158 0.909982 -0.184863
-10510.00000000 -18880.00000000 -780.00000000 169 152 95 0.000000 0.000000 1.000000 1.000000 1686050053.209046 4626.000000 44.000000 0.418568 0.902494 0.101513
-10540.00000000 -18850.00000000 -840.00000000 169 152 95 0.000000 0.000000 1.000000 1.000000 1686050357.689149 12593.000000 44.000000 0.796240 0.502637 -0.336687
-10590.00000000 -18820.00000000 -830.00000000 169 152 95 0.000000 0.000000 1.000000 1.000000 1686050049.496247 8995.000000 44.000000 0.543973 0.833900 -0.093294
-10540.00000000 -18870.00000000 -820.00000000 169 152 95 0.000000 0.000000 1.000000 1.000000 1686050052.084046 6425.000000 44.000000 -0.373394 -0.695796 0.613551
-10530.00000000 -18880.00000000 -870.00000000 169 152 95 0.000000 0.000000 1.000000 1.000000 1686050354.124024 6939.000000 44.000000 0.434583 0.604420 -0.667693
-10510.00000000 -18890.00000000 -940.00000000 169 152 95 0.000000 0.000000 1.000000 1.000000 1686050059.684113 13364.000000 44.000000 0.534423 0.628832 -0.564768
-10530.00000000 -18880.00000000 -920.00000000 169 152 95 0.000000 0.000000 1.000000 1.000000 1686050050.612092 5911.000000 44.000000 0.442206 0.645787 -0.622425
-10550.00000000 -18880.00000000 -980.00000000 169 152 95 0.000000 0.000000 1.000000 1.000000 1686050366.551331 1285.000000 44.000000 0.415676 0.527399 -0.740988
-10650.00000000 -18590.00000000 -710.00000000 169 152 95 0.000000 0.000000 1.000000 1.000000 1686050366.551697 5397.000000 44.000000 0.469049 0.802025 0.369796
-10620.00000000 -18570.00000000 -720.00000000 169 152 95 0.000000 0.000000 1.000000 1.000000 1686050362.797303 771.000000 44.000000 0.149305 0.986355 0.069362
