//X Y Z R G B PointSourceId ScanDirectionFlag NumberOfReturns ReturnNumber GpsTime Intensity Classification Nx Ny Nz
-16090.00000000 9070.00000000 -1530.00000000 55 78 189 0.000000 0.000000 0.000000 0.000000 -60.708740 0.000000 61.000000 0.787412 -0.522280 0.327423
-16110.00000000 9200.00000000 -1390.00000000 55 78 189 0.000000 0.000000 0.000000 0.000000 -60.708740 0.000000 61.000000 0.794906 -0.511352 0.326564
-16120.00000000 9180.00000000 -1400.00000000 55 78 189 0.000000 0.000000 0.000000 0.000000 -60.708740 0.000000 61.000000 -0.652590 0.756892 -0.035237
-16130.00000000 9180.00000000 -1430.00000000 55 78 189 0.000000 0.000000 0.000000 0.000000 -60.708740 0.000000 61.000000 0.743885 -0.443692 0.499772
-16110.00000000 9180.00000000 -1450.00000000 55 78 189 0.000000 0.000000 0.000000 0.000000 -60.708740 0.000000 61.000000 0.785866 -0.355166 0.506233
-16120.00000000 9170.00000000 -1420.00000000 55 78 189 0.000000 0.000000 0.000000 0.000000 -60.708740 0.000000 61.000000 0.674836 -0.681248 0.283720
-16130.00000000 9170.00000000 -1420.00000000 55 78 189 0.000000 0.000000 0.000000 0.000000 -60.708740 0.000000 61.000000 -0.685018 0.703491 -0.189342
-16130.00000000 9160.00000000 -1450.00000000 55 78 189 0.000000 0.000000 0.000000 0.000000 -60.708740 0.000000 61.000000 0.726248 -0.686915 -0.026690
-16170.00000000 9160.00000000 -1370.00000000 55 78 189 0.000000 0.000000 0.000000 0.000000 -60.708740 0.000000 61.000000 0.971025 -0.042642 0.235142
-16150.00000000 9170.00000000 -1400.00000000 55 78 189 0.000000 0.000000 0.000000 0.000000 -60.708740 0.000000 61.000000 0.840909 -0.526114 -0.126792
-16170.00000000 9150.00000000 -1370.00000000 55 78 189 0.000000 0.000000 0.000000 0.000000 -60.708740 0.000000 61.000000 0.995622 -0.069309 -0.062708
-16150.00000000 9160.00000000 -1390.00000000 55 78 189 0.000000 0.000000 0.000000 0.000000 -60.708740 0.000000 61.000000 0.771186 -0.633321 0.064625
-16150.00000000 9170.00000000 -1400.00000000 55 78 189 0.000000 0.000000 0.000000 0.000000 -60.708740 0.000000 61.000000 0.840909 -0.526114 -0.126792
-16150.00000000 9150.00000000 -1420.00000000 55 78 189 0.000000 0.000000 0.000000 0.000000 -60.708740 0.000000 61.000000 0.982125 0.036462 0.184663
-16150.00000000 9170.00000000 -1420.00000000 55 78 189 0.000000 0.000000 0.000000 0.000000 -60.708740 0.000000 61.000000 -0.776298 0.408492 -0.480100
-16150.00000000 9160.00000000 -1410.00000000 55 78 189 0.000000 0.000000 0.000000 0.000000 -60.708740 0.000000 61.000000 0.972965 -0.202126 0.111734
-16150.00000000 9160.00000000 -1420.00000000 55 78 189 0.000000 0.000000 0.000000 0.000000 -60.708740 0.000000 61.000000 0.763128 -0.302371 0.571146
-16140.00000000 9150.00000000 -1430.00000000 55 78 189 0.000000 0.000000 0.000000 0.000000 -60.708740 0.000000 61.000000 0.810916 -0.338014 0.477663
-16110.00000000 9200.00000000 -1500.00000000 55 78 189 0.000000 0.000000 0.000000 0.000000 -60.708740 0.000000 61.000000 0.920642 -0.386590 0.054468
-16110.00000000 9190.00000000 -1510.00000000 55 78 189 0.000000 0.000000 0.000000 0.000000 -60.708740 0.000000 61.000000 -0.655374 0.732116 -0.185715
-16100.00000000 9160.00000000 -1490.00000000 55 78 189 0.000000 0.000000 0.000000 0.000000 -60.708740 0.000000 61.000000 -0.722896 0.677996 0.133204
-16130.00000000 9160.00000000 -1490.00000000 55 78 189 0.000000 0.000000 0.000000 0.000000 -60.708740 0.000000 61.000000 0.734307 -0.678782 -0.006941
-16130.00000000 9080.00000000 -1450.00000000 55 78 189 0.000000 0.000000 0.000000 0.000000 -60.708740 0.000000 61.000000 0.954508 0.089607 0.284404
-16150.00000000 9120.00000000 -1450.00000000 55 78 189 0.000000 0.000000 0.000000 0.000000 -60.708740 0.000000 61.000000 0.937467 -0.075368 0.339815
-16150.00000000 9120.00000000 -1450.00000000 55 78 189 0.000000 0.000000 0.000000 0.000000 -60.708740 0.000000 61.000000 0.937467 -0.075368 0.339815
-16110.00000000 9120.00000000 -1500.00000000 55 78 189 0.000000 0.000000 0.000000 0.000000 -60.708740 0.000000 61.000000 0.960057 -0.267180 -0.083094
-16100.00000000 9110.00000000 -1500.00000000 55 78 189 0.000000 0.000000 0.000000 0.000000 -60.708740 0.000000 61.000000 0.917114 -0.270079 0.293188
-16120.00000000 9140.00000000 -1530.00000000 55 78 189 0.000000 0.000000 0.000000 0.000000 -60.708740 0.000000 61.000000 0.991431 -0.113208 0.065181
-16120.00000000 9130.00000000 -1510.00000000 55 78 189 0.000000 0.000000 0.000000 0.000000 -60.708740 0.000000 61.000000 0.992502 -0.034609 0.117225
-16110.00000000 9110.00000000 -1510.00000000 55 78 189 0.000000 0.000000 0.000000 0.000000 -60.708740 0.000000 61.000000 0.820187 -0.225360 0.525839
-16120.00000000 9120.00000000 -1530.00000000 55 78 189 0.000000 0.000000 0.000000 0.000000 -60.708740 0.000000 61.000000 0.945381 -0.316001 0.079984
-16100.00000000 9120.00000000 -1520.00000000 55 78 189 0.000000 0.000000 0.000000 0.000000 -60.708740 0.000000 61.000000 0.675460 -0.655928 0.336916
-16110.00000000 9140.00000000 -1510.00000000 55 78 189 0.000000 0.000000 0.000000 0.000000 -60.708740 0.000000 61.000000 0.898117 -0.289476 0.331042
-16120.00000000 9080.00000000 -1490.00000000 55 78 189 0.000000 0.000000 0.000000 0.000000 -60.708740 0.000000 61.000000 0.992351 -0.073886 -0.098894
-16120.00000000 9090.00000000 -1490.00000000 55 78 189 0.000000 0.000000 0.000000 0.000000 -60.708740 0.000000 61.000000 0.961650 -0.131430 -0.240738
-16120.00000000 9080.00000000 -1490.00000000 55 78 189 0.000000 0.000000 0.000000 0.000000 -60.708740 0.000000 61.000000 0.992351 -0.073886 -0.098894
-16120.00000000 9100.00000000 -1500.00000000 55 78 189 0.000000 0.000000 0.000000 0.000000 -60.708740 0.000000 61.000000 0.935846 -0.258791 -0.239207
-16120.00000000 9100.00000000 -1500.00000000 55 78 189 0.000000 0.000000 0.000000 0.000000 -60.708740 0.000000 61.000000 0.935846 -0.258791 -0.239207
-16110.00000000 9080.00000000 -1530.00000000 55 78 189 0.000000 0.000000 0.000000 0.000000 -60.708740 0.000000 61.000000 0.952723 -0.013628 0.303533
-16130.00000000 9070.00000000 -1520.00000000 55 78 189 0.000000 0.000000 0.000000 0.000000 -60.708740 0.000000 61.000000 0.976744 -0.042049 0.210246
-16130.00000000 9070.00000000 -1520.00000000 55 78 189 0.000000 0.000000 0.000000 0.000000 -60.708740 0.000000 61.000000 0.976744 -0.042049 0.210246
-16120.00000000 9100.00000000 -1500.00000000 55 78 189 0.000000 0.000000 0.000000 0.000000 -60.708740 0.000000 61.000000 0.935846 -0.258791 -0.239207
-16110.00000000 9080.00000000 -1530.00000000 55 78 189 0.000000 0.000000 0.000000 0.000000 -60.708740 0.000000 61.000000 0.952723 -0.013628 0.303533
-16140.00000000 9120.00000000 -1490.00000000 55 78 189 0.000000 0.000000 0.000000 0.000000 -60.708740 0.000000 61.000000 0.882920 -0.466784 -0.050648
-16140.00000000 9140.00000000 -1490.00000000 55 78 189 0.000000 0.000000 0.000000 0.000000 -60.708740 0.000000 61.000000 0.946701 -0.270292 -0.175214
-16160.00000000 9120.00000000 -1460.00000000 55 78 189 0.000000 0.000000 0.000000 0.000000 -60.708740 0.000000 61.000000 0.809358 -0.402275 0.427918
-16150.00000000 9130.00000000 -1460.00000000 55 78 189 0.000000 0.000000 0.000000 0.000000 -60.708740 0.000000 61.000000 0.765192 -0.298728 0.570300
-16150.00000000 9140.00000000 -1520.00000000 55 78 189 0.000000 0.000000 0.000000 0.000000 -60.708740 0.000000 61.000000 0.915519 -0.324396 0.237891
-16150.00000000 9120.00000000 -1500.00000000 55 78 189 0.000000 0.000000 0.000000 0.000000 -60.708740 0.000000 61.000000 0.984120 -0.163028 0.070209
-16170.00000000 9080.00000000 -1490.00000000 55 78 189 0.000000 0.000000 0.000000 0.000000 -60.708740 0.000000 61.000000 0.922394 -0.349583 0.164262
-16140.00000000 9070.00000000 -1520.00000000 55 78 189 0.000000 0.000000 0.000000 0.000000 -60.708740 0.000000 61.000000 0.966871 0.005991 0.255196
-16140.00000000 9070.00000000 -1500.00000000 55 78 189 0.000000 0.000000 0.000000 0.000000 -60.708740 0.000000 61.000000 0.935625 -0.350046 0.045545
-16020.00000000 9200.00000000 -1570.00000000 55 78 189 0.000000 0.000000 0.000000 0.000000 -60.708740 0.000000 61.000000 -0.355836 0.907745 -0.222216
-16010.00000000 9200.00000000 -1600.00000000 55 78 189 0.000000 0.000000 0.000000 0.000000 -60.708740 0.000000 61.000000 0.706133 -0.604555 0.368631
-16010.00000000 9210.00000000 -1580.00000000 55 78 189 0.000000 0.000000 0.000000 0.000000 -60.708740 0.000000 61.000000 -0.709360 0.684952 0.166280
-16020.00000000 9200.00000000 -1580.00000000 55 78 189 0.000000 0.000000 0.000000 0.000000 -60.708740 0.000000 61.000000 -0.654266 0.755572 -0.032362
-16010.00000000 9110.00000000 -1570.00000000 55 78 189 0.000000 0.000000 0.000000 0.000000 -60.708740 0.000000 61.000000 0.754851 -0.632855 0.172320
-16020.00000000 9110.00000000 -1580.00000000 55 78 189 0.000000 0.000000 0.000000 0.000000 -60.708740 0.000000 61.000000 0.840299 -0.480829 -0.250400
-16010.00000000 9100.00000000 -1580.00000000 55 78 189 0.000000 0.000000 0.000000 0.000000 -60.708740 0.000000 61.000000 0.659401 -0.585575 0.471480
-16090.00000000 9120.00000000 -1570.00000000 55 78 189 0.000000 0.000000 0.000000 0.000000 -60.708740 0.000000 61.000000 0.792279 -0.607366 0.058319
-16130.00000000 9220.00000000 -1540.00000000 55 78 189 0.000000 0.000000 0.000000 0.000000 -60.708740 0.000000 61.000000 0.850454 -0.511431 0.123149
-16120.00000000 9220.00000000 -1540.00000000 55 78 189 0.000000 0.000000 0.000000 0.000000 -60.708740 0.000000 61.000000 0.780402 -0.625153 -0.012475
-16100.00000000 9200.00000000 -1580.00000000 55 78 189 0.000000 0.000000 0.000000 0.000000 -60.708740 0.000000 61.000000 0.938740 -0.342878 -0.034673
-16110.00000000 9150.00000000 -1550.00000000 55 78 189 0.000000 0.000000 0.000000 0.000000 -60.708740 0.000000 61.000000 0.769576 -0.401872 0.496238
-16110.00000000 9130.00000000 -1540.00000000 55 78 189 0.000000 0.000000 0.000000 0.000000 -60.708740 0.000000 61.000000 0.965503 -0.201417 -0.165032
-16110.00000000 9140.00000000 -1550.00000000 55 78 189 0.000000 0.000000 0.000000 0.000000 -60.708740 0.000000 61.000000 0.855657 -0.511703 0.077531
-16100.00000000 9110.00000000 -1570.00000000 55 78 189 0.000000 0.000000 0.000000 0.000000 -60.708740 0.000000 61.000000 0.748183 -0.638021 0.182073
-16120.00000000 9070.00000000 -1540.00000000 55 78 189 0.000000 0.000000 0.000000 0.000000 -60.708740 0.000000 61.000000 0.917471 -0.396211 0.035541
-16110.00000000 9090.00000000 -1590.00000000 55 78 189 0.000000 0.000000 0.000000 0.000000 -60.708740 0.000000 61.000000 0.901797 -0.055433 0.428590
-16100.00000000 9100.00000000 -1590.00000000 55 78 189 0.000000 0.000000 0.000000 0.000000 -60.708740 0.000000 61.000000 0.929357 -0.147758 0.338325
-16100.00000000 9090.00000000 -1590.00000000 55 78 189 0.000000 0.000000 0.000000 0.000000 -60.708740 0.000000 61.000000 0.986234 -0.120447 0.113292
-16110.00000000 9090.00000000 -1590.00000000 55 78 189 0.000000 0.000000 0.000000 0.000000 -60.708740 0.000000 61.000000 0.901797 -0.055433 0.428590
-16020.00000000 9040.00000000 -1520.00000000 55 78 189 0.000000 0.000000 0.000000 0.000000 -60.708740 0.000000 61.000000 0.940726 -0.231371 0.247997
-16070.00000000 9040.00000000 -1530.00000000 55 78 189 0.000000 0.000000 0.000000 0.000000 -60.708740 0.000000 61.000000 0.869057 0.042560 0.492878
-16080.00000000 8990.00000000 -1500.00000000 55 78 189 0.000000 0.000000 0.000000 0.000000 -60.708740 0.000000 61.000000 0.870200 0.477392 0.121857
-16150.00000000 9040.00000000 -1450.00000000 55 78 189 0.000000 0.000000 0.000000 0.000000 -60.708740 0.000000 61.000000 0.949837 0.304518 0.071270
-16150.00000000 9040.00000000 -1450.00000000 55 78 189 0.000000 0.000000 0.000000 0.000000 -60.708740 0.000000 61.000000 0.949837 0.304518 0.071270
-16100.00000000 9010.00000000 -1520.00000000 55 78 189 0.000000 0.000000 0.000000 0.000000 -60.708740 0.000000 61.000000 0.971355 0.236535 0.022813
-16150.00000000 9020.00000000 -1470.00000000 55 78 189 0.000000 0.000000 0.000000 0.000000 -60.708740 0.000000 61.000000 0.928779 0.368105 -0.043229
-16150.00000000 9020.00000000 -1470.00000000 55 78 189 0.000000 0.000000 0.000000 0.000000 -60.708740 0.000000 61.000000 0.928779 0.368105 -0.043229
-16110.00000000 8950.00000000 -1400.00000000 55 78 189 0.000000 0.000000 0.000000 0.000000 -60.708740 0.000000 61.000000 0.761097 0.579199 0.291993
-16100.00000000 8950.00000000 -1410.00000000 55 78 189 0.000000 0.000000 0.000000 0.000000 -60.708740 0.000000 61.000000 0.971486 0.194297 -0.135881
-16170.00000000 8940.00000000 -1430.00000000 55 78 189 0.000000 0.000000 0.000000 0.000000 -60.708740 0.000000 61.000000 0.992605 0.096425 0.073736
-16170.00000000 8960.00000000 -1420.00000000 55 78 189 0.000000 0.000000 0.000000 0.000000 -60.708740 0.000000 61.000000 0.786761 0.352353 0.506809
-16150.00000000 8910.00000000 -1390.00000000 55 78 189 0.000000 0.000000 0.000000 0.000000 -60.708740 0.000000 61.000000 0.798179 0.556401 -0.230929
-16150.00000000 8900.00000000 -1390.00000000 55 78 189 0.000000 0.000000 0.000000 0.000000 -60.708740 0.000000 61.000000 0.989762 0.114873 -0.084704
-16140.00000000 8900.00000000 -1450.00000000 55 78 189 0.000000 0.000000 0.000000 0.000000 -60.708740 0.000000 61.000000 0.806174 0.580855 -0.112659
-16160.00000000 8920.00000000 -1450.00000000 55 78 189 0.000000 0.000000 0.000000 0.000000 -60.708740 0.000000 61.000000 0.817940 0.455823 0.350999
-16160.00000000 8910.00000000 -1410.00000000 55 78 189 0.000000 0.000000 0.000000 0.000000 -60.708740 0.000000 61.000000 0.965170 0.157181 0.209142
-16140.00000000 8900.00000000 -1430.00000000 55 78 189 0.000000 0.000000 0.000000 0.000000 -60.708740 0.000000 61.000000 0.982485 0.058213 0.177014
-16170.00000000 8930.00000000 -1440.00000000 55 78 189 0.000000 0.000000 0.000000 0.000000 -60.708740 0.000000 61.000000 0.904355 0.426730 -0.006525
-16170.00000000 8910.00000000 -1440.00000000 55 78 189 0.000000 0.000000 0.000000 0.000000 -60.708740 0.000000 61.000000 0.934410 0.316071 0.164246
-16170.00000000 8930.00000000 -1430.00000000 55 78 189 0.000000 0.000000 0.000000 0.000000 -60.708740 0.000000 61.000000 0.876246 0.459124 -0.146282
-16150.00000000 8900.00000000 -1420.00000000 55 78 189 0.000000 0.000000 0.000000 0.000000 -60.708740 0.000000 61.000000 0.910879 0.172482 0.374900
-16150.00000000 8900.00000000 -1450.00000000 55 78 189 0.000000 0.000000 0.000000 0.000000 -60.708740 0.000000 61.000000 0.947115 0.230970 -0.222770
-16110.00000000 8940.00000000 -1460.00000000 55 78 189 0.000000 0.000000 0.000000 0.000000 -60.708740 0.000000 61.000000 0.947295 0.016311 0.319947
-16160.00000000 8900.00000000 -1490.00000000 55 78 189 0.000000 0.000000 0.000000 0.000000 -60.708740 0.000000 61.000000 0.900903 0.391886 0.186543
-16160.00000000 8900.00000000 -1500.00000000 55 78 189 0.000000 0.000000 0.000000 0.000000 -60.708740 0.000000 61.000000 0.732936 0.674419 0.089240
-16160.00000000 8900.00000000 -1500.00000000 55 78 189 0.000000 0.000000 0.000000 0.000000 -60.708740 0.000000 61.000000 0.732936 0.674419 0.089240
-16020.00000000 9020.00000000 -1560.00000000 55 78 189 0.000000 0.000000 0.000000 0.000000 -60.708740 0.000000 61.000000 0.954454 -0.278873 -0.106050
-16080.00000000 9030.00000000 -1570.00000000 55 78 189 0.000000 0.000000 0.000000 0.000000 -60.708740 0.000000 61.000000 0.977728 -0.155689 -0.140743
-16080.00000000 9020.00000000 -1570.00000000 55 78 189 0.000000 0.000000 0.000000 0.000000 -60.708740 0.000000 61.000000 0.964429 -0.238210 0.114598
-16090.00000000 9030.00000000 -1570.00000000 55 78 189 0.000000 0.000000 0.000000 0.000000 -60.708740 0.000000 61.000000 0.960982 0.276480 -0.008526
-16090.00000000 9050.00000000 -1570.00000000 55 78 189 0.000000 0.000000 0.000000 0.000000 -60.708740 0.000000 61.000000 0.877922 -0.234810 0.417274
-16080.00000000 9060.00000000 -1590.00000000 55 78 189 0.000000 0.000000 0.000000 0.000000 -60.708740 0.000000 61.000000 0.817059 -0.212283 0.536052
-16080.00000000 9030.00000000 -1590.00000000 55 78 189 0.000000 0.000000 0.000000 0.000000 -60.708740 0.000000 61.000000 0.966511 -0.243203 -0.081908
-16070.00000000 9040.00000000 -1600.00000000 55 78 189 0.000000 0.000000 0.000000 0.000000 -60.708740 0.000000 61.000000 0.923558 -0.311648 0.223419
-16070.00000000 9040.00000000 -1610.00000000 55 78 189 0.000000 0.000000 0.000000 0.000000 -60.708740 0.000000 61.000000 0.918779 -0.076902 0.387209
-16080.00000000 9030.00000000 -1600.00000000 55 78 189 0.000000 0.000000 0.000000 0.000000 -60.708740 0.000000 61.000000 0.840942 -0.197072 0.503963
-16070.00000000 9060.00000000 -1620.00000000 55 78 189 0.000000 0.000000 0.000000 0.000000 -60.708740 0.000000 61.000000 0.862632 -0.045547 0.503777
-16070.00000000 9040.00000000 -1620.00000000 55 78 189 0.000000 0.000000 0.000000 0.000000 -60.708740 0.000000 61.000000 0.852635 -0.116859 0.509272
-16080.00000000 9010.00000000 -1570.00000000 55 78 189 0.000000 0.000000 0.000000 0.000000 -60.708740 0.000000 61.000000 0.945180 -0.315934 0.082589
-16080.00000000 9010.00000000 -1580.00000000 55 78 189 0.000000 0.000000 0.000000 0.000000 -60.708740 0.000000 61.000000 0.988649 -0.125190 0.083070
-16090.00000000 8980.00000000 -1590.00000000 55 78 189 0.000000 0.000000 0.000000 0.000000 -60.708740 0.000000 61.000000 0.911293 0.199480 0.360212
-16080.00000000 9010.00000000 -1600.00000000 55 78 189 0.000000 0.000000 0.000000 0.000000 -60.708740 0.000000 61.000000 0.972262 -0.229984 -0.042590
-16080.00000000 9000.00000000 -1590.00000000 55 78 189 0.000000 0.000000 0.000000 0.000000 -60.708740 0.000000 61.000000 0.972395 -0.229441 -0.042489
-16100.00000000 8990.00000000 -1560.00000000 55 78 189 0.000000 0.000000 0.000000 0.000000 -60.708740 0.000000 61.000000 0.986530 -0.005637 0.163482
-16110.00000000 9000.00000000 -1540.00000000 55 78 189 0.000000 0.000000 0.000000 0.000000 -60.708740 0.000000 61.000000 0.991979 -0.118496 -0.044013
-16160.00000000 8910.00000000 -1550.00000000 55 78 189 0.000000 0.000000 0.000000 0.000000 -60.708740 0.000000 61.000000 0.897003 0.407467 0.171338
-16050.00000000 8840.00000000 -1510.00000000 55 78 189 0.000000 0.000000 0.000000 0.000000 -60.708740 0.000000 61.000000 0.776619 0.539630 -0.325059
-16120.00000000 8850.00000000 -1390.00000000 55 78 189 0.000000 0.000000 0.000000 0.000000 -60.708740 0.000000 61.000000 0.692544 0.718460 -0.064791
-16140.00000000 8870.00000000 -1450.00000000 55 78 189 0.000000 0.000000 0.000000 0.000000 -60.708740 0.000000 61.000000 0.782275 0.621591 -0.040876
-16140.00000000 8880.00000000 -1420.00000000 55 78 189 0.000000 0.000000 0.000000 0.000000 -60.708740 0.000000 61.000000 0.790733 0.604336 0.097567
-16150.00000000 8880.00000000 -1450.00000000 55 78 189 0.000000 0.000000 0.000000 0.000000 -60.708740 0.000000 61.000000 0.775230 0.603976 -0.185016
-16150.00000000 8890.00000000 -1430.00000000 55 78 189 0.000000 0.000000 0.000000 0.000000 -60.708740 0.000000 61.000000 0.896659 0.423540 0.128904
-16150.00000000 8880.00000000 -1450.00000000 55 78 189 0.000000 0.000000 0.000000 0.000000 -60.708740 0.000000 61.000000 0.775230 0.603976 -0.185016
-16150.00000000 8870.00000000 -1420.00000000 55 78 189 0.000000 0.000000 0.000000 0.000000 -60.708740 0.000000 61.000000 0.984713 0.167436 0.048006
-16150.00000000 8890.00000000 -1420.00000000 55 78 189 0.000000 0.000000 0.000000 0.000000 -60.708740 0.000000 61.000000 0.910536 0.287922 0.296691
-16150.00000000 8880.00000000 -1410.00000000 55 78 189 0.000000 0.000000 0.000000 0.000000 -60.708740 0.000000 61.000000 0.895948 0.362822 0.256197
-16150.00000000 8880.00000000 -1450.00000000 55 78 189 0.000000 0.000000 0.000000 0.000000 -60.708740 0.000000 61.000000 0.775230 0.603976 -0.185016
-16150.00000000 8810.00000000 -1390.00000000 55 78 189 0.000000 0.000000 0.000000 0.000000 -60.708740 0.000000 61.000000 0.479700 0.876973 -0.028377
-16160.00000000 8830.00000000 -1440.00000000 55 78 189 0.000000 0.000000 0.000000 0.000000 -60.708740 0.000000 61.000000 0.732241 0.677359 0.070769
-16150.00000000 8820.00000000 -1430.00000000 55 78 189 0.000000 0.000000 0.000000 0.000000 -60.708740 0.000000 61.000000 0.934184 0.355326 0.032302
-16170.00000000 8850.00000000 -1440.00000000 55 78 189 0.000000 0.000000 0.000000 0.000000 -60.708740 0.000000 61.000000 0.893224 0.394544 -0.215606
-16150.00000000 8820.00000000 -1450.00000000 55 78 189 0.000000 0.000000 0.000000 0.000000 -60.708740 0.000000 61.000000 0.764878 0.635686 0.104235
-16170.00000000 8850.00000000 -1430.00000000 55 78 189 0.000000 0.000000 0.000000 0.000000 -60.708740 0.000000 61.000000 0.771866 0.557725 -0.305231
-16150.00000000 8820.00000000 -1430.00000000 55 78 189 0.000000 0.000000 0.000000 0.000000 -60.708740 0.000000 61.000000 0.934184 0.355326 0.032302
-16170.00000000 8850.00000000 -1440.00000000 55 78 189 0.000000 0.000000 0.000000 0.000000 -60.708740 0.000000 61.000000 0.893224 0.394544 -0.215606
-16160.00000000 8830.00000000 -1440.00000000 55 78 189 0.000000 0.000000 0.000000 0.000000 -60.708740 0.000000 61.000000 0.732241 0.677359 0.070769
-16120.00000000 8890.00000000 -1480.00000000 55 78 189 0.000000 0.000000 0.000000 0.000000 -60.708740 0.000000 61.000000 0.968431 0.124092 0.216202
-16130.00000000 8860.00000000 -1500.00000000 55 78 189 0.000000 0.000000 0.000000 0.000000 -60.708740 0.000000 61.000000 0.940337 0.185865 0.284992
-16120.00000000 8840.00000000 -1490.00000000 55 78 189 0.000000 0.000000 0.000000 0.000000 -60.708740 0.000000 61.000000 0.776446 0.602547 -0.184578
-16120.00000000 8840.00000000 -1530.00000000 55 78 189 0.000000 0.000000 0.000000 0.000000 -60.708740 0.000000 61.000000 0.771471 0.622250 0.132806
-16130.00000000 8850.00000000 -1510.00000000 55 78 189 0.000000 0.000000 0.000000 0.000000 -60.708740 0.000000 61.000000 0.955694 0.271370 0.114054
-16120.00000000 8840.00000000 -1510.00000000 55 78 189 0.000000 0.000000 0.000000 0.000000 -60.708740 0.000000 61.000000 0.976423 0.210696 0.046955
-16120.00000000 8850.00000000 -1520.00000000 55 78 189 0.000000 0.000000 0.000000 0.000000 -60.708740 0.000000 61.000000 0.893665 0.290926 0.341651
-16120.00000000 8840.00000000 -1510.00000000 55 78 189 0.000000 0.000000 0.000000 0.000000 -60.708740 0.000000 61.000000 0.976423 0.210696 0.046955
-16150.00000000 8860.00000000 -1480.00000000 55 78 189 0.000000 0.000000 0.000000 0.000000 -60.708740 0.000000 61.000000 0.859618 0.496764 -0.119511
-16160.00000000 8880.00000000 -1460.00000000 55 78 189 0.000000 0.000000 0.000000 0.000000 -60.708740 0.000000 61.000000 0.707216 0.672870 -0.217005
-16160.00000000 8880.00000000 -1480.00000000 55 78 189 0.000000 0.000000 0.000000 0.000000 -60.708740 0.000000 61.000000 0.783774 0.552601 0.283426
-16150.00000000 8880.00000000 -1460.00000000 55 78 189 0.000000 0.000000 0.000000 0.000000 -60.708740 0.000000 61.000000 0.718846 0.642677 -0.265005
-16150.00000000 8870.00000000 -1480.00000000 55 78 189 0.000000 0.000000 0.000000 0.000000 -60.708740 0.000000 61.000000 0.930957 0.351635 0.098350
-16150.00000000 8870.00000000 -1480.00000000 55 78 189 0.000000 0.000000 0.000000 0.000000 -60.708740 0.000000 61.000000 0.930957 0.351635 0.098350
-16160.00000000 8880.00000000 -1500.00000000 55 78 189 0.000000 0.000000 0.000000 0.000000 -60.708740 0.000000 61.000000 0.743236 0.660818 -0.104495
-16150.00000000 8880.00000000 -1500.00000000 55 78 189 0.000000 0.000000 0.000000 0.000000 -60.708740 0.000000 61.000000 0.788749 0.609947 0.076424
-16160.00000000 8890.00000000 -1500.00000000 55 78 189 0.000000 0.000000 0.000000 0.000000 -60.708740 0.000000 61.000000 0.830241 0.526971 0.181662
-16160.00000000 8880.00000000 -1510.00000000 55 78 189 0.000000 0.000000 0.000000 0.000000 -60.708740 0.000000 61.000000 0.772525 0.559085 -0.301046
-16150.00000000 8880.00000000 -1500.00000000 55 78 189 0.000000 0.000000 0.000000 0.000000 -60.708740 0.000000 61.000000 0.788749 0.609947 0.076424
-16150.00000000 8890.00000000 -1520.00000000 55 78 189 0.000000 0.000000 0.000000 0.000000 -60.708740 0.000000 61.000000 0.890545 0.231867 0.391367
-16150.00000000 8890.00000000 -1530.00000000 55 78 189 0.000000 0.000000 0.000000 0.000000 -60.708740 0.000000 61.000000 0.896382 0.340417 -0.283929
-16140.00000000 8800.00000000 -1440.00000000 55 78 189 0.000000 0.000000 0.000000 0.000000 -60.708740 0.000000 61.000000 0.875895 0.447484 0.180461
-16120.00000000 8800.00000000 -1510.00000000 55 78 189 0.000000 0.000000 0.000000 0.000000 -60.708740 0.000000 61.000000 0.912385 0.364097 0.187046
-16120.00000000 8790.00000000 -1500.00000000 55 78 189 0.000000 0.000000 0.000000 0.000000 -60.708740 0.000000 61.000000 0.836034 0.542639 0.081182
-16110.00000000 8790.00000000 -1510.00000000 55 78 189 0.000000 0.000000 0.000000 0.000000 -60.708740 0.000000 61.000000 0.886074 0.433611 0.163873
-16070.00000000 8830.00000000 -1540.00000000 55 78 189 0.000000 0.000000 0.000000 0.000000 -60.708740 0.000000 61.000000 0.725632 0.657555 -0.202682
-16090.00000000 8820.00000000 -1570.00000000 55 78 189 0.000000 0.000000 0.000000 0.000000 -60.708740 0.000000 61.000000 0.769174 0.631455 0.098161
-16050.00000000 8830.00000000 -1550.00000000 55 78 189 0.000000 0.000000 0.000000 0.000000 -60.708740 0.000000 61.000000 0.668888 0.743362 -0.001379
-16060.00000000 8780.00000000 -1550.00000000 55 78 189 0.000000 0.000000 0.000000 0.000000 -60.708740 0.000000 61.000000 0.751672 0.658594 -0.035257
-16070.00000000 8800.00000000 -1550.00000000 55 78 189 0.000000 0.000000 0.000000 0.000000 -60.708740 0.000000 61.000000 0.812088 0.541904 0.216455
-16060.00000000 8780.00000000 -1570.00000000 55 78 189 0.000000 0.000000 0.000000 0.000000 -60.708740 0.000000 61.000000 0.317662 0.939468 0.128416
-16070.00000000 8790.00000000 -1560.00000000 55 78 189 0.000000 0.000000 0.000000 0.000000 -60.708740 0.000000 61.000000 0.571089 0.813546 -0.109544
-16060.00000000 8770.00000000 -1540.00000000 55 78 189 0.000000 0.000000 0.000000 0.000000 -60.708740 0.000000 61.000000 0.532946 0.804889 0.261003
-16080.00000000 8790.00000000 -1580.00000000 55 78 189 0.000000 0.000000 0.000000 0.000000 -60.708740 0.000000 61.000000 0.655945 0.609211 0.445642
-16110.00000000 8820.00000000 -1550.00000000 55 78 189 0.000000 0.000000 0.000000 0.000000 -60.708740 0.000000 61.000000 0.952783 0.253271 0.167507
-16130.00000000 8810.00000000 -1550.00000000 55 78 189 0.000000 0.000000 0.000000 0.000000 -60.708740 0.000000 61.000000 0.812195 0.547051 0.202668
-16160.00000000 8890.00000000 -1540.00000000 55 78 189 0.000000 0.000000 0.000000 0.000000 -60.708740 0.000000 61.000000 0.933388 0.352496 -0.067331
-16150.00000000 8870.00000000 -1540.00000000 55 78 189 0.000000 0.000000 0.000000 0.000000 -60.708740 0.000000 61.000000 0.829744 0.558142 0.001358
-16130.00000000 8800.00000000 -1550.00000000 55 78 189 0.000000 0.000000 0.000000 0.000000 -60.708740 0.000000 61.000000 0.864796 0.499506 0.051196
-16140.00000000 8800.00000000 -1580.00000000 55 78 189 0.000000 0.000000 0.000000 0.000000 -60.708740 0.000000 61.000000 0.827412 0.400259 0.393931
-16210.00000000 8940.00000000 -1370.00000000 55 78 189 0.000000 0.000000 0.000000 0.000000 -60.708740 0.000000 61.000000 0.798153 0.353491 0.487849
-16180.00000000 8950.00000000 -1400.00000000 55 78 189 0.000000 0.000000 0.000000 0.000000 -60.708740 0.000000 61.000000 0.863499 0.504045 0.017567
-16180.00000000 8950.00000000 -1400.00000000 55 78 189 0.000000 0.000000 0.000000 0.000000 -60.708740 0.000000 61.000000 0.863499 0.504045 0.017567
-16190.00000000 8970.00000000 -1400.00000000 55 78 189 0.000000 0.000000 0.000000 0.000000 -60.708740 0.000000 61.000000 0.836599 0.470296 0.280936
-16190.00000000 8940.00000000 -1410.00000000 55 78 189 0.000000 0.000000 0.000000 0.000000 -60.708740 0.000000 61.000000 0.965974 0.258159 0.015756
-16190.00000000 8900.00000000 -1380.00000000 55 78 189 0.000000 0.000000 0.000000 0.000000 -60.708740 0.000000 61.000000 0.927334 0.151090 0.342379
-16180.00000000 8930.00000000 -1390.00000000 55 78 189 0.000000 0.000000 0.000000 0.000000 -60.708740 0.000000 61.000000 0.806583 0.583578 0.094126
-16210.00000000 8930.00000000 -1440.00000000 55 78 189 0.000000 0.000000 0.000000 0.000000 -60.708740 0.000000 61.000000 0.927081 0.040535 0.372663
-16240.00000000 8910.00000000 -1390.00000000 55 78 189 0.000000 0.000000 0.000000 0.000000 -60.708740 0.000000 61.000000 0.934012 0.161417 0.318695
-16240.00000000 8910.00000000 -1370.00000000 55 78 189 0.000000 0.000000 0.000000 0.000000 -60.708740 0.000000 61.000000 0.946521 0.260874 0.189851
-16240.00000000 8920.00000000 -1380.00000000 55 78 189 0.000000 0.000000 0.000000 0.000000 -60.708740 0.000000 61.000000 0.926753 0.332285 0.175256
-16240.00000000 8920.00000000 -1390.00000000 55 78 189 0.000000 0.000000 0.000000 0.000000 -60.708740 0.000000 61.000000 0.871485 0.455650 0.181375
-16260.00000000 8920.00000000 -1410.00000000 55 78 189 0.000000 0.000000 0.000000 0.000000 -60.708740 0.000000 61.000000 0.974019 0.044880 0.221974
-16190.00000000 8940.00000000 -1460.00000000 55 78 189 0.000000 0.000000 0.000000 0.000000 -60.708740 0.000000 61.000000 0.966293 0.124807 -0.225168
-16180.00000000 8940.00000000 -1540.00000000 55 78 189 0.000000 0.000000 0.000000 0.000000 -60.708740 0.000000 61.000000 0.878855 0.262905 0.398114
-16220.00000000 8910.00000000 -1580.00000000 55 78 189 0.000000 0.000000 0.000000 0.000000 -60.708740 0.000000 61.000000 0.749701 0.578801 0.320840
-16210.00000000 8850.00000000 -1400.00000000 55 78 189 0.000000 0.000000 0.000000 0.000000 -60.708740 0.000000 61.000000 0.706461 0.665553 0.240732
-16180.00000000 8840.00000000 -1400.00000000 55 78 189 0.000000 0.000000 0.000000 0.000000 -60.708740 0.000000 61.000000 0.913986 0.405492 -0.014342
-16220.00000000 8860.00000000 -1390.00000000 55 78 189 0.000000 0.000000 0.000000 0.000000 -60.708740 0.000000 61.000000 0.958273 0.195376 0.208667
-16230.00000000 8860.00000000 -1380.00000000 55 78 189 0.000000 0.000000 0.000000 0.000000 -60.708740 0.000000 61.000000 0.907474 0.381568 0.175778
-16220.00000000 8870.00000000 -1390.00000000 55 78 189 0.000000 0.000000 0.000000 0.000000 -60.708740 0.000000 61.000000 0.836312 0.422079 0.349902
-16220.00000000 8880.00000000 -1370.00000000 55 78 189 0.000000 0.000000 0.000000 0.000000 -60.708740 0.000000 61.000000 0.929733 0.364266 0.053917
-16230.00000000 8860.00000000 -1380.00000000 55 78 189 0.000000 0.000000 0.000000 0.000000 -60.708740 0.000000 61.000000 0.907474 0.381568 0.175778
-16250.00000000 8860.00000000 -1420.00000000 55 78 189 0.000000 0.000000 0.000000 0.000000 -60.708740 0.000000 61.000000 0.905343 0.424583 -0.009145
-16220.00000000 8880.00000000 -1430.00000000 55 78 189 0.000000 0.000000 0.000000 0.000000 -60.708740 0.000000 61.000000 0.978384 0.204668 0.029576
-16220.00000000 8860.00000000 -1410.00000000 55 78 189 0.000000 0.000000 0.000000 0.000000 -60.708740 0.000000 61.000000 0.958652 0.250482 -0.135077
-16230.00000000 8850.00000000 -1370.00000000 55 78 189 0.000000 0.000000 0.000000 0.000000 -60.708740 0.000000 61.000000 0.928656 0.311431 0.201514
-16230.00000000 8850.00000000 -1370.00000000 55 78 189 0.000000 0.000000 0.000000 0.000000 -60.708740 0.000000 61.000000 0.928656 0.311431 0.201514
-16250.00000000 8890.00000000 -1490.00000000 55 78 189 0.000000 0.000000 0.000000 0.000000 -60.708740 0.000000 61.000000 0.822511 0.506518 -0.258680
-16220.00000000 8880.00000000 -1490.00000000 55 78 189 0.000000 0.000000 0.000000 0.000000 -60.708740 0.000000 61.000000 0.921290 0.315667 -0.227109
-16220.00000000 8860.00000000 -1460.00000000 55 78 189 0.000000 0.000000 0.000000 0.000000 -60.708740 0.000000 61.000000 0.958363 0.094160 0.269580
-16230.00000000 8890.00000000 -1490.00000000 55 78 189 0.000000 0.000000 0.000000 0.000000 -60.708740 0.000000 61.000000 0.810453 0.538758 -0.230014
-16220.00000000 8880.00000000 -1460.00000000 55 78 189 0.000000 0.000000 0.000000 0.000000 -60.708740 0.000000 61.000000 0.776977 0.518523 0.356989
-16220.00000000 8880.00000000 -1470.00000000 55 78 189 0.000000 0.000000 0.000000 0.000000 -60.708740 0.000000 61.000000 0.833601 0.511700 -0.208021
-16220.00000000 8830.00000000 -1490.00000000 55 78 189 0.000000 0.000000 0.000000 0.000000 -60.708740 0.000000 61.000000 0.756799 0.650127 -0.067752
-16220.00000000 8830.00000000 -1500.00000000 55 78 189 0.000000 0.000000 0.000000 0.000000 -60.708740 0.000000 61.000000 0.804421 0.579243 0.131848
-16210.00000000 8880.00000000 -1590.00000000 55 78 189 0.000000 0.000000 0.000000 0.000000 -60.708740 0.000000 61.000000 0.995054 -0.047489 0.087247
-16210.00000000 8860.00000000 -1610.00000000 55 78 189 0.000000 0.000000 0.000000 0.000000 -60.708740 0.000000 61.000000 0.961308 0.145177 -0.234115
-16210.00000000 8840.00000000 -1550.00000000 55 78 189 0.000000 0.000000 0.000000 0.000000 -60.708740 0.000000 61.000000 0.985978 0.162981 0.035833
-16210.00000000 8820.00000000 -1560.00000000 55 78 189 0.000000 0.000000 0.000000 0.000000 -60.708740 0.000000 61.000000 0.814661 0.570698 0.103103
-16210.00000000 8820.00000000 -1540.00000000 55 78 189 0.000000 0.000000 0.000000 0.000000 -60.708740 0.000000 61.000000 0.775551 0.623654 -0.097857
-16200.00000000 8840.00000000 -1550.00000000 55 78 189 0.000000 0.000000 0.000000 0.000000 -60.708740 0.000000 61.000000 0.987483 0.139396 0.073798
-16200.00000000 8820.00000000 -1550.00000000 55 78 189 0.000000 0.000000 0.000000 0.000000 -60.708740 0.000000 61.000000 0.850640 0.524216 0.040111
-16210.00000000 8830.00000000 -1550.00000000 55 78 189 0.000000 0.000000 0.000000 0.000000 -60.708740 0.000000 61.000000 0.774902 0.630931 -0.038110
-16200.00000000 8830.00000000 -1600.00000000 55 78 189 0.000000 0.000000 0.000000 0.000000 -60.708740 0.000000 61.000000 0.906509 0.418907 -0.052532
-16210.00000000 8850.00000000 -1610.00000000 55 78 189 0.000000 0.000000 0.000000 0.000000 -60.708740 0.000000 61.000000 0.928563 0.345288 0.136189
-16200.00000000 8820.00000000 -1600.00000000 55 78 189 0.000000 0.000000 0.000000 0.000000 -60.708740 0.000000 61.000000 0.922233 0.363639 -0.131352
-16180.00000000 8810.00000000 -1610.00000000 55 78 189 0.000000 0.000000 0.000000 0.000000 -60.708740 0.000000 61.000000 0.624305 0.780730 0.026536
-16210.00000000 8830.00000000 -1620.00000000 55 78 189 0.000000 0.000000 0.000000 0.000000 -60.708740 0.000000 61.000000 0.780828 0.611920 0.125940
-16200.00000000 8830.00000000 -1610.00000000 55 78 189 0.000000 0.000000 0.000000 0.000000 -60.708740 0.000000 61.000000 0.879816 0.463285 -0.106258
-16210.00000000 8840.00000000 -1620.00000000 55 78 189 0.000000 0.000000 0.000000 0.000000 -60.708740 0.000000 61.000000 0.878281 0.475450 -0.050696
-16200.00000000 8840.00000000 -1610.00000000 55 78 189 0.000000 0.000000 0.000000 0.000000 -60.708740 0.000000 61.000000 0.949256 0.306922 -0.068637
-16210.00000000 8840.00000000 -1600.00000000 55 78 189 0.000000 0.000000 0.000000 0.000000 -60.708740 0.000000 61.000000 0.853144 0.463831 0.238759
-16200.00000000 8830.00000000 -1590.00000000 55 78 189 0.000000 0.000000 0.000000 0.000000 -60.708740 0.000000 61.000000 0.835590 0.535186 -0.123953
-16210.00000000 8840.00000000 -1600.00000000 55 78 189 0.000000 0.000000 0.000000 0.000000 -60.708740 0.000000 61.000000 0.853144 0.463831 0.238759
-16250.00000000 8860.00000000 -1540.00000000 55 78 189 0.000000 0.000000 0.000000 0.000000 -60.708740 0.000000 61.000000 0.995210 0.051914 -0.082842
-16220.00000000 8860.00000000 -1570.00000000 55 78 189 0.000000 0.000000 0.000000 0.000000 -60.708740 0.000000 61.000000 0.739197 0.597478 0.310817
-16240.00000000 8840.00000000 -1540.00000000 55 78 189 0.000000 0.000000 0.000000 0.000000 -60.708740 0.000000 61.000000 0.783358 0.563578 0.262166
-16200.00000000 8800.00000000 -1590.00000000 55 78 189 0.000000 0.000000 0.000000 0.000000 -60.708740 0.000000 61.000000 0.824810 0.506028 0.252240
-16210.00000000 8800.00000000 -1570.00000000 55 78 189 0.000000 0.000000 0.000000 0.000000 -60.708740 0.000000 61.000000 0.987654 0.152564 -0.035560
-16200.00000000 8800.00000000 -1600.00000000 55 78 189 0.000000 0.000000 0.000000 0.000000 -60.708740 0.000000 61.000000 0.833292 0.426885 0.351274
-15900.00000000 9400.00000000 40.00000000 55 78 189 0.000000 0.000000 0.000000 0.000000 -60.708740 0.000000 61.000000 0.546315 0.824655 -0.146572
-15890.00000000 9410.00000000 20.00000000 55 78 189 0.000000 0.000000 0.000000 0.000000 -60.708740 0.000000 61.000000 0.595718 0.767710 0.236098
-16090.00000000 9420.00000000 50.00000000 55 78 189 0.000000 0.000000 0.000000 0.000000 -60.708740 0.000000 61.000000 0.031380 0.984392 -0.173169
-16130.00000000 9440.00000000 10.00000000 55 78 189 0.000000 0.000000 0.000000 0.000000 -60.708740 0.000000 61.000000 -0.024675 0.923371 -0.383115
-16160.00000000 9450.00000000 0.00000000 55 78 189 0.000000 0.000000 0.000000 0.000000 -60.708740 0.000000 61.000000 -0.220795 0.940116 -0.259677
-16150.00000000 9440.00000000 30.00000000 55 78 189 0.000000 0.000000 0.000000 0.000000 -60.708740 0.000000 61.000000 -0.288796 0.957327 -0.011060
-15870.00000000 9390.00000000 0.00000000 55 78 189 0.000000 0.000000 0.000000 0.000000 -60.708740 0.000000 61.000000 0.867605 0.490752 -0.080151
-15920.00000000 9380.00000000 50.00000000 55 78 189 0.000000 0.000000 0.000000 0.000000 -60.708740 0.000000 61.000000 0.729501 0.641647 0.236892
-15920.00000000 9380.00000000 50.00000000 55 78 189 0.000000 0.000000 0.000000 0.000000 -60.708740 0.000000 61.000000 0.729501 0.641647 0.236892
-15920.00000000 9380.00000000 40.00000000 55 78 189 0.000000 0.000000 0.000000 0.000000 -60.708740 0.000000 61.000000 0.486094 0.868733 0.094951
-15950.00000000 9370.00000000 10.00000000 55 78 189 0.000000 0.000000 0.000000 0.000000 -60.708740 0.000000 61.000000 0.323133 0.936678 -0.134980
-15940.00000000 9390.00000000 20.00000000 55 78 189 0.000000 0.000000 0.000000 0.000000 -60.708740 0.000000 61.000000 0.512110 0.858893 0.006721
-15960.00000000 9370.00000000 10.00000000 55 78 189 0.000000 0.000000 0.000000 0.000000 -60.708740 0.000000 61.000000 0.268409 0.961483 0.059226
-15970.00000000 9360.00000000 60.00000000 55 78 189 0.000000 0.000000 0.000000 0.000000 -60.708740 0.000000 61.000000 0.484131 0.841502 -0.239775
-15980.00000000 9370.00000000 -10.00000000 55 78 189 0.000000 0.000000 0.000000 0.000000 -60.708740 0.000000 61.000000 0.229460 0.938700 0.257273
-16000.00000000 9370.00000000 10.00000000 55 78 189 0.000000 0.000000 0.000000 0.000000 -60.708740 0.000000 61.000000 0.693797 0.705836 0.142973
-15980.00000000 9340.00000000 50.00000000 55 78 189 0.000000 0.000000 0.000000 0.000000 -60.708740 0.000000 61.000000 0.524122 0.846878 -0.089972
-16010.00000000 9380.00000000 20.00000000 55 78 189 0.000000 0.000000 0.000000 0.000000 -60.708740 0.000000 61.000000 0.715375 0.698706 -0.006945
-16050.00000000 9300.00000000 80.00000000 55 78 189 0.000000 0.000000 0.000000 0.000000 -60.708740 0.000000 61.000000 0.541948 0.832537 0.114783
-16030.00000000 9310.00000000 40.00000000 55 78 189 0.000000 0.000000 0.000000 0.000000 -60.708740 0.000000 61.000000 0.237687 0.959940 -0.148390
-16030.00000000 9310.00000000 40.00000000 55 78 189 0.000000 0.000000 0.000000 0.000000 -60.708740 0.000000 61.000000 0.237687 0.959940 -0.148390
-16040.00000000 9310.00000000 30.00000000 55 78 189 0.000000 0.000000 0.000000 0.000000 -60.708740 0.000000 61.000000 0.058861 0.989091 -0.135033
-16090.00000000 9240.00000000 20.00000000 55 78 189 0.000000 0.000000 0.000000 0.000000 -60.708740 0.000000 61.000000 0.087791 0.947352 0.307922
-16120.00000000 9390.00000000 30.00000000 55 78 189 0.000000 0.000000 0.000000 0.000000 -60.708740 0.000000 61.000000 -0.005439 0.993188 0.116398
-16160.00000000 9390.00000000 40.00000000 55 78 189 0.000000 0.000000 0.000000 0.000000 -60.708740 0.000000 61.000000 -0.207227 0.974090 -0.090584
-16120.00000000 9250.00000000 90.00000000 55 78 189 0.000000 0.000000 0.000000 0.000000 -60.708740 0.000000 61.000000 -0.451687 0.771293 -0.448426
-16110.00000000 9220.00000000 30.00000000 55 78 189 0.000000 0.000000 0.000000 0.000000 -60.708740 0.000000 61.000000 0.715937 -0.689257 0.111170
-16120.00000000 9190.00000000 40.00000000 55 78 189 0.000000 0.000000 0.000000 0.000000 -60.708740 0.000000 61.000000 0.891642 -0.282279 0.353968
-16100.00000000 9170.00000000 30.00000000 55 78 189 0.000000 0.000000 0.000000 0.000000 -60.708740 0.000000 61.000000 0.593324 0.804531 0.026401
-16410.00000000 9550.00000000 -10.00000000 55 78 189 0.000000 0.000000 0.000000 0.000000 -60.708740 0.000000 61.000000 0.825414 -0.432511 0.362802
-16400.00000000 9560.00000000 -10.00000000 55 78 189 0.000000 0.000000 0.000000 0.000000 -60.708740 0.000000 61.000000 -0.672594 0.739714 -0.020975
-16210.00000000 9120.00000000 70.00000000 55 78 189 0.000000 0.000000 0.000000 0.000000 -60.708740 0.000000 61.000000 0.768575 0.571260 -0.288017
-16240.00000000 9100.00000000 50.00000000 55 78 189 0.000000 0.000000 0.000000 0.000000 -60.708740 0.000000 61.000000 0.703926 0.537513 0.464292
-16240.00000000 9100.00000000 50.00000000 55 78 189 0.000000 0.000000 0.000000 0.000000 -60.708740 0.000000 61.000000 0.703926 0.537513 0.464292
-16230.00000000 9100.00000000 30.00000000 55 78 189 0.000000 0.000000 0.000000 0.000000 -60.708740 0.000000 61.000000 0.883854 0.426536 0.192015
-16230.00000000 9070.00000000 0.00000000 55 78 189 0.000000 0.000000 0.000000 0.000000 -60.708740 0.000000 61.000000 0.972083 0.234394 -0.010708
-16230.00000000 9070.00000000 10.00000000 55 78 189 0.000000 0.000000 0.000000 0.000000 -60.708740 0.000000 61.000000 0.891936 0.321217 0.318229
-16280.00000000 9110.00000000 -10.00000000 55 78 189 0.000000 0.000000 0.000000 0.000000 -60.708740 0.000000 61.000000 0.888225 0.245489 0.388319
-16270.00000000 9100.00000000 -10.00000000 55 78 189 0.000000 0.000000 0.000000 0.000000 -60.708740 0.000000 61.000000 0.708486 0.705724 -0.001381
-16330.00000000 9070.00000000 30.00000000 55 78 189 0.000000 0.000000 0.000000 0.000000 -60.708740 0.000000 61.000000 0.935934 0.250422 0.247624
-16330.00000000 9070.00000000 30.00000000 55 78 189 0.000000 0.000000 0.000000 0.000000 -60.708740 0.000000 61.000000 0.935934 0.250422 0.247624
-16310.00000000 9080.00000000 -10.00000000 55 78 189 0.000000 0.000000 0.000000 0.000000 -60.708740 0.000000 61.000000 0.930194 0.232902 0.283716
-16350.00000000 9090.00000000 10.00000000 55 78 189 0.000000 0.000000 0.000000 0.000000 -60.708740 0.000000 61.000000 0.837402 0.384922 0.388064
-16250.00000000 9040.00000000 30.00000000 55 78 189 0.000000 0.000000 0.000000 0.000000 -60.708740 0.000000 61.000000 0.630440 0.760458 0.155720
-16260.00000000 9050.00000000 30.00000000 55 78 189 0.000000 0.000000 0.000000 0.000000 -60.708740 0.000000 61.000000 0.497907 0.834952 0.234399
-16240.00000000 9000.00000000 40.00000000 55 78 189 0.000000 0.000000 0.000000 0.000000 -60.708740 0.000000 61.000000 0.713373 0.636425 0.293365
-16310.00000000 9030.00000000 70.00000000 55 78 189 0.000000 0.000000 0.000000 0.000000 -60.708740 0.000000 61.000000 0.769152 0.512226 0.382137
-16270.00000000 9060.00000000 40.00000000 55 78 189 0.000000 0.000000 0.000000 0.000000 -60.708740 0.000000 61.000000 0.720965 0.648395 0.244528
-16330.00000000 9040.00000000 30.00000000 55 78 189 0.000000 0.000000 0.000000 0.000000 -60.708740 0.000000 61.000000 0.855979 0.459047 0.237856
-16330.00000000 9020.00000000 50.00000000 55 78 189 0.000000 0.000000 0.000000 0.000000 -60.708740 0.000000 61.000000 0.573514 0.800499 0.174021
-16330.00000000 9060.00000000 0.00000000 55 78 189 0.000000 0.000000 0.000000 0.000000 -60.708740 0.000000 61.000000 0.992717 0.111301 0.046094
-16320.00000000 9010.00000000 40.00000000 55 78 189 0.000000 0.000000 0.000000 0.000000 -60.708740 0.000000 61.000000 0.489460 0.867486 -0.088864
-16330.00000000 9000.00000000 60.00000000 55 78 189 0.000000 0.000000 0.000000 0.000000 -60.708740 0.000000 61.000000 0.939241 0.330793 0.091666
-16310.00000000 9010.00000000 20.00000000 55 78 189 0.000000 0.000000 0.000000 0.000000 -60.708740 0.000000 61.000000 0.709155 0.587398 0.389953
-15820.00000000 9400.00000000 -210.00000000 55 78 189 0.000000 0.000000 0.000000 0.000000 -60.708740 0.000000 61.000000 0.866595 0.489321 -0.097864
-15810.00000000 9430.00000000 -340.00000000 55 78 189 0.000000 0.000000 0.000000 0.000000 -60.708740 0.000000 61.000000 0.370284 0.925037 -0.084829
-15820.00000000 9430.00000000 -340.00000000 55 78 189 0.000000 0.000000 0.000000 0.000000 -60.708740 0.000000 61.000000 0.416592 0.859318 -0.296688
-15750.00000000 9400.00000000 -430.00000000 55 78 189 0.000000 0.000000 0.000000 0.000000 -60.708740 0.000000 61.000000 0.807376 0.554022 0.202989
-15740.00000000 9400.00000000 -480.00000000 55 78 189 0.000000 0.000000 0.000000 0.000000 -60.708740 0.000000 61.000000 0.437964 0.898558 0.027955
-15750.00000000 9410.00000000 -450.00000000 55 78 189 0.000000 0.000000 0.000000 0.000000 -60.708740 0.000000 61.000000 0.826433 0.502039 0.254881
-15820.00000000 9520.00000000 -390.00000000 55 78 189 0.000000 0.000000 0.000000 0.000000 -60.708740 0.000000 61.000000 0.329563 0.900018 -0.285228
-15760.00000000 9410.00000000 -440.00000000 55 78 189 0.000000 0.000000 0.000000 0.000000 -60.708740 0.000000 61.000000 0.597991 0.730878 -0.328976
-15820.00000000 9420.00000000 -370.00000000 55 78 189 0.000000 0.000000 0.000000 0.000000 -60.708740 0.000000 61.000000 0.552261 0.830521 -0.072404
-15800.00000000 9410.00000000 -390.00000000 55 78 189 0.000000 0.000000 0.000000 0.000000 -60.708740 0.000000 61.000000 0.634617 0.762432 0.126329
-15810.00000000 9410.00000000 -410.00000000 55 78 189 0.000000 0.000000 0.000000 0.000000 -60.708740 0.000000 61.000000 0.422027 0.906235 -0.025136
-15810.00000000 9410.00000000 -410.00000000 55 78 189 0.000000 0.000000 0.000000 0.000000 -60.708740 0.000000 61.000000 0.422027 0.906235 -0.025136
-15830.00000000 9420.00000000 -480.00000000 55 78 189 0.000000 0.000000 0.000000 0.000000 -60.708740 0.000000 61.000000 0.534565 0.829395 0.162305
-15730.00000000 9410.00000000 -530.00000000 55 78 189 0.000000 0.000000 0.000000 0.000000 -60.708740 0.000000 61.000000 0.703898 0.685415 -0.186371
-15700.00000000 9460.00000000 -640.00000000 55 78 189 0.000000 0.000000 0.000000 0.000000 -60.708740 0.000000 61.000000 0.861614 0.506591 -0.031406
-15760.00000000 9410.00000000 -530.00000000 55 78 189 0.000000 0.000000 0.000000 0.000000 -60.708740 0.000000 61.000000 0.727551 0.622016 -0.289421
-15760.00000000 9410.00000000 -620.00000000 55 78 189 0.000000 0.000000 0.000000 0.000000 -60.708740 0.000000 61.000000 0.268265 0.956594 -0.113849
-15830.00000000 9350.00000000 -290.00000000 55 78 189 0.000000 0.000000 0.000000 0.000000 -60.708740 0.000000 61.000000 0.677031 0.614128 0.405556
-15790.00000000 9360.00000000 -300.00000000 55 78 189 0.000000 0.000000 0.000000 0.000000 -60.708740 0.000000 61.000000 0.486818 0.840867 -0.236541
-15760.00000000 9390.00000000 -550.00000000 55 78 189 0.000000 0.000000 0.000000 0.000000 -60.708740 0.000000 61.000000 0.553762 0.832674 0.001354
-15850.00000000 9640.00000000 -340.00000000 55 78 189 0.000000 0.000000 0.000000 0.000000 -60.708740 0.000000 61.000000 0.554866 0.758694 -0.341331
-15850.00000000 9580.00000000 -310.00000000 55 78 189 0.000000 0.000000 0.000000 0.000000 -60.708740 0.000000 61.000000 0.356465 0.932595 -0.056561
-15850.00000000 9570.00000000 -310.00000000 55 78 189 0.000000 0.000000 0.000000 0.000000 -60.708740 0.000000 61.000000 0.631280 0.708778 -0.314833
-15840.00000000 9580.00000000 -310.00000000 55 78 189 0.000000 0.000000 0.000000 0.000000 -60.708740 0.000000 61.000000 0.546234 0.821596 0.163122
-15840.00000000 9590.00000000 -320.00000000 55 78 189 0.000000 0.000000 0.000000 0.000000 -60.708740 0.000000 61.000000 0.249465 0.947423 0.200390
-15850.00000000 9580.00000000 -330.00000000 55 78 189 0.000000 0.000000 0.000000 0.000000 -60.708740 0.000000 61.000000 0.613401 0.761729 -0.208587
-15860.00000000 9580.00000000 -320.00000000 55 78 189 0.000000 0.000000 0.000000 0.000000 -60.708740 0.000000 61.000000 0.557919 0.826176 0.078480
-15860.00000000 9590.00000000 -330.00000000 55 78 189 0.000000 0.000000 0.000000 0.000000 -60.708740 0.000000 61.000000 0.497004 0.812563 0.304514
-15900.00000000 9610.00000000 -320.00000000 55 78 189 0.000000 0.000000 0.000000 0.000000 -60.708740 0.000000 61.000000 0.314333 0.920033 -0.233955
