//X Y Z R G B PointSourceId ScanDirectionFlag NumberOfReturns ReturnNumber GpsTime Intensity Classification Nx Ny Nz
18020.00000000 12790.00000000 -900.00000000 51 98 181 97.000000 1.000000 4.000000 1.000000 -60.708740 114.000000 229.000000 0.527643 0.574844 0.625417
17980.00000000 13000.00000000 -950.00000000 51 98 181 97.000000 1.000000 4.000000 1.000000 -60.708740 114.000000 229.000000 0.828279 0.191605 0.526538
17980.00000000 12980.00000000 -960.00000000 51 98 181 97.000000 1.000000 4.000000 1.000000 -60.708740 114.000000 229.000000 0.857124 0.332039 0.393814
17990.00000000 13000.00000000 -1010.00000000 51 98 181 97.000000 1.000000 4.000000 1.000000 -60.708740 114.000000 229.000000 0.895595 0.072913 0.438855
18010.00000000 12980.00000000 -1030.00000000 51 98 181 97.000000 1.000000 4.000000 1.000000 -60.708740 114.000000 229.000000 0.939942 -0.131186 0.315117
18010.00000000 12980.00000000 -1030.00000000 51 98 181 97.000000 1.000000 4.000000 1.000000 -60.708740 114.000000 229.000000 0.939942 -0.131186 0.315117
17930.00000000 12980.00000000 -910.00000000 51 98 181 97.000000 1.000000 4.000000 1.000000 -60.708740 114.000000 229.000000 0.808520 0.473630 0.349242
17920.00000000 12950.00000000 -870.00000000 51 98 181 97.000000 1.000000 4.000000 1.000000 -60.708740 114.000000 229.000000 0.863088 0.295872 0.409315
17930.00000000 12960.00000000 -870.00000000 51 98 181 97.000000 1.000000 4.000000 1.000000 -60.708740 114.000000 229.000000 0.607425 0.285378 0.741346
17930.00000000 12940.00000000 -880.00000000 51 98 181 97.000000 1.000000 4.000000 1.000000 -60.708740 114.000000 229.000000 0.776516 0.155303 0.610658
17860.00000000 12940.00000000 -870.00000000 51 98 181 97.000000 1.000000 4.000000 1.000000 -60.708740 114.000000 229.000000 0.604296 0.055453 0.794828
17860.00000000 12940.00000000 -870.00000000 51 98 181 97.000000 1.000000 4.000000 1.000000 -60.708740 114.000000 229.000000 0.604296 0.055453 0.794828
17940.00000000 12870.00000000 -820.00000000 51 98 181 97.000000 1.000000 4.000000 1.000000 -60.708740 114.000000 229.000000 0.504844 -0.051176 0.861692
17980.00000000 12810.00000000 -810.00000000 51 98 181 97.000000 1.000000 4.000000 1.000000 -60.708740 114.000000 229.000000 0.813028 0.147148 0.563323
17960.00000000 12850.00000000 -820.00000000 51 98 181 97.000000 1.000000 4.000000 1.000000 -60.708740 114.000000 229.000000 0.825872 -0.009556 0.563777
17950.00000000 12780.00000000 -810.00000000 51 98 181 97.000000 1.000000 4.000000 1.000000 -60.708740 114.000000 229.000000 0.388771 0.251733 0.886278
17940.00000000 12790.00000000 -820.00000000 51 98 181 97.000000 1.000000 4.000000 1.000000 -60.708740 114.000000 229.000000 0.696993 0.213620 0.684519
17960.00000000 12790.00000000 -820.00000000 51 98 181 97.000000 1.000000 4.000000 1.000000 -60.708740 114.000000 229.000000 0.573091 0.539280 0.617045
17920.00000000 12900.00000000 -860.00000000 51 98 181 97.000000 1.000000 4.000000 1.000000 -60.708740 114.000000 229.000000 0.323187 -0.074582 0.943392
17900.00000000 12930.00000000 -860.00000000 51 98 181 97.000000 1.000000 4.000000 1.000000 -60.708740 114.000000 229.000000 0.740797 -0.061853 0.668875
17900.00000000 12880.00000000 -810.00000000 51 98 181 97.000000 1.000000 4.000000 1.000000 -60.708740 114.000000 229.000000 0.692573 -0.107799 0.713247
17900.00000000 12890.00000000 -800.00000000 51 98 181 97.000000 1.000000 4.000000 1.000000 -60.708740 114.000000 229.000000 0.654323 -0.029550 0.755638
17900.00000000 12860.00000000 -860.00000000 51 98 181 97.000000 1.000000 4.000000 1.000000 -60.708740 114.000000 229.000000 0.446617 -0.017229 0.894559
17930.00000000 12880.00000000 -860.00000000 51 98 181 97.000000 1.000000 4.000000 1.000000 -60.708740 114.000000 229.000000 0.379777 0.210987 0.900696
17880.00000000 12900.00000000 -860.00000000 51 98 181 97.000000 1.000000 4.000000 1.000000 -60.708740 114.000000 229.000000 0.269598 -0.151565 0.950971
17860.00000000 12930.00000000 -860.00000000 51 98 181 97.000000 1.000000 4.000000 1.000000 -60.708740 114.000000 229.000000 0.372037 0.250495 0.893779
17890.00000000 12780.00000000 -750.00000000 51 98 181 97.000000 1.000000 4.000000 1.000000 -60.708740 114.000000 229.000000 0.306605 0.003694 0.951830
17920.00000000 12830.00000000 -800.00000000 51 98 181 97.000000 1.000000 4.000000 1.000000 -60.708740 114.000000 229.000000 0.223479 -0.052511 0.973293
17910.00000000 12780.00000000 -790.00000000 51 98 181 97.000000 1.000000 4.000000 1.000000 -60.708740 114.000000 229.000000 0.241853 -0.211792 0.946917
17920.00000000 12800.00000000 -840.00000000 51 98 181 97.000000 1.000000 4.000000 1.000000 -60.708740 114.000000 229.000000 0.716571 -0.101526 0.690086
17900.00000000 12790.00000000 -860.00000000 51 98 181 97.000000 1.000000 4.000000 1.000000 -60.708740 114.000000 229.000000 0.381613 0.323375 0.865910
17850.00000000 12830.00000000 -860.00000000 51 98 181 97.000000 1.000000 4.000000 1.000000 -60.708740 114.000000 229.000000 0.127915 0.061077 0.989903
17850.00000000 12830.00000000 -850.00000000 51 98 181 97.000000 1.000000 4.000000 1.000000 -60.708740 114.000000 229.000000 0.102459 0.315362 0.943424
18000.00000000 12920.00000000 -910.00000000 51 98 181 97.000000 1.000000 4.000000 1.000000 -60.708740 114.000000 229.000000 0.631916 0.527439 0.567882
17990.00000000 12920.00000000 -910.00000000 51 98 181 97.000000 1.000000 4.000000 1.000000 -60.708740 114.000000 229.000000 0.616770 0.582974 0.528901
18010.00000000 12920.00000000 -930.00000000 51 98 181 97.000000 1.000000 4.000000 1.000000 -60.708740 114.000000 229.000000 0.876349 0.257042 0.407359
18000.00000000 12920.00000000 -930.00000000 51 98 181 97.000000 1.000000 4.000000 1.000000 -60.708740 114.000000 229.000000 0.771432 0.484388 0.412627
17980.00000000 12860.00000000 -900.00000000 51 98 181 97.000000 1.000000 4.000000 1.000000 -60.708740 114.000000 229.000000 0.515126 0.025961 0.856721
18000.00000000 12860.00000000 -900.00000000 51 98 181 97.000000 1.000000 4.000000 1.000000 -60.708740 114.000000 229.000000 0.525069 0.400753 0.750799
17990.00000000 12880.00000000 -900.00000000 51 98 181 97.000000 1.000000 4.000000 1.000000 -60.708740 114.000000 229.000000 0.684429 -0.114319 0.720061
17990.00000000 12880.00000000 -910.00000000 51 98 181 97.000000 1.000000 4.000000 1.000000 -60.708740 114.000000 229.000000 0.730129 -0.089254 0.677455
17990.00000000 12890.00000000 -910.00000000 51 98 181 97.000000 1.000000 4.000000 1.000000 -60.708740 114.000000 229.000000 0.838024 -0.145807 0.525790
17960.00000000 12910.00000000 -900.00000000 51 98 181 97.000000 1.000000 4.000000 1.000000 -60.708740 114.000000 229.000000 0.667015 0.311705 0.676706
17960.00000000 12900.00000000 -880.00000000 51 98 181 97.000000 1.000000 4.000000 1.000000 -60.708740 114.000000 229.000000 0.585266 0.103626 0.804193
17960.00000000 12930.00000000 -890.00000000 51 98 181 97.000000 1.000000 4.000000 1.000000 -60.708740 114.000000 229.000000 0.559526 0.469334 0.683123
17970.00000000 12910.00000000 -890.00000000 51 98 181 97.000000 1.000000 4.000000 1.000000 -60.708740 114.000000 229.000000 0.577731 -0.109696 0.808823
17960.00000000 12930.00000000 -890.00000000 51 98 181 97.000000 1.000000 4.000000 1.000000 -60.708740 114.000000 229.000000 0.559526 0.469334 0.683123
17970.00000000 12900.00000000 -890.00000000 51 98 181 97.000000 1.000000 4.000000 1.000000 -60.708740 114.000000 229.000000 0.643899 -0.029459 0.764543
17960.00000000 12920.00000000 -890.00000000 51 98 181 97.000000 1.000000 4.000000 1.000000 -60.708740 114.000000 229.000000 0.728933 0.282322 0.623660
17970.00000000 12910.00000000 -890.00000000 51 98 181 97.000000 1.000000 4.000000 1.000000 -60.708740 114.000000 229.000000 0.577731 -0.109696 0.808823
17950.00000000 12910.00000000 -880.00000000 51 98 181 97.000000 1.000000 4.000000 1.000000 -60.708740 114.000000 229.000000 0.518339 -0.114063 0.847534
17970.00000000 12890.00000000 -900.00000000 51 98 181 97.000000 1.000000 4.000000 1.000000 -60.708740 114.000000 229.000000 0.472133 -0.014712 0.881404
17940.00000000 12860.00000000 -870.00000000 51 98 181 97.000000 1.000000 4.000000 1.000000 -60.708740 114.000000 229.000000 0.411106 0.077851 0.908257
17970.00000000 12880.00000000 -890.00000000 51 98 181 97.000000 1.000000 4.000000 1.000000 -60.708740 114.000000 229.000000 0.692342 -0.127104 0.710286
17950.00000000 12890.00000000 -880.00000000 51 98 181 97.000000 1.000000 4.000000 1.000000 -60.708740 114.000000 229.000000 0.604030 0.253913 0.755431
17960.00000000 12880.00000000 -890.00000000 51 98 181 97.000000 1.000000 4.000000 1.000000 -60.708740 114.000000 229.000000 0.770352 0.006915 0.637581
17970.00000000 12890.00000000 -880.00000000 51 98 181 97.000000 1.000000 4.000000 1.000000 -60.708740 114.000000 229.000000 0.814654 0.001365 0.579946
17960.00000000 12860.00000000 -880.00000000 51 98 181 97.000000 1.000000 4.000000 1.000000 -60.708740 114.000000 229.000000 0.782573 0.055593 0.620072
17970.00000000 12870.00000000 -900.00000000 51 98 181 97.000000 1.000000 4.000000 1.000000 -60.708740 114.000000 229.000000 0.619822 0.001374 0.784741
17950.00000000 12880.00000000 -870.00000000 51 98 181 97.000000 1.000000 4.000000 1.000000 -60.708740 114.000000 229.000000 0.375057 0.220364 0.900429
17950.00000000 12870.00000000 -870.00000000 51 98 181 97.000000 1.000000 4.000000 1.000000 -60.708740 114.000000 229.000000 0.778326 0.023755 0.627411
17950.00000000 12880.00000000 -880.00000000 51 98 181 97.000000 1.000000 4.000000 1.000000 -60.708740 114.000000 229.000000 0.728909 0.175733 0.661672
17970.00000000 12860.00000000 -900.00000000 51 98 181 97.000000 1.000000 4.000000 1.000000 -60.708740 114.000000 229.000000 0.808981 0.063979 0.584343
17970.00000000 12860.00000000 -890.00000000 51 98 181 97.000000 1.000000 4.000000 1.000000 -60.708740 114.000000 229.000000 0.692188 0.251849 0.676349
17970.00000000 12860.00000000 -880.00000000 51 98 181 97.000000 1.000000 4.000000 1.000000 -60.708740 114.000000 229.000000 0.723666 0.322169 0.610340
18000.00000000 12920.00000000 -950.00000000 51 98 181 97.000000 1.000000 4.000000 1.000000 -60.708740 114.000000 229.000000 0.748674 0.349164 0.563535
17980.00000000 12830.00000000 -880.00000000 51 98 181 97.000000 1.000000 4.000000 1.000000 -60.708740 114.000000 229.000000 0.625069 0.098079 0.774383
17990.00000000 12810.00000000 -890.00000000 51 98 181 97.000000 1.000000 4.000000 1.000000 -60.708740 114.000000 229.000000 0.811614 0.421015 0.405006
17980.00000000 12830.00000000 -900.00000000 51 98 181 97.000000 1.000000 4.000000 1.000000 -60.708740 114.000000 229.000000 0.594493 0.510287 0.621439
17990.00000000 12840.00000000 -940.00000000 51 98 181 97.000000 1.000000 4.000000 1.000000 -60.708740 114.000000 229.000000 0.699588 -0.159342 0.696553
17990.00000000 12770.00000000 -890.00000000 51 98 181 97.000000 1.000000 4.000000 1.000000 -60.708740 114.000000 229.000000 0.563643 -0.034793 0.825285
18000.00000000 12790.00000000 -900.00000000 51 98 181 97.000000 1.000000 4.000000 1.000000 -60.708740 114.000000 229.000000 0.654485 0.169342 0.736867
17980.00000000 12800.00000000 -880.00000000 51 98 181 97.000000 1.000000 4.000000 1.000000 -60.708740 114.000000 229.000000 0.796645 0.035002 0.603434
17990.00000000 12780.00000000 -900.00000000 51 98 181 97.000000 1.000000 4.000000 1.000000 -60.708740 114.000000 229.000000 0.781689 -0.018050 0.623407
18000.00000000 12800.00000000 -890.00000000 51 98 181 97.000000 1.000000 4.000000 1.000000 -60.708740 114.000000 229.000000 0.893792 0.338716 0.293952
17980.00000000 12790.00000000 -880.00000000 51 98 181 97.000000 1.000000 4.000000 1.000000 -60.708740 114.000000 229.000000 0.612460 -0.020832 0.790227
17990.00000000 12770.00000000 -900.00000000 51 98 181 97.000000 1.000000 4.000000 1.000000 -60.708740 114.000000 229.000000 0.738223 0.095397 0.667777
17990.00000000 12800.00000000 -890.00000000 51 98 181 97.000000 1.000000 4.000000 1.000000 -60.708740 114.000000 229.000000 0.837498 0.430490 0.336565
18000.00000000 12800.00000000 -890.00000000 51 98 181 97.000000 1.000000 4.000000 1.000000 -60.708740 114.000000 229.000000 0.893792 0.338716 0.293952
17970.00000000 12840.00000000 -870.00000000 51 98 181 97.000000 1.000000 4.000000 1.000000 -60.708740 114.000000 229.000000 0.844214 0.155241 0.513034
17970.00000000 12810.00000000 -880.00000000 51 98 181 97.000000 1.000000 4.000000 1.000000 -60.708740 114.000000 229.000000 0.467504 0.140396 0.872771
17960.00000000 12810.00000000 -890.00000000 51 98 181 97.000000 1.000000 4.000000 1.000000 -60.708740 114.000000 229.000000 0.538548 -0.105399 0.835977
17970.00000000 12830.00000000 -870.00000000 51 98 181 97.000000 1.000000 4.000000 1.000000 -60.708740 114.000000 229.000000 0.714450 0.058939 0.697200
17970.00000000 12850.00000000 -880.00000000 51 98 181 97.000000 1.000000 4.000000 1.000000 -60.708740 114.000000 229.000000 0.875664 0.292900 0.383957
17970.00000000 12840.00000000 -870.00000000 51 98 181 97.000000 1.000000 4.000000 1.000000 -60.708740 114.000000 229.000000 0.844214 0.155241 0.513034
17970.00000000 12840.00000000 -910.00000000 51 98 181 97.000000 1.000000 4.000000 1.000000 -60.708740 114.000000 229.000000 0.665248 0.297992 0.684577
17960.00000000 12800.00000000 -870.00000000 51 98 181 97.000000 1.000000 4.000000 1.000000 -60.708740 114.000000 229.000000 0.481191 0.186219 0.856608
17890.00000000 12900.00000000 -870.00000000 51 98 181 97.000000 1.000000 4.000000 1.000000 -60.708740 114.000000 229.000000 0.411928 -0.184858 0.892268
17910.00000000 12890.00000000 -890.00000000 51 98 181 97.000000 1.000000 4.000000 1.000000 -60.708740 114.000000 229.000000 0.574113 0.473685 0.667845
17870.00000000 12930.00000000 -890.00000000 51 98 181 97.000000 1.000000 4.000000 1.000000 -60.708740 114.000000 229.000000 0.437564 0.277892 0.855169
17860.00000000 12930.00000000 -880.00000000 51 98 181 97.000000 1.000000 4.000000 1.000000 -60.708740 114.000000 229.000000 0.547984 -0.046014 0.835222
17870.00000000 12920.00000000 -880.00000000 51 98 181 97.000000 1.000000 4.000000 1.000000 -60.708740 114.000000 229.000000 0.789021 0.200702 0.580658
17880.00000000 12920.00000000 -940.00000000 51 98 181 97.000000 1.000000 4.000000 1.000000 -60.708740 114.000000 229.000000 0.378995 0.285379 0.880296
17860.00000000 12860.00000000 -880.00000000 51 98 181 97.000000 1.000000 4.000000 1.000000 -60.708740 114.000000 229.000000 0.138400 0.288894 0.947304
17890.00000000 12810.00000000 -870.00000000 51 98 181 97.000000 1.000000 4.000000 1.000000 -60.708740 114.000000 229.000000 0.185495 0.308228 0.933053
17910.00000000 12780.00000000 -870.00000000 51 98 181 97.000000 1.000000 4.000000 1.000000 -60.708740 114.000000 229.000000 0.585469 0.335712 0.737918
17910.00000000 12790.00000000 -870.00000000 51 98 181 97.000000 1.000000 4.000000 1.000000 -60.708740 114.000000 229.000000 0.526679 0.264121 0.807991
17880.00000000 12810.00000000 -870.00000000 51 98 181 97.000000 1.000000 4.000000 1.000000 -60.708740 114.000000 229.000000 0.112658 0.211393 0.970887
17870.00000000 12840.00000000 -870.00000000 51 98 181 97.000000 1.000000 4.000000 1.000000 -60.708740 114.000000 229.000000 0.126804 0.334053 0.933986
17880.00000000 12820.00000000 -880.00000000 51 98 181 97.000000 1.000000 4.000000 1.000000 -60.708740 114.000000 229.000000 0.325650 0.069315 0.942946
18020.00000000 12940.00000000 -1060.00000000 51 98 181 97.000000 1.000000 4.000000 1.000000 -60.708740 114.000000 229.000000 0.956692 0.242822 -0.160554
18010.00000000 12950.00000000 -1060.00000000 51 98 181 97.000000 1.000000 4.000000 1.000000 -60.708740 114.000000 229.000000 0.922873 0.287593 -0.256115
18040.00000000 12610.00000000 -850.00000000 51 98 181 97.000000 1.000000 4.000000 1.000000 -60.708740 114.000000 229.000000 0.713039 0.365535 0.598297
18170.00000000 12650.00000000 -890.00000000 51 98 181 97.000000 1.000000 4.000000 1.000000 -60.708740 114.000000 229.000000 0.566473 0.352219 0.745017
18110.00000000 12610.00000000 -970.00000000 51 98 181 97.000000 1.000000 4.000000 1.000000 -60.708740 114.000000 229.000000 0.834871 0.475520 0.277258
18110.00000000 12600.00000000 -970.00000000 51 98 181 97.000000 1.000000 4.000000 1.000000 -60.708740 114.000000 229.000000 0.734368 0.553651 0.392649
18040.00000000 12750.00000000 -930.00000000 51 98 181 97.000000 1.000000 4.000000 1.000000 -60.708740 114.000000 229.000000 0.931919 0.229808 0.280563
18030.00000000 12760.00000000 -930.00000000 51 98 181 97.000000 1.000000 4.000000 1.000000 -60.708740 114.000000 229.000000 0.908972 0.215321 0.356941
18030.00000000 12750.00000000 -910.00000000 51 98 181 97.000000 1.000000 4.000000 1.000000 -60.708740 114.000000 229.000000 0.720931 0.455761 0.522054
18030.00000000 12710.00000000 -910.00000000 51 98 181 97.000000 1.000000 4.000000 1.000000 -60.708740 114.000000 229.000000 0.703747 0.460846 0.540704
18090.00000000 12620.00000000 -960.00000000 51 98 181 97.000000 1.000000 4.000000 1.000000 -60.708740 114.000000 229.000000 0.823759 0.528363 0.205559
18040.00000000 12590.00000000 -860.00000000 51 98 181 97.000000 1.000000 4.000000 1.000000 -60.708740 114.000000 229.000000 0.865910 0.323375 0.381613
18040.00000000 12530.00000000 -830.00000000 51 98 181 97.000000 1.000000 4.000000 1.000000 -60.708740 114.000000 229.000000 0.741709 0.409502 0.531202
18040.00000000 12530.00000000 -840.00000000 51 98 181 97.000000 1.000000 4.000000 1.000000 -60.708740 114.000000 229.000000 0.801771 0.384015 0.457925
18020.00000000 12490.00000000 -830.00000000 51 98 181 97.000000 1.000000 4.000000 1.000000 -60.708740 114.000000 229.000000 0.316843 0.474476 0.821269
18040.00000000 12500.00000000 -850.00000000 51 98 181 97.000000 1.000000 4.000000 1.000000 -60.708740 114.000000 229.000000 0.365892 0.494840 0.788198
18070.00000000 12550.00000000 -890.00000000 51 98 181 97.000000 1.000000 4.000000 1.000000 -60.708740 114.000000 229.000000 0.760760 0.430279 0.485905
18090.00000000 12580.00000000 -950.00000000 51 98 181 97.000000 1.000000 4.000000 1.000000 -60.708740 114.000000 229.000000 0.663077 0.552285 0.505282
18090.00000000 12580.00000000 -960.00000000 51 98 181 97.000000 1.000000 4.000000 1.000000 -60.708740 114.000000 229.000000 0.663361 0.456165 0.593182
17990.00000000 12690.00000000 -860.00000000 51 98 181 97.000000 1.000000 4.000000 1.000000 -60.708740 114.000000 229.000000 0.730381 -0.021028 0.682717
17990.00000000 12690.00000000 -850.00000000 51 98 181 97.000000 1.000000 4.000000 1.000000 -60.708740 114.000000 229.000000 0.794646 -0.167373 0.583544
17940.00000000 12760.00000000 -860.00000000 51 98 181 97.000000 1.000000 4.000000 1.000000 -60.708740 114.000000 229.000000 0.700124 -0.006932 0.713988
17950.00000000 12730.00000000 -860.00000000 51 98 181 97.000000 1.000000 4.000000 1.000000 -60.708740 114.000000 229.000000 0.313379 0.151900 0.937401
17950.00000000 12740.00000000 -860.00000000 51 98 181 97.000000 1.000000 4.000000 1.000000 -60.708740 114.000000 229.000000 0.377341 0.014166 0.925966
17950.00000000 12690.00000000 -850.00000000 51 98 181 97.000000 1.000000 4.000000 1.000000 -60.708740 114.000000 229.000000 0.550678 0.159682 0.819302
17950.00000000 12680.00000000 -860.00000000 51 98 181 97.000000 1.000000 4.000000 1.000000 -60.708740 114.000000 229.000000 0.512940 -0.077718 0.854899
17950.00000000 12650.00000000 -860.00000000 51 98 181 97.000000 1.000000 4.000000 1.000000 -60.708740 114.000000 229.000000 0.471792 0.202197 0.858212
17940.00000000 12650.00000000 -850.00000000 51 98 181 97.000000 1.000000 4.000000 1.000000 -60.708740 114.000000 229.000000 0.166640 0.304359 0.937868
17950.00000000 12680.00000000 -860.00000000 51 98 181 97.000000 1.000000 4.000000 1.000000 -60.708740 114.000000 229.000000 0.512940 -0.077718 0.854899
17940.00000000 12640.00000000 -830.00000000 51 98 181 97.000000 1.000000 4.000000 1.000000 -60.708740 114.000000 229.000000 0.674612 0.196054 0.711661
17890.00000000 12730.00000000 -850.00000000 51 98 181 97.000000 1.000000 4.000000 1.000000 -60.708740 114.000000 229.000000 0.152219 0.092290 0.984028
17870.00000000 12750.00000000 -860.00000000 51 98 181 97.000000 1.000000 4.000000 1.000000 -60.708740 114.000000 229.000000 -0.027254 0.092664 0.995324
17880.00000000 12750.00000000 -860.00000000 51 98 181 97.000000 1.000000 4.000000 1.000000 -60.708740 114.000000 229.000000 0.100954 0.345934 0.932812
17850.00000000 12710.00000000 -800.00000000 51 98 181 97.000000 1.000000 4.000000 1.000000 -60.708740 114.000000 229.000000 0.321813 -0.238113 0.916373
17850.00000000 12710.00000000 -810.00000000 51 98 181 97.000000 1.000000 4.000000 1.000000 -60.708740 114.000000 229.000000 0.603278 -0.001368 0.797530
17880.00000000 12710.00000000 -810.00000000 51 98 181 97.000000 1.000000 4.000000 1.000000 -60.708740 114.000000 229.000000 0.554928 0.017813 0.831707
17880.00000000 12710.00000000 -810.00000000 51 98 181 97.000000 1.000000 4.000000 1.000000 -60.708740 114.000000 229.000000 0.554928 0.017813 0.831707
17860.00000000 12690.00000000 -810.00000000 51 98 181 97.000000 1.000000 4.000000 1.000000 -60.708740 114.000000 229.000000 0.544642 -0.179536 0.819226
17860.00000000 12690.00000000 -810.00000000 51 98 181 97.000000 1.000000 4.000000 1.000000 -60.708740 114.000000 229.000000 0.544642 -0.179536 0.819226
17900.00000000 12680.00000000 -820.00000000 51 98 181 97.000000 1.000000 4.000000 1.000000 -60.708740 114.000000 229.000000 0.507342 0.234512 0.829221
17890.00000000 12660.00000000 -850.00000000 51 98 181 97.000000 1.000000 4.000000 1.000000 -60.708740 114.000000 229.000000 0.012770 0.193867 0.980945
17910.00000000 12670.00000000 -850.00000000 51 98 181 97.000000 1.000000 4.000000 1.000000 -60.708740 114.000000 229.000000 0.108045 0.154177 0.982118
17920.00000000 12670.00000000 -860.00000000 51 98 181 97.000000 1.000000 4.000000 1.000000 -60.708740 114.000000 229.000000 0.175033 0.409376 0.895419
17900.00000000 12650.00000000 -850.00000000 51 98 181 97.000000 1.000000 4.000000 1.000000 -60.708740 114.000000 229.000000 0.092079 0.020582 0.995539
17910.00000000 12650.00000000 -850.00000000 51 98 181 97.000000 1.000000 4.000000 1.000000 -60.708740 114.000000 229.000000 0.154068 -0.126952 0.979871
17930.00000000 12630.00000000 -810.00000000 51 98 181 97.000000 1.000000 4.000000 1.000000 -60.708740 114.000000 229.000000 0.485024 0.025670 0.874124
17920.00000000 12620.00000000 -850.00000000 51 98 181 97.000000 1.000000 4.000000 1.000000 -60.708740 114.000000 229.000000 0.340158 0.263586 0.902671
17930.00000000 12610.00000000 -860.00000000 51 98 181 97.000000 1.000000 4.000000 1.000000 -60.708740 114.000000 229.000000 0.212690 0.438765 0.873068
17920.00000000 12620.00000000 -860.00000000 51 98 181 97.000000 1.000000 4.000000 1.000000 -60.708740 114.000000 229.000000 0.158221 0.191666 0.968623
17900.00000000 12630.00000000 -850.00000000 51 98 181 97.000000 1.000000 4.000000 1.000000 -60.708740 114.000000 229.000000 -0.018053 0.073273 0.997149
17910.00000000 12630.00000000 -850.00000000 51 98 181 97.000000 1.000000 4.000000 1.000000 -60.708740 114.000000 229.000000 0.431414 0.322393 0.842582
17930.00000000 12610.00000000 -860.00000000 51 98 181 97.000000 1.000000 4.000000 1.000000 -60.708740 114.000000 229.000000 0.212690 0.438765 0.873068
17920.00000000 12610.00000000 -860.00000000 51 98 181 97.000000 1.000000 4.000000 1.000000 -60.708740 114.000000 229.000000 0.239326 0.393922 0.887439
17930.00000000 12610.00000000 -860.00000000 51 98 181 97.000000 1.000000 4.000000 1.000000 -60.708740 114.000000 229.000000 0.212690 0.438765 0.873068
17860.00000000 12680.00000000 -810.00000000 51 98 181 97.000000 1.000000 4.000000 1.000000 -60.708740 114.000000 229.000000 0.599579 0.082352 0.796067
17870.00000000 12680.00000000 -820.00000000 51 98 181 97.000000 1.000000 4.000000 1.000000 -60.708740 114.000000 229.000000 0.644948 0.145827 0.750184
17870.00000000 12660.00000000 -790.00000000 51 98 181 97.000000 1.000000 4.000000 1.000000 -60.708740 114.000000 229.000000 0.225334 0.359080 0.905696
17860.00000000 12680.00000000 -810.00000000 51 98 181 97.000000 1.000000 4.000000 1.000000 -60.708740 114.000000 229.000000 0.599579 0.082352 0.796067
17870.00000000 12650.00000000 -790.00000000 51 98 181 97.000000 1.000000 4.000000 1.000000 -60.708740 114.000000 229.000000 -0.090615 0.308616 0.946861
17850.00000000 12660.00000000 -810.00000000 51 98 181 97.000000 1.000000 4.000000 1.000000 -60.708740 114.000000 229.000000 -0.068911 0.096023 0.992991
17860.00000000 12650.00000000 -860.00000000 51 98 181 97.000000 1.000000 4.000000 1.000000 -60.708740 114.000000 229.000000 -0.021741 -0.038305 0.999030
17860.00000000 12630.00000000 -860.00000000 51 98 181 97.000000 1.000000 4.000000 1.000000 -60.708740 114.000000 229.000000 -0.091704 0.105633 0.990168
18000.00000000 12730.00000000 -870.00000000 51 98 181 97.000000 1.000000 4.000000 1.000000 -60.708740 114.000000 229.000000 0.793010 0.158000 0.588363
18000.00000000 12740.00000000 -880.00000000 51 98 181 97.000000 1.000000 4.000000 1.000000 -60.708740 114.000000 229.000000 0.572652 0.407622 0.711276
17980.00000000 12760.00000000 -880.00000000 51 98 181 97.000000 1.000000 4.000000 1.000000 -60.708740 114.000000 229.000000 0.600662 0.155058 0.784323
17990.00000000 12750.00000000 -870.00000000 51 98 181 97.000000 1.000000 4.000000 1.000000 -60.708740 114.000000 229.000000 0.390043 0.454248 0.800953
17980.00000000 12760.00000000 -880.00000000 51 98 181 97.000000 1.000000 4.000000 1.000000 -60.708740 114.000000 229.000000 0.600662 0.155058 0.784323
17990.00000000 12700.00000000 -870.00000000 51 98 181 97.000000 1.000000 4.000000 1.000000 -60.708740 114.000000 229.000000 0.562521 0.017880 0.826590
18010.00000000 12720.00000000 -890.00000000 51 98 181 97.000000 1.000000 4.000000 1.000000 -60.708740 114.000000 229.000000 0.438451 0.484431 0.757026
17990.00000000 12700.00000000 -870.00000000 51 98 181 97.000000 1.000000 4.000000 1.000000 -60.708740 114.000000 229.000000 0.562521 0.017880 0.826590
18000.00000000 12700.00000000 -890.00000000 51 98 181 97.000000 1.000000 4.000000 1.000000 -60.708740 114.000000 229.000000 0.719485 0.015368 0.694338
17990.00000000 12720.00000000 -880.00000000 51 98 181 97.000000 1.000000 4.000000 1.000000 -60.708740 114.000000 229.000000 0.716419 0.123623 0.686630
17990.00000000 12720.00000000 -870.00000000 51 98 181 97.000000 1.000000 4.000000 1.000000 -60.708740 114.000000 229.000000 0.725226 0.182456 0.663896
18000.00000000 12720.00000000 -870.00000000 51 98 181 97.000000 1.000000 4.000000 1.000000 -60.708740 114.000000 229.000000 0.811154 0.203170 0.548407
18010.00000000 12720.00000000 -890.00000000 51 98 181 97.000000 1.000000 4.000000 1.000000 -60.708740 114.000000 229.000000 0.438451 0.484431 0.757026
18000.00000000 12720.00000000 -880.00000000 51 98 181 97.000000 1.000000 4.000000 1.000000 -60.708740 114.000000 229.000000 0.755907 0.175615 0.630686
17990.00000000 12720.00000000 -870.00000000 51 98 181 97.000000 1.000000 4.000000 1.000000 -60.708740 114.000000 229.000000 0.725226 0.182456 0.663896
17940.00000000 12760.00000000 -870.00000000 51 98 181 97.000000 1.000000 4.000000 1.000000 -60.708740 114.000000 229.000000 0.299028 0.159755 0.940777
17970.00000000 12740.00000000 -880.00000000 51 98 181 97.000000 1.000000 4.000000 1.000000 -60.708740 114.000000 229.000000 0.534822 -0.159404 0.829793
17970.00000000 12760.00000000 -870.00000000 51 98 181 97.000000 1.000000 4.000000 1.000000 -60.708740 114.000000 229.000000 0.543589 0.176177 0.820654
17960.00000000 12740.00000000 -870.00000000 51 98 181 97.000000 1.000000 4.000000 1.000000 -60.708740 114.000000 229.000000 0.548180 0.075464 0.832949
18010.00000000 12620.00000000 -900.00000000 51 98 181 97.000000 1.000000 4.000000 1.000000 -60.708740 114.000000 229.000000 0.792524 0.164543 0.587223
17900.00000000 12730.00000000 -870.00000000 51 98 181 97.000000 1.000000 4.000000 1.000000 -60.708740 114.000000 229.000000 0.357609 -0.029693 0.933399
17870.00000000 12650.00000000 -870.00000000 51 98 181 97.000000 1.000000 4.000000 1.000000 -60.708740 114.000000 229.000000 0.003164 0.081212 0.996692
17870.00000000 12650.00000000 -870.00000000 51 98 181 97.000000 1.000000 4.000000 1.000000 -60.708740 114.000000 229.000000 0.003164 0.081212 0.996692
17850.00000000 12600.00000000 -880.00000000 51 98 181 97.000000 1.000000 4.000000 1.000000 -60.708740 114.000000 229.000000 0.043477 0.267070 0.962696
17880.00000000 12600.00000000 -870.00000000 51 98 181 97.000000 1.000000 4.000000 1.000000 -60.708740 114.000000 229.000000 0.063331 0.039716 0.997202
17850.00000000 12600.00000000 -880.00000000 51 98 181 97.000000 1.000000 4.000000 1.000000 -60.708740 114.000000 229.000000 0.043477 0.267070 0.962696
18000.00000000 12530.00000000 -820.00000000 51 98 181 97.000000 1.000000 4.000000 1.000000 -60.708740 114.000000 229.000000 0.626419 0.333548 0.704518
17960.00000000 12580.00000000 -830.00000000 51 98 181 97.000000 1.000000 4.000000 1.000000 -60.708740 114.000000 229.000000 0.521263 0.270806 0.809289
17970.00000000 12570.00000000 -840.00000000 51 98 181 97.000000 1.000000 4.000000 1.000000 -60.708740 114.000000 229.000000 0.503368 0.031375 0.863502
17970.00000000 12550.00000000 -840.00000000 51 98 181 97.000000 1.000000 4.000000 1.000000 -60.708740 114.000000 229.000000 0.570700 0.029160 0.820641
17960.00000000 12550.00000000 -840.00000000 51 98 181 97.000000 1.000000 4.000000 1.000000 -60.708740 114.000000 229.000000 0.598297 -0.188211 0.778857
17970.00000000 12550.00000000 -850.00000000 51 98 181 97.000000 1.000000 4.000000 1.000000 -60.708740 114.000000 229.000000 0.548329 0.162855 0.820252
18000.00000000 12510.00000000 -800.00000000 51 98 181 97.000000 1.000000 4.000000 1.000000 -60.708740 114.000000 229.000000 0.719491 0.244029 0.650218
18000.00000000 12450.00000000 -820.00000000 51 98 181 97.000000 1.000000 4.000000 1.000000 -60.708740 114.000000 229.000000 0.417660 0.463164 0.781690
17960.00000000 12510.00000000 -840.00000000 51 98 181 97.000000 1.000000 4.000000 1.000000 -60.708740 114.000000 229.000000 0.323076 0.308188 0.894786
17960.00000000 12510.00000000 -830.00000000 51 98 181 97.000000 1.000000 4.000000 1.000000 -60.708740 114.000000 229.000000 0.707084 0.279322 0.649624
17970.00000000 12490.00000000 -850.00000000 51 98 181 97.000000 1.000000 4.000000 1.000000 -60.708740 114.000000 229.000000 0.469793 0.211632 0.857034
17930.00000000 12580.00000000 -840.00000000 51 98 181 97.000000 1.000000 4.000000 1.000000 -60.708740 114.000000 229.000000 0.329812 -0.029288 0.943592
17930.00000000 12560.00000000 -860.00000000 51 98 181 97.000000 1.000000 4.000000 1.000000 -60.708740 114.000000 229.000000 0.412547 -0.190967 0.890694
17900.00000000 12570.00000000 -830.00000000 51 98 181 97.000000 1.000000 4.000000 1.000000 -60.708740 114.000000 229.000000 0.148765 -0.238288 0.959733
17930.00000000 12580.00000000 -830.00000000 51 98 181 97.000000 1.000000 4.000000 1.000000 -60.708740 114.000000 229.000000 0.281250 0.092022 0.955212
17930.00000000 12560.00000000 -860.00000000 51 98 181 97.000000 1.000000 4.000000 1.000000 -60.708740 114.000000 229.000000 0.412547 -0.190967 0.890694
17900.00000000 12540.00000000 -860.00000000 51 98 181 97.000000 1.000000 4.000000 1.000000 -60.708740 114.000000 229.000000 -0.068459 -0.048899 0.996455
17900.00000000 12540.00000000 -860.00000000 51 98 181 97.000000 1.000000 4.000000 1.000000 -60.708740 114.000000 229.000000 -0.068459 -0.048899 0.996455
17920.00000000 12520.00000000 -840.00000000 51 98 181 97.000000 1.000000 4.000000 1.000000 -60.708740 114.000000 229.000000 0.366383 0.404123 0.838122
17870.00000000 12530.00000000 -850.00000000 51 98 181 97.000000 1.000000 4.000000 1.000000 -60.708740 114.000000 229.000000 -0.022123 0.189794 0.981575
17870.00000000 12530.00000000 -850.00000000 51 98 181 97.000000 1.000000 4.000000 1.000000 -60.708740 114.000000 229.000000 -0.022123 0.189794 0.981575
17870.00000000 12520.00000000 -850.00000000 51 98 181 97.000000 1.000000 4.000000 1.000000 -60.708740 114.000000 229.000000 0.203749 0.039320 0.978233
17920.00000000 12450.00000000 -710.00000000 51 98 181 97.000000 1.000000 4.000000 1.000000 -60.708740 114.000000 229.000000 0.235948 0.258286 0.936812
17900.00000000 12460.00000000 -820.00000000 51 98 181 97.000000 1.000000 4.000000 1.000000 -60.708740 114.000000 229.000000 0.104150 -0.106491 0.988844
17900.00000000 12440.00000000 -830.00000000 51 98 181 97.000000 1.000000 4.000000 1.000000 -60.708740 114.000000 229.000000 0.323914 -0.111556 0.939486
17930.00000000 12440.00000000 -850.00000000 51 98 181 97.000000 1.000000 4.000000 1.000000 -60.708740 114.000000 229.000000 0.242671 0.035364 0.969464
17880.00000000 12510.00000000 -850.00000000 51 98 181 97.000000 1.000000 4.000000 1.000000 -60.708740 114.000000 229.000000 0.253575 0.135327 0.957803
17870.00000000 12510.00000000 -850.00000000 51 98 181 97.000000 1.000000 4.000000 1.000000 -60.708740 114.000000 229.000000 0.301004 0.121739 0.945820
17880.00000000 12500.00000000 -850.00000000 51 98 181 97.000000 1.000000 4.000000 1.000000 -60.708740 114.000000 229.000000 0.251742 0.235052 0.938817
17870.00000000 12500.00000000 -850.00000000 51 98 181 97.000000 1.000000 4.000000 1.000000 -60.708740 114.000000 229.000000 0.324658 0.080179 0.942427
17880.00000000 12460.00000000 -850.00000000 51 98 181 97.000000 1.000000 4.000000 1.000000 -60.708740 114.000000 229.000000 0.339114 -0.121209 0.932904
17870.00000000 12460.00000000 -840.00000000 51 98 181 97.000000 1.000000 4.000000 1.000000 -60.708740 114.000000 229.000000 -0.068050 0.173110 0.982549
17870.00000000 12450.00000000 -850.00000000 51 98 181 97.000000 1.000000 4.000000 1.000000 -60.708740 114.000000 229.000000 -0.237080 -0.178145 0.955017
17910.00000000 12560.00000000 -880.00000000 51 98 181 97.000000 1.000000 4.000000 1.000000 -60.708740 114.000000 229.000000 0.140706 0.212995 0.966869
17860.00000000 12580.00000000 -870.00000000 51 98 181 97.000000 1.000000 4.000000 1.000000 -60.708740 114.000000 229.000000 -0.055882 0.247121 0.967372
17880.00000000 12580.00000000 -870.00000000 51 98 181 97.000000 1.000000 4.000000 1.000000 -60.708740 114.000000 229.000000 0.081382 -0.005285 0.996669
17860.00000000 12590.00000000 -870.00000000 51 98 181 97.000000 1.000000 4.000000 1.000000 -60.708740 114.000000 229.000000 -0.109105 0.242598 0.963972
17880.00000000 12580.00000000 -870.00000000 51 98 181 97.000000 1.000000 4.000000 1.000000 -60.708740 114.000000 229.000000 0.081382 -0.005285 0.996669
17870.00000000 12560.00000000 -870.00000000 51 98 181 97.000000 1.000000 4.000000 1.000000 -60.708740 114.000000 229.000000 -0.081975 -0.042627 0.995722
17880.00000000 12590.00000000 -870.00000000 51 98 181 97.000000 1.000000 4.000000 1.000000 -60.708740 114.000000 229.000000 -0.018017 0.071010 0.997313
17880.00000000 12550.00000000 -880.00000000 51 98 181 97.000000 1.000000 4.000000 1.000000 -60.708740 114.000000 229.000000 0.005836 -0.213589 0.976906
17850.00000000 12490.00000000 -870.00000000 51 98 181 97.000000 1.000000 4.000000 1.000000 -60.708740 114.000000 229.000000 0.058821 0.343774 0.937208
17830.00000000 12900.00000000 -840.00000000 51 98 181 97.000000 1.000000 4.000000 1.000000 -60.708740 114.000000 229.000000 0.244984 -0.032908 0.968968
17830.00000000 12920.00000000 -850.00000000 51 98 181 97.000000 1.000000 4.000000 1.000000 -60.708740 114.000000 229.000000 0.608282 0.303339 0.733470
17840.00000000 12770.00000000 -810.00000000 51 98 181 97.000000 1.000000 4.000000 1.000000 -60.708740 114.000000 229.000000 0.546882 0.075285 0.833818
17810.00000000 12900.00000000 -910.00000000 51 98 181 97.000000 1.000000 4.000000 1.000000 -60.708740 114.000000 229.000000 0.641056 0.322962 0.696235
17810.00000000 12880.00000000 -880.00000000 51 98 181 97.000000 1.000000 4.000000 1.000000 -60.708740 114.000000 229.000000 -0.073428 0.179356 0.981040
17790.00000000 12910.00000000 -900.00000000 51 98 181 97.000000 1.000000 4.000000 1.000000 -60.708740 114.000000 229.000000 0.281045 0.295607 0.913033
17800.00000000 12910.00000000 -980.00000000 51 98 181 97.000000 1.000000 4.000000 1.000000 -60.708740 114.000000 229.000000 0.712567 0.018199 0.701368
17820.00000000 12810.00000000 -870.00000000 51 98 181 97.000000 1.000000 4.000000 1.000000 -60.708740 114.000000 229.000000 -0.025494 0.251302 0.967573
17820.00000000 12820.00000000 -890.00000000 51 98 181 97.000000 1.000000 4.000000 1.000000 -60.708740 114.000000 229.000000 -0.049445 -0.028405 0.998373
17810.00000000 12810.00000000 -880.00000000 51 98 181 97.000000 1.000000 4.000000 1.000000 -60.708740 114.000000 229.000000 -0.104365 -0.025267 0.994218
17810.00000000 12830.00000000 -880.00000000 51 98 181 97.000000 1.000000 4.000000 1.000000 -60.708740 114.000000 229.000000 0.020735 0.262235 0.964781
17830.00000000 12800.00000000 -880.00000000 51 98 181 97.000000 1.000000 4.000000 1.000000 -60.708740 114.000000 229.000000 0.487516 -0.053861 0.871451
17830.00000000 12800.00000000 -880.00000000 51 98 181 97.000000 1.000000 4.000000 1.000000 -60.708740 114.000000 229.000000 0.487516 -0.053861 0.871451
17770.00000000 12840.00000000 -880.00000000 51 98 181 97.000000 1.000000 4.000000 1.000000 -60.708740 114.000000 229.000000 -0.118764 -0.125962 0.984900
17790.00000000 12800.00000000 -880.00000000 51 98 181 97.000000 1.000000 4.000000 1.000000 -60.708740 114.000000 229.000000 0.056911 -0.204639 0.977182
17750.00000000 12910.00000000 -900.00000000 51 98 181 97.000000 1.000000 4.000000 1.000000 -60.708740 114.000000 229.000000 -0.216018 0.226886 0.949663
17730.00000000 12910.00000000 -940.00000000 51 98 181 97.000000 1.000000 4.000000 1.000000 -60.708740 114.000000 229.000000 0.167146 -0.082972 0.982435
17750.00000000 12890.00000000 -900.00000000 51 98 181 97.000000 1.000000 4.000000 1.000000 -60.708740 114.000000 229.000000 -0.243868 0.027905 0.969407
17760.00000000 12860.00000000 -910.00000000 51 98 181 97.000000 1.000000 4.000000 1.000000 -60.708740 114.000000 229.000000 -0.256964 0.013270 0.966330
17750.00000000 12890.00000000 -960.00000000 51 98 181 97.000000 1.000000 4.000000 1.000000 -60.708740 114.000000 229.000000 0.461957 0.308493 0.831522
17720.00000000 12900.00000000 -960.00000000 51 98 181 97.000000 1.000000 4.000000 1.000000 -60.708740 114.000000 229.000000 -0.117319 -0.139090 0.983306
17720.00000000 12900.00000000 -960.00000000 51 98 181 97.000000 1.000000 4.000000 1.000000 -60.708740 114.000000 229.000000 -0.117319 -0.139090 0.983306
17720.00000000 12900.00000000 -960.00000000 51 98 181 97.000000 1.000000 4.000000 1.000000 -60.708740 114.000000 229.000000 -0.117319 -0.139090 0.983306
17710.00000000 12890.00000000 -960.00000000 51 98 181 97.000000 1.000000 4.000000 1.000000 -60.708740 114.000000 229.000000 0.242098 0.035281 0.969610
17710.00000000 12880.00000000 -960.00000000 51 98 181 97.000000 1.000000 4.000000 1.000000 -60.708740 114.000000 229.000000 0.168990 0.007939 0.985586
17710.00000000 12880.00000000 -960.00000000 51 98 181 97.000000 1.000000 4.000000 1.000000 -60.708740 114.000000 229.000000 0.168990 0.007939 0.985586
17710.00000000 12870.00000000 -990.00000000 51 98 181 97.000000 1.000000 4.000000 1.000000 -60.708740 114.000000 229.000000 -0.330382 0.251789 0.909643
17760.00000000 12790.00000000 -910.00000000 51 98 181 97.000000 1.000000 4.000000 1.000000 -60.708740 114.000000 229.000000 -0.242821 -0.123358 0.962196
17740.00000000 12790.00000000 -910.00000000 51 98 181 97.000000 1.000000 4.000000 1.000000 -60.708740 114.000000 229.000000 0.095050 0.193804 0.976425
17760.00000000 12770.00000000 -910.00000000 51 98 181 97.000000 1.000000 4.000000 1.000000 -60.708740 114.000000 229.000000 -0.124291 0.345555 0.930131
17690.00000000 12840.00000000 -960.00000000 51 98 181 97.000000 1.000000 4.000000 1.000000 -60.708740 114.000000 229.000000 -0.425904 -0.185875 0.885470
17690.00000000 12830.00000000 -1020.00000000 51 98 181 97.000000 1.000000 4.000000 1.000000 -60.708740 114.000000 229.000000 -0.320185 -0.270476 0.907923
17700.00000000 12790.00000000 -1020.00000000 51 98 181 97.000000 1.000000 4.000000 1.000000 -60.708740 114.000000 229.000000 -0.262427 0.130554 0.956079
17700.00000000 12780.00000000 -1030.00000000 51 98 181 97.000000 1.000000 4.000000 1.000000 -60.708740 114.000000 229.000000 -0.497666 -0.464599 0.732446
17690.00000000 12790.00000000 -1000.00000000 51 98 181 97.000000 1.000000 4.000000 1.000000 -60.708740 114.000000 229.000000 -0.644831 -0.058621 0.762074
17650.00000000 12870.00000000 -1000.00000000 51 98 181 97.000000 1.000000 4.000000 1.000000 -60.708740 114.000000 229.000000 -0.472747 -0.088377 0.876755
17690.00000000 12900.00000000 -1050.00000000 51 98 181 97.000000 1.000000 4.000000 1.000000 -60.708740 114.000000 229.000000 -0.553575 -0.213149 0.805060
17690.00000000 12920.00000000 -1050.00000000 51 98 181 97.000000 1.000000 4.000000 1.000000 -60.708740 114.000000 229.000000 0.046277 -0.116258 0.992140
17680.00000000 12900.00000000 -1050.00000000 51 98 181 97.000000 1.000000 4.000000 1.000000 -60.708740 114.000000 229.000000 -0.439426 0.163878 0.883203
17700.00000000 12880.00000000 -1070.00000000 51 98 181 97.000000 1.000000 4.000000 1.000000 -60.708740 114.000000 229.000000 -0.463957 -0.162458 0.870834
17680.00000000 12810.00000000 -1040.00000000 51 98 181 97.000000 1.000000 4.000000 1.000000 -60.708740 114.000000 229.000000 0.839282 0.096123 -0.535132
17710.00000000 12830.00000000 -1080.00000000 51 98 181 97.000000 1.000000 4.000000 1.000000 -60.708740 114.000000 229.000000 0.889045 0.292351 -0.352320
17710.00000000 12770.00000000 -1050.00000000 51 98 181 97.000000 1.000000 4.000000 1.000000 -60.708740 114.000000 229.000000 0.809627 0.147611 -0.568081
17720.00000000 12780.00000000 -1090.00000000 51 98 181 97.000000 1.000000 4.000000 1.000000 -60.708740 114.000000 229.000000 0.993072 0.064397 -0.098290
17720.00000000 12780.00000000 -1100.00000000 51 98 181 97.000000 1.000000 4.000000 1.000000 -60.708740 114.000000 229.000000 0.892115 0.416320 0.175522
17840.00000000 12740.00000000 -820.00000000 51 98 181 97.000000 1.000000 4.000000 1.000000 -60.708740 114.000000 229.000000 0.476098 0.348714 0.807297
17840.00000000 12750.00000000 -820.00000000 51 98 181 97.000000 1.000000 4.000000 1.000000 -60.708740 114.000000 229.000000 0.378474 0.413313 0.828209
17840.00000000 12700.00000000 -800.00000000 51 98 181 97.000000 1.000000 4.000000 1.000000 -60.708740 114.000000 229.000000 0.191122 -0.061303 0.979650
17810.00000000 12700.00000000 -820.00000000 51 98 181 97.000000 1.000000 4.000000 1.000000 -60.708740 114.000000 229.000000 0.148368 -0.178802 0.972634
17820.00000000 12710.00000000 -820.00000000 51 98 181 97.000000 1.000000 4.000000 1.000000 -60.708740 114.000000 229.000000 0.302913 -0.226118 0.925805
17830.00000000 12690.00000000 -830.00000000 51 98 181 97.000000 1.000000 4.000000 1.000000 -60.708740 114.000000 229.000000 0.526823 0.054499 0.848226
17800.00000000 12750.00000000 -800.00000000 51 98 181 97.000000 1.000000 4.000000 1.000000 -60.708740 114.000000 229.000000 -0.181084 0.240104 0.953708
17800.00000000 12710.00000000 -810.00000000 51 98 181 97.000000 1.000000 4.000000 1.000000 -60.708740 114.000000 229.000000 0.189336 -0.138508 0.972094
17830.00000000 12670.00000000 -760.00000000 51 98 181 97.000000 1.000000 4.000000 1.000000 -60.708740 114.000000 229.000000 0.148759 0.446277 0.882444
17840.00000000 12650.00000000 -810.00000000 51 98 181 97.000000 1.000000 4.000000 1.000000 -60.708740 114.000000 229.000000 0.333413 0.303511 0.892590
17830.00000000 12650.00000000 -800.00000000 51 98 181 97.000000 1.000000 4.000000 1.000000 -60.708740 114.000000 229.000000 0.293622 0.214948 0.931442
17830.00000000 12650.00000000 -800.00000000 51 98 181 97.000000 1.000000 4.000000 1.000000 -60.708740 114.000000 229.000000 0.293622 0.214948 0.931442
17840.00000000 12650.00000000 -800.00000000 51 98 181 97.000000 1.000000 4.000000 1.000000 -60.708740 114.000000 229.000000 0.016146 0.091494 0.995675
17820.00000000 12630.00000000 -800.00000000 51 98 181 97.000000 1.000000 4.000000 1.000000 -60.708740 114.000000 229.000000 0.326524 0.245256 0.912815
17840.00000000 12640.00000000 -800.00000000 51 98 181 97.000000 1.000000 4.000000 1.000000 -60.708740 114.000000 229.000000 0.055727 0.330472 0.942169
17830.00000000 12750.00000000 -880.00000000 51 98 181 97.000000 1.000000 4.000000 1.000000 -60.708740 114.000000 229.000000 -0.137391 0.076328 0.987572
17840.00000000 12690.00000000 -870.00000000 51 98 181 97.000000 1.000000 4.000000 1.000000 -60.708740 114.000000 229.000000 0.126603 0.009908 0.991904
17770.00000000 12730.00000000 -890.00000000 51 98 181 97.000000 1.000000 4.000000 1.000000 -60.708740 114.000000 229.000000 -0.132008 -0.182296 0.974342
17780.00000000 12730.00000000 -900.00000000 51 98 181 97.000000 1.000000 4.000000 1.000000 -60.708740 114.000000 229.000000 0.347807 -0.253884 0.902537
17800.00000000 12720.00000000 -890.00000000 51 98 181 97.000000 1.000000 4.000000 1.000000 -60.708740 114.000000 229.000000 -0.055596 -0.321938 0.945127
17790.00000000 12720.00000000 -890.00000000 51 98 181 97.000000 1.000000 4.000000 1.000000 -60.708740 114.000000 229.000000 -0.261856 -0.127638 0.956630
17780.00000000 12700.00000000 -920.00000000 51 98 181 97.000000 1.000000 4.000000 1.000000 -60.708740 114.000000 229.000000 -0.368685 0.125657 0.921022
17810.00000000 12650.00000000 -900.00000000 51 98 181 97.000000 1.000000 4.000000 1.000000 -60.708740 114.000000 229.000000 -0.244938 -0.134913 0.960106
17840.00000000 12680.00000000 -870.00000000 51 98 181 97.000000 1.000000 4.000000 1.000000 -60.708740 114.000000 229.000000 0.316186 0.016247 0.948558
17770.00000000 12660.00000000 -930.00000000 51 98 181 97.000000 1.000000 4.000000 1.000000 -60.708740 114.000000 229.000000 -0.158434 0.398226 0.903501
17780.00000000 12650.00000000 -920.00000000 51 98 181 97.000000 1.000000 4.000000 1.000000 -60.708740 114.000000 229.000000 -0.238796 0.208776 0.948361
17770.00000000 12640.00000000 -920.00000000 51 98 181 97.000000 1.000000 4.000000 1.000000 -60.708740 114.000000 229.000000 0.179424 0.131745 0.974910
17770.00000000 12620.00000000 -980.00000000 51 98 181 97.000000 1.000000 4.000000 1.000000 -60.708740 114.000000 229.000000 -0.486549 -0.150494 0.860593
17780.00000000 12630.00000000 -950.00000000 51 98 181 97.000000 1.000000 4.000000 1.000000 -60.708740 114.000000 229.000000 -0.457132 -0.118199 0.881510
17750.00000000 12690.00000000 -970.00000000 51 98 181 97.000000 1.000000 4.000000 1.000000 -60.708740 114.000000 229.000000 0.133516 -0.025806 0.990711
17750.00000000 12720.00000000 -970.00000000 51 98 181 97.000000 1.000000 4.000000 1.000000 -60.708740 114.000000 229.000000 -0.120602 -0.021022 0.992478
17750.00000000 12700.00000000 -970.00000000 51 98 181 97.000000 1.000000 4.000000 1.000000 -60.708740 114.000000 229.000000 0.098944 0.020659 0.994879
17710.00000000 12760.00000000 -1020.00000000 51 98 181 97.000000 1.000000 4.000000 1.000000 -60.708740 114.000000 229.000000 0.633968 0.337356 -0.695899
17760.00000000 12640.00000000 -920.00000000 51 98 181 97.000000 1.000000 4.000000 1.000000 -60.708740 114.000000 229.000000 -0.175977 -0.145592 0.973568
17750.00000000 12680.00000000 -970.00000000 51 98 181 97.000000 1.000000 4.000000 1.000000 -60.708740 114.000000 229.000000 -0.020827 -0.273205 0.961730
17730.00000000 12660.00000000 -1030.00000000 51 98 181 97.000000 1.000000 4.000000 1.000000 -60.708740 114.000000 229.000000 0.754913 -0.085819 -0.650185
17760.00000000 12620.00000000 -980.00000000 51 98 181 97.000000 1.000000 4.000000 1.000000 -60.708740 114.000000 229.000000 -0.568203 0.084871 0.818500
17750.00000000 12610.00000000 -1030.00000000 51 98 181 97.000000 1.000000 4.000000 1.000000 -60.708740 114.000000 229.000000 0.564955 -0.241234 -0.789070
17730.00000000 12640.00000000 -1030.00000000 51 98 181 97.000000 1.000000 4.000000 1.000000 -60.708740 114.000000 229.000000 0.801463 0.006874 -0.598004
17740.00000000 12640.00000000 -1020.00000000 51 98 181 97.000000 1.000000 4.000000 1.000000 -60.708740 114.000000 229.000000 0.759488 0.236459 -0.606024
