//X Y Z R G B PointSourceId ScanDirectionFlag NumberOfReturns ReturnNumber GpsTime Intensity Classification Nx Ny Nz
-7060.00000000 9790.00000000 -850.00000000 8 129 187 97.000000 1.000000 4.000000 1.000000 -60.708740 114.000000 148.000000 0.543616 0.838365 -0.040319
-7080.00000000 9790.00000000 -830.00000000 8 129 187 97.000000 1.000000 4.000000 1.000000 -60.708740 114.000000 148.000000 0.544957 0.788213 0.285905
-7080.00000000 9750.00000000 -780.00000000 8 129 187 97.000000 1.000000 4.000000 1.000000 -60.708740 114.000000 148.000000 0.564397 0.825310 -0.017852
-7060.00000000 9770.00000000 -860.00000000 8 129 187 97.000000 1.000000 4.000000 1.000000 -60.708740 114.000000 148.000000 0.391075 0.901927 0.183271
-6920.00000000 9760.00000000 -900.00000000 8 129 187 97.000000 1.000000 4.000000 1.000000 -60.708740 114.000000 148.000000 0.230126 0.898519 -0.373772
-6920.00000000 9750.00000000 -900.00000000 8 129 187 97.000000 1.000000 4.000000 1.000000 -60.708740 114.000000 148.000000 0.095156 0.952868 -0.288076
-6940.00000000 9750.00000000 -920.00000000 8 129 187 97.000000 1.000000 4.000000 1.000000 -60.708740 114.000000 148.000000 0.121536 0.957913 0.260061
-6950.00000000 9750.00000000 -920.00000000 8 129 187 97.000000 1.000000 4.000000 1.000000 -60.708740 114.000000 148.000000 0.652295 0.757002 -0.038204
-6960.00000000 9750.00000000 -910.00000000 8 129 187 97.000000 1.000000 4.000000 1.000000 -60.708740 114.000000 148.000000 0.339927 0.916513 -0.210841
-6940.00000000 9740.00000000 -1010.00000000 8 129 187 97.000000 1.000000 4.000000 1.000000 -60.708740 114.000000 148.000000 0.309940 0.868749 0.386280
-6970.00000000 9750.00000000 -950.00000000 8 129 187 97.000000 1.000000 4.000000 1.000000 -60.708740 114.000000 148.000000 0.493996 0.868277 -0.045409
-6970.00000000 9750.00000000 -970.00000000 8 129 187 97.000000 1.000000 4.000000 1.000000 -60.708740 114.000000 148.000000 0.309488 0.950837 0.011186
-6950.00000000 9760.00000000 -980.00000000 8 129 187 97.000000 1.000000 4.000000 1.000000 -60.708740 114.000000 148.000000 0.353904 0.921828 0.158068
-6920.00000000 9740.00000000 -1010.00000000 8 129 187 97.000000 1.000000 4.000000 1.000000 -60.708740 114.000000 148.000000 0.235709 0.959953 -0.151433
-6970.00000000 9750.00000000 -950.00000000 8 129 187 97.000000 1.000000 4.000000 1.000000 -60.708740 114.000000 148.000000 0.493996 0.868277 -0.045409
-6970.00000000 9750.00000000 -980.00000000 8 129 187 97.000000 1.000000 4.000000 1.000000 -60.708740 114.000000 148.000000 0.408530 0.831256 0.376983
-7050.00000000 9760.00000000 -880.00000000 8 129 187 97.000000 1.000000 4.000000 1.000000 -60.708740 114.000000 148.000000 0.903438 0.426958 0.038814
-7050.00000000 9750.00000000 -890.00000000 8 129 187 97.000000 1.000000 4.000000 1.000000 -60.708740 114.000000 148.000000 0.775689 0.630856 -0.018104
-7080.00000000 9770.00000000 -880.00000000 8 129 187 97.000000 1.000000 4.000000 1.000000 -60.708740 114.000000 148.000000 0.512744 0.856437 -0.060076
-7040.00000000 9760.00000000 -900.00000000 8 129 187 97.000000 1.000000 4.000000 1.000000 -60.708740 114.000000 148.000000 0.686567 0.707879 0.165933
-7040.00000000 9770.00000000 -940.00000000 8 129 187 97.000000 1.000000 4.000000 1.000000 -60.708740 114.000000 148.000000 0.650095 0.750793 0.116987
-7040.00000000 9770.00000000 -930.00000000 8 129 187 97.000000 1.000000 4.000000 1.000000 -60.708740 114.000000 148.000000 0.562165 0.817561 0.124762
-7030.00000000 9770.00000000 -980.00000000 8 129 187 97.000000 1.000000 4.000000 1.000000 -60.708740 114.000000 148.000000 0.796751 0.589032 -0.135017
-7030.00000000 9750.00000000 -1030.00000000 8 129 187 97.000000 1.000000 4.000000 1.000000 -60.708740 114.000000 148.000000 0.742454 0.669472 0.023860
-7040.00000000 9780.00000000 -950.00000000 8 129 187 97.000000 1.000000 4.000000 1.000000 -60.708740 114.000000 148.000000 0.780563 0.624729 -0.020871
-7080.00000000 9770.00000000 -980.00000000 8 129 187 97.000000 1.000000 4.000000 1.000000 -60.708740 114.000000 148.000000 0.708468 0.699667 0.092409
-7040.00000000 9750.00000000 -970.00000000 8 129 187 97.000000 1.000000 4.000000 1.000000 -60.708740 114.000000 148.000000 0.626064 0.778694 -0.040984
-6750.00000000 9780.00000000 -1040.00000000 8 129 187 97.000000 1.000000 4.000000 1.000000 -60.708740 114.000000 148.000000 -0.527665 0.833859 -0.162015
-6750.00000000 9750.00000000 -1050.00000000 8 129 187 97.000000 1.000000 4.000000 1.000000 -60.708740 114.000000 148.000000 -0.175995 0.969900 -0.168287
-6910.00000000 9750.00000000 -1040.00000000 8 129 187 97.000000 1.000000 4.000000 1.000000 -60.708740 114.000000 148.000000 0.531799 0.837766 -0.123844
-6750.00000000 9750.00000000 -1090.00000000 8 129 187 97.000000 1.000000 4.000000 1.000000 -60.708740 114.000000 148.000000 -0.392477 0.899366 -0.192618
-6750.00000000 9740.00000000 -1060.00000000 8 129 187 97.000000 1.000000 4.000000 1.000000 -60.708740 114.000000 148.000000 -0.247762 0.858806 -0.448403
-7080.00000000 9770.00000000 -1120.00000000 8 129 187 97.000000 1.000000 4.000000 1.000000 -60.708740 114.000000 148.000000 0.977545 0.206995 0.039485
-7270.00000000 10360.00000000 -50.00000000 8 129 187 97.000000 1.000000 4.000000 1.000000 -60.708740 114.000000 148.000000 0.293781 0.941465 0.165337
-7320.00000000 10340.00000000 -80.00000000 8 129 187 97.000000 1.000000 4.000000 1.000000 -60.708740 114.000000 148.000000 -0.490527 0.865886 -0.098105
-7340.00000000 10300.00000000 -20.00000000 8 129 187 97.000000 1.000000 4.000000 1.000000 -60.708740 114.000000 148.000000 -0.368350 0.869674 -0.328611
-7350.00000000 10270.00000000 -210.00000000 8 129 187 97.000000 1.000000 4.000000 1.000000 -60.708740 114.000000 148.000000 -0.282560 0.959249 -0.001213
-7380.00000000 10170.00000000 -50.00000000 8 129 187 97.000000 1.000000 4.000000 1.000000 -60.708740 114.000000 148.000000 -0.378486 0.924455 -0.046157
-7380.00000000 10170.00000000 -50.00000000 8 129 187 97.000000 1.000000 4.000000 1.000000 -60.708740 114.000000 148.000000 -0.378486 0.924455 -0.046157
-7390.00000000 10170.00000000 -50.00000000 8 129 187 97.000000 1.000000 4.000000 1.000000 -60.708740 114.000000 148.000000 0.707642 -0.692618 0.139726
-7390.00000000 10230.00000000 -150.00000000 8 129 187 97.000000 1.000000 4.000000 1.000000 -60.708740 114.000000 148.000000 -0.523632 0.766804 -0.371243
-7350.00000000 10110.00000000 -150.00000000 8 129 187 97.000000 1.000000 4.000000 1.000000 -60.708740 114.000000 148.000000 0.679801 -0.666883 0.305184
-7380.00000000 10090.00000000 -140.00000000 8 129 187 97.000000 1.000000 4.000000 1.000000 -60.708740 114.000000 148.000000 0.747443 -0.188779 0.636938
-7380.00000000 10180.00000000 -220.00000000 8 129 187 97.000000 1.000000 4.000000 1.000000 -60.708740 114.000000 148.000000 0.871128 -0.393756 0.293416
-7380.00000000 10160.00000000 -240.00000000 8 129 187 97.000000 1.000000 4.000000 1.000000 -60.708740 114.000000 148.000000 0.583506 -0.367756 0.724070
-7390.00000000 10240.00000000 -290.00000000 8 129 187 97.000000 1.000000 4.000000 1.000000 -60.708740 114.000000 148.000000 0.817766 -0.563220 0.118496
-7390.00000000 10210.00000000 -280.00000000 8 129 187 97.000000 1.000000 4.000000 1.000000 -60.708740 114.000000 148.000000 0.824833 -0.540408 0.166164
-7400.00000000 10170.00000000 -340.00000000 8 129 187 97.000000 1.000000 4.000000 1.000000 -60.708740 114.000000 148.000000 -0.469587 0.817429 -0.333612
-7380.00000000 10160.00000000 -320.00000000 8 129 187 97.000000 1.000000 4.000000 1.000000 -60.708740 114.000000 148.000000 0.467946 -0.484482 0.739124
-7370.00000000 10130.00000000 -220.00000000 8 129 187 97.000000 1.000000 4.000000 1.000000 -60.708740 114.000000 148.000000 0.391354 -0.662164 0.639046
-7370.00000000 10130.00000000 -220.00000000 8 129 187 97.000000 1.000000 4.000000 1.000000 -60.708740 114.000000 148.000000 0.391354 -0.662164 0.639046
-7360.00000000 10150.00000000 -270.00000000 8 129 187 97.000000 1.000000 4.000000 1.000000 -60.708740 114.000000 148.000000 0.925698 -0.286695 0.246758
-7350.00000000 10120.00000000 -240.00000000 8 129 187 97.000000 1.000000 4.000000 1.000000 -60.708740 114.000000 148.000000 0.571625 -0.393713 0.719885
-7380.00000000 10090.00000000 -230.00000000 8 129 187 97.000000 1.000000 4.000000 1.000000 -60.708740 114.000000 148.000000 0.716703 -0.585499 0.378852
-7390.00000000 10140.00000000 -330.00000000 8 129 187 97.000000 1.000000 4.000000 1.000000 -60.708740 114.000000 148.000000 0.892683 -0.363906 0.265874
-7390.00000000 10190.00000000 -400.00000000 8 129 187 97.000000 1.000000 4.000000 1.000000 -60.708740 114.000000 148.000000 0.795668 -0.231101 0.559915
-7410.00000000 10170.00000000 -410.00000000 8 129 187 97.000000 1.000000 4.000000 1.000000 -60.708740 114.000000 148.000000 0.851645 -0.518331 0.077679
-7400.00000000 10120.00000000 -480.00000000 8 129 187 97.000000 1.000000 4.000000 1.000000 -60.708740 114.000000 148.000000 0.796868 -0.449144 0.404068
-7400.00000000 10150.00000000 -450.00000000 8 129 187 97.000000 1.000000 4.000000 1.000000 -60.708740 114.000000 148.000000 0.790629 -0.221252 0.570924
-7150.00000000 9830.00000000 -80.00000000 8 129 187 97.000000 1.000000 4.000000 1.000000 -60.708740 114.000000 148.000000 -0.277043 0.809217 -0.518087
-7150.00000000 9830.00000000 -80.00000000 8 129 187 97.000000 1.000000 4.000000 1.000000 -60.708740 114.000000 148.000000 -0.277043 0.809217 -0.518087
-7110.00000000 9810.00000000 -70.00000000 8 129 187 97.000000 1.000000 4.000000 1.000000 -60.708740 114.000000 148.000000 -0.389655 0.918184 -0.071459
-7110.00000000 9810.00000000 -170.00000000 8 129 187 97.000000 1.000000 4.000000 1.000000 -60.708740 114.000000 148.000000 -0.252968 0.817878 -0.516800
-7170.00000000 9830.00000000 -120.00000000 8 129 187 97.000000 1.000000 4.000000 1.000000 -60.708740 114.000000 148.000000 -0.223618 0.972305 0.067950
-7240.00000000 9870.00000000 -150.00000000 8 129 187 97.000000 1.000000 4.000000 1.000000 -60.708740 114.000000 148.000000 -0.244064 0.964755 -0.098392
-7150.00000000 9820.00000000 -200.00000000 8 129 187 97.000000 1.000000 4.000000 1.000000 -60.708740 114.000000 148.000000 0.023109 0.999708 0.007033
-7150.00000000 9820.00000000 -200.00000000 8 129 187 97.000000 1.000000 4.000000 1.000000 -60.708740 114.000000 148.000000 0.023109 0.999708 0.007033
-7160.00000000 9840.00000000 -290.00000000 8 129 187 97.000000 1.000000 4.000000 1.000000 -60.708740 114.000000 148.000000 0.121271 0.968892 0.215735
-7110.00000000 9780.00000000 -230.00000000 8 129 187 97.000000 1.000000 4.000000 1.000000 -60.708740 114.000000 148.000000 -0.234218 0.964047 0.125520
-7160.00000000 9790.00000000 -230.00000000 8 129 187 97.000000 1.000000 4.000000 1.000000 -60.708740 114.000000 148.000000 -0.200867 0.974392 -0.101057
-7150.00000000 9790.00000000 -230.00000000 8 129 187 97.000000 1.000000 4.000000 1.000000 -60.708740 114.000000 148.000000 -0.171304 0.950937 -0.257630
-7090.00000000 9800.00000000 -340.00000000 8 129 187 97.000000 1.000000 4.000000 1.000000 -60.708740 114.000000 148.000000 -0.215855 0.894256 -0.392063
-7190.00000000 9830.00000000 -200.00000000 8 129 187 97.000000 1.000000 4.000000 1.000000 -60.708740 114.000000 148.000000 0.093237 0.995597 -0.009645
-7200.00000000 9820.00000000 -210.00000000 8 129 187 97.000000 1.000000 4.000000 1.000000 -60.708740 114.000000 148.000000 -0.096235 0.994423 -0.043140
-7190.00000000 9830.00000000 -210.00000000 8 129 187 97.000000 1.000000 4.000000 1.000000 -60.708740 114.000000 148.000000 0.123730 0.976089 0.178721
-7230.00000000 9880.00000000 -200.00000000 8 129 187 97.000000 1.000000 4.000000 1.000000 -60.708740 114.000000 148.000000 0.464987 0.866499 0.181566
-7170.00000000 9790.00000000 -230.00000000 8 129 187 97.000000 1.000000 4.000000 1.000000 -60.708740 114.000000 148.000000 -0.271769 0.914133 -0.300836
-7330.00000000 10000.00000000 -100.00000000 8 129 187 97.000000 1.000000 4.000000 1.000000 -60.708740 114.000000 148.000000 0.741584 0.653984 0.149525
-7330.00000000 10050.00000000 -160.00000000 8 129 187 97.000000 1.000000 4.000000 1.000000 -60.708740 114.000000 148.000000 0.894407 -0.025326 0.446537
-7340.00000000 10030.00000000 -180.00000000 8 129 187 97.000000 1.000000 4.000000 1.000000 -60.708740 114.000000 148.000000 0.890468 -0.321766 0.321766
-7350.00000000 10020.00000000 -340.00000000 8 129 187 97.000000 1.000000 4.000000 1.000000 -60.708740 114.000000 148.000000 0.709072 0.049935 0.703366
-7280.00000000 9890.00000000 -50.00000000 8 129 187 97.000000 1.000000 4.000000 1.000000 -60.708740 114.000000 148.000000 0.367923 0.924559 -0.099108
-7130.00000000 9820.00000000 -690.00000000 8 129 187 97.000000 1.000000 4.000000 1.000000 -60.708740 114.000000 148.000000 0.506151 0.859475 0.071506
-7200.00000000 9870.00000000 -690.00000000 8 129 187 97.000000 1.000000 4.000000 1.000000 -60.708740 114.000000 148.000000 0.830634 0.224868 0.509394
-7280.00000000 9970.00000000 -360.00000000 8 129 187 97.000000 1.000000 4.000000 1.000000 -60.708740 114.000000 148.000000 0.677763 0.085996 0.730235
-7330.00000000 9970.00000000 -470.00000000 8 129 187 97.000000 1.000000 4.000000 1.000000 -60.708740 114.000000 148.000000 0.685335 0.136467 0.715327
-7340.00000000 9990.00000000 -390.00000000 8 129 187 97.000000 1.000000 4.000000 1.000000 -60.708740 114.000000 148.000000 0.767362 0.466307 0.440129
-7350.00000000 9990.00000000 -510.00000000 8 129 187 97.000000 1.000000 4.000000 1.000000 -60.708740 114.000000 148.000000 0.688126 -0.032499 0.724863
-7340.00000000 9980.00000000 -390.00000000 8 129 187 97.000000 1.000000 4.000000 1.000000 -60.708740 114.000000 148.000000 0.792106 0.355082 0.496472
-7290.00000000 9960.00000000 -570.00000000 8 129 187 97.000000 1.000000 4.000000 1.000000 -60.708740 114.000000 148.000000 0.845730 -0.322405 0.425201
-7270.00000000 9920.00000000 -550.00000000 8 129 187 97.000000 1.000000 4.000000 1.000000 -60.708740 114.000000 148.000000 0.841323 -0.078032 0.534871
-7260.00000000 9910.00000000 -590.00000000 8 129 187 97.000000 1.000000 4.000000 1.000000 -60.708740 114.000000 148.000000 0.640296 0.243847 0.728395
-7320.00000000 9950.00000000 -610.00000000 8 129 187 97.000000 1.000000 4.000000 1.000000 -60.708740 114.000000 148.000000 0.817940 0.455823 0.350999
-7320.00000000 9970.00000000 -610.00000000 8 129 187 97.000000 1.000000 4.000000 1.000000 -60.708740 114.000000 148.000000 0.773429 0.032285 0.633061
-7330.00000000 9950.00000000 -690.00000000 8 129 187 97.000000 1.000000 4.000000 1.000000 -60.708740 114.000000 148.000000 0.847921 0.382580 0.366964
-7250.00000000 9880.00000000 -610.00000000 8 129 187 97.000000 1.000000 4.000000 1.000000 -60.708740 114.000000 148.000000 0.610859 0.705845 0.358655
-7240.00000000 9920.00000000 -760.00000000 8 129 187 97.000000 1.000000 4.000000 1.000000 -60.708740 114.000000 148.000000 0.905769 -0.289200 0.309752
-7130.00000000 9820.00000000 -730.00000000 8 129 187 97.000000 1.000000 4.000000 1.000000 -60.708740 114.000000 148.000000 0.756149 0.648336 0.088873
-7140.00000000 9820.00000000 -720.00000000 8 129 187 97.000000 1.000000 4.000000 1.000000 -60.708740 114.000000 148.000000 0.686901 0.686901 0.237350
-7090.00000000 9800.00000000 -710.00000000 8 129 187 97.000000 1.000000 4.000000 1.000000 -60.708740 114.000000 148.000000 0.337334 0.937920 -0.080696
-7120.00000000 9800.00000000 -710.00000000 8 129 187 97.000000 1.000000 4.000000 1.000000 -60.708740 114.000000 148.000000 0.534379 0.844842 0.026101
-7100.00000000 9810.00000000 -730.00000000 8 129 187 97.000000 1.000000 4.000000 1.000000 -60.708740 114.000000 148.000000 0.614447 0.786321 -0.064453
-7120.00000000 9810.00000000 -770.00000000 8 129 187 97.000000 1.000000 4.000000 1.000000 -60.708740 114.000000 148.000000 0.606058 0.792316 -0.070205
-7090.00000000 9780.00000000 -770.00000000 8 129 187 97.000000 1.000000 4.000000 1.000000 -60.708740 114.000000 148.000000 0.816643 0.575712 -0.040622
-7090.00000000 9780.00000000 -770.00000000 8 129 187 97.000000 1.000000 4.000000 1.000000 -60.708740 114.000000 148.000000 0.816643 0.575712 -0.040622
-7090.00000000 9780.00000000 -760.00000000 8 129 187 97.000000 1.000000 4.000000 1.000000 -60.708740 114.000000 148.000000 0.723417 0.678670 -0.126785
-7150.00000000 9800.00000000 -740.00000000 8 129 187 97.000000 1.000000 4.000000 1.000000 -60.708740 114.000000 148.000000 0.573061 0.816005 0.075741
-7140.00000000 9790.00000000 -840.00000000 8 129 187 97.000000 1.000000 4.000000 1.000000 -60.708740 114.000000 148.000000 0.824163 0.255135 0.505631
-7090.00000000 9790.00000000 -800.00000000 8 129 187 97.000000 1.000000 4.000000 1.000000 -60.708740 114.000000 148.000000 0.498806 0.856551 0.132336
-7090.00000000 9790.00000000 -800.00000000 8 129 187 97.000000 1.000000 4.000000 1.000000 -60.708740 114.000000 148.000000 0.498806 0.856551 0.132336
-7090.00000000 9770.00000000 -810.00000000 8 129 187 97.000000 1.000000 4.000000 1.000000 -60.708740 114.000000 148.000000 0.856545 0.516071 -0.001340
-7090.00000000 9780.00000000 -820.00000000 8 129 187 97.000000 1.000000 4.000000 1.000000 -60.708740 114.000000 148.000000 0.682818 0.723934 -0.098385
-7170.00000000 9830.00000000 -700.00000000 8 129 187 97.000000 1.000000 4.000000 1.000000 -60.708740 114.000000 148.000000 0.662488 0.672254 0.330430
-7190.00000000 9840.00000000 -710.00000000 8 129 187 97.000000 1.000000 4.000000 1.000000 -60.708740 114.000000 148.000000 0.899028 0.276966 0.339172
-7240.00000000 9900.00000000 -730.00000000 8 129 187 97.000000 1.000000 4.000000 1.000000 -60.708740 114.000000 148.000000 0.741358 0.366606 0.562129
-7220.00000000 9850.00000000 -700.00000000 8 129 187 97.000000 1.000000 4.000000 1.000000 -60.708740 114.000000 148.000000 0.681326 0.706045 0.193120
-7180.00000000 9820.00000000 -840.00000000 8 129 187 97.000000 1.000000 4.000000 1.000000 -60.708740 114.000000 148.000000 0.767198 0.637164 0.073686
-7220.00000000 9850.00000000 -810.00000000 8 129 187 97.000000 1.000000 4.000000 1.000000 -60.708740 114.000000 148.000000 0.865162 0.310846 0.393534
-7220.00000000 9860.00000000 -840.00000000 8 129 187 97.000000 1.000000 4.000000 1.000000 -60.708740 114.000000 148.000000 0.787555 0.594807 0.161125
-7160.00000000 9820.00000000 -1010.00000000 8 129 187 97.000000 1.000000 4.000000 1.000000 -60.708740 114.000000 148.000000 0.619365 0.595738 0.511355
-7100.00000000 9790.00000000 -910.00000000 8 129 187 97.000000 1.000000 4.000000 1.000000 -60.708740 114.000000 148.000000 0.707745 0.701932 0.079930
-7110.00000000 9780.00000000 -1000.00000000 8 129 187 97.000000 1.000000 4.000000 1.000000 -60.708740 114.000000 148.000000 0.698282 0.715210 0.029624
-7110.00000000 9790.00000000 -1010.00000000 8 129 187 97.000000 1.000000 4.000000 1.000000 -60.708740 114.000000 148.000000 0.817760 0.573695 0.046288
-7130.00000000 9800.00000000 -970.00000000 8 129 187 97.000000 1.000000 4.000000 1.000000 -60.708740 114.000000 148.000000 0.762186 0.638349 0.107620
-7200.00000000 9900.00000000 -920.00000000 8 129 187 97.000000 1.000000 4.000000 1.000000 -60.708740 114.000000 148.000000 0.828989 -0.275293 0.486817
-7180.00000000 9820.00000000 -900.00000000 8 129 187 97.000000 1.000000 4.000000 1.000000 -60.708740 114.000000 148.000000 0.935445 0.345334 0.075418
-7170.00000000 9830.00000000 -910.00000000 8 129 187 97.000000 1.000000 4.000000 1.000000 -60.708740 114.000000 148.000000 0.939995 0.330125 0.086177
-7200.00000000 9840.00000000 -910.00000000 8 129 187 97.000000 1.000000 4.000000 1.000000 -60.708740 114.000000 148.000000 0.672648 0.152669 0.724042
-7210.00000000 9840.00000000 -900.00000000 8 129 187 97.000000 1.000000 4.000000 1.000000 -60.708740 114.000000 148.000000 0.781177 0.040966 0.622964
-7200.00000000 9870.00000000 -960.00000000 8 129 187 97.000000 1.000000 4.000000 1.000000 -60.708740 114.000000 148.000000 0.915379 0.398049 0.060311
-7170.00000000 9830.00000000 -1000.00000000 8 129 187 97.000000 1.000000 4.000000 1.000000 -60.708740 114.000000 148.000000 0.836442 0.382779 0.392230
-7260.00000000 9920.00000000 -720.00000000 8 129 187 97.000000 1.000000 4.000000 1.000000 -60.708740 114.000000 148.000000 0.990711 0.025806 0.133516
-7320.00000000 9950.00000000 -710.00000000 8 129 187 97.000000 1.000000 4.000000 1.000000 -60.708740 114.000000 148.000000 0.845845 0.093029 0.525254
-7300.00000000 9910.00000000 -730.00000000 8 129 187 97.000000 1.000000 4.000000 1.000000 -60.708740 114.000000 148.000000 0.847114 0.452103 0.279285
-7250.00000000 9880.00000000 -720.00000000 8 129 187 97.000000 1.000000 4.000000 1.000000 -60.708740 114.000000 148.000000 0.812566 0.574175 0.100299
-7250.00000000 9890.00000000 -860.00000000 8 129 187 97.000000 1.000000 4.000000 1.000000 -60.708740 114.000000 148.000000 0.885976 0.235963 0.399209
-7260.00000000 9900.00000000 -790.00000000 8 129 187 97.000000 1.000000 4.000000 1.000000 -60.708740 114.000000 148.000000 0.890265 0.397150 0.222935
-7090.00000000 9810.00000000 -1040.00000000 8 129 187 97.000000 1.000000 4.000000 1.000000 -60.708740 114.000000 148.000000 0.855490 0.493269 0.157552
-7120.00000000 9780.00000000 -1040.00000000 8 129 187 97.000000 1.000000 4.000000 1.000000 -60.708740 114.000000 148.000000 0.775086 0.621545 0.113679
-7090.00000000 9780.00000000 -1050.00000000 8 129 187 97.000000 1.000000 4.000000 1.000000 -60.708740 114.000000 148.000000 0.891952 0.446663 -0.070092
-7110.00000000 9760.00000000 -1050.00000000 8 129 187 97.000000 1.000000 4.000000 1.000000 -60.708740 114.000000 148.000000 0.753273 0.576599 0.316407
-7100.00000000 9740.00000000 -1070.00000000 8 129 187 97.000000 1.000000 4.000000 1.000000 -60.708740 114.000000 148.000000 0.837351 0.523159 0.158578
-6720.00000000 9730.00000000 -1130.00000000 8 129 187 97.000000 1.000000 4.000000 1.000000 -60.708740 114.000000 148.000000 -0.302952 0.884740 -0.354197
-6740.00000000 9730.00000000 -1130.00000000 8 129 187 97.000000 1.000000 4.000000 1.000000 -60.708740 114.000000 148.000000 -0.210656 0.969018 -0.128947
-6710.00000000 9730.00000000 -1140.00000000 8 129 187 97.000000 1.000000 4.000000 1.000000 -60.708740 114.000000 148.000000 -0.237715 0.957502 -0.163346
-6730.00000000 9730.00000000 -1130.00000000 8 129 187 97.000000 1.000000 4.000000 1.000000 -60.708740 114.000000 148.000000 -0.438849 0.897830 -0.036235
-6740.00000000 9660.00000000 -1190.00000000 8 129 187 97.000000 1.000000 4.000000 1.000000 -60.708740 114.000000 148.000000 -0.259477 0.963951 -0.058915
-6650.00000000 9690.00000000 -1230.00000000 8 129 187 97.000000 1.000000 4.000000 1.000000 -60.708740 114.000000 148.000000 -0.316371 0.799672 -0.510327
-6660.00000000 9720.00000000 -1240.00000000 8 129 187 97.000000 1.000000 4.000000 1.000000 -60.708740 114.000000 148.000000 -0.395502 0.821182 -0.411385
-6630.00000000 9730.00000000 -1300.00000000 8 129 187 97.000000 1.000000 4.000000 1.000000 -60.708740 114.000000 148.000000 0.096753 0.919831 -0.380197
-6650.00000000 9730.00000000 -1300.00000000 8 129 187 97.000000 1.000000 4.000000 1.000000 -60.708740 114.000000 148.000000 -0.210198 0.974779 0.074983
-6630.00000000 9730.00000000 -1300.00000000 8 129 187 97.000000 1.000000 4.000000 1.000000 -60.708740 114.000000 148.000000 0.096753 0.919831 -0.380197
-6650.00000000 9660.00000000 -1310.00000000 8 129 187 97.000000 1.000000 4.000000 1.000000 -60.708740 114.000000 148.000000 0.268409 0.961483 -0.059226
-6650.00000000 9650.00000000 -1350.00000000 8 129 187 97.000000 1.000000 4.000000 1.000000 -60.708740 114.000000 148.000000 -0.241286 0.968855 -0.055681
-6710.00000000 9710.00000000 -1200.00000000 8 129 187 97.000000 1.000000 4.000000 1.000000 -60.708740 114.000000 148.000000 -0.308527 0.928398 -0.207093
-6740.00000000 9670.00000000 -1230.00000000 8 129 187 97.000000 1.000000 4.000000 1.000000 -60.708740 114.000000 148.000000 -0.148737 0.966143 -0.210818
-6730.00000000 9670.00000000 -1220.00000000 8 129 187 97.000000 1.000000 4.000000 1.000000 -60.708740 114.000000 148.000000 -0.143472 0.899189 -0.413371
-6740.00000000 9660.00000000 -1260.00000000 8 129 187 97.000000 1.000000 4.000000 1.000000 -60.708740 114.000000 148.000000 0.054034 0.961296 -0.270168
-6670.00000000 9730.00000000 -1290.00000000 8 129 187 97.000000 1.000000 4.000000 1.000000 -60.708740 114.000000 148.000000 0.229169 0.971823 -0.055148
-6690.00000000 9630.00000000 -1250.00000000 8 129 187 97.000000 1.000000 4.000000 1.000000 -60.708740 114.000000 148.000000 0.211856 0.958014 -0.193202
-6700.00000000 9590.00000000 -1270.00000000 8 129 187 97.000000 1.000000 4.000000 1.000000 -60.708740 114.000000 148.000000 -0.110651 0.975967 -0.187734
-6720.00000000 9600.00000000 -1220.00000000 8 129 187 97.000000 1.000000 4.000000 1.000000 -60.708740 114.000000 148.000000 -0.076942 0.964923 0.251006
-6710.00000000 9600.00000000 -1270.00000000 8 129 187 97.000000 1.000000 4.000000 1.000000 -60.708740 114.000000 148.000000 0.420141 0.898282 -0.128730
-6710.00000000 9600.00000000 -1280.00000000 8 129 187 97.000000 1.000000 4.000000 1.000000 -60.708740 114.000000 148.000000 0.163016 0.974303 0.155434
-6790.00000000 9730.00000000 -940.00000000 8 129 187 97.000000 1.000000 4.000000 1.000000 -60.708740 114.000000 148.000000 -0.120414 0.985965 0.115645
-6780.00000000 9730.00000000 -1020.00000000 8 129 187 97.000000 1.000000 4.000000 1.000000 -60.708740 114.000000 148.000000 -0.290214 0.937295 -0.193013
-6800.00000000 9710.00000000 -960.00000000 8 129 187 97.000000 1.000000 4.000000 1.000000 -60.708740 114.000000 148.000000 -0.144820 0.982096 -0.120480
-6800.00000000 9720.00000000 -1020.00000000 8 129 187 97.000000 1.000000 4.000000 1.000000 -60.708740 114.000000 148.000000 -0.030458 0.907111 -0.419787
-6800.00000000 9730.00000000 -980.00000000 8 129 187 97.000000 1.000000 4.000000 1.000000 -60.708740 114.000000 148.000000 -0.188004 0.866004 -0.463349
-6810.00000000 9730.00000000 -1010.00000000 8 129 187 97.000000 1.000000 4.000000 1.000000 -60.708740 114.000000 148.000000 0.197558 0.975365 -0.098158
-6820.00000000 9720.00000000 -970.00000000 8 129 187 97.000000 1.000000 4.000000 1.000000 -60.708740 114.000000 148.000000 0.195882 0.856799 -0.476996
-6840.00000000 9730.00000000 -940.00000000 8 129 187 97.000000 1.000000 4.000000 1.000000 -60.708740 114.000000 148.000000 0.393914 0.917352 -0.057418
-6830.00000000 9730.00000000 -870.00000000 8 129 187 97.000000 1.000000 4.000000 1.000000 -60.708740 114.000000 148.000000 -0.447884 0.867308 -0.217201
-6870.00000000 9700.00000000 -1010.00000000 8 129 187 97.000000 1.000000 4.000000 1.000000 -60.708740 114.000000 148.000000 0.485154 0.871041 -0.076898
-6870.00000000 9710.00000000 -1000.00000000 8 129 187 97.000000 1.000000 4.000000 1.000000 -60.708740 114.000000 148.000000 0.590284 0.793522 0.147945
-6830.00000000 9720.00000000 -1030.00000000 8 129 187 97.000000 1.000000 4.000000 1.000000 -60.708740 114.000000 148.000000 0.029997 0.924694 -0.379529
-6830.00000000 9720.00000000 -990.00000000 8 129 187 97.000000 1.000000 4.000000 1.000000 -60.708740 114.000000 148.000000 0.011275 0.945831 -0.324464
-6860.00000000 9690.00000000 -1020.00000000 8 129 187 97.000000 1.000000 4.000000 1.000000 -60.708740 114.000000 148.000000 0.452577 0.877504 -0.158620
-6880.00000000 9730.00000000 -970.00000000 8 129 187 97.000000 1.000000 4.000000 1.000000 -60.708740 114.000000 148.000000 0.577502 0.814716 0.052243
-6880.00000000 9730.00000000 -980.00000000 8 129 187 97.000000 1.000000 4.000000 1.000000 -60.708740 114.000000 148.000000 0.138509 0.956372 -0.257231
-6890.00000000 9700.00000000 -970.00000000 8 129 187 97.000000 1.000000 4.000000 1.000000 -60.708740 114.000000 148.000000 0.022482 0.996688 -0.078151
-6880.00000000 9730.00000000 -970.00000000 8 129 187 97.000000 1.000000 4.000000 1.000000 -60.708740 114.000000 148.000000 0.577502 0.814716 0.052243
-6900.00000000 9730.00000000 -990.00000000 8 129 187 97.000000 1.000000 4.000000 1.000000 -60.708740 114.000000 148.000000 0.418544 0.904330 -0.083709
-6910.00000000 9720.00000000 -1020.00000000 8 129 187 97.000000 1.000000 4.000000 1.000000 -60.708740 114.000000 148.000000 0.613768 0.769114 0.178191
-6950.00000000 9720.00000000 -910.00000000 8 129 187 97.000000 1.000000 4.000000 1.000000 -60.708740 114.000000 148.000000 0.492518 0.863691 -0.107069
-6930.00000000 9710.00000000 -900.00000000 8 129 187 97.000000 1.000000 4.000000 1.000000 -60.708740 114.000000 148.000000 0.051281 0.996163 -0.070921
-6950.00000000 9730.00000000 -1030.00000000 8 129 187 97.000000 1.000000 4.000000 1.000000 -60.708740 114.000000 148.000000 0.747504 0.661088 -0.064813
-7010.00000000 9730.00000000 -1030.00000000 8 129 187 97.000000 1.000000 4.000000 1.000000 -60.708740 114.000000 148.000000 0.562212 0.816019 -0.134282
-6810.00000000 9720.00000000 -1040.00000000 8 129 187 97.000000 1.000000 4.000000 1.000000 -60.708740 114.000000 148.000000 -0.066727 0.963135 0.260613
-6800.00000000 9710.00000000 -1070.00000000 8 129 187 97.000000 1.000000 4.000000 1.000000 -60.708740 114.000000 148.000000 0.109250 0.911339 -0.396896
-6820.00000000 9700.00000000 -1110.00000000 8 129 187 97.000000 1.000000 4.000000 1.000000 -60.708740 114.000000 148.000000 0.032831 0.969117 -0.244407
-6770.00000000 9700.00000000 -1120.00000000 8 129 187 97.000000 1.000000 4.000000 1.000000 -60.708740 114.000000 148.000000 -0.249573 0.951076 -0.182121
-6750.00000000 9700.00000000 -1120.00000000 8 129 187 97.000000 1.000000 4.000000 1.000000 -60.708740 114.000000 148.000000 0.128368 0.981710 0.140594
-6800.00000000 9670.00000000 -1170.00000000 8 129 187 97.000000 1.000000 4.000000 1.000000 -60.708740 114.000000 148.000000 -0.035924 0.962522 0.268813
-6790.00000000 9640.00000000 -1190.00000000 8 129 187 97.000000 1.000000 4.000000 1.000000 -60.708740 114.000000 148.000000 0.356121 0.933685 0.037555
-6860.00000000 9720.00000000 -1060.00000000 8 129 187 97.000000 1.000000 4.000000 1.000000 -60.708740 114.000000 148.000000 0.463528 0.876829 -0.127721
-6860.00000000 9710.00000000 -1110.00000000 8 129 187 97.000000 1.000000 4.000000 1.000000 -60.708740 114.000000 148.000000 0.144710 0.975218 -0.167360
-6870.00000000 9710.00000000 -1080.00000000 8 129 187 97.000000 1.000000 4.000000 1.000000 -60.708740 114.000000 148.000000 0.538328 0.798859 0.268379
-6830.00000000 9680.00000000 -1110.00000000 8 129 187 97.000000 1.000000 4.000000 1.000000 -60.708740 114.000000 148.000000 -0.099159 0.994856 0.020703
-6880.00000000 9700.00000000 -1060.00000000 8 129 187 97.000000 1.000000 4.000000 1.000000 -60.708740 114.000000 148.000000 0.297317 0.953201 0.054870
-6880.00000000 9730.00000000 -1050.00000000 8 129 187 97.000000 1.000000 4.000000 1.000000 -60.708740 114.000000 148.000000 0.361405 0.918278 -0.161718
-6860.00000000 9700.00000000 -1140.00000000 8 129 187 97.000000 1.000000 4.000000 1.000000 -60.708740 114.000000 148.000000 0.476996 0.856799 -0.195882
-6870.00000000 9710.00000000 -1130.00000000 8 129 187 97.000000 1.000000 4.000000 1.000000 -60.708740 114.000000 148.000000 0.467687 0.877091 -0.109459
-6860.00000000 9690.00000000 -1120.00000000 8 129 187 97.000000 1.000000 4.000000 1.000000 -60.708740 114.000000 148.000000 0.103057 0.994003 0.036569
-6840.00000000 9680.00000000 -1160.00000000 8 129 187 97.000000 1.000000 4.000000 1.000000 -60.708740 114.000000 148.000000 0.377281 0.896961 0.230479
-6850.00000000 9660.00000000 -1180.00000000 8 129 187 97.000000 1.000000 4.000000 1.000000 -60.708740 114.000000 148.000000 0.237541 0.907902 0.345382
-6830.00000000 9690.00000000 -1190.00000000 8 129 187 97.000000 1.000000 4.000000 1.000000 -60.708740 114.000000 148.000000 0.379017 0.895188 0.234489
-6830.00000000 9660.00000000 -1180.00000000 8 129 187 97.000000 1.000000 4.000000 1.000000 -60.708740 114.000000 148.000000 0.571454 0.808941 -0.138039
-6850.00000000 9690.00000000 -1170.00000000 8 129 187 97.000000 1.000000 4.000000 1.000000 -60.708740 114.000000 148.000000 0.245384 0.953379 0.175658
-6900.00000000 9700.00000000 -1140.00000000 8 129 187 97.000000 1.000000 4.000000 1.000000 -60.708740 114.000000 148.000000 0.665094 0.734156 -0.136622
-6890.00000000 9690.00000000 -1160.00000000 8 129 187 97.000000 1.000000 4.000000 1.000000 -60.708740 114.000000 148.000000 0.520819 0.808600 -0.273704
-6860.00000000 9650.00000000 -1190.00000000 8 129 187 97.000000 1.000000 4.000000 1.000000 -60.708740 114.000000 148.000000 0.611800 0.774947 -0.158615
-6790.00000000 9660.00000000 -1230.00000000 8 129 187 97.000000 1.000000 4.000000 1.000000 -60.708740 114.000000 148.000000 0.125332 0.942008 -0.311307
-6790.00000000 9660.00000000 -1220.00000000 8 129 187 97.000000 1.000000 4.000000 1.000000 -60.708740 114.000000 148.000000 0.151969 0.924361 -0.349947
-6780.00000000 9610.00000000 -1270.00000000 8 129 187 97.000000 1.000000 4.000000 1.000000 -60.708740 114.000000 148.000000 0.201743 0.973630 -0.106510
-6820.00000000 9650.00000000 -1270.00000000 8 129 187 97.000000 1.000000 4.000000 1.000000 -60.708740 114.000000 148.000000 0.445303 0.894643 -0.036324
-6800.00000000 9630.00000000 -1270.00000000 8 129 187 97.000000 1.000000 4.000000 1.000000 -60.708740 114.000000 148.000000 0.093434 0.995555 0.011813
-6780.00000000 9610.00000000 -1300.00000000 8 129 187 97.000000 1.000000 4.000000 1.000000 -60.708740 114.000000 148.000000 0.188716 0.969254 -0.157905
-6760.00000000 9570.00000000 -1350.00000000 8 129 187 97.000000 1.000000 4.000000 1.000000 -60.708740 114.000000 148.000000 0.424697 0.900579 -0.092686
-6780.00000000 9590.00000000 -1360.00000000 8 129 187 97.000000 1.000000 4.000000 1.000000 -60.708740 114.000000 148.000000 0.447665 0.888314 -0.102444
-6790.00000000 9610.00000000 -1300.00000000 8 129 187 97.000000 1.000000 4.000000 1.000000 -60.708740 114.000000 148.000000 0.407597 0.901826 -0.143440
-6810.00000000 9640.00000000 -1290.00000000 8 129 187 97.000000 1.000000 4.000000 1.000000 -60.708740 114.000000 148.000000 0.399987 0.911310 -0.097591
-6800.00000000 9600.00000000 -1360.00000000 8 129 187 97.000000 1.000000 4.000000 1.000000 -60.708740 114.000000 148.000000 0.328916 0.942545 -0.058503
-6870.00000000 9690.00000000 -1230.00000000 8 129 187 97.000000 1.000000 4.000000 1.000000 -60.708740 114.000000 148.000000 0.759328 0.646514 -0.073763
-6860.00000000 9660.00000000 -1260.00000000 8 129 187 97.000000 1.000000 4.000000 1.000000 -60.708740 114.000000 148.000000 0.260842 0.942620 0.208398
-6850.00000000 9660.00000000 -1260.00000000 8 129 187 97.000000 1.000000 4.000000 1.000000 -60.708740 114.000000 148.000000 0.585336 0.675388 0.448591
-6880.00000000 9700.00000000 -1200.00000000 8 129 187 97.000000 1.000000 4.000000 1.000000 -60.708740 114.000000 148.000000 0.724878 0.688842 0.006930
-6910.00000000 9720.00000000 -1200.00000000 8 129 187 97.000000 1.000000 4.000000 1.000000 -60.708740 114.000000 148.000000 0.556256 0.830983 0.006800
-6890.00000000 9680.00000000 -1270.00000000 8 129 187 97.000000 1.000000 4.000000 1.000000 -60.708740 114.000000 148.000000 0.735652 0.677244 -0.012516
-6870.00000000 9710.00000000 -1300.00000000 8 129 187 97.000000 1.000000 4.000000 1.000000 -60.708740 114.000000 148.000000 0.634123 0.729004 0.257761
-6910.00000000 9660.00000000 -1340.00000000 8 129 187 97.000000 1.000000 4.000000 1.000000 -60.708740 114.000000 148.000000 0.710145 0.612194 0.347726
-6840.00000000 9650.00000000 -1250.00000000 8 129 187 97.000000 1.000000 4.000000 1.000000 -60.708740 114.000000 148.000000 0.388830 0.881247 0.268728
-6850.00000000 9650.00000000 -1240.00000000 8 129 187 97.000000 1.000000 4.000000 1.000000 -60.708740 114.000000 148.000000 0.623436 0.781725 0.015273
-6840.00000000 9650.00000000 -1250.00000000 8 129 187 97.000000 1.000000 4.000000 1.000000 -60.708740 114.000000 148.000000 0.388830 0.881247 0.268728
-6860.00000000 9650.00000000 -1200.00000000 8 129 187 97.000000 1.000000 4.000000 1.000000 -60.708740 114.000000 148.000000 0.588354 0.734227 0.338749
-6830.00000000 9610.00000000 -1300.00000000 8 129 187 97.000000 1.000000 4.000000 1.000000 -60.708740 114.000000 148.000000 0.483582 0.868736 -0.106987
-6880.00000000 9650.00000000 -1290.00000000 8 129 187 97.000000 1.000000 4.000000 1.000000 -60.708740 114.000000 148.000000 0.535357 0.838389 0.102454
-6840.00000000 9650.00000000 -1310.00000000 8 129 187 97.000000 1.000000 4.000000 1.000000 -60.708740 114.000000 148.000000 0.718846 0.642677 0.265005
-6880.00000000 9630.00000000 -1360.00000000 8 129 187 97.000000 1.000000 4.000000 1.000000 -60.708740 114.000000 148.000000 0.548067 0.836380 -0.009520
-6880.00000000 9630.00000000 -1340.00000000 8 129 187 97.000000 1.000000 4.000000 1.000000 -60.708740 114.000000 148.000000 0.885473 0.427419 0.182346
-6750.00000000 9560.00000000 -1340.00000000 8 129 187 97.000000 1.000000 4.000000 1.000000 -60.708740 114.000000 148.000000 0.166661 0.976155 0.139093
-6960.00000000 9710.00000000 -1060.00000000 8 129 187 97.000000 1.000000 4.000000 1.000000 -60.708740 114.000000 148.000000 0.413804 0.905970 0.089360
-6920.00000000 9730.00000000 -1100.00000000 8 129 187 97.000000 1.000000 4.000000 1.000000 -60.708740 114.000000 148.000000 0.285700 0.948308 0.138155
-6920.00000000 9730.00000000 -1080.00000000 8 129 187 97.000000 1.000000 4.000000 1.000000 -60.708740 114.000000 148.000000 0.529258 0.845402 -0.071979
-6920.00000000 9700.00000000 -1190.00000000 8 129 187 97.000000 1.000000 4.000000 1.000000 -60.708740 114.000000 148.000000 0.499644 0.862765 0.077410
-6960.00000000 9700.00000000 -1150.00000000 8 129 187 97.000000 1.000000 4.000000 1.000000 -60.708740 114.000000 148.000000 0.885992 0.386968 0.255488
-6920.00000000 9710.00000000 -1150.00000000 8 129 187 97.000000 1.000000 4.000000 1.000000 -60.708740 114.000000 148.000000 0.312128 0.872435 0.376076
-6940.00000000 9710.00000000 -1140.00000000 8 129 187 97.000000 1.000000 4.000000 1.000000 -60.708740 114.000000 148.000000 0.646738 0.736263 0.199115
-6920.00000000 9660.00000000 -1330.00000000 8 129 187 97.000000 1.000000 4.000000 1.000000 -60.708740 114.000000 148.000000 0.801610 0.596645 0.037904
-6920.00000000 9660.00000000 -1310.00000000 8 129 187 97.000000 1.000000 4.000000 1.000000 -60.708740 114.000000 148.000000 0.748771 0.659666 0.064673
-6610.00000000 9590.00000000 -1450.00000000 8 129 187 97.000000 1.000000 4.000000 1.000000 -60.708740 114.000000 148.000000 -0.230479 0.896961 -0.377281
-6660.00000000 9650.00000000 -1370.00000000 8 129 187 97.000000 1.000000 4.000000 1.000000 -60.708740 114.000000 148.000000 0.199740 0.967775 -0.153349
-6660.00000000 9590.00000000 -1370.00000000 8 129 187 97.000000 1.000000 4.000000 1.000000 -60.708740 114.000000 148.000000 -0.251240 0.955777 -0.152871
-6640.00000000 9590.00000000 -1430.00000000 8 129 187 97.000000 1.000000 4.000000 1.000000 -60.708740 114.000000 148.000000 -0.199087 0.961154 -0.191176
-6670.00000000 9600.00000000 -1390.00000000 8 129 187 97.000000 1.000000 4.000000 1.000000 -60.708740 114.000000 148.000000 0.070737 0.953023 0.294524
-6810.00000000 9590.00000000 -1390.00000000 8 129 187 97.000000 1.000000 4.000000 1.000000 -60.708740 114.000000 148.000000 0.151980 0.986100 0.067154
-6820.00000000 9590.00000000 -1370.00000000 8 129 187 97.000000 1.000000 4.000000 1.000000 -60.708740 114.000000 148.000000 0.248132 0.953632 0.170339
-6870.00000000 9620.00000000 -1410.00000000 8 129 187 97.000000 1.000000 4.000000 1.000000 -60.708740 114.000000 148.000000 0.852249 0.521813 0.037174
-6750.00000000 9550.00000000 -1400.00000000 8 129 187 97.000000 1.000000 4.000000 1.000000 -60.708740 114.000000 148.000000 0.347300 0.878109 -0.329101
-6750.00000000 9540.00000000 -1380.00000000 8 129 187 97.000000 1.000000 4.000000 1.000000 -60.708740 114.000000 148.000000 0.228828 0.973408 -0.010671
-7290.00000000 10370.00000000 10.00000000 8 129 187 97.000000 1.000000 4.000000 1.000000 -60.708740 114.000000 148.000000 0.172642 0.970633 0.167527
-7330.00000000 10330.00000000 30.00000000 8 129 187 97.000000 1.000000 4.000000 1.000000 -60.708740 114.000000 148.000000 -0.074037 0.873073 -0.481936
-7370.00000000 10250.00000000 50.00000000 8 129 187 97.000000 1.000000 4.000000 1.000000 -60.708740 114.000000 148.000000 -0.246104 0.968500 0.037956
-7350.00000000 10120.00000000 270.00000000 8 129 187 97.000000 1.000000 4.000000 1.000000 -60.708740 114.000000 148.000000 0.726522 0.558483 0.400328
-7360.00000000 10140.00000000 280.00000000 8 129 187 97.000000 1.000000 4.000000 1.000000 -60.708740 114.000000 148.000000 0.469884 0.835866 0.283791
-7350.00000000 10100.00000000 190.00000000 8 129 187 97.000000 1.000000 4.000000 1.000000 -60.708740 114.000000 148.000000 0.884690 0.458367 -0.084986
-7360.00000000 10130.00000000 170.00000000 8 129 187 97.000000 1.000000 4.000000 1.000000 -60.708740 114.000000 148.000000 0.275028 0.959428 0.062103
-7360.00000000 10200.00000000 130.00000000 8 129 187 97.000000 1.000000 4.000000 1.000000 -60.708740 114.000000 148.000000 -0.293597 0.954508 0.052110
-7380.00000000 10200.00000000 30.00000000 8 129 187 97.000000 1.000000 4.000000 1.000000 -60.708740 114.000000 148.000000 -0.415207 0.907504 0.063566
-7350.00000000 10150.00000000 20.00000000 8 129 187 97.000000 1.000000 4.000000 1.000000 -60.708740 114.000000 148.000000 -0.494241 0.869274 -0.009376
-7180.00000000 9840.00000000 310.00000000 8 129 187 97.000000 1.000000 4.000000 1.000000 -60.708740 114.000000 148.000000 0.639612 -0.395006 0.659445
-7240.00000000 9880.00000000 180.00000000 8 129 187 97.000000 1.000000 4.000000 1.000000 -60.708740 114.000000 148.000000 -0.309854 0.756173 -0.576361
-7220.00000000 9810.00000000 250.00000000 8 129 187 97.000000 1.000000 4.000000 1.000000 -60.708740 114.000000 148.000000 -0.430052 0.897682 -0.096031
-7130.00000000 9810.00000000 110.00000000 8 129 187 97.000000 1.000000 4.000000 1.000000 -60.708740 114.000000 148.000000 -0.423643 0.810518 -0.404459
-7170.00000000 9830.00000000 70.00000000 8 129 187 97.000000 1.000000 4.000000 1.000000 -60.708740 114.000000 148.000000 -0.391391 0.897725 -0.202243
-7180.00000000 9810.00000000 0.00000000 8 129 187 97.000000 1.000000 4.000000 1.000000 -60.708740 114.000000 148.000000 -0.531202 0.741709 -0.409502
-7300.00000000 9960.00000000 220.00000000 8 129 187 97.000000 1.000000 4.000000 1.000000 -60.708740 114.000000 148.000000 0.720275 -0.657778 0.220301
-7270.00000000 9910.00000000 80.00000000 8 129 187 97.000000 1.000000 4.000000 1.000000 -60.708740 114.000000 148.000000 -0.408836 0.686910 -0.600839
-7280.00000000 9880.00000000 180.00000000 8 129 187 97.000000 1.000000 4.000000 1.000000 -60.708740 114.000000 148.000000 -0.408601 0.864643 -0.292295
-7250.00000000 9900.00000000 0.00000000 8 129 187 97.000000 1.000000 4.000000 1.000000 -60.708740 114.000000 148.000000 -0.049323 0.915805 -0.398582
-7250.00000000 9880.00000000 10.00000000 8 129 187 97.000000 1.000000 4.000000 1.000000 -60.708740 114.000000 148.000000 -0.305637 0.766492 -0.564868
-6660.00000000 9930.00000000 -690.00000000 8 129 187 97.000000 1.000000 4.000000 1.000000 -60.708740 114.000000 148.000000 0.960902 -0.224780 0.161684
-6710.00000000 9920.00000000 -590.00000000 8 129 187 97.000000 1.000000 4.000000 1.000000 -60.708740 114.000000 148.000000 0.812652 -0.153584 0.562146
-6710.00000000 9870.00000000 -580.00000000 8 129 187 97.000000 1.000000 4.000000 1.000000 -60.708740 114.000000 148.000000 0.693098 -0.462622 0.552808
-6850.00000000 9820.00000000 -330.00000000 8 129 187 97.000000 1.000000 4.000000 1.000000 -60.708740 114.000000 148.000000 0.931228 -0.212090 0.296364
-6890.00000000 9780.00000000 -320.00000000 8 129 187 97.000000 1.000000 4.000000 1.000000 -60.708740 114.000000 148.000000 -0.253882 0.802143 -0.540473
-6980.00000000 9780.00000000 -140.00000000 8 129 187 97.000000 1.000000 4.000000 1.000000 -60.708740 114.000000 148.000000 0.749453 -0.386972 0.537190
-7050.00000000 9770.00000000 -100.00000000 8 129 187 97.000000 1.000000 4.000000 1.000000 -60.708740 114.000000 148.000000 -0.301997 0.758988 -0.576831
-7030.00000000 9780.00000000 -110.00000000 8 129 187 97.000000 1.000000 4.000000 1.000000 -60.708740 114.000000 148.000000 -0.502004 0.843667 -0.190312
-7030.00000000 9790.00000000 -200.00000000 8 129 187 97.000000 1.000000 4.000000 1.000000 -60.708740 114.000000 148.000000 -0.607361 0.793374 -0.040867
-7000.00000000 9790.00000000 -210.00000000 8 129 187 97.000000 1.000000 4.000000 1.000000 -60.708740 114.000000 148.000000 -0.358305 0.626625 -0.692069
-7010.00000000 9750.00000000 -350.00000000 8 129 187 97.000000 1.000000 4.000000 1.000000 -60.708740 114.000000 148.000000 -0.470326 0.877095 0.097455
-6780.00000000 9820.00000000 -460.00000000 8 129 187 97.000000 1.000000 4.000000 1.000000 -60.708740 114.000000 148.000000 -0.665752 0.471225 -0.578551
-6790.00000000 9800.00000000 -510.00000000 8 129 187 97.000000 1.000000 4.000000 1.000000 -60.708740 114.000000 148.000000 0.840942 -0.197072 0.503963
-6890.00000000 9780.00000000 -440.00000000 8 129 187 97.000000 1.000000 4.000000 1.000000 -60.708740 114.000000 148.000000 0.816059 -0.533282 0.222841
-6890.00000000 9780.00000000 -440.00000000 8 129 187 97.000000 1.000000 4.000000 1.000000 -60.708740 114.000000 148.000000 0.816059 -0.533282 0.222841
-6880.00000000 9770.00000000 -360.00000000 8 129 187 97.000000 1.000000 4.000000 1.000000 -60.708740 114.000000 148.000000 -0.460315 0.634398 -0.621007
-6750.00000000 9850.00000000 -620.00000000 8 129 187 97.000000 1.000000 4.000000 1.000000 -60.708740 114.000000 148.000000 0.660375 -0.529309 0.532669
-6760.00000000 9830.00000000 -630.00000000 8 129 187 97.000000 1.000000 4.000000 1.000000 -60.708740 114.000000 148.000000 0.468561 -0.531925 0.705342
-6790.00000000 9810.00000000 -600.00000000 8 129 187 97.000000 1.000000 4.000000 1.000000 -60.708740 114.000000 148.000000 0.694380 -0.454594 0.557835
-6850.00000000 9790.00000000 -560.00000000 8 129 187 97.000000 1.000000 4.000000 1.000000 -60.708740 114.000000 148.000000 -0.721039 0.389262 -0.573217
-6860.00000000 9790.00000000 -620.00000000 8 129 187 97.000000 1.000000 4.000000 1.000000 -60.708740 114.000000 148.000000 -0.314722 0.848044 -0.426347
-6990.00000000 9790.00000000 -400.00000000 8 129 187 97.000000 1.000000 4.000000 1.000000 -60.708740 114.000000 148.000000 -0.592698 0.775305 -0.218200
-7030.00000000 9760.00000000 -360.00000000 8 129 187 97.000000 1.000000 4.000000 1.000000 -60.708740 114.000000 148.000000 -0.488872 0.777972 -0.394670
-7000.00000000 9760.00000000 -370.00000000 8 129 187 97.000000 1.000000 4.000000 1.000000 -60.708740 114.000000 148.000000 0.223271 -0.719776 0.657322
-7070.00000000 9790.00000000 -480.00000000 8 129 187 97.000000 1.000000 4.000000 1.000000 -60.708740 114.000000 148.000000 -0.316967 0.948416 0.006215
-7010.00000000 9770.00000000 -650.00000000 8 129 187 97.000000 1.000000 4.000000 1.000000 -60.708740 114.000000 148.000000 0.454022 0.887217 -0.081918
-6580.00000000 10080.00000000 -950.00000000 8 129 187 97.000000 1.000000 4.000000 1.000000 -60.708740 114.000000 148.000000 0.936949 0.277047 0.213006
-6570.00000000 10140.00000000 -1090.00000000 8 129 187 97.000000 1.000000 4.000000 1.000000 -60.708740 114.000000 148.000000 0.665582 0.598857 0.445389
-6600.00000000 10120.00000000 -1050.00000000 8 129 187 97.000000 1.000000 4.000000 1.000000 -60.708740 114.000000 148.000000 0.790926 0.571995 0.217389
-6640.00000000 9990.00000000 -820.00000000 8 129 187 97.000000 1.000000 4.000000 1.000000 -60.708740 114.000000 148.000000 0.901150 -0.027953 0.432605
-6640.00000000 9950.00000000 -720.00000000 8 129 187 97.000000 1.000000 4.000000 1.000000 -60.708740 114.000000 148.000000 0.925393 0.231704 0.299935
-6630.00000000 9950.00000000 -810.00000000 8 129 187 97.000000 1.000000 4.000000 1.000000 -60.708740 114.000000 148.000000 0.938459 0.288863 0.189350
-6630.00000000 9980.00000000 -820.00000000 8 129 187 97.000000 1.000000 4.000000 1.000000 -60.708740 114.000000 148.000000 0.830783 -0.099694 0.547595
-6670.00000000 9910.00000000 -710.00000000 8 129 187 97.000000 1.000000 4.000000 1.000000 -60.708740 114.000000 148.000000 0.919613 -0.280633 0.274876
-6630.00000000 10010.00000000 -930.00000000 8 129 187 97.000000 1.000000 4.000000 1.000000 -60.708740 114.000000 148.000000 0.905961 0.197953 0.374233
