//X Y Z R G B PointSourceId ScanDirectionFlag NumberOfReturns ReturnNumber GpsTime Intensity Classification Nx Ny Nz
15050.00000000 14970.00000000 -1020.00000000 134 214 81 97.000000 1.000000 4.000000 1.000000 -60.708740 114.000000 224.000000 0.941475 -0.266820 -0.205991
15000.00000000 14820.00000000 -830.00000000 134 214 81 97.000000 1.000000 4.000000 1.000000 -60.708740 114.000000 224.000000 -0.043580 0.106156 0.993394
15140.00000000 14920.00000000 -920.00000000 134 214 81 97.000000 1.000000 4.000000 1.000000 -60.708740 114.000000 224.000000 -0.025232 0.431600 0.901712
15140.00000000 14940.00000000 -940.00000000 134 214 81 97.000000 1.000000 4.000000 1.000000 -60.708740 114.000000 224.000000 -0.293415 0.267398 0.917827
15120.00000000 14940.00000000 -930.00000000 134 214 81 97.000000 1.000000 4.000000 1.000000 -60.708740 114.000000 224.000000 -0.310217 0.480285 0.820422
15140.00000000 14920.00000000 -920.00000000 134 214 81 97.000000 1.000000 4.000000 1.000000 -60.708740 114.000000 224.000000 -0.025232 0.431600 0.901712
15150.00000000 14880.00000000 -900.00000000 134 214 81 97.000000 1.000000 4.000000 1.000000 -60.708740 114.000000 224.000000 -0.033768 0.288905 0.956762
15090.00000000 14940.00000000 -940.00000000 134 214 81 97.000000 1.000000 4.000000 1.000000 -60.708740 114.000000 224.000000 0.024710 0.386252 0.922062
15070.00000000 14880.00000000 -940.00000000 134 214 81 97.000000 1.000000 4.000000 1.000000 -60.708740 114.000000 224.000000 0.399376 -0.544006 -0.737941
15070.00000000 14890.00000000 -940.00000000 134 214 81 97.000000 1.000000 4.000000 1.000000 -60.708740 114.000000 224.000000 -0.230014 0.538758 0.810453
15120.00000000 14950.00000000 -970.00000000 134 214 81 97.000000 1.000000 4.000000 1.000000 -60.708740 114.000000 224.000000 -0.554962 0.432373 0.710683
15110.00000000 14920.00000000 -960.00000000 134 214 81 97.000000 1.000000 4.000000 1.000000 -60.708740 114.000000 224.000000 -0.132703 0.083380 0.987642
15070.00000000 14920.00000000 -980.00000000 134 214 81 97.000000 1.000000 4.000000 1.000000 -60.708740 114.000000 224.000000 -0.328931 0.174963 0.928005
15090.00000000 14940.00000000 -970.00000000 134 214 81 97.000000 1.000000 4.000000 1.000000 -60.708740 114.000000 224.000000 0.499186 -0.515881 -0.696189
15100.00000000 14920.00000000 -960.00000000 134 214 81 97.000000 1.000000 4.000000 1.000000 -60.708740 114.000000 224.000000 -0.191057 0.111138 0.975267
15070.00000000 14920.00000000 -970.00000000 134 214 81 97.000000 1.000000 4.000000 1.000000 -60.708740 114.000000 224.000000 -0.517740 0.400146 0.756194
15090.00000000 14950.00000000 -1030.00000000 134 214 81 97.000000 1.000000 4.000000 1.000000 -60.708740 114.000000 224.000000 0.896558 -0.426463 -0.119635
15070.00000000 14950.00000000 -1000.00000000 134 214 81 97.000000 1.000000 4.000000 1.000000 -60.708740 114.000000 224.000000 0.589880 -0.720601 -0.364385
15080.00000000 14890.00000000 -950.00000000 134 214 81 97.000000 1.000000 4.000000 1.000000 -60.708740 114.000000 224.000000 -0.185757 0.658593 0.729212
15080.00000000 14900.00000000 -950.00000000 134 214 81 97.000000 1.000000 4.000000 1.000000 -60.708740 114.000000 224.000000 0.633404 -0.488914 -0.599802
15140.00000000 14850.00000000 -890.00000000 134 214 81 97.000000 1.000000 4.000000 1.000000 -60.708740 114.000000 224.000000 0.222338 0.361844 0.905337
15140.00000000 14840.00000000 -890.00000000 134 214 81 97.000000 1.000000 4.000000 1.000000 -60.708740 114.000000 224.000000 0.068707 0.186836 0.979985
15130.00000000 14840.00000000 -890.00000000 134 214 81 97.000000 1.000000 4.000000 1.000000 -60.708740 114.000000 224.000000 0.003570 0.243934 0.969785
15150.00000000 14860.00000000 -900.00000000 134 214 81 97.000000 1.000000 4.000000 1.000000 -60.708740 114.000000 224.000000 0.092732 0.291258 0.952139
15140.00000000 14790.00000000 -890.00000000 134 214 81 97.000000 1.000000 4.000000 1.000000 -60.708740 114.000000 224.000000 -0.062041 0.017876 0.997913
15120.00000000 14830.00000000 -910.00000000 134 214 81 97.000000 1.000000 4.000000 1.000000 -60.708740 114.000000 224.000000 -0.152219 0.092290 0.984028
15150.00000000 14820.00000000 -910.00000000 134 214 81 97.000000 1.000000 4.000000 1.000000 -60.708740 114.000000 224.000000 0.528187 -0.338746 0.778634
15090.00000000 14850.00000000 -940.00000000 134 214 81 97.000000 1.000000 4.000000 1.000000 -60.708740 114.000000 224.000000 -0.078922 0.101798 0.991670
15080.00000000 14860.00000000 -940.00000000 134 214 81 97.000000 1.000000 4.000000 1.000000 -60.708740 114.000000 224.000000 -0.391929 -0.100389 0.914502
15100.00000000 14810.00000000 -900.00000000 134 214 81 97.000000 1.000000 4.000000 1.000000 -60.708740 114.000000 224.000000 0.348014 0.351080 0.869269
15100.00000000 14790.00000000 -930.00000000 134 214 81 97.000000 1.000000 4.000000 1.000000 -60.708740 114.000000 224.000000 0.066243 -0.090944 0.993650
15090.00000000 14830.00000000 -920.00000000 134 214 81 97.000000 1.000000 4.000000 1.000000 -60.708740 114.000000 224.000000 -0.216487 0.492016 0.843240
15150.00000000 14810.00000000 -970.00000000 134 214 81 97.000000 1.000000 4.000000 1.000000 -60.708740 114.000000 224.000000 0.670996 -0.286655 0.683808
15070.00000000 14840.00000000 -950.00000000 134 214 81 97.000000 1.000000 4.000000 1.000000 -60.708740 114.000000 224.000000 -0.214771 0.519410 0.827096
15050.00000000 14890.00000000 -940.00000000 134 214 81 97.000000 1.000000 4.000000 1.000000 -60.708740 114.000000 224.000000 0.507737 -0.592079 -0.625816
15040.00000000 14930.00000000 -980.00000000 134 214 81 97.000000 1.000000 4.000000 1.000000 -60.708740 114.000000 224.000000 0.688511 -0.322385 -0.649631
15050.00000000 14930.00000000 -990.00000000 134 214 81 97.000000 1.000000 4.000000 1.000000 -60.708740 114.000000 224.000000 0.787863 -0.497852 -0.362513
15040.00000000 14950.00000000 -1030.00000000 134 214 81 97.000000 1.000000 4.000000 1.000000 -60.708740 114.000000 224.000000 -0.628750 0.642092 0.438624
15050.00000000 14950.00000000 -1010.00000000 134 214 81 97.000000 1.000000 4.000000 1.000000 -60.708740 114.000000 224.000000 0.721224 -0.535530 -0.439367
15050.00000000 14920.00000000 -1010.00000000 134 214 81 97.000000 1.000000 4.000000 1.000000 -60.708740 114.000000 224.000000 0.706067 -0.559869 -0.433608
15050.00000000 14940.00000000 -1000.00000000 134 214 81 97.000000 1.000000 4.000000 1.000000 -60.708740 114.000000 224.000000 -0.667856 0.611230 0.424696
15050.00000000 14950.00000000 -1020.00000000 134 214 81 97.000000 1.000000 4.000000 1.000000 -60.708740 114.000000 224.000000 0.764538 -0.606358 -0.218661
15050.00000000 14950.00000000 -1000.00000000 134 214 81 97.000000 1.000000 4.000000 1.000000 -60.708740 114.000000 224.000000 0.540704 -0.460846 -0.703747
15030.00000000 14940.00000000 -1000.00000000 134 214 81 97.000000 1.000000 4.000000 1.000000 -60.708740 114.000000 224.000000 -0.506922 0.823167 0.255786
15050.00000000 14900.00000000 -980.00000000 134 214 81 97.000000 1.000000 4.000000 1.000000 -60.708740 114.000000 224.000000 -0.302614 0.527595 0.793769
15040.00000000 14880.00000000 -1010.00000000 134 214 81 97.000000 1.000000 4.000000 1.000000 -60.708740 114.000000 224.000000 -0.641268 0.247369 0.726350
15050.00000000 14910.00000000 -1000.00000000 134 214 81 97.000000 1.000000 4.000000 1.000000 -60.708740 114.000000 224.000000 0.882410 -0.413769 -0.223939
15020.00000000 14890.00000000 -980.00000000 134 214 81 97.000000 1.000000 4.000000 1.000000 -60.708740 114.000000 224.000000 -0.551358 0.432146 0.713620
14990.00000000 14890.00000000 -1030.00000000 134 214 81 97.000000 1.000000 4.000000 1.000000 -60.708740 114.000000 224.000000 -0.641442 0.683879 0.347652
15060.00000000 14810.00000000 -940.00000000 134 214 81 97.000000 1.000000 4.000000 1.000000 -60.708740 114.000000 224.000000 -0.080791 0.024776 0.996423
15060.00000000 14810.00000000 -940.00000000 134 214 81 97.000000 1.000000 4.000000 1.000000 -60.708740 114.000000 224.000000 -0.080791 0.024776 0.996423
15060.00000000 14830.00000000 -930.00000000 134 214 81 97.000000 1.000000 4.000000 1.000000 -60.708740 114.000000 224.000000 -0.317966 0.541661 0.778139
15060.00000000 14830.00000000 -930.00000000 134 214 81 97.000000 1.000000 4.000000 1.000000 -60.708740 114.000000 224.000000 -0.317966 0.541661 0.778139
15060.00000000 14810.00000000 -910.00000000 134 214 81 97.000000 1.000000 4.000000 1.000000 -60.708740 114.000000 224.000000 -0.193759 0.451119 0.871177
15060.00000000 14830.00000000 -930.00000000 134 214 81 97.000000 1.000000 4.000000 1.000000 -60.708740 114.000000 224.000000 -0.317966 0.541661 0.778139
15020.00000000 14790.00000000 -940.00000000 134 214 81 97.000000 1.000000 4.000000 1.000000 -60.708740 114.000000 224.000000 0.563106 -0.255672 -0.785839
15050.00000000 14870.00000000 -950.00000000 134 214 81 97.000000 1.000000 4.000000 1.000000 -60.708740 114.000000 224.000000 -0.494368 0.406263 0.768473
15040.00000000 14860.00000000 -950.00000000 134 214 81 97.000000 1.000000 4.000000 1.000000 -60.708740 114.000000 224.000000 -0.615172 0.303570 0.727605
15050.00000000 14850.00000000 -960.00000000 134 214 81 97.000000 1.000000 4.000000 1.000000 -60.708740 114.000000 224.000000 -0.675021 0.117202 0.728430
15060.00000000 14870.00000000 -960.00000000 134 214 81 97.000000 1.000000 4.000000 1.000000 -60.708740 114.000000 224.000000 -0.312708 0.509540 0.801613
15060.00000000 14850.00000000 -950.00000000 134 214 81 97.000000 1.000000 4.000000 1.000000 -60.708740 114.000000 224.000000 -0.264485 0.296281 0.917750
15040.00000000 14860.00000000 -990.00000000 134 214 81 97.000000 1.000000 4.000000 1.000000 -60.708740 114.000000 224.000000 0.661307 -0.648113 -0.377654
15040.00000000 14830.00000000 -950.00000000 134 214 81 97.000000 1.000000 4.000000 1.000000 -60.708740 114.000000 224.000000 -0.563229 0.173650 0.807848
15030.00000000 14820.00000000 -960.00000000 134 214 81 97.000000 1.000000 4.000000 1.000000 -60.708740 114.000000 224.000000 -0.323753 0.378990 0.866920
15040.00000000 14820.00000000 -950.00000000 134 214 81 97.000000 1.000000 4.000000 1.000000 -60.708740 114.000000 224.000000 -0.426001 0.471702 0.772024
15030.00000000 14830.00000000 -950.00000000 134 214 81 97.000000 1.000000 4.000000 1.000000 -60.708740 114.000000 224.000000 -0.443356 0.539665 0.715679
15010.00000000 14840.00000000 -950.00000000 134 214 81 97.000000 1.000000 4.000000 1.000000 -60.708740 114.000000 224.000000 -0.169216 0.543587 0.822119
15000.00000000 14860.00000000 -980.00000000 134 214 81 97.000000 1.000000 4.000000 1.000000 -60.708740 114.000000 224.000000 0.715287 -0.213495 -0.665420
15020.00000000 14850.00000000 -950.00000000 134 214 81 97.000000 1.000000 4.000000 1.000000 -60.708740 114.000000 224.000000 -0.271118 0.591385 0.759446
15000.00000000 14840.00000000 -980.00000000 134 214 81 97.000000 1.000000 4.000000 1.000000 -60.708740 114.000000 224.000000 0.827016 -0.523524 -0.204857
15000.00000000 14860.00000000 -1020.00000000 134 214 81 97.000000 1.000000 4.000000 1.000000 -60.708740 114.000000 224.000000 -0.594345 0.778638 0.201187
15010.00000000 14830.00000000 -960.00000000 134 214 81 97.000000 1.000000 4.000000 1.000000 -60.708740 114.000000 224.000000 -0.154402 0.440118 0.884565
15000.00000000 14820.00000000 -960.00000000 134 214 81 97.000000 1.000000 4.000000 1.000000 -60.708740 114.000000 224.000000 0.701435 -0.333629 -0.629826
14980.00000000 14800.00000000 -810.00000000 134 214 81 97.000000 1.000000 4.000000 1.000000 -60.708740 114.000000 224.000000 -0.319948 0.008715 0.947395
14980.00000000 14800.00000000 -810.00000000 134 214 81 97.000000 1.000000 4.000000 1.000000 -60.708740 114.000000 224.000000 -0.319948 0.008715 0.947395
14970.00000000 14880.00000000 -1020.00000000 134 214 81 97.000000 1.000000 4.000000 1.000000 -60.708740 114.000000 224.000000 0.868719 -0.452922 0.200474
14960.00000000 14880.00000000 -1010.00000000 134 214 81 97.000000 1.000000 4.000000 1.000000 -60.708740 114.000000 224.000000 -0.559752 0.821454 0.109043
14970.00000000 14890.00000000 -1030.00000000 134 214 81 97.000000 1.000000 4.000000 1.000000 -60.708740 114.000000 224.000000 0.684610 -0.655478 -0.318837
14980.00000000 14920.00000000 -1030.00000000 134 214 81 97.000000 1.000000 4.000000 1.000000 -60.708740 114.000000 224.000000 0.755828 -0.506618 -0.414804
14950.00000000 14810.00000000 -930.00000000 134 214 81 97.000000 1.000000 4.000000 1.000000 -60.708740 114.000000 224.000000 -0.508102 0.224297 0.831579
14920.00000000 14850.00000000 -920.00000000 134 214 81 97.000000 1.000000 4.000000 1.000000 -60.708740 114.000000 224.000000 -0.659538 0.322477 0.678984
14910.00000000 14840.00000000 -930.00000000 134 214 81 97.000000 1.000000 4.000000 1.000000 -60.708740 114.000000 224.000000 0.555614 -0.538726 -0.633299
14930.00000000 14810.00000000 -900.00000000 134 214 81 97.000000 1.000000 4.000000 1.000000 -60.708740 114.000000 224.000000 0.734902 -0.303931 -0.606254
14930.00000000 14830.00000000 -890.00000000 134 214 81 97.000000 1.000000 4.000000 1.000000 -60.708740 114.000000 224.000000 -0.551350 0.078357 0.830586
14940.00000000 14810.00000000 -900.00000000 134 214 81 97.000000 1.000000 4.000000 1.000000 -60.708740 114.000000 224.000000 -0.694276 0.526981 0.490176
14940.00000000 14810.00000000 -910.00000000 134 214 81 97.000000 1.000000 4.000000 1.000000 -60.708740 114.000000 224.000000 -0.579217 0.698712 0.419891
14940.00000000 14820.00000000 -910.00000000 134 214 81 97.000000 1.000000 4.000000 1.000000 -60.708740 114.000000 224.000000 0.756227 -0.454392 -0.470796
14960.00000000 14840.00000000 -1020.00000000 134 214 81 97.000000 1.000000 4.000000 1.000000 -60.708740 114.000000 224.000000 0.924510 -0.378984 0.040652
14980.00000000 14810.00000000 -980.00000000 134 214 81 97.000000 1.000000 4.000000 1.000000 -60.708740 114.000000 224.000000 -0.579748 0.423598 0.696030
14960.00000000 14830.00000000 -990.00000000 134 214 81 97.000000 1.000000 4.000000 1.000000 -60.708740 114.000000 224.000000 0.677879 -0.441371 -0.587939
14960.00000000 14830.00000000 -990.00000000 134 214 81 97.000000 1.000000 4.000000 1.000000 -60.708740 114.000000 224.000000 0.677879 -0.441371 -0.587939
14900.00000000 14860.00000000 -1030.00000000 134 214 81 97.000000 1.000000 4.000000 1.000000 -60.708740 114.000000 224.000000 0.810916 -0.382266 -0.443045
14940.00000000 14860.00000000 -1020.00000000 134 214 81 97.000000 1.000000 4.000000 1.000000 -60.708740 114.000000 224.000000 -0.589507 0.685820 0.426770
14930.00000000 14860.00000000 -1030.00000000 134 214 81 97.000000 1.000000 4.000000 1.000000 -60.708740 114.000000 224.000000 0.611766 -0.658440 -0.438405
14920.00000000 14840.00000000 -1010.00000000 134 214 81 97.000000 1.000000 4.000000 1.000000 -60.708740 114.000000 224.000000 0.729698 -0.501357 -0.464955
14920.00000000 14840.00000000 -1010.00000000 134 214 81 97.000000 1.000000 4.000000 1.000000 -60.708740 114.000000 224.000000 0.729698 -0.501357 -0.464955
14920.00000000 14810.00000000 -970.00000000 134 214 81 97.000000 1.000000 4.000000 1.000000 -60.708740 114.000000 224.000000 0.724411 -0.587051 -0.361388
14920.00000000 14830.00000000 -990.00000000 134 214 81 97.000000 1.000000 4.000000 1.000000 -60.708740 114.000000 224.000000 -0.707238 0.639575 0.301261
14870.00000000 14800.00000000 -930.00000000 134 214 81 97.000000 1.000000 4.000000 1.000000 -60.708740 114.000000 224.000000 -0.528938 0.676705 0.512147
14890.00000000 14830.00000000 -930.00000000 134 214 81 97.000000 1.000000 4.000000 1.000000 -60.708740 114.000000 224.000000 -0.576971 0.640892 0.506322
14880.00000000 14800.00000000 -930.00000000 134 214 81 97.000000 1.000000 4.000000 1.000000 -60.708740 114.000000 224.000000 -0.430001 0.736439 0.522262
14860.00000000 14800.00000000 -950.00000000 134 214 81 97.000000 1.000000 4.000000 1.000000 -60.708740 114.000000 224.000000 -0.395875 0.727687 0.560138
14860.00000000 14800.00000000 -1010.00000000 134 214 81 97.000000 1.000000 4.000000 1.000000 -60.708740 114.000000 224.000000 -0.694464 0.665727 0.272996
14830.00000000 14870.00000000 -1030.00000000 134 214 81 97.000000 1.000000 4.000000 1.000000 -60.708740 114.000000 224.000000 0.766301 -0.546897 0.337173
14850.00000000 14870.00000000 -1020.00000000 134 214 81 97.000000 1.000000 4.000000 1.000000 -60.708740 114.000000 224.000000 -0.566274 0.823797 -0.026306
14850.00000000 14870.00000000 -1020.00000000 134 214 81 97.000000 1.000000 4.000000 1.000000 -60.708740 114.000000 224.000000 -0.566274 0.823797 -0.026306
15120.00000000 15110.00000000 -1060.00000000 134 214 81 97.000000 1.000000 4.000000 1.000000 -60.708740 114.000000 224.000000 0.870277 -0.489617 -0.053789
15140.00000000 15100.00000000 -1070.00000000 134 214 81 97.000000 1.000000 4.000000 1.000000 -60.708740 114.000000 224.000000 0.902878 -0.429880 -0.003920
15130.00000000 15100.00000000 -1070.00000000 134 214 81 97.000000 1.000000 4.000000 1.000000 -60.708740 114.000000 224.000000 -0.644570 0.661055 0.384104
15150.00000000 15100.00000000 -1060.00000000 134 214 81 97.000000 1.000000 4.000000 1.000000 -60.708740 114.000000 224.000000 0.740852 -0.509852 -0.437251
15150.00000000 15090.00000000 -1050.00000000 134 214 81 97.000000 1.000000 4.000000 1.000000 -60.708740 114.000000 224.000000 0.875575 -0.282785 -0.391665
15150.00000000 15120.00000000 -1110.00000000 134 214 81 97.000000 1.000000 4.000000 1.000000 -60.708740 114.000000 224.000000 -0.586450 0.808654 -0.046410
15150.00000000 15110.00000000 -1080.00000000 134 214 81 97.000000 1.000000 4.000000 1.000000 -60.708740 114.000000 224.000000 0.671239 -0.597952 -0.438054
15150.00000000 15120.00000000 -1110.00000000 134 214 81 97.000000 1.000000 4.000000 1.000000 -60.708740 114.000000 224.000000 -0.586450 0.808654 -0.046410
15120.00000000 15100.00000000 -1100.00000000 134 214 81 97.000000 1.000000 4.000000 1.000000 -60.708740 114.000000 224.000000 0.777683 -0.618912 0.110258
15120.00000000 15100.00000000 -1090.00000000 134 214 81 97.000000 1.000000 4.000000 1.000000 -60.708740 114.000000 224.000000 0.863209 -0.358516 0.355439
15130.00000000 15080.00000000 -1040.00000000 134 214 81 97.000000 1.000000 4.000000 1.000000 -60.708740 114.000000 224.000000 0.737508 -0.564169 -0.371207
15120.00000000 15070.00000000 -1050.00000000 134 214 81 97.000000 1.000000 4.000000 1.000000 -60.708740 114.000000 224.000000 0.505577 -0.699131 -0.505577
15130.00000000 15080.00000000 -1040.00000000 134 214 81 97.000000 1.000000 4.000000 1.000000 -60.708740 114.000000 224.000000 0.737508 -0.564169 -0.371207
15120.00000000 15070.00000000 -1080.00000000 134 214 81 97.000000 1.000000 4.000000 1.000000 -60.708740 114.000000 224.000000 0.810506 -0.463374 0.358279
15080.00000000 15060.00000000 -1070.00000000 134 214 81 97.000000 1.000000 4.000000 1.000000 -60.708740 114.000000 224.000000 0.809567 -0.537132 -0.236833
15110.00000000 15070.00000000 -1060.00000000 134 214 81 97.000000 1.000000 4.000000 1.000000 -60.708740 114.000000 224.000000 -0.576718 0.696383 0.427137
15070.00000000 15050.00000000 -1110.00000000 134 214 81 97.000000 1.000000 4.000000 1.000000 -60.708740 114.000000 224.000000 0.788821 -0.597228 0.145191
15080.00000000 15050.00000000 -1100.00000000 134 214 81 97.000000 1.000000 4.000000 1.000000 -60.708740 114.000000 224.000000 0.778086 -0.601456 0.181198
15090.00000000 15060.00000000 -1110.00000000 134 214 81 97.000000 1.000000 4.000000 1.000000 -60.708740 114.000000 224.000000 0.766010 -0.475285 0.432820
15080.00000000 15060.00000000 -1080.00000000 134 214 81 97.000000 1.000000 4.000000 1.000000 -60.708740 114.000000 224.000000 0.857446 -0.513922 0.025901
15080.00000000 15060.00000000 -1090.00000000 134 214 81 97.000000 1.000000 4.000000 1.000000 -60.708740 114.000000 224.000000 0.775876 -0.605153 0.178345
15090.00000000 15080.00000000 -1100.00000000 134 214 81 97.000000 1.000000 4.000000 1.000000 -60.708740 114.000000 224.000000 0.634754 -0.711888 0.300504
15140.00000000 15110.00000000 -1120.00000000 134 214 81 97.000000 1.000000 4.000000 1.000000 -60.708740 114.000000 224.000000 0.802456 -0.596698 0.004115
15090.00000000 15060.00000000 -1120.00000000 134 214 81 97.000000 1.000000 4.000000 1.000000 -60.708740 114.000000 224.000000 0.845940 -0.286104 0.450034
15080.00000000 15030.00000000 -1060.00000000 134 214 81 97.000000 1.000000 4.000000 1.000000 -60.708740 114.000000 224.000000 -0.574901 0.783673 0.235258
15080.00000000 15020.00000000 -1060.00000000 134 214 81 97.000000 1.000000 4.000000 1.000000 -60.708740 114.000000 224.000000 0.757543 -0.574964 -0.309103
15090.00000000 15040.00000000 -1040.00000000 134 214 81 97.000000 1.000000 4.000000 1.000000 -60.708740 114.000000 224.000000 0.888976 -0.414465 -0.194784
15080.00000000 15020.00000000 -1040.00000000 134 214 81 97.000000 1.000000 4.000000 1.000000 -60.708740 114.000000 224.000000 0.718873 -0.424713 -0.550310
15100.00000000 15040.00000000 -1070.00000000 134 214 81 97.000000 1.000000 4.000000 1.000000 -60.708740 114.000000 224.000000 -0.572127 0.801582 -0.173601
15090.00000000 15010.00000000 -1040.00000000 134 214 81 97.000000 1.000000 4.000000 1.000000 -60.708740 114.000000 224.000000 -0.628739 0.500631 0.595026
15070.00000000 15000.00000000 -1060.00000000 134 214 81 97.000000 1.000000 4.000000 1.000000 -60.708740 114.000000 224.000000 0.836541 -0.493972 -0.237045
15070.00000000 15010.00000000 -1070.00000000 134 214 81 97.000000 1.000000 4.000000 1.000000 -60.708740 114.000000 224.000000 0.944115 -0.241197 -0.224658
15070.00000000 15030.00000000 -1090.00000000 134 214 81 97.000000 1.000000 4.000000 1.000000 -60.708740 114.000000 224.000000 0.949270 -0.309573 -0.055235
15070.00000000 15030.00000000 -1100.00000000 134 214 81 97.000000 1.000000 4.000000 1.000000 -60.708740 114.000000 224.000000 0.943049 -0.326490 0.063737
15070.00000000 15030.00000000 -1100.00000000 134 214 81 97.000000 1.000000 4.000000 1.000000 -60.708740 114.000000 224.000000 0.943049 -0.326490 0.063737
15070.00000000 14990.00000000 -1080.00000000 134 214 81 97.000000 1.000000 4.000000 1.000000 -60.708740 114.000000 224.000000 0.762118 -0.645742 0.046834
15070.00000000 15030.00000000 -1140.00000000 134 214 81 97.000000 1.000000 4.000000 1.000000 -60.708740 114.000000 224.000000 0.904198 -0.069554 0.421413
15070.00000000 15020.00000000 -1130.00000000 134 214 81 97.000000 1.000000 4.000000 1.000000 -60.708740 114.000000 224.000000 0.817860 -0.215548 0.533520
15060.00000000 15030.00000000 -1100.00000000 134 214 81 97.000000 1.000000 4.000000 1.000000 -60.708740 114.000000 224.000000 0.893737 -0.414382 0.171817
15040.00000000 15010.00000000 -1090.00000000 134 214 81 97.000000 1.000000 4.000000 1.000000 -60.708740 114.000000 224.000000 0.925260 -0.376176 0.048837
15050.00000000 15010.00000000 -1110.00000000 134 214 81 97.000000 1.000000 4.000000 1.000000 -60.708740 114.000000 224.000000 -0.729136 0.548087 -0.409831
15030.00000000 14960.00000000 -1050.00000000 134 214 81 97.000000 1.000000 4.000000 1.000000 -60.708740 114.000000 224.000000 0.891227 -0.331027 -0.310057
15050.00000000 14990.00000000 -1110.00000000 134 214 81 97.000000 1.000000 4.000000 1.000000 -60.708740 114.000000 224.000000 0.952344 -0.304099 0.023777
15000.00000000 14970.00000000 -1090.00000000 134 214 81 97.000000 1.000000 4.000000 1.000000 -60.708740 114.000000 224.000000 0.944719 -0.299676 -0.133040
15050.00000000 15000.00000000 -1120.00000000 134 214 81 97.000000 1.000000 4.000000 1.000000 -60.708740 114.000000 224.000000 0.839080 -0.486268 0.243901
15060.00000000 15020.00000000 -1120.00000000 134 214 81 97.000000 1.000000 4.000000 1.000000 -60.708740 114.000000 224.000000 0.858226 -0.495186 0.135051
15020.00000000 14960.00000000 -1120.00000000 134 214 81 97.000000 1.000000 4.000000 1.000000 -60.708740 114.000000 224.000000 0.902478 -0.072362 0.424615
15020.00000000 14960.00000000 -1190.00000000 134 214 81 97.000000 1.000000 4.000000 1.000000 -60.708740 114.000000 224.000000 0.711758 -0.610776 0.346921
15010.00000000 14930.00000000 -1040.00000000 134 214 81 97.000000 1.000000 4.000000 1.000000 -60.708740 114.000000 224.000000 0.732241 -0.677359 -0.070769
14990.00000000 14940.00000000 -1080.00000000 134 214 81 97.000000 1.000000 4.000000 1.000000 -60.708740 114.000000 224.000000 -0.669154 0.740798 0.058748
14980.00000000 14980.00000000 -1080.00000000 134 214 81 97.000000 1.000000 4.000000 1.000000 -60.708740 114.000000 224.000000 0.933898 -0.256997 0.248571
14980.00000000 14920.00000000 -1060.00000000 134 214 81 97.000000 1.000000 4.000000 1.000000 -60.708740 114.000000 224.000000 0.615612 -0.755878 -0.222867
14980.00000000 14920.00000000 -1060.00000000 134 214 81 97.000000 1.000000 4.000000 1.000000 -60.708740 114.000000 224.000000 0.615612 -0.755878 -0.222867
14980.00000000 14930.00000000 -1080.00000000 134 214 81 97.000000 1.000000 4.000000 1.000000 -60.708740 114.000000 224.000000 0.704808 -0.692683 -0.153087
14940.00000000 14880.00000000 -1040.00000000 134 214 81 97.000000 1.000000 4.000000 1.000000 -60.708740 114.000000 224.000000 0.659715 -0.724605 -0.199305
14940.00000000 14890.00000000 -1070.00000000 134 214 81 97.000000 1.000000 4.000000 1.000000 -60.708740 114.000000 224.000000 0.798045 -0.552253 -0.241125
14940.00000000 14880.00000000 -1040.00000000 134 214 81 97.000000 1.000000 4.000000 1.000000 -60.708740 114.000000 224.000000 0.659715 -0.724605 -0.199305
14900.00000000 14880.00000000 -1110.00000000 134 214 81 97.000000 1.000000 4.000000 1.000000 -60.708740 114.000000 224.000000 0.763479 -0.643156 -0.058729
14940.00000000 14900.00000000 -1080.00000000 134 214 81 97.000000 1.000000 4.000000 1.000000 -60.708740 114.000000 224.000000 0.897384 -0.431354 -0.092928
14950.00000000 14900.00000000 -1190.00000000 134 214 81 97.000000 1.000000 4.000000 1.000000 -60.708740 114.000000 224.000000 0.786407 -0.161508 0.596220
14910.00000000 14870.00000000 -1150.00000000 134 214 81 97.000000 1.000000 4.000000 1.000000 -60.708740 114.000000 224.000000 0.724360 -0.114061 0.679921
14880.00000000 14880.00000000 -1160.00000000 134 214 81 97.000000 1.000000 4.000000 1.000000 -60.708740 114.000000 224.000000 0.757941 -0.523224 0.389566
14880.00000000 14860.00000000 -1040.00000000 134 214 81 97.000000 1.000000 4.000000 1.000000 -60.708740 114.000000 224.000000 0.815525 -0.565725 -0.121961
14860.00000000 14800.00000000 -1060.00000000 134 214 81 97.000000 1.000000 4.000000 1.000000 -60.708740 114.000000 224.000000 0.968805 -0.238149 -0.068577
14860.00000000 14820.00000000 -1070.00000000 134 214 81 97.000000 1.000000 4.000000 1.000000 -60.708740 114.000000 224.000000 0.684412 -0.577837 0.444618
14870.00000000 14820.00000000 -1080.00000000 134 214 81 97.000000 1.000000 4.000000 1.000000 -60.708740 114.000000 224.000000 0.867357 -0.472439 -0.156505
14850.00000000 14790.00000000 -1070.00000000 134 214 81 97.000000 1.000000 4.000000 1.000000 -60.708740 114.000000 224.000000 0.711053 -0.654042 0.258133
14820.00000000 14790.00000000 -1100.00000000 134 214 81 97.000000 1.000000 4.000000 1.000000 -60.708740 114.000000 224.000000 -0.672975 0.659939 -0.334043
14890.00000000 14850.00000000 -1140.00000000 134 214 81 97.000000 1.000000 4.000000 1.000000 -60.708740 114.000000 224.000000 0.853478 -0.374660 0.362223
14890.00000000 14870.00000000 -1190.00000000 134 214 81 97.000000 1.000000 4.000000 1.000000 -60.708740 114.000000 224.000000 0.878920 -0.059331 0.473265
14880.00000000 14870.00000000 -1160.00000000 134 214 81 97.000000 1.000000 4.000000 1.000000 -60.708740 114.000000 224.000000 0.694904 -0.444939 0.564922
14820.00000000 14810.00000000 -1120.00000000 134 214 81 97.000000 1.000000 4.000000 1.000000 -60.708740 114.000000 224.000000 0.851857 -0.496300 0.167409
14850.00000000 14830.00000000 -1170.00000000 134 214 81 97.000000 1.000000 4.000000 1.000000 -60.708740 114.000000 224.000000 0.918060 -0.152776 0.365822
14900.00000000 14880.00000000 -1210.00000000 134 214 81 97.000000 1.000000 4.000000 1.000000 -60.708740 114.000000 224.000000 0.824193 -0.414478 0.385894
14900.00000000 14880.00000000 -1200.00000000 134 214 81 97.000000 1.000000 4.000000 1.000000 -60.708740 114.000000 224.000000 0.768883 -0.488102 0.413009
14900.00000000 14850.00000000 -1200.00000000 134 214 81 97.000000 1.000000 4.000000 1.000000 -60.708740 114.000000 224.000000 0.781653 -0.377071 0.496827
14910.00000000 14870.00000000 -1220.00000000 134 214 81 97.000000 1.000000 4.000000 1.000000 -60.708740 114.000000 224.000000 0.442269 -0.400455 0.802517
14870.00000000 14840.00000000 -1200.00000000 134 214 81 97.000000 1.000000 4.000000 1.000000 -60.708740 114.000000 224.000000 0.519365 -0.071782 0.851533
14890.00000000 14860.00000000 -1200.00000000 134 214 81 97.000000 1.000000 4.000000 1.000000 -60.708740 114.000000 224.000000 -0.715181 0.594075 -0.368228
15000.00000000 14780.00000000 -810.00000000 134 214 81 97.000000 1.000000 4.000000 1.000000 -60.708740 114.000000 224.000000 -0.151569 0.087122 0.984600
15010.00000000 14770.00000000 -790.00000000 134 214 81 97.000000 1.000000 4.000000 1.000000 -60.708740 114.000000 224.000000 0.123978 0.448886 0.884947
15120.00000000 14760.00000000 -920.00000000 134 214 81 97.000000 1.000000 4.000000 1.000000 -60.708740 114.000000 224.000000 0.181874 -0.192342 0.964327
15140.00000000 14750.00000000 -930.00000000 134 214 81 97.000000 1.000000 4.000000 1.000000 -60.708740 114.000000 224.000000 0.657280 -0.446549 0.607106
15120.00000000 14750.00000000 -930.00000000 134 214 81 97.000000 1.000000 4.000000 1.000000 -60.708740 114.000000 224.000000 0.605251 -0.347489 0.716186
15120.00000000 14740.00000000 -940.00000000 134 214 81 97.000000 1.000000 4.000000 1.000000 -60.708740 114.000000 224.000000 0.390673 -0.494420 0.776482
15100.00000000 14770.00000000 -920.00000000 134 214 81 97.000000 1.000000 4.000000 1.000000 -60.708740 114.000000 224.000000 0.236535 -0.022813 0.971355
15100.00000000 14760.00000000 -920.00000000 134 214 81 97.000000 1.000000 4.000000 1.000000 -60.708740 114.000000 224.000000 -0.052755 0.102143 0.993370
15070.00000000 14740.00000000 -930.00000000 134 214 81 97.000000 1.000000 4.000000 1.000000 -60.708740 114.000000 224.000000 0.525174 0.014927 0.850864
15100.00000000 14720.00000000 -940.00000000 134 214 81 97.000000 1.000000 4.000000 1.000000 -60.708740 114.000000 224.000000 0.263706 -0.434430 0.861237
15070.00000000 14730.00000000 -940.00000000 134 214 81 97.000000 1.000000 4.000000 1.000000 -60.708740 114.000000 224.000000 0.192262 -0.383078 0.903486
15080.00000000 14720.00000000 -940.00000000 134 214 81 97.000000 1.000000 4.000000 1.000000 -60.708740 114.000000 224.000000 0.245123 -0.384768 0.889870
15120.00000000 14720.00000000 -960.00000000 134 214 81 97.000000 1.000000 4.000000 1.000000 -60.708740 114.000000 224.000000 0.435124 -0.591835 0.678527
15140.00000000 14730.00000000 -970.00000000 134 214 81 97.000000 1.000000 4.000000 1.000000 -60.708740 114.000000 224.000000 0.599254 -0.274989 0.751849
15130.00000000 14720.00000000 -970.00000000 134 214 81 97.000000 1.000000 4.000000 1.000000 -60.708740 114.000000 224.000000 -0.629744 0.672718 -0.388424
15150.00000000 14720.00000000 -990.00000000 134 214 81 97.000000 1.000000 4.000000 1.000000 -60.708740 114.000000 224.000000 0.696974 -0.687660 0.203349
15120.00000000 14710.00000000 -960.00000000 134 214 81 97.000000 1.000000 4.000000 1.000000 -60.708740 114.000000 224.000000 -0.417756 0.644110 -0.640782
15110.00000000 14710.00000000 -950.00000000 134 214 81 97.000000 1.000000 4.000000 1.000000 -60.708740 114.000000 224.000000 0.574218 -0.516965 0.634839
15110.00000000 14710.00000000 -990.00000000 134 214 81 97.000000 1.000000 4.000000 1.000000 -60.708740 114.000000 224.000000 -0.485083 0.562293 -0.669717
15110.00000000 14720.00000000 -950.00000000 134 214 81 97.000000 1.000000 4.000000 1.000000 -60.708740 114.000000 224.000000 -0.387498 0.624944 -0.677710
15150.00000000 14700.00000000 -1030.00000000 134 214 81 97.000000 1.000000 4.000000 1.000000 -60.708740 114.000000 224.000000 0.682726 -0.685894 0.251864
15100.00000000 14670.00000000 -1000.00000000 134 214 81 97.000000 1.000000 4.000000 1.000000 -60.708740 114.000000 224.000000 0.715562 -0.655801 0.240618
15100.00000000 14670.00000000 -1000.00000000 134 214 81 97.000000 1.000000 4.000000 1.000000 -60.708740 114.000000 224.000000 0.715562 -0.655801 0.240618
15110.00000000 14690.00000000 -990.00000000 134 214 81 97.000000 1.000000 4.000000 1.000000 -60.708740 114.000000 224.000000 0.701745 -0.575664 0.419720
15070.00000000 14660.00000000 -980.00000000 134 214 81 97.000000 1.000000 4.000000 1.000000 -60.708740 114.000000 224.000000 0.627904 -0.254641 0.735455
15100.00000000 14660.00000000 -1000.00000000 134 214 81 97.000000 1.000000 4.000000 1.000000 -60.708740 114.000000 224.000000 -0.656249 0.682174 -0.322453
15070.00000000 14650.00000000 -1000.00000000 134 214 81 97.000000 1.000000 4.000000 1.000000 -60.708740 114.000000 224.000000 0.667499 -0.689909 0.280126
15060.00000000 14750.00000000 -930.00000000 134 214 81 97.000000 1.000000 4.000000 1.000000 -60.708740 114.000000 224.000000 -0.094837 -0.052439 0.994111
15030.00000000 14770.00000000 -930.00000000 134 214 81 97.000000 1.000000 4.000000 1.000000 -60.708740 114.000000 224.000000 -0.399192 -0.016904 0.916712
15060.00000000 14750.00000000 -930.00000000 134 214 81 97.000000 1.000000 4.000000 1.000000 -60.708740 114.000000 224.000000 -0.094837 -0.052439 0.994111
15060.00000000 14770.00000000 -930.00000000 134 214 81 97.000000 1.000000 4.000000 1.000000 -60.708740 114.000000 224.000000 -0.052769 0.234394 0.970708
15050.00000000 14770.00000000 -920.00000000 134 214 81 97.000000 1.000000 4.000000 1.000000 -60.708740 114.000000 224.000000 -0.254097 -0.063837 0.965070
15050.00000000 14780.00000000 -920.00000000 134 214 81 97.000000 1.000000 4.000000 1.000000 -60.708740 114.000000 224.000000 0.161255 0.448899 0.878912
15050.00000000 14780.00000000 -940.00000000 134 214 81 97.000000 1.000000 4.000000 1.000000 -60.708740 114.000000 224.000000 -0.286111 0.224097 0.931623
15060.00000000 14780.00000000 -920.00000000 134 214 81 97.000000 1.000000 4.000000 1.000000 -60.708740 114.000000 224.000000 -0.001087 0.120688 0.992690
15050.00000000 14720.00000000 -920.00000000 134 214 81 97.000000 1.000000 4.000000 1.000000 -60.708740 114.000000 224.000000 0.146034 0.064255 0.987191
15050.00000000 14720.00000000 -920.00000000 134 214 81 97.000000 1.000000 4.000000 1.000000 -60.708740 114.000000 224.000000 0.146034 0.064255 0.987191
15010.00000000 14770.00000000 -940.00000000 134 214 81 97.000000 1.000000 4.000000 1.000000 -60.708740 114.000000 224.000000 -0.101530 0.424199 0.899859
15020.00000000 14750.00000000 -940.00000000 134 214 81 97.000000 1.000000 4.000000 1.000000 -60.708740 114.000000 224.000000 0.045976 -0.052391 0.997568
15010.00000000 14760.00000000 -940.00000000 134 214 81 97.000000 1.000000 4.000000 1.000000 -60.708740 114.000000 224.000000 0.052967 0.107060 0.992841
15000.00000000 14760.00000000 -940.00000000 134 214 81 97.000000 1.000000 4.000000 1.000000 -60.708740 114.000000 224.000000 -0.425734 -0.001302 0.904847
15010.00000000 14730.00000000 -940.00000000 134 214 81 97.000000 1.000000 4.000000 1.000000 -60.708740 114.000000 224.000000 -0.228643 -0.094741 0.968889
15020.00000000 14730.00000000 -920.00000000 134 214 81 97.000000 1.000000 4.000000 1.000000 -60.708740 114.000000 224.000000 -0.113506 0.424597 0.898239
15010.00000000 14780.00000000 -970.00000000 134 214 81 97.000000 1.000000 4.000000 1.000000 -60.708740 114.000000 224.000000 0.726903 -0.379040 -0.572662
15010.00000000 14710.00000000 -950.00000000 134 214 81 97.000000 1.000000 4.000000 1.000000 -60.708740 114.000000 224.000000 -0.176182 -0.197062 0.964431
15020.00000000 14680.00000000 -940.00000000 134 214 81 97.000000 1.000000 4.000000 1.000000 -60.708740 114.000000 224.000000 -0.111602 0.027624 0.993369
15050.00000000 14680.00000000 -960.00000000 134 214 81 97.000000 1.000000 4.000000 1.000000 -60.708740 114.000000 224.000000 0.110434 -0.184884 0.976536
15060.00000000 14670.00000000 -970.00000000 134 214 81 97.000000 1.000000 4.000000 1.000000 -60.708740 114.000000 224.000000 -0.548415 0.501456 -0.669166
15030.00000000 14650.00000000 -970.00000000 134 214 81 97.000000 1.000000 4.000000 1.000000 -60.708740 114.000000 224.000000 0.182727 -0.384159 0.905004
15060.00000000 14660.00000000 -980.00000000 134 214 81 97.000000 1.000000 4.000000 1.000000 -60.708740 114.000000 224.000000 0.568908 -0.297999 0.766512
15020.00000000 14700.00000000 -950.00000000 134 214 81 97.000000 1.000000 4.000000 1.000000 -60.708740 114.000000 224.000000 -0.057247 -0.052926 0.996956
15010.00000000 14680.00000000 -960.00000000 134 214 81 97.000000 1.000000 4.000000 1.000000 -60.708740 114.000000 224.000000 0.340412 -0.246909 0.907279
15000.00000000 14640.00000000 -980.00000000 134 214 81 97.000000 1.000000 4.000000 1.000000 -60.708740 114.000000 224.000000 0.612195 -0.432039 0.662238
14990.00000000 14650.00000000 -980.00000000 134 214 81 97.000000 1.000000 4.000000 1.000000 -60.708740 114.000000 224.000000 0.178643 -0.218342 0.959382
14980.00000000 14740.00000000 -940.00000000 134 214 81 97.000000 1.000000 4.000000 1.000000 -60.708740 114.000000 224.000000 0.013801 0.327467 0.944762
14980.00000000 14710.00000000 -920.00000000 134 214 81 97.000000 1.000000 4.000000 1.000000 -60.708740 114.000000 224.000000 -0.314973 -0.055281 0.947489
14970.00000000 14780.00000000 -960.00000000 134 214 81 97.000000 1.000000 4.000000 1.000000 -60.708740 114.000000 224.000000 -0.526667 0.734693 0.427608
14970.00000000 14770.00000000 -950.00000000 134 214 81 97.000000 1.000000 4.000000 1.000000 -60.708740 114.000000 224.000000 0.731295 -0.523297 -0.437456
14970.00000000 14780.00000000 -960.00000000 134 214 81 97.000000 1.000000 4.000000 1.000000 -60.708740 114.000000 224.000000 -0.526667 0.734693 0.427608
14950.00000000 14740.00000000 -960.00000000 134 214 81 97.000000 1.000000 4.000000 1.000000 -60.708740 114.000000 224.000000 0.763730 -0.443192 -0.469359
14900.00000000 14760.00000000 -980.00000000 134 214 81 97.000000 1.000000 4.000000 1.000000 -60.708740 114.000000 224.000000 -0.442690 0.830240 0.338713
14940.00000000 14760.00000000 -980.00000000 134 214 81 97.000000 1.000000 4.000000 1.000000 -60.708740 114.000000 224.000000 0.644037 -0.402316 -0.650660
14910.00000000 14760.00000000 -1000.00000000 134 214 81 97.000000 1.000000 4.000000 1.000000 -60.708740 114.000000 224.000000 0.749019 -0.661891 -0.029511
14900.00000000 14750.00000000 -990.00000000 134 214 81 97.000000 1.000000 4.000000 1.000000 -60.708740 114.000000 224.000000 -0.644657 0.720685 0.255012
14900.00000000 14740.00000000 -950.00000000 134 214 81 97.000000 1.000000 4.000000 1.000000 -60.708740 114.000000 224.000000 -0.384451 0.615452 0.688052
14900.00000000 14740.00000000 -950.00000000 134 214 81 97.000000 1.000000 4.000000 1.000000 -60.708740 114.000000 224.000000 -0.384451 0.615452 0.688052
14950.00000000 14630.00000000 -970.00000000 134 214 81 97.000000 1.000000 4.000000 1.000000 -60.708740 114.000000 224.000000 0.009212 0.438224 0.898819
14980.00000000 14630.00000000 -990.00000000 134 214 81 97.000000 1.000000 4.000000 1.000000 -60.708740 114.000000 224.000000 0.092671 -0.419096 0.903200
14910.00000000 14700.00000000 -970.00000000 134 214 81 97.000000 1.000000 4.000000 1.000000 -60.708740 114.000000 224.000000 0.808035 -0.230205 -0.542295
14940.00000000 14700.00000000 -980.00000000 134 214 81 97.000000 1.000000 4.000000 1.000000 -60.708740 114.000000 224.000000 0.839532 -0.178082 -0.513297
14920.00000000 14660.00000000 -980.00000000 134 214 81 97.000000 1.000000 4.000000 1.000000 -60.708740 114.000000 224.000000 0.796412 -0.319519 -0.513455
14890.00000000 14750.00000000 -980.00000000 134 214 81 97.000000 1.000000 4.000000 1.000000 -60.708740 114.000000 224.000000 0.600358 -0.496094 -0.627265
14890.00000000 14740.00000000 -1010.00000000 134 214 81 97.000000 1.000000 4.000000 1.000000 -60.708740 114.000000 224.000000 0.820505 -0.561092 0.109304
14840.00000000 14760.00000000 -970.00000000 134 214 81 97.000000 1.000000 4.000000 1.000000 -60.708740 114.000000 224.000000 -0.521646 0.781667 0.341879
14830.00000000 14730.00000000 -950.00000000 134 214 81 97.000000 1.000000 4.000000 1.000000 -60.708740 114.000000 224.000000 -0.482222 0.705813 0.518931
14850.00000000 14740.00000000 -1030.00000000 134 214 81 97.000000 1.000000 4.000000 1.000000 -60.708740 114.000000 224.000000 0.925197 -0.367098 -0.096177
14830.00000000 14720.00000000 -1030.00000000 134 214 81 97.000000 1.000000 4.000000 1.000000 -60.708740 114.000000 224.000000 0.761733 -0.573296 -0.301819
14850.00000000 14740.00000000 -1030.00000000 134 214 81 97.000000 1.000000 4.000000 1.000000 -60.708740 114.000000 224.000000 0.925197 -0.367098 -0.096177
14860.00000000 14650.00000000 -990.00000000 134 214 81 97.000000 1.000000 4.000000 1.000000 -60.708740 114.000000 224.000000 0.943859 -0.322452 -0.071801
14850.00000000 14700.00000000 -980.00000000 134 214 81 97.000000 1.000000 4.000000 1.000000 -60.708740 114.000000 224.000000 0.958257 -0.283604 -0.036231
14830.00000000 14700.00000000 -1030.00000000 134 214 81 97.000000 1.000000 4.000000 1.000000 -60.708740 114.000000 224.000000 0.983881 -0.154593 0.089880
14830.00000000 14640.00000000 -1010.00000000 134 214 81 97.000000 1.000000 4.000000 1.000000 -60.708740 114.000000 224.000000 0.852299 -0.446881 0.271814
14820.00000000 14630.00000000 -1010.00000000 134 214 81 97.000000 1.000000 4.000000 1.000000 -60.708740 114.000000 224.000000 0.684952 -0.709360 0.166280
14830.00000000 14630.00000000 -1020.00000000 134 214 81 97.000000 1.000000 4.000000 1.000000 -60.708740 114.000000 224.000000 0.952229 -0.279444 -0.123167
14830.00000000 14630.00000000 -1020.00000000 134 214 81 97.000000 1.000000 4.000000 1.000000 -60.708740 114.000000 224.000000 0.952229 -0.279444 -0.123167
14970.00000000 14590.00000000 -1010.00000000 134 214 81 97.000000 1.000000 4.000000 1.000000 -60.708740 114.000000 224.000000 -0.602344 0.615842 -0.507859
14950.00000000 14590.00000000 -1000.00000000 134 214 81 97.000000 1.000000 4.000000 1.000000 -60.708740 114.000000 224.000000 0.413598 -0.110014 0.903788
14970.00000000 14590.00000000 -1010.00000000 134 214 81 97.000000 1.000000 4.000000 1.000000 -60.708740 114.000000 224.000000 -0.602344 0.615842 -0.507859
14970.00000000 14540.00000000 -1030.00000000 134 214 81 97.000000 1.000000 4.000000 1.000000 -60.708740 114.000000 224.000000 0.870699 -0.379692 -0.312598
14970.00000000 14570.00000000 -1030.00000000 134 214 81 97.000000 1.000000 4.000000 1.000000 -60.708740 114.000000 224.000000 0.932395 -0.176474 -0.315430
14850.00000000 14490.00000000 -1030.00000000 134 214 81 97.000000 1.000000 4.000000 1.000000 -60.708740 114.000000 224.000000 0.688060 -0.035321 0.724794
15120.00000000 14650.00000000 -1040.00000000 134 214 81 97.000000 1.000000 4.000000 1.000000 -60.708740 114.000000 224.000000 0.718724 -0.656090 -0.230179
15130.00000000 14660.00000000 -1070.00000000 134 214 81 97.000000 1.000000 4.000000 1.000000 -60.708740 114.000000 224.000000 -0.652178 0.745133 0.139431
15100.00000000 14620.00000000 -1040.00000000 134 214 81 97.000000 1.000000 4.000000 1.000000 -60.708740 114.000000 224.000000 0.711708 -0.700252 -0.055848
15070.00000000 14620.00000000 -1060.00000000 134 214 81 97.000000 1.000000 4.000000 1.000000 -60.708740 114.000000 224.000000 0.886553 -0.448225 -0.114531
15100.00000000 14600.00000000 -1070.00000000 134 214 81 97.000000 1.000000 4.000000 1.000000 -60.708740 114.000000 224.000000 -0.668431 0.733934 0.120586
15110.00000000 14610.00000000 -1110.00000000 134 214 81 97.000000 1.000000 4.000000 1.000000 -60.708740 114.000000 224.000000 -0.746972 0.554940 0.366163
15040.00000000 14570.00000000 -1080.00000000 134 214 81 97.000000 1.000000 4.000000 1.000000 -60.708740 114.000000 224.000000 0.839527 -0.158429 -0.519707
15010.00000000 14530.00000000 -1090.00000000 134 214 81 97.000000 1.000000 4.000000 1.000000 -60.708740 114.000000 224.000000 -0.551481 0.701430 0.451514
14840.00000000 14780.00000000 -1060.00000000 134 214 81 97.000000 1.000000 4.000000 1.000000 -60.708740 114.000000 224.000000 -0.653947 0.738915 -0.162349
14840.00000000 14770.00000000 -1060.00000000 134 214 81 97.000000 1.000000 4.000000 1.000000 -60.708740 114.000000 224.000000 0.928389 -0.279225 0.245208
14840.00000000 14770.00000000 -1070.00000000 134 214 81 97.000000 1.000000 4.000000 1.000000 -60.708740 114.000000 224.000000 0.816855 -0.566411 -0.109205
14830.00000000 14780.00000000 -1110.00000000 134 214 81 97.000000 1.000000 4.000000 1.000000 -60.708740 114.000000 224.000000 0.902627 -0.299891 0.308755
14820.00000000 14780.00000000 -1110.00000000 134 214 81 97.000000 1.000000 4.000000 1.000000 -60.708740 114.000000 224.000000 0.769646 -0.587815 0.249234
14850.00000000 14740.00000000 -1040.00000000 134 214 81 97.000000 1.000000 4.000000 1.000000 -60.708740 114.000000 224.000000 0.940073 -0.297804 -0.166057
14920.00000000 14480.00000000 -1100.00000000 134 214 81 97.000000 1.000000 4.000000 1.000000 -60.708740 114.000000 224.000000 -0.554251 0.344185 0.757854
14890.00000000 14510.00000000 -1060.00000000 134 214 81 97.000000 1.000000 4.000000 1.000000 -60.708740 114.000000 224.000000 0.236494 0.089792 0.967475
14890.00000000 14520.00000000 -1060.00000000 134 214 81 97.000000 1.000000 4.000000 1.000000 -60.708740 114.000000 224.000000 0.201417 -0.165032 0.965503
14860.00000000 14500.00000000 -1080.00000000 134 214 81 97.000000 1.000000 4.000000 1.000000 -60.708740 114.000000 224.000000 0.576315 0.075793 0.813705
14820.00000000 14510.00000000 -1050.00000000 134 214 81 97.000000 1.000000 4.000000 1.000000 -60.708740 114.000000 224.000000 0.313560 -0.530027 0.787878
14850.00000000 14500.00000000 -1050.00000000 134 214 81 97.000000 1.000000 4.000000 1.000000 -60.708740 114.000000 224.000000 0.383310 -0.349169 0.855076
14830.00000000 14510.00000000 -1060.00000000 134 214 81 97.000000 1.000000 4.000000 1.000000 -60.708740 114.000000 224.000000 0.480529 -0.196104 0.854772
14850.00000000 14480.00000000 -1050.00000000 134 214 81 97.000000 1.000000 4.000000 1.000000 -60.708740 114.000000 224.000000 0.190503 0.190503 0.963025
14850.00000000 14470.00000000 -1050.00000000 134 214 81 97.000000 1.000000 4.000000 1.000000 -60.708740 114.000000 224.000000 -0.167885 0.031261 0.985311
14780.00000000 14820.00000000 -1030.00000000 134 214 81 97.000000 1.000000 4.000000 1.000000 -60.708740 114.000000 224.000000 0.915471 -0.308050 -0.258877
14770.00000000 14760.00000000 -1010.00000000 134 214 81 97.000000 1.000000 4.000000 1.000000 -60.708740 114.000000 224.000000 0.790832 -0.583601 -0.184375
14760.00000000 14550.00000000 -1020.00000000 134 214 81 97.000000 1.000000 4.000000 1.000000 -60.708740 114.000000 224.000000 -0.663338 0.722095 -0.196373
14750.00000000 14530.00000000 -1020.00000000 134 214 81 97.000000 1.000000 4.000000 1.000000 -60.708740 114.000000 224.000000 0.865207 -0.483880 0.131442
14700.00000000 14570.00000000 -1020.00000000 134 214 81 97.000000 1.000000 4.000000 1.000000 -60.708740 114.000000 224.000000 0.859679 -0.325660 0.393570
14690.00000000 14560.00000000 -1010.00000000 134 214 81 97.000000 1.000000 4.000000 1.000000 -60.708740 114.000000 224.000000 0.986317 -0.159158 0.042984
14670.00000000 14530.00000000 -1030.00000000 134 214 81 97.000000 1.000000 4.000000 1.000000 -60.708740 114.000000 224.000000 0.827011 -0.548901 -0.121490
14810.00000000 14730.00000000 -1050.00000000 134 214 81 97.000000 1.000000 4.000000 1.000000 -60.708740 114.000000 224.000000 0.854319 -0.361264 0.373668
14790.00000000 14720.00000000 -1050.00000000 134 214 81 97.000000 1.000000 4.000000 1.000000 -60.708740 114.000000 224.000000 -0.676436 0.718999 -0.159609
14810.00000000 14720.00000000 -1060.00000000 134 214 81 97.000000 1.000000 4.000000 1.000000 -60.708740 114.000000 224.000000 0.915380 -0.399897 0.046500
14800.00000000 14730.00000000 -1090.00000000 134 214 81 97.000000 1.000000 4.000000 1.000000 -60.708740 114.000000 224.000000 0.831707 -0.554928 -0.017813
14760.00000000 14750.00000000 -1050.00000000 134 214 81 97.000000 1.000000 4.000000 1.000000 -60.708740 114.000000 224.000000 0.960362 -0.220606 0.170408
