//X Y Z R G B PointSourceId ScanDirectionFlag NumberOfReturns ReturnNumber GpsTime Intensity Classification Nx Ny Nz
-16460.00000000 -9080.00000000 -770.00000000 240 215 28 97.000000 1.000000 4.000000 1.000000 -60.708740 114.000000 159.000000 0.830838 -0.087532 -0.549587
-16460.00000000 -9050.00000000 -770.00000000 240 215 28 97.000000 1.000000 4.000000 1.000000 -60.708740 114.000000 159.000000 0.705822 0.401674 -0.583501
-16440.00000000 -9070.00000000 -740.00000000 240 215 28 97.000000 1.000000 4.000000 1.000000 -60.708740 114.000000 159.000000 0.995481 0.090300 0.029375
-16440.00000000 -9070.00000000 -760.00000000 240 215 28 97.000000 1.000000 4.000000 1.000000 -60.708740 114.000000 159.000000 0.957194 -0.116221 -0.265089
-16450.00000000 -9050.00000000 -750.00000000 240 215 28 97.000000 1.000000 4.000000 1.000000 -60.708740 114.000000 159.000000 0.724429 0.479085 -0.495662
-16430.00000000 -9060.00000000 -770.00000000 240 215 28 97.000000 1.000000 4.000000 1.000000 -60.708740 114.000000 159.000000 0.936535 0.086593 -0.339711
-16460.00000000 -9050.00000000 -770.00000000 240 215 28 97.000000 1.000000 4.000000 1.000000 -60.708740 114.000000 159.000000 0.705822 0.401674 -0.583501
-16450.00000000 -9110.00000000 -750.00000000 240 215 28 97.000000 1.000000 4.000000 1.000000 -60.708740 114.000000 159.000000 0.673635 -0.466363 -0.573342
-16430.00000000 -9090.00000000 -740.00000000 240 215 28 97.000000 1.000000 4.000000 1.000000 -60.708740 114.000000 159.000000 0.964746 -0.053528 -0.257681
-16450.00000000 -9100.00000000 -770.00000000 240 215 28 97.000000 1.000000 4.000000 1.000000 -60.708740 114.000000 159.000000 0.617221 -0.427563 -0.660476
-16460.00000000 -9100.00000000 -770.00000000 240 215 28 97.000000 1.000000 4.000000 1.000000 -60.708740 114.000000 159.000000 0.939515 -0.243578 -0.240794
-16460.00000000 -9070.00000000 -790.00000000 240 215 28 97.000000 1.000000 4.000000 1.000000 -60.708740 114.000000 159.000000 0.857073 -0.095547 -0.506258
-16440.00000000 -9080.00000000 -780.00000000 240 215 28 97.000000 1.000000 4.000000 1.000000 -60.708740 114.000000 159.000000 0.849805 -0.268926 -0.453332
-16450.00000000 -9070.00000000 -780.00000000 240 215 28 97.000000 1.000000 4.000000 1.000000 -60.708740 114.000000 159.000000 -0.676945 0.179598 0.713786
-16450.00000000 -9070.00000000 -790.00000000 240 215 28 97.000000 1.000000 4.000000 1.000000 -60.708740 114.000000 159.000000 0.732614 -0.487858 -0.474628
-16430.00000000 -9050.00000000 -790.00000000 240 215 28 97.000000 1.000000 4.000000 1.000000 -60.708740 114.000000 159.000000 0.949661 0.023836 -0.312372
-16470.00000000 -9080.00000000 -820.00000000 240 215 28 97.000000 1.000000 4.000000 1.000000 -60.708740 114.000000 159.000000 0.700318 -0.652241 -0.290063
-16460.00000000 -9110.00000000 -790.00000000 240 215 28 97.000000 1.000000 4.000000 1.000000 -60.708740 114.000000 159.000000 0.857541 -0.384735 -0.341471
-16470.00000000 -9110.00000000 -800.00000000 240 215 28 97.000000 1.000000 4.000000 1.000000 -60.708740 114.000000 159.000000 -0.516930 0.367846 0.772964
-16460.00000000 -9110.00000000 -790.00000000 240 215 28 97.000000 1.000000 4.000000 1.000000 -60.708740 114.000000 159.000000 0.857541 -0.384735 -0.341471
-16480.00000000 -9080.00000000 -830.00000000 240 215 28 97.000000 1.000000 4.000000 1.000000 -60.708740 114.000000 159.000000 -0.533514 0.647958 0.543612
-16480.00000000 -9050.00000000 -860.00000000 240 215 28 97.000000 1.000000 4.000000 1.000000 -60.708740 114.000000 159.000000 0.910140 -0.022327 -0.413700
-16480.00000000 -9090.00000000 -820.00000000 240 215 28 97.000000 1.000000 4.000000 1.000000 -60.708740 114.000000 159.000000 -0.571146 0.763128 0.302371
-16490.00000000 -9110.00000000 -810.00000000 240 215 28 97.000000 1.000000 4.000000 1.000000 -60.708740 114.000000 159.000000 0.563702 -0.590787 -0.577244
-16480.00000000 -9120.00000000 -790.00000000 240 215 28 97.000000 1.000000 4.000000 1.000000 -60.708740 114.000000 159.000000 -0.347319 0.624522 0.699530
-16510.00000000 -8980.00000000 -900.00000000 240 215 28 97.000000 1.000000 4.000000 1.000000 -60.708740 114.000000 159.000000 0.795638 0.170602 -0.581253
-16500.00000000 -8980.00000000 -870.00000000 240 215 28 97.000000 1.000000 4.000000 1.000000 -60.708740 114.000000 159.000000 0.919519 0.131756 -0.370304
-16500.00000000 -8980.00000000 -870.00000000 240 215 28 97.000000 1.000000 4.000000 1.000000 -60.708740 114.000000 159.000000 0.919519 0.131756 -0.370304
-16490.00000000 -8980.00000000 -880.00000000 240 215 28 97.000000 1.000000 4.000000 1.000000 -60.708740 114.000000 159.000000 0.812787 0.582520 0.006853
-16510.00000000 -8990.00000000 -930.00000000 240 215 28 97.000000 1.000000 4.000000 1.000000 -60.708740 114.000000 159.000000 0.856799 0.195882 -0.476996
-16510.00000000 -8990.00000000 -920.00000000 240 215 28 97.000000 1.000000 4.000000 1.000000 -60.708740 114.000000 159.000000 0.898120 0.156132 -0.411101
-16490.00000000 -9000.00000000 -920.00000000 240 215 28 97.000000 1.000000 4.000000 1.000000 -60.708740 114.000000 159.000000 0.692714 -0.189764 -0.695800
-16510.00000000 -8990.00000000 -930.00000000 240 215 28 97.000000 1.000000 4.000000 1.000000 -60.708740 114.000000 159.000000 0.856799 0.195882 -0.476996
-16500.00000000 -9020.00000000 -890.00000000 240 215 28 97.000000 1.000000 4.000000 1.000000 -60.708740 114.000000 159.000000 0.923321 0.085167 -0.374466
-16500.00000000 -9030.00000000 -890.00000000 240 215 28 97.000000 1.000000 4.000000 1.000000 -60.708740 114.000000 159.000000 0.775553 -0.367538 -0.513258
-16500.00000000 -9040.00000000 -880.00000000 240 215 28 97.000000 1.000000 4.000000 1.000000 -60.708740 114.000000 159.000000 0.757229 -0.413777 -0.505364
-16500.00000000 -9030.00000000 -890.00000000 240 215 28 97.000000 1.000000 4.000000 1.000000 -60.708740 114.000000 159.000000 0.775553 -0.367538 -0.513258
-16490.00000000 -9020.00000000 -870.00000000 240 215 28 97.000000 1.000000 4.000000 1.000000 -60.708740 114.000000 159.000000 0.896382 0.283929 -0.340417
-16500.00000000 -9010.00000000 -900.00000000 240 215 28 97.000000 1.000000 4.000000 1.000000 -60.708740 114.000000 159.000000 0.993480 0.112821 -0.016430
-16510.00000000 -9020.00000000 -930.00000000 240 215 28 97.000000 1.000000 4.000000 1.000000 -60.708740 114.000000 159.000000 0.943921 -0.216344 -0.249416
-16510.00000000 -9010.00000000 -930.00000000 240 215 28 97.000000 1.000000 4.000000 1.000000 -60.708740 114.000000 159.000000 0.928075 -0.032541 -0.370970
-16510.00000000 -9030.00000000 -910.00000000 240 215 28 97.000000 1.000000 4.000000 1.000000 -60.708740 114.000000 159.000000 0.813021 -0.150670 -0.562402
-16510.00000000 -9020.00000000 -910.00000000 240 215 28 97.000000 1.000000 4.000000 1.000000 -60.708740 114.000000 159.000000 0.953986 -0.041697 -0.296936
-16510.00000000 -9070.00000000 -930.00000000 240 215 28 97.000000 1.000000 4.000000 1.000000 -60.708740 114.000000 159.000000 -0.439633 0.539172 0.718343
-16500.00000000 -9050.00000000 -880.00000000 240 215 28 97.000000 1.000000 4.000000 1.000000 -60.708740 114.000000 159.000000 0.738844 -0.213098 -0.639295
-16510.00000000 -9050.00000000 -890.00000000 240 215 28 97.000000 1.000000 4.000000 1.000000 -60.708740 114.000000 159.000000 0.853437 -0.377751 -0.359096
-16630.00000000 -8940.00000000 -620.00000000 240 215 28 97.000000 1.000000 4.000000 1.000000 -60.708740 114.000000 159.000000 0.793850 -0.542333 -0.275096
-16550.00000000 -9010.00000000 -470.00000000 240 215 28 97.000000 1.000000 4.000000 1.000000 -60.708740 114.000000 159.000000 -0.206017 0.729579 0.652129
-16560.00000000 -9030.00000000 -470.00000000 240 215 28 97.000000 1.000000 4.000000 1.000000 -60.708740 114.000000 159.000000 -0.337789 0.467830 0.816721
-16590.00000000 -9030.00000000 -480.00000000 240 215 28 97.000000 1.000000 4.000000 1.000000 -60.708740 114.000000 159.000000 0.877273 -0.209299 -0.431957
-16530.00000000 -9080.00000000 -370.00000000 240 215 28 97.000000 1.000000 4.000000 1.000000 -60.708740 114.000000 159.000000 -0.566387 0.363989 0.739404
-16590.00000000 -8970.00000000 -560.00000000 240 215 28 97.000000 1.000000 4.000000 1.000000 -60.708740 114.000000 159.000000 0.579063 -0.382214 -0.720138
-16540.00000000 -8980.00000000 -690.00000000 240 215 28 97.000000 1.000000 4.000000 1.000000 -60.708740 114.000000 159.000000 0.055448 0.969727 0.237811
-16540.00000000 -9040.00000000 -630.00000000 240 215 28 97.000000 1.000000 4.000000 1.000000 -60.708740 114.000000 159.000000 0.600478 -0.673666 -0.430814
-16520.00000000 -9030.00000000 -650.00000000 240 215 28 97.000000 1.000000 4.000000 1.000000 -60.708740 114.000000 159.000000 -0.256790 0.807723 0.530700
-16530.00000000 -9020.00000000 -660.00000000 240 215 28 97.000000 1.000000 4.000000 1.000000 -60.708740 114.000000 159.000000 -0.009570 0.827143 0.561910
-16520.00000000 -9010.00000000 -670.00000000 240 215 28 97.000000 1.000000 4.000000 1.000000 -60.708740 114.000000 159.000000 -0.020316 0.862764 0.505198
-16520.00000000 -9030.00000000 -660.00000000 240 215 28 97.000000 1.000000 4.000000 1.000000 -60.708740 114.000000 159.000000 -0.165345 0.769084 0.617391
-16530.00000000 -9020.00000000 -670.00000000 240 215 28 97.000000 1.000000 4.000000 1.000000 -60.708740 114.000000 159.000000 -0.074247 0.916608 0.392832
-16530.00000000 -9020.00000000 -680.00000000 240 215 28 97.000000 1.000000 4.000000 1.000000 -60.708740 114.000000 159.000000 -0.256416 0.955250 0.147473
-16530.00000000 -9010.00000000 -680.00000000 240 215 28 97.000000 1.000000 4.000000 1.000000 -60.708740 114.000000 159.000000 -0.105297 0.958068 0.266491
-16530.00000000 -9020.00000000 -690.00000000 240 215 28 97.000000 1.000000 4.000000 1.000000 -60.708740 114.000000 159.000000 -0.232674 0.902893 0.361450
-16570.00000000 -9040.00000000 -690.00000000 240 215 28 97.000000 1.000000 4.000000 1.000000 -60.708740 114.000000 159.000000 0.921816 -0.193992 -0.335592
-16560.00000000 -9040.00000000 -690.00000000 240 215 28 97.000000 1.000000 4.000000 1.000000 -60.708740 114.000000 159.000000 0.882122 -0.246278 -0.401507
-16580.00000000 -9030.00000000 -670.00000000 240 215 28 97.000000 1.000000 4.000000 1.000000 -60.708740 114.000000 159.000000 0.867378 -0.366909 -0.336205
-16520.00000000 -9080.00000000 -600.00000000 240 215 28 97.000000 1.000000 4.000000 1.000000 -60.708740 114.000000 159.000000 0.653787 -0.559669 -0.509248
-16530.00000000 -9120.00000000 -590.00000000 240 215 28 97.000000 1.000000 4.000000 1.000000 -60.708740 114.000000 159.000000 0.903846 0.241709 -0.353042
-16520.00000000 -9060.00000000 -630.00000000 240 215 28 97.000000 1.000000 4.000000 1.000000 -60.708740 114.000000 159.000000 -0.494264 0.828937 0.261851
-16540.00000000 -9060.00000000 -640.00000000 240 215 28 97.000000 1.000000 4.000000 1.000000 -60.708740 114.000000 159.000000 -0.493836 0.753059 0.434773
-16540.00000000 -9070.00000000 -620.00000000 240 215 28 97.000000 1.000000 4.000000 1.000000 -60.708740 114.000000 159.000000 0.901991 -0.254559 -0.348730
-16530.00000000 -9060.00000000 -640.00000000 240 215 28 97.000000 1.000000 4.000000 1.000000 -60.708740 114.000000 159.000000 -0.696449 0.696449 0.172964
-16540.00000000 -9060.00000000 -620.00000000 240 215 28 97.000000 1.000000 4.000000 1.000000 -60.708740 114.000000 159.000000 0.759926 -0.607005 -0.232503
-16530.00000000 -9050.00000000 -660.00000000 240 215 28 97.000000 1.000000 4.000000 1.000000 -60.708740 114.000000 159.000000 0.776972 -0.488243 -0.397407
-16540.00000000 -9110.00000000 -610.00000000 240 215 28 97.000000 1.000000 4.000000 1.000000 -60.708740 114.000000 159.000000 0.900443 0.311976 -0.303105
-16550.00000000 -9110.00000000 -630.00000000 240 215 28 97.000000 1.000000 4.000000 1.000000 -60.708740 114.000000 159.000000 0.827658 -0.238009 -0.508265
-16550.00000000 -9120.00000000 -650.00000000 240 215 28 97.000000 1.000000 4.000000 1.000000 -60.708740 114.000000 159.000000 0.853290 0.485673 -0.189786
-16530.00000000 -9120.00000000 -620.00000000 240 215 28 97.000000 1.000000 4.000000 1.000000 -60.708740 114.000000 159.000000 0.896956 0.268346 -0.351370
-16550.00000000 -9120.00000000 -680.00000000 240 215 28 97.000000 1.000000 4.000000 1.000000 -60.708740 114.000000 159.000000 0.874404 0.484885 0.017461
-16550.00000000 -9120.00000000 -680.00000000 240 215 28 97.000000 1.000000 4.000000 1.000000 -60.708740 114.000000 159.000000 0.874404 0.484885 0.017461
-16550.00000000 -9110.00000000 -670.00000000 240 215 28 97.000000 1.000000 4.000000 1.000000 -60.708740 114.000000 159.000000 0.931920 0.329969 -0.150488
-16570.00000000 -9080.00000000 -650.00000000 240 215 28 97.000000 1.000000 4.000000 1.000000 -60.708740 114.000000 159.000000 0.920305 -0.009035 -0.391097
-16560.00000000 -9080.00000000 -650.00000000 240 215 28 97.000000 1.000000 4.000000 1.000000 -60.708740 114.000000 159.000000 0.965726 -0.020651 -0.258742
-16560.00000000 -9070.00000000 -650.00000000 240 215 28 97.000000 1.000000 4.000000 1.000000 -60.708740 114.000000 159.000000 0.916386 -0.105790 -0.386064
-16570.00000000 -9060.00000000 -680.00000000 240 215 28 97.000000 1.000000 4.000000 1.000000 -60.708740 114.000000 159.000000 0.829318 -0.480787 -0.284738
-16580.00000000 -9050.00000000 -680.00000000 240 215 28 97.000000 1.000000 4.000000 1.000000 -60.708740 114.000000 159.000000 0.935522 -0.155233 -0.317336
-16560.00000000 -9060.00000000 -670.00000000 240 215 28 97.000000 1.000000 4.000000 1.000000 -60.708740 114.000000 159.000000 0.940073 -0.183060 -0.287665
-16570.00000000 -9060.00000000 -680.00000000 240 215 28 97.000000 1.000000 4.000000 1.000000 -60.708740 114.000000 159.000000 0.829318 -0.480787 -0.284738
-16560.00000000 -9080.00000000 -680.00000000 240 215 28 97.000000 1.000000 4.000000 1.000000 -60.708740 114.000000 159.000000 0.894693 0.244007 -0.374145
-16580.00000000 -9060.00000000 -670.00000000 240 215 28 97.000000 1.000000 4.000000 1.000000 -60.708740 114.000000 159.000000 0.939542 0.100236 -0.327436
-16560.00000000 -9100.00000000 -650.00000000 240 215 28 97.000000 1.000000 4.000000 1.000000 -60.708740 114.000000 159.000000 0.999372 0.033618 0.011206
-16560.00000000 -9090.00000000 -640.00000000 240 215 28 97.000000 1.000000 4.000000 1.000000 -60.708740 114.000000 159.000000 0.970868 -0.154776 -0.182917
-16580.00000000 -9100.00000000 -690.00000000 240 215 28 97.000000 1.000000 4.000000 1.000000 -60.708740 114.000000 159.000000 0.743183 0.529908 -0.408505
-16570.00000000 -9090.00000000 -680.00000000 240 215 28 97.000000 1.000000 4.000000 1.000000 -60.708740 114.000000 159.000000 0.751894 0.442581 -0.488649
-16560.00000000 -9120.00000000 -670.00000000 240 215 28 97.000000 1.000000 4.000000 1.000000 -60.708740 114.000000 159.000000 0.858620 0.512468 -0.012169
-16570.00000000 -9100.00000000 -690.00000000 240 215 28 97.000000 1.000000 4.000000 1.000000 -60.708740 114.000000 159.000000 0.791190 0.526929 -0.310427
-16560.00000000 -9100.00000000 -680.00000000 240 215 28 97.000000 1.000000 4.000000 1.000000 -60.708740 114.000000 159.000000 0.858345 0.429938 -0.279995
-16670.00000000 -8730.00000000 -1000.00000000 240 215 28 97.000000 1.000000 4.000000 1.000000 -60.708740 114.000000 159.000000 0.163364 -0.810823 -0.562031
-16720.00000000 -8790.00000000 -900.00000000 240 215 28 97.000000 1.000000 4.000000 1.000000 -60.708740 114.000000 159.000000 -0.109414 0.933399 0.341751
-16710.00000000 -8780.00000000 -910.00000000 240 215 28 97.000000 1.000000 4.000000 1.000000 -60.708740 114.000000 159.000000 -0.255747 0.941424 0.219804
-16730.00000000 -8750.00000000 -980.00000000 240 215 28 97.000000 1.000000 4.000000 1.000000 -60.708740 114.000000 159.000000 -0.301550 0.803608 0.513109
-16750.00000000 -8770.00000000 -970.00000000 240 215 28 97.000000 1.000000 4.000000 1.000000 -60.708740 114.000000 159.000000 0.562144 -0.432801 -0.704753
-16730.00000000 -8760.00000000 -1020.00000000 240 215 28 97.000000 1.000000 4.000000 1.000000 -60.708740 114.000000 159.000000 -0.123083 0.615413 0.778535
-16670.00000000 -8780.00000000 -1050.00000000 240 215 28 97.000000 1.000000 4.000000 1.000000 -60.708740 114.000000 159.000000 0.507018 0.811543 0.290397
-16660.00000000 -8750.00000000 -1050.00000000 240 215 28 97.000000 1.000000 4.000000 1.000000 -60.708740 114.000000 159.000000 0.400803 0.902876 0.155472
-16700.00000000 -8700.00000000 -1070.00000000 240 215 28 97.000000 1.000000 4.000000 1.000000 -60.708740 114.000000 159.000000 0.453113 0.839272 0.300518
-16740.00000000 -8690.00000000 -1080.00000000 240 215 28 97.000000 1.000000 4.000000 1.000000 -60.708740 114.000000 159.000000 0.146408 0.729023 0.668648
-16720.00000000 -8680.00000000 -1150.00000000 240 215 28 97.000000 1.000000 4.000000 1.000000 -60.708740 114.000000 159.000000 -0.006946 0.712624 0.701511
-16730.00000000 -8670.00000000 -1160.00000000 240 215 28 97.000000 1.000000 4.000000 1.000000 -60.708740 114.000000 159.000000 0.268379 0.959230 0.088604
-16750.00000000 -8730.00000000 -1110.00000000 240 215 28 97.000000 1.000000 4.000000 1.000000 -60.708740 114.000000 159.000000 -0.036641 0.993746 0.105481
-16730.00000000 -8780.00000000 -1070.00000000 240 215 28 97.000000 1.000000 4.000000 1.000000 -60.708740 114.000000 159.000000 0.489472 -0.783479 -0.382855
-16730.00000000 -8780.00000000 -1080.00000000 240 215 28 97.000000 1.000000 4.000000 1.000000 -60.708740 114.000000 159.000000 -0.283770 0.953311 0.103308
-16720.00000000 -8710.00000000 -1170.00000000 240 215 28 97.000000 1.000000 4.000000 1.000000 -60.708740 114.000000 159.000000 0.117341 0.741180 0.660972
-16720.00000000 -8790.00000000 -1150.00000000 240 215 28 97.000000 1.000000 4.000000 1.000000 -60.708740 114.000000 159.000000 -0.082554 0.918922 0.385704
-16760.00000000 -8770.00000000 -1130.00000000 240 215 28 97.000000 1.000000 4.000000 1.000000 -60.708740 114.000000 159.000000 0.039934 0.939081 0.341367
-16780.00000000 -8650.00000000 -1150.00000000 240 215 28 97.000000 1.000000 4.000000 1.000000 -60.708740 114.000000 159.000000 0.263361 0.863156 0.430817
-16790.00000000 -8650.00000000 -1190.00000000 240 215 28 97.000000 1.000000 4.000000 1.000000 -60.708740 114.000000 159.000000 0.262101 0.847614 0.461360
-16810.00000000 -8650.00000000 -1180.00000000 240 215 28 97.000000 1.000000 4.000000 1.000000 -60.708740 114.000000 159.000000 0.031083 0.879785 0.474354
-16810.00000000 -8700.00000000 -1120.00000000 240 215 28 97.000000 1.000000 4.000000 1.000000 -60.708740 114.000000 159.000000 -0.022607 0.897629 0.440171
-16790.00000000 -8760.00000000 -1100.00000000 240 215 28 97.000000 1.000000 4.000000 1.000000 -60.708740 114.000000 159.000000 -0.704168 0.551016 0.447804
-16520.00000000 -8960.00000000 -820.00000000 240 215 28 97.000000 1.000000 4.000000 1.000000 -60.708740 114.000000 159.000000 0.454897 0.736107 0.501214
-16530.00000000 -8960.00000000 -820.00000000 240 215 28 97.000000 1.000000 4.000000 1.000000 -60.708740 114.000000 159.000000 0.518635 0.854304 -0.034392
-16530.00000000 -8960.00000000 -810.00000000 240 215 28 97.000000 1.000000 4.000000 1.000000 -60.708740 114.000000 159.000000 0.574403 0.788063 0.221401
-16540.00000000 -8940.00000000 -810.00000000 240 215 28 97.000000 1.000000 4.000000 1.000000 -60.708740 114.000000 159.000000 0.529258 0.845402 0.071979
-16530.00000000 -8960.00000000 -820.00000000 240 215 28 97.000000 1.000000 4.000000 1.000000 -60.708740 114.000000 159.000000 0.518635 0.854304 -0.034392
-16520.00000000 -8950.00000000 -850.00000000 240 215 28 97.000000 1.000000 4.000000 1.000000 -60.708740 114.000000 159.000000 0.745082 0.576994 0.334560
-16520.00000000 -8960.00000000 -850.00000000 240 215 28 97.000000 1.000000 4.000000 1.000000 -60.708740 114.000000 159.000000 0.461343 0.816466 0.347196
-16520.00000000 -8950.00000000 -840.00000000 240 215 28 97.000000 1.000000 4.000000 1.000000 -60.708740 114.000000 159.000000 0.763048 0.631126 0.139417
-16520.00000000 -8960.00000000 -840.00000000 240 215 28 97.000000 1.000000 4.000000 1.000000 -60.708740 114.000000 159.000000 0.589269 0.775845 0.225446
-16580.00000000 -8940.00000000 -860.00000000 240 215 28 97.000000 1.000000 4.000000 1.000000 -60.708740 114.000000 159.000000 0.308018 0.720860 0.620875
-16610.00000000 -8820.00000000 -790.00000000 240 215 28 97.000000 1.000000 4.000000 1.000000 -60.708740 114.000000 159.000000 -0.369752 0.823611 0.430055
-16630.00000000 -8810.00000000 -850.00000000 240 215 28 97.000000 1.000000 4.000000 1.000000 -60.708740 114.000000 159.000000 -0.310869 0.903141 0.296136
-16670.00000000 -8840.00000000 -820.00000000 240 215 28 97.000000 1.000000 4.000000 1.000000 -60.708740 114.000000 159.000000 -0.495042 0.498376 0.711727
-16670.00000000 -8900.00000000 -700.00000000 240 215 28 97.000000 1.000000 4.000000 1.000000 -60.708740 114.000000 159.000000 0.377080 -0.693235 -0.614196
-16660.00000000 -8880.00000000 -730.00000000 240 215 28 97.000000 1.000000 4.000000 1.000000 -60.708740 114.000000 159.000000 -0.524101 0.791728 0.313824
-16670.00000000 -8880.00000000 -740.00000000 240 215 28 97.000000 1.000000 4.000000 1.000000 -60.708740 114.000000 159.000000 -0.238973 0.847822 0.473380
-16630.00000000 -8950.00000000 -800.00000000 240 215 28 97.000000 1.000000 4.000000 1.000000 -60.708740 114.000000 159.000000 0.636641 -0.449492 -0.626615
-16650.00000000 -8950.00000000 -820.00000000 240 215 28 97.000000 1.000000 4.000000 1.000000 -60.708740 114.000000 159.000000 0.762537 -0.599696 -0.242697
-16650.00000000 -8940.00000000 -860.00000000 240 215 28 97.000000 1.000000 4.000000 1.000000 -60.708740 114.000000 159.000000 0.799284 -0.442260 -0.406879
-16650.00000000 -8940.00000000 -850.00000000 240 215 28 97.000000 1.000000 4.000000 1.000000 -60.708740 114.000000 159.000000 0.831815 -0.321134 -0.452721
-16670.00000000 -8960.00000000 -860.00000000 240 215 28 97.000000 1.000000 4.000000 1.000000 -60.708740 114.000000 159.000000 0.893362 -0.284862 -0.347502
-16660.00000000 -8950.00000000 -860.00000000 240 215 28 97.000000 1.000000 4.000000 1.000000 -60.708740 114.000000 159.000000 0.748548 -0.591465 -0.299740
-16550.00000000 -8940.00000000 -870.00000000 240 215 28 97.000000 1.000000 4.000000 1.000000 -60.708740 114.000000 159.000000 0.415635 0.803989 0.425264
-16520.00000000 -8960.00000000 -890.00000000 240 215 28 97.000000 1.000000 4.000000 1.000000 -60.708740 114.000000 159.000000 0.832013 0.553282 -0.040416
-16530.00000000 -8960.00000000 -930.00000000 240 215 28 97.000000 1.000000 4.000000 1.000000 -60.708740 114.000000 159.000000 0.962089 0.231058 0.144901
-16530.00000000 -8940.00000000 -940.00000000 240 215 28 97.000000 1.000000 4.000000 1.000000 -60.708740 114.000000 159.000000 0.899604 0.435808 0.027988
-16530.00000000 -8940.00000000 -940.00000000 240 215 28 97.000000 1.000000 4.000000 1.000000 -60.708740 114.000000 159.000000 0.899604 0.435808 0.027988
-16530.00000000 -8940.00000000 -930.00000000 240 215 28 97.000000 1.000000 4.000000 1.000000 -60.708740 114.000000 159.000000 0.952723 0.303533 0.013628
-16540.00000000 -8940.00000000 -920.00000000 240 215 28 97.000000 1.000000 4.000000 1.000000 -60.708740 114.000000 159.000000 0.893085 0.449840 -0.006596
-16520.00000000 -8960.00000000 -910.00000000 240 215 28 97.000000 1.000000 4.000000 1.000000 -60.708740 114.000000 159.000000 0.821216 0.460451 -0.337031
-16530.00000000 -8950.00000000 -920.00000000 240 215 28 97.000000 1.000000 4.000000 1.000000 -60.708740 114.000000 159.000000 0.819640 0.557708 0.130966
-16560.00000000 -8900.00000000 -940.00000000 240 215 28 97.000000 1.000000 4.000000 1.000000 -60.708740 114.000000 159.000000 0.743362 0.668888 -0.001379
-16580.00000000 -8920.00000000 -940.00000000 240 215 28 97.000000 1.000000 4.000000 1.000000 -60.708740 114.000000 159.000000 0.300967 0.878704 0.370538
-16590.00000000 -8920.00000000 -940.00000000 240 215 28 97.000000 1.000000 4.000000 1.000000 -60.708740 114.000000 159.000000 0.302603 0.826280 0.475072
-16590.00000000 -8920.00000000 -940.00000000 240 215 28 97.000000 1.000000 4.000000 1.000000 -60.708740 114.000000 159.000000 0.302603 0.826280 0.475072
-16540.00000000 -8950.00000000 -970.00000000 240 215 28 97.000000 1.000000 4.000000 1.000000 -60.708740 114.000000 159.000000 0.949399 0.129161 -0.286284
-16550.00000000 -8940.00000000 -950.00000000 240 215 28 97.000000 1.000000 4.000000 1.000000 -60.708740 114.000000 159.000000 0.762715 0.634852 0.123402
-16550.00000000 -8950.00000000 -950.00000000 240 215 28 97.000000 1.000000 4.000000 1.000000 -60.708740 114.000000 159.000000 0.875269 0.482953 -0.025703
-16540.00000000 -8950.00000000 -980.00000000 240 215 28 97.000000 1.000000 4.000000 1.000000 -60.708740 114.000000 159.000000 0.939169 0.280783 -0.197793
-16540.00000000 -8950.00000000 -960.00000000 240 215 28 97.000000 1.000000 4.000000 1.000000 -60.708740 114.000000 159.000000 0.905484 0.421124 -0.052472
-16550.00000000 -8960.00000000 -990.00000000 240 215 28 97.000000 1.000000 4.000000 1.000000 -60.708740 114.000000 159.000000 0.998806 0.019747 -0.044692
-16540.00000000 -8960.00000000 -990.00000000 240 215 28 97.000000 1.000000 4.000000 1.000000 -60.708740 114.000000 159.000000 0.997792 0.045888 -0.048022
-16560.00000000 -8900.00000000 -980.00000000 240 215 28 97.000000 1.000000 4.000000 1.000000 -60.708740 114.000000 159.000000 0.944606 0.295949 -0.141894
-16580.00000000 -8910.00000000 -950.00000000 240 215 28 97.000000 1.000000 4.000000 1.000000 -60.708740 114.000000 159.000000 0.354481 0.830273 0.430104
-16590.00000000 -8900.00000000 -970.00000000 240 215 28 97.000000 1.000000 4.000000 1.000000 -60.708740 114.000000 159.000000 0.691825 0.715327 0.098413
-16580.00000000 -8900.00000000 -970.00000000 240 215 28 97.000000 1.000000 4.000000 1.000000 -60.708740 114.000000 159.000000 0.406630 0.893420 -0.190927
-16590.00000000 -8900.00000000 -970.00000000 240 215 28 97.000000 1.000000 4.000000 1.000000 -60.708740 114.000000 159.000000 0.691825 0.715327 0.098413
-16590.00000000 -8910.00000000 -990.00000000 240 215 28 97.000000 1.000000 4.000000 1.000000 -60.708740 114.000000 159.000000 0.700140 0.700140 0.140028
-16590.00000000 -8890.00000000 -1000.00000000 240 215 28 97.000000 1.000000 4.000000 1.000000 -60.708740 114.000000 159.000000 0.796543 0.561447 0.224269
-16590.00000000 -8910.00000000 -990.00000000 240 215 28 97.000000 1.000000 4.000000 1.000000 -60.708740 114.000000 159.000000 0.700140 0.700140 0.140028
-16590.00000000 -8900.00000000 -1010.00000000 240 215 28 97.000000 1.000000 4.000000 1.000000 -60.708740 114.000000 159.000000 0.729145 0.679662 -0.080046
-16590.00000000 -8910.00000000 -1020.00000000 240 215 28 97.000000 1.000000 4.000000 1.000000 -60.708740 114.000000 159.000000 0.696887 0.699924 -0.156382
-16590.00000000 -8900.00000000 -1010.00000000 240 215 28 97.000000 1.000000 4.000000 1.000000 -60.708740 114.000000 159.000000 0.729145 0.679662 -0.080046
-16560.00000000 -8930.00000000 -980.00000000 240 215 28 97.000000 1.000000 4.000000 1.000000 -60.708740 114.000000 159.000000 0.751986 0.582028 -0.309453
-16570.00000000 -8920.00000000 -960.00000000 240 215 28 97.000000 1.000000 4.000000 1.000000 -60.708740 114.000000 159.000000 0.604030 0.755431 0.253913
-16560.00000000 -8930.00000000 -960.00000000 240 215 28 97.000000 1.000000 4.000000 1.000000 -60.708740 114.000000 159.000000 0.819117 0.570985 -0.054984
-16560.00000000 -8930.00000000 -950.00000000 240 215 28 97.000000 1.000000 4.000000 1.000000 -60.708740 114.000000 159.000000 0.572924 0.787188 0.228238
-16570.00000000 -8920.00000000 -950.00000000 240 215 28 97.000000 1.000000 4.000000 1.000000 -60.708740 114.000000 159.000000 0.493478 0.792458 0.358455
-16580.00000000 -8930.00000000 -1020.00000000 240 215 28 97.000000 1.000000 4.000000 1.000000 -60.708740 114.000000 159.000000 0.717909 0.528898 -0.452631
-16570.00000000 -8920.00000000 -1000.00000000 240 215 28 97.000000 1.000000 4.000000 1.000000 -60.708740 114.000000 159.000000 0.886953 0.145190 -0.438445
-16570.00000000 -8930.00000000 -1000.00000000 240 215 28 97.000000 1.000000 4.000000 1.000000 -60.708740 114.000000 159.000000 0.903932 0.377482 -0.201034
-16570.00000000 -8930.00000000 -1010.00000000 240 215 28 97.000000 1.000000 4.000000 1.000000 -60.708740 114.000000 159.000000 0.871538 0.462777 -0.162045
-16570.00000000 -8920.00000000 -1000.00000000 240 215 28 97.000000 1.000000 4.000000 1.000000 -60.708740 114.000000 159.000000 0.886953 0.145190 -0.438445
-16570.00000000 -8920.00000000 -1030.00000000 240 215 28 97.000000 1.000000 4.000000 1.000000 -60.708740 114.000000 159.000000 0.849522 0.523755 0.063188
-16640.00000000 -8850.00000000 -910.00000000 240 215 28 97.000000 1.000000 4.000000 1.000000 -60.708740 114.000000 159.000000 0.112374 0.950550 0.289528
-16680.00000000 -8830.00000000 -900.00000000 240 215 28 97.000000 1.000000 4.000000 1.000000 -60.708740 114.000000 159.000000 -0.292460 0.526428 0.798336
-16670.00000000 -8830.00000000 -900.00000000 240 215 28 97.000000 1.000000 4.000000 1.000000 -60.708740 114.000000 159.000000 -0.377670 0.654738 0.654738
-16630.00000000 -8840.00000000 -980.00000000 240 215 28 97.000000 1.000000 4.000000 1.000000 -60.708740 114.000000 159.000000 0.470926 0.874983 0.112396
-16620.00000000 -8850.00000000 -1010.00000000 240 215 28 97.000000 1.000000 4.000000 1.000000 -60.708740 114.000000 159.000000 0.594084 0.803760 0.032150
-16610.00000000 -8850.00000000 -1030.00000000 240 215 28 97.000000 1.000000 4.000000 1.000000 -60.708740 114.000000 159.000000 0.627059 0.776291 0.064571
-16630.00000000 -8860.00000000 -1000.00000000 240 215 28 97.000000 1.000000 4.000000 1.000000 -60.708740 114.000000 159.000000 0.535470 0.808637 0.243677
-16650.00000000 -8870.00000000 -1030.00000000 240 215 28 97.000000 1.000000 4.000000 1.000000 -60.708740 114.000000 159.000000 0.272140 0.882577 0.383402
-16680.00000000 -8870.00000000 -1020.00000000 240 215 28 97.000000 1.000000 4.000000 1.000000 -60.708740 114.000000 159.000000 -0.237224 0.736807 0.633120
-16650.00000000 -8870.00000000 -1020.00000000 240 215 28 97.000000 1.000000 4.000000 1.000000 -60.708740 114.000000 159.000000 0.364165 0.833954 0.414613
-16650.00000000 -8870.00000000 -1030.00000000 240 215 28 97.000000 1.000000 4.000000 1.000000 -60.708740 114.000000 159.000000 0.272140 0.882577 0.383402
-16630.00000000 -8910.00000000 -900.00000000 240 215 28 97.000000 1.000000 4.000000 1.000000 -60.708740 114.000000 159.000000 -0.172106 0.827604 0.534276
-16630.00000000 -8910.00000000 -900.00000000 240 215 28 97.000000 1.000000 4.000000 1.000000 -60.708740 114.000000 159.000000 -0.172106 0.827604 0.534276
-16610.00000000 -8890.00000000 -930.00000000 240 215 28 97.000000 1.000000 4.000000 1.000000 -60.708740 114.000000 159.000000 0.087587 0.989149 0.117950
-16630.00000000 -8900.00000000 -940.00000000 240 215 28 97.000000 1.000000 4.000000 1.000000 -60.708740 114.000000 159.000000 -0.116959 0.990101 0.077587
-16620.00000000 -8910.00000000 -940.00000000 240 215 28 97.000000 1.000000 4.000000 1.000000 -60.708740 114.000000 159.000000 0.153374 0.980367 0.123926
-16630.00000000 -8890.00000000 -920.00000000 240 215 28 97.000000 1.000000 4.000000 1.000000 -60.708740 114.000000 159.000000 -0.279482 0.662771 0.694712
-16640.00000000 -8920.00000000 -900.00000000 240 215 28 97.000000 1.000000 4.000000 1.000000 -60.708740 114.000000 159.000000 -0.068864 0.947208 0.313137
-16600.00000000 -8920.00000000 -930.00000000 240 215 28 97.000000 1.000000 4.000000 1.000000 -60.708740 114.000000 159.000000 0.436102 0.861568 0.259838
-16600.00000000 -8920.00000000 -940.00000000 240 215 28 97.000000 1.000000 4.000000 1.000000 -60.708740 114.000000 159.000000 0.224320 0.929728 0.292039
-16660.00000000 -8900.00000000 -920.00000000 240 215 28 97.000000 1.000000 4.000000 1.000000 -60.708740 114.000000 159.000000 0.298020 -0.674976 -0.674976
-16650.00000000 -8910.00000000 -940.00000000 240 215 28 97.000000 1.000000 4.000000 1.000000 -60.708740 114.000000 159.000000 -0.084405 0.951833 0.294770
-16660.00000000 -8910.00000000 -920.00000000 240 215 28 97.000000 1.000000 4.000000 1.000000 -60.708740 114.000000 159.000000 -0.329575 0.465189 0.821571
-16670.00000000 -8900.00000000 -930.00000000 240 215 28 97.000000 1.000000 4.000000 1.000000 -60.708740 114.000000 159.000000 0.719842 -0.510373 -0.470474
-16670.00000000 -8900.00000000 -930.00000000 240 215 28 97.000000 1.000000 4.000000 1.000000 -60.708740 114.000000 159.000000 0.719842 -0.510373 -0.470474
-16680.00000000 -8910.00000000 -920.00000000 240 215 28 97.000000 1.000000 4.000000 1.000000 -60.708740 114.000000 159.000000 -0.532878 0.819930 0.209181
-16680.00000000 -8960.00000000 -880.00000000 240 215 28 97.000000 1.000000 4.000000 1.000000 -60.708740 114.000000 159.000000 0.946193 -0.181070 -0.268202
-16660.00000000 -8950.00000000 -870.00000000 240 215 28 97.000000 1.000000 4.000000 1.000000 -60.708740 114.000000 159.000000 0.817742 -0.446185 -0.363617
-16670.00000000 -8930.00000000 -900.00000000 240 215 28 97.000000 1.000000 4.000000 1.000000 -60.708740 114.000000 159.000000 0.468618 -0.323457 -0.822054
-16660.00000000 -8940.00000000 -890.00000000 240 215 28 97.000000 1.000000 4.000000 1.000000 -60.708740 114.000000 159.000000 0.754401 -0.636004 -0.162416
-16670.00000000 -8940.00000000 -890.00000000 240 215 28 97.000000 1.000000 4.000000 1.000000 -60.708740 114.000000 159.000000 0.664612 -0.631464 -0.399430
-16660.00000000 -8940.00000000 -880.00000000 240 215 28 97.000000 1.000000 4.000000 1.000000 -60.708740 114.000000 159.000000 0.841992 -0.399828 -0.362198
-16670.00000000 -8940.00000000 -900.00000000 240 215 28 97.000000 1.000000 4.000000 1.000000 -60.708740 114.000000 159.000000 -0.577091 0.727494 0.371104
-16660.00000000 -8940.00000000 -880.00000000 240 215 28 97.000000 1.000000 4.000000 1.000000 -60.708740 114.000000 159.000000 0.841992 -0.399828 -0.362198
-16660.00000000 -8960.00000000 -890.00000000 240 215 28 97.000000 1.000000 4.000000 1.000000 -60.708740 114.000000 159.000000 0.915502 -0.135578 -0.378780
-16680.00000000 -8940.00000000 -900.00000000 240 215 28 97.000000 1.000000 4.000000 1.000000 -60.708740 114.000000 159.000000 0.707106 -0.425588 -0.564691
-16680.00000000 -8960.00000000 -870.00000000 240 215 28 97.000000 1.000000 4.000000 1.000000 -60.708740 114.000000 159.000000 0.887694 -0.148189 -0.435934
-16650.00000000 -8940.00000000 -910.00000000 240 215 28 97.000000 1.000000 4.000000 1.000000 -60.708740 114.000000 159.000000 0.506209 -0.512891 -0.693322
-16680.00000000 -8950.00000000 -910.00000000 240 215 28 97.000000 1.000000 4.000000 1.000000 -60.708740 114.000000 159.000000 0.748539 -0.465575 -0.472155
-16670.00000000 -8940.00000000 -930.00000000 240 215 28 97.000000 1.000000 4.000000 1.000000 -60.708740 114.000000 159.000000 0.852531 -0.371138 -0.368032
-16670.00000000 -8960.00000000 -920.00000000 240 215 28 97.000000 1.000000 4.000000 1.000000 -60.708740 114.000000 159.000000 0.872030 -0.079784 -0.482906
-16680.00000000 -8950.00000000 -910.00000000 240 215 28 97.000000 1.000000 4.000000 1.000000 -60.708740 114.000000 159.000000 0.748539 -0.465575 -0.472155
-16620.00000000 -8890.00000000 -950.00000000 240 215 28 97.000000 1.000000 4.000000 1.000000 -60.708740 114.000000 159.000000 -0.086125 0.862661 0.498395
-16600.00000000 -8910.00000000 -960.00000000 240 215 28 97.000000 1.000000 4.000000 1.000000 -60.708740 114.000000 159.000000 0.349713 0.918881 0.182644
-16620.00000000 -8900.00000000 -980.00000000 240 215 28 97.000000 1.000000 4.000000 1.000000 -60.708740 114.000000 159.000000 0.073362 0.887261 0.455396
-16620.00000000 -8900.00000000 -960.00000000 240 215 28 97.000000 1.000000 4.000000 1.000000 -60.708740 114.000000 159.000000 0.129354 0.960356 0.246949
-16600.00000000 -8890.00000000 -970.00000000 240 215 28 97.000000 1.000000 4.000000 1.000000 -60.708740 114.000000 159.000000 0.714446 0.693991 0.089123
-16640.00000000 -8890.00000000 -970.00000000 240 215 28 97.000000 1.000000 4.000000 1.000000 -60.708740 114.000000 159.000000 0.153087 0.704808 0.692683
-16600.00000000 -8890.00000000 -960.00000000 240 215 28 97.000000 1.000000 4.000000 1.000000 -60.708740 114.000000 159.000000 0.392581 0.724386 0.566697
-16610.00000000 -8890.00000000 -1010.00000000 240 215 28 97.000000 1.000000 4.000000 1.000000 -60.708740 114.000000 159.000000 0.228127 0.973420 -0.020304
-16610.00000000 -8890.00000000 -1030.00000000 240 215 28 97.000000 1.000000 4.000000 1.000000 -60.708740 114.000000 159.000000 0.847566 0.524953 0.077823
-16650.00000000 -8900.00000000 -960.00000000 240 215 28 97.000000 1.000000 4.000000 1.000000 -60.708740 114.000000 159.000000 -0.023078 0.862019 0.506351
-16680.00000000 -8900.00000000 -970.00000000 240 215 28 97.000000 1.000000 4.000000 1.000000 -60.708740 114.000000 159.000000 -0.117934 0.831360 0.543077
-16660.00000000 -8890.00000000 -960.00000000 240 215 28 97.000000 1.000000 4.000000 1.000000 -60.708740 114.000000 159.000000 -0.136757 0.926906 0.349489
-16680.00000000 -8890.00000000 -980.00000000 240 215 28 97.000000 1.000000 4.000000 1.000000 -60.708740 114.000000 159.000000 -0.126409 0.771840 0.623124
-16660.00000000 -8890.00000000 -970.00000000 240 215 28 97.000000 1.000000 4.000000 1.000000 -60.708740 114.000000 159.000000 -0.179725 0.918439 0.352375
-16670.00000000 -8890.00000000 -980.00000000 240 215 28 97.000000 1.000000 4.000000 1.000000 -60.708740 114.000000 159.000000 0.004068 0.833916 0.551876
-16670.00000000 -8890.00000000 -980.00000000 240 215 28 97.000000 1.000000 4.000000 1.000000 -60.708740 114.000000 159.000000 0.004068 0.833916 0.551876
-16660.00000000 -8880.00000000 -1000.00000000 240 215 28 97.000000 1.000000 4.000000 1.000000 -60.708740 114.000000 159.000000 0.153203 0.977758 0.143238
-16660.00000000 -8880.00000000 -1010.00000000 240 215 28 97.000000 1.000000 4.000000 1.000000 -60.708740 114.000000 159.000000 0.228729 0.892782 0.388102
-16660.00000000 -8880.00000000 -1010.00000000 240 215 28 97.000000 1.000000 4.000000 1.000000 -60.708740 114.000000 159.000000 0.228729 0.892782 0.388102
-16660.00000000 -8880.00000000 -1010.00000000 240 215 28 97.000000 1.000000 4.000000 1.000000 -60.708740 114.000000 159.000000 0.228729 0.892782 0.388102
-16680.00000000 -8880.00000000 -1010.00000000 240 215 28 97.000000 1.000000 4.000000 1.000000 -60.708740 114.000000 159.000000 -0.121934 0.974219 0.189816
-16670.00000000 -8880.00000000 -990.00000000 240 215 28 97.000000 1.000000 4.000000 1.000000 -60.708740 114.000000 159.000000 -0.018654 0.953848 0.299710
-16530.00000000 -9000.00000000 -730.00000000 240 215 28 97.000000 1.000000 4.000000 1.000000 -60.708740 114.000000 159.000000 0.146177 0.679646 0.718828
-16550.00000000 -8970.00000000 -760.00000000 240 215 28 97.000000 1.000000 4.000000 1.000000 -60.708740 114.000000 159.000000 0.335825 0.866398 0.369561
-16520.00000000 -8980.00000000 -770.00000000 240 215 28 97.000000 1.000000 4.000000 1.000000 -60.708740 114.000000 159.000000 0.265456 0.954851 0.133389
-16550.00000000 -8970.00000000 -760.00000000 240 215 28 97.000000 1.000000 4.000000 1.000000 -60.708740 114.000000 159.000000 0.335825 0.866398 0.369561
-16520.00000000 -8980.00000000 -750.00000000 240 215 28 97.000000 1.000000 4.000000 1.000000 -60.708740 114.000000 159.000000 0.426810 0.810460 0.401233
-16520.00000000 -8990.00000000 -740.00000000 240 215 28 97.000000 1.000000 4.000000 1.000000 -60.708740 114.000000 159.000000 0.236912 0.896144 0.375233
-16530.00000000 -9010.00000000 -700.00000000 240 215 28 97.000000 1.000000 4.000000 1.000000 -60.708740 114.000000 159.000000 -0.475096 0.837222 0.270820
-16590.00000000 -9000.00000000 -740.00000000 240 215 28 97.000000 1.000000 4.000000 1.000000 -60.708740 114.000000 159.000000 0.758017 -0.619073 -0.205328
-16560.00000000 -8980.00000000 -740.00000000 240 215 28 97.000000 1.000000 4.000000 1.000000 -60.708740 114.000000 159.000000 0.052830 0.672515 0.738196
-16530.00000000 -8970.00000000 -800.00000000 240 215 28 97.000000 1.000000 4.000000 1.000000 -60.708740 114.000000 159.000000 0.607872 0.664495 0.434670
-16520.00000000 -8980.00000000 -790.00000000 240 215 28 97.000000 1.000000 4.000000 1.000000 -60.708740 114.000000 159.000000 0.449499 0.834785 0.317939
-16520.00000000 -8980.00000000 -790.00000000 240 215 28 97.000000 1.000000 4.000000 1.000000 -60.708740 114.000000 159.000000 0.449499 0.834785 0.317939
-16520.00000000 -8980.00000000 -780.00000000 240 215 28 97.000000 1.000000 4.000000 1.000000 -60.708740 114.000000 159.000000 0.196340 0.974198 -0.111301
-16520.00000000 -8970.00000000 -800.00000000 240 215 28 97.000000 1.000000 4.000000 1.000000 -60.708740 114.000000 159.000000 0.625227 0.700320 0.344446
-16550.00000000 -8970.00000000 -860.00000000 240 215 28 97.000000 1.000000 4.000000 1.000000 -60.708740 114.000000 159.000000 0.667179 0.719567 -0.192604
-16550.00000000 -9120.00000000 -700.00000000 240 215 28 97.000000 1.000000 4.000000 1.000000 -60.708740 114.000000 159.000000 0.570316 0.806826 0.154180
-16550.00000000 -9120.00000000 -720.00000000 240 215 28 97.000000 1.000000 4.000000 1.000000 -60.708740 114.000000 159.000000 0.665817 0.746103 0.004153
-16550.00000000 -9120.00000000 -730.00000000 240 215 28 97.000000 1.000000 4.000000 1.000000 -60.708740 114.000000 159.000000 0.795311 0.589395 -0.141753
-16550.00000000 -9110.00000000 -730.00000000 240 215 28 97.000000 1.000000 4.000000 1.000000 -60.708740 114.000000 159.000000 0.892719 0.448391 0.044704
-16530.00000000 -9120.00000000 -720.00000000 240 215 28 97.000000 1.000000 4.000000 1.000000 -60.708740 114.000000 159.000000 0.480707 0.876583 0.022891
-16540.00000000 -9120.00000000 -710.00000000 240 215 28 97.000000 1.000000 4.000000 1.000000 -60.708740 114.000000 159.000000 0.650966 0.756837 0.058658
-16550.00000000 -9120.00000000 -730.00000000 240 215 28 97.000000 1.000000 4.000000 1.000000 -60.708740 114.000000 159.000000 0.795311 0.589395 -0.141753
-16540.00000000 -9120.00000000 -730.00000000 240 215 28 97.000000 1.000000 4.000000 1.000000 -60.708740 114.000000 159.000000 0.547052 0.818318 -0.176323
-16550.00000000 -9120.00000000 -710.00000000 240 215 28 97.000000 1.000000 4.000000 1.000000 -60.708740 114.000000 159.000000 0.601785 0.778512 0.178250
-16550.00000000 -9110.00000000 -750.00000000 240 215 28 97.000000 1.000000 4.000000 1.000000 -60.708740 114.000000 159.000000 0.742101 0.618681 0.257916
-16540.00000000 -9110.00000000 -760.00000000 240 215 28 97.000000 1.000000 4.000000 1.000000 -60.708740 114.000000 159.000000 0.611468 0.763173 0.208983
-16550.00000000 -9120.00000000 -750.00000000 240 215 28 97.000000 1.000000 4.000000 1.000000 -60.708740 114.000000 159.000000 0.464609 0.739075 0.487757
-16530.00000000 -9120.00000000 -750.00000000 240 215 28 97.000000 1.000000 4.000000 1.000000 -60.708740 114.000000 159.000000 0.487745 0.808671 0.328870
-16540.00000000 -9120.00000000 -750.00000000 240 215 28 97.000000 1.000000 4.000000 1.000000 -60.708740 114.000000 159.000000 0.301755 0.807313 0.507138
-16550.00000000 -9120.00000000 -750.00000000 240 215 28 97.000000 1.000000 4.000000 1.000000 -60.708740 114.000000 159.000000 0.464609 0.739075 0.487757
-16530.00000000 -9120.00000000 -750.00000000 240 215 28 97.000000 1.000000 4.000000 1.000000 -60.708740 114.000000 159.000000 0.487745 0.808671 0.328870
-16550.00000000 -9110.00000000 -760.00000000 240 215 28 97.000000 1.000000 4.000000 1.000000 -60.708740 114.000000 159.000000 0.663984 0.722525 0.192571
-16550.00000000 -9120.00000000 -750.00000000 240 215 28 97.000000 1.000000 4.000000 1.000000 -60.708740 114.000000 159.000000 0.464609 0.739075 0.487757
-16560.00000000 -9060.00000000 -720.00000000 240 215 28 97.000000 1.000000 4.000000 1.000000 -60.708740 114.000000 159.000000 0.984006 0.038520 -0.173923
-16590.00000000 -9080.00000000 -750.00000000 240 215 28 97.000000 1.000000 4.000000 1.000000 -60.708740 114.000000 159.000000 0.788791 0.611277 0.064420
-16590.00000000 -9060.00000000 -760.00000000 240 215 28 97.000000 1.000000 4.000000 1.000000 -60.708740 114.000000 159.000000 0.813519 0.311191 -0.491271
-16570.00000000 -9120.00000000 -700.00000000 240 215 28 97.000000 1.000000 4.000000 1.000000 -60.708740 114.000000 159.000000 0.693740 0.714274 -0.092401
-16560.00000000 -9100.00000000 -730.00000000 240 215 28 97.000000 1.000000 4.000000 1.000000 -60.708740 114.000000 159.000000 0.929976 0.351626 0.107253
-16570.00000000 -9090.00000000 -760.00000000 240 215 28 97.000000 1.000000 4.000000 1.000000 -60.708740 114.000000 159.000000 0.648440 0.745176 0.155686
-16560.00000000 -9110.00000000 -740.00000000 240 215 28 97.000000 1.000000 4.000000 1.000000 -60.708740 114.000000 159.000000 0.866391 0.484202 -0.122128
-16570.00000000 -9100.00000000 -750.00000000 240 215 28 97.000000 1.000000 4.000000 1.000000 -60.708740 114.000000 159.000000 0.695097 0.707055 -0.130050
-16560.00000000 -9110.00000000 -740.00000000 240 215 28 97.000000 1.000000 4.000000 1.000000 -60.708740 114.000000 159.000000 0.866391 0.484202 -0.122128
-16550.00000000 -9080.00000000 -800.00000000 240 215 28 97.000000 1.000000 4.000000 1.000000 -60.708740 114.000000 159.000000 0.624938 0.770411 0.126175
-16530.00000000 -9120.00000000 -800.00000000 240 215 28 97.000000 1.000000 4.000000 1.000000 -60.708740 114.000000 159.000000 0.362331 0.850624 0.380992
-16540.00000000 -9110.00000000 -790.00000000 240 215 28 97.000000 1.000000 4.000000 1.000000 -60.708740 114.000000 159.000000 0.497538 0.842337 0.207182
-16540.00000000 -9120.00000000 -800.00000000 240 215 28 97.000000 1.000000 4.000000 1.000000 -60.708740 114.000000 159.000000 0.371498 0.882872 0.287272
-16560.00000000 -9070.00000000 -800.00000000 240 215 28 97.000000 1.000000 4.000000 1.000000 -60.708740 114.000000 159.000000 0.365704 0.870651 0.328980
-16590.00000000 -9060.00000000 -820.00000000 240 215 28 97.000000 1.000000 4.000000 1.000000 -60.708740 114.000000 159.000000 0.595198 0.803309 0.020811
-16580.00000000 -9060.00000000 -810.00000000 240 215 28 97.000000 1.000000 4.000000 1.000000 -60.708740 114.000000 159.000000 0.642011 0.753273 0.142836
-16580.00000000 -9070.00000000 -800.00000000 240 215 28 97.000000 1.000000 4.000000 1.000000 -60.708740 114.000000 159.000000 0.741883 0.647044 -0.175910
-16580.00000000 -9080.00000000 -800.00000000 240 215 28 97.000000 1.000000 4.000000 1.000000 -60.708740 114.000000 159.000000 0.729866 0.631706 -0.261232
-16590.00000000 -9080.00000000 -810.00000000 240 215 28 97.000000 1.000000 4.000000 1.000000 -60.708740 114.000000 159.000000 0.669254 0.672495 -0.315991
-16580.00000000 -9080.00000000 -790.00000000 240 215 28 97.000000 1.000000 4.000000 1.000000 -60.708740 114.000000 159.000000 0.502039 0.838754 -0.210826
-16590.00000000 -9070.00000000 -860.00000000 240 215 28 97.000000 1.000000 4.000000 1.000000 -60.708740 114.000000 159.000000 0.404015 0.898609 0.171095
-16580.00000000 -9060.00000000 -860.00000000 240 215 28 97.000000 1.000000 4.000000 1.000000 -60.708740 114.000000 159.000000 0.051373 0.853901 0.517894
-16590.00000000 -9070.00000000 -830.00000000 240 215 28 97.000000 1.000000 4.000000 1.000000 -60.708740 114.000000 159.000000 0.504570 0.800628 0.323116
-16580.00000000 -9070.00000000 -840.00000000 240 215 28 97.000000 1.000000 4.000000 1.000000 -60.708740 114.000000 159.000000 0.649613 0.756676 0.073787
-16560.00000000 -9080.00000000 -840.00000000 240 215 28 97.000000 1.000000 4.000000 1.000000 -60.708740 114.000000 159.000000 0.501801 0.771377 0.391373
-16570.00000000 -9070.00000000 -860.00000000 240 215 28 97.000000 1.000000 4.000000 1.000000 -60.708740 114.000000 159.000000 -0.170464 0.849357 0.499535
-16560.00000000 -9090.00000000 -810.00000000 240 215 28 97.000000 1.000000 4.000000 1.000000 -60.708740 114.000000 159.000000 0.290080 0.949714 -0.117886
-16560.00000000 -9110.00000000 -780.00000000 240 215 28 97.000000 1.000000 4.000000 1.000000 -60.708740 114.000000 159.000000 0.589196 0.791119 -0.164251
-16570.00000000 -9090.00000000 -790.00000000 240 215 28 97.000000 1.000000 4.000000 1.000000 -60.708740 114.000000 159.000000 0.739828 0.658792 0.136560
-16570.00000000 -9090.00000000 -860.00000000 240 215 28 97.000000 1.000000 4.000000 1.000000 -60.708740 114.000000 159.000000 0.339278 0.773425 0.535448
