//X Y Z R G B PointSourceId ScanDirectionFlag NumberOfReturns ReturnNumber GpsTime Intensity Classification Nx Ny Nz
10610.00000000 940.00000000 -150.00000000 38 213 130 97.000000 1.000000 4.000000 1.000000 -60.708740 114.000000 129.000000 0.660278 -0.123709 0.740763
10630.00000000 920.00000000 -130.00000000 38 213 130 97.000000 1.000000 4.000000 1.000000 -60.708740 114.000000 129.000000 0.326797 0.199474 0.923804
10680.00000000 890.00000000 -150.00000000 38 213 130 97.000000 1.000000 4.000000 1.000000 -60.708740 114.000000 129.000000 0.557248 0.034741 0.829619
10680.00000000 870.00000000 -150.00000000 38 213 130 97.000000 1.000000 4.000000 1.000000 -60.708740 114.000000 129.000000 0.466610 0.061939 0.882292
10680.00000000 890.00000000 -150.00000000 38 213 130 97.000000 1.000000 4.000000 1.000000 -60.708740 114.000000 129.000000 0.557248 0.034741 0.829619
10760.00000000 910.00000000 -190.00000000 38 213 130 97.000000 1.000000 4.000000 1.000000 -60.708740 114.000000 129.000000 0.317046 0.099491 0.943177
10700.00000000 940.00000000 -200.00000000 38 213 130 97.000000 1.000000 4.000000 1.000000 -60.708740 114.000000 129.000000 0.544571 -0.279389 0.790812
10710.00000000 940.00000000 -200.00000000 38 213 130 97.000000 1.000000 4.000000 1.000000 -60.708740 114.000000 129.000000 0.224681 -0.121970 0.966769
10700.00000000 900.00000000 -190.00000000 38 213 130 97.000000 1.000000 4.000000 1.000000 -60.708740 114.000000 129.000000 0.537962 0.069187 0.840125
10710.00000000 910.00000000 -190.00000000 38 213 130 97.000000 1.000000 4.000000 1.000000 -60.708740 114.000000 129.000000 0.807378 0.163881 0.566819
10710.00000000 930.00000000 -190.00000000 38 213 130 97.000000 1.000000 4.000000 1.000000 -60.708740 114.000000 129.000000 0.720176 0.055839 0.691541
10710.00000000 920.00000000 -200.00000000 38 213 130 97.000000 1.000000 4.000000 1.000000 -60.708740 114.000000 129.000000 0.755092 0.264361 0.599958
10740.00000000 880.00000000 -200.00000000 38 213 130 97.000000 1.000000 4.000000 1.000000 -60.708740 114.000000 129.000000 0.692196 0.276559 0.666618
10750.00000000 810.00000000 -240.00000000 38 213 130 97.000000 1.000000 4.000000 1.000000 -60.708740 114.000000 129.000000 0.450923 0.278557 0.847982
10670.00000000 970.00000000 -200.00000000 38 213 130 97.000000 1.000000 4.000000 1.000000 -60.708740 114.000000 129.000000 0.770149 0.152221 0.619435
10680.00000000 930.00000000 -260.00000000 38 213 130 97.000000 1.000000 4.000000 1.000000 -60.708740 114.000000 129.000000 0.537641 -0.118019 0.834873
10620.00000000 940.00000000 -200.00000000 38 213 130 97.000000 1.000000 4.000000 1.000000 -60.708740 114.000000 129.000000 0.746288 -0.052797 0.663526
10640.00000000 960.00000000 -250.00000000 38 213 130 97.000000 1.000000 4.000000 1.000000 -60.708740 114.000000 129.000000 0.337541 0.056040 0.939641
10640.00000000 950.00000000 -250.00000000 38 213 130 97.000000 1.000000 4.000000 1.000000 -60.708740 114.000000 129.000000 0.572758 0.204227 0.793876
10640.00000000 950.00000000 -250.00000000 38 213 130 97.000000 1.000000 4.000000 1.000000 -60.708740 114.000000 129.000000 0.572758 0.204227 0.793876
10620.00000000 890.00000000 -230.00000000 38 213 130 97.000000 1.000000 4.000000 1.000000 -60.708740 114.000000 129.000000 0.464317 0.155743 0.871868
10770.00000000 790.00000000 -80.00000000 38 213 130 97.000000 1.000000 4.000000 1.000000 -60.708740 114.000000 129.000000 0.876349 0.407359 0.257042
10760.00000000 750.00000000 -60.00000000 38 213 130 97.000000 1.000000 4.000000 1.000000 -60.708740 114.000000 129.000000 0.783221 0.452420 0.426475
10770.00000000 790.00000000 -140.00000000 38 213 130 97.000000 1.000000 4.000000 1.000000 -60.708740 114.000000 129.000000 0.702241 0.538774 0.465381
10760.00000000 790.00000000 -250.00000000 38 213 130 97.000000 1.000000 4.000000 1.000000 -60.708740 114.000000 129.000000 0.525232 -0.218974 0.822302
10760.00000000 770.00000000 -240.00000000 38 213 130 97.000000 1.000000 4.000000 1.000000 -60.708740 114.000000 129.000000 0.432384 0.239544 0.869289
10740.00000000 750.00000000 -300.00000000 38 213 130 97.000000 1.000000 4.000000 1.000000 -60.708740 114.000000 129.000000 0.873667 0.048004 0.484151
10750.00000000 750.00000000 -300.00000000 38 213 130 97.000000 1.000000 4.000000 1.000000 -60.708740 114.000000 129.000000 0.731869 0.282224 0.620255
10760.00000000 660.00000000 -270.00000000 38 213 130 97.000000 1.000000 4.000000 1.000000 -60.708740 114.000000 129.000000 0.877353 0.437939 0.196114
10770.00000000 690.00000000 -300.00000000 38 213 130 97.000000 1.000000 4.000000 1.000000 -60.708740 114.000000 129.000000 0.671844 0.193059 0.715090
10740.00000000 710.00000000 -290.00000000 38 213 130 97.000000 1.000000 4.000000 1.000000 -60.708740 114.000000 129.000000 0.598247 0.138746 0.789209
10740.00000000 690.00000000 -280.00000000 38 213 130 97.000000 1.000000 4.000000 1.000000 -60.708740 114.000000 129.000000 0.797012 0.367235 0.479490
10770.00000000 650.00000000 -290.00000000 38 213 130 97.000000 1.000000 4.000000 1.000000 -60.708740 114.000000 129.000000 0.837551 0.464616 0.287471
10740.00000000 670.00000000 -350.00000000 38 213 130 97.000000 1.000000 4.000000 1.000000 -60.708740 114.000000 129.000000 0.751589 0.553546 0.358750
10770.00000000 660.00000000 -330.00000000 38 213 130 97.000000 1.000000 4.000000 1.000000 -60.708740 114.000000 129.000000 0.943391 0.124801 0.307307
10750.00000000 660.00000000 -350.00000000 38 213 130 97.000000 1.000000 4.000000 1.000000 -60.708740 114.000000 129.000000 0.892758 0.324503 0.312540
10700.00000000 650.00000000 -320.00000000 38 213 130 97.000000 1.000000 4.000000 1.000000 -60.708740 114.000000 129.000000 0.387088 0.527550 0.756210
10720.00000000 680.00000000 -330.00000000 38 213 130 97.000000 1.000000 4.000000 1.000000 -60.708740 114.000000 129.000000 0.524101 0.117596 0.843498
10680.00000000 670.00000000 -300.00000000 38 213 130 97.000000 1.000000 4.000000 1.000000 -60.708740 114.000000 129.000000 0.769348 -0.088715 0.632640
10580.00000000 960.00000000 -140.00000000 38 213 130 97.000000 1.000000 4.000000 1.000000 -60.708740 114.000000 129.000000 0.602764 0.191719 0.774544
10580.00000000 970.00000000 -140.00000000 38 213 130 97.000000 1.000000 4.000000 1.000000 -60.708740 114.000000 129.000000 0.466237 0.348485 0.813131
10570.00000000 960.00000000 -130.00000000 38 213 130 97.000000 1.000000 4.000000 1.000000 -60.708740 114.000000 129.000000 0.568932 -0.323953 0.755890
10590.00000000 970.00000000 -150.00000000 38 213 130 97.000000 1.000000 4.000000 1.000000 -60.708740 114.000000 129.000000 0.410845 0.041217 0.910773
10600.00000000 940.00000000 -180.00000000 38 213 130 97.000000 1.000000 4.000000 1.000000 -60.708740 114.000000 129.000000 0.559540 0.210019 0.801752
10550.00000000 960.00000000 -120.00000000 38 213 130 97.000000 1.000000 4.000000 1.000000 -60.708740 114.000000 129.000000 0.607312 0.346803 0.714772
10530.00000000 970.00000000 -120.00000000 38 213 130 97.000000 1.000000 4.000000 1.000000 -60.708740 114.000000 129.000000 0.508302 -0.154701 0.847170
10560.00000000 970.00000000 -120.00000000 38 213 130 97.000000 1.000000 4.000000 1.000000 -60.708740 114.000000 129.000000 0.378210 -0.019362 0.925517
10580.00000000 970.00000000 -230.00000000 38 213 130 97.000000 1.000000 4.000000 1.000000 -60.708740 114.000000 129.000000 0.598468 -0.285669 0.748484
10530.00000000 940.00000000 -210.00000000 38 213 130 97.000000 1.000000 4.000000 1.000000 -60.708740 114.000000 129.000000 0.703169 0.275846 0.655334
10560.00000000 930.00000000 -230.00000000 38 213 130 97.000000 1.000000 4.000000 1.000000 -60.708740 114.000000 129.000000 0.667261 0.169487 0.725284
10600.00000000 890.00000000 -210.00000000 38 213 130 97.000000 1.000000 4.000000 1.000000 -60.708740 114.000000 129.000000 0.588375 -0.106579 0.801533
10600.00000000 880.00000000 -220.00000000 38 213 130 97.000000 1.000000 4.000000 1.000000 -60.708740 114.000000 129.000000 0.514584 0.248793 0.820552
10520.00000000 940.00000000 -200.00000000 38 213 130 97.000000 1.000000 4.000000 1.000000 -60.708740 114.000000 129.000000 0.747731 0.282193 0.601054
10510.00000000 960.00000000 -200.00000000 38 213 130 97.000000 1.000000 4.000000 1.000000 -60.708740 114.000000 129.000000 0.604782 -0.035080 0.795618
10520.00000000 940.00000000 -200.00000000 38 213 130 97.000000 1.000000 4.000000 1.000000 -60.708740 114.000000 129.000000 0.747731 0.282193 0.601054
10490.00000000 970.00000000 -210.00000000 38 213 130 97.000000 1.000000 4.000000 1.000000 -60.708740 114.000000 129.000000 0.846797 0.028821 0.531135
10520.00000000 960.00000000 -210.00000000 38 213 130 97.000000 1.000000 4.000000 1.000000 -60.708740 114.000000 129.000000 0.571345 -0.087788 0.816001
10750.00000000 760.00000000 -370.00000000 38 213 130 97.000000 1.000000 4.000000 1.000000 -60.708740 114.000000 129.000000 0.482629 0.159898 0.861105
10760.00000000 750.00000000 -390.00000000 38 213 130 97.000000 1.000000 4.000000 1.000000 -60.708740 114.000000 129.000000 0.560391 0.037545 0.827377
10750.00000000 750.00000000 -370.00000000 38 213 130 97.000000 1.000000 4.000000 1.000000 -60.708740 114.000000 129.000000 0.573823 0.460062 0.677547
10770.00000000 640.00000000 -380.00000000 38 213 130 97.000000 1.000000 4.000000 1.000000 -60.708740 114.000000 129.000000 0.857399 0.185745 0.479965
10770.00000000 600.00000000 -180.00000000 38 213 130 97.000000 1.000000 4.000000 1.000000 -60.708740 114.000000 129.000000 0.731074 0.622767 0.278732
10760.00000000 580.00000000 -170.00000000 38 213 130 97.000000 1.000000 4.000000 1.000000 -60.708740 114.000000 129.000000 0.578218 0.810085 0.097094
10760.00000000 590.00000000 -220.00000000 38 213 130 97.000000 1.000000 4.000000 1.000000 -60.708740 114.000000 129.000000 0.520859 0.554571 0.648966
10770.00000000 590.00000000 -220.00000000 38 213 130 97.000000 1.000000 4.000000 1.000000 -60.708740 114.000000 129.000000 0.698024 0.653094 0.293651
10760.00000000 580.00000000 -220.00000000 38 213 130 97.000000 1.000000 4.000000 1.000000 -60.708740 114.000000 129.000000 0.598935 0.507830 0.619181
10750.00000000 560.00000000 -260.00000000 38 213 130 97.000000 1.000000 4.000000 1.000000 -60.708740 114.000000 129.000000 0.692377 0.646975 0.319434
10750.00000000 560.00000000 -240.00000000 38 213 130 97.000000 1.000000 4.000000 1.000000 -60.708740 114.000000 129.000000 0.613378 0.751427 0.243155
10770.00000000 560.00000000 -330.00000000 38 213 130 97.000000 1.000000 4.000000 1.000000 -60.708740 114.000000 129.000000 0.871868 0.316071 0.374094
10730.00000000 620.00000000 -310.00000000 38 213 130 97.000000 1.000000 4.000000 1.000000 -60.708740 114.000000 129.000000 0.644046 0.139618 0.752138
10730.00000000 630.00000000 -310.00000000 38 213 130 97.000000 1.000000 4.000000 1.000000 -60.708740 114.000000 129.000000 0.639159 -0.032309 0.768396
10720.00000000 630.00000000 -310.00000000 38 213 130 97.000000 1.000000 4.000000 1.000000 -60.708740 114.000000 129.000000 0.604520 0.282322 0.744883
10660.00000000 630.00000000 -290.00000000 38 213 130 97.000000 1.000000 4.000000 1.000000 -60.708740 114.000000 129.000000 0.470929 0.571483 0.672037
10660.00000000 630.00000000 -290.00000000 38 213 130 97.000000 1.000000 4.000000 1.000000 -60.708740 114.000000 129.000000 0.470929 0.571483 0.672037
10760.00000000 630.00000000 -360.00000000 38 213 130 97.000000 1.000000 4.000000 1.000000 -60.708740 114.000000 129.000000 0.754618 0.158787 0.636662
10400.00000000 1070.00000000 -80.00000000 38 213 130 97.000000 1.000000 4.000000 1.000000 -60.708740 114.000000 129.000000 0.533355 0.054595 0.844128
10360.00000000 1120.00000000 -20.00000000 38 213 130 97.000000 1.000000 4.000000 1.000000 -60.708740 114.000000 129.000000 0.601092 -0.097514 0.793208
10390.00000000 1090.00000000 -100.00000000 38 213 130 97.000000 1.000000 4.000000 1.000000 -60.708740 114.000000 129.000000 0.797545 0.164334 0.580444
10370.00000000 1100.00000000 -80.00000000 38 213 130 97.000000 1.000000 4.000000 1.000000 -60.708740 114.000000 129.000000 0.485959 0.203110 0.850053
10360.00000000 1100.00000000 -110.00000000 38 213 130 97.000000 1.000000 4.000000 1.000000 -60.708740 114.000000 129.000000 0.711203 0.133257 0.690241
10360.00000000 1090.00000000 -110.00000000 38 213 130 97.000000 1.000000 4.000000 1.000000 -60.708740 114.000000 129.000000 0.584574 -0.034879 0.810590
10390.00000000 1100.00000000 -140.00000000 38 213 130 97.000000 1.000000 4.000000 1.000000 -60.708740 114.000000 129.000000 0.798920 -0.295838 0.523648
11110.00000000 280.00000000 -580.00000000 38 213 130 97.000000 1.000000 4.000000 1.000000 -60.708740 114.000000 129.000000 0.867797 0.104022 0.485909
11130.00000000 600.00000000 80.00000000 38 213 130 97.000000 1.000000 4.000000 1.000000 -60.708740 114.000000 129.000000 -0.270230 0.877116 -0.397042
11140.00000000 610.00000000 80.00000000 38 213 130 97.000000 1.000000 4.000000 1.000000 -60.708740 114.000000 129.000000 -0.266091 -0.571544 0.776230
11130.00000000 600.00000000 80.00000000 38 213 130 97.000000 1.000000 4.000000 1.000000 -60.708740 114.000000 129.000000 -0.270230 0.877116 -0.397042
11120.00000000 580.00000000 50.00000000 38 213 130 97.000000 1.000000 4.000000 1.000000 -60.708740 114.000000 129.000000 0.531778 0.739220 -0.413239
11130.00000000 520.00000000 70.00000000 38 213 130 97.000000 1.000000 4.000000 1.000000 -60.708740 114.000000 129.000000 0.159171 -0.868871 0.468752
11130.00000000 540.00000000 0.00000000 38 213 130 97.000000 1.000000 4.000000 1.000000 -60.708740 114.000000 129.000000 0.363489 0.866545 -0.342017
11140.00000000 510.00000000 20.00000000 38 213 130 97.000000 1.000000 4.000000 1.000000 -60.708740 114.000000 129.000000 -0.051618 0.922511 -0.382504
11240.00000000 390.00000000 50.00000000 38 213 130 97.000000 1.000000 4.000000 1.000000 -60.708740 114.000000 129.000000 0.383119 0.580433 -0.718553
11220.00000000 430.00000000 60.00000000 38 213 130 97.000000 1.000000 4.000000 1.000000 -60.708740 114.000000 129.000000 0.294555 -0.765843 0.571596
11230.00000000 390.00000000 60.00000000 38 213 130 97.000000 1.000000 4.000000 1.000000 -60.708740 114.000000 129.000000 0.243934 0.859072 -0.449990
11230.00000000 390.00000000 50.00000000 38 213 130 97.000000 1.000000 4.000000 1.000000 -60.708740 114.000000 129.000000 0.328521 0.783643 -0.527236
11260.00000000 370.00000000 40.00000000 38 213 130 97.000000 1.000000 4.000000 1.000000 -60.708740 114.000000 129.000000 -0.196163 0.816586 -0.542870
11250.00000000 350.00000000 0.00000000 38 213 130 97.000000 1.000000 4.000000 1.000000 -60.708740 114.000000 129.000000 0.204508 0.965228 -0.162825
11230.00000000 380.00000000 50.00000000 38 213 130 97.000000 1.000000 4.000000 1.000000 -60.708740 114.000000 129.000000 -0.100265 -0.582699 0.806479
11200.00000000 360.00000000 30.00000000 38 213 130 97.000000 1.000000 4.000000 1.000000 -60.708740 114.000000 129.000000 0.022714 0.888514 -0.458286
11210.00000000 350.00000000 20.00000000 38 213 130 97.000000 1.000000 4.000000 1.000000 -60.708740 114.000000 129.000000 -0.145179 0.852010 -0.502994
11160.00000000 470.00000000 60.00000000 38 213 130 97.000000 1.000000 4.000000 1.000000 -60.708740 114.000000 129.000000 0.195122 0.970509 -0.141559
11170.00000000 450.00000000 -10.00000000 38 213 130 97.000000 1.000000 4.000000 1.000000 -60.708740 114.000000 129.000000 0.242021 0.776029 -0.582412
11180.00000000 450.00000000 -10.00000000 38 213 130 97.000000 1.000000 4.000000 1.000000 -60.708740 114.000000 129.000000 -0.093350 0.926737 -0.363930
11160.00000000 470.00000000 -10.00000000 38 213 130 97.000000 1.000000 4.000000 1.000000 -60.708740 114.000000 129.000000 0.449569 0.892387 -0.039152
11180.00000000 410.00000000 -10.00000000 38 213 130 97.000000 1.000000 4.000000 1.000000 -60.708740 114.000000 129.000000 0.295830 0.743572 -0.599655
11130.00000000 470.00000000 -10.00000000 38 213 130 97.000000 1.000000 4.000000 1.000000 -60.708740 114.000000 129.000000 0.394793 0.838346 -0.375919
11190.00000000 360.00000000 40.00000000 38 213 130 97.000000 1.000000 4.000000 1.000000 -60.708740 114.000000 129.000000 0.014927 0.850864 -0.525174
11190.00000000 330.00000000 10.00000000 38 213 130 97.000000 1.000000 4.000000 1.000000 -60.708740 114.000000 129.000000 0.541524 0.817595 -0.195677
11130.00000000 240.00000000 80.00000000 38 213 130 97.000000 1.000000 4.000000 1.000000 -60.708740 114.000000 129.000000 0.603913 0.634192 -0.482794
11190.00000000 240.00000000 50.00000000 38 213 130 97.000000 1.000000 4.000000 1.000000 -60.708740 114.000000 129.000000 0.064996 0.880908 -0.468803
11160.00000000 210.00000000 60.00000000 38 213 130 97.000000 1.000000 4.000000 1.000000 -60.708740 114.000000 129.000000 0.328184 0.745285 -0.580384
10560.00000000 1020.00000000 660.00000000 38 213 130 97.000000 1.000000 4.000000 1.000000 -60.708740 114.000000 129.000000 0.350619 -0.764253 0.541279
10540.00000000 1010.00000000 720.00000000 38 213 130 97.000000 1.000000 4.000000 1.000000 -60.708740 114.000000 129.000000 -0.146033 0.839322 -0.523654
10870.00000000 1020.00000000 570.00000000 38 213 130 97.000000 1.000000 4.000000 1.000000 -60.708740 114.000000 129.000000 0.390898 -0.461678 0.796274
10820.00000000 990.00000000 610.00000000 38 213 130 97.000000 1.000000 4.000000 1.000000 -60.708740 114.000000 129.000000 0.446574 -0.161465 0.880057
10780.00000000 1010.00000000 560.00000000 38 213 130 97.000000 1.000000 4.000000 1.000000 -60.708740 114.000000 129.000000 -0.233708 0.713672 -0.660343
10710.00000000 1170.00000000 570.00000000 38 213 130 97.000000 1.000000 4.000000 1.000000 -60.708740 114.000000 129.000000 0.348898 0.221499 0.910609
10750.00000000 1070.00000000 600.00000000 38 213 130 97.000000 1.000000 4.000000 1.000000 -60.708740 114.000000 129.000000 0.462776 -0.118186 0.878562
10730.00000000 1070.00000000 620.00000000 38 213 130 97.000000 1.000000 4.000000 1.000000 -60.708740 114.000000 129.000000 0.279809 -0.366594 0.887308
10710.00000000 1120.00000000 560.00000000 38 213 130 97.000000 1.000000 4.000000 1.000000 -60.708740 114.000000 129.000000 0.517387 -0.594911 0.615135
10730.00000000 1080.00000000 560.00000000 38 213 130 97.000000 1.000000 4.000000 1.000000 -60.708740 114.000000 129.000000 0.385780 0.011612 0.922518
10760.00000000 1030.00000000 540.00000000 38 213 130 97.000000 1.000000 4.000000 1.000000 -60.708740 114.000000 129.000000 0.173835 -0.578947 0.796619
10770.00000000 990.00000000 550.00000000 38 213 130 97.000000 1.000000 4.000000 1.000000 -60.708740 114.000000 129.000000 0.449318 -0.226913 0.864074
10760.00000000 980.00000000 550.00000000 38 213 130 97.000000 1.000000 4.000000 1.000000 -60.708740 114.000000 129.000000 0.269875 -0.190420 0.943879
10690.00000000 1030.00000000 550.00000000 38 213 130 97.000000 1.000000 4.000000 1.000000 -60.708740 114.000000 129.000000 0.175475 -0.191073 0.965764
10650.00000000 990.00000000 430.00000000 38 213 130 97.000000 1.000000 4.000000 1.000000 -60.708740 114.000000 129.000000 -0.212406 0.877846 -0.429268
10610.00000000 990.00000000 370.00000000 38 213 130 97.000000 1.000000 4.000000 1.000000 -60.708740 114.000000 129.000000 0.073716 0.968306 -0.238641
10540.00000000 1080.00000000 500.00000000 38 213 130 97.000000 1.000000 4.000000 1.000000 -60.708740 114.000000 129.000000 -0.029611 -0.728997 0.683876
10560.00000000 1020.00000000 650.00000000 38 213 130 97.000000 1.000000 4.000000 1.000000 -60.708740 114.000000 129.000000 -0.031985 -0.568774 0.821872
10540.00000000 1050.00000000 600.00000000 38 213 130 97.000000 1.000000 4.000000 1.000000 -60.708740 114.000000 129.000000 -0.013726 0.949587 -0.313202
10560.00000000 1010.00000000 610.00000000 38 213 130 97.000000 1.000000 4.000000 1.000000 -60.708740 114.000000 129.000000 0.145007 0.885833 -0.440763
10550.00000000 1030.00000000 540.00000000 38 213 130 97.000000 1.000000 4.000000 1.000000 -60.708740 114.000000 129.000000 -0.085844 -0.752227 0.653288
10560.00000000 1040.00000000 520.00000000 38 213 130 97.000000 1.000000 4.000000 1.000000 -60.708740 114.000000 129.000000 0.460395 0.776002 -0.431112
10540.00000000 1040.00000000 510.00000000 38 213 130 97.000000 1.000000 4.000000 1.000000 -60.708740 114.000000 129.000000 0.405897 0.832325 -0.377468
10540.00000000 990.00000000 540.00000000 38 213 130 97.000000 1.000000 4.000000 1.000000 -60.708740 114.000000 129.000000 0.386393 0.822079 -0.418195
10480.00000000 1100.00000000 540.00000000 38 213 130 97.000000 1.000000 4.000000 1.000000 -60.708740 114.000000 129.000000 -0.073995 -0.712385 0.697877
10510.00000000 1090.00000000 520.00000000 38 213 130 97.000000 1.000000 4.000000 1.000000 -60.708740 114.000000 129.000000 0.609742 0.737772 -0.289667
10510.00000000 1090.00000000 500.00000000 38 213 130 97.000000 1.000000 4.000000 1.000000 -60.708740 114.000000 129.000000 0.058676 0.754198 -0.654020
10460.00000000 1100.00000000 550.00000000 38 213 130 97.000000 1.000000 4.000000 1.000000 -60.708740 114.000000 129.000000 0.233402 0.843605 -0.483585
10460.00000000 1100.00000000 540.00000000 38 213 130 97.000000 1.000000 4.000000 1.000000 -60.708740 114.000000 129.000000 0.028441 0.960808 -0.275753
10510.00000000 1040.00000000 570.00000000 38 213 130 97.000000 1.000000 4.000000 1.000000 -60.708740 114.000000 129.000000 0.522379 0.779550 -0.345574
10500.00000000 1060.00000000 540.00000000 38 213 130 97.000000 1.000000 4.000000 1.000000 -60.708740 114.000000 129.000000 0.049981 0.901007 -0.430916
10520.00000000 1040.00000000 490.00000000 38 213 130 97.000000 1.000000 4.000000 1.000000 -60.708740 114.000000 129.000000 0.274673 0.949966 -0.148725
10530.00000000 1020.00000000 480.00000000 38 213 130 97.000000 1.000000 4.000000 1.000000 -60.708740 114.000000 129.000000 0.470745 0.874240 -0.118759
10550.00000000 1020.00000000 410.00000000 38 213 130 97.000000 1.000000 4.000000 1.000000 -60.708740 114.000000 129.000000 0.248319 0.960772 -0.123509
10560.00000000 1030.00000000 440.00000000 38 213 130 97.000000 1.000000 4.000000 1.000000 -60.708740 114.000000 129.000000 0.694464 0.665727 -0.272996
10550.00000000 1000.00000000 460.00000000 38 213 130 97.000000 1.000000 4.000000 1.000000 -60.708740 114.000000 129.000000 0.530774 0.847328 -0.017738
10560.00000000 1010.00000000 400.00000000 38 213 130 97.000000 1.000000 4.000000 1.000000 -60.708740 114.000000 129.000000 0.532258 0.756880 -0.379254
10540.00000000 1010.00000000 390.00000000 38 213 130 97.000000 1.000000 4.000000 1.000000 -60.708740 114.000000 129.000000 0.463082 0.743238 -0.482858
10560.00000000 1020.00000000 400.00000000 38 213 130 97.000000 1.000000 4.000000 1.000000 -60.708740 114.000000 129.000000 0.539076 0.825786 -0.165755
10560.00000000 990.00000000 360.00000000 38 213 130 97.000000 1.000000 4.000000 1.000000 -60.708740 114.000000 129.000000 0.461643 0.806677 -0.368995
10550.00000000 1000.00000000 370.00000000 38 213 130 97.000000 1.000000 4.000000 1.000000 -60.708740 114.000000 129.000000 0.655001 0.705999 -0.269331
10540.00000000 1020.00000000 370.00000000 38 213 130 97.000000 1.000000 4.000000 1.000000 -60.708740 114.000000 129.000000 0.430623 0.900640 0.058413
10580.00000000 980.00000000 360.00000000 38 213 130 97.000000 1.000000 4.000000 1.000000 -60.708740 114.000000 129.000000 0.645742 0.762118 0.046834
10530.00000000 1020.00000000 370.00000000 38 213 130 97.000000 1.000000 4.000000 1.000000 -60.708740 114.000000 129.000000 0.666723 0.741929 0.070866
10450.00000000 1090.00000000 410.00000000 38 213 130 97.000000 1.000000 4.000000 1.000000 -60.708740 114.000000 129.000000 0.453234 0.866081 0.210911
10490.00000000 1070.00000000 410.00000000 38 213 130 97.000000 1.000000 4.000000 1.000000 -60.708740 114.000000 129.000000 0.405368 0.881039 0.243819
10480.00000000 1080.00000000 370.00000000 38 213 130 97.000000 1.000000 4.000000 1.000000 -60.708740 114.000000 129.000000 0.467889 0.883493 -0.022791
10510.00000000 1070.00000000 390.00000000 38 213 130 97.000000 1.000000 4.000000 1.000000 -60.708740 114.000000 129.000000 0.881261 0.466386 -0.076571
10510.00000000 1070.00000000 400.00000000 38 213 130 97.000000 1.000000 4.000000 1.000000 -60.708740 114.000000 129.000000 0.862318 0.474792 0.176013
10500.00000000 1030.00000000 450.00000000 38 213 130 97.000000 1.000000 4.000000 1.000000 -60.708740 114.000000 129.000000 0.588009 0.706599 -0.393653
10520.00000000 1060.00000000 440.00000000 38 213 130 97.000000 1.000000 4.000000 1.000000 -60.708740 114.000000 129.000000 0.669963 0.741084 0.044095
10510.00000000 1020.00000000 450.00000000 38 213 130 97.000000 1.000000 4.000000 1.000000 -60.708740 114.000000 129.000000 0.245208 0.928389 -0.279225
10510.00000000 1060.00000000 450.00000000 38 213 130 97.000000 1.000000 4.000000 1.000000 -60.708740 114.000000 129.000000 0.117485 0.992469 -0.034686
10520.00000000 1030.00000000 460.00000000 38 213 130 97.000000 1.000000 4.000000 1.000000 -60.708740 114.000000 129.000000 0.513511 0.687469 -0.513511
10480.00000000 1040.00000000 390.00000000 38 213 130 97.000000 1.000000 4.000000 1.000000 -60.708740 114.000000 129.000000 0.609377 0.792607 -0.020822
10520.00000000 1050.00000000 400.00000000 38 213 130 97.000000 1.000000 4.000000 1.000000 -60.708740 114.000000 129.000000 0.769006 0.639228 -0.004142
10500.00000000 1030.00000000 360.00000000 38 213 130 97.000000 1.000000 4.000000 1.000000 -60.708740 114.000000 129.000000 0.566563 0.815441 -0.118583
10520.00000000 1030.00000000 320.00000000 38 213 130 97.000000 1.000000 4.000000 1.000000 -60.708740 114.000000 129.000000 0.466194 0.834160 0.294685
10510.00000000 1050.00000000 320.00000000 38 213 130 97.000000 1.000000 4.000000 1.000000 -60.708740 114.000000 129.000000 0.746388 0.289285 0.599348
10520.00000000 1000.00000000 350.00000000 38 213 130 97.000000 1.000000 4.000000 1.000000 -60.708740 114.000000 129.000000 0.557819 0.671728 0.487463
10490.00000000 1010.00000000 350.00000000 38 213 130 97.000000 1.000000 4.000000 1.000000 -60.708740 114.000000 129.000000 0.663206 0.744474 -0.076914
10520.00000000 980.00000000 320.00000000 38 213 130 97.000000 1.000000 4.000000 1.000000 -60.708740 114.000000 129.000000 0.795706 0.563947 -0.220944
10720.00000000 990.00000000 190.00000000 38 213 130 97.000000 1.000000 4.000000 1.000000 -60.708740 114.000000 129.000000 0.705672 0.644589 0.294164
10660.00000000 980.00000000 180.00000000 38 213 130 97.000000 1.000000 4.000000 1.000000 -60.708740 114.000000 129.000000 0.681465 0.290224 0.671845
10530.00000000 1040.00000000 280.00000000 38 213 130 97.000000 1.000000 4.000000 1.000000 -60.708740 114.000000 129.000000 0.569284 0.798218 0.196884
10540.00000000 1030.00000000 270.00000000 38 213 130 97.000000 1.000000 4.000000 1.000000 -60.708740 114.000000 129.000000 0.797816 0.504806 0.329637
10550.00000000 1010.00000000 270.00000000 38 213 130 97.000000 1.000000 4.000000 1.000000 -60.708740 114.000000 129.000000 0.660710 0.374018 0.650824
10570.00000000 1030.00000000 210.00000000 38 213 130 97.000000 1.000000 4.000000 1.000000 -60.708740 114.000000 129.000000 0.454042 0.621585 0.638340
10580.00000000 1030.00000000 180.00000000 38 213 130 97.000000 1.000000 4.000000 1.000000 -60.708740 114.000000 129.000000 0.608906 0.504329 0.612279
10590.00000000 980.00000000 210.00000000 38 213 130 97.000000 1.000000 4.000000 1.000000 -60.708740 114.000000 129.000000 0.461414 0.534707 0.707945
10530.00000000 1060.00000000 230.00000000 38 213 130 97.000000 1.000000 4.000000 1.000000 -60.708740 114.000000 129.000000 0.873692 0.196618 0.444977
10540.00000000 1040.00000000 160.00000000 38 213 130 97.000000 1.000000 4.000000 1.000000 -60.708740 114.000000 129.000000 0.718553 0.580433 0.383119
10550.00000000 990.00000000 190.00000000 38 213 130 97.000000 1.000000 4.000000 1.000000 -60.708740 114.000000 129.000000 0.448121 0.441603 0.777286
10530.00000000 980.00000000 170.00000000 38 213 130 97.000000 1.000000 4.000000 1.000000 -60.708740 114.000000 129.000000 0.911679 0.348201 0.218167
10550.00000000 990.00000000 180.00000000 38 213 130 97.000000 1.000000 4.000000 1.000000 -60.708740 114.000000 129.000000 0.505380 0.492036 0.708866
10440.00000000 1100.00000000 260.00000000 38 213 130 97.000000 1.000000 4.000000 1.000000 -60.708740 114.000000 129.000000 0.493478 0.358455 0.792458
10450.00000000 1090.00000000 260.00000000 38 213 130 97.000000 1.000000 4.000000 1.000000 -60.708740 114.000000 129.000000 0.590108 0.482510 0.647269
10520.00000000 1020.00000000 310.00000000 38 213 130 97.000000 1.000000 4.000000 1.000000 -60.708740 114.000000 129.000000 0.917836 0.345790 0.194951
10500.00000000 1040.00000000 310.00000000 38 213 130 97.000000 1.000000 4.000000 1.000000 -60.708740 114.000000 129.000000 0.788075 0.248127 0.563357
10500.00000000 1040.00000000 310.00000000 38 213 130 97.000000 1.000000 4.000000 1.000000 -60.708740 114.000000 129.000000 0.788075 0.248127 0.563357
10510.00000000 1020.00000000 270.00000000 38 213 130 97.000000 1.000000 4.000000 1.000000 -60.708740 114.000000 129.000000 0.699173 0.696126 0.162988
10520.00000000 1010.00000000 270.00000000 38 213 130 97.000000 1.000000 4.000000 1.000000 -60.708740 114.000000 129.000000 0.729732 0.607304 0.314123
10510.00000000 1000.00000000 240.00000000 38 213 130 97.000000 1.000000 4.000000 1.000000 -60.708740 114.000000 129.000000 0.866146 0.459072 0.197594
10500.00000000 1010.00000000 260.00000000 38 213 130 97.000000 1.000000 4.000000 1.000000 -60.708740 114.000000 129.000000 0.630771 0.499570 0.593766
10470.00000000 1040.00000000 310.00000000 38 213 130 97.000000 1.000000 4.000000 1.000000 -60.708740 114.000000 129.000000 0.805352 0.590967 -0.046544
10500.00000000 1040.00000000 200.00000000 38 213 130 97.000000 1.000000 4.000000 1.000000 -60.708740 114.000000 129.000000 0.623563 0.251004 0.740382
10480.00000000 1050.00000000 230.00000000 38 213 130 97.000000 1.000000 4.000000 1.000000 -60.708740 114.000000 129.000000 0.758191 0.529919 0.379911
10480.00000000 1020.00000000 190.00000000 38 213 130 97.000000 1.000000 4.000000 1.000000 -60.708740 114.000000 129.000000 0.619808 0.701577 0.351606
10520.00000000 1040.00000000 190.00000000 38 213 130 97.000000 1.000000 4.000000 1.000000 -60.708740 114.000000 129.000000 0.762419 0.447614 0.467289
10520.00000000 980.00000000 180.00000000 38 213 130 97.000000 1.000000 4.000000 1.000000 -60.708740 114.000000 129.000000 0.916130 0.174164 0.361071
10450.00000000 1030.00000000 220.00000000 38 213 130 97.000000 1.000000 4.000000 1.000000 -60.708740 114.000000 129.000000 0.566873 0.560105 0.604101
10450.00000000 1030.00000000 220.00000000 38 213 130 97.000000 1.000000 4.000000 1.000000 -60.708740 114.000000 129.000000 0.566873 0.560105 0.604101
10460.00000000 1020.00000000 220.00000000 38 213 130 97.000000 1.000000 4.000000 1.000000 -60.708740 114.000000 129.000000 0.769192 0.609519 0.191914
10440.00000000 1060.00000000 200.00000000 38 213 130 97.000000 1.000000 4.000000 1.000000 -60.708740 114.000000 129.000000 0.654467 0.421323 0.627822
10440.00000000 1050.00000000 190.00000000 38 213 130 97.000000 1.000000 4.000000 1.000000 -60.708740 114.000000 129.000000 0.934450 0.040177 0.353821
10470.00000000 1030.00000000 180.00000000 38 213 130 97.000000 1.000000 4.000000 1.000000 -60.708740 114.000000 129.000000 0.482412 0.650499 0.586626
10440.00000000 1060.00000000 180.00000000 38 213 130 97.000000 1.000000 4.000000 1.000000 -60.708740 114.000000 129.000000 0.857342 0.441661 0.264385
10530.00000000 990.00000000 120.00000000 38 213 130 97.000000 1.000000 4.000000 1.000000 -60.708740 114.000000 129.000000 0.644508 -0.041079 0.763494
10530.00000000 990.00000000 120.00000000 38 213 130 97.000000 1.000000 4.000000 1.000000 -60.708740 114.000000 129.000000 0.644508 -0.041079 0.763494
10530.00000000 990.00000000 120.00000000 38 213 130 97.000000 1.000000 4.000000 1.000000 -60.708740 114.000000 129.000000 0.644508 -0.041079 0.763494
10580.00000000 990.00000000 60.00000000 38 213 130 97.000000 1.000000 4.000000 1.000000 -60.708740 114.000000 129.000000 0.427607 0.486588 0.761829
10580.00000000 990.00000000 60.00000000 38 213 130 97.000000 1.000000 4.000000 1.000000 -60.708740 114.000000 129.000000 0.427607 0.486588 0.761829
10510.00000000 1100.00000000 140.00000000 38 213 130 97.000000 1.000000 4.000000 1.000000 -60.708740 114.000000 129.000000 0.665374 0.182863 0.723767
10450.00000000 1090.00000000 70.00000000 38 213 130 97.000000 1.000000 4.000000 1.000000 -60.708740 114.000000 129.000000 0.777899 0.132377 0.614287
10520.00000000 1040.00000000 70.00000000 38 213 130 97.000000 1.000000 4.000000 1.000000 -60.708740 114.000000 129.000000 0.739647 0.388684 0.549406
10500.00000000 980.00000000 80.00000000 38 213 130 97.000000 1.000000 4.000000 1.000000 -60.708740 114.000000 129.000000 0.743213 0.359409 0.564322
10470.00000000 1000.00000000 110.00000000 38 213 130 97.000000 1.000000 4.000000 1.000000 -60.708740 114.000000 129.000000 0.643253 0.619862 0.449441
10460.00000000 1010.00000000 80.00000000 38 213 130 97.000000 1.000000 4.000000 1.000000 -60.708740 114.000000 129.000000 0.824556 0.228787 0.517459
10460.00000000 1010.00000000 80.00000000 38 213 130 97.000000 1.000000 4.000000 1.000000 -60.708740 114.000000 129.000000 0.824556 0.228787 0.517459
10440.00000000 990.00000000 70.00000000 38 213 130 97.000000 1.000000 4.000000 1.000000 -60.708740 114.000000 129.000000 0.449533 0.151772 0.880276
10480.00000000 1050.00000000 30.00000000 38 213 130 97.000000 1.000000 4.000000 1.000000 -60.708740 114.000000 129.000000 0.665760 0.101407 0.739243
10450.00000000 1040.00000000 0.00000000 38 213 130 97.000000 1.000000 4.000000 1.000000 -60.708740 114.000000 129.000000 0.698851 0.485359 0.525389
10490.00000000 1010.00000000 40.00000000 38 213 130 97.000000 1.000000 4.000000 1.000000 -60.708740 114.000000 129.000000 0.476351 0.364080 0.800334
11030.00000000 830.00000000 540.00000000 38 213 130 97.000000 1.000000 4.000000 1.000000 -60.708740 114.000000 129.000000 0.639663 -0.468414 0.609442
11020.00000000 880.00000000 550.00000000 38 213 130 97.000000 1.000000 4.000000 1.000000 -60.708740 114.000000 129.000000 0.366788 0.003807 0.930297
11000.00000000 880.00000000 530.00000000 38 213 130 97.000000 1.000000 4.000000 1.000000 -60.708740 114.000000 129.000000 0.717307 -0.265610 0.644145
11010.00000000 870.00000000 550.00000000 38 213 130 97.000000 1.000000 4.000000 1.000000 -60.708740 114.000000 129.000000 -0.392180 0.637086 -0.663563
11020.00000000 830.00000000 540.00000000 38 213 130 97.000000 1.000000 4.000000 1.000000 -60.708740 114.000000 129.000000 0.014787 -0.493332 0.869716
11000.00000000 840.00000000 530.00000000 38 213 130 97.000000 1.000000 4.000000 1.000000 -60.708740 114.000000 129.000000 0.433019 0.006541 0.901361
11020.00000000 840.00000000 550.00000000 38 213 130 97.000000 1.000000 4.000000 1.000000 -60.708740 114.000000 129.000000 0.463600 -0.427813 0.775920
11010.00000000 840.00000000 520.00000000 38 213 130 97.000000 1.000000 4.000000 1.000000 -60.708740 114.000000 129.000000 0.586722 -0.535997 0.607012
10990.00000000 820.00000000 510.00000000 38 213 130 97.000000 1.000000 4.000000 1.000000 -60.708740 114.000000 129.000000 -0.287230 0.662715 -0.691598
10960.00000000 870.00000000 550.00000000 38 213 130 97.000000 1.000000 4.000000 1.000000 -60.708740 114.000000 129.000000 0.179282 -0.481544 0.857889
10970.00000000 860.00000000 530.00000000 38 213 130 97.000000 1.000000 4.000000 1.000000 -60.708740 114.000000 129.000000 -0.296910 0.733447 -0.611474
10980.00000000 880.00000000 530.00000000 38 213 130 97.000000 1.000000 4.000000 1.000000 -60.708740 114.000000 129.000000 0.461758 -0.290736 0.838005
10980.00000000 880.00000000 510.00000000 38 213 130 97.000000 1.000000 4.000000 1.000000 -60.708740 114.000000 129.000000 0.527558 -0.020448 0.849273
10980.00000000 810.00000000 500.00000000 38 213 130 97.000000 1.000000 4.000000 1.000000 -60.708740 114.000000 129.000000 0.654504 -0.384129 0.651206
11030.00000000 810.00000000 480.00000000 38 213 130 97.000000 1.000000 4.000000 1.000000 -60.708740 114.000000 129.000000 0.291838 -0.098152 0.951418
11030.00000000 800.00000000 520.00000000 38 213 130 97.000000 1.000000 4.000000 1.000000 -60.708740 114.000000 129.000000 -0.518898 0.676751 -0.522257
11040.00000000 800.00000000 500.00000000 38 213 130 97.000000 1.000000 4.000000 1.000000 -60.708740 114.000000 129.000000 0.407232 -0.565509 0.717190
10990.00000000 780.00000000 540.00000000 38 213 130 97.000000 1.000000 4.000000 1.000000 -60.708740 114.000000 129.000000 0.405447 -0.431088 0.806087
11010.00000000 800.00000000 530.00000000 38 213 130 97.000000 1.000000 4.000000 1.000000 -60.708740 114.000000 129.000000 0.571421 -0.308919 0.760294
10980.00000000 800.00000000 530.00000000 38 213 130 97.000000 1.000000 4.000000 1.000000 -60.708740 114.000000 129.000000 0.319621 -0.325624 0.889838
10960.00000000 790.00000000 550.00000000 38 213 130 97.000000 1.000000 4.000000 1.000000 -60.708740 114.000000 129.000000 0.393087 -0.343369 0.852983
10960.00000000 760.00000000 540.00000000 38 213 130 97.000000 1.000000 4.000000 1.000000 -60.708740 114.000000 129.000000 0.202162 -0.536564 0.819286
11030.00000000 780.00000000 480.00000000 38 213 130 97.000000 1.000000 4.000000 1.000000 -60.708740 114.000000 129.000000 0.618106 -0.387347 0.684038
11000.00000000 760.00000000 450.00000000 38 213 130 97.000000 1.000000 4.000000 1.000000 -60.708740 114.000000 129.000000 0.170813 -0.506498 0.845153
11010.00000000 750.00000000 410.00000000 38 213 130 97.000000 1.000000 4.000000 1.000000 -60.708740 114.000000 129.000000 0.070662 -0.751320 0.656144
11000.00000000 750.00000000 430.00000000 38 213 130 97.000000 1.000000 4.000000 1.000000 -60.708740 114.000000 129.000000 0.430872 -0.728025 0.533225
10950.00000000 790.00000000 450.00000000 38 213 130 97.000000 1.000000 4.000000 1.000000 -60.708740 114.000000 129.000000 -0.273046 0.685011 -0.675430
10970.00000000 680.00000000 400.00000000 38 213 130 97.000000 1.000000 4.000000 1.000000 -60.708740 114.000000 129.000000 0.328833 -0.425457 0.843122
10950.00000000 700.00000000 390.00000000 38 213 130 97.000000 1.000000 4.000000 1.000000 -60.708740 114.000000 129.000000 0.250945 0.835971 -0.488035
10980.00000000 670.00000000 380.00000000 38 213 130 97.000000 1.000000 4.000000 1.000000 -60.708740 114.000000 129.000000 0.319326 0.698628 -0.640274
10950.00000000 700.00000000 390.00000000 38 213 130 97.000000 1.000000 4.000000 1.000000 -60.708740 114.000000 129.000000 0.250945 0.835971 -0.488035
10860.00000000 930.00000000 540.00000000 38 213 130 97.000000 1.000000 4.000000 1.000000 -60.708740 114.000000 129.000000 0.207981 -0.465338 0.860352
10940.00000000 850.00000000 560.00000000 38 213 130 97.000000 1.000000 4.000000 1.000000 -60.708740 114.000000 129.000000 -0.354642 0.694575 -0.625935
10940.00000000 850.00000000 530.00000000 38 213 130 97.000000 1.000000 4.000000 1.000000 -60.708740 114.000000 129.000000 0.230349 -0.703583 0.672243
10930.00000000 840.00000000 530.00000000 38 213 130 97.000000 1.000000 4.000000 1.000000 -60.708740 114.000000 129.000000 0.115474 -0.293331 0.949012
10900.00000000 830.00000000 530.00000000 38 213 130 97.000000 1.000000 4.000000 1.000000 -60.708740 114.000000 129.000000 0.156382 -0.696887 0.699924
10920.00000000 820.00000000 500.00000000 38 213 130 97.000000 1.000000 4.000000 1.000000 -60.708740 114.000000 129.000000 0.152741 -0.685067 0.712288
10890.00000000 810.00000000 510.00000000 38 213 130 97.000000 1.000000 4.000000 1.000000 -60.708740 114.000000 129.000000 -0.355643 0.683424 -0.637534
10830.00000000 970.00000000 600.00000000 38 213 130 97.000000 1.000000 4.000000 1.000000 -60.708740 114.000000 129.000000 0.048578 -0.181280 0.982231
10850.00000000 950.00000000 550.00000000 38 213 130 97.000000 1.000000 4.000000 1.000000 -60.708740 114.000000 129.000000 0.476814 -0.106749 0.872498
10850.00000000 940.00000000 550.00000000 38 213 130 97.000000 1.000000 4.000000 1.000000 -60.708740 114.000000 129.000000 -0.083133 0.721943 -0.686940
10830.00000000 970.00000000 540.00000000 38 213 130 97.000000 1.000000 4.000000 1.000000 -60.708740 114.000000 129.000000 -0.431004 0.667308 -0.607400
10820.00000000 950.00000000 560.00000000 38 213 130 97.000000 1.000000 4.000000 1.000000 -60.708740 114.000000 129.000000 0.106762 -0.586461 0.802911
10790.00000000 950.00000000 520.00000000 38 213 130 97.000000 1.000000 4.000000 1.000000 -60.708740 114.000000 129.000000 0.181703 -0.376282 0.908513
10800.00000000 930.00000000 490.00000000 38 213 130 97.000000 1.000000 4.000000 1.000000 -60.708740 114.000000 129.000000 0.300902 -0.687086 0.661340
10840.00000000 870.00000000 530.00000000 38 213 130 97.000000 1.000000 4.000000 1.000000 -60.708740 114.000000 129.000000 -0.050170 -0.446108 0.893572
10850.00000000 850.00000000 510.00000000 38 213 130 97.000000 1.000000 4.000000 1.000000 -60.708740 114.000000 129.000000 -0.102511 -0.378606 0.919863
10830.00000000 840.00000000 500.00000000 38 213 130 97.000000 1.000000 4.000000 1.000000 -60.708740 114.000000 129.000000 -0.065095 -0.365329 0.928600
10850.00000000 820.00000000 520.00000000 38 213 130 97.000000 1.000000 4.000000 1.000000 -60.708740 114.000000 129.000000 0.161163 -0.392210 0.905648
10800.00000000 870.00000000 510.00000000 38 213 130 97.000000 1.000000 4.000000 1.000000 -60.708740 114.000000 129.000000 -0.344858 0.678276 -0.648857
10790.00000000 820.00000000 530.00000000 38 213 130 97.000000 1.000000 4.000000 1.000000 -60.708740 114.000000 129.000000 -0.160249 -0.489569 0.857113
10910.00000000 850.00000000 410.00000000 38 213 130 97.000000 1.000000 4.000000 1.000000 -60.708740 114.000000 129.000000 -0.022986 -0.493530 0.869425
10900.00000000 810.00000000 440.00000000 38 213 130 97.000000 1.000000 4.000000 1.000000 -60.708740 114.000000 129.000000 -0.088635 0.786089 -0.611725
10920.00000000 820.00000000 410.00000000 38 213 130 97.000000 1.000000 4.000000 1.000000 -60.708740 114.000000 129.000000 0.225726 -0.611794 0.758127
10880.00000000 850.00000000 480.00000000 38 213 130 97.000000 1.000000 4.000000 1.000000 -60.708740 114.000000 129.000000 0.338007 -0.412773 0.845795
10870.00000000 840.00000000 470.00000000 38 213 130 97.000000 1.000000 4.000000 1.000000 -60.708740 114.000000 129.000000 -0.346074 0.826470 -0.444050
10910.00000000 870.00000000 320.00000000 38 213 130 97.000000 1.000000 4.000000 1.000000 -60.708740 114.000000 129.000000 0.488870 -0.288949 0.823113
10870.00000000 820.00000000 340.00000000 38 213 130 97.000000 1.000000 4.000000 1.000000 -60.708740 114.000000 129.000000 0.230807 0.708123 -0.667300
10780.00000000 910.00000000 480.00000000 38 213 130 97.000000 1.000000 4.000000 1.000000 -60.708740 114.000000 129.000000 0.039274 -0.305322 0.951439
10810.00000000 920.00000000 480.00000000 38 213 130 97.000000 1.000000 4.000000 1.000000 -60.708740 114.000000 129.000000 0.224342 -0.574007 0.787519
10820.00000000 940.00000000 480.00000000 38 213 130 97.000000 1.000000 4.000000 1.000000 -60.708740 114.000000 129.000000 0.369288 -0.426345 0.825746
10830.00000000 900.00000000 420.00000000 38 213 130 97.000000 1.000000 4.000000 1.000000 -60.708740 114.000000 129.000000 -0.004092 0.822480 -0.568780
10830.00000000 890.00000000 480.00000000 38 213 130 97.000000 1.000000 4.000000 1.000000 -60.708740 114.000000 129.000000 0.009519 0.841714 -0.539839
10830.00000000 890.00000000 480.00000000 38 213 130 97.000000 1.000000 4.000000 1.000000 -60.708740 114.000000 129.000000 0.009519 0.841714 -0.539839
10850.00000000 880.00000000 370.00000000 38 213 130 97.000000 1.000000 4.000000 1.000000 -60.708740 114.000000 129.000000 0.411839 -0.476951 0.776470
10850.00000000 880.00000000 370.00000000 38 213 130 97.000000 1.000000 4.000000 1.000000 -60.708740 114.000000 129.000000 0.411839 -0.476951 0.776470
10820.00000000 860.00000000 340.00000000 38 213 130 97.000000 1.000000 4.000000 1.000000 -60.708740 114.000000 129.000000 0.070857 0.952058 -0.297599
10800.00000000 830.00000000 400.00000000 38 213 130 97.000000 1.000000 4.000000 1.000000 -60.708740 114.000000 129.000000 0.086055 -0.704484 0.704484
10920.00000000 770.00000000 500.00000000 38 213 130 97.000000 1.000000 4.000000 1.000000 -60.708740 114.000000 129.000000 0.039963 -0.511245 0.858505
10910.00000000 750.00000000 500.00000000 38 213 130 97.000000 1.000000 4.000000 1.000000 -60.708740 114.000000 129.000000 0.221420 -0.586840 0.778840
10890.00000000 790.00000000 500.00000000 38 213 130 97.000000 1.000000 4.000000 1.000000 -60.708740 114.000000 129.000000 0.250106 -0.368500 0.895352
10890.00000000 790.00000000 500.00000000 38 213 130 97.000000 1.000000 4.000000 1.000000 -60.708740 114.000000 129.000000 0.250106 -0.368500 0.895352
10880.00000000 780.00000000 500.00000000 38 213 130 97.000000 1.000000 4.000000 1.000000 -60.708740 114.000000 129.000000 0.317516 -0.585068 0.746243
10890.00000000 800.00000000 500.00000000 38 213 130 97.000000 1.000000 4.000000 1.000000 -60.708740 114.000000 129.000000 -0.300838 0.775176 -0.555516
10870.00000000 800.00000000 510.00000000 38 213 130 97.000000 1.000000 4.000000 1.000000 -60.708740 114.000000 129.000000 -0.083847 0.845571 -0.527238
10880.00000000 780.00000000 500.00000000 38 213 130 97.000000 1.000000 4.000000 1.000000 -60.708740 114.000000 129.000000 0.317516 -0.585068 0.746243
10880.00000000 780.00000000 500.00000000 38 213 130 97.000000 1.000000 4.000000 1.000000 -60.708740 114.000000 129.000000 0.317516 -0.585068 0.746243
10920.00000000 790.00000000 460.00000000 38 213 130 97.000000 1.000000 4.000000 1.000000 -60.708740 114.000000 129.000000 0.260568 -0.535178 0.803548
10900.00000000 780.00000000 470.00000000 38 213 130 97.000000 1.000000 4.000000 1.000000 -60.708740 114.000000 129.000000 0.222416 -0.479632 0.848813
10920.00000000 790.00000000 460.00000000 38 213 130 97.000000 1.000000 4.000000 1.000000 -60.708740 114.000000 129.000000 0.260568 -0.535178 0.803548
10930.00000000 780.00000000 450.00000000 38 213 130 97.000000 1.000000 4.000000 1.000000 -60.708740 114.000000 129.000000 -0.117137 0.757681 -0.642027
10920.00000000 790.00000000 460.00000000 38 213 130 97.000000 1.000000 4.000000 1.000000 -60.708740 114.000000 129.000000 0.260568 -0.535178 0.803548
10900.00000000 800.00000000 440.00000000 38 213 130 97.000000 1.000000 4.000000 1.000000 -60.708740 114.000000 129.000000 -0.046520 -0.599125 0.799303
10910.00000000 770.00000000 430.00000000 38 213 130 97.000000 1.000000 4.000000 1.000000 -60.708740 114.000000 129.000000 0.150708 -0.484314 0.861816
10930.00000000 740.00000000 480.00000000 38 213 130 97.000000 1.000000 4.000000 1.000000 -60.708740 114.000000 129.000000 -0.088722 0.781042 -0.618143
10920.00000000 740.00000000 450.00000000 38 213 130 97.000000 1.000000 4.000000 1.000000 -60.708740 114.000000 129.000000 -0.147167 0.819082 -0.554478
10930.00000000 750.00000000 440.00000000 38 213 130 97.000000 1.000000 4.000000 1.000000 -60.708740 114.000000 129.000000 0.139695 -0.683455 0.716501
10880.00000000 780.00000000 480.00000000 38 213 130 97.000000 1.000000 4.000000 1.000000 -60.708740 114.000000 129.000000 0.120441 -0.652763 0.747927
10880.00000000 770.00000000 470.00000000 38 213 130 97.000000 1.000000 4.000000 1.000000 -60.708740 114.000000 129.000000 0.235555 -0.581868 0.778424
10890.00000000 770.00000000 470.00000000 38 213 130 97.000000 1.000000 4.000000 1.000000 -60.708740 114.000000 129.000000 0.359409 -0.564322 0.743213
10890.00000000 780.00000000 480.00000000 38 213 130 97.000000 1.000000 4.000000 1.000000 -60.708740 114.000000 129.000000 0.132864 0.768822 -0.625508
10870.00000000 760.00000000 470.00000000 38 213 130 97.000000 1.000000 4.000000 1.000000 -60.708740 114.000000 129.000000 0.148567 -0.448586 0.881305
10890.00000000 750.00000000 470.00000000 38 213 130 97.000000 1.000000 4.000000 1.000000 -60.708740 114.000000 129.000000 0.103878 -0.346709 0.932203
10860.00000000 790.00000000 320.00000000 38 213 130 97.000000 1.000000 4.000000 1.000000 -60.708740 114.000000 129.000000 0.016967 0.914914 -0.403293
10920.00000000 720.00000000 430.00000000 38 213 130 97.000000 1.000000 4.000000 1.000000 -60.708740 114.000000 129.000000 0.043396 0.824530 -0.564152
