//X Y Z R G B PointSourceId ScanDirectionFlag NumberOfReturns ReturnNumber GpsTime Intensity Classification Nx Ny Nz
730.00000000 260.00000000 280.00000000 90 243 89 97.000000 1.000000 4.000000 1.000000 -60.708740 114.000000 50.000000 0.078558 0.350184 0.933381
710.00000000 230.00000000 310.00000000 90 243 89 97.000000 1.000000 4.000000 1.000000 -60.708740 114.000000 50.000000 -0.125472 0.111133 0.985853
720.00000000 230.00000000 310.00000000 90 243 89 97.000000 1.000000 4.000000 1.000000 -60.708740 114.000000 50.000000 -0.029546 0.013245 0.999476
710.00000000 230.00000000 310.00000000 90 243 89 97.000000 1.000000 4.000000 1.000000 -60.708740 114.000000 50.000000 -0.125472 0.111133 0.985853
690.00000000 300.00000000 250.00000000 90 243 89 97.000000 1.000000 4.000000 1.000000 -60.708740 114.000000 50.000000 0.599913 -0.394984 -0.695767
660.00000000 300.00000000 360.00000000 90 243 89 97.000000 1.000000 4.000000 1.000000 -60.708740 114.000000 50.000000 -0.003176 -0.085761 0.996311
660.00000000 280.00000000 360.00000000 90 243 89 97.000000 1.000000 4.000000 1.000000 -60.708740 114.000000 50.000000 0.066908 0.203157 0.976857
650.00000000 240.00000000 370.00000000 90 243 89 97.000000 1.000000 4.000000 1.000000 -60.708740 114.000000 50.000000 -0.105634 -0.016335 0.994271
640.00000000 250.00000000 360.00000000 90 243 89 97.000000 1.000000 4.000000 1.000000 -60.708740 114.000000 50.000000 -0.042098 0.011294 0.999050
660.00000000 240.00000000 370.00000000 90 243 89 97.000000 1.000000 4.000000 1.000000 -60.708740 114.000000 50.000000 -0.077946 -0.049402 0.995733
650.00000000 230.00000000 370.00000000 90 243 89 97.000000 1.000000 4.000000 1.000000 -60.708740 114.000000 50.000000 0.080234 -0.119770 0.989554
660.00000000 260.00000000 370.00000000 90 243 89 97.000000 1.000000 4.000000 1.000000 -60.708740 114.000000 50.000000 -0.026036 0.042699 0.998749
620.00000000 280.00000000 360.00000000 90 243 89 97.000000 1.000000 4.000000 1.000000 -60.708740 114.000000 50.000000 -0.035424 -0.147409 0.988441
620.00000000 240.00000000 360.00000000 90 243 89 97.000000 1.000000 4.000000 1.000000 -60.708740 114.000000 50.000000 0.055987 0.124543 0.990633
600.00000000 260.00000000 370.00000000 90 243 89 97.000000 1.000000 4.000000 1.000000 -60.708740 114.000000 50.000000 -0.033142 -0.063076 0.997458
600.00000000 230.00000000 350.00000000 90 243 89 97.000000 1.000000 4.000000 1.000000 -60.708740 114.000000 50.000000 0.069364 0.200790 0.977176
650.00000000 190.00000000 360.00000000 90 243 89 97.000000 1.000000 4.000000 1.000000 -60.708740 114.000000 50.000000 -0.059043 0.044014 0.997285
650.00000000 190.00000000 360.00000000 90 243 89 97.000000 1.000000 4.000000 1.000000 -60.708740 114.000000 50.000000 -0.059043 0.044014 0.997285
650.00000000 190.00000000 360.00000000 90 243 89 97.000000 1.000000 4.000000 1.000000 -60.708740 114.000000 50.000000 -0.059043 0.044014 0.997285
1750.00000000 1400.00000000 -30.00000000 90 243 89 97.000000 1.000000 4.000000 1.000000 -60.708740 114.000000 50.000000 -0.174647 0.984272 -0.026602
1740.00000000 1370.00000000 -60.00000000 90 243 89 97.000000 1.000000 4.000000 1.000000 -60.708740 114.000000 50.000000 -0.160073 0.818317 -0.552027
1710.00000000 1370.00000000 -20.00000000 90 243 89 97.000000 1.000000 4.000000 1.000000 -60.708740 114.000000 50.000000 -0.417849 0.752129 -0.509612
1710.00000000 1380.00000000 -90.00000000 90 243 89 97.000000 1.000000 4.000000 1.000000 -60.708740 114.000000 50.000000 -0.067907 0.928068 -0.366167
1710.00000000 1370.00000000 -100.00000000 90 243 89 97.000000 1.000000 4.000000 1.000000 -60.708740 114.000000 50.000000 -0.034511 0.998734 0.036603
1730.00000000 1370.00000000 -180.00000000 90 243 89 97.000000 1.000000 4.000000 1.000000 -60.708740 114.000000 50.000000 -0.481824 0.872340 -0.082879
1740.00000000 1380.00000000 -170.00000000 90 243 89 97.000000 1.000000 4.000000 1.000000 -60.708740 114.000000 50.000000 0.039686 0.943493 -0.329007
1730.00000000 1380.00000000 -150.00000000 90 243 89 97.000000 1.000000 4.000000 1.000000 -60.708740 114.000000 50.000000 -0.183898 0.927914 -0.324279
1710.00000000 1370.00000000 -120.00000000 90 243 89 97.000000 1.000000 4.000000 1.000000 -60.708740 114.000000 50.000000 -0.237573 0.954319 -0.181200
1710.00000000 1370.00000000 -120.00000000 90 243 89 97.000000 1.000000 4.000000 1.000000 -60.708740 114.000000 50.000000 -0.237573 0.954319 -0.181200
1700.00000000 1350.00000000 -140.00000000 90 243 89 97.000000 1.000000 4.000000 1.000000 -60.708740 114.000000 50.000000 -0.124569 0.967018 -0.222170
1740.00000000 1370.00000000 -190.00000000 90 243 89 97.000000 1.000000 4.000000 1.000000 -60.708740 114.000000 50.000000 0.568256 -0.625588 0.534532
1750.00000000 1370.00000000 -190.00000000 90 243 89 97.000000 1.000000 4.000000 1.000000 -60.708740 114.000000 50.000000 -0.469657 0.845994 -0.252421
1730.00000000 1350.00000000 -210.00000000 90 243 89 97.000000 1.000000 4.000000 1.000000 -60.708740 114.000000 50.000000 -0.394766 0.918515 -0.022149
1710.00000000 1360.00000000 -210.00000000 90 243 89 97.000000 1.000000 4.000000 1.000000 -60.708740 114.000000 50.000000 -0.257224 0.802852 -0.537833
1710.00000000 1330.00000000 -220.00000000 90 243 89 97.000000 1.000000 4.000000 1.000000 -60.708740 114.000000 50.000000 -0.378615 0.925070 -0.029925
1700.00000000 1350.00000000 -230.00000000 90 243 89 97.000000 1.000000 4.000000 1.000000 -60.708740 114.000000 50.000000 0.013834 0.944491 -0.328245
1710.00000000 1340.00000000 -240.00000000 90 243 89 97.000000 1.000000 4.000000 1.000000 -60.708740 114.000000 50.000000 -0.508210 0.852808 -0.120175
1690.00000000 1340.00000000 -240.00000000 90 243 89 97.000000 1.000000 4.000000 1.000000 -60.708740 114.000000 50.000000 -0.026248 -0.830273 0.556739
1900.00000000 1070.00000000 -100.00000000 90 243 89 97.000000 1.000000 4.000000 1.000000 -60.708740 114.000000 50.000000 -0.265852 0.660651 -0.702042
1890.00000000 1060.00000000 -160.00000000 90 243 89 97.000000 1.000000 4.000000 1.000000 -60.708740 114.000000 50.000000 0.072267 0.904023 -0.421332
1860.00000000 1060.00000000 -180.00000000 90 243 89 97.000000 1.000000 4.000000 1.000000 -60.708740 114.000000 50.000000 -0.355815 0.654240 -0.667358
1850.00000000 1100.00000000 -270.00000000 90 243 89 97.000000 1.000000 4.000000 1.000000 -60.708740 114.000000 50.000000 -0.363101 0.655553 -0.662125
1850.00000000 1060.00000000 -240.00000000 90 243 89 97.000000 1.000000 4.000000 1.000000 -60.708740 114.000000 50.000000 0.249188 -0.512306 0.821856
1850.00000000 1060.00000000 -240.00000000 90 243 89 97.000000 1.000000 4.000000 1.000000 -60.708740 114.000000 50.000000 0.249188 -0.512306 0.821856
1780.00000000 1170.00000000 -50.00000000 90 243 89 97.000000 1.000000 4.000000 1.000000 -60.708740 114.000000 50.000000 -0.230441 0.959953 -0.159334
1770.00000000 1160.00000000 -130.00000000 90 243 89 97.000000 1.000000 4.000000 1.000000 -60.708740 114.000000 50.000000 -0.254547 0.716210 -0.649807
1770.00000000 1160.00000000 -130.00000000 90 243 89 97.000000 1.000000 4.000000 1.000000 -60.708740 114.000000 50.000000 -0.254547 0.716210 -0.649807
1770.00000000 1160.00000000 -130.00000000 90 243 89 97.000000 1.000000 4.000000 1.000000 -60.708740 114.000000 50.000000 -0.254547 0.716210 -0.649807
1790.00000000 1170.00000000 -130.00000000 90 243 89 97.000000 1.000000 4.000000 1.000000 -60.708740 114.000000 50.000000 0.412472 -0.704018 0.578123
1760.00000000 1150.00000000 -60.00000000 90 243 89 97.000000 1.000000 4.000000 1.000000 -60.708740 114.000000 50.000000 0.546645 -0.798942 0.250740
1730.00000000 1150.00000000 -60.00000000 90 243 89 97.000000 1.000000 4.000000 1.000000 -60.708740 114.000000 50.000000 -0.138439 0.981327 -0.133539
1750.00000000 1150.00000000 -110.00000000 90 243 89 97.000000 1.000000 4.000000 1.000000 -60.708740 114.000000 50.000000 -0.365239 0.913807 -0.177645
1740.00000000 1160.00000000 -140.00000000 90 243 89 97.000000 1.000000 4.000000 1.000000 -60.708740 114.000000 50.000000 -0.552596 0.670170 -0.495489
1750.00000000 1160.00000000 -140.00000000 90 243 89 97.000000 1.000000 4.000000 1.000000 -60.708740 114.000000 50.000000 -0.491558 0.729889 -0.475007
1750.00000000 1150.00000000 -110.00000000 90 243 89 97.000000 1.000000 4.000000 1.000000 -60.708740 114.000000 50.000000 -0.365239 0.913807 -0.177645
1720.00000000 1170.00000000 -170.00000000 90 243 89 97.000000 1.000000 4.000000 1.000000 -60.708740 114.000000 50.000000 -0.267509 0.955388 -0.125189
1750.00000000 1170.00000000 -160.00000000 90 243 89 97.000000 1.000000 4.000000 1.000000 -60.708740 114.000000 50.000000 -0.248354 0.967470 -0.048188
1840.00000000 1150.00000000 -190.00000000 90 243 89 97.000000 1.000000 4.000000 1.000000 -60.708740 114.000000 50.000000 -0.026689 0.754306 -0.655980
1770.00000000 1160.00000000 -190.00000000 90 243 89 97.000000 1.000000 4.000000 1.000000 -60.708740 114.000000 50.000000 0.209017 -0.630146 0.747815
1770.00000000 1160.00000000 -190.00000000 90 243 89 97.000000 1.000000 4.000000 1.000000 -60.708740 114.000000 50.000000 0.209017 -0.630146 0.747815
1730.00000000 1180.00000000 -200.00000000 90 243 89 97.000000 1.000000 4.000000 1.000000 -60.708740 114.000000 50.000000 -0.128587 0.980932 -0.145731
1750.00000000 1170.00000000 -230.00000000 90 243 89 97.000000 1.000000 4.000000 1.000000 -60.708740 114.000000 50.000000 -0.455141 0.726571 -0.514724
1750.00000000 1160.00000000 -240.00000000 90 243 89 97.000000 1.000000 4.000000 1.000000 -60.708740 114.000000 50.000000 -0.441711 0.876036 -0.193526
1720.00000000 1150.00000000 -300.00000000 90 243 89 97.000000 1.000000 4.000000 1.000000 -60.708740 114.000000 50.000000 -0.417453 0.778054 -0.469431
1840.00000000 1120.00000000 -130.00000000 90 243 89 97.000000 1.000000 4.000000 1.000000 -60.708740 114.000000 50.000000 0.631447 -0.687211 0.359187
1820.00000000 1110.00000000 -180.00000000 90 243 89 97.000000 1.000000 4.000000 1.000000 -60.708740 114.000000 50.000000 0.203341 -0.684529 0.700052
1820.00000000 1070.00000000 -170.00000000 90 243 89 97.000000 1.000000 4.000000 1.000000 -60.708740 114.000000 50.000000 -0.473690 0.684591 -0.554033
1730.00000000 1130.00000000 -140.00000000 90 243 89 97.000000 1.000000 4.000000 1.000000 -60.708740 114.000000 50.000000 -0.509755 0.832347 -0.217597
1740.00000000 1140.00000000 -180.00000000 90 243 89 97.000000 1.000000 4.000000 1.000000 -60.708740 114.000000 50.000000 -0.395365 0.836409 -0.379613
1730.00000000 1010.00000000 -50.00000000 90 243 89 97.000000 1.000000 4.000000 1.000000 -60.708740 114.000000 50.000000 -0.297613 0.771883 -0.561804
1740.00000000 980.00000000 -60.00000000 90 243 89 97.000000 1.000000 4.000000 1.000000 -60.708740 114.000000 50.000000 -0.511708 0.669415 -0.538552
1710.00000000 1000.00000000 -20.00000000 90 243 89 97.000000 1.000000 4.000000 1.000000 -60.708740 114.000000 50.000000 -0.331867 0.811407 -0.481128
1710.00000000 1020.00000000 -130.00000000 90 243 89 97.000000 1.000000 4.000000 1.000000 -60.708740 114.000000 50.000000 -0.414377 0.858021 -0.303465
1690.00000000 1010.00000000 -120.00000000 90 243 89 97.000000 1.000000 4.000000 1.000000 -60.708740 114.000000 50.000000 -0.418542 0.790221 -0.447630
1830.00000000 1100.00000000 -270.00000000 90 243 89 97.000000 1.000000 4.000000 1.000000 -60.708740 114.000000 50.000000 0.055618 0.780077 -0.623206
1820.00000000 1110.00000000 -340.00000000 90 243 89 97.000000 1.000000 4.000000 1.000000 -60.708740 114.000000 50.000000 0.414934 -0.440766 0.795962
1830.00000000 1100.00000000 -320.00000000 90 243 89 97.000000 1.000000 4.000000 1.000000 -60.708740 114.000000 50.000000 -0.080526 -0.512825 0.854708
1830.00000000 1100.00000000 -320.00000000 90 243 89 97.000000 1.000000 4.000000 1.000000 -60.708740 114.000000 50.000000 -0.080526 -0.512825 0.854708
1800.00000000 1120.00000000 -320.00000000 90 243 89 97.000000 1.000000 4.000000 1.000000 -60.708740 114.000000 50.000000 0.304265 -0.552776 0.775797
1790.00000000 1110.00000000 -320.00000000 90 243 89 97.000000 1.000000 4.000000 1.000000 -60.708740 114.000000 50.000000 0.026123 0.842807 -0.537582
1790.00000000 1100.00000000 -340.00000000 90 243 89 97.000000 1.000000 4.000000 1.000000 -60.708740 114.000000 50.000000 0.094464 -0.603114 0.792042
1720.00000000 1140.00000000 -310.00000000 90 243 89 97.000000 1.000000 4.000000 1.000000 -60.708740 114.000000 50.000000 0.314088 -0.527732 0.789207
1740.00000000 1140.00000000 -340.00000000 90 243 89 97.000000 1.000000 4.000000 1.000000 -60.708740 114.000000 50.000000 0.189576 0.855332 -0.482150
1730.00000000 1100.00000000 -290.00000000 90 243 89 97.000000 1.000000 4.000000 1.000000 -60.708740 114.000000 50.000000 -0.165951 -0.695778 0.698823
1740.00000000 1050.00000000 -260.00000000 90 243 89 97.000000 1.000000 4.000000 1.000000 -60.708740 114.000000 50.000000 -0.557106 0.677562 -0.480149
1720.00000000 1000.00000000 -210.00000000 90 243 89 97.000000 1.000000 4.000000 1.000000 -60.708740 114.000000 50.000000 0.227253 -0.659817 0.716238
1720.00000000 990.00000000 -220.00000000 90 243 89 97.000000 1.000000 4.000000 1.000000 -60.708740 114.000000 50.000000 0.341591 -0.517999 0.784215
1760.00000000 1010.00000000 -240.00000000 90 243 89 97.000000 1.000000 4.000000 1.000000 -60.708740 114.000000 50.000000 -0.376627 0.629904 -0.679244
1740.00000000 1020.00000000 -280.00000000 90 243 89 97.000000 1.000000 4.000000 1.000000 -60.708740 114.000000 50.000000 0.483208 -0.489850 0.725642
1680.00000000 1000.00000000 -310.00000000 90 243 89 97.000000 1.000000 4.000000 1.000000 -60.708740 114.000000 50.000000 0.151190 -0.433412 0.888423
1710.00000000 990.00000000 -310.00000000 90 243 89 97.000000 1.000000 4.000000 1.000000 -60.708740 114.000000 50.000000 0.210134 -0.673985 0.708229
1680.00000000 1000.00000000 -310.00000000 90 243 89 97.000000 1.000000 4.000000 1.000000 -60.708740 114.000000 50.000000 0.151190 -0.433412 0.888423
1710.00000000 980.00000000 -340.00000000 90 243 89 97.000000 1.000000 4.000000 1.000000 -60.708740 114.000000 50.000000 0.199454 0.740607 -0.641653
1850.00000000 1140.00000000 -400.00000000 90 243 89 97.000000 1.000000 4.000000 1.000000 -60.708740 114.000000 50.000000 0.376830 -0.549748 0.745504
1850.00000000 1140.00000000 -400.00000000 90 243 89 97.000000 1.000000 4.000000 1.000000 -60.708740 114.000000 50.000000 0.376830 -0.549748 0.745504
1770.00000000 1160.00000000 -400.00000000 90 243 89 97.000000 1.000000 4.000000 1.000000 -60.708740 114.000000 50.000000 0.111180 0.890844 -0.440496
1800.00000000 1150.00000000 -490.00000000 90 243 89 97.000000 1.000000 4.000000 1.000000 -60.708740 114.000000 50.000000 -0.057846 0.822539 -0.565760
1720.00000000 1160.00000000 -380.00000000 90 243 89 97.000000 1.000000 4.000000 1.000000 -60.708740 114.000000 50.000000 0.119776 -0.622539 0.773368
1690.00000000 1190.00000000 -390.00000000 90 243 89 97.000000 1.000000 4.000000 1.000000 -60.708740 114.000000 50.000000 0.512332 -0.549287 0.660152
1720.00000000 1190.00000000 -490.00000000 90 243 89 97.000000 1.000000 4.000000 1.000000 -60.708740 114.000000 50.000000 -0.323266 0.868681 -0.375356
1720.00000000 1160.00000000 -470.00000000 90 243 89 97.000000 1.000000 4.000000 1.000000 -60.708740 114.000000 50.000000 0.269045 -0.638384 0.721167
1720.00000000 1180.00000000 -460.00000000 90 243 89 97.000000 1.000000 4.000000 1.000000 -60.708740 114.000000 50.000000 -0.120346 0.845319 -0.520531
1730.00000000 1160.00000000 -480.00000000 90 243 89 97.000000 1.000000 4.000000 1.000000 -60.708740 114.000000 50.000000 -0.084141 -0.540497 0.837128
1730.00000000 1170.00000000 -460.00000000 90 243 89 97.000000 1.000000 4.000000 1.000000 -60.708740 114.000000 50.000000 -0.208771 0.756213 -0.620126
1710.00000000 1170.00000000 -460.00000000 90 243 89 97.000000 1.000000 4.000000 1.000000 -60.708740 114.000000 50.000000 0.032115 0.800090 -0.599020
1710.00000000 1180.00000000 -450.00000000 90 243 89 97.000000 1.000000 4.000000 1.000000 -60.708740 114.000000 50.000000 -0.199566 0.808930 -0.552997
1710.00000000 1180.00000000 -450.00000000 90 243 89 97.000000 1.000000 4.000000 1.000000 -60.708740 114.000000 50.000000 -0.199566 0.808930 -0.552997
1680.00000000 1150.00000000 -490.00000000 90 243 89 97.000000 1.000000 4.000000 1.000000 -60.708740 114.000000 50.000000 -0.214151 -0.565420 0.796517
1830.00000000 1130.00000000 -380.00000000 90 243 89 97.000000 1.000000 4.000000 1.000000 -60.708740 114.000000 50.000000 0.049440 0.806585 -0.589047
1810.00000000 1120.00000000 -390.00000000 90 243 89 97.000000 1.000000 4.000000 1.000000 -60.708740 114.000000 50.000000 -0.080721 0.853944 -0.514066
1820.00000000 1120.00000000 -390.00000000 90 243 89 97.000000 1.000000 4.000000 1.000000 -60.708740 114.000000 50.000000 -0.177261 -0.571173 0.801461
1820.00000000 1120.00000000 -390.00000000 90 243 89 97.000000 1.000000 4.000000 1.000000 -60.708740 114.000000 50.000000 -0.177261 -0.571173 0.801461
1780.00000000 1140.00000000 -430.00000000 90 243 89 97.000000 1.000000 4.000000 1.000000 -60.708740 114.000000 50.000000 0.028320 0.883302 -0.467948
1780.00000000 1130.00000000 -440.00000000 90 243 89 97.000000 1.000000 4.000000 1.000000 -60.708740 114.000000 50.000000 0.177261 0.801461 -0.571173
1780.00000000 1090.00000000 -410.00000000 90 243 89 97.000000 1.000000 4.000000 1.000000 -60.708740 114.000000 50.000000 -0.125444 -0.483030 0.866571
1780.00000000 1090.00000000 -410.00000000 90 243 89 97.000000 1.000000 4.000000 1.000000 -60.708740 114.000000 50.000000 -0.125444 -0.483030 0.866571
1810.00000000 1120.00000000 -520.00000000 90 243 89 97.000000 1.000000 4.000000 1.000000 -60.708740 114.000000 50.000000 -0.293885 0.717849 -0.631129
1810.00000000 1120.00000000 -520.00000000 90 243 89 97.000000 1.000000 4.000000 1.000000 -60.708740 114.000000 50.000000 -0.293885 0.717849 -0.631129
1810.00000000 1130.00000000 -520.00000000 90 243 89 97.000000 1.000000 4.000000 1.000000 -60.708740 114.000000 50.000000 0.251597 0.504738 -0.825795
1770.00000000 1110.00000000 -450.00000000 90 243 89 97.000000 1.000000 4.000000 1.000000 -60.708740 114.000000 50.000000 0.026545 0.789375 -0.613337
1770.00000000 1120.00000000 -510.00000000 90 243 89 97.000000 1.000000 4.000000 1.000000 -60.708740 114.000000 50.000000 -0.034810 -0.346810 0.937289
1770.00000000 1100.00000000 -450.00000000 90 243 89 97.000000 1.000000 4.000000 1.000000 -60.708740 114.000000 50.000000 -0.186435 -0.550210 0.813948
1770.00000000 1100.00000000 -450.00000000 90 243 89 97.000000 1.000000 4.000000 1.000000 -60.708740 114.000000 50.000000 -0.186435 -0.550210 0.813948
1780.00000000 1080.00000000 -450.00000000 90 243 89 97.000000 1.000000 4.000000 1.000000 -60.708740 114.000000 50.000000 0.051276 0.857829 -0.511371
1780.00000000 1060.00000000 -370.00000000 90 243 89 97.000000 1.000000 4.000000 1.000000 -60.708740 114.000000 50.000000 0.017707 0.851291 -0.524395
1790.00000000 1060.00000000 -370.00000000 90 243 89 97.000000 1.000000 4.000000 1.000000 -60.708740 114.000000 50.000000 0.001373 0.789499 -0.613750
1760.00000000 1130.00000000 -370.00000000 90 243 89 97.000000 1.000000 4.000000 1.000000 -60.708740 114.000000 50.000000 0.081408 -0.431878 0.898251
1750.00000000 1110.00000000 -470.00000000 90 243 89 97.000000 1.000000 4.000000 1.000000 -60.708740 114.000000 50.000000 -0.115623 -0.475340 0.872171
1750.00000000 1110.00000000 -520.00000000 90 243 89 97.000000 1.000000 4.000000 1.000000 -60.708740 114.000000 50.000000 0.193947 0.798695 -0.569624
1720.00000000 1130.00000000 -510.00000000 90 243 89 97.000000 1.000000 4.000000 1.000000 -60.708740 114.000000 50.000000 0.024979 -0.411494 0.911070
1760.00000000 1120.00000000 -510.00000000 90 243 89 97.000000 1.000000 4.000000 1.000000 -60.708740 114.000000 50.000000 0.292928 -0.728319 0.619471
1760.00000000 1110.00000000 -520.00000000 90 243 89 97.000000 1.000000 4.000000 1.000000 -60.708740 114.000000 50.000000 0.043232 -0.556432 0.829767
1760.00000000 1100.00000000 -480.00000000 90 243 89 97.000000 1.000000 4.000000 1.000000 -60.708740 114.000000 50.000000 0.458286 -0.558275 0.691595
1720.00000000 1100.00000000 -470.00000000 90 243 89 97.000000 1.000000 4.000000 1.000000 -60.708740 114.000000 50.000000 -0.194459 0.779368 -0.595627
1750.00000000 1010.00000000 -390.00000000 90 243 89 97.000000 1.000000 4.000000 1.000000 -60.708740 114.000000 50.000000 0.503407 -0.510097 0.697411
1700.00000000 990.00000000 -490.00000000 90 243 89 97.000000 1.000000 4.000000 1.000000 -60.708740 114.000000 50.000000 0.202989 0.554022 -0.807376
1810.00000000 1110.00000000 -530.00000000 90 243 89 97.000000 1.000000 4.000000 1.000000 -60.708740 114.000000 50.000000 0.114075 -0.682967 0.721486
1770.00000000 970.00000000 -30.00000000 90 243 89 97.000000 1.000000 4.000000 1.000000 -60.708740 114.000000 50.000000 -0.374307 0.924364 0.073788
1770.00000000 910.00000000 -70.00000000 90 243 89 97.000000 1.000000 4.000000 1.000000 -60.708740 114.000000 50.000000 -0.471692 0.652983 -0.592553
1780.00000000 870.00000000 -160.00000000 90 243 89 97.000000 1.000000 4.000000 1.000000 -60.708740 114.000000 50.000000 -0.136777 -0.692906 0.707936
1720.00000000 960.00000000 -40.00000000 90 243 89 97.000000 1.000000 4.000000 1.000000 -60.708740 114.000000 50.000000 -0.404675 0.715200 -0.569848
1740.00000000 910.00000000 -40.00000000 90 243 89 97.000000 1.000000 4.000000 1.000000 -60.708740 114.000000 50.000000 -0.335040 0.832095 -0.442001
1730.00000000 930.00000000 -90.00000000 90 243 89 97.000000 1.000000 4.000000 1.000000 -60.708740 114.000000 50.000000 -0.479291 0.689711 -0.542751
1760.00000000 950.00000000 -140.00000000 90 243 89 97.000000 1.000000 4.000000 1.000000 -60.708740 114.000000 50.000000 0.067752 -0.650127 0.756799
1760.00000000 950.00000000 -140.00000000 90 243 89 97.000000 1.000000 4.000000 1.000000 -60.708740 114.000000 50.000000 0.067752 -0.650127 0.756799
1760.00000000 920.00000000 -140.00000000 90 243 89 97.000000 1.000000 4.000000 1.000000 -60.708740 114.000000 50.000000 0.568495 -0.691864 0.445127
1750.00000000 920.00000000 -140.00000000 90 243 89 97.000000 1.000000 4.000000 1.000000 -60.708740 114.000000 50.000000 0.384499 -0.554660 0.737911
1740.00000000 910.00000000 -180.00000000 90 243 89 97.000000 1.000000 4.000000 1.000000 -60.708740 114.000000 50.000000 -0.345946 0.732495 -0.586321
1740.00000000 910.00000000 -180.00000000 90 243 89 97.000000 1.000000 4.000000 1.000000 -60.708740 114.000000 50.000000 -0.345946 0.732495 -0.586321
1700.00000000 950.00000000 -180.00000000 90 243 89 97.000000 1.000000 4.000000 1.000000 -60.708740 114.000000 50.000000 -0.389606 0.803261 -0.450532
1700.00000000 910.00000000 -140.00000000 90 243 89 97.000000 1.000000 4.000000 1.000000 -60.708740 114.000000 50.000000 -0.546328 0.757077 -0.358274
1700.00000000 900.00000000 -150.00000000 90 243 89 97.000000 1.000000 4.000000 1.000000 -60.708740 114.000000 50.000000 0.280103 -0.693054 0.664243
1710.00000000 900.00000000 -160.00000000 90 243 89 97.000000 1.000000 4.000000 1.000000 -60.708740 114.000000 50.000000 0.023755 -0.627411 0.778326
1710.00000000 900.00000000 -160.00000000 90 243 89 97.000000 1.000000 4.000000 1.000000 -60.708740 114.000000 50.000000 0.023755 -0.627411 0.778326
1680.00000000 930.00000000 -160.00000000 90 243 89 97.000000 1.000000 4.000000 1.000000 -60.708740 114.000000 50.000000 -0.300701 0.784369 -0.542535
1770.00000000 950.00000000 -200.00000000 90 243 89 97.000000 1.000000 4.000000 1.000000 -60.708740 114.000000 50.000000 0.426478 -0.582466 0.691990
1770.00000000 920.00000000 -280.00000000 90 243 89 97.000000 1.000000 4.000000 1.000000 -60.708740 114.000000 50.000000 -0.258715 -0.655517 0.709482
1730.00000000 940.00000000 -260.00000000 90 243 89 97.000000 1.000000 4.000000 1.000000 -60.708740 114.000000 50.000000 0.256523 -0.477716 0.840228
1680.00000000 960.00000000 -250.00000000 90 243 89 97.000000 1.000000 4.000000 1.000000 -60.708740 114.000000 50.000000 0.315972 -0.678934 0.662730
1700.00000000 930.00000000 -210.00000000 90 243 89 97.000000 1.000000 4.000000 1.000000 -60.708740 114.000000 50.000000 -0.085844 -0.653288 0.752227
1710.00000000 920.00000000 -250.00000000 90 243 89 97.000000 1.000000 4.000000 1.000000 -60.708740 114.000000 50.000000 0.547885 -0.632175 0.547885
1700.00000000 920.00000000 -240.00000000 90 243 89 97.000000 1.000000 4.000000 1.000000 -60.708740 114.000000 50.000000 -0.374675 0.773679 -0.510920
1720.00000000 970.00000000 -350.00000000 90 243 89 97.000000 1.000000 4.000000 1.000000 -60.708740 114.000000 50.000000 0.315188 -0.651389 0.690181
1700.00000000 970.00000000 -340.00000000 90 243 89 97.000000 1.000000 4.000000 1.000000 -60.708740 114.000000 50.000000 0.280363 -0.427438 0.859473
1710.00000000 970.00000000 -350.00000000 90 243 89 97.000000 1.000000 4.000000 1.000000 -60.708740 114.000000 50.000000 0.268840 -0.501938 0.822060
1690.00000000 960.00000000 -350.00000000 90 243 89 97.000000 1.000000 4.000000 1.000000 -60.708740 114.000000 50.000000 0.458669 -0.445611 0.768801
1680.00000000 900.00000000 -300.00000000 90 243 89 97.000000 1.000000 4.000000 1.000000 -60.708740 114.000000 50.000000 0.428192 -0.547226 0.719164
1680.00000000 930.00000000 -290.00000000 90 243 89 97.000000 1.000000 4.000000 1.000000 -60.708740 114.000000 50.000000 -0.407183 0.815962 -0.410376
1680.00000000 920.00000000 -290.00000000 90 243 89 97.000000 1.000000 4.000000 1.000000 -60.708740 114.000000 50.000000 0.446731 -0.459822 0.767460
1680.00000000 900.00000000 -340.00000000 90 243 89 97.000000 1.000000 4.000000 1.000000 -60.708740 114.000000 50.000000 -0.240660 0.712543 -0.659063
1680.00000000 910.00000000 -320.00000000 90 243 89 97.000000 1.000000 4.000000 1.000000 -60.708740 114.000000 50.000000 0.093864 -0.452509 0.886806
1690.00000000 900.00000000 -340.00000000 90 243 89 97.000000 1.000000 4.000000 1.000000 -60.708740 114.000000 50.000000 -0.427762 0.640810 -0.637481
1700.00000000 880.00000000 -320.00000000 90 243 89 97.000000 1.000000 4.000000 1.000000 -60.708740 114.000000 50.000000 -0.410302 0.723384 -0.555309
1690.00000000 950.00000000 -360.00000000 90 243 89 97.000000 1.000000 4.000000 1.000000 -60.708740 114.000000 50.000000 -0.208681 -0.616768 0.758980
1710.00000000 950.00000000 -360.00000000 90 243 89 97.000000 1.000000 4.000000 1.000000 -60.708740 114.000000 50.000000 0.250601 -0.378126 0.891190
1700.00000000 920.00000000 -390.00000000 90 243 89 97.000000 1.000000 4.000000 1.000000 -60.708740 114.000000 50.000000 -0.135470 -0.505462 0.852148
1700.00000000 900.00000000 -420.00000000 90 243 89 97.000000 1.000000 4.000000 1.000000 -60.708740 114.000000 50.000000 -0.006701 -0.502609 0.864488
1700.00000000 900.00000000 -420.00000000 90 243 89 97.000000 1.000000 4.000000 1.000000 -60.708740 114.000000 50.000000 -0.006701 -0.502609 0.864488
1690.00000000 940.00000000 -470.00000000 90 243 89 97.000000 1.000000 4.000000 1.000000 -60.708740 114.000000 50.000000 0.228424 -0.519702 0.823245
1680.00000000 950.00000000 -510.00000000 90 243 89 97.000000 1.000000 4.000000 1.000000 -60.708740 114.000000 50.000000 -0.036735 -0.483003 0.874848
1680.00000000 930.00000000 -520.00000000 90 243 89 97.000000 1.000000 4.000000 1.000000 -60.708740 114.000000 50.000000 0.092219 -0.701160 0.707015
1690.00000000 870.00000000 -460.00000000 90 243 89 97.000000 1.000000 4.000000 1.000000 -60.708740 114.000000 50.000000 0.116419 -0.362954 0.924506
1690.00000000 960.00000000 -540.00000000 90 243 89 97.000000 1.000000 4.000000 1.000000 -60.708740 114.000000 50.000000 0.037424 0.841354 -0.539187
1690.00000000 960.00000000 -540.00000000 90 243 89 97.000000 1.000000 4.000000 1.000000 -60.708740 114.000000 50.000000 0.037424 0.841354 -0.539187
1700.00000000 970.00000000 -530.00000000 90 243 89 97.000000 1.000000 4.000000 1.000000 -60.708740 114.000000 50.000000 -0.268139 -0.485130 0.832316
1680.00000000 960.00000000 -550.00000000 90 243 89 97.000000 1.000000 4.000000 1.000000 -60.708740 114.000000 50.000000 0.362304 -0.435081 0.824281
1680.00000000 920.00000000 -540.00000000 90 243 89 97.000000 1.000000 4.000000 1.000000 -60.708740 114.000000 50.000000 0.296968 0.711118 -0.637277
1680.00000000 930.00000000 -660.00000000 90 243 89 97.000000 1.000000 4.000000 1.000000 -60.708740 114.000000 50.000000 -0.142304 0.777431 -0.612658
1650.00000000 1350.00000000 -90.00000000 90 243 89 97.000000 1.000000 4.000000 1.000000 -60.708740 114.000000 50.000000 0.300467 -0.786938 0.538933
1600.00000000 1340.00000000 -30.00000000 90 243 89 97.000000 1.000000 4.000000 1.000000 -60.708740 114.000000 50.000000 -0.337405 0.938117 -0.078066
1650.00000000 1350.00000000 -110.00000000 90 243 89 97.000000 1.000000 4.000000 1.000000 -60.708740 114.000000 50.000000 -0.177282 0.844698 -0.505031
1600.00000000 1340.00000000 -130.00000000 90 243 89 97.000000 1.000000 4.000000 1.000000 -60.708740 114.000000 50.000000 -0.694092 0.706137 -0.140023
1570.00000000 1340.00000000 -30.00000000 90 243 89 97.000000 1.000000 4.000000 1.000000 -60.708740 114.000000 50.000000 -0.294636 0.943650 -0.150712
1590.00000000 1340.00000000 -50.00000000 90 243 89 97.000000 1.000000 4.000000 1.000000 -60.708740 114.000000 50.000000 -0.235440 0.902275 -0.361203
1590.00000000 1340.00000000 -50.00000000 90 243 89 97.000000 1.000000 4.000000 1.000000 -60.708740 114.000000 50.000000 -0.235440 0.902275 -0.361203
1580.00000000 1350.00000000 -90.00000000 90 243 89 97.000000 1.000000 4.000000 1.000000 -60.708740 114.000000 50.000000 -0.375783 0.874799 -0.305799
1550.00000000 1320.00000000 -40.00000000 90 243 89 97.000000 1.000000 4.000000 1.000000 -60.708740 114.000000 50.000000 -0.354456 0.919327 -0.170873
1530.00000000 1330.00000000 -30.00000000 90 243 89 97.000000 1.000000 4.000000 1.000000 -60.708740 114.000000 50.000000 -0.366594 0.887308 -0.279809
1580.00000000 1340.00000000 -110.00000000 90 243 89 97.000000 1.000000 4.000000 1.000000 -60.708740 114.000000 50.000000 -0.659767 0.744993 -0.098451
1560.00000000 1310.00000000 -20.00000000 90 243 89 97.000000 1.000000 4.000000 1.000000 -60.708740 114.000000 50.000000 -0.417076 0.902503 0.107408
1660.00000000 990.00000000 -170.00000000 90 243 89 97.000000 1.000000 4.000000 1.000000 -60.708740 114.000000 50.000000 0.336346 -0.706815 0.622322
1620.00000000 1030.00000000 -120.00000000 90 243 89 97.000000 1.000000 4.000000 1.000000 -60.708740 114.000000 50.000000 -0.009741 0.994652 -0.102820
1620.00000000 990.00000000 -110.00000000 90 243 89 97.000000 1.000000 4.000000 1.000000 -60.708740 114.000000 50.000000 -0.223207 0.870359 -0.438924
1600.00000000 1010.00000000 -140.00000000 90 243 89 97.000000 1.000000 4.000000 1.000000 -60.708740 114.000000 50.000000 -0.519436 0.846434 -0.117199
1660.00000000 1020.00000000 -220.00000000 90 243 89 97.000000 1.000000 4.000000 1.000000 -60.708740 114.000000 50.000000 -0.241064 0.791623 -0.561446
1640.00000000 990.00000000 -230.00000000 90 243 89 97.000000 1.000000 4.000000 1.000000 -60.708740 114.000000 50.000000 -0.392704 0.874866 -0.283536
1640.00000000 990.00000000 -230.00000000 90 243 89 97.000000 1.000000 4.000000 1.000000 -60.708740 114.000000 50.000000 -0.392704 0.874866 -0.283536
1660.00000000 1000.00000000 -240.00000000 90 243 89 97.000000 1.000000 4.000000 1.000000 -60.708740 114.000000 50.000000 -0.307086 0.853360 -0.421279
1600.00000000 1040.00000000 -230.00000000 90 243 89 97.000000 1.000000 4.000000 1.000000 -60.708740 114.000000 50.000000 -0.403487 0.890605 -0.209813
1670.00000000 1040.00000000 -350.00000000 90 243 89 97.000000 1.000000 4.000000 1.000000 -60.708740 114.000000 50.000000 -0.462257 0.797273 -0.388167
1670.00000000 990.00000000 -330.00000000 90 243 89 97.000000 1.000000 4.000000 1.000000 -60.708740 114.000000 50.000000 0.098236 0.658324 -0.746297
1620.00000000 1030.00000000 -300.00000000 90 243 89 97.000000 1.000000 4.000000 1.000000 -60.708740 114.000000 50.000000 0.290499 -0.640382 0.711000
1630.00000000 1040.00000000 -300.00000000 90 243 89 97.000000 1.000000 4.000000 1.000000 -60.708740 114.000000 50.000000 0.270498 -0.577379 0.770366
1600.00000000 1000.00000000 -320.00000000 90 243 89 97.000000 1.000000 4.000000 1.000000 -60.708740 114.000000 50.000000 -0.362849 0.785366 -0.501538
1620.00000000 990.00000000 -320.00000000 90 243 89 97.000000 1.000000 4.000000 1.000000 -60.708740 114.000000 50.000000 -0.529882 0.697037 -0.483078
1350.00000000 1240.00000000 -150.00000000 90 243 89 97.000000 1.000000 4.000000 1.000000 -60.708740 114.000000 50.000000 -0.284648 0.850867 -0.441589
1370.00000000 1220.00000000 -50.00000000 90 243 89 97.000000 1.000000 4.000000 1.000000 -60.708740 114.000000 50.000000 0.680916 -0.705621 0.196092
1370.00000000 1190.00000000 -40.00000000 90 243 89 97.000000 1.000000 4.000000 1.000000 -60.708740 114.000000 50.000000 -0.445303 0.894643 0.036324
1360.00000000 1180.00000000 -30.00000000 90 243 89 97.000000 1.000000 4.000000 1.000000 -60.708740 114.000000 50.000000 -0.635584 0.771880 -0.015299
1350.00000000 1150.00000000 -40.00000000 90 243 89 97.000000 1.000000 4.000000 1.000000 -60.708740 114.000000 50.000000 -0.603249 0.769876 -0.208283
1350.00000000 1150.00000000 -40.00000000 90 243 89 97.000000 1.000000 4.000000 1.000000 -60.708740 114.000000 50.000000 -0.603249 0.769876 -0.208283
1350.00000000 1170.00000000 -40.00000000 90 243 89 97.000000 1.000000 4.000000 1.000000 -60.708740 114.000000 50.000000 -0.343088 0.918223 -0.197881
1350.00000000 1160.00000000 -60.00000000 90 243 89 97.000000 1.000000 4.000000 1.000000 -60.708740 114.000000 50.000000 -0.476554 0.877136 0.059397
1360.00000000 1150.00000000 -40.00000000 90 243 89 97.000000 1.000000 4.000000 1.000000 -60.708740 114.000000 50.000000 -0.466398 0.810227 -0.354972
1350.00000000 1180.00000000 -80.00000000 90 243 89 97.000000 1.000000 4.000000 1.000000 -60.708740 114.000000 50.000000 -0.350710 0.936483 -0.001257
1350.00000000 1190.00000000 -140.00000000 90 243 89 97.000000 1.000000 4.000000 1.000000 -60.708740 114.000000 50.000000 -0.512730 0.751894 -0.414443
1370.00000000 1220.00000000 -130.00000000 90 243 89 97.000000 1.000000 4.000000 1.000000 -60.708740 114.000000 50.000000 -0.614302 0.735567 -0.285611
1370.00000000 1200.00000000 -170.00000000 90 243 89 97.000000 1.000000 4.000000 1.000000 -60.708740 114.000000 50.000000 -0.143792 0.965088 -0.218926
1370.00000000 1210.00000000 -160.00000000 90 243 89 97.000000 1.000000 4.000000 1.000000 -60.708740 114.000000 50.000000 0.671804 -0.728661 0.133164
1360.00000000 1200.00000000 -180.00000000 90 243 89 97.000000 1.000000 4.000000 1.000000 -60.708740 114.000000 50.000000 -0.346478 0.904937 -0.247067
1370.00000000 1160.00000000 -120.00000000 90 243 89 97.000000 1.000000 4.000000 1.000000 -60.708740 114.000000 50.000000 -0.378685 0.762245 -0.524958
1370.00000000 1200.00000000 -230.00000000 90 243 89 97.000000 1.000000 4.000000 1.000000 -60.708740 114.000000 50.000000 -0.329487 0.868926 -0.369332
1350.00000000 1160.00000000 -230.00000000 90 243 89 97.000000 1.000000 4.000000 1.000000 -60.708740 114.000000 50.000000 -0.542520 0.771119 -0.333239
1350.00000000 1180.00000000 -250.00000000 90 243 89 97.000000 1.000000 4.000000 1.000000 -60.708740 114.000000 50.000000 -0.379029 0.766192 -0.518928
1360.00000000 1220.00000000 -280.00000000 90 243 89 97.000000 1.000000 4.000000 1.000000 -60.708740 114.000000 50.000000 0.585499 -0.716703 0.378852
1350.00000000 1200.00000000 -310.00000000 90 243 89 97.000000 1.000000 4.000000 1.000000 -60.708740 114.000000 50.000000 -0.042873 0.850543 -0.524156
1370.00000000 1120.00000000 -30.00000000 90 243 89 97.000000 1.000000 4.000000 1.000000 -60.708740 114.000000 50.000000 -0.029956 0.992997 0.114278
1360.00000000 1130.00000000 -20.00000000 90 243 89 97.000000 1.000000 4.000000 1.000000 -60.708740 114.000000 50.000000 -0.170600 0.920677 -0.351070
1350.00000000 1110.00000000 -80.00000000 90 243 89 97.000000 1.000000 4.000000 1.000000 -60.708740 114.000000 50.000000 -0.514058 0.822802 -0.242364
1350.00000000 1140.00000000 -80.00000000 90 243 89 97.000000 1.000000 4.000000 1.000000 -60.708740 114.000000 50.000000 0.017492 0.999122 -0.038072
1350.00000000 1140.00000000 -100.00000000 90 243 89 97.000000 1.000000 4.000000 1.000000 -60.708740 114.000000 50.000000 -0.405931 0.803840 -0.434812
1360.00000000 1110.00000000 -90.00000000 90 243 89 97.000000 1.000000 4.000000 1.000000 -60.708740 114.000000 50.000000 -0.406718 0.902716 -0.140297
1350.00000000 1100.00000000 -20.00000000 90 243 89 97.000000 1.000000 4.000000 1.000000 -60.708740 114.000000 50.000000 -0.234266 0.971904 -0.022826
1350.00000000 1100.00000000 -100.00000000 90 243 89 97.000000 1.000000 4.000000 1.000000 -60.708740 114.000000 50.000000 -0.514723 0.799801 -0.308834
1410.00000000 1100.00000000 -150.00000000 90 243 89 97.000000 1.000000 4.000000 1.000000 -60.708740 114.000000 50.000000 -0.076813 0.996406 0.035702
1370.00000000 1130.00000000 -110.00000000 90 243 89 97.000000 1.000000 4.000000 1.000000 -60.708740 114.000000 50.000000 -0.550251 0.781769 -0.293362
1370.00000000 1130.00000000 -110.00000000 90 243 89 97.000000 1.000000 4.000000 1.000000 -60.708740 114.000000 50.000000 -0.550251 0.781769 -0.293362
1360.00000000 1110.00000000 -110.00000000 90 243 89 97.000000 1.000000 4.000000 1.000000 -60.708740 114.000000 50.000000 -0.170866 0.976553 0.130955
1360.00000000 1130.00000000 -110.00000000 90 243 89 97.000000 1.000000 4.000000 1.000000 -60.708740 114.000000 50.000000 -0.014246 0.920784 -0.389812
1370.00000000 1120.00000000 -170.00000000 90 243 89 97.000000 1.000000 4.000000 1.000000 -60.708740 114.000000 50.000000 -0.265556 0.964003 0.013338
1360.00000000 1120.00000000 -170.00000000 90 243 89 97.000000 1.000000 4.000000 1.000000 -60.708740 114.000000 50.000000 -0.255884 0.966536 -0.018191
1370.00000000 1120.00000000 -150.00000000 90 243 89 97.000000 1.000000 4.000000 1.000000 -60.708740 114.000000 50.000000 -0.201307 0.961800 0.185518
1370.00000000 1120.00000000 -150.00000000 90 243 89 97.000000 1.000000 4.000000 1.000000 -60.708740 114.000000 50.000000 -0.201307 0.961800 0.185518
1360.00000000 1040.00000000 -30.00000000 90 243 89 97.000000 1.000000 4.000000 1.000000 -60.708740 114.000000 50.000000 -0.247293 0.968462 -0.030455
1410.00000000 1130.00000000 -270.00000000 90 243 89 97.000000 1.000000 4.000000 1.000000 -60.708740 114.000000 50.000000 0.507051 -0.648554 0.567695
1380.00000000 1130.00000000 -200.00000000 90 243 89 97.000000 1.000000 4.000000 1.000000 -60.708740 114.000000 50.000000 -0.615457 0.788169 0.001371
1360.00000000 1140.00000000 -190.00000000 90 243 89 97.000000 1.000000 4.000000 1.000000 -60.708740 114.000000 50.000000 -0.527307 0.841077 -0.120569
1350.00000000 1120.00000000 -220.00000000 90 243 89 97.000000 1.000000 4.000000 1.000000 -60.708740 114.000000 50.000000 0.025072 0.909174 -0.415660
1360.00000000 1140.00000000 -190.00000000 90 243 89 97.000000 1.000000 4.000000 1.000000 -60.708740 114.000000 50.000000 -0.527307 0.841077 -0.120569
1380.00000000 1130.00000000 -200.00000000 90 243 89 97.000000 1.000000 4.000000 1.000000 -60.708740 114.000000 50.000000 -0.615457 0.788169 0.001371
1380.00000000 1130.00000000 -200.00000000 90 243 89 97.000000 1.000000 4.000000 1.000000 -60.708740 114.000000 50.000000 -0.615457 0.788169 0.001371
1360.00000000 1070.00000000 -230.00000000 90 243 89 97.000000 1.000000 4.000000 1.000000 -60.708740 114.000000 50.000000 -0.343611 0.934570 -0.092254
1400.00000000 1110.00000000 -350.00000000 90 243 89 97.000000 1.000000 4.000000 1.000000 -60.708740 114.000000 50.000000 -0.319695 0.756665 -0.570310
1400.00000000 1110.00000000 -350.00000000 90 243 89 97.000000 1.000000 4.000000 1.000000 -60.708740 114.000000 50.000000 -0.319695 0.756665 -0.570310
1400.00000000 1120.00000000 -340.00000000 90 243 89 97.000000 1.000000 4.000000 1.000000 -60.708740 114.000000 50.000000 -0.406789 0.655843 -0.635919
1370.00000000 1110.00000000 -310.00000000 90 243 89 97.000000 1.000000 4.000000 1.000000 -60.708740 114.000000 50.000000 0.025325 0.897054 -0.441196
1360.00000000 1110.00000000 -350.00000000 90 243 89 97.000000 1.000000 4.000000 1.000000 -60.708740 114.000000 50.000000 -0.306110 0.821002 -0.481926
1360.00000000 1080.00000000 -340.00000000 90 243 89 97.000000 1.000000 4.000000 1.000000 -60.708740 114.000000 50.000000 -0.186727 0.809150 -0.557144
1420.00000000 1020.00000000 -350.00000000 90 243 89 97.000000 1.000000 4.000000 1.000000 -60.708740 114.000000 50.000000 -0.518047 0.800042 -0.302590
1360.00000000 1060.00000000 -350.00000000 90 243 89 97.000000 1.000000 4.000000 1.000000 -60.708740 114.000000 50.000000 -0.584083 0.644680 -0.493188
1350.00000000 1060.00000000 -350.00000000 90 243 89 97.000000 1.000000 4.000000 1.000000 -60.708740 114.000000 50.000000 -0.117261 0.849784 -0.513924
1360.00000000 1060.00000000 -350.00000000 90 243 89 97.000000 1.000000 4.000000 1.000000 -60.708740 114.000000 50.000000 -0.584083 0.644680 -0.493188
1350.00000000 1050.00000000 -350.00000000 90 243 89 97.000000 1.000000 4.000000 1.000000 -60.708740 114.000000 50.000000 0.359187 -0.687211 0.631447
1350.00000000 1000.00000000 -330.00000000 90 243 89 97.000000 1.000000 4.000000 1.000000 -60.708740 114.000000 50.000000 -0.172132 0.937775 -0.301575
1670.00000000 1130.00000000 -420.00000000 90 243 89 97.000000 1.000000 4.000000 1.000000 -60.708740 114.000000 50.000000 0.511425 -0.605946 0.609322
1660.00000000 1140.00000000 -410.00000000 90 243 89 97.000000 1.000000 4.000000 1.000000 -60.708740 114.000000 50.000000 -0.406087 0.868448 -0.284413
1610.00000000 1000.00000000 -440.00000000 90 243 89 97.000000 1.000000 4.000000 1.000000 -60.708740 114.000000 50.000000 -0.245691 0.780890 -0.574322
1610.00000000 1000.00000000 -440.00000000 90 243 89 97.000000 1.000000 4.000000 1.000000 -60.708740 114.000000 50.000000 -0.245691 0.780890 -0.574322
1660.00000000 1000.00000000 -470.00000000 90 243 89 97.000000 1.000000 4.000000 1.000000 -60.708740 114.000000 50.000000 -0.206260 -0.551555 0.808235
1670.00000000 980.00000000 -480.00000000 90 243 89 97.000000 1.000000 4.000000 1.000000 -60.708740 114.000000 50.000000 0.218867 -0.613139 0.759051
1610.00000000 1010.00000000 -490.00000000 90 243 89 97.000000 1.000000 4.000000 1.000000 -60.708740 114.000000 50.000000 0.454756 -0.544707 0.704621
1610.00000000 990.00000000 -500.00000000 90 243 89 97.000000 1.000000 4.000000 1.000000 -60.708740 114.000000 50.000000 0.200059 -0.554363 0.807873
1590.00000000 1000.00000000 -430.00000000 90 243 89 97.000000 1.000000 4.000000 1.000000 -60.708740 114.000000 50.000000 0.165187 -0.610739 0.774410
1580.00000000 990.00000000 -460.00000000 90 243 89 97.000000 1.000000 4.000000 1.000000 -60.708740 114.000000 50.000000 0.467578 -0.490709 0.735238
1580.00000000 990.00000000 -490.00000000 90 243 89 97.000000 1.000000 4.000000 1.000000 -60.708740 114.000000 50.000000 -0.050672 -0.339112 0.939380
1640.00000000 990.00000000 -560.00000000 90 243 89 97.000000 1.000000 4.000000 1.000000 -60.708740 114.000000 50.000000 0.369752 -0.430055 0.823611
1630.00000000 1000.00000000 -560.00000000 90 243 89 97.000000 1.000000 4.000000 1.000000 -60.708740 114.000000 50.000000 0.394344 -0.452288 0.799955
1620.00000000 1010.00000000 -600.00000000 90 243 89 97.000000 1.000000 4.000000 1.000000 -60.708740 114.000000 50.000000 0.101542 -0.707853 0.699023
1570.00000000 1020.00000000 -550.00000000 90 243 89 97.000000 1.000000 4.000000 1.000000 -60.708740 114.000000 50.000000 0.486852 -0.457146 0.744307
1570.00000000 1010.00000000 -560.00000000 90 243 89 97.000000 1.000000 4.000000 1.000000 -60.708740 114.000000 50.000000 -0.276375 0.707712 -0.650200
1590.00000000 980.00000000 -560.00000000 90 243 89 97.000000 1.000000 4.000000 1.000000 -60.708740 114.000000 50.000000 0.230229 -0.283902 0.930803
1560.00000000 980.00000000 -650.00000000 90 243 89 97.000000 1.000000 4.000000 1.000000 -60.708740 114.000000 50.000000 0.276727 -0.270992 0.921946
1570.00000000 980.00000000 -610.00000000 90 243 89 97.000000 1.000000 4.000000 1.000000 -60.708740 114.000000 50.000000 -0.001251 -0.341642 0.939829
1540.00000000 980.00000000 -630.00000000 90 243 89 97.000000 1.000000 4.000000 1.000000 -60.708740 114.000000 50.000000 -0.229407 -0.475526 0.849263
1440.00000000 1120.00000000 -410.00000000 90 243 89 97.000000 1.000000 4.000000 1.000000 -60.708740 114.000000 50.000000 -0.540810 0.638526 -0.547549
1440.00000000 980.00000000 -520.00000000 90 243 89 97.000000 1.000000 4.000000 1.000000 -60.708740 114.000000 50.000000 0.091984 -0.493883 0.864649
1370.00000000 1110.00000000 -380.00000000 90 243 89 97.000000 1.000000 4.000000 1.000000 -60.708740 114.000000 50.000000 -0.054947 0.973166 -0.223450
1380.00000000 1120.00000000 -360.00000000 90 243 89 97.000000 1.000000 4.000000 1.000000 -60.708740 114.000000 50.000000 -0.357777 0.924143 -0.133994
1380.00000000 1100.00000000 -380.00000000 90 243 89 97.000000 1.000000 4.000000 1.000000 -60.708740 114.000000 50.000000 0.272469 -0.724990 0.632574
1380.00000000 1090.00000000 -400.00000000 90 243 89 97.000000 1.000000 4.000000 1.000000 -60.708740 114.000000 50.000000 -0.268808 0.793850 -0.545477
1390.00000000 1110.00000000 -480.00000000 90 243 89 97.000000 1.000000 4.000000 1.000000 -60.708740 114.000000 50.000000 -0.438451 0.757026 -0.484431
1400.00000000 1120.00000000 -470.00000000 90 243 89 97.000000 1.000000 4.000000 1.000000 -60.708740 114.000000 50.000000 -0.373772 0.898519 -0.230126
1390.00000000 1090.00000000 -500.00000000 90 243 89 97.000000 1.000000 4.000000 1.000000 -60.708740 114.000000 50.000000 -0.462026 0.814500 -0.350886
1380.00000000 1110.00000000 -470.00000000 90 243 89 97.000000 1.000000 4.000000 1.000000 -60.708740 114.000000 50.000000 0.146809 0.825989 -0.544233
1380.00000000 1110.00000000 -470.00000000 90 243 89 97.000000 1.000000 4.000000 1.000000 -60.708740 114.000000 50.000000 0.146809 0.825989 -0.544233
1370.00000000 1060.00000000 -370.00000000 90 243 89 97.000000 1.000000 4.000000 1.000000 -60.708740 114.000000 50.000000 -0.253305 0.906333 -0.338228
1350.00000000 1060.00000000 -360.00000000 90 243 89 97.000000 1.000000 4.000000 1.000000 -60.708740 114.000000 50.000000 0.089407 0.968367 -0.232962
1380.00000000 980.00000000 -410.00000000 90 243 89 97.000000 1.000000 4.000000 1.000000 -60.708740 114.000000 50.000000 0.286593 -0.661245 0.693267
1390.00000000 1060.00000000 -480.00000000 90 243 89 97.000000 1.000000 4.000000 1.000000 -60.708740 114.000000 50.000000 0.120208 0.746476 -0.654465
1350.00000000 1040.00000000 -510.00000000 90 243 89 97.000000 1.000000 4.000000 1.000000 -60.708740 114.000000 50.000000 -0.191365 -0.604712 0.773113
1350.00000000 980.00000000 -480.00000000 90 243 89 97.000000 1.000000 4.000000 1.000000 -60.708740 114.000000 50.000000 -0.008816 0.940819 -0.338795
1430.00000000 1020.00000000 -590.00000000 90 243 89 97.000000 1.000000 4.000000 1.000000 -60.708740 114.000000 50.000000 0.320082 -0.520730 0.791446
1430.00000000 980.00000000 -550.00000000 90 243 89 97.000000 1.000000 4.000000 1.000000 -60.708740 114.000000 50.000000 -0.129514 -0.617798 0.775597
1440.00000000 1010.00000000 -600.00000000 90 243 89 97.000000 1.000000 4.000000 1.000000 -60.708740 114.000000 50.000000 -0.085368 0.797253 -0.597578
1450.00000000 1000.00000000 -600.00000000 90 243 89 97.000000 1.000000 4.000000 1.000000 -60.708740 114.000000 50.000000 -0.205650 -0.632413 0.746835
1440.00000000 1010.00000000 -570.00000000 90 243 89 97.000000 1.000000 4.000000 1.000000 -60.708740 114.000000 50.000000 -0.058045 -0.581864 0.811212
1430.00000000 980.00000000 -620.00000000 90 243 89 97.000000 1.000000 4.000000 1.000000 -60.708740 114.000000 50.000000 0.095777 0.847694 -0.521768
1410.00000000 1000.00000000 -590.00000000 90 243 89 97.000000 1.000000 4.000000 1.000000 -60.708740 114.000000 50.000000 0.170286 0.851431 -0.496051
1350.00000000 980.00000000 -620.00000000 90 243 89 97.000000 1.000000 4.000000 1.000000 -60.708740 114.000000 50.000000 -0.240185 -0.632645 0.736255
1310.00000000 1240.00000000 -50.00000000 90 243 89 97.000000 1.000000 4.000000 1.000000 -60.708740 114.000000 50.000000 -0.307585 0.933889 -0.182324
1300.00000000 1230.00000000 -50.00000000 90 243 89 97.000000 1.000000 4.000000 1.000000 -60.708740 114.000000 50.000000 -0.683205 0.719085 -0.127073
