//X Y Z R G B PointSourceId ScanDirectionFlag NumberOfReturns ReturnNumber GpsTime Intensity Classification Nx Ny Nz
8760.00000000 -9240.00000000 -710.00000000 140 165 103 0.000000 0.000000 0.000000 0.000000 -60.708740 0.000000 125.000000 -0.165958 0.979767 -0.111868
8800.00000000 -9250.00000000 -770.00000000 140 165 103 0.000000 0.000000 0.000000 0.000000 -60.708740 0.000000 125.000000 -0.484526 0.862835 -0.144048
8780.00000000 -9280.00000000 -830.00000000 140 165 103 0.000000 0.000000 0.000000 0.000000 -60.708740 0.000000 125.000000 -0.334208 0.836304 -0.434627
8790.00000000 -9280.00000000 -830.00000000 140 165 103 0.000000 0.000000 0.000000 0.000000 -60.708740 0.000000 125.000000 -0.223478 0.865416 -0.448456
8890.00000000 -9380.00000000 -710.00000000 140 165 103 0.000000 0.000000 0.000000 0.000000 -60.708740 0.000000 125.000000 -0.379719 0.907027 -0.181978
8920.00000000 -9370.00000000 -740.00000000 140 165 103 0.000000 0.000000 0.000000 0.000000 -60.708740 0.000000 125.000000 0.177337 0.979634 0.094172
8860.00000000 -9350.00000000 -750.00000000 140 165 103 0.000000 0.000000 0.000000 0.000000 -60.708740 0.000000 125.000000 -0.191199 0.933663 -0.302847
8910.00000000 -9320.00000000 -800.00000000 140 165 103 0.000000 0.000000 0.000000 0.000000 -60.708740 0.000000 125.000000 -0.415781 0.875092 -0.247668
9020.00000000 -9500.00000000 -750.00000000 140 165 103 0.000000 0.000000 0.000000 0.000000 -60.708740 0.000000 125.000000 -0.014246 0.920784 -0.389812
8950.00000000 -9600.00000000 -750.00000000 140 165 103 0.000000 0.000000 0.000000 0.000000 -60.708740 0.000000 125.000000 0.370994 0.898890 -0.233154
8940.00000000 -9620.00000000 -830.00000000 140 165 103 0.000000 0.000000 0.000000 0.000000 -60.708740 0.000000 125.000000 0.029533 0.936079 -0.350548
8940.00000000 -9600.00000000 -840.00000000 140 165 103 0.000000 0.000000 0.000000 0.000000 -60.708740 0.000000 125.000000 0.295678 0.827586 -0.477153
8960.00000000 -9600.00000000 -800.00000000 140 165 103 0.000000 0.000000 0.000000 0.000000 -60.708740 0.000000 125.000000 0.058450 0.791216 -0.608737
8840.00000000 -9480.00000000 -800.00000000 140 165 103 0.000000 0.000000 0.000000 0.000000 -60.708740 0.000000 125.000000 -0.188376 0.981661 0.029251
8900.00000000 -9590.00000000 -820.00000000 140 165 103 0.000000 0.000000 0.000000 0.000000 -60.708740 0.000000 125.000000 -0.053508 0.882188 -0.467848
8850.00000000 -9580.00000000 -810.00000000 140 165 103 0.000000 0.000000 0.000000 0.000000 -60.708740 0.000000 125.000000 0.052023 0.955440 -0.290565
8830.00000000 -9540.00000000 -750.00000000 140 165 103 0.000000 0.000000 0.000000 0.000000 -60.708740 0.000000 125.000000 -0.289453 0.920200 0.263532
8780.00000000 -9510.00000000 -810.00000000 140 165 103 0.000000 0.000000 0.000000 0.000000 -60.708740 0.000000 125.000000 -0.574608 0.776114 -0.259754
8820.00000000 -9590.00000000 -790.00000000 140 165 103 0.000000 0.000000 0.000000 0.000000 -60.708740 0.000000 125.000000 -0.102747 0.967848 -0.229594
8780.00000000 -9520.00000000 -910.00000000 140 165 103 0.000000 0.000000 0.000000 0.000000 -60.708740 0.000000 125.000000 -0.101730 0.961924 -0.253680
8770.00000000 -9530.00000000 -900.00000000 140 165 103 0.000000 0.000000 0.000000 0.000000 -60.708740 0.000000 125.000000 -0.306731 0.890269 -0.336656
8760.00000000 -9600.00000000 -880.00000000 140 165 103 0.000000 0.000000 0.000000 0.000000 -60.708740 0.000000 125.000000 -0.585296 0.770457 -0.252635
8800.00000000 -9580.00000000 -890.00000000 140 165 103 0.000000 0.000000 0.000000 0.000000 -60.708740 0.000000 125.000000 -0.306832 0.905815 -0.292151
8880.00000000 -9670.00000000 -810.00000000 140 165 103 0.000000 0.000000 0.000000 0.000000 -60.708740 0.000000 125.000000 -0.102116 0.945564 -0.308999
8790.00000000 -9640.00000000 -820.00000000 140 165 103 0.000000 0.000000 0.000000 0.000000 -60.708740 0.000000 125.000000 0.705002 -0.643977 0.297096
8900.00000000 -9680.00000000 -800.00000000 140 165 103 0.000000 0.000000 0.000000 0.000000 -60.708740 0.000000 125.000000 -0.070753 0.878175 -0.473077
8900.00000000 -9650.00000000 -880.00000000 140 165 103 0.000000 0.000000 0.000000 0.000000 -60.708740 0.000000 125.000000 0.064042 0.939720 -0.335894
8600.00000000 -9360.00000000 -740.00000000 140 165 103 0.000000 0.000000 0.000000 0.000000 -60.708740 0.000000 125.000000 -0.286846 0.956575 0.051809
8480.00000000 -9270.00000000 -730.00000000 140 165 103 0.000000 0.000000 0.000000 0.000000 -60.708740 0.000000 125.000000 0.835393 -0.534008 0.130210
8520.00000000 -9300.00000000 -730.00000000 140 165 103 0.000000 0.000000 0.000000 0.000000 -60.708740 0.000000 125.000000 -0.421696 0.898397 -0.122701
8760.00000000 -9820.00000000 -270.00000000 140 165 103 0.000000 0.000000 0.000000 0.000000 -60.708740 0.000000 125.000000 0.919829 0.375356 -0.114119
8750.00000000 -9820.00000000 -180.00000000 140 165 103 0.000000 0.000000 0.000000 0.000000 -60.708740 0.000000 125.000000 0.738664 0.133349 -0.660752
8680.00000000 -9910.00000000 -90.00000000 140 165 103 0.000000 0.000000 0.000000 0.000000 -60.708740 0.000000 125.000000 0.884977 0.419665 -0.201734
8680.00000000 -9920.00000000 -30.00000000 140 165 103 0.000000 0.000000 0.000000 0.000000 -60.708740 0.000000 125.000000 0.922513 0.322666 -0.211794
8670.00000000 -9910.00000000 -120.00000000 140 165 103 0.000000 0.000000 0.000000 0.000000 -60.708740 0.000000 125.000000 -0.707879 -0.165933 0.686567
8660.00000000 -9810.00000000 -100.00000000 140 165 103 0.000000 0.000000 0.000000 0.000000 -60.708740 0.000000 125.000000 0.906671 0.399048 -0.136776
8590.00000000 -9890.00000000 -60.00000000 140 165 103 0.000000 0.000000 0.000000 0.000000 -60.708740 0.000000 125.000000 0.733053 0.642398 -0.223511
8750.00000000 -9840.00000000 -250.00000000 140 165 103 0.000000 0.000000 0.000000 0.000000 -60.708740 0.000000 125.000000 0.811217 0.562304 -0.160444
8690.00000000 -9870.00000000 -200.00000000 140 165 103 0.000000 0.000000 0.000000 0.000000 -60.708740 0.000000 125.000000 0.805416 0.173776 -0.566662
8650.00000000 -9840.00000000 -190.00000000 140 165 103 0.000000 0.000000 0.000000 0.000000 -60.708740 0.000000 125.000000 0.748510 0.306136 -0.588229
8660.00000000 -9830.00000000 -320.00000000 140 165 103 0.000000 0.000000 0.000000 0.000000 -60.708740 0.000000 125.000000 0.844175 0.306266 -0.439966
9220.00000000 -9090.00000000 870.00000000 140 165 103 0.000000 0.000000 0.000000 0.000000 -60.708740 0.000000 130.000000 0.875126 -0.426343 -0.228879
9170.00000000 -9120.00000000 970.00000000 140 165 103 0.000000 0.000000 0.000000 0.000000 -60.708740 0.000000 130.000000 0.768686 -0.491241 -0.409639
9230.00000000 -9120.00000000 690.00000000 140 165 103 0.000000 0.000000 0.000000 0.000000 -60.708740 0.000000 130.000000 -0.394649 0.908676 0.136231
9160.00000000 -9080.00000000 800.00000000 140 165 103 0.000000 0.000000 0.000000 0.000000 -60.708740 0.000000 130.000000 0.908287 -0.418100 -0.014417
9690.00000000 -8830.00000000 550.00000000 140 165 103 0.000000 0.000000 0.000000 0.000000 -60.708740 0.000000 130.000000 -0.109253 0.973235 -0.202182
9650.00000000 -8890.00000000 500.00000000 140 165 103 0.000000 0.000000 0.000000 0.000000 -60.708740 0.000000 130.000000 -0.064139 0.899305 -0.432594
9710.00000000 -8910.00000000 420.00000000 140 165 103 0.000000 0.000000 0.000000 0.000000 -60.708740 0.000000 130.000000 -0.172211 -0.742182 0.647695
9690.00000000 -8920.00000000 340.00000000 140 165 103 0.000000 0.000000 0.000000 0.000000 -60.708740 0.000000 130.000000 0.486404 0.783741 -0.386214
9680.00000000 -8920.00000000 330.00000000 140 165 103 0.000000 0.000000 0.000000 0.000000 -60.708740 0.000000 130.000000 0.485539 0.807109 -0.335897
9640.00000000 -8850.00000000 450.00000000 140 165 103 0.000000 0.000000 0.000000 0.000000 -60.708740 0.000000 130.000000 0.130816 0.981734 -0.138152
9430.00000000 -8910.00000000 430.00000000 140 165 103 0.000000 0.000000 0.000000 0.000000 -60.708740 0.000000 130.000000 -0.022368 0.978292 -0.206018
9580.00000000 -8970.00000000 140.00000000 140 165 103 0.000000 0.000000 0.000000 0.000000 -60.708740 0.000000 130.000000 -0.057457 0.953785 -0.294946
9570.00000000 -9120.00000000 10.00000000 140 165 103 0.000000 0.000000 0.000000 0.000000 -60.708740 0.000000 130.000000 0.730911 0.653648 -0.196249
9300.00000000 -8950.00000000 530.00000000 140 165 103 0.000000 0.000000 0.000000 0.000000 -60.708740 0.000000 130.000000 -0.471093 0.881789 -0.022816
9400.00000000 -9050.00000000 570.00000000 140 165 103 0.000000 0.000000 0.000000 0.000000 -60.708740 0.000000 130.000000 -0.250123 0.968178 0.008377
9260.00000000 -9030.00000000 410.00000000 140 165 103 0.000000 0.000000 0.000000 0.000000 -60.708740 0.000000 130.000000 -0.035301 0.970179 0.239806
9250.00000000 -8860.00000000 350.00000000 140 165 103 0.000000 0.000000 0.000000 0.000000 -60.708740 0.000000 130.000000 -0.135578 0.956941 -0.256676
9180.00000000 -9040.00000000 510.00000000 140 165 103 0.000000 0.000000 0.000000 0.000000 -60.708740 0.000000 130.000000 -0.460443 0.887520 0.017350
9200.00000000 -9090.00000000 600.00000000 140 165 103 0.000000 0.000000 0.000000 0.000000 -60.708740 0.000000 130.000000 0.751748 -0.652101 -0.098181
9230.00000000 -9100.00000000 530.00000000 140 165 103 0.000000 0.000000 0.000000 0.000000 -60.708740 0.000000 130.000000 -0.608971 0.787135 -0.097844
9320.00000000 -8860.00000000 270.00000000 140 165 103 0.000000 0.000000 0.000000 0.000000 -60.708740 0.000000 130.000000 -0.073459 0.981461 -0.177024
9260.00000000 -8950.00000000 200.00000000 140 165 103 0.000000 0.000000 0.000000 0.000000 -60.708740 0.000000 130.000000 -0.341409 0.938550 -0.050627
9340.00000000 -8880.00000000 130.00000000 140 165 103 0.000000 0.000000 0.000000 0.000000 -60.708740 0.000000 130.000000 -0.164805 0.932048 -0.322685
9360.00000000 -9060.00000000 220.00000000 140 165 103 0.000000 0.000000 0.000000 0.000000 -60.708740 0.000000 130.000000 0.235674 0.970781 -0.045181
9270.00000000 -9010.00000000 60.00000000 140 165 103 0.000000 0.000000 0.000000 0.000000 -60.708740 0.000000 130.000000 -0.226538 0.932886 -0.280007
9410.00000000 -9080.00000000 50.00000000 140 165 103 0.000000 0.000000 0.000000 0.000000 -60.708740 0.000000 130.000000 0.400237 0.814824 -0.419371
9320.00000000 -9080.00000000 60.00000000 140 165 103 0.000000 0.000000 0.000000 0.000000 -60.708740 0.000000 130.000000 0.446582 0.825308 -0.345588
9200.00000000 -9000.00000000 280.00000000 140 165 103 0.000000 0.000000 0.000000 0.000000 -60.708740 0.000000 130.000000 -0.582589 0.801987 -0.131935
9230.00000000 -9010.00000000 310.00000000 140 165 103 0.000000 0.000000 0.000000 0.000000 -60.708740 0.000000 130.000000 -0.111197 0.981218 0.157630
9230.00000000 -9020.00000000 -10.00000000 140 165 103 0.000000 0.000000 0.000000 0.000000 -60.708740 0.000000 130.000000 0.082154 0.995704 0.042720
9180.00000000 -8990.00000000 20.00000000 140 165 103 0.000000 0.000000 0.000000 0.000000 -60.708740 0.000000 130.000000 -0.470333 0.822690 -0.319323
9250.00000000 -9010.00000000 60.00000000 140 165 103 0.000000 0.000000 0.000000 0.000000 -60.708740 0.000000 130.000000 -0.274272 0.952664 0.131173
9220.00000000 -9050.00000000 140.00000000 140 165 103 0.000000 0.000000 0.000000 0.000000 -60.708740 0.000000 130.000000 -0.445479 0.886688 -0.123823
9250.00000000 -9050.00000000 140.00000000 140 165 103 0.000000 0.000000 0.000000 0.000000 -60.708740 0.000000 130.000000 -0.081651 0.978597 -0.188895
9170.00000000 -9050.00000000 110.00000000 140 165 103 0.000000 0.000000 0.000000 0.000000 -60.708740 0.000000 130.000000 -0.481145 0.822804 -0.302478
9870.00000000 -9270.00000000 770.00000000 140 165 103 0.000000 0.000000 0.000000 0.000000 -60.708740 0.000000 130.000000 0.728957 0.006942 -0.684525
9800.00000000 -9280.00000000 720.00000000 140 165 103 0.000000 0.000000 0.000000 0.000000 -60.708740 0.000000 130.000000 0.551388 0.347649 -0.758361
9780.00000000 -9280.00000000 660.00000000 140 165 103 0.000000 0.000000 0.000000 0.000000 -60.708740 0.000000 130.000000 0.696722 0.430671 -0.573673
9840.00000000 -9250.00000000 730.00000000 140 165 103 0.000000 0.000000 0.000000 0.000000 -60.708740 0.000000 130.000000 0.873068 0.438765 -0.212690
9880.00000000 -9400.00000000 700.00000000 140 165 103 0.000000 0.000000 0.000000 0.000000 -60.708740 0.000000 130.000000 0.858226 0.135051 -0.495186
9840.00000000 -9340.00000000 670.00000000 140 165 103 0.000000 0.000000 0.000000 0.000000 -60.708740 0.000000 130.000000 0.736062 0.325161 -0.593703
9780.00000000 -9290.00000000 70.00000000 140 165 103 0.000000 0.000000 0.000000 0.000000 -60.708740 0.000000 130.000000 0.807502 0.449323 -0.382164
9850.00000000 -9310.00000000 230.00000000 140 165 103 0.000000 0.000000 0.000000 0.000000 -60.708740 0.000000 130.000000 0.987798 0.097720 -0.121267
9770.00000000 -9360.00000000 70.00000000 140 165 103 0.000000 0.000000 0.000000 0.000000 -60.708740 0.000000 130.000000 0.844165 0.063207 -0.532344
9760.00000000 -9250.00000000 690.00000000 140 165 103 0.000000 0.000000 0.000000 0.000000 -60.708740 0.000000 130.000000 0.479950 0.553531 -0.680626
9750.00000000 -9320.00000000 680.00000000 140 165 103 0.000000 0.000000 0.000000 0.000000 -60.708740 0.000000 130.000000 0.800911 -0.082256 -0.593107
9220.00000000 -9190.00000000 980.00000000 140 165 103 0.000000 0.000000 0.000000 0.000000 -60.708740 0.000000 130.000000 0.882122 -0.246278 -0.401507
9210.00000000 -9170.00000000 880.00000000 140 165 103 0.000000 0.000000 0.000000 0.000000 -60.708740 0.000000 130.000000 0.786521 -0.597034 -0.157906
9200.00000000 -9170.00000000 900.00000000 140 165 103 0.000000 0.000000 0.000000 0.000000 -60.708740 0.000000 130.000000 0.708890 -0.495389 -0.502061
9140.00000000 -9570.00000000 780.00000000 140 165 103 0.000000 0.000000 0.000000 0.000000 -60.708740 0.000000 125.000000 0.642607 0.632592 -0.432299
9090.00000000 -9610.00000000 810.00000000 140 165 103 0.000000 0.000000 0.000000 0.000000 -60.708740 0.000000 125.000000 -0.622322 -0.336346 0.706815
9740.00000000 -9280.00000000 500.00000000 140 165 103 0.000000 0.000000 0.000000 0.000000 -60.708740 0.000000 130.000000 0.848419 0.525879 -0.060301
9720.00000000 -9210.00000000 420.00000000 140 165 103 0.000000 0.000000 0.000000 0.000000 -60.708740 0.000000 130.000000 0.597526 0.794254 -0.110109
9720.00000000 -9250.00000000 400.00000000 140 165 103 0.000000 0.000000 0.000000 0.000000 -60.708740 0.000000 130.000000 0.748111 0.328006 -0.576838
9660.00000000 -9190.00000000 430.00000000 140 165 103 0.000000 0.000000 0.000000 0.000000 -60.708740 0.000000 130.000000 0.773227 0.563646 -0.290556
9670.00000000 -9240.00000000 480.00000000 140 165 103 0.000000 0.000000 0.000000 0.000000 -60.708740 0.000000 130.000000 0.652564 0.732785 -0.192838
9670.00000000 -9290.00000000 410.00000000 140 165 103 0.000000 0.000000 0.000000 0.000000 -60.708740 0.000000 130.000000 0.890404 0.452678 -0.047579
9740.00000000 -9300.00000000 510.00000000 140 165 103 0.000000 0.000000 0.000000 0.000000 -60.708740 0.000000 130.000000 0.678253 0.470590 -0.564374
9620.00000000 -9160.00000000 310.00000000 140 165 103 0.000000 0.000000 0.000000 0.000000 -60.708740 0.000000 130.000000 0.615191 0.611820 -0.497209
9640.00000000 -9160.00000000 240.00000000 140 165 103 0.000000 0.000000 0.000000 0.000000 -60.708740 0.000000 130.000000 0.426150 0.698089 -0.575385
9610.00000000 -9180.00000000 190.00000000 140 165 103 0.000000 0.000000 0.000000 0.000000 -60.708740 0.000000 130.000000 0.471583 0.861345 -0.188931
9640.00000000 -9150.00000000 200.00000000 140 165 103 0.000000 0.000000 0.000000 0.000000 -60.708740 0.000000 130.000000 0.683761 0.667673 -0.294420
9600.00000000 -9260.00000000 310.00000000 140 165 103 0.000000 0.000000 0.000000 0.000000 -60.708740 0.000000 130.000000 0.798316 0.494348 -0.343964
9630.00000000 -9180.00000000 140.00000000 140 165 103 0.000000 0.000000 0.000000 0.000000 -60.708740 0.000000 130.000000 0.634154 0.686591 -0.355585
9610.00000000 -9130.00000000 80.00000000 140 165 103 0.000000 0.000000 0.000000 0.000000 -60.708740 0.000000 130.000000 0.545357 0.636531 -0.545357
9590.00000000 -9260.00000000 150.00000000 140 165 103 0.000000 0.000000 0.000000 0.000000 -60.708740 0.000000 130.000000 0.738366 0.660485 -0.136291
9570.00000000 -9240.00000000 50.00000000 140 165 103 0.000000 0.000000 0.000000 0.000000 -60.708740 0.000000 130.000000 0.659958 0.505464 -0.555843
9550.00000000 -9270.00000000 30.00000000 140 165 103 0.000000 0.000000 0.000000 0.000000 -60.708740 0.000000 130.000000 0.761829 0.427607 -0.486588
9380.00000000 -9150.00000000 600.00000000 140 165 103 0.000000 0.000000 0.000000 0.000000 -60.708740 0.000000 130.000000 -0.375783 0.874799 -0.305799
9350.00000000 -9170.00000000 580.00000000 140 165 103 0.000000 0.000000 0.000000 0.000000 -60.708740 0.000000 130.000000 -0.572967 0.817921 0.052088
9170.00000000 -9560.00000000 560.00000000 140 165 103 0.000000 0.000000 0.000000 0.000000 -60.708740 0.000000 125.000000 0.696383 0.576718 -0.427137
9130.00000000 -9510.00000000 70.00000000 140 165 103 0.000000 0.000000 0.000000 0.000000 -60.708740 0.000000 125.000000 -0.625003 0.741502 0.244019
9190.00000000 -9490.00000000 110.00000000 140 165 103 0.000000 0.000000 0.000000 0.000000 -60.708740 0.000000 125.000000 -0.681516 0.730093 0.050006
9240.00000000 -9840.00000000 680.00000000 140 165 103 0.000000 0.000000 0.000000 0.000000 -60.708740 0.000000 125.000000 -0.279845 -0.644442 0.711605
9220.00000000 -9900.00000000 610.00000000 140 165 103 0.000000 0.000000 0.000000 0.000000 -60.708740 0.000000 125.000000 0.616638 0.774904 -0.138856
9140.00000000 -9820.00000000 510.00000000 140 165 103 0.000000 0.000000 0.000000 0.000000 -60.708740 0.000000 125.000000 0.207081 0.838906 -0.503343
9290.00000000 -10200.00000000 10.00000000 140 165 103 0.000000 0.000000 0.000000 0.000000 -60.708740 0.000000 131.000000 -0.304262 0.918555 0.252350
8970.00000000 -9530.00000000 680.00000000 140 165 103 0.000000 0.000000 0.000000 0.000000 -60.708740 0.000000 125.000000 0.834584 -0.149191 -0.530293
8910.00000000 -9240.00000000 460.00000000 140 165 103 0.000000 0.000000 0.000000 0.000000 -60.708740 0.000000 125.000000 0.732033 -0.641117 -0.230426
8900.00000000 -9260.00000000 340.00000000 140 165 103 0.000000 0.000000 0.000000 0.000000 -60.708740 0.000000 125.000000 0.876318 -0.375131 -0.302231
8880.00000000 -9270.00000000 360.00000000 140 165 103 0.000000 0.000000 0.000000 0.000000 -60.708740 0.000000 125.000000 0.804328 -0.588498 0.082016
8860.00000000 -9230.00000000 380.00000000 140 165 103 0.000000 0.000000 0.000000 0.000000 -60.708740 0.000000 125.000000 0.782092 -0.622596 0.026583
8840.00000000 -9340.00000000 490.00000000 140 165 103 0.000000 0.000000 0.000000 0.000000 -60.708740 0.000000 125.000000 0.839172 -0.108327 -0.532968
8870.00000000 -9320.00000000 440.00000000 140 165 103 0.000000 0.000000 0.000000 0.000000 -60.708740 0.000000 125.000000 0.695781 -0.620472 -0.361806
8840.00000000 -9320.00000000 480.00000000 140 165 103 0.000000 0.000000 0.000000 0.000000 -60.708740 0.000000 125.000000 0.892345 -0.448216 0.053132
8890.00000000 -9310.00000000 320.00000000 140 165 103 0.000000 0.000000 0.000000 0.000000 -60.708740 0.000000 125.000000 0.878980 -0.447507 0.164718
8790.00000000 -9300.00000000 380.00000000 140 165 103 0.000000 0.000000 0.000000 0.000000 -60.708740 0.000000 125.000000 0.685575 -0.528010 -0.501191
8930.00000000 -9280.00000000 10.00000000 140 165 103 0.000000 0.000000 0.000000 0.000000 -60.708740 0.000000 125.000000 0.710357 -0.633039 0.307660
8930.00000000 -9380.00000000 80.00000000 140 165 103 0.000000 0.000000 0.000000 0.000000 -60.708740 0.000000 125.000000 0.847210 -0.235759 -0.476080
8870.00000000 -9240.00000000 310.00000000 140 165 103 0.000000 0.000000 0.000000 0.000000 -60.708740 0.000000 125.000000 0.941640 -0.247509 -0.228151
8810.00000000 -9150.00000000 160.00000000 140 165 103 0.000000 0.000000 0.000000 0.000000 -60.708740 0.000000 125.000000 0.712579 -0.701424 0.015339
8810.00000000 -9250.00000000 260.00000000 140 165 103 0.000000 0.000000 0.000000 0.000000 -60.708740 0.000000 125.000000 0.867923 -0.459836 0.187779
8830.00000000 -9330.00000000 250.00000000 140 165 103 0.000000 0.000000 0.000000 0.000000 -60.708740 0.000000 125.000000 0.735300 -0.620955 -0.271569
8880.00000000 -9420.00000000 80.00000000 140 165 103 0.000000 0.000000 0.000000 0.000000 -60.708740 0.000000 125.000000 0.885759 -0.239676 -0.397475
8780.00000000 -9530.00000000 630.00000000 140 165 103 0.000000 0.000000 0.000000 0.000000 -60.708740 0.000000 125.000000 0.813897 0.290117 -0.503393
8770.00000000 -9530.00000000 320.00000000 140 165 103 0.000000 0.000000 0.000000 0.000000 -60.708740 0.000000 125.000000 0.963291 -0.266966 -0.028296
9070.00000000 -9770.00000000 0.00000000 140 165 103 0.000000 0.000000 0.000000 0.000000 -60.708740 0.000000 125.000000 0.569430 0.821901 0.015093
8780.00000000 -9520.00000000 250.00000000 140 165 103 0.000000 0.000000 0.000000 0.000000 -60.708740 0.000000 125.000000 0.740351 -0.107876 -0.663508
8780.00000000 -9530.00000000 250.00000000 140 165 103 0.000000 0.000000 0.000000 0.000000 -60.708740 0.000000 125.000000 0.717632 -0.364537 -0.593395
8890.00000000 -9670.00000000 -10.00000000 140 165 103 0.000000 0.000000 0.000000 0.000000 -60.708740 0.000000 125.000000 0.672601 0.254797 -0.694757
8750.00000000 -9480.00000000 570.00000000 140 165 103 0.000000 0.000000 0.000000 0.000000 -60.708740 0.000000 125.000000 -0.710173 0.058822 0.701565
8750.00000000 -9510.00000000 190.00000000 140 165 103 0.000000 0.000000 0.000000 0.000000 -60.708740 0.000000 125.000000 0.934544 -0.353856 -0.037589
8750.00000000 -9490.00000000 50.00000000 140 165 103 0.000000 0.000000 0.000000 0.000000 -60.708740 0.000000 125.000000 0.852787 -0.511672 -0.104628
8710.00000000 -9540.00000000 30.00000000 140 165 103 0.000000 0.000000 0.000000 0.000000 -60.708740 0.000000 125.000000 0.971490 -0.205921 -0.117488
9060.00000000 -9830.00000000 540.00000000 140 165 103 0.000000 0.000000 0.000000 0.000000 -60.708740 0.000000 125.000000 0.587385 0.411997 -0.696589
8770.00000000 -9820.00000000 30.00000000 140 165 103 0.000000 0.000000 0.000000 0.000000 -60.708740 0.000000 125.000000 0.954250 0.280662 -0.103127
8710.00000000 -9860.00000000 70.00000000 140 165 103 0.000000 0.000000 0.000000 0.000000 -60.708740 0.000000 125.000000 0.941195 0.223170 -0.253665
8690.00000000 -9830.00000000 20.00000000 140 165 103 0.000000 0.000000 0.000000 0.000000 -60.708740 0.000000 125.000000 0.876146 0.434367 -0.209030
8670.00000000 -9920.00000000 120.00000000 140 165 103 0.000000 0.000000 0.000000 0.000000 -60.708740 0.000000 125.000000 0.804520 0.503023 -0.315778
8640.00000000 -9840.00000000 -10.00000000 140 165 103 0.000000 0.000000 0.000000 0.000000 -60.708740 0.000000 125.000000 0.978521 0.127418 -0.162056
9600.00000000 -9120.00000000 -190.00000000 140 165 103 0.000000 0.000000 0.000000 0.000000 -60.708740 0.000000 130.000000 0.821232 0.401880 -0.405056
9540.00000000 -9050.00000000 -180.00000000 140 165 103 0.000000 0.000000 0.000000 0.000000 -60.708740 0.000000 130.000000 0.530700 0.807723 -0.256790
9450.00000000 -9090.00000000 -120.00000000 140 165 103 0.000000 0.000000 0.000000 0.000000 -60.708740 0.000000 130.000000 0.213869 0.970638 -0.110098
9530.00000000 -9050.00000000 -190.00000000 140 165 103 0.000000 0.000000 0.000000 0.000000 -60.708740 0.000000 130.000000 0.737844 0.659702 -0.142760
9550.00000000 -9100.00000000 -200.00000000 140 165 103 0.000000 0.000000 0.000000 0.000000 -60.708740 0.000000 130.000000 0.241282 0.958537 -0.151625
9460.00000000 -9120.00000000 -420.00000000 140 165 103 0.000000 0.000000 0.000000 0.000000 -60.708740 0.000000 130.000000 0.614064 0.767198 -0.185291
9450.00000000 -9070.00000000 -360.00000000 140 165 103 0.000000 0.000000 0.000000 0.000000 -60.708740 0.000000 130.000000 0.325263 0.858633 -0.396174
9280.00000000 -8930.00000000 -30.00000000 140 165 103 0.000000 0.000000 0.000000 0.000000 -60.708740 0.000000 130.000000 0.154704 0.937808 -0.310777
9360.00000000 -9010.00000000 -50.00000000 140 165 103 0.000000 0.000000 0.000000 0.000000 -60.708740 0.000000 130.000000 0.551067 0.821402 -0.147050
9280.00000000 -8970.00000000 -150.00000000 140 165 103 0.000000 0.000000 0.000000 0.000000 -60.708740 0.000000 130.000000 -0.185529 0.941386 -0.281729
9390.00000000 -9070.00000000 -310.00000000 140 165 103 0.000000 0.000000 0.000000 0.000000 -60.708740 0.000000 130.000000 -0.034048 0.952091 -0.303913
9270.00000000 -8990.00000000 -200.00000000 140 165 103 0.000000 0.000000 0.000000 0.000000 -60.708740 0.000000 130.000000 -0.056114 0.885505 -0.461229
9410.00000000 -9080.00000000 -260.00000000 140 165 103 0.000000 0.000000 0.000000 0.000000 -60.708740 0.000000 130.000000 0.473397 0.797553 -0.373903
9240.00000000 -8940.00000000 -110.00000000 140 165 103 0.000000 0.000000 0.000000 0.000000 -60.708740 0.000000 130.000000 -0.006655 0.879853 -0.475200
9210.00000000 -9030.00000000 -20.00000000 140 165 103 0.000000 0.000000 0.000000 0.000000 -60.708740 0.000000 130.000000 -0.469569 0.874912 -0.118463
9250.00000000 -9010.00000000 -300.00000000 140 165 103 0.000000 0.000000 0.000000 0.000000 -60.708740 0.000000 130.000000 -0.045054 0.998522 -0.030385
9410.00000000 -9090.00000000 -420.00000000 140 165 103 0.000000 0.000000 0.000000 0.000000 -60.708740 0.000000 130.000000 0.427529 0.853514 -0.297881
9260.00000000 -9030.00000000 -370.00000000 140 165 103 0.000000 0.000000 0.000000 0.000000 -60.708740 0.000000 130.000000 0.183152 0.948319 -0.259126
9340.00000000 -9050.00000000 -380.00000000 140 165 103 0.000000 0.000000 0.000000 0.000000 -60.708740 0.000000 130.000000 0.244283 0.698176 -0.672960
9270.00000000 -9050.00000000 -390.00000000 140 165 103 0.000000 0.000000 0.000000 0.000000 -60.708740 0.000000 130.000000 -0.075164 0.903340 -0.422288
8930.00000000 -9060.00000000 -640.00000000 140 165 103 0.000000 0.000000 0.000000 0.000000 -60.708740 0.000000 125.000000 -0.035442 0.920189 -0.389866
8870.00000000 -9080.00000000 -390.00000000 140 165 103 0.000000 0.000000 0.000000 0.000000 -60.708740 0.000000 125.000000 -0.371835 0.927630 0.035226
8880.00000000 -9070.00000000 -440.00000000 140 165 103 0.000000 0.000000 0.000000 0.000000 -60.708740 0.000000 125.000000 -0.500546 0.775928 -0.383914
9710.00000000 -9300.00000000 -130.00000000 140 165 103 0.000000 0.000000 0.000000 0.000000 -60.708740 0.000000 130.000000 0.737090 0.605409 -0.300296
9670.00000000 -9330.00000000 -150.00000000 140 165 103 0.000000 0.000000 0.000000 0.000000 -60.708740 0.000000 130.000000 0.636904 0.701729 -0.319263
9710.00000000 -9350.00000000 -110.00000000 140 165 103 0.000000 0.000000 0.000000 0.000000 -60.708740 0.000000 130.000000 0.962146 0.177688 -0.206644
9710.00000000 -9360.00000000 -150.00000000 140 165 103 0.000000 0.000000 0.000000 0.000000 -60.708740 0.000000 130.000000 0.984933 0.144808 -0.094544
9650.00000000 -9360.00000000 -280.00000000 140 165 103 0.000000 0.000000 0.000000 0.000000 -60.708740 0.000000 130.000000 0.823619 0.486045 -0.292252
9650.00000000 -9410.00000000 -340.00000000 140 165 103 0.000000 0.000000 0.000000 0.000000 -60.708740 0.000000 130.000000 0.919229 0.126169 -0.372960
9690.00000000 -9350.00000000 -240.00000000 140 165 103 0.000000 0.000000 0.000000 0.000000 -60.708740 0.000000 130.000000 0.869829 0.143761 -0.471944
9640.00000000 -9310.00000000 -300.00000000 140 165 103 0.000000 0.000000 0.000000 0.000000 -60.708740 0.000000 130.000000 0.850774 0.517304 -0.092630
9550.00000000 -9140.00000000 -180.00000000 140 165 103 0.000000 0.000000 0.000000 0.000000 -60.708740 0.000000 130.000000 0.556125 0.656933 -0.509081
9490.00000000 -9240.00000000 -30.00000000 140 165 103 0.000000 0.000000 0.000000 0.000000 -60.708740 0.000000 130.000000 0.774887 0.404501 -0.485726
9500.00000000 -9230.00000000 -90.00000000 140 165 103 0.000000 0.000000 0.000000 0.000000 -60.708740 0.000000 130.000000 0.583434 0.539465 -0.607110
9570.00000000 -9170.00000000 -230.00000000 140 165 103 0.000000 0.000000 0.000000 0.000000 -60.708740 0.000000 130.000000 0.705841 0.446756 -0.549725
9460.00000000 -9220.00000000 -210.00000000 140 165 103 0.000000 0.000000 0.000000 0.000000 -60.708740 0.000000 130.000000 0.700566 0.662440 -0.265294
9640.00000000 -9370.00000000 -380.00000000 140 165 103 0.000000 0.000000 0.000000 0.000000 -60.708740 0.000000 130.000000 0.695446 0.682943 -0.223480
9610.00000000 -9390.00000000 -550.00000000 140 165 103 0.000000 0.000000 0.000000 0.000000 -60.708740 0.000000 130.000000 0.951096 0.234053 -0.201584
9510.00000000 -9200.00000000 -360.00000000 140 165 103 0.000000 0.000000 0.000000 0.000000 -60.708740 0.000000 130.000000 0.526468 0.816721 -0.236216
9520.00000000 -9200.00000000 -400.00000000 140 165 103 0.000000 0.000000 0.000000 0.000000 -60.708740 0.000000 130.000000 0.767752 0.611443 -0.191555
9520.00000000 -9230.00000000 -470.00000000 140 165 103 0.000000 0.000000 0.000000 0.000000 -60.708740 0.000000 130.000000 0.845503 0.452893 -0.282865
9530.00000000 -9270.00000000 -520.00000000 140 165 103 0.000000 0.000000 0.000000 0.000000 -60.708740 0.000000 130.000000 0.472381 0.724317 -0.502216
9500.00000000 -9270.00000000 -580.00000000 140 165 103 0.000000 0.000000 0.000000 0.000000 -60.708740 0.000000 130.000000 0.319068 0.828318 -0.460526
9570.00000000 -9360.00000000 -560.00000000 140 165 103 0.000000 0.000000 0.000000 0.000000 -60.708740 0.000000 130.000000 0.648885 0.517423 -0.557873
9390.00000000 -9220.00000000 -300.00000000 140 165 103 0.000000 0.000000 0.000000 0.000000 -60.708740 0.000000 130.000000 0.112570 0.949561 -0.292682
9260.00000000 -10040.00000000 -210.00000000 140 165 103 0.000000 0.000000 0.000000 0.000000 -60.708740 0.000000 131.000000 -0.341390 0.885808 -0.314319
9250.00000000 -10000.00000000 -280.00000000 140 165 103 0.000000 0.000000 0.000000 0.000000 -60.708740 0.000000 131.000000 -0.584646 0.793125 0.170711
9230.00000000 -9870.00000000 -410.00000000 140 165 103 0.000000 0.000000 0.000000 0.000000 -60.708740 0.000000 131.000000 -0.372792 0.846972 0.379032
9240.00000000 -9870.00000000 -420.00000000 140 165 103 0.000000 0.000000 0.000000 0.000000 -60.708740 0.000000 131.000000 0.769265 -0.626974 -0.123023
9210.00000000 -9880.00000000 -450.00000000 140 165 103 0.000000 0.000000 0.000000 0.000000 -60.708740 0.000000 131.000000 -0.353703 0.910965 0.212222
9220.00000000 -9830.00000000 -490.00000000 140 165 103 0.000000 0.000000 0.000000 0.000000 -60.708740 0.000000 131.000000 0.694435 -0.691342 -0.199515
9230.00000000 -9830.00000000 -500.00000000 140 165 103 0.000000 0.000000 0.000000 0.000000 -60.708740 0.000000 131.000000 0.837151 -0.546683 0.017812
8810.00000000 -9260.00000000 -120.00000000 140 165 103 0.000000 0.000000 0.000000 0.000000 -60.708740 0.000000 125.000000 -0.467289 0.762419 0.447614
8780.00000000 -9460.00000000 -110.00000000 140 165 103 0.000000 0.000000 0.000000 0.000000 -60.708740 0.000000 125.000000 0.990729 -0.091327 -0.100576
8960.00000000 -9180.00000000 -560.00000000 140 165 103 0.000000 0.000000 0.000000 0.000000 -60.708740 0.000000 125.000000 -0.019868 0.980566 -0.195178
8990.00000000 -9240.00000000 -540.00000000 140 165 103 0.000000 0.000000 0.000000 0.000000 -60.708740 0.000000 125.000000 -0.133665 0.907516 -0.398181
8890.00000000 -9270.00000000 -380.00000000 140 165 103 0.000000 0.000000 0.000000 0.000000 -60.708740 0.000000 125.000000 -0.398000 0.810385 -0.429968
8890.00000000 -9180.00000000 -680.00000000 140 165 103 0.000000 0.000000 0.000000 0.000000 -60.708740 0.000000 125.000000 -0.340261 0.849876 -0.402409
8910.00000000 -9160.00000000 -640.00000000 140 165 103 0.000000 0.000000 0.000000 0.000000 -60.708740 0.000000 125.000000 -0.041177 0.982370 -0.182356
8880.00000000 -9410.00000000 -520.00000000 140 165 103 0.000000 0.000000 0.000000 0.000000 -60.708740 0.000000 125.000000 -0.370461 0.924117 -0.093633
8890.00000000 -9450.00000000 -440.00000000 140 165 103 0.000000 0.000000 0.000000 0.000000 -60.708740 0.000000 125.000000 -0.620425 0.763717 -0.178353
8870.00000000 -9310.00000000 -690.00000000 140 165 103 0.000000 0.000000 0.000000 0.000000 -60.708740 0.000000 125.000000 0.029133 0.999575 0.001005
8790.00000000 -9420.00000000 -530.00000000 140 165 103 0.000000 0.000000 0.000000 0.000000 -60.708740 0.000000 125.000000 -0.469410 0.809932 -0.351660
9080.00000000 -9540.00000000 -130.00000000 140 165 103 0.000000 0.000000 0.000000 0.000000 -60.708740 0.000000 125.000000 0.747761 -0.662302 0.047002
8930.00000000 -9610.00000000 -50.00000000 140 165 103 0.000000 0.000000 0.000000 0.000000 -60.708740 0.000000 125.000000 0.971447 0.109618 -0.210417
9030.00000000 -9540.00000000 -250.00000000 140 165 103 0.000000 0.000000 0.000000 0.000000 -60.708740 0.000000 125.000000 -0.444469 0.860115 0.250298
9070.00000000 -9790.00000000 -30.00000000 140 165 103 0.000000 0.000000 0.000000 0.000000 -60.708740 0.000000 125.000000 0.640404 0.749927 -0.165805
8850.00000000 -9610.00000000 -260.00000000 140 165 103 0.000000 0.000000 0.000000 0.000000 -60.708740 0.000000 125.000000 0.960545 0.110184 -0.255368
8770.00000000 -9600.00000000 -230.00000000 140 165 103 0.000000 0.000000 0.000000 0.000000 -60.708740 0.000000 125.000000 0.912647 -0.374963 -0.162720
8770.00000000 -9630.00000000 -320.00000000 140 165 103 0.000000 0.000000 0.000000 0.000000 -60.708740 0.000000 125.000000 0.981559 -0.168233 -0.090773
8880.00000000 -9660.00000000 -40.00000000 140 165 103 0.000000 0.000000 0.000000 0.000000 -60.708740 0.000000 125.000000 0.843046 0.034495 -0.536735
8880.00000000 -9710.00000000 -60.00000000 140 165 103 0.000000 0.000000 0.000000 0.000000 -60.708740 0.000000 125.000000 0.607110 0.539465 -0.583434
8760.00000000 -9670.00000000 -100.00000000 140 165 103 0.000000 0.000000 0.000000 0.000000 -60.708740 0.000000 125.000000 0.830846 0.321973 -0.453903
8820.00000000 -9680.00000000 -110.00000000 140 165 103 0.000000 0.000000 0.000000 0.000000 -60.708740 0.000000 125.000000 0.979098 0.193893 -0.061419
8920.00000000 -9650.00000000 -290.00000000 140 165 103 0.000000 0.000000 0.000000 0.000000 -60.708740 0.000000 125.000000 0.984289 -0.175725 0.017228
8830.00000000 -9650.00000000 -210.00000000 140 165 103 0.000000 0.000000 0.000000 0.000000 -60.708740 0.000000 125.000000 0.905439 0.200727 -0.374017
8780.00000000 -9640.00000000 -290.00000000 140 165 103 0.000000 0.000000 0.000000 0.000000 -60.708740 0.000000 125.000000 0.850523 0.154775 -0.502649
8760.00000000 -9780.00000000 -310.00000000 140 165 103 0.000000 0.000000 0.000000 0.000000 -60.708740 0.000000 125.000000 0.769771 0.388954 -0.506129
8960.00000000 -9510.00000000 -440.00000000 140 165 103 0.000000 0.000000 0.000000 0.000000 -60.708740 0.000000 125.000000 -0.050399 0.998716 0.005143
8860.00000000 -9600.00000000 -400.00000000 140 165 103 0.000000 0.000000 0.000000 0.000000 -60.708740 0.000000 125.000000 0.943095 -0.308087 0.125118
8820.00000000 -9510.00000000 -370.00000000 140 165 103 0.000000 0.000000 0.000000 0.000000 -60.708740 0.000000 125.000000 0.838195 -0.536272 0.099203
8760.00000000 -9650.00000000 -440.00000000 140 165 103 0.000000 0.000000 0.000000 0.000000 -60.708740 0.000000 125.000000 0.993743 0.073152 -0.084406
8720.00000000 -9730.00000000 -80.00000000 140 165 103 0.000000 0.000000 0.000000 0.000000 -60.708740 0.000000 125.000000 0.883640 -0.047801 -0.465721
8680.00000000 -9740.00000000 -310.00000000 140 165 103 0.000000 0.000000 0.000000 0.000000 -60.708740 0.000000 125.000000 0.780605 -0.018089 -0.624762
8660.00000000 -9710.00000000 -300.00000000 140 165 103 0.000000 0.000000 0.000000 0.000000 -60.708740 0.000000 125.000000 0.899781 -0.119316 -0.419711
8640.00000000 -9740.00000000 -290.00000000 140 165 103 0.000000 0.000000 0.000000 0.000000 -60.708740 0.000000 125.000000 0.919328 0.322697 -0.225171
8750.00000000 -9550.00000000 -360.00000000 140 165 103 0.000000 0.000000 0.000000 0.000000 -60.708740 0.000000 125.000000 0.860694 -0.071608 -0.504061
8750.00000000 -9550.00000000 -400.00000000 140 165 103 0.000000 0.000000 0.000000 0.000000 -60.708740 0.000000 125.000000 0.899897 -0.306884 -0.309849
8750.00000000 -9670.00000000 -410.00000000 140 165 103 0.000000 0.000000 0.000000 0.000000 -60.708740 0.000000 125.000000 0.842355 -0.256235 -0.474112
8680.00000000 -9670.00000000 -460.00000000 140 165 103 0.000000 0.000000 0.000000 0.000000 -60.708740 0.000000 125.000000 0.767767 -0.126229 -0.628173
8730.00000000 -9680.00000000 -480.00000000 140 165 103 0.000000 0.000000 0.000000 0.000000 -60.708740 0.000000 125.000000 0.825125 -0.381680 -0.416522
8970.00000000 -9210.00000000 -710.00000000 140 165 103 0.000000 0.000000 0.000000 0.000000 -60.708740 0.000000 125.000000 0.117309 0.844333 -0.522820
8970.00000000 -9150.00000000 -760.00000000 140 165 103 0.000000 0.000000 0.000000 0.000000 -60.708740 0.000000 125.000000 0.200346 0.977446 -0.066782
8800.00000000 -9330.00000000 -760.00000000 140 165 103 0.000000 0.000000 0.000000 0.000000 -60.708740 0.000000 125.000000 -0.234398 0.968928 -0.078968
8950.00000000 -9600.00000000 -750.00000000 140 165 103 0.000000 0.000000 0.000000 0.000000 -60.708740 0.000000 125.000000 0.370994 0.898890 -0.233154
8890.00000000 -9610.00000000 -760.00000000 140 165 103 0.000000 0.000000 0.000000 0.000000 -60.708740 0.000000 125.000000 0.134269 0.975021 0.176934
8820.00000000 -9510.00000000 -730.00000000 140 165 103 0.000000 0.000000 0.000000 0.000000 -60.708740 0.000000 125.000000 -0.217529 0.966652 0.135151
8830.00000000 -9530.00000000 -840.00000000 140 165 103 0.000000 0.000000 0.000000 0.000000 -60.708740 0.000000 125.000000 -0.299363 0.903989 -0.305262
8820.00000000 -9600.00000000 -860.00000000 140 165 103 0.000000 0.000000 0.000000 0.000000 -60.708740 0.000000 125.000000 -0.261585 0.872455 -0.412791
8670.00000000 -9820.00000000 -140.00000000 140 165 103 0.000000 0.000000 0.000000 0.000000 -60.708740 0.000000 125.000000 0.724087 0.531881 -0.439092
8680.00000000 -9970.00000000 -30.00000000 140 165 103 0.000000 0.000000 0.000000 0.000000 -60.708740 0.000000 125.000000 0.610428 0.771788 -0.178105
8710.00000000 -9910.00000000 -120.00000000 140 165 103 0.000000 0.000000 0.000000 0.000000 -60.708740 0.000000 125.000000 0.826244 0.553249 -0.106003
8650.00000000 -9860.00000000 -80.00000000 140 165 103 0.000000 0.000000 0.000000 0.000000 -60.708740 0.000000 125.000000 0.738047 0.627890 -0.247065
9730.00000000 -8770.00000000 720.00000000 140 165 103 0.000000 0.000000 0.000000 0.000000 -60.708740 0.000000 130.000000 0.333465 0.939764 0.075128
9210.00000000 -8960.00000000 780.00000000 140 165 103 0.000000 0.000000 0.000000 0.000000 -60.708740 0.000000 130.000000 0.745528 -0.563613 -0.355709
9240.00000000 -9070.00000000 870.00000000 140 165 103 0.000000 0.000000 0.000000 0.000000 -60.708740 0.000000 130.000000 -0.388799 0.856597 0.339231
9150.00000000 -9120.00000000 840.00000000 140 165 103 0.000000 0.000000 0.000000 0.000000 -60.708740 0.000000 130.000000 0.853712 -0.516165 0.068916
9220.00000000 -9060.00000000 690.00000000 140 165 103 0.000000 0.000000 0.000000 0.000000 -60.708740 0.000000 130.000000 -0.638868 0.738352 -0.216065
9630.00000000 -9020.00000000 60.00000000 140 165 103 0.000000 0.000000 0.000000 0.000000 -60.708740 0.000000 130.000000 0.434812 0.807049 -0.399513
9640.00000000 -8990.00000000 110.00000000 140 165 103 0.000000 0.000000 0.000000 0.000000 -60.708740 0.000000 130.000000 0.225703 0.935055 -0.273367
9350.00000000 -8830.00000000 330.00000000 140 165 103 0.000000 0.000000 0.000000 0.000000 -60.708740 0.000000 130.000000 -0.039593 0.946396 -0.320574
9280.00000000 -9030.00000000 430.00000000 140 165 103 0.000000 0.000000 0.000000 0.000000 -60.708740 0.000000 130.000000 -0.484710 0.868498 0.103765
9180.00000000 -9030.00000000 630.00000000 140 165 103 0.000000 0.000000 0.000000 0.000000 -60.708740 0.000000 130.000000 -0.646007 0.735860 0.202942
9230.00000000 -8970.00000000 630.00000000 140 165 103 0.000000 0.000000 0.000000 0.000000 -60.708740 0.000000 130.000000 -0.484905 0.864145 -0.134615
9250.00000000 -9050.00000000 330.00000000 140 165 103 0.000000 0.000000 0.000000 0.000000 -60.708740 0.000000 130.000000 0.014848 0.985692 -0.167899
9270.00000000 -9020.00000000 230.00000000 140 165 103 0.000000 0.000000 0.000000 0.000000 -60.708740 0.000000 130.000000 -0.459786 0.830126 -0.315416
9290.00000000 -9060.00000000 50.00000000 140 165 103 0.000000 0.000000 0.000000 0.000000 -60.708740 0.000000 130.000000 0.007660 0.992565 0.121472
9350.00000000 -9070.00000000 120.00000000 140 165 103 0.000000 0.000000 0.000000 0.000000 -60.708740 0.000000 130.000000 0.398462 0.916595 -0.032876
9230.00000000 -8980.00000000 160.00000000 140 165 103 0.000000 0.000000 0.000000 0.000000 -60.708740 0.000000 130.000000 -0.032089 0.978109 0.205605
9230.00000000 -9020.00000000 50.00000000 140 165 103 0.000000 0.000000 0.000000 0.000000 -60.708740 0.000000 130.000000 -0.039175 0.979369 -0.198248
9200.00000000 -8990.00000000 20.00000000 140 165 103 0.000000 0.000000 0.000000 0.000000 -60.708740 0.000000 130.000000 -0.477631 0.876349 -0.062300
9870.00000000 -9390.00000000 780.00000000 140 165 103 0.000000 0.000000 0.000000 0.000000 -60.708740 0.000000 130.000000 0.984524 -0.010291 -0.174950
9820.00000000 -9360.00000000 740.00000000 140 165 103 0.000000 0.000000 0.000000 0.000000 -60.708740 0.000000 130.000000 0.795787 -0.091320 -0.598652
9790.00000000 -9240.00000000 330.00000000 140 165 103 0.000000 0.000000 0.000000 0.000000 -60.708740 0.000000 130.000000 0.623768 0.643835 -0.443159
9790.00000000 -9370.00000000 620.00000000 140 165 103 0.000000 0.000000 0.000000 0.000000 -60.708740 0.000000 130.000000 0.761664 0.009712 -0.647900
9570.00000000 -9400.00000000 690.00000000 140 165 103 0.000000 0.000000 0.000000 0.000000 -60.708740 0.000000 130.000000 0.895605 0.193684 -0.400474
9140.00000000 -9460.00000000 1020.00000000 140 165 103 0.000000 0.000000 0.000000 0.000000 -60.708740 0.000000 125.000000 0.990748 -0.049024 -0.126551
9200.00000000 -9180.00000000 960.00000000 140 165 103 0.000000 0.000000 0.000000 0.000000 -60.708740 0.000000 130.000000 0.900074 -0.433169 -0.047230
9130.00000000 -9170.00000000 950.00000000 140 165 103 0.000000 0.000000 0.000000 0.000000 -60.708740 0.000000 130.000000 0.969337 -0.196435 -0.147647
9170.00000000 -9570.00000000 850.00000000 140 165 103 0.000000 0.000000 0.000000 0.000000 -60.708740 0.000000 125.000000 -0.542496 -0.369809 0.754281
9160.00000000 -9550.00000000 670.00000000 140 165 103 0.000000 0.000000 0.000000 0.000000 -60.708740 0.000000 125.000000 -0.618504 -0.188774 0.762770
9200.00000000 -9650.00000000 870.00000000 140 165 103 0.000000 0.000000 0.000000 0.000000 -60.708740 0.000000 125.000000 0.924708 0.355232 -0.136840
9640.00000000 -9170.00000000 320.00000000 140 165 103 0.000000 0.000000 0.000000 0.000000 -60.708740 0.000000 130.000000 0.797621 0.394782 -0.456013
9660.00000000 -9140.00000000 180.00000000 140 165 103 0.000000 0.000000 0.000000 0.000000 -60.708740 0.000000 130.000000 0.454942 0.846655 -0.276050
9670.00000000 -9250.00000000 280.00000000 140 165 103 0.000000 0.000000 0.000000 0.000000 -60.708740 0.000000 130.000000 0.878302 0.294783 -0.376415
9540.00000000 -9250.00000000 260.00000000 140 165 103 0.000000 0.000000 0.000000 0.000000 -60.708740 0.000000 130.000000 0.673127 0.552266 -0.491836
9530.00000000 -9250.00000000 40.00000000 140 165 103 0.000000 0.000000 0.000000 0.000000 -60.708740 0.000000 130.000000 0.627826 0.486439 -0.607628
9090.00000000 -9440.00000000 -10.00000000 140 165 103 0.000000 0.000000 0.000000 0.000000 -60.708740 0.000000 125.000000 -0.514742 0.840000 0.171581
9180.00000000 -9550.00000000 610.00000000 140 165 103 0.000000 0.000000 0.000000 0.000000 -60.708740 0.000000 125.000000 0.685235 0.237863 -0.688385
9150.00000000 -9590.00000000 470.00000000 140 165 103 0.000000 0.000000 0.000000 0.000000 -60.708740 0.000000 125.000000 0.806229 0.527571 -0.267699
9170.00000000 -9600.00000000 330.00000000 140 165 103 0.000000 0.000000 0.000000 0.000000 -60.708740 0.000000 125.000000 0.917053 0.397170 -0.035627
9120.00000000 -9580.00000000 240.00000000 140 165 103 0.000000 0.000000 0.000000 0.000000 -60.708740 0.000000 125.000000 0.740189 0.584701 -0.332032
9160.00000000 -9600.00000000 240.00000000 140 165 103 0.000000 0.000000 0.000000 0.000000 -60.708740 0.000000 125.000000 0.847069 0.514657 -0.132674
9120.00000000 -9480.00000000 40.00000000 140 165 103 0.000000 0.000000 0.000000 0.000000 -60.708740 0.000000 125.000000 0.734438 -0.662050 -0.149301
9170.00000000 -9800.00000000 300.00000000 140 165 103 0.000000 0.000000 0.000000 0.000000 -60.708740 0.000000 125.000000 -0.456686 -0.580476 0.674155
9220.00000000 -9870.00000000 640.00000000 140 165 103 0.000000 0.000000 0.000000 0.000000 -60.708740 0.000000 125.000000 0.460328 0.793055 -0.398951
9270.00000000 -9810.00000000 500.00000000 140 165 103 0.000000 0.000000 0.000000 0.000000 -60.708740 0.000000 125.000000 0.498528 0.727089 -0.472028
9340.00000000 -10200.00000000 50.00000000 140 165 103 0.000000 0.000000 0.000000 0.000000 -60.708740 0.000000 131.000000 -0.191189 0.981438 -0.015063
8860.00000000 -9220.00000000 360.00000000 140 165 103 0.000000 0.000000 0.000000 0.000000 -60.708740 0.000000 125.000000 0.960446 -0.273154 -0.054127
8820.00000000 -9340.00000000 600.00000000 140 165 103 0.000000 0.000000 0.000000 0.000000 -60.708740 0.000000 125.000000 0.792993 -0.032167 -0.608381
8870.00000000 -9240.00000000 160.00000000 140 165 103 0.000000 0.000000 0.000000 0.000000 -60.708740 0.000000 125.000000 -0.628160 0.776297 0.052703
8790.00000000 -9200.00000000 140.00000000 140 165 103 0.000000 0.000000 0.000000 0.000000 -60.708740 0.000000 125.000000 0.872079 -0.473987 0.121719
8890.00000000 -9240.00000000 50.00000000 140 165 103 0.000000 0.000000 0.000000 0.000000 -60.708740 0.000000 125.000000 -0.434173 0.892388 -0.123039
8900.00000000 -9300.00000000 310.00000000 140 165 103 0.000000 0.000000 0.000000 0.000000 -60.708740 0.000000 125.000000 0.813669 -0.577120 -0.069824
8890.00000000 -9310.00000000 300.00000000 140 165 103 0.000000 0.000000 0.000000 0.000000 -60.708740 0.000000 125.000000 -0.649071 0.756524 0.079863
9030.00000000 -9730.00000000 90.00000000 140 165 103 0.000000 0.000000 0.000000 0.000000 -60.708740 0.000000 125.000000 0.832992 0.502852 -0.230792
8730.00000000 -9510.00000000 130.00000000 140 165 103 0.000000 0.000000 0.000000 0.000000 -60.708740 0.000000 125.000000 0.981192 -0.159672 -0.108480
8670.00000000 -9490.00000000 10.00000000 140 165 103 0.000000 0.000000 0.000000 0.000000 -60.708740 0.000000 125.000000 0.961171 -0.275495 -0.015917
9050.00000000 -9840.00000000 530.00000000 140 165 103 0.000000 0.000000 0.000000 0.000000 -60.708740 0.000000 125.000000 0.376831 0.862866 -0.336841
8750.00000000 -9950.00000000 140.00000000 140 165 103 0.000000 0.000000 0.000000 0.000000 -60.708740 0.000000 125.000000 0.793912 0.591338 -0.141504
8750.00000000 -9950.00000000 140.00000000 140 165 103 0.000000 0.000000 0.000000 0.000000 -60.708740 0.000000 125.000000 0.793912 0.591338 -0.141504
8640.00000000 -9950.00000000 60.00000000 140 165 103 0.000000 0.000000 0.000000 0.000000 -60.708740 0.000000 125.000000 0.641653 0.740607 -0.199454
9280.00000000 -8940.00000000 -60.00000000 140 165 103 0.000000 0.000000 0.000000 0.000000 -60.708740 0.000000 130.000000 0.120104 0.891596 -0.436614
9370.00000000 -9040.00000000 -40.00000000 140 165 103 0.000000 0.000000 0.000000 0.000000 -60.708740 0.000000 130.000000 0.462810 0.850776 -0.248970
9420.00000000 -9090.00000000 -280.00000000 140 165 103 0.000000 0.000000 0.000000 0.000000 -60.708740 0.000000 130.000000 0.589348 0.770686 -0.242305
9180.00000000 -9010.00000000 -40.00000000 140 165 103 0.000000 0.000000 0.000000 0.000000 -60.708740 0.000000 130.000000 -0.298249 0.864158 -0.405313
8890.00000000 -9060.00000000 -610.00000000 140 165 103 0.000000 0.000000 0.000000 0.000000 -60.708740 0.000000 125.000000 -0.114653 0.990186 0.079910
9660.00000000 -9390.00000000 -250.00000000 140 165 103 0.000000 0.000000 0.000000 0.000000 -60.708740 0.000000 130.000000 0.935625 0.045545 -0.350046
