//X Y Z R G B PointSourceId ScanDirectionFlag NumberOfReturns ReturnNumber GpsTime Intensity Classification Nx Ny Nz
1490.00000000 1180.00000000 -1040.00000000 85 180 123 97.000000 1.000000 4.000000 1.000000 -60.708740 114.000000 50.000000 0.814780 -0.341477 -0.468538
1490.00000000 1180.00000000 -1040.00000000 85 180 123 97.000000 1.000000 4.000000 1.000000 -60.708740 114.000000 50.000000 0.814780 -0.341477 -0.468538
1430.00000000 1170.00000000 -1080.00000000 85 180 123 97.000000 1.000000 4.000000 1.000000 -60.708740 114.000000 50.000000 0.798915 -0.590757 -0.112874
1430.00000000 1220.00000000 -1170.00000000 85 180 123 97.000000 1.000000 4.000000 1.000000 -60.708740 114.000000 50.000000 -0.399869 0.732269 0.551259
1360.00000000 1260.00000000 -1070.00000000 85 180 123 97.000000 1.000000 4.000000 1.000000 -60.708740 114.000000 50.000000 -0.515502 0.832966 0.201061
1390.00000000 1230.00000000 -1180.00000000 85 180 123 97.000000 1.000000 4.000000 1.000000 -60.708740 114.000000 50.000000 -0.362854 0.684661 0.632121
1370.00000000 1300.00000000 -1130.00000000 85 180 123 97.000000 1.000000 4.000000 1.000000 -60.708740 114.000000 50.000000 -0.717284 0.694284 0.058935
1420.00000000 1150.00000000 -1110.00000000 85 180 123 97.000000 1.000000 4.000000 1.000000 -60.708740 114.000000 50.000000 0.571106 -0.437904 -0.694319
1420.00000000 1160.00000000 -1080.00000000 85 180 123 97.000000 1.000000 4.000000 1.000000 -60.708740 114.000000 50.000000 0.728534 -0.682732 -0.055821
1420.00000000 1160.00000000 -1080.00000000 85 180 123 97.000000 1.000000 4.000000 1.000000 -60.708740 114.000000 50.000000 0.728534 -0.682732 -0.055821
1410.00000000 1150.00000000 -1110.00000000 85 180 123 97.000000 1.000000 4.000000 1.000000 -60.708740 114.000000 50.000000 0.614057 -0.293401 -0.732700
1420.00000000 1190.00000000 -1120.00000000 85 180 123 97.000000 1.000000 4.000000 1.000000 -60.708740 114.000000 50.000000 -0.495087 0.659557 0.565574
1420.00000000 1200.00000000 -1150.00000000 85 180 123 97.000000 1.000000 4.000000 1.000000 -60.708740 114.000000 50.000000 -0.560028 0.607402 0.563411
1390.00000000 1160.00000000 -1130.00000000 85 180 123 97.000000 1.000000 4.000000 1.000000 -60.708740 114.000000 50.000000 -0.299003 0.844334 0.444631
1400.00000000 1170.00000000 -1130.00000000 85 180 123 97.000000 1.000000 4.000000 1.000000 -60.708740 114.000000 50.000000 0.425972 -0.571830 -0.701113
1390.00000000 1170.00000000 -1170.00000000 85 180 123 97.000000 1.000000 4.000000 1.000000 -60.708740 114.000000 50.000000 -0.787986 0.444961 0.425545
1350.00000000 1200.00000000 -1150.00000000 85 180 123 97.000000 1.000000 4.000000 1.000000 -60.708740 114.000000 50.000000 -0.332784 0.706151 0.624984
1360.00000000 1220.00000000 -1170.00000000 85 180 123 97.000000 1.000000 4.000000 1.000000 -60.708740 114.000000 50.000000 -0.212283 0.817059 0.536052
1370.00000000 1180.00000000 -1160.00000000 85 180 123 97.000000 1.000000 4.000000 1.000000 -60.708740 114.000000 50.000000 -0.711821 0.314751 0.627887
1430.00000000 1270.00000000 -1240.00000000 85 180 123 97.000000 1.000000 4.000000 1.000000 -60.708740 114.000000 50.000000 -0.453017 0.749537 0.482669
1440.00000000 1230.00000000 -1210.00000000 85 180 123 97.000000 1.000000 4.000000 1.000000 -60.708740 114.000000 50.000000 -0.488782 0.845911 0.213369
1460.00000000 1230.00000000 -1210.00000000 85 180 123 97.000000 1.000000 4.000000 1.000000 -60.708740 114.000000 50.000000 0.769112 -0.346665 -0.536927
1450.00000000 1250.00000000 -1230.00000000 85 180 123 97.000000 1.000000 4.000000 1.000000 -60.708740 114.000000 50.000000 0.860615 -0.253479 -0.441691
1440.00000000 1230.00000000 -1220.00000000 85 180 123 97.000000 1.000000 4.000000 1.000000 -60.708740 114.000000 50.000000 -0.565574 0.659557 0.495087
1470.00000000 1170.00000000 -1250.00000000 85 180 123 97.000000 1.000000 4.000000 1.000000 -60.708740 114.000000 50.000000 0.642485 -0.478089 -0.598869
1450.00000000 1220.00000000 -1210.00000000 85 180 123 97.000000 1.000000 4.000000 1.000000 -60.708740 114.000000 50.000000 0.561448 -0.537843 -0.628889
1390.00000000 1250.00000000 -1200.00000000 85 180 123 97.000000 1.000000 4.000000 1.000000 -60.708740 114.000000 50.000000 -0.449492 0.626615 0.636641
1390.00000000 1170.00000000 -1210.00000000 85 180 123 97.000000 1.000000 4.000000 1.000000 -60.708740 114.000000 50.000000 -0.289102 0.736332 0.611747
1400.00000000 1170.00000000 -1210.00000000 85 180 123 97.000000 1.000000 4.000000 1.000000 -60.708740 114.000000 50.000000 0.443972 -0.513291 -0.734452
1360.00000000 1220.00000000 -1250.00000000 85 180 123 97.000000 1.000000 4.000000 1.000000 -60.708740 114.000000 50.000000 0.713235 -0.321845 -0.622665
1500.00000000 1080.00000000 -1150.00000000 85 180 123 97.000000 1.000000 4.000000 1.000000 -60.708740 114.000000 50.000000 0.783320 -0.445990 -0.433016
1480.00000000 1080.00000000 -1120.00000000 85 180 123 97.000000 1.000000 4.000000 1.000000 -60.708740 114.000000 50.000000 0.553023 -0.724708 -0.411053
1470.00000000 1100.00000000 -1140.00000000 85 180 123 97.000000 1.000000 4.000000 1.000000 -60.708740 114.000000 50.000000 0.572623 -0.495377 -0.653226
1490.00000000 1090.00000000 -1160.00000000 85 180 123 97.000000 1.000000 4.000000 1.000000 -60.708740 114.000000 50.000000 -0.389607 0.764543 0.513499
1430.00000000 1140.00000000 -1130.00000000 85 180 123 97.000000 1.000000 4.000000 1.000000 -60.708740 114.000000 50.000000 0.862899 -0.285597 -0.416941
1440.00000000 1110.00000000 -1190.00000000 85 180 123 97.000000 1.000000 4.000000 1.000000 -60.708740 114.000000 50.000000 0.555255 -0.788052 -0.265830
1430.00000000 1140.00000000 -1180.00000000 85 180 123 97.000000 1.000000 4.000000 1.000000 -60.708740 114.000000 50.000000 0.825411 -0.261716 -0.500202
1490.00000000 1020.00000000 -1040.00000000 85 180 123 97.000000 1.000000 4.000000 1.000000 -60.708740 114.000000 50.000000 -0.561354 0.418946 0.713698
1500.00000000 1060.00000000 -1100.00000000 85 180 123 97.000000 1.000000 4.000000 1.000000 -60.708740 114.000000 50.000000 -0.522968 0.700075 0.486210
1490.00000000 1050.00000000 -1110.00000000 85 180 123 97.000000 1.000000 4.000000 1.000000 -60.708740 114.000000 50.000000 0.876380 -0.476384 -0.070833
1480.00000000 1040.00000000 -1100.00000000 85 180 123 97.000000 1.000000 4.000000 1.000000 -60.708740 114.000000 50.000000 0.798199 -0.549248 -0.247395
1490.00000000 1010.00000000 -1110.00000000 85 180 123 97.000000 1.000000 4.000000 1.000000 -60.708740 114.000000 50.000000 -0.607312 0.346803 0.714772
1440.00000000 1020.00000000 -1060.00000000 85 180 123 97.000000 1.000000 4.000000 1.000000 -60.708740 114.000000 50.000000 -0.559169 0.758988 0.333568
1450.00000000 1050.00000000 -1040.00000000 85 180 123 97.000000 1.000000 4.000000 1.000000 -60.708740 114.000000 50.000000 0.380291 -0.676621 -0.630526
1440.00000000 1030.00000000 -1060.00000000 85 180 123 97.000000 1.000000 4.000000 1.000000 -60.708740 114.000000 50.000000 0.696786 -0.234359 -0.677912
1450.00000000 1020.00000000 -1050.00000000 85 180 123 97.000000 1.000000 4.000000 1.000000 -60.708740 114.000000 50.000000 -0.518787 0.423264 0.742771
1440.00000000 1040.00000000 -1080.00000000 85 180 123 97.000000 1.000000 4.000000 1.000000 -60.708740 114.000000 50.000000 0.726707 -0.458537 -0.511509
1430.00000000 1030.00000000 -1080.00000000 85 180 123 97.000000 1.000000 4.000000 1.000000 -60.708740 114.000000 50.000000 0.853597 -0.410532 -0.320680
1490.00000000 1060.00000000 -1160.00000000 85 180 123 97.000000 1.000000 4.000000 1.000000 -60.708740 114.000000 50.000000 0.706239 -0.405219 -0.580538
1450.00000000 1060.00000000 -1170.00000000 85 180 123 97.000000 1.000000 4.000000 1.000000 -60.708740 114.000000 50.000000 -0.260165 0.758419 0.597590
1420.00000000 1130.00000000 -1070.00000000 85 180 123 97.000000 1.000000 4.000000 1.000000 -60.708740 114.000000 50.000000 -0.549395 0.783720 0.289739
1410.00000000 1130.00000000 -1090.00000000 85 180 123 97.000000 1.000000 4.000000 1.000000 -60.708740 114.000000 50.000000 -0.501391 0.851335 0.154387
1400.00000000 1110.00000000 -1090.00000000 85 180 123 97.000000 1.000000 4.000000 1.000000 -60.708740 114.000000 50.000000 -0.655334 0.703169 0.275846
1420.00000000 1090.00000000 -1090.00000000 85 180 123 97.000000 1.000000 4.000000 1.000000 -60.708740 114.000000 50.000000 0.542996 -0.586977 -0.600510
1410.00000000 1080.00000000 -1090.00000000 85 180 123 97.000000 1.000000 4.000000 1.000000 -60.708740 114.000000 50.000000 -0.576436 0.738813 0.349109
1380.00000000 1130.00000000 -1040.00000000 85 180 123 97.000000 1.000000 4.000000 1.000000 -60.708740 114.000000 50.000000 0.913393 -0.318017 -0.254124
1350.00000000 1110.00000000 -1080.00000000 85 180 123 97.000000 1.000000 4.000000 1.000000 -60.708740 114.000000 50.000000 0.817363 -0.461850 -0.344403
1350.00000000 1080.00000000 -1100.00000000 85 180 123 97.000000 1.000000 4.000000 1.000000 -60.708740 114.000000 50.000000 0.551551 -0.551551 -0.625766
1400.00000000 1070.00000000 -1120.00000000 85 180 123 97.000000 1.000000 4.000000 1.000000 -60.708740 114.000000 50.000000 -0.556602 0.768336 0.315996
1410.00000000 1090.00000000 -1140.00000000 85 180 123 97.000000 1.000000 4.000000 1.000000 -60.708740 114.000000 50.000000 0.824628 -0.368788 -0.428933
1380.00000000 1110.00000000 -1160.00000000 85 180 123 97.000000 1.000000 4.000000 1.000000 -60.708740 114.000000 50.000000 0.685424 -0.578691 -0.441940
1400.00000000 1040.00000000 -1060.00000000 85 180 123 97.000000 1.000000 4.000000 1.000000 -60.708740 114.000000 50.000000 -0.386700 0.752189 0.533549
1370.00000000 1060.00000000 -1050.00000000 85 180 123 97.000000 1.000000 4.000000 1.000000 -60.708740 114.000000 50.000000 0.314848 -0.781526 -0.538598
1350.00000000 1060.00000000 -1180.00000000 85 180 123 97.000000 1.000000 4.000000 1.000000 -60.708740 114.000000 50.000000 -0.286725 0.463409 0.838476
1500.00000000 1140.00000000 -1230.00000000 85 180 123 97.000000 1.000000 4.000000 1.000000 -60.708740 114.000000 50.000000 -0.583900 0.664208 0.466786
1400.00000000 1120.00000000 -1240.00000000 85 180 123 97.000000 1.000000 4.000000 1.000000 -60.708740 114.000000 50.000000 -0.220095 0.644675 0.732088
1420.00000000 1130.00000000 -1240.00000000 85 180 123 97.000000 1.000000 4.000000 1.000000 -60.708740 114.000000 50.000000 -0.427050 0.830463 0.357714
1410.00000000 1110.00000000 -1220.00000000 85 180 123 97.000000 1.000000 4.000000 1.000000 -60.708740 114.000000 50.000000 0.367493 -0.739885 -0.563489
1410.00000000 1110.00000000 -1260.00000000 85 180 123 97.000000 1.000000 4.000000 1.000000 -60.708740 114.000000 50.000000 -0.228387 0.894394 0.384575
1410.00000000 1130.00000000 -1250.00000000 85 180 123 97.000000 1.000000 4.000000 1.000000 -60.708740 114.000000 50.000000 -0.420468 0.810559 0.407678
1410.00000000 1130.00000000 -1250.00000000 85 180 123 97.000000 1.000000 4.000000 1.000000 -60.708740 114.000000 50.000000 -0.420468 0.810559 0.407678
1380.00000000 1120.00000000 -1250.00000000 85 180 123 97.000000 1.000000 4.000000 1.000000 -60.708740 114.000000 50.000000 -0.400956 0.717760 0.569258
1370.00000000 1120.00000000 -1250.00000000 85 180 123 97.000000 1.000000 4.000000 1.000000 -60.708740 114.000000 50.000000 0.684468 -0.523811 -0.507076
1390.00000000 1130.00000000 -1290.00000000 85 180 123 97.000000 1.000000 4.000000 1.000000 -60.708740 114.000000 50.000000 -0.450209 0.839663 0.303774
1350.00000000 1140.00000000 -1300.00000000 85 180 123 97.000000 1.000000 4.000000 1.000000 -60.708740 114.000000 50.000000 -0.460984 0.464265 0.756275
1240.00000000 1330.00000000 -720.00000000 85 180 123 97.000000 1.000000 4.000000 1.000000 -60.708740 114.000000 50.000000 0.724674 0.230080 0.649546
1190.00000000 1320.00000000 -810.00000000 85 180 123 97.000000 1.000000 4.000000 1.000000 -60.708740 114.000000 50.000000 0.929523 -0.183109 -0.320091
1340.00000000 1370.00000000 -880.00000000 85 180 123 97.000000 1.000000 4.000000 1.000000 -60.708740 114.000000 50.000000 0.897830 -0.438849 0.036235
1340.00000000 1340.00000000 -890.00000000 85 180 123 97.000000 1.000000 4.000000 1.000000 -60.708740 114.000000 50.000000 0.818008 -0.498938 -0.286224
1310.00000000 1350.00000000 -940.00000000 85 180 123 97.000000 1.000000 4.000000 1.000000 -60.708740 114.000000 50.000000 0.830934 -0.367377 -0.417832
1330.00000000 1370.00000000 -980.00000000 85 180 123 97.000000 1.000000 4.000000 1.000000 -60.708740 114.000000 50.000000 0.721838 -0.639342 -0.264938
1330.00000000 1360.00000000 -1020.00000000 85 180 123 97.000000 1.000000 4.000000 1.000000 -60.708740 114.000000 50.000000 0.920133 -0.377104 0.105589
1330.00000000 1360.00000000 -1020.00000000 85 180 123 97.000000 1.000000 4.000000 1.000000 -60.708740 114.000000 50.000000 0.920133 -0.377104 0.105589
1310.00000000 1340.00000000 -990.00000000 85 180 123 97.000000 1.000000 4.000000 1.000000 -60.708740 114.000000 50.000000 0.936627 -0.343825 0.067184
1330.00000000 1320.00000000 -1030.00000000 85 180 123 97.000000 1.000000 4.000000 1.000000 -60.708740 114.000000 50.000000 0.783279 -0.429749 -0.449210
1340.00000000 1400.00000000 -1100.00000000 85 180 123 97.000000 1.000000 4.000000 1.000000 -60.708740 114.000000 50.000000 0.618894 -0.384539 -0.684909
1320.00000000 1370.00000000 -1060.00000000 85 180 123 97.000000 1.000000 4.000000 1.000000 -60.708740 114.000000 50.000000 0.933947 -0.294563 -0.202425
1340.00000000 1390.00000000 -1050.00000000 85 180 123 97.000000 1.000000 4.000000 1.000000 -60.708740 114.000000 50.000000 0.682503 -0.726160 -0.082948
1340.00000000 1360.00000000 -1050.00000000 85 180 123 97.000000 1.000000 4.000000 1.000000 -60.708740 114.000000 50.000000 -0.599166 0.767244 0.228772
1310.00000000 1390.00000000 -1090.00000000 85 180 123 97.000000 1.000000 4.000000 1.000000 -60.708740 114.000000 50.000000 0.602193 -0.697884 -0.387713
1340.00000000 1390.00000000 -1100.00000000 85 180 123 97.000000 1.000000 4.000000 1.000000 -60.708740 114.000000 50.000000 0.799483 -0.416632 -0.432718
1320.00000000 1320.00000000 -1040.00000000 85 180 123 97.000000 1.000000 4.000000 1.000000 -60.708740 114.000000 50.000000 0.755418 -0.575786 -0.312753
1320.00000000 1350.00000000 -1040.00000000 85 180 123 97.000000 1.000000 4.000000 1.000000 -60.708740 114.000000 50.000000 0.824193 -0.385894 -0.414478
1320.00000000 1320.00000000 -1050.00000000 85 180 123 97.000000 1.000000 4.000000 1.000000 -60.708740 114.000000 50.000000 0.927829 -0.346040 -0.139243
1320.00000000 1360.00000000 -1140.00000000 85 180 123 97.000000 1.000000 4.000000 1.000000 -60.708740 114.000000 50.000000 -0.348559 0.659481 0.666027
1320.00000000 1370.00000000 -1140.00000000 85 180 123 97.000000 1.000000 4.000000 1.000000 -60.708740 114.000000 50.000000 -0.590580 0.361546 0.721457
1310.00000000 1380.00000000 -1170.00000000 85 180 123 97.000000 1.000000 4.000000 1.000000 -60.708740 114.000000 50.000000 0.774867 -0.445345 -0.448607
1310.00000000 1330.00000000 -1120.00000000 85 180 123 97.000000 1.000000 4.000000 1.000000 -60.708740 114.000000 50.000000 0.667554 -0.590593 -0.453401
1340.00000000 1320.00000000 -1130.00000000 85 180 123 97.000000 1.000000 4.000000 1.000000 -60.708740 114.000000 50.000000 0.650248 -0.673178 -0.352149
1290.00000000 1320.00000000 -1120.00000000 85 180 123 97.000000 1.000000 4.000000 1.000000 -60.708740 114.000000 50.000000 -0.383131 0.600184 0.702133
1290.00000000 1330.00000000 -1120.00000000 85 180 123 97.000000 1.000000 4.000000 1.000000 -60.708740 114.000000 50.000000 -0.584183 0.346605 0.733890
1290.00000000 1330.00000000 -1200.00000000 85 180 123 97.000000 1.000000 4.000000 1.000000 -60.708740 114.000000 50.000000 -0.404117 0.482019 0.777398
1340.00000000 1280.00000000 -830.00000000 85 180 123 97.000000 1.000000 4.000000 1.000000 -60.708740 114.000000 50.000000 0.916021 -0.041095 -0.399019
1340.00000000 1270.00000000 -830.00000000 85 180 123 97.000000 1.000000 4.000000 1.000000 -60.708740 114.000000 50.000000 0.967251 -0.161856 -0.195522
1180.00000000 1310.00000000 -730.00000000 85 180 123 97.000000 1.000000 4.000000 1.000000 -60.708740 114.000000 50.000000 0.762198 0.437649 0.476988
1220.00000000 1260.00000000 -840.00000000 85 180 123 97.000000 1.000000 4.000000 1.000000 -60.708740 114.000000 50.000000 0.819424 -0.222087 -0.528414
1190.00000000 1300.00000000 -860.00000000 85 180 123 97.000000 1.000000 4.000000 1.000000 -60.708740 114.000000 50.000000 0.924268 -0.241424 -0.295709
1340.00000000 1270.00000000 -1010.00000000 85 180 123 97.000000 1.000000 4.000000 1.000000 -60.708740 114.000000 50.000000 0.635807 -0.511006 -0.578466
1260.00000000 1270.00000000 -960.00000000 85 180 123 97.000000 1.000000 4.000000 1.000000 -60.708740 114.000000 50.000000 0.932593 -0.339001 -0.123892
1260.00000000 1270.00000000 -960.00000000 85 180 123 97.000000 1.000000 4.000000 1.000000 -60.708740 114.000000 50.000000 0.932593 -0.339001 -0.123892
1300.00000000 1200.00000000 -960.00000000 85 180 123 97.000000 1.000000 4.000000 1.000000 -60.708740 114.000000 50.000000 -0.378197 0.796629 0.471540
1340.00000000 1150.00000000 -1030.00000000 85 180 123 97.000000 1.000000 4.000000 1.000000 -60.708740 114.000000 50.000000 0.680390 -0.573400 -0.456379
1300.00000000 1160.00000000 -1000.00000000 85 180 123 97.000000 1.000000 4.000000 1.000000 -60.708740 114.000000 50.000000 -0.482019 0.404117 0.777398
1250.00000000 1290.00000000 -930.00000000 85 180 123 97.000000 1.000000 4.000000 1.000000 -60.708740 114.000000 50.000000 0.559132 -0.576024 -0.596295
1340.00000000 1120.00000000 -930.00000000 85 180 123 97.000000 1.000000 4.000000 1.000000 -60.708740 114.000000 50.000000 -0.462834 0.690073 0.556403
1320.00000000 1120.00000000 -960.00000000 85 180 123 97.000000 1.000000 4.000000 1.000000 -60.708740 114.000000 50.000000 -0.455890 0.452622 0.766353
1330.00000000 1140.00000000 -1030.00000000 85 180 123 97.000000 1.000000 4.000000 1.000000 -60.708740 114.000000 50.000000 0.549952 -0.587179 -0.593948
1330.00000000 1090.00000000 -960.00000000 85 180 123 97.000000 1.000000 4.000000 1.000000 -60.708740 114.000000 50.000000 -0.435356 0.672217 0.598823
1340.00000000 1090.00000000 -960.00000000 85 180 123 97.000000 1.000000 4.000000 1.000000 -60.708740 114.000000 50.000000 -0.315297 0.716290 0.622509
1340.00000000 1080.00000000 -1030.00000000 85 180 123 97.000000 1.000000 4.000000 1.000000 -60.708740 114.000000 50.000000 -0.414110 0.761111 0.499223
1320.00000000 1050.00000000 -900.00000000 85 180 123 97.000000 1.000000 4.000000 1.000000 -60.708740 114.000000 50.000000 -0.480622 0.547608 0.684929
1340.00000000 1020.00000000 -960.00000000 85 180 123 97.000000 1.000000 4.000000 1.000000 -60.708740 114.000000 50.000000 -0.592907 0.650015 0.475334
1240.00000000 1140.00000000 -1010.00000000 85 180 123 97.000000 1.000000 4.000000 1.000000 -60.708740 114.000000 50.000000 -0.460585 0.845690 0.269573
1230.00000000 1130.00000000 -980.00000000 85 180 123 97.000000 1.000000 4.000000 1.000000 -60.708740 114.000000 50.000000 -0.418561 0.706424 0.570764
1310.00000000 1280.00000000 -1070.00000000 85 180 123 97.000000 1.000000 4.000000 1.000000 -60.708740 114.000000 50.000000 0.900027 -0.403362 -0.165077
1320.00000000 1290.00000000 -1090.00000000 85 180 123 97.000000 1.000000 4.000000 1.000000 -60.708740 114.000000 50.000000 -0.347600 0.687041 0.638083
1330.00000000 1300.00000000 -1090.00000000 85 180 123 97.000000 1.000000 4.000000 1.000000 -60.708740 114.000000 50.000000 0.541437 -0.538064 -0.646014
1310.00000000 1300.00000000 -1100.00000000 85 180 123 97.000000 1.000000 4.000000 1.000000 -60.708740 114.000000 50.000000 -0.450433 0.637974 0.624579
1320.00000000 1270.00000000 -1070.00000000 85 180 123 97.000000 1.000000 4.000000 1.000000 -60.708740 114.000000 50.000000 0.869655 -0.485027 -0.091915
1280.00000000 1280.00000000 -1100.00000000 85 180 123 97.000000 1.000000 4.000000 1.000000 -60.708740 114.000000 50.000000 -0.505430 0.439576 0.742505
1290.00000000 1310.00000000 -1110.00000000 85 180 123 97.000000 1.000000 4.000000 1.000000 -60.708740 114.000000 50.000000 0.821182 -0.411385 -0.395502
1280.00000000 1290.00000000 -1110.00000000 85 180 123 97.000000 1.000000 4.000000 1.000000 -60.708740 114.000000 50.000000 0.727522 -0.611377 -0.311334
1280.00000000 1290.00000000 -1100.00000000 85 180 123 97.000000 1.000000 4.000000 1.000000 -60.708740 114.000000 50.000000 0.647231 -0.610437 -0.456573
1280.00000000 1260.00000000 -1070.00000000 85 180 123 97.000000 1.000000 4.000000 1.000000 -60.708740 114.000000 50.000000 -0.301144 0.831657 0.466539
1310.00000000 1290.00000000 -1140.00000000 85 180 123 97.000000 1.000000 4.000000 1.000000 -60.708740 114.000000 50.000000 0.703354 -0.638678 -0.312063
1290.00000000 1290.00000000 -1160.00000000 85 180 123 97.000000 1.000000 4.000000 1.000000 -60.708740 114.000000 50.000000 0.782169 -0.399991 -0.477722
1290.00000000 1290.00000000 -1170.00000000 85 180 123 97.000000 1.000000 4.000000 1.000000 -60.708740 114.000000 50.000000 -0.322288 0.882132 0.343472
1270.00000000 1260.00000000 -1150.00000000 85 180 123 97.000000 1.000000 4.000000 1.000000 -60.708740 114.000000 50.000000 -0.502517 0.803711 0.318631
1270.00000000 1240.00000000 -1130.00000000 85 180 123 97.000000 1.000000 4.000000 1.000000 -60.708740 114.000000 50.000000 -0.758315 0.579512 0.298537
1260.00000000 1260.00000000 -1120.00000000 85 180 123 97.000000 1.000000 4.000000 1.000000 -60.708740 114.000000 50.000000 0.240885 -0.728951 -0.640784
1280.00000000 1190.00000000 -1060.00000000 85 180 123 97.000000 1.000000 4.000000 1.000000 -60.708740 114.000000 50.000000 0.411724 -0.513425 -0.752913
1280.00000000 1180.00000000 -1040.00000000 85 180 123 97.000000 1.000000 4.000000 1.000000 -60.708740 114.000000 50.000000 -0.257983 0.856383 0.447273
1240.00000000 1290.00000000 -1050.00000000 85 180 123 97.000000 1.000000 4.000000 1.000000 -60.708740 114.000000 50.000000 0.585199 -0.662331 -0.467824
1340.00000000 1280.00000000 -1210.00000000 85 180 123 97.000000 1.000000 4.000000 1.000000 -60.708740 114.000000 50.000000 -0.603021 0.723300 0.336456
1300.00000000 1260.00000000 -1230.00000000 85 180 123 97.000000 1.000000 4.000000 1.000000 -60.708740 114.000000 50.000000 -0.061877 0.674886 0.735323
1340.00000000 1230.00000000 -1270.00000000 85 180 123 97.000000 1.000000 4.000000 1.000000 -60.708740 114.000000 50.000000 -0.391463 0.548703 0.738702
1310.00000000 1250.00000000 -1250.00000000 85 180 123 97.000000 1.000000 4.000000 1.000000 -60.708740 114.000000 50.000000 -0.503423 0.473517 0.722736
1310.00000000 1260.00000000 -1250.00000000 85 180 123 97.000000 1.000000 4.000000 1.000000 -60.708740 114.000000 50.000000 -0.184578 0.776446 0.602547
1330.00000000 1230.00000000 -1280.00000000 85 180 123 97.000000 1.000000 4.000000 1.000000 -60.708740 114.000000 50.000000 -0.116240 0.590031 0.798969
1320.00000000 1230.00000000 -1270.00000000 85 180 123 97.000000 1.000000 4.000000 1.000000 -60.708740 114.000000 50.000000 -0.070753 0.648328 0.758067
1260.00000000 1260.00000000 -1270.00000000 85 180 123 97.000000 1.000000 4.000000 1.000000 -60.708740 114.000000 50.000000 -0.438782 0.822122 0.362748
1340.00000000 1150.00000000 -1250.00000000 85 180 123 97.000000 1.000000 4.000000 1.000000 -60.708740 114.000000 50.000000 0.621023 -0.660981 -0.421230
1330.00000000 1170.00000000 -1280.00000000 85 180 123 97.000000 1.000000 4.000000 1.000000 -60.708740 114.000000 50.000000 -0.346722 0.775690 0.527340
1290.00000000 1220.00000000 -1230.00000000 85 180 123 97.000000 1.000000 4.000000 1.000000 -60.708740 114.000000 50.000000 0.710048 -0.523806 -0.470594
1340.00000000 1150.00000000 -1260.00000000 85 180 123 97.000000 1.000000 4.000000 1.000000 -60.708740 114.000000 50.000000 0.620170 -0.532299 -0.576235
1250.00000000 1250.00000000 -1270.00000000 85 180 123 97.000000 1.000000 4.000000 1.000000 -60.708740 114.000000 50.000000 -0.337412 0.437851 0.833330
1250.00000000 1230.00000000 -1290.00000000 85 180 123 97.000000 1.000000 4.000000 1.000000 -60.708740 114.000000 50.000000 0.049848 0.764809 0.642326
1230.00000000 1190.00000000 -1260.00000000 85 180 123 97.000000 1.000000 4.000000 1.000000 -60.708740 114.000000 50.000000 -0.306871 0.747095 0.589643
1310.00000000 1070.00000000 -1090.00000000 85 180 123 97.000000 1.000000 4.000000 1.000000 -60.708740 114.000000 50.000000 -0.189141 0.659689 0.727349
1340.00000000 1070.00000000 -1100.00000000 85 180 123 97.000000 1.000000 4.000000 1.000000 -60.708740 114.000000 50.000000 -0.382706 0.856827 0.345520
1330.00000000 1070.00000000 -1150.00000000 85 180 123 97.000000 1.000000 4.000000 1.000000 -60.708740 114.000000 50.000000 -0.163829 0.801111 0.575657
1330.00000000 1080.00000000 -1150.00000000 85 180 123 97.000000 1.000000 4.000000 1.000000 -60.708740 114.000000 50.000000 -0.318011 0.495212 0.808477
1310.00000000 1070.00000000 -1160.00000000 85 180 123 97.000000 1.000000 4.000000 1.000000 -60.708740 114.000000 50.000000 -0.441748 0.788027 0.428803
1290.00000000 1100.00000000 -1180.00000000 85 180 123 97.000000 1.000000 4.000000 1.000000 -60.708740 114.000000 50.000000 -0.237880 0.567491 0.788268
1520.00000000 860.00000000 -150.00000000 85 180 123 97.000000 1.000000 4.000000 1.000000 -60.708740 114.000000 50.000000 0.924322 0.196755 0.326981
1430.00000000 830.00000000 -60.00000000 85 180 123 97.000000 1.000000 4.000000 1.000000 -60.708740 114.000000 50.000000 0.919342 -0.176525 0.351638
1450.00000000 860.00000000 -60.00000000 85 180 123 97.000000 1.000000 4.000000 1.000000 -60.708740 114.000000 50.000000 0.943570 0.232793 0.235548
1480.00000000 870.00000000 -120.00000000 85 180 123 97.000000 1.000000 4.000000 1.000000 -60.708740 114.000000 50.000000 0.820970 0.017877 0.570691
1440.00000000 820.00000000 -130.00000000 85 180 123 97.000000 1.000000 4.000000 1.000000 -60.708740 114.000000 50.000000 0.918872 0.394537 -0.003855
1440.00000000 820.00000000 -130.00000000 85 180 123 97.000000 1.000000 4.000000 1.000000 -60.708740 114.000000 50.000000 0.918872 0.394537 -0.003855
1430.00000000 820.00000000 -160.00000000 85 180 123 97.000000 1.000000 4.000000 1.000000 -60.708740 114.000000 50.000000 0.921177 0.388884 0.014212
1430.00000000 810.00000000 -150.00000000 85 180 123 97.000000 1.000000 4.000000 1.000000 -60.708740 114.000000 50.000000 0.974799 -0.193462 0.111085
1400.00000000 850.00000000 -20.00000000 85 180 123 97.000000 1.000000 4.000000 1.000000 -60.708740 114.000000 50.000000 0.933979 0.339260 0.112186
1410.00000000 850.00000000 -30.00000000 85 180 123 97.000000 1.000000 4.000000 1.000000 -60.708740 114.000000 50.000000 0.637481 0.427762 0.640810
1410.00000000 860.00000000 -50.00000000 85 180 123 97.000000 1.000000 4.000000 1.000000 -60.708740 114.000000 50.000000 0.945652 0.147041 0.290036
1410.00000000 850.00000000 -50.00000000 85 180 123 97.000000 1.000000 4.000000 1.000000 -60.708740 114.000000 50.000000 0.909843 -0.130378 0.393938
1380.00000000 830.00000000 -20.00000000 85 180 123 97.000000 1.000000 4.000000 1.000000 -60.708740 114.000000 50.000000 0.796473 0.557376 0.234440
1390.00000000 860.00000000 -120.00000000 85 180 123 97.000000 1.000000 4.000000 1.000000 -60.708740 114.000000 50.000000 0.995722 -0.081975 0.042627
1400.00000000 810.00000000 -110.00000000 85 180 123 97.000000 1.000000 4.000000 1.000000 -60.708740 114.000000 50.000000 0.800736 0.015213 0.598824
1400.00000000 820.00000000 -150.00000000 85 180 123 97.000000 1.000000 4.000000 1.000000 -60.708740 114.000000 50.000000 0.934874 0.338605 0.106573
1400.00000000 820.00000000 -160.00000000 85 180 123 97.000000 1.000000 4.000000 1.000000 -60.708740 114.000000 50.000000 0.844477 0.419897 0.332484
1490.00000000 860.00000000 -260.00000000 85 180 123 97.000000 1.000000 4.000000 1.000000 -60.708740 114.000000 50.000000 0.987105 -0.155495 0.038010
1440.00000000 870.00000000 -300.00000000 85 180 123 97.000000 1.000000 4.000000 1.000000 -60.708740 114.000000 50.000000 0.894028 0.017269 0.447678
1440.00000000 870.00000000 -300.00000000 85 180 123 97.000000 1.000000 4.000000 1.000000 -60.708740 114.000000 50.000000 0.894028 0.017269 0.447678
1380.00000000 900.00000000 -260.00000000 85 180 123 97.000000 1.000000 4.000000 1.000000 -60.708740 114.000000 50.000000 0.779278 0.167961 0.603751
1420.00000000 850.00000000 -220.00000000 85 180 123 97.000000 1.000000 4.000000 1.000000 -60.708740 114.000000 50.000000 0.987158 0.144034 0.069089
1420.00000000 850.00000000 -210.00000000 85 180 123 97.000000 1.000000 4.000000 1.000000 -60.708740 114.000000 50.000000 0.989797 -0.053906 -0.131896
1400.00000000 850.00000000 -220.00000000 85 180 123 97.000000 1.000000 4.000000 1.000000 -60.708740 114.000000 50.000000 0.993896 0.086475 0.068506
1420.00000000 840.00000000 -220.00000000 85 180 123 97.000000 1.000000 4.000000 1.000000 -60.708740 114.000000 50.000000 0.997878 -0.032874 0.056204
1420.00000000 830.00000000 -240.00000000 85 180 123 97.000000 1.000000 4.000000 1.000000 -60.708740 114.000000 50.000000 0.932807 -0.344234 0.106645
1420.00000000 830.00000000 -250.00000000 85 180 123 97.000000 1.000000 4.000000 1.000000 -60.708740 114.000000 50.000000 0.967828 -0.234050 -0.092355
1370.00000000 830.00000000 -190.00000000 85 180 123 97.000000 1.000000 4.000000 1.000000 -60.708740 114.000000 50.000000 0.938389 -0.328906 0.106055
1390.00000000 870.00000000 -280.00000000 85 180 123 97.000000 1.000000 4.000000 1.000000 -60.708740 114.000000 50.000000 0.955540 0.001223 0.294859
1390.00000000 870.00000000 -280.00000000 85 180 123 97.000000 1.000000 4.000000 1.000000 -60.708740 114.000000 50.000000 0.955540 0.001223 0.294859
1390.00000000 870.00000000 -330.00000000 85 180 123 97.000000 1.000000 4.000000 1.000000 -60.708740 114.000000 50.000000 0.967510 -0.182622 0.174851
1390.00000000 870.00000000 -320.00000000 85 180 123 97.000000 1.000000 4.000000 1.000000 -60.708740 114.000000 50.000000 0.966776 -0.249451 -0.055847
1390.00000000 860.00000000 -320.00000000 85 180 123 97.000000 1.000000 4.000000 1.000000 -60.708740 114.000000 50.000000 0.963405 0.141715 -0.227525
1420.00000000 880.00000000 -340.00000000 85 180 123 97.000000 1.000000 4.000000 1.000000 -60.708740 114.000000 50.000000 0.921022 -0.368685 -0.125657
1410.00000000 870.00000000 -320.00000000 85 180 123 97.000000 1.000000 4.000000 1.000000 -60.708740 114.000000 50.000000 0.927135 0.165908 0.335999
1390.00000000 860.00000000 -320.00000000 85 180 123 97.000000 1.000000 4.000000 1.000000 -60.708740 114.000000 50.000000 0.963405 0.141715 -0.227525
1350.00000000 850.00000000 -350.00000000 85 180 123 97.000000 1.000000 4.000000 1.000000 -60.708740 114.000000 50.000000 0.992218 0.103427 -0.069330
1360.00000000 850.00000000 -330.00000000 85 180 123 97.000000 1.000000 4.000000 1.000000 -60.708740 114.000000 50.000000 0.974084 0.218772 0.057443
1350.00000000 860.00000000 -350.00000000 85 180 123 97.000000 1.000000 4.000000 1.000000 -60.708740 114.000000 50.000000 0.930804 -0.045820 0.362634
1350.00000000 850.00000000 -340.00000000 85 180 123 97.000000 1.000000 4.000000 1.000000 -60.708740 114.000000 50.000000 0.894962 0.177836 0.409167
1380.00000000 830.00000000 -290.00000000 85 180 123 97.000000 1.000000 4.000000 1.000000 -60.708740 114.000000 50.000000 0.936949 0.213006 0.277047
1460.00000000 770.00000000 -60.00000000 85 180 123 97.000000 1.000000 4.000000 1.000000 -60.708740 114.000000 50.000000 0.941596 -0.011345 0.336554
1430.00000000 770.00000000 -80.00000000 85 180 123 97.000000 1.000000 4.000000 1.000000 -60.708740 114.000000 50.000000 0.962388 0.242216 0.123051
1450.00000000 750.00000000 -60.00000000 85 180 123 97.000000 1.000000 4.000000 1.000000 -60.708740 114.000000 50.000000 0.896876 -0.140714 0.419300
1460.00000000 740.00000000 -70.00000000 85 180 123 97.000000 1.000000 4.000000 1.000000 -60.708740 114.000000 50.000000 0.930877 0.360467 0.059418
1440.00000000 780.00000000 -120.00000000 85 180 123 97.000000 1.000000 4.000000 1.000000 -60.708740 114.000000 50.000000 0.949561 0.112570 0.292682
1450.00000000 800.00000000 -160.00000000 85 180 123 97.000000 1.000000 4.000000 1.000000 -60.708740 114.000000 50.000000 0.948041 0.307296 -0.082382
1430.00000000 750.00000000 -120.00000000 85 180 123 97.000000 1.000000 4.000000 1.000000 -60.708740 114.000000 50.000000 -0.955077 0.210896 -0.208209
1430.00000000 760.00000000 -120.00000000 85 180 123 97.000000 1.000000 4.000000 1.000000 -60.708740 114.000000 50.000000 0.922019 0.179321 0.343110
1450.00000000 710.00000000 -30.00000000 85 180 123 97.000000 1.000000 4.000000 1.000000 -60.708740 114.000000 50.000000 0.971759 -0.122895 0.201447
1400.00000000 750.00000000 -40.00000000 85 180 123 97.000000 1.000000 4.000000 1.000000 -60.708740 114.000000 50.000000 0.925029 -0.057068 0.375586
1420.00000000 780.00000000 -110.00000000 85 180 123 97.000000 1.000000 4.000000 1.000000 -60.708740 114.000000 50.000000 0.930303 0.366791 -0.001269
1410.00000000 700.00000000 -60.00000000 85 180 123 97.000000 1.000000 4.000000 1.000000 -60.708740 114.000000 50.000000 0.859777 -0.107293 0.499271
1390.00000000 660.00000000 -60.00000000 85 180 123 97.000000 1.000000 4.000000 1.000000 -60.708740 114.000000 50.000000 0.999820 -0.000997 0.018940
1350.00000000 690.00000000 -50.00000000 85 180 123 97.000000 1.000000 4.000000 1.000000 -60.708740 114.000000 50.000000 0.904749 -0.092547 0.415770
1350.00000000 690.00000000 -20.00000000 85 180 123 97.000000 1.000000 4.000000 1.000000 -60.708740 114.000000 50.000000 0.963285 0.163379 0.213047
1360.00000000 650.00000000 -40.00000000 85 180 123 97.000000 1.000000 4.000000 1.000000 -60.708740 114.000000 50.000000 0.914033 0.314335 0.256393
1360.00000000 660.00000000 -40.00000000 85 180 123 97.000000 1.000000 4.000000 1.000000 -60.708740 114.000000 50.000000 0.958147 0.031068 0.284586
1380.00000000 640.00000000 -70.00000000 85 180 123 97.000000 1.000000 4.000000 1.000000 -60.708740 114.000000 50.000000 0.889409 -0.432491 0.147995
1590.00000000 970.00000000 -390.00000000 85 180 123 97.000000 1.000000 4.000000 1.000000 -60.708740 114.000000 50.000000 0.864660 -0.449623 0.224060
1580.00000000 950.00000000 -500.00000000 85 180 123 97.000000 1.000000 4.000000 1.000000 -60.708740 114.000000 50.000000 0.966735 -0.015729 -0.255296
1600.00000000 910.00000000 -590.00000000 85 180 123 97.000000 1.000000 4.000000 1.000000 -60.708740 114.000000 50.000000 0.777680 -0.618307 -0.113627
1590.00000000 950.00000000 -570.00000000 85 180 123 97.000000 1.000000 4.000000 1.000000 -60.708740 114.000000 50.000000 0.939198 0.029470 -0.342109
1560.00000000 910.00000000 -690.00000000 85 180 123 97.000000 1.000000 4.000000 1.000000 -60.708740 114.000000 50.000000 0.864930 -0.500316 0.039751
1550.00000000 950.00000000 -670.00000000 85 180 123 97.000000 1.000000 4.000000 1.000000 -60.708740 114.000000 50.000000 0.948187 -0.317711 -0.001236
1520.00000000 960.00000000 -670.00000000 85 180 123 97.000000 1.000000 4.000000 1.000000 -60.708740 114.000000 50.000000 0.886695 -0.432499 0.163453
1430.00000000 910.00000000 -370.00000000 85 180 123 97.000000 1.000000 4.000000 1.000000 -60.708740 114.000000 50.000000 0.941947 0.314876 0.116571
1430.00000000 900.00000000 -390.00000000 85 180 123 97.000000 1.000000 4.000000 1.000000 -60.708740 114.000000 50.000000 0.970485 -0.167944 -0.173072
1430.00000000 870.00000000 -410.00000000 85 180 123 97.000000 1.000000 4.000000 1.000000 -60.708740 114.000000 50.000000 0.998024 0.057963 0.024239
1400.00000000 910.00000000 -380.00000000 85 180 123 97.000000 1.000000 4.000000 1.000000 -60.708740 114.000000 50.000000 0.946390 0.147156 0.287562
1390.00000000 900.00000000 -420.00000000 85 180 123 97.000000 1.000000 4.000000 1.000000 -60.708740 114.000000 50.000000 0.899189 0.022579 0.436977
1390.00000000 900.00000000 -420.00000000 85 180 123 97.000000 1.000000 4.000000 1.000000 -60.708740 114.000000 50.000000 0.899189 0.022579 0.436977
1400.00000000 940.00000000 -470.00000000 85 180 123 97.000000 1.000000 4.000000 1.000000 -60.708740 114.000000 50.000000 0.970523 0.022907 -0.239918
1390.00000000 910.00000000 -450.00000000 85 180 123 97.000000 1.000000 4.000000 1.000000 -60.708740 114.000000 50.000000 0.999987 0.004907 -0.000981
1420.00000000 890.00000000 -360.00000000 85 180 123 97.000000 1.000000 4.000000 1.000000 -60.708740 114.000000 50.000000 0.990187 0.065705 0.123341
1400.00000000 890.00000000 -370.00000000 85 180 123 97.000000 1.000000 4.000000 1.000000 -60.708740 114.000000 50.000000 0.995176 0.031680 0.092854
1400.00000000 890.00000000 -410.00000000 85 180 123 97.000000 1.000000 4.000000 1.000000 -60.708740 114.000000 50.000000 0.961812 0.267799 -0.056577
1360.00000000 850.00000000 -390.00000000 85 180 123 97.000000 1.000000 4.000000 1.000000 -60.708740 114.000000 50.000000 0.977602 0.064364 0.200378
1470.00000000 960.00000000 -620.00000000 85 180 123 97.000000 1.000000 4.000000 1.000000 -60.708740 114.000000 50.000000 0.957097 -0.157967 -0.242925
1260.00000000 920.00000000 -120.00000000 85 180 123 97.000000 1.000000 4.000000 1.000000 -60.708740 114.000000 50.000000 0.926350 0.029882 0.375477
1270.00000000 820.00000000 -50.00000000 85 180 123 97.000000 1.000000 4.000000 1.000000 -60.708740 114.000000 50.000000 0.577179 0.256349 0.775338
1180.00000000 900.00000000 -40.00000000 85 180 123 97.000000 1.000000 4.000000 1.000000 -60.708740 114.000000 50.000000 0.333135 0.690646 0.641895
1200.00000000 920.00000000 -20.00000000 85 180 123 97.000000 1.000000 4.000000 1.000000 -60.708740 114.000000 50.000000 0.453190 0.197620 0.869233
1220.00000000 900.00000000 -120.00000000 85 180 123 97.000000 1.000000 4.000000 1.000000 -60.708740 114.000000 50.000000 0.492908 0.361252 0.791542
1220.00000000 850.00000000 -50.00000000 85 180 123 97.000000 1.000000 4.000000 1.000000 -60.708740 114.000000 50.000000 0.520359 0.302093 0.798728
1220.00000000 850.00000000 -50.00000000 85 180 123 97.000000 1.000000 4.000000 1.000000 -60.708740 114.000000 50.000000 0.520359 0.302093 0.798728
1220.00000000 880.00000000 -70.00000000 85 180 123 97.000000 1.000000 4.000000 1.000000 -60.708740 114.000000 50.000000 0.411502 0.560237 0.718888
1230.00000000 870.00000000 -70.00000000 85 180 123 97.000000 1.000000 4.000000 1.000000 -60.708740 114.000000 50.000000 0.542818 0.469328 0.696477
1240.00000000 810.00000000 -50.00000000 85 180 123 97.000000 1.000000 4.000000 1.000000 -60.708740 114.000000 50.000000 0.848231 0.305487 0.432644
1210.00000000 860.00000000 -40.00000000 85 180 123 97.000000 1.000000 4.000000 1.000000 -60.708740 114.000000 50.000000 0.639106 0.085894 0.764307
1200.00000000 860.00000000 -70.00000000 85 180 123 97.000000 1.000000 4.000000 1.000000 -60.708740 114.000000 50.000000 0.417513 0.505928 0.754798
1230.00000000 890.00000000 -160.00000000 85 180 123 97.000000 1.000000 4.000000 1.000000 -60.708740 114.000000 50.000000 0.946800 0.085120 0.310362
1200.00000000 840.00000000 -150.00000000 85 180 123 97.000000 1.000000 4.000000 1.000000 -60.708740 114.000000 50.000000 0.791245 -0.064387 0.608100
1270.00000000 970.00000000 -230.00000000 85 180 123 97.000000 1.000000 4.000000 1.000000 -60.708740 114.000000 50.000000 0.614878 0.171558 0.769736
1280.00000000 910.00000000 -260.00000000 85 180 123 97.000000 1.000000 4.000000 1.000000 -60.708740 114.000000 50.000000 0.869664 -0.109957 0.481242
1300.00000000 960.00000000 -330.00000000 85 180 123 97.000000 1.000000 4.000000 1.000000 -60.708740 114.000000 50.000000 0.955558 0.269449 0.119609
1290.00000000 900.00000000 -310.00000000 85 180 123 97.000000 1.000000 4.000000 1.000000 -60.708740 114.000000 50.000000 0.862110 -0.188447 0.470377
1330.00000000 810.00000000 -220.00000000 85 180 123 97.000000 1.000000 4.000000 1.000000 -60.708740 114.000000 50.000000 0.982524 0.142095 0.120235
1340.00000000 810.00000000 -230.00000000 85 180 123 97.000000 1.000000 4.000000 1.000000 -60.708740 114.000000 50.000000 0.918184 -0.389655 0.071459
1330.00000000 810.00000000 -210.00000000 85 180 123 97.000000 1.000000 4.000000 1.000000 -60.708740 114.000000 50.000000 0.927253 0.084785 0.364710
1330.00000000 820.00000000 -220.00000000 85 180 123 97.000000 1.000000 4.000000 1.000000 -60.708740 114.000000 50.000000 0.911935 0.400595 0.088869
1330.00000000 810.00000000 -250.00000000 85 180 123 97.000000 1.000000 4.000000 1.000000 -60.708740 114.000000 50.000000 0.963146 0.257600 -0.077407
1340.00000000 840.00000000 -250.00000000 85 180 123 97.000000 1.000000 4.000000 1.000000 -60.708740 114.000000 50.000000 0.953415 0.122638 0.275607
1340.00000000 810.00000000 -240.00000000 85 180 123 97.000000 1.000000 4.000000 1.000000 -60.708740 114.000000 50.000000 0.985302 0.001131 -0.170816
1280.00000000 880.00000000 -210.00000000 85 180 123 97.000000 1.000000 4.000000 1.000000 -60.708740 114.000000 50.000000 0.976692 0.049499 0.208860
1280.00000000 820.00000000 -220.00000000 85 180 123 97.000000 1.000000 4.000000 1.000000 -60.708740 114.000000 50.000000 0.828004 0.009549 0.560642
1340.00000000 840.00000000 -300.00000000 85 180 123 97.000000 1.000000 4.000000 1.000000 -60.708740 114.000000 50.000000 0.894121 -0.272253 0.355565
1250.00000000 910.00000000 -260.00000000 85 180 123 97.000000 1.000000 4.000000 1.000000 -60.708740 114.000000 50.000000 0.963679 0.192736 0.184869
1200.00000000 960.00000000 -260.00000000 85 180 123 97.000000 1.000000 4.000000 1.000000 -60.708740 114.000000 50.000000 0.694645 0.237849 0.678893
1210.00000000 910.00000000 -240.00000000 85 180 123 97.000000 1.000000 4.000000 1.000000 -60.708740 114.000000 50.000000 0.658770 0.318864 0.681431
1230.00000000 970.00000000 -280.00000000 85 180 123 97.000000 1.000000 4.000000 1.000000 -60.708740 114.000000 50.000000 0.904581 -0.049732 0.423392
1240.00000000 940.00000000 -340.00000000 85 180 123 97.000000 1.000000 4.000000 1.000000 -60.708740 114.000000 50.000000 0.988460 0.097322 0.116082
1230.00000000 910.00000000 -290.00000000 85 180 123 97.000000 1.000000 4.000000 1.000000 -60.708740 114.000000 50.000000 0.949396 -0.047278 0.310502
1230.00000000 910.00000000 -290.00000000 85 180 123 97.000000 1.000000 4.000000 1.000000 -60.708740 114.000000 50.000000 0.949396 -0.047278 0.310502
1230.00000000 900.00000000 -280.00000000 85 180 123 97.000000 1.000000 4.000000 1.000000 -60.708740 114.000000 50.000000 0.984028 0.152219 -0.092290
1240.00000000 910.00000000 -330.00000000 85 180 123 97.000000 1.000000 4.000000 1.000000 -60.708740 114.000000 50.000000 0.823419 -0.182146 0.537405
1210.00000000 930.00000000 -340.00000000 85 180 123 97.000000 1.000000 4.000000 1.000000 -60.708740 114.000000 50.000000 0.986788 -0.160852 0.019394
1190.00000000 880.00000000 -230.00000000 85 180 123 97.000000 1.000000 4.000000 1.000000 -60.708740 114.000000 50.000000 0.620305 0.380081 0.686120
1200.00000000 880.00000000 -260.00000000 85 180 123 97.000000 1.000000 4.000000 1.000000 -60.708740 114.000000 50.000000 0.958917 0.241378 0.149048
1200.00000000 880.00000000 -280.00000000 85 180 123 97.000000 1.000000 4.000000 1.000000 -60.708740 114.000000 50.000000 0.856924 -0.303077 0.416924
1280.00000000 770.00000000 -30.00000000 85 180 123 97.000000 1.000000 4.000000 1.000000 -60.708740 114.000000 50.000000 0.865355 0.017550 0.500853
1260.00000000 760.00000000 -100.00000000 85 180 123 97.000000 1.000000 4.000000 1.000000 -60.708740 114.000000 50.000000 0.858657 0.379047 0.345010
1330.00000000 680.00000000 -40.00000000 85 180 123 97.000000 1.000000 4.000000 1.000000 -60.708740 114.000000 50.000000 0.994399 0.096447 0.043235
1220.00000000 780.00000000 -70.00000000 85 180 123 97.000000 1.000000 4.000000 1.000000 -60.708740 114.000000 50.000000 0.722223 0.123597 0.680528
1220.00000000 800.00000000 -70.00000000 85 180 123 97.000000 1.000000 4.000000 1.000000 -60.708740 114.000000 50.000000 0.946887 0.305064 0.101688
1180.00000000 760.00000000 -70.00000000 85 180 123 97.000000 1.000000 4.000000 1.000000 -60.708740 114.000000 50.000000 0.882679 0.073441 0.464203
1180.00000000 760.00000000 -80.00000000 85 180 123 97.000000 1.000000 4.000000 1.000000 -60.708740 114.000000 50.000000 0.828066 0.029031 0.559878
1200.00000000 800.00000000 -150.00000000 85 180 123 97.000000 1.000000 4.000000 1.000000 -60.708740 114.000000 50.000000 0.948265 0.018790 0.316923
1220.00000000 710.00000000 -60.00000000 85 180 123 97.000000 1.000000 4.000000 1.000000 -60.708740 114.000000 50.000000 0.831211 -0.168630 0.529766
1160.00000000 940.00000000 -30.00000000 85 180 123 97.000000 1.000000 4.000000 1.000000 -60.708740 114.000000 50.000000 0.258304 0.450885 0.854390
1130.00000000 900.00000000 -70.00000000 85 180 123 97.000000 1.000000 4.000000 1.000000 -60.708740 114.000000 50.000000 0.514998 0.326856 0.792428
1160.00000000 870.00000000 -30.00000000 85 180 123 97.000000 1.000000 4.000000 1.000000 -60.708740 114.000000 50.000000 0.305839 0.410346 0.859115
1150.00000000 870.00000000 -30.00000000 85 180 123 97.000000 1.000000 4.000000 1.000000 -60.708740 114.000000 50.000000 0.280103 0.664243 0.693054
1150.00000000 860.00000000 -60.00000000 85 180 123 97.000000 1.000000 4.000000 1.000000 -60.708740 114.000000 50.000000 0.764049 0.188333 0.617058
1140.00000000 860.00000000 -50.00000000 85 180 123 97.000000 1.000000 4.000000 1.000000 -60.708740 114.000000 50.000000 0.603751 0.167961 0.779278
1140.00000000 880.00000000 -50.00000000 85 180 123 97.000000 1.000000 4.000000 1.000000 -60.708740 114.000000 50.000000 0.523912 0.218424 0.823290
1150.00000000 870.00000000 -30.00000000 85 180 123 97.000000 1.000000 4.000000 1.000000 -60.708740 114.000000 50.000000 0.280103 0.664243 0.693054
1160.00000000 850.00000000 -70.00000000 85 180 123 97.000000 1.000000 4.000000 1.000000 -60.708740 114.000000 50.000000 0.597750 0.201299 0.775999
1120.00000000 890.00000000 -60.00000000 85 180 123 97.000000 1.000000 4.000000 1.000000 -60.708740 114.000000 50.000000 0.304520 0.340522 0.889557
1110.00000000 830.00000000 -60.00000000 85 180 123 97.000000 1.000000 4.000000 1.000000 -60.708740 114.000000 50.000000 0.623123 0.088603 0.777089
1100.00000000 810.00000000 -20.00000000 85 180 123 97.000000 1.000000 4.000000 1.000000 -60.708740 114.000000 50.000000 0.289214 0.615180 0.733422
1090.00000000 820.00000000 -100.00000000 85 180 123 97.000000 1.000000 4.000000 1.000000 -60.708740 114.000000 50.000000 0.449721 0.433486 0.780923
1090.00000000 820.00000000 -100.00000000 85 180 123 97.000000 1.000000 4.000000 1.000000 -60.708740 114.000000 50.000000 0.449721 0.433486 0.780923
1070.00000000 840.00000000 -170.00000000 85 180 123 97.000000 1.000000 4.000000 1.000000 -60.708740 114.000000 50.000000 0.300976 0.398755 0.866261
1070.00000000 820.00000000 -130.00000000 85 180 123 97.000000 1.000000 4.000000 1.000000 -60.708740 114.000000 50.000000 0.380190 0.755485 0.533571
1080.00000000 820.00000000 -130.00000000 85 180 123 97.000000 1.000000 4.000000 1.000000 -60.708740 114.000000 50.000000 0.510160 0.687461 0.516850
1160.00000000 930.00000000 -220.00000000 85 180 123 97.000000 1.000000 4.000000 1.000000 -60.708740 114.000000 50.000000 0.526253 0.408215 0.745935
1120.00000000 880.00000000 -200.00000000 85 180 123 97.000000 1.000000 4.000000 1.000000 -60.708740 114.000000 50.000000 0.459713 0.590104 0.663658
1170.00000000 730.00000000 -40.00000000 85 180 123 97.000000 1.000000 4.000000 1.000000 -60.708740 114.000000 50.000000 0.851585 0.274655 0.446507
1170.00000000 730.00000000 -40.00000000 85 180 123 97.000000 1.000000 4.000000 1.000000 -60.708740 114.000000 50.000000 0.851585 0.274655 0.446507
1110.00000000 790.00000000 -50.00000000 85 180 123 97.000000 1.000000 4.000000 1.000000 -60.708740 114.000000 50.000000 0.657937 0.503128 0.560340
1090.00000000 780.00000000 -50.00000000 85 180 123 97.000000 1.000000 4.000000 1.000000 -60.708740 114.000000 50.000000 0.903989 0.299363 0.305262
1120.00000000 790.00000000 -70.00000000 85 180 123 97.000000 1.000000 4.000000 1.000000 -60.708740 114.000000 50.000000 0.733644 0.625895 0.264619
1130.00000000 790.00000000 -90.00000000 85 180 123 97.000000 1.000000 4.000000 1.000000 -60.708740 114.000000 50.000000 0.804363 0.517878 0.291208
1120.00000000 740.00000000 -60.00000000 85 180 123 97.000000 1.000000 4.000000 1.000000 -60.708740 114.000000 50.000000 0.764121 0.092045 0.638472
