//X Y Z R G B PointSourceId ScanDirectionFlag NumberOfReturns ReturnNumber GpsTime Intensity Classification Nx Ny Nz
270.00000000 2670.00000000 -880.00000000 165 194 76 97.000000 1.000000 4.000000 1.000000 -60.708740 114.000000 156.000000 -0.435787 0.785713 0.439027
260.00000000 2700.00000000 -890.00000000 165 194 76 97.000000 1.000000 4.000000 1.000000 -60.708740 114.000000 156.000000 -0.209512 0.892257 0.399977
260.00000000 2700.00000000 -890.00000000 165 194 76 97.000000 1.000000 4.000000 1.000000 -60.708740 114.000000 156.000000 -0.209512 0.892257 0.399977
250.00000000 2740.00000000 -950.00000000 165 194 76 97.000000 1.000000 4.000000 1.000000 -60.708740 114.000000 156.000000 -0.388499 0.920544 0.040825
250.00000000 2740.00000000 -950.00000000 165 194 76 97.000000 1.000000 4.000000 1.000000 -60.708740 114.000000 156.000000 -0.388499 0.920544 0.040825
280.00000000 2720.00000000 -990.00000000 165 194 76 97.000000 1.000000 4.000000 1.000000 -60.708740 114.000000 156.000000 -0.550473 0.833413 0.049024
250.00000000 2670.00000000 -960.00000000 165 194 76 97.000000 1.000000 4.000000 1.000000 -60.708740 114.000000 156.000000 -0.239799 0.920427 0.308724
220.00000000 2750.00000000 -910.00000000 165 194 76 97.000000 1.000000 4.000000 1.000000 -60.708740 114.000000 156.000000 -0.188444 0.886712 0.422174
230.00000000 2750.00000000 -910.00000000 165 194 76 97.000000 1.000000 4.000000 1.000000 -60.708740 114.000000 156.000000 -0.065858 0.917982 0.391117
210.00000000 2780.00000000 -930.00000000 165 194 76 97.000000 1.000000 4.000000 1.000000 -60.708740 114.000000 156.000000 -0.668315 0.743657 0.018138
210.00000000 2760.00000000 -980.00000000 165 194 76 97.000000 1.000000 4.000000 1.000000 -60.708740 114.000000 156.000000 -0.299575 0.874395 0.381692
240.00000000 2780.00000000 -980.00000000 165 194 76 97.000000 1.000000 4.000000 1.000000 -60.708740 114.000000 156.000000 0.026303 0.986934 0.158962
220.00000000 2760.00000000 -970.00000000 165 194 76 97.000000 1.000000 4.000000 1.000000 -60.708740 114.000000 156.000000 0.032617 0.972470 0.230735
220.00000000 2760.00000000 -970.00000000 165 194 76 97.000000 1.000000 4.000000 1.000000 -60.708740 114.000000 156.000000 0.032617 0.972470 0.230735
170.00000000 2750.00000000 -980.00000000 165 194 76 97.000000 1.000000 4.000000 1.000000 -60.708740 114.000000 156.000000 0.728312 -0.615769 -0.300650
200.00000000 2750.00000000 -980.00000000 165 194 76 97.000000 1.000000 4.000000 1.000000 -60.708740 114.000000 156.000000 -0.408639 0.912583 0.014361
170.00000000 2750.00000000 -980.00000000 165 194 76 97.000000 1.000000 4.000000 1.000000 -60.708740 114.000000 156.000000 0.728312 -0.615769 -0.300650
170.00000000 2760.00000000 -990.00000000 165 194 76 97.000000 1.000000 4.000000 1.000000 -60.708740 114.000000 156.000000 -0.288535 0.760392 0.581852
190.00000000 2760.00000000 -1020.00000000 165 194 76 97.000000 1.000000 4.000000 1.000000 -60.708740 114.000000 156.000000 -0.073226 0.954509 0.289051
240.00000000 2720.00000000 -880.00000000 165 194 76 97.000000 1.000000 4.000000 1.000000 -60.708740 114.000000 156.000000 -0.265285 0.953158 0.145307
220.00000000 2720.00000000 -920.00000000 165 194 76 97.000000 1.000000 4.000000 1.000000 -60.708740 114.000000 156.000000 -0.453117 0.630351 0.630351
230.00000000 2720.00000000 -910.00000000 165 194 76 97.000000 1.000000 4.000000 1.000000 -60.708740 114.000000 156.000000 0.630030 -0.616589 -0.472102
210.00000000 2720.00000000 -920.00000000 165 194 76 97.000000 1.000000 4.000000 1.000000 -60.708740 114.000000 156.000000 0.423752 -0.609871 -0.669695
240.00000000 2740.00000000 -920.00000000 165 194 76 97.000000 1.000000 4.000000 1.000000 -60.708740 114.000000 156.000000 -0.270131 0.961162 -0.056539
240.00000000 2740.00000000 -920.00000000 165 194 76 97.000000 1.000000 4.000000 1.000000 -60.708740 114.000000 156.000000 -0.270131 0.961162 -0.056539
220.00000000 2740.00000000 -940.00000000 165 194 76 97.000000 1.000000 4.000000 1.000000 -60.708740 114.000000 156.000000 -0.320250 0.865747 0.384606
230.00000000 2720.00000000 -910.00000000 165 194 76 97.000000 1.000000 4.000000 1.000000 -60.708740 114.000000 156.000000 0.630030 -0.616589 -0.472102
240.00000000 2720.00000000 -910.00000000 165 194 76 97.000000 1.000000 4.000000 1.000000 -60.708740 114.000000 156.000000 -0.056900 0.927610 0.369191
220.00000000 2730.00000000 -940.00000000 165 194 76 97.000000 1.000000 4.000000 1.000000 -60.708740 114.000000 156.000000 0.697213 -0.655540 -0.290105
240.00000000 2740.00000000 -930.00000000 165 194 76 97.000000 1.000000 4.000000 1.000000 -60.708740 114.000000 156.000000 -0.284745 0.901448 0.326056
220.00000000 2690.00000000 -900.00000000 165 194 76 97.000000 1.000000 4.000000 1.000000 -60.708740 114.000000 156.000000 -0.296638 0.723155 0.623741
200.00000000 2720.00000000 -910.00000000 165 194 76 97.000000 1.000000 4.000000 1.000000 -60.708740 114.000000 156.000000 -0.518425 0.592727 0.616369
180.00000000 2720.00000000 -930.00000000 165 194 76 97.000000 1.000000 4.000000 1.000000 -60.708740 114.000000 156.000000 -0.501150 0.828054 0.251346
190.00000000 2730.00000000 -940.00000000 165 194 76 97.000000 1.000000 4.000000 1.000000 -60.708740 114.000000 156.000000 0.779222 -0.536015 -0.324809
200.00000000 2710.00000000 -920.00000000 165 194 76 97.000000 1.000000 4.000000 1.000000 -60.708740 114.000000 156.000000 -0.402510 0.900992 0.161863
210.00000000 2670.00000000 -970.00000000 165 194 76 97.000000 1.000000 4.000000 1.000000 -60.708740 114.000000 156.000000 0.474083 -0.678459 -0.561194
210.00000000 2670.00000000 -980.00000000 165 194 76 97.000000 1.000000 4.000000 1.000000 -60.708740 114.000000 156.000000 -0.470451 0.744469 0.473753
210.00000000 2670.00000000 -980.00000000 165 194 76 97.000000 1.000000 4.000000 1.000000 -60.708740 114.000000 156.000000 -0.470451 0.744469 0.473753
210.00000000 2680.00000000 -1000.00000000 165 194 76 97.000000 1.000000 4.000000 1.000000 -60.708740 114.000000 156.000000 -0.257073 0.913554 0.315169
210.00000000 2690.00000000 -1020.00000000 165 194 76 97.000000 1.000000 4.000000 1.000000 -60.708740 114.000000 156.000000 -0.250612 0.858156 0.448064
180.00000000 2700.00000000 -960.00000000 165 194 76 97.000000 1.000000 4.000000 1.000000 -60.708740 114.000000 156.000000 -0.518834 0.854788 -0.012192
180.00000000 2700.00000000 -960.00000000 165 194 76 97.000000 1.000000 4.000000 1.000000 -60.708740 114.000000 156.000000 -0.518834 0.854788 -0.012192
200.00000000 2670.00000000 -980.00000000 165 194 76 97.000000 1.000000 4.000000 1.000000 -60.708740 114.000000 156.000000 -0.409482 0.628315 0.661471
200.00000000 2670.00000000 -990.00000000 165 194 76 97.000000 1.000000 4.000000 1.000000 -60.708740 114.000000 156.000000 -0.694276 0.490176 0.526981
150.00000000 2750.00000000 -940.00000000 165 194 76 97.000000 1.000000 4.000000 1.000000 -60.708740 114.000000 156.000000 0.752227 -0.653288 -0.085844
160.00000000 2750.00000000 -970.00000000 165 194 76 97.000000 1.000000 4.000000 1.000000 -60.708740 114.000000 156.000000 -0.207847 0.975280 0.075022
160.00000000 2750.00000000 -970.00000000 165 194 76 97.000000 1.000000 4.000000 1.000000 -60.708740 114.000000 156.000000 -0.207847 0.975280 0.075022
140.00000000 2760.00000000 -1010.00000000 165 194 76 97.000000 1.000000 4.000000 1.000000 -60.708740 114.000000 156.000000 -0.380298 0.918482 0.108461
160.00000000 2750.00000000 -1000.00000000 165 194 76 97.000000 1.000000 4.000000 1.000000 -60.708740 114.000000 156.000000 -0.712914 0.698512 0.061930
160.00000000 2750.00000000 -990.00000000 165 194 76 97.000000 1.000000 4.000000 1.000000 -60.708740 114.000000 156.000000 -0.710020 0.601795 0.365669
140.00000000 2760.00000000 -1010.00000000 165 194 76 97.000000 1.000000 4.000000 1.000000 -60.708740 114.000000 156.000000 -0.380298 0.918482 0.108461
150.00000000 2770.00000000 -1010.00000000 165 194 76 97.000000 1.000000 4.000000 1.000000 -60.708740 114.000000 156.000000 0.351487 -0.762904 -0.542618
130.00000000 2770.00000000 -1020.00000000 165 194 76 97.000000 1.000000 4.000000 1.000000 -60.708740 114.000000 156.000000 -0.646933 0.731113 0.216684
120.00000000 2740.00000000 -1010.00000000 165 194 76 97.000000 1.000000 4.000000 1.000000 -60.708740 114.000000 156.000000 -0.270560 0.811680 0.517661
160.00000000 2710.00000000 -1010.00000000 165 194 76 97.000000 1.000000 4.000000 1.000000 -60.708740 114.000000 156.000000 0.661370 -0.513277 -0.546934
150.00000000 2730.00000000 -1000.00000000 165 194 76 97.000000 1.000000 4.000000 1.000000 -60.708740 114.000000 156.000000 -0.427645 0.885941 0.179523
150.00000000 2730.00000000 -990.00000000 165 194 76 97.000000 1.000000 4.000000 1.000000 -60.708740 114.000000 156.000000 -0.363990 0.901936 0.232428
160.00000000 2710.00000000 -1010.00000000 165 194 76 97.000000 1.000000 4.000000 1.000000 -60.708740 114.000000 156.000000 0.661370 -0.513277 -0.546934
160.00000000 2700.00000000 -1000.00000000 165 194 76 97.000000 1.000000 4.000000 1.000000 -60.708740 114.000000 156.000000 -0.225759 0.815497 0.532914
160.00000000 2700.00000000 -1000.00000000 165 194 76 97.000000 1.000000 4.000000 1.000000 -60.708740 114.000000 156.000000 -0.225759 0.815497 0.532914
150.00000000 2690.00000000 -1000.00000000 165 194 76 97.000000 1.000000 4.000000 1.000000 -60.708740 114.000000 156.000000 -0.453913 0.857729 0.241379
150.00000000 2690.00000000 -1000.00000000 165 194 76 97.000000 1.000000 4.000000 1.000000 -60.708740 114.000000 156.000000 -0.453913 0.857729 0.241379
200.00000000 2820.00000000 -1090.00000000 165 194 76 97.000000 1.000000 4.000000 1.000000 -60.708740 114.000000 156.000000 0.017659 0.857119 0.514815
200.00000000 2710.00000000 -1080.00000000 165 194 76 97.000000 1.000000 4.000000 1.000000 -60.708740 114.000000 156.000000 -0.420338 0.780627 0.462534
180.00000000 2700.00000000 -1050.00000000 165 194 76 97.000000 1.000000 4.000000 1.000000 -60.708740 114.000000 156.000000 -0.292534 0.942911 0.159193
190.00000000 2700.00000000 -1070.00000000 165 194 76 97.000000 1.000000 4.000000 1.000000 -60.708740 114.000000 156.000000 -0.088234 0.996086 -0.005315
180.00000000 2700.00000000 -1070.00000000 165 194 76 97.000000 1.000000 4.000000 1.000000 -60.708740 114.000000 156.000000 -0.143911 0.989247 -0.026063
190.00000000 2680.00000000 -1080.00000000 165 194 76 97.000000 1.000000 4.000000 1.000000 -60.708740 114.000000 156.000000 -0.112002 0.880424 0.460770
220.00000000 2690.00000000 -1130.00000000 165 194 76 97.000000 1.000000 4.000000 1.000000 -60.708740 114.000000 156.000000 -0.126605 0.991923 0.007706
240.00000000 2690.00000000 -1170.00000000 165 194 76 97.000000 1.000000 4.000000 1.000000 -60.708740 114.000000 156.000000 0.175340 0.984427 0.012606
180.00000000 2710.00000000 -1150.00000000 165 194 76 97.000000 1.000000 4.000000 1.000000 -60.708740 114.000000 156.000000 0.116375 0.943037 0.311670
180.00000000 2720.00000000 -1120.00000000 165 194 76 97.000000 1.000000 4.000000 1.000000 -60.708740 114.000000 156.000000 -0.665064 0.720615 0.195970
170.00000000 2710.00000000 -1160.00000000 165 194 76 97.000000 1.000000 4.000000 1.000000 -60.708740 114.000000 156.000000 0.066652 0.964565 0.255289
120.00000000 2790.00000000 -1060.00000000 165 194 76 97.000000 1.000000 4.000000 1.000000 -60.708740 114.000000 156.000000 0.754064 -0.639675 -0.149007
120.00000000 2790.00000000 -1060.00000000 165 194 76 97.000000 1.000000 4.000000 1.000000 -60.708740 114.000000 156.000000 0.754064 -0.639675 -0.149007
130.00000000 2770.00000000 -1050.00000000 165 194 76 97.000000 1.000000 4.000000 1.000000 -60.708740 114.000000 156.000000 -0.683251 0.730182 -0.001380
110.00000000 2790.00000000 -1060.00000000 165 194 76 97.000000 1.000000 4.000000 1.000000 -60.708740 114.000000 156.000000 -0.044961 0.881498 0.470042
100.00000000 2790.00000000 -1070.00000000 165 194 76 97.000000 1.000000 4.000000 1.000000 -60.708740 114.000000 156.000000 -0.148048 0.851643 0.502777
110.00000000 2790.00000000 -1060.00000000 165 194 76 97.000000 1.000000 4.000000 1.000000 -60.708740 114.000000 156.000000 -0.044961 0.881498 0.470042
100.00000000 2760.00000000 -1050.00000000 165 194 76 97.000000 1.000000 4.000000 1.000000 -60.708740 114.000000 156.000000 -0.181495 0.832479 0.523487
110.00000000 2750.00000000 -1040.00000000 165 194 76 97.000000 1.000000 4.000000 1.000000 -60.708740 114.000000 156.000000 -0.650513 0.758223 -0.043934
110.00000000 2750.00000000 -1040.00000000 165 194 76 97.000000 1.000000 4.000000 1.000000 -60.708740 114.000000 156.000000 -0.650513 0.758223 -0.043934
90.00000000 2760.00000000 -1040.00000000 165 194 76 97.000000 1.000000 4.000000 1.000000 -60.708740 114.000000 156.000000 0.764535 -0.524299 -0.374963
100.00000000 2760.00000000 -1050.00000000 165 194 76 97.000000 1.000000 4.000000 1.000000 -60.708740 114.000000 156.000000 -0.181495 0.832479 0.523487
80.00000000 2750.00000000 -1110.00000000 165 194 76 97.000000 1.000000 4.000000 1.000000 -60.708740 114.000000 156.000000 -0.485132 0.873781 0.033973
120.00000000 2820.00000000 -1180.00000000 165 194 76 97.000000 1.000000 4.000000 1.000000 -60.708740 114.000000 156.000000 -0.098209 0.863958 0.493894
80.00000000 2800.00000000 -1140.00000000 165 194 76 97.000000 1.000000 4.000000 1.000000 -60.708740 114.000000 156.000000 -0.027088 0.932604 0.359884
150.00000000 2710.00000000 -1070.00000000 165 194 76 97.000000 1.000000 4.000000 1.000000 -60.708740 114.000000 156.000000 0.698284 -0.619788 -0.358136
140.00000000 2710.00000000 -1070.00000000 165 194 76 97.000000 1.000000 4.000000 1.000000 -60.708740 114.000000 156.000000 -0.651845 0.684356 0.326735
130.00000000 2730.00000000 -1110.00000000 165 194 76 97.000000 1.000000 4.000000 1.000000 -60.708740 114.000000 156.000000 -0.055685 0.944057 0.325046
160.00000000 2670.00000000 -1070.00000000 165 194 76 97.000000 1.000000 4.000000 1.000000 -60.708740 114.000000 156.000000 -0.435900 0.646334 0.626293
130.00000000 2670.00000000 -1050.00000000 165 194 76 97.000000 1.000000 4.000000 1.000000 -60.708740 114.000000 156.000000 -0.442503 0.859156 0.256986
140.00000000 2700.00000000 -1070.00000000 165 194 76 97.000000 1.000000 4.000000 1.000000 -60.708740 114.000000 156.000000 -0.282043 0.864423 0.416203
150.00000000 2680.00000000 -1050.00000000 165 194 76 97.000000 1.000000 4.000000 1.000000 -60.708740 114.000000 156.000000 -0.388442 0.732630 0.558897
160.00000000 2670.00000000 -1070.00000000 165 194 76 97.000000 1.000000 4.000000 1.000000 -60.708740 114.000000 156.000000 -0.435900 0.646334 0.626293
140.00000000 2670.00000000 -1040.00000000 165 194 76 97.000000 1.000000 4.000000 1.000000 -60.708740 114.000000 156.000000 -0.406810 0.898431 0.165311
140.00000000 2690.00000000 -1110.00000000 165 194 76 97.000000 1.000000 4.000000 1.000000 -60.708740 114.000000 156.000000 -0.220783 0.798217 0.560450
140.00000000 2680.00000000 -1110.00000000 165 194 76 97.000000 1.000000 4.000000 1.000000 -60.708740 114.000000 156.000000 -0.147797 0.858978 0.490217
140.00000000 2690.00000000 -1110.00000000 165 194 76 97.000000 1.000000 4.000000 1.000000 -60.708740 114.000000 156.000000 -0.220783 0.798217 0.560450
130.00000000 2670.00000000 -1100.00000000 165 194 76 97.000000 1.000000 4.000000 1.000000 -60.708740 114.000000 156.000000 -0.158728 0.934424 0.318836
100.00000000 2710.00000000 -1060.00000000 165 194 76 97.000000 1.000000 4.000000 1.000000 -60.708740 114.000000 156.000000 -0.261572 0.954671 0.142072
100.00000000 2710.00000000 -1060.00000000 165 194 76 97.000000 1.000000 4.000000 1.000000 -60.708740 114.000000 156.000000 -0.261572 0.954671 0.142072
100.00000000 2710.00000000 -1060.00000000 165 194 76 97.000000 1.000000 4.000000 1.000000 -60.708740 114.000000 156.000000 -0.261572 0.954671 0.142072
140.00000000 2710.00000000 -1130.00000000 165 194 76 97.000000 1.000000 4.000000 1.000000 -60.708740 114.000000 156.000000 -0.132279 0.853274 0.504406
140.00000000 2710.00000000 -1150.00000000 165 194 76 97.000000 1.000000 4.000000 1.000000 -60.708740 114.000000 156.000000 -0.546683 0.837151 0.017812
130.00000000 2730.00000000 -1120.00000000 165 194 76 97.000000 1.000000 4.000000 1.000000 -60.708740 114.000000 156.000000 -0.335243 0.846683 0.413206
110.00000000 2730.00000000 -1150.00000000 165 194 76 97.000000 1.000000 4.000000 1.000000 -60.708740 114.000000 156.000000 -0.247869 0.727819 0.639407
100.00000000 2710.00000000 -1120.00000000 165 194 76 97.000000 1.000000 4.000000 1.000000 -60.708740 114.000000 156.000000 0.692485 -0.679866 -0.241344
110.00000000 2720.00000000 -1120.00000000 165 194 76 97.000000 1.000000 4.000000 1.000000 -60.708740 114.000000 156.000000 -0.323167 0.657701 0.680436
100.00000000 2720.00000000 -1150.00000000 165 194 76 97.000000 1.000000 4.000000 1.000000 -60.708740 114.000000 156.000000 -0.109769 0.806436 0.581044
100.00000000 2720.00000000 -1150.00000000 165 194 76 97.000000 1.000000 4.000000 1.000000 -60.708740 114.000000 156.000000 -0.109769 0.806436 0.581044
100.00000000 2720.00000000 -1150.00000000 165 194 76 97.000000 1.000000 4.000000 1.000000 -60.708740 114.000000 156.000000 -0.109769 0.806436 0.581044
70.00000000 2750.00000000 -1110.00000000 165 194 76 97.000000 1.000000 4.000000 1.000000 -60.708740 114.000000 156.000000 -0.689396 0.721192 0.067928
40.00000000 2780.00000000 -1150.00000000 165 194 76 97.000000 1.000000 4.000000 1.000000 -60.708740 114.000000 156.000000 -0.365926 0.888679 0.276312
40.00000000 2760.00000000 -1190.00000000 165 194 76 97.000000 1.000000 4.000000 1.000000 -60.708740 114.000000 156.000000 -0.457506 0.608332 0.648552
50.00000000 2760.00000000 -1180.00000000 165 194 76 97.000000 1.000000 4.000000 1.000000 -60.708740 114.000000 156.000000 0.502832 -0.580191 -0.640733
20.00000000 2770.00000000 -1190.00000000 165 194 76 97.000000 1.000000 4.000000 1.000000 -60.708740 114.000000 156.000000 -0.517221 0.810990 0.273455
10.00000000 2760.00000000 -1190.00000000 165 194 76 97.000000 1.000000 4.000000 1.000000 -60.708740 114.000000 156.000000 -0.096895 0.918451 0.383484
110.00000000 2760.00000000 -1240.00000000 165 194 76 97.000000 1.000000 4.000000 1.000000 -60.708740 114.000000 156.000000 -0.197246 0.973665 0.114327
50.00000000 2760.00000000 -1220.00000000 165 194 76 97.000000 1.000000 4.000000 1.000000 -60.708740 114.000000 156.000000 -0.248098 0.934923 0.253705
60.00000000 2750.00000000 -1210.00000000 165 194 76 97.000000 1.000000 4.000000 1.000000 -60.708740 114.000000 156.000000 0.646052 -0.639409 -0.416861
40.00000000 2770.00000000 -1200.00000000 165 194 76 97.000000 1.000000 4.000000 1.000000 -60.708740 114.000000 156.000000 -0.095409 0.855834 0.508374
20.00000000 2790.00000000 -1210.00000000 165 194 76 97.000000 1.000000 4.000000 1.000000 -60.708740 114.000000 156.000000 -0.299477 0.915793 0.267649
20.00000000 2790.00000000 -1210.00000000 165 194 76 97.000000 1.000000 4.000000 1.000000 -60.708740 114.000000 156.000000 -0.299477 0.915793 0.267649
20.00000000 2790.00000000 -1210.00000000 165 194 76 97.000000 1.000000 4.000000 1.000000 -60.708740 114.000000 156.000000 -0.299477 0.915793 0.267649
50.00000000 2740.00000000 -1200.00000000 165 194 76 97.000000 1.000000 4.000000 1.000000 -60.708740 114.000000 156.000000 -0.079654 0.946708 0.312087
60.00000000 2740.00000000 -1200.00000000 165 194 76 97.000000 1.000000 4.000000 1.000000 -60.708740 114.000000 156.000000 -0.132020 0.799535 0.585930
320.00000000 2640.00000000 -760.00000000 165 194 76 97.000000 1.000000 4.000000 1.000000 -60.708740 114.000000 156.000000 0.637367 -0.456696 -0.620638
310.00000000 2630.00000000 -770.00000000 165 194 76 97.000000 1.000000 4.000000 1.000000 -60.708740 114.000000 156.000000 0.864926 -0.431706 -0.255994
330.00000000 2620.00000000 -770.00000000 165 194 76 97.000000 1.000000 4.000000 1.000000 -60.708740 114.000000 156.000000 -0.250918 0.928538 0.273600
310.00000000 2640.00000000 -780.00000000 165 194 76 97.000000 1.000000 4.000000 1.000000 -60.708740 114.000000 156.000000 0.809922 -0.458476 -0.365823
310.00000000 2620.00000000 -800.00000000 165 194 76 97.000000 1.000000 4.000000 1.000000 -60.708740 114.000000 156.000000 -0.549675 0.819271 0.163255
310.00000000 2610.00000000 -800.00000000 165 194 76 97.000000 1.000000 4.000000 1.000000 -60.708740 114.000000 156.000000 0.844500 -0.529409 -0.080902
260.00000000 2660.00000000 -840.00000000 165 194 76 97.000000 1.000000 4.000000 1.000000 -60.708740 114.000000 156.000000 0.272450 -0.686700 -0.673954
260.00000000 2660.00000000 -840.00000000 165 194 76 97.000000 1.000000 4.000000 1.000000 -60.708740 114.000000 156.000000 0.272450 -0.686700 -0.673954
250.00000000 2660.00000000 -830.00000000 165 194 76 97.000000 1.000000 4.000000 1.000000 -60.708740 114.000000 156.000000 -0.254273 0.874157 0.413758
260.00000000 2600.00000000 -850.00000000 165 194 76 97.000000 1.000000 4.000000 1.000000 -60.708740 114.000000 156.000000 -0.743572 0.599655 0.295830
260.00000000 2590.00000000 -860.00000000 165 194 76 97.000000 1.000000 4.000000 1.000000 -60.708740 114.000000 156.000000 -0.637367 0.620638 0.456696
330.00000000 2570.00000000 -720.00000000 165 194 76 97.000000 1.000000 4.000000 1.000000 -60.708740 114.000000 156.000000 0.858893 -0.464795 -0.215099
310.00000000 2620.00000000 -900.00000000 165 194 76 97.000000 1.000000 4.000000 1.000000 -60.708740 114.000000 156.000000 -0.068042 0.924566 0.374896
300.00000000 2650.00000000 -880.00000000 165 194 76 97.000000 1.000000 4.000000 1.000000 -60.708740 114.000000 156.000000 0.718260 -0.611251 -0.332378
330.00000000 2620.00000000 -910.00000000 165 194 76 97.000000 1.000000 4.000000 1.000000 -60.708740 114.000000 156.000000 -0.081381 0.829510 0.552531
320.00000000 2620.00000000 -910.00000000 165 194 76 97.000000 1.000000 4.000000 1.000000 -60.708740 114.000000 156.000000 -0.302614 0.793769 0.527595
330.00000000 2620.00000000 -930.00000000 165 194 76 97.000000 1.000000 4.000000 1.000000 -60.708740 114.000000 156.000000 -0.581502 0.807722 0.097159
320.00000000 2580.00000000 -900.00000000 165 194 76 97.000000 1.000000 4.000000 1.000000 -60.708740 114.000000 156.000000 0.793010 -0.588363 -0.158000
300.00000000 2590.00000000 -870.00000000 165 194 76 97.000000 1.000000 4.000000 1.000000 -60.708740 114.000000 156.000000 0.737319 -0.634000 -0.233249
300.00000000 2600.00000000 -870.00000000 165 194 76 97.000000 1.000000 4.000000 1.000000 -60.708740 114.000000 156.000000 0.745326 -0.532376 -0.401329
320.00000000 2580.00000000 -900.00000000 165 194 76 97.000000 1.000000 4.000000 1.000000 -60.708740 114.000000 156.000000 0.793010 -0.588363 -0.158000
330.00000000 2610.00000000 -930.00000000 165 194 76 97.000000 1.000000 4.000000 1.000000 -60.708740 114.000000 156.000000 0.481460 -0.649216 -0.588824
300.00000000 2590.00000000 -910.00000000 165 194 76 97.000000 1.000000 4.000000 1.000000 -60.708740 114.000000 156.000000 -0.527112 0.846489 0.074898
320.00000000 2610.00000000 -920.00000000 165 194 76 97.000000 1.000000 4.000000 1.000000 -60.708740 114.000000 156.000000 -0.697242 0.716726 0.012525
330.00000000 2590.00000000 -920.00000000 165 194 76 97.000000 1.000000 4.000000 1.000000 -60.708740 114.000000 156.000000 -0.321761 0.883711 0.339889
300.00000000 2590.00000000 -920.00000000 165 194 76 97.000000 1.000000 4.000000 1.000000 -60.708740 114.000000 156.000000 -0.296961 0.881838 0.366302
310.00000000 2610.00000000 -940.00000000 165 194 76 97.000000 1.000000 4.000000 1.000000 -60.708740 114.000000 156.000000 -0.054220 0.855002 0.515782
260.00000000 2660.00000000 -870.00000000 165 194 76 97.000000 1.000000 4.000000 1.000000 -60.708740 114.000000 156.000000 -0.636647 0.692007 0.340305
260.00000000 2660.00000000 -870.00000000 165 194 76 97.000000 1.000000 4.000000 1.000000 -60.708740 114.000000 156.000000 -0.636647 0.692007 0.340305
250.00000000 2660.00000000 -940.00000000 165 194 76 97.000000 1.000000 4.000000 1.000000 -60.708740 114.000000 156.000000 -0.472263 0.702554 0.532339
290.00000000 2630.00000000 -970.00000000 165 194 76 97.000000 1.000000 4.000000 1.000000 -60.708740 114.000000 156.000000 -0.447510 0.830642 0.331315
300.00000000 2630.00000000 -970.00000000 165 194 76 97.000000 1.000000 4.000000 1.000000 -60.708740 114.000000 156.000000 -0.500056 0.837480 0.220389
320.00000000 2620.00000000 -960.00000000 165 194 76 97.000000 1.000000 4.000000 1.000000 -60.708740 114.000000 156.000000 -0.630998 0.766950 0.116742
290.00000000 2630.00000000 -980.00000000 165 194 76 97.000000 1.000000 4.000000 1.000000 -60.708740 114.000000 156.000000 -0.481539 0.876375 -0.009337
290.00000000 2630.00000000 -980.00000000 165 194 76 97.000000 1.000000 4.000000 1.000000 -60.708740 114.000000 156.000000 -0.481539 0.876375 -0.009337
300.00000000 2640.00000000 -980.00000000 165 194 76 97.000000 1.000000 4.000000 1.000000 -60.708740 114.000000 156.000000 -0.270820 0.837222 0.475096
300.00000000 2630.00000000 -970.00000000 165 194 76 97.000000 1.000000 4.000000 1.000000 -60.708740 114.000000 156.000000 -0.500056 0.837480 0.220389
300.00000000 2640.00000000 -960.00000000 165 194 76 97.000000 1.000000 4.000000 1.000000 -60.708740 114.000000 156.000000 -0.259794 0.948045 0.183624
310.00000000 2610.00000000 -950.00000000 165 194 76 97.000000 1.000000 4.000000 1.000000 -60.708740 114.000000 156.000000 -0.358444 0.932990 0.032351
320.00000000 2610.00000000 -970.00000000 165 194 76 97.000000 1.000000 4.000000 1.000000 -60.708740 114.000000 156.000000 -0.546144 0.837602 0.012258
270.00000000 2640.00000000 -960.00000000 165 194 76 97.000000 1.000000 4.000000 1.000000 -60.708740 114.000000 156.000000 -0.537392 0.816040 0.212813
270.00000000 2620.00000000 -980.00000000 165 194 76 97.000000 1.000000 4.000000 1.000000 -60.708740 114.000000 156.000000 -0.729762 0.610551 0.307692
280.00000000 2650.00000000 -1010.00000000 165 194 76 97.000000 1.000000 4.000000 1.000000 -60.708740 114.000000 156.000000 -0.448382 0.889822 0.084679
280.00000000 2650.00000000 -1020.00000000 165 194 76 97.000000 1.000000 4.000000 1.000000 -60.708740 114.000000 156.000000 -0.396492 0.718949 0.570882
280.00000000 2650.00000000 -1020.00000000 165 194 76 97.000000 1.000000 4.000000 1.000000 -60.708740 114.000000 156.000000 -0.396492 0.718949 0.570882
270.00000000 2620.00000000 -990.00000000 165 194 76 97.000000 1.000000 4.000000 1.000000 -60.708740 114.000000 156.000000 -0.624960 0.735713 0.261059
270.00000000 2640.00000000 -1000.00000000 165 194 76 97.000000 1.000000 4.000000 1.000000 -60.708740 114.000000 156.000000 -0.456085 0.769950 0.446277
250.00000000 2630.00000000 -1000.00000000 165 194 76 97.000000 1.000000 4.000000 1.000000 -60.708740 114.000000 156.000000 -0.381500 0.905522 0.185711
250.00000000 2610.00000000 -960.00000000 165 194 76 97.000000 1.000000 4.000000 1.000000 -60.708740 114.000000 156.000000 -0.360427 0.820884 0.442992
290.00000000 2570.00000000 -890.00000000 165 194 76 97.000000 1.000000 4.000000 1.000000 -60.708740 114.000000 156.000000 0.429490 -0.701444 -0.568783
240.00000000 2650.00000000 -900.00000000 165 194 76 97.000000 1.000000 4.000000 1.000000 -60.708740 114.000000 156.000000 -0.418164 0.899687 0.125308
210.00000000 2630.00000000 -940.00000000 165 194 76 97.000000 1.000000 4.000000 1.000000 -60.708740 114.000000 156.000000 -0.590610 0.750667 0.296105
240.00000000 2630.00000000 -920.00000000 165 194 76 97.000000 1.000000 4.000000 1.000000 -60.708740 114.000000 156.000000 0.738446 -0.444389 -0.507165
230.00000000 2610.00000000 -910.00000000 165 194 76 97.000000 1.000000 4.000000 1.000000 -60.708740 114.000000 156.000000 -0.353317 0.804156 0.478017
170.00000000 2660.00000000 -940.00000000 165 194 76 97.000000 1.000000 4.000000 1.000000 -60.708740 114.000000 156.000000 -0.522193 0.812127 0.260317
210.00000000 2640.00000000 -970.00000000 165 194 76 97.000000 1.000000 4.000000 1.000000 -60.708740 114.000000 156.000000 0.576971 -0.640892 -0.506322
210.00000000 2640.00000000 -960.00000000 165 194 76 97.000000 1.000000 4.000000 1.000000 -60.708740 114.000000 156.000000 -0.169350 0.909365 0.379969
240.00000000 2630.00000000 -1030.00000000 165 194 76 97.000000 1.000000 4.000000 1.000000 -60.708740 114.000000 156.000000 -0.376806 0.666404 0.643368
220.00000000 2660.00000000 -1020.00000000 165 194 76 97.000000 1.000000 4.000000 1.000000 -60.708740 114.000000 156.000000 -0.178311 0.831619 0.525943
220.00000000 2660.00000000 -1020.00000000 165 194 76 97.000000 1.000000 4.000000 1.000000 -60.708740 114.000000 156.000000 -0.178311 0.831619 0.525943
210.00000000 2660.00000000 -1030.00000000 165 194 76 97.000000 1.000000 4.000000 1.000000 -60.708740 114.000000 156.000000 -0.115583 0.947252 0.298922
170.00000000 2640.00000000 -980.00000000 165 194 76 97.000000 1.000000 4.000000 1.000000 -60.708740 114.000000 156.000000 0.778694 -0.626064 -0.040984
200.00000000 2660.00000000 -970.00000000 165 194 76 97.000000 1.000000 4.000000 1.000000 -60.708740 114.000000 156.000000 -0.509962 0.806782 0.298399
200.00000000 2660.00000000 -970.00000000 165 194 76 97.000000 1.000000 4.000000 1.000000 -60.708740 114.000000 156.000000 -0.509962 0.806782 0.298399
170.00000000 2650.00000000 -1000.00000000 165 194 76 97.000000 1.000000 4.000000 1.000000 -60.708740 114.000000 156.000000 -0.421538 0.806211 0.415126
220.00000000 2660.00000000 -1070.00000000 165 194 76 97.000000 1.000000 4.000000 1.000000 -60.708740 114.000000 156.000000 -0.400872 0.914947 0.046613
220.00000000 2660.00000000 -1050.00000000 165 194 76 97.000000 1.000000 4.000000 1.000000 -60.708740 114.000000 156.000000 -0.158244 0.776149 0.610370
220.00000000 2630.00000000 -1040.00000000 165 194 76 97.000000 1.000000 4.000000 1.000000 -60.708740 114.000000 156.000000 -0.647500 0.670449 0.362272
230.00000000 2660.00000000 -1090.00000000 165 194 76 97.000000 1.000000 4.000000 1.000000 -60.708740 114.000000 156.000000 -0.657069 0.749900 0.076876
1330.00000000 2340.00000000 80.00000000 165 194 76 97.000000 1.000000 4.000000 1.000000 -60.708740 114.000000 156.000000 0.767272 0.052670 -0.639156
1290.00000000 2350.00000000 110.00000000 165 194 76 97.000000 1.000000 4.000000 1.000000 -60.708740 114.000000 156.000000 0.701681 -0.055962 -0.710290
1290.00000000 2340.00000000 60.00000000 165 194 76 97.000000 1.000000 4.000000 1.000000 -60.708740 114.000000 156.000000 0.752847 -0.260419 -0.604487
1180.00000000 2470.00000000 90.00000000 165 194 76 97.000000 1.000000 4.000000 1.000000 -60.708740 114.000000 156.000000 0.757837 0.423930 -0.495950
1180.00000000 2410.00000000 30.00000000 165 194 76 97.000000 1.000000 4.000000 1.000000 -60.708740 114.000000 156.000000 0.800432 -0.186818 -0.569568
1200.00000000 2340.00000000 70.00000000 165 194 76 97.000000 1.000000 4.000000 1.000000 -60.708740 114.000000 156.000000 0.807456 -0.579674 -0.109510
1190.00000000 2360.00000000 -10.00000000 165 194 76 97.000000 1.000000 4.000000 1.000000 -60.708740 114.000000 156.000000 0.909253 -0.009132 -0.416143
1120.00000000 2470.00000000 0.00000000 165 194 76 97.000000 1.000000 4.000000 1.000000 -60.708740 114.000000 156.000000 0.851545 0.520467 -0.063129
1090.00000000 2430.00000000 40.00000000 165 194 76 97.000000 1.000000 4.000000 1.000000 -60.708740 114.000000 156.000000 0.855873 -0.179481 -0.485044
1090.00000000 2420.00000000 60.00000000 165 194 76 97.000000 1.000000 4.000000 1.000000 -60.708740 114.000000 156.000000 0.883302 0.028320 -0.467948
1140.00000000 2390.00000000 90.00000000 165 194 76 97.000000 1.000000 4.000000 1.000000 -60.708740 114.000000 156.000000 0.902155 -0.269322 -0.337020
1140.00000000 2350.00000000 50.00000000 165 194 76 97.000000 1.000000 4.000000 1.000000 -60.708740 114.000000 156.000000 -0.582766 0.783720 0.214866
1150.00000000 2340.00000000 0.00000000 165 194 76 97.000000 1.000000 4.000000 1.000000 -60.708740 114.000000 156.000000 0.505795 -0.562928 -0.653669
1120.00000000 2330.00000000 60.00000000 165 194 76 97.000000 1.000000 4.000000 1.000000 -60.708740 114.000000 156.000000 0.487518 -0.685206 -0.541128
1110.00000000 2340.00000000 60.00000000 165 194 76 97.000000 1.000000 4.000000 1.000000 -60.708740 114.000000 156.000000 -0.449404 0.522369 0.724684
1080.00000000 2460.00000000 10.00000000 165 194 76 97.000000 1.000000 4.000000 1.000000 -60.708740 114.000000 156.000000 0.693872 0.447606 -0.564083
1060.00000000 2420.00000000 60.00000000 165 194 76 97.000000 1.000000 4.000000 1.000000 -60.708740 114.000000 156.000000 0.967524 -0.061015 -0.245305
1060.00000000 2420.00000000 60.00000000 165 194 76 97.000000 1.000000 4.000000 1.000000 -60.708740 114.000000 156.000000 0.967524 -0.061015 -0.245305
1030.00000000 2470.00000000 0.00000000 165 194 76 97.000000 1.000000 4.000000 1.000000 -60.708740 114.000000 156.000000 0.769452 0.610361 -0.188156
1060.00000000 2360.00000000 -10.00000000 165 194 76 97.000000 1.000000 4.000000 1.000000 -60.708740 114.000000 156.000000 -0.483054 0.873372 0.062285
1060.00000000 2360.00000000 0.00000000 165 194 76 97.000000 1.000000 4.000000 1.000000 -60.708740 114.000000 156.000000 -0.330240 0.792895 0.512112
1600.00000000 2170.00000000 420.00000000 165 194 76 97.000000 1.000000 4.000000 1.000000 -60.708740 114.000000 156.000000 0.873262 -0.376432 -0.309375
1570.00000000 2160.00000000 410.00000000 165 194 76 97.000000 1.000000 4.000000 1.000000 -60.708740 114.000000 156.000000 -0.457288 0.871935 0.174975
1510.00000000 2230.00000000 450.00000000 165 194 76 97.000000 1.000000 4.000000 1.000000 -60.708740 114.000000 156.000000 -0.678566 0.684922 0.265387
1570.00000000 2160.00000000 400.00000000 165 194 76 97.000000 1.000000 4.000000 1.000000 -60.708740 114.000000 156.000000 0.570688 -0.677797 -0.463580
1510.00000000 2160.00000000 360.00000000 165 194 76 97.000000 1.000000 4.000000 1.000000 -60.708740 114.000000 156.000000 -0.543089 0.786925 0.292920
1550.00000000 2170.00000000 370.00000000 165 194 76 97.000000 1.000000 4.000000 1.000000 -60.708740 114.000000 156.000000 0.807098 -0.359598 -0.468276
1560.00000000 2140.00000000 450.00000000 165 194 76 97.000000 1.000000 4.000000 1.000000 -60.708740 114.000000 156.000000 -0.579321 0.752636 0.312930
1510.00000000 2150.00000000 360.00000000 165 194 76 97.000000 1.000000 4.000000 1.000000 -60.708740 114.000000 156.000000 0.834630 -0.518824 -0.184972
1540.00000000 2130.00000000 400.00000000 165 194 76 97.000000 1.000000 4.000000 1.000000 -60.708740 114.000000 156.000000 0.756623 -0.640219 -0.132819
1510.00000000 2140.00000000 330.00000000 165 194 76 97.000000 1.000000 4.000000 1.000000 -60.708740 114.000000 156.000000 -0.707106 0.685725 0.172577
1460.00000000 2270.00000000 330.00000000 165 194 76 97.000000 1.000000 4.000000 1.000000 -60.708740 114.000000 156.000000 0.544017 -0.771894 -0.328978
1490.00000000 2200.00000000 410.00000000 165 194 76 97.000000 1.000000 4.000000 1.000000 -60.708740 114.000000 156.000000 -0.593125 0.805053 -0.009633
1470.00000000 2220.00000000 420.00000000 165 194 76 97.000000 1.000000 4.000000 1.000000 -60.708740 114.000000 156.000000 -0.534269 0.805297 0.257010
1490.00000000 2170.00000000 410.00000000 165 194 76 97.000000 1.000000 4.000000 1.000000 -60.708740 114.000000 156.000000 -0.274195 0.756017 0.594353
1500.00000000 2190.00000000 430.00000000 165 194 76 97.000000 1.000000 4.000000 1.000000 -60.708740 114.000000 156.000000 -0.406668 0.625770 0.665607
1460.00000000 2210.00000000 420.00000000 165 194 76 97.000000 1.000000 4.000000 1.000000 -60.708740 114.000000 156.000000 0.809195 -0.454873 -0.371879
1480.00000000 2220.00000000 390.00000000 165 194 76 97.000000 1.000000 4.000000 1.000000 -60.708740 114.000000 156.000000 -0.536892 0.647973 0.540258
1500.00000000 2180.00000000 380.00000000 165 194 76 97.000000 1.000000 4.000000 1.000000 -60.708740 114.000000 156.000000 0.422289 -0.750919 -0.507733
1490.00000000 2160.00000000 340.00000000 165 194 76 97.000000 1.000000 4.000000 1.000000 -60.708740 114.000000 156.000000 -0.320375 0.885921 0.335416
1470.00000000 2170.00000000 350.00000000 165 194 76 97.000000 1.000000 4.000000 1.000000 -60.708740 114.000000 156.000000 0.570951 -0.668063 -0.477187
1470.00000000 2170.00000000 350.00000000 165 194 76 97.000000 1.000000 4.000000 1.000000 -60.708740 114.000000 156.000000 0.570951 -0.668063 -0.477187
1460.00000000 2230.00000000 370.00000000 165 194 76 97.000000 1.000000 4.000000 1.000000 -60.708740 114.000000 156.000000 -0.385963 0.881557 0.271826
1440.00000000 2200.00000000 380.00000000 165 194 76 97.000000 1.000000 4.000000 1.000000 -60.708740 114.000000 156.000000 0.787433 -0.386441 -0.480221
1400.00000000 2230.00000000 330.00000000 165 194 76 97.000000 1.000000 4.000000 1.000000 -60.708740 114.000000 156.000000 -0.314358 0.723829 0.614207
1410.00000000 2190.00000000 340.00000000 165 194 76 97.000000 1.000000 4.000000 1.000000 -60.708740 114.000000 156.000000 -0.582768 0.555741 0.592903
1500.00000000 2120.00000000 400.00000000 165 194 76 97.000000 1.000000 4.000000 1.000000 -60.708740 114.000000 156.000000 0.541840 -0.753370 -0.372617
1450.00000000 2140.00000000 330.00000000 165 194 76 97.000000 1.000000 4.000000 1.000000 -60.708740 114.000000 156.000000 -0.467462 0.837083 0.284204
1450.00000000 2140.00000000 330.00000000 165 194 76 97.000000 1.000000 4.000000 1.000000 -60.708740 114.000000 156.000000 -0.467462 0.837083 0.284204
1520.00000000 2180.00000000 310.00000000 165 194 76 97.000000 1.000000 4.000000 1.000000 -60.708740 114.000000 156.000000 -0.424249 0.840670 0.336581
1510.00000000 2200.00000000 280.00000000 165 194 76 97.000000 1.000000 4.000000 1.000000 -60.708740 114.000000 156.000000 0.875623 -0.171032 -0.451699
1520.00000000 2240.00000000 310.00000000 165 194 76 97.000000 1.000000 4.000000 1.000000 -60.708740 114.000000 156.000000 0.750640 -0.551989 -0.363108
1530.00000000 2220.00000000 300.00000000 165 194 76 97.000000 1.000000 4.000000 1.000000 -60.708740 114.000000 156.000000 -0.560481 0.793368 0.237545
1430.00000000 2310.00000000 290.00000000 165 194 76 97.000000 1.000000 4.000000 1.000000 -60.708740 114.000000 156.000000 -0.734369 0.133114 0.665569
1440.00000000 2250.00000000 200.00000000 165 194 76 97.000000 1.000000 4.000000 1.000000 -60.708740 114.000000 156.000000 0.784072 -0.221149 -0.579935
1430.00000000 2270.00000000 150.00000000 165 194 76 97.000000 1.000000 4.000000 1.000000 -60.708740 114.000000 156.000000 0.730451 -0.545777 -0.410570
1470.00000000 2190.00000000 310.00000000 165 194 76 97.000000 1.000000 4.000000 1.000000 -60.708740 114.000000 156.000000 0.840190 -0.522360 -0.145672
1470.00000000 2180.00000000 240.00000000 165 194 76 97.000000 1.000000 4.000000 1.000000 -60.708740 114.000000 156.000000 -0.473791 0.776627 0.415178
1460.00000000 2200.00000000 270.00000000 165 194 76 97.000000 1.000000 4.000000 1.000000 -60.708740 114.000000 156.000000 -0.578802 0.612551 0.538303
1430.00000000 2170.00000000 310.00000000 165 194 76 97.000000 1.000000 4.000000 1.000000 -60.708740 114.000000 156.000000 -0.532435 0.832023 0.155726
1440.00000000 2160.00000000 280.00000000 165 194 76 97.000000 1.000000 4.000000 1.000000 -60.708740 114.000000 156.000000 -0.255106 0.887649 0.383405
1470.00000000 2200.00000000 230.00000000 165 194 76 97.000000 1.000000 4.000000 1.000000 -60.708740 114.000000 156.000000 -0.422079 0.836312 0.349902
1470.00000000 2190.00000000 210.00000000 165 194 76 97.000000 1.000000 4.000000 1.000000 -60.708740 114.000000 156.000000 -0.675691 0.678901 0.287289
1440.00000000 2230.00000000 210.00000000 165 194 76 97.000000 1.000000 4.000000 1.000000 -60.708740 114.000000 156.000000 -0.654819 0.399522 0.641556
1430.00000000 2230.00000000 190.00000000 165 194 76 97.000000 1.000000 4.000000 1.000000 -60.708740 114.000000 156.000000 0.792463 -0.605493 -0.073350
1460.00000000 2170.00000000 230.00000000 165 194 76 97.000000 1.000000 4.000000 1.000000 -60.708740 114.000000 156.000000 -0.620924 0.683510 0.383754
1450.00000000 2160.00000000 230.00000000 165 194 76 97.000000 1.000000 4.000000 1.000000 -60.708740 114.000000 156.000000 0.700320 -0.344446 -0.625227
1430.00000000 2180.00000000 210.00000000 165 194 76 97.000000 1.000000 4.000000 1.000000 -60.708740 114.000000 156.000000 -0.569967 0.364191 0.736548
1460.00000000 2180.00000000 210.00000000 165 194 76 97.000000 1.000000 4.000000 1.000000 -60.708740 114.000000 156.000000 -0.428319 0.790370 0.438017
1430.00000000 2180.00000000 210.00000000 165 194 76 97.000000 1.000000 4.000000 1.000000 -60.708740 114.000000 156.000000 -0.569967 0.364191 0.736548
1460.00000000 2180.00000000 230.00000000 165 194 76 97.000000 1.000000 4.000000 1.000000 -60.708740 114.000000 156.000000 0.740397 -0.395644 -0.543395
1410.00000000 2240.00000000 290.00000000 165 194 76 97.000000 1.000000 4.000000 1.000000 -60.708740 114.000000 156.000000 -0.682735 0.715892 0.146193
1380.00000000 2240.00000000 310.00000000 165 194 76 97.000000 1.000000 4.000000 1.000000 -60.708740 114.000000 156.000000 -0.595026 0.628739 0.500631
1370.00000000 2250.00000000 260.00000000 165 194 76 97.000000 1.000000 4.000000 1.000000 -60.708740 114.000000 156.000000 -0.458954 0.478694 0.748474
1350.00000000 2270.00000000 210.00000000 165 194 76 97.000000 1.000000 4.000000 1.000000 -60.708740 114.000000 156.000000 -0.430171 0.689271 0.582974
1360.00000000 2260.00000000 220.00000000 165 194 76 97.000000 1.000000 4.000000 1.000000 -60.708740 114.000000 156.000000 -0.656814 0.630209 0.414042
1420.00000000 2190.00000000 290.00000000 165 194 76 97.000000 1.000000 4.000000 1.000000 -60.708740 114.000000 156.000000 0.770860 -0.597145 -0.221797
1420.00000000 2190.00000000 310.00000000 165 194 76 97.000000 1.000000 4.000000 1.000000 -60.708740 114.000000 156.000000 -0.738465 0.610869 0.285497
1350.00000000 2230.00000000 300.00000000 165 194 76 97.000000 1.000000 4.000000 1.000000 -60.708740 114.000000 156.000000 -0.619641 0.629717 0.468509
1380.00000000 2220.00000000 280.00000000 165 194 76 97.000000 1.000000 4.000000 1.000000 -60.708740 114.000000 156.000000 0.666539 -0.716257 -0.206643
1420.00000000 2220.00000000 200.00000000 165 194 76 97.000000 1.000000 4.000000 1.000000 -60.708740 114.000000 156.000000 0.586244 -0.768561 -0.256187
1410.00000000 2210.00000000 200.00000000 165 194 76 97.000000 1.000000 4.000000 1.000000 -60.708740 114.000000 156.000000 -0.795366 0.508460 0.329941
1400.00000000 2190.00000000 210.00000000 165 194 76 97.000000 1.000000 4.000000 1.000000 -60.708740 114.000000 156.000000 -0.353276 0.779143 0.517815
1400.00000000 2190.00000000 210.00000000 165 194 76 97.000000 1.000000 4.000000 1.000000 -60.708740 114.000000 156.000000 -0.353276 0.779143 0.517815
1390.00000000 2180.00000000 210.00000000 165 194 76 97.000000 1.000000 4.000000 1.000000 -60.708740 114.000000 156.000000 0.796381 -0.474611 -0.374862
1400.00000000 2160.00000000 190.00000000 165 194 76 97.000000 1.000000 4.000000 1.000000 -60.708740 114.000000 156.000000 -0.386517 0.860808 0.331080
1410.00000000 2190.00000000 180.00000000 165 194 76 97.000000 1.000000 4.000000 1.000000 -60.708740 114.000000 156.000000 -0.304391 0.879856 0.364966
1420.00000000 2170.00000000 190.00000000 165 194 76 97.000000 1.000000 4.000000 1.000000 -60.708740 114.000000 156.000000 -0.275365 0.743326 0.609623
1380.00000000 2200.00000000 190.00000000 165 194 76 97.000000 1.000000 4.000000 1.000000 -60.708740 114.000000 156.000000 0.529577 -0.430591 -0.730849
1370.00000000 2200.00000000 180.00000000 165 194 76 97.000000 1.000000 4.000000 1.000000 -60.708740 114.000000 156.000000 -0.624564 0.690135 0.365559
1380.00000000 2200.00000000 180.00000000 165 194 76 97.000000 1.000000 4.000000 1.000000 -60.708740 114.000000 156.000000 -0.436751 0.780956 0.446493
1360.00000000 2200.00000000 170.00000000 165 194 76 97.000000 1.000000 4.000000 1.000000 -60.708740 114.000000 156.000000 0.325577 -0.626858 -0.707848
1360.00000000 2190.00000000 180.00000000 165 194 76 97.000000 1.000000 4.000000 1.000000 -60.708740 114.000000 156.000000 -0.416058 0.869940 0.264764
1370.00000000 2170.00000000 170.00000000 165 194 76 97.000000 1.000000 4.000000 1.000000 -60.708740 114.000000 156.000000 -0.204989 0.830587 0.517788
1360.00000000 2190.00000000 180.00000000 165 194 76 97.000000 1.000000 4.000000 1.000000 -60.708740 114.000000 156.000000 -0.416058 0.869940 0.264764
1390.00000000 2250.00000000 110.00000000 165 194 76 97.000000 1.000000 4.000000 1.000000 -60.708740 114.000000 156.000000 0.825355 -0.480805 -0.296000
1350.00000000 2290.00000000 80.00000000 165 194 76 97.000000 1.000000 4.000000 1.000000 -60.708740 114.000000 156.000000 0.752472 -0.236223 -0.614805
1380.00000000 2220.00000000 130.00000000 165 194 76 97.000000 1.000000 4.000000 1.000000 -60.708740 114.000000 156.000000 0.833406 -0.274698 -0.479558
1390.00000000 2230.00000000 140.00000000 165 194 76 97.000000 1.000000 4.000000 1.000000 -60.708740 114.000000 156.000000 -0.578736 0.678806 0.451981
1480.00000000 2150.00000000 260.00000000 165 194 76 97.000000 1.000000 4.000000 1.000000 -60.708740 114.000000 156.000000 -0.348753 0.854056 0.385953
1460.00000000 2150.00000000 240.00000000 165 194 76 97.000000 1.000000 4.000000 1.000000 -60.708740 114.000000 156.000000 -0.554694 0.422230 0.716963
1460.00000000 2140.00000000 270.00000000 165 194 76 97.000000 1.000000 4.000000 1.000000 -60.708740 114.000000 156.000000 -0.435501 0.774768 0.458337
1330.00000000 2290.00000000 250.00000000 165 194 76 97.000000 1.000000 4.000000 1.000000 -60.708740 114.000000 156.000000 -0.415784 0.747754 0.517676
1330.00000000 2290.00000000 220.00000000 165 194 76 97.000000 1.000000 4.000000 1.000000 -60.708740 114.000000 156.000000 0.863611 -0.460891 -0.204343
1300.00000000 2310.00000000 200.00000000 165 194 76 97.000000 1.000000 4.000000 1.000000 -60.708740 114.000000 156.000000 -0.373532 0.751957 0.543171
1340.00000000 2320.00000000 200.00000000 165 194 76 97.000000 1.000000 4.000000 1.000000 -60.708740 114.000000 156.000000 0.929678 -0.032416 -0.366944
1320.00000000 2260.00000000 220.00000000 165 194 76 97.000000 1.000000 4.000000 1.000000 -60.708740 114.000000 156.000000 -0.639720 0.596065 0.485247
1310.00000000 2250.00000000 220.00000000 165 194 76 97.000000 1.000000 4.000000 1.000000 -60.708740 114.000000 156.000000 -0.677930 0.730415 0.083101
1290.00000000 2310.00000000 160.00000000 165 194 76 97.000000 1.000000 4.000000 1.000000 -60.708740 114.000000 156.000000 0.433729 -0.733877 -0.522784
1290.00000000 2270.00000000 210.00000000 165 194 76 97.000000 1.000000 4.000000 1.000000 -60.708740 114.000000 156.000000 -0.616052 0.649443 0.445762
1320.00000000 2230.00000000 210.00000000 165 194 76 97.000000 1.000000 4.000000 1.000000 -60.708740 114.000000 156.000000 0.691767 -0.397890 -0.602613
1340.00000000 2200.00000000 220.00000000 165 194 76 97.000000 1.000000 4.000000 1.000000 -60.708740 114.000000 156.000000 -0.484755 0.578687 0.655846
1270.00000000 2210.00000000 200.00000000 165 194 76 97.000000 1.000000 4.000000 1.000000 -60.708740 114.000000 156.000000 -0.444998 0.811841 0.378009
1280.00000000 2220.00000000 190.00000000 165 194 76 97.000000 1.000000 4.000000 1.000000 -60.708740 114.000000 156.000000 -0.621746 0.757511 0.199020
1230.00000000 2290.00000000 150.00000000 165 194 76 97.000000 1.000000 4.000000 1.000000 -60.708740 114.000000 156.000000 0.761264 -0.641449 -0.094975
1330.00000000 2250.00000000 80.00000000 165 194 76 97.000000 1.000000 4.000000 1.000000 -60.708740 114.000000 156.000000 -0.384944 0.561855 0.732213
1310.00000000 2240.00000000 80.00000000 165 194 76 97.000000 1.000000 4.000000 1.000000 -60.708740 114.000000 156.000000 -0.327393 0.793728 0.512649
1340.00000000 2260.00000000 70.00000000 165 194 76 97.000000 1.000000 4.000000 1.000000 -60.708740 114.000000 156.000000 -0.444435 0.480515 0.756031
1290.00000000 2250.00000000 130.00000000 165 194 76 97.000000 1.000000 4.000000 1.000000 -60.708740 114.000000 156.000000 0.697388 -0.513425 -0.500045
1280.00000000 2250.00000000 90.00000000 165 194 76 97.000000 1.000000 4.000000 1.000000 -60.708740 114.000000 156.000000 0.813416 -0.388330 -0.433076
1300.00000000 2320.00000000 20.00000000 165 194 76 97.000000 1.000000 4.000000 1.000000 -60.708740 114.000000 156.000000 0.799967 -0.261437 -0.540095
1330.00000000 2260.00000000 60.00000000 165 194 76 97.000000 1.000000 4.000000 1.000000 -60.708740 114.000000 156.000000 -0.580450 0.553374 0.597373
