//X Y Z R G B PointSourceId ScanDirectionFlag NumberOfReturns ReturnNumber GpsTime Intensity Classification Nx Ny Nz
240.00000000 7780.00000000 140.00000000 164 107 120 97.000000 1.000000 4.000000 1.000000 -60.708740 114.000000 149.000000 0.786088 0.049573 0.616123
220.00000000 7760.00000000 140.00000000 164 107 120 97.000000 1.000000 4.000000 1.000000 -60.708740 114.000000 149.000000 0.670280 0.297367 0.679925
240.00000000 7760.00000000 110.00000000 164 107 120 97.000000 1.000000 4.000000 1.000000 -60.708740 114.000000 149.000000 0.677183 0.473192 0.563483
240.00000000 7770.00000000 110.00000000 164 107 120 97.000000 1.000000 4.000000 1.000000 -60.708740 114.000000 149.000000 0.881387 0.217754 0.419214
210.00000000 7770.00000000 140.00000000 164 107 120 97.000000 1.000000 4.000000 1.000000 -60.708740 114.000000 149.000000 0.839291 0.069351 0.539241
240.00000000 7770.00000000 90.00000000 164 107 120 97.000000 1.000000 4.000000 1.000000 -60.708740 114.000000 149.000000 0.754668 0.574449 0.316993
240.00000000 7770.00000000 100.00000000 164 107 120 97.000000 1.000000 4.000000 1.000000 -60.708740 114.000000 149.000000 0.783741 0.486404 0.386214
190.00000000 7780.00000000 100.00000000 164 107 120 97.000000 1.000000 4.000000 1.000000 -60.708740 114.000000 149.000000 0.711053 0.258133 0.654042
130.00000000 7890.00000000 230.00000000 164 107 120 97.000000 1.000000 4.000000 1.000000 -60.708740 114.000000 149.000000 0.883088 -0.290351 0.368580
140.00000000 7910.00000000 190.00000000 164 107 120 97.000000 1.000000 4.000000 1.000000 -60.708740 114.000000 149.000000 0.983340 -0.148406 0.104970
50.00000000 7890.00000000 230.00000000 164 107 120 97.000000 1.000000 4.000000 1.000000 -60.708740 114.000000 149.000000 0.958032 -0.054276 0.281477
70.00000000 7890.00000000 170.00000000 164 107 120 97.000000 1.000000 4.000000 1.000000 -60.708740 114.000000 149.000000 0.996050 -0.024820 0.085252
160.00000000 7950.00000000 80.00000000 164 107 120 97.000000 1.000000 4.000000 1.000000 -60.708740 114.000000 149.000000 0.967263 -0.081758 -0.240244
100.00000000 7950.00000000 120.00000000 164 107 120 97.000000 1.000000 4.000000 1.000000 -60.708740 114.000000 149.000000 -0.896633 0.277141 0.345315
90.00000000 7850.00000000 260.00000000 164 107 120 97.000000 1.000000 4.000000 1.000000 -60.708740 114.000000 149.000000 0.955145 -0.293213 0.041528
90.00000000 7880.00000000 240.00000000 164 107 120 97.000000 1.000000 4.000000 1.000000 -60.708740 114.000000 149.000000 0.807723 -0.530700 0.256790
140.00000000 7880.00000000 200.00000000 164 107 120 97.000000 1.000000 4.000000 1.000000 -60.708740 114.000000 149.000000 0.992361 -0.014350 -0.122527
140.00000000 7850.00000000 230.00000000 164 107 120 97.000000 1.000000 4.000000 1.000000 -60.708740 114.000000 149.000000 0.955736 -0.292827 0.028660
140.00000000 7880.00000000 210.00000000 164 107 120 97.000000 1.000000 4.000000 1.000000 -60.708740 114.000000 149.000000 0.885212 -0.223898 0.407761
140.00000000 7880.00000000 200.00000000 164 107 120 97.000000 1.000000 4.000000 1.000000 -60.708740 114.000000 149.000000 0.992361 -0.014350 -0.122527
130.00000000 7820.00000000 210.00000000 164 107 120 97.000000 1.000000 4.000000 1.000000 -60.708740 114.000000 149.000000 0.916964 -0.165308 0.363112
140.00000000 7810.00000000 190.00000000 164 107 120 97.000000 1.000000 4.000000 1.000000 -60.708740 114.000000 149.000000 0.789003 -0.419613 0.448776
110.00000000 7860.00000000 220.00000000 164 107 120 97.000000 1.000000 4.000000 1.000000 -60.708740 114.000000 149.000000 0.843428 -0.456534 0.283206
110.00000000 7860.00000000 220.00000000 164 107 120 97.000000 1.000000 4.000000 1.000000 -60.708740 114.000000 149.000000 0.843428 -0.456534 0.283206
90.00000000 7850.00000000 150.00000000 164 107 120 97.000000 1.000000 4.000000 1.000000 -60.708740 114.000000 149.000000 0.788657 -0.385458 0.479000
140.00000000 7780.00000000 250.00000000 164 107 120 97.000000 1.000000 4.000000 1.000000 -60.708740 114.000000 149.000000 0.989124 0.078058 -0.124660
140.00000000 7780.00000000 250.00000000 164 107 120 97.000000 1.000000 4.000000 1.000000 -60.708740 114.000000 149.000000 0.989124 0.078058 -0.124660
50.00000000 7860.00000000 270.00000000 164 107 120 97.000000 1.000000 4.000000 1.000000 -60.708740 114.000000 149.000000 0.870391 -0.294195 0.394801
50.00000000 7860.00000000 270.00000000 164 107 120 97.000000 1.000000 4.000000 1.000000 -60.708740 114.000000 149.000000 0.870391 -0.294195 0.394801
40.00000000 7840.00000000 270.00000000 164 107 120 97.000000 1.000000 4.000000 1.000000 -60.708740 114.000000 149.000000 0.984848 -0.057655 0.163553
60.00000000 7840.00000000 250.00000000 164 107 120 97.000000 1.000000 4.000000 1.000000 -60.708740 114.000000 149.000000 0.883776 -0.333871 0.327828
70.00000000 7860.00000000 160.00000000 164 107 120 97.000000 1.000000 4.000000 1.000000 -60.708740 114.000000 149.000000 0.973456 0.199715 0.111790
70.00000000 7850.00000000 150.00000000 164 107 120 97.000000 1.000000 4.000000 1.000000 -60.708740 114.000000 149.000000 0.928621 0.073277 0.363721
70.00000000 7820.00000000 210.00000000 164 107 120 97.000000 1.000000 4.000000 1.000000 -60.708740 114.000000 149.000000 0.843851 -0.399224 0.358519
60.00000000 7810.00000000 230.00000000 164 107 120 97.000000 1.000000 4.000000 1.000000 -60.708740 114.000000 149.000000 0.929334 0.076000 0.361334
0.00000000 7850.00000000 220.00000000 164 107 120 97.000000 1.000000 4.000000 1.000000 -60.708740 114.000000 149.000000 0.966141 -0.138020 0.217994
130.00000000 7880.00000000 130.00000000 164 107 120 97.000000 1.000000 4.000000 1.000000 -60.708740 114.000000 149.000000 0.987915 0.151899 -0.030837
130.00000000 7880.00000000 130.00000000 164 107 120 97.000000 1.000000 4.000000 1.000000 -60.708740 114.000000 149.000000 0.987915 0.151899 -0.030837
110.00000000 7810.00000000 140.00000000 164 107 120 97.000000 1.000000 4.000000 1.000000 -60.708740 114.000000 149.000000 0.850506 -0.183209 0.493025
70.00000000 7870.00000000 140.00000000 164 107 120 97.000000 1.000000 4.000000 1.000000 -60.708740 114.000000 149.000000 0.981256 0.034161 0.189655
330.00000000 7700.00000000 340.00000000 164 107 120 97.000000 1.000000 4.000000 1.000000 -60.708740 114.000000 149.000000 -0.423252 0.702101 0.572636
290.00000000 7690.00000000 330.00000000 164 107 120 97.000000 1.000000 4.000000 1.000000 -60.708740 114.000000 149.000000 0.861991 0.092305 0.498449
290.00000000 7690.00000000 330.00000000 164 107 120 97.000000 1.000000 4.000000 1.000000 -60.708740 114.000000 149.000000 0.861991 0.092305 0.498449
300.00000000 7670.00000000 330.00000000 164 107 120 97.000000 1.000000 4.000000 1.000000 -60.708740 114.000000 149.000000 0.900549 0.239461 0.362864
300.00000000 7640.00000000 320.00000000 164 107 120 97.000000 1.000000 4.000000 1.000000 -60.708740 114.000000 149.000000 0.418510 0.470620 0.776767
330.00000000 7640.00000000 320.00000000 164 107 120 97.000000 1.000000 4.000000 1.000000 -60.708740 114.000000 149.000000 -0.069067 0.531391 0.844306
280.00000000 7670.00000000 340.00000000 164 107 120 97.000000 1.000000 4.000000 1.000000 -60.708740 114.000000 149.000000 0.960320 0.263542 0.091275
290.00000000 7550.00000000 350.00000000 164 107 120 97.000000 1.000000 4.000000 1.000000 -60.708740 114.000000 149.000000 0.299454 0.600509 0.741429
210.00000000 7580.00000000 320.00000000 164 107 120 97.000000 1.000000 4.000000 1.000000 -60.708740 114.000000 149.000000 0.455521 0.471966 0.754817
240.00000000 7570.00000000 320.00000000 164 107 120 97.000000 1.000000 4.000000 1.000000 -60.708740 114.000000 149.000000 0.421606 0.773215 0.473696
240.00000000 7560.00000000 340.00000000 164 107 120 97.000000 1.000000 4.000000 1.000000 -60.708740 114.000000 149.000000 0.442193 0.754523 0.484933
290.00000000 7520.00000000 330.00000000 164 107 120 97.000000 1.000000 4.000000 1.000000 -60.708740 114.000000 149.000000 -0.189342 0.703491 0.685018
330.00000000 7510.00000000 330.00000000 164 107 120 97.000000 1.000000 4.000000 1.000000 -60.708740 114.000000 149.000000 0.434853 -0.684769 -0.584803
290.00000000 7470.00000000 330.00000000 164 107 120 97.000000 1.000000 4.000000 1.000000 -60.708740 114.000000 149.000000 -0.114065 0.751050 0.650318
300.00000000 7470.00000000 340.00000000 164 107 120 97.000000 1.000000 4.000000 1.000000 -60.708740 114.000000 149.000000 -0.127103 0.840052 0.527406
300.00000000 7470.00000000 340.00000000 164 107 120 97.000000 1.000000 4.000000 1.000000 -60.708740 114.000000 149.000000 -0.127103 0.840052 0.527406
310.00000000 7430.00000000 320.00000000 164 107 120 97.000000 1.000000 4.000000 1.000000 -60.708740 114.000000 149.000000 -0.031859 0.944309 0.327513
330.00000000 7430.00000000 340.00000000 164 107 120 97.000000 1.000000 4.000000 1.000000 -60.708740 114.000000 149.000000 0.202686 0.747307 0.632812
270.00000000 7430.00000000 320.00000000 164 107 120 97.000000 1.000000 4.000000 1.000000 -60.708740 114.000000 149.000000 0.030947 0.889377 0.456125
200.00000000 7510.00000000 350.00000000 164 107 120 97.000000 1.000000 4.000000 1.000000 -60.708740 114.000000 149.000000 0.399834 0.504281 0.765397
200.00000000 7510.00000000 350.00000000 164 107 120 97.000000 1.000000 4.000000 1.000000 -60.708740 114.000000 149.000000 0.399834 0.504281 0.765397
310.00000000 7670.00000000 300.00000000 164 107 120 97.000000 1.000000 4.000000 1.000000 -60.708740 114.000000 149.000000 0.334595 0.564123 0.754858
250.00000000 7690.00000000 280.00000000 164 107 120 97.000000 1.000000 4.000000 1.000000 -60.708740 114.000000 149.000000 0.718209 0.098405 0.688834
260.00000000 7700.00000000 270.00000000 164 107 120 97.000000 1.000000 4.000000 1.000000 -60.708740 114.000000 149.000000 0.817429 0.333612 0.469587
300.00000000 7640.00000000 220.00000000 164 107 120 97.000000 1.000000 4.000000 1.000000 -60.708740 114.000000 149.000000 0.166577 0.817877 0.550754
290.00000000 7630.00000000 160.00000000 164 107 120 97.000000 1.000000 4.000000 1.000000 -60.708740 114.000000 149.000000 0.072404 0.830521 0.552261
260.00000000 7680.00000000 150.00000000 164 107 120 97.000000 1.000000 4.000000 1.000000 -60.708740 114.000000 149.000000 0.464028 0.405822 0.787392
280.00000000 7680.00000000 150.00000000 164 107 120 97.000000 1.000000 4.000000 1.000000 -60.708740 114.000000 149.000000 0.384992 0.442502 0.809922
280.00000000 7710.00000000 150.00000000 164 107 120 97.000000 1.000000 4.000000 1.000000 -60.708740 114.000000 149.000000 0.653890 0.512690 0.556395
280.00000000 7700.00000000 160.00000000 164 107 120 97.000000 1.000000 4.000000 1.000000 -60.708740 114.000000 149.000000 0.613401 0.208587 0.761729
280.00000000 7630.00000000 170.00000000 164 107 120 97.000000 1.000000 4.000000 1.000000 -60.708740 114.000000 149.000000 0.482400 0.799726 0.357392
250.00000000 7630.00000000 150.00000000 164 107 120 97.000000 1.000000 4.000000 1.000000 -60.708740 114.000000 149.000000 0.428319 0.438017 0.790370
280.00000000 7630.00000000 180.00000000 164 107 120 97.000000 1.000000 4.000000 1.000000 -60.708740 114.000000 149.000000 0.456273 0.822554 0.339442
270.00000000 7640.00000000 170.00000000 164 107 120 97.000000 1.000000 4.000000 1.000000 -60.708740 114.000000 149.000000 0.642879 0.622842 0.445841
290.00000000 7590.00000000 240.00000000 164 107 120 97.000000 1.000000 4.000000 1.000000 -60.708740 114.000000 149.000000 0.378742 0.302689 0.874605
300.00000000 7550.00000000 310.00000000 164 107 120 97.000000 1.000000 4.000000 1.000000 -60.708740 114.000000 149.000000 -0.198034 0.829927 0.521539
290.00000000 7570.00000000 300.00000000 164 107 120 97.000000 1.000000 4.000000 1.000000 -60.708740 114.000000 149.000000 0.327344 0.479155 0.814406
310.00000000 7580.00000000 240.00000000 164 107 120 97.000000 1.000000 4.000000 1.000000 -60.708740 114.000000 149.000000 0.455630 0.748417 0.481948
250.00000000 7600.00000000 280.00000000 164 107 120 97.000000 1.000000 4.000000 1.000000 -60.708740 114.000000 149.000000 0.872551 0.337712 0.352994
270.00000000 7590.00000000 280.00000000 164 107 120 97.000000 1.000000 4.000000 1.000000 -60.708740 114.000000 149.000000 0.503471 0.741175 0.444045
260.00000000 7600.00000000 280.00000000 164 107 120 97.000000 1.000000 4.000000 1.000000 -60.708740 114.000000 149.000000 0.198237 0.594710 0.779116
250.00000000 7600.00000000 240.00000000 164 107 120 97.000000 1.000000 4.000000 1.000000 -60.708740 114.000000 149.000000 0.362171 0.790339 0.494163
280.00000000 7590.00000000 240.00000000 164 107 120 97.000000 1.000000 4.000000 1.000000 -60.708740 114.000000 149.000000 0.648216 0.399540 0.648216
270.00000000 7560.00000000 290.00000000 164 107 120 97.000000 1.000000 4.000000 1.000000 -60.708740 114.000000 149.000000 0.481244 0.655632 0.581852
250.00000000 7570.00000000 310.00000000 164 107 120 97.000000 1.000000 4.000000 1.000000 -60.708740 114.000000 149.000000 0.628329 0.631680 0.454073
270.00000000 7580.00000000 250.00000000 164 107 120 97.000000 1.000000 4.000000 1.000000 -60.708740 114.000000 149.000000 0.258887 0.675012 0.690895
270.00000000 7580.00000000 240.00000000 164 107 120 97.000000 1.000000 4.000000 1.000000 -60.708740 114.000000 149.000000 0.559669 0.509248 0.653787
280.00000000 7580.00000000 250.00000000 164 107 120 97.000000 1.000000 4.000000 1.000000 -60.708740 114.000000 149.000000 0.043745 0.786006 0.616669
300.00000000 7600.00000000 200.00000000 164 107 120 97.000000 1.000000 4.000000 1.000000 -60.708740 114.000000 149.000000 0.527340 0.775690 0.346722
320.00000000 7590.00000000 220.00000000 164 107 120 97.000000 1.000000 4.000000 1.000000 -60.708740 114.000000 149.000000 0.177366 0.848077 0.499307
300.00000000 7590.00000000 230.00000000 164 107 120 97.000000 1.000000 4.000000 1.000000 -60.708740 114.000000 149.000000 0.421810 0.444436 0.790287
320.00000000 7610.00000000 230.00000000 164 107 120 97.000000 1.000000 4.000000 1.000000 -60.708740 114.000000 149.000000 0.289951 0.781125 0.552967
320.00000000 7610.00000000 150.00000000 164 107 120 97.000000 1.000000 4.000000 1.000000 -60.708740 114.000000 149.000000 0.054245 0.510462 0.858188
300.00000000 7600.00000000 180.00000000 164 107 120 97.000000 1.000000 4.000000 1.000000 -60.708740 114.000000 149.000000 0.061932 0.701415 0.710057
310.00000000 7580.00000000 200.00000000 164 107 120 97.000000 1.000000 4.000000 1.000000 -60.708740 114.000000 149.000000 0.273614 0.857527 0.435642
330.00000000 7570.00000000 190.00000000 164 107 120 97.000000 1.000000 4.000000 1.000000 -60.708740 114.000000 149.000000 0.350619 0.541279 0.764253
270.00000000 7620.00000000 200.00000000 164 107 120 97.000000 1.000000 4.000000 1.000000 -60.708740 114.000000 149.000000 0.763525 0.560990 0.319877
280.00000000 7590.00000000 230.00000000 164 107 120 97.000000 1.000000 4.000000 1.000000 -60.708740 114.000000 149.000000 0.058687 0.768654 0.636967
270.00000000 7610.00000000 210.00000000 164 107 120 97.000000 1.000000 4.000000 1.000000 -60.708740 114.000000 149.000000 0.359059 0.805888 0.470766
270.00000000 7610.00000000 150.00000000 164 107 120 97.000000 1.000000 4.000000 1.000000 -60.708740 114.000000 149.000000 0.743021 0.453061 0.492601
270.00000000 7620.00000000 190.00000000 164 107 120 97.000000 1.000000 4.000000 1.000000 -60.708740 114.000000 149.000000 0.308142 0.863104 0.400125
240.00000000 7670.00000000 290.00000000 164 107 120 97.000000 1.000000 4.000000 1.000000 -60.708740 114.000000 149.000000 0.773732 0.444692 0.451208
210.00000000 7710.00000000 180.00000000 164 107 120 97.000000 1.000000 4.000000 1.000000 -60.708740 114.000000 149.000000 0.994073 0.086295 0.066122
240.00000000 7650.00000000 200.00000000 164 107 120 97.000000 1.000000 4.000000 1.000000 -60.708740 114.000000 149.000000 0.744119 0.617729 0.254359
210.00000000 7650.00000000 170.00000000 164 107 120 97.000000 1.000000 4.000000 1.000000 -60.708740 114.000000 149.000000 0.616490 0.275588 0.737558
190.00000000 7700.00000000 150.00000000 164 107 120 97.000000 1.000000 4.000000 1.000000 -60.708740 114.000000 149.000000 0.866600 0.165695 0.470691
200.00000000 7690.00000000 150.00000000 164 107 120 97.000000 1.000000 4.000000 1.000000 -60.708740 114.000000 149.000000 0.871485 0.455650 0.181375
200.00000000 7650.00000000 180.00000000 164 107 120 97.000000 1.000000 4.000000 1.000000 -60.708740 114.000000 149.000000 0.638784 0.684528 0.351250
230.00000000 7590.00000000 290.00000000 164 107 120 97.000000 1.000000 4.000000 1.000000 -60.708740 114.000000 149.000000 0.411590 0.483171 0.772748
220.00000000 7590.00000000 310.00000000 164 107 120 97.000000 1.000000 4.000000 1.000000 -60.708740 114.000000 149.000000 0.793492 0.471589 0.384675
220.00000000 7590.00000000 300.00000000 164 107 120 97.000000 1.000000 4.000000 1.000000 -60.708740 114.000000 149.000000 0.710021 0.570996 0.412110
230.00000000 7580.00000000 300.00000000 164 107 120 97.000000 1.000000 4.000000 1.000000 -60.708740 114.000000 149.000000 0.493336 0.450437 0.744128
230.00000000 7570.00000000 310.00000000 164 107 120 97.000000 1.000000 4.000000 1.000000 -60.708740 114.000000 149.000000 0.312337 0.684553 0.658660
230.00000000 7570.00000000 310.00000000 164 107 120 97.000000 1.000000 4.000000 1.000000 -60.708740 114.000000 149.000000 0.312337 0.684553 0.658660
240.00000000 7580.00000000 300.00000000 164 107 120 97.000000 1.000000 4.000000 1.000000 -60.708740 114.000000 149.000000 0.483078 0.529882 0.697037
240.00000000 7580.00000000 180.00000000 164 107 120 97.000000 1.000000 4.000000 1.000000 -60.708740 114.000000 149.000000 0.249236 0.779059 0.575281
240.00000000 7590.00000000 170.00000000 164 107 120 97.000000 1.000000 4.000000 1.000000 -60.708740 114.000000 149.000000 0.396129 0.852843 0.340205
330.00000000 7700.00000000 110.00000000 164 107 120 97.000000 1.000000 4.000000 1.000000 -60.708740 114.000000 149.000000 0.537513 0.703926 0.464292
320.00000000 7700.00000000 90.00000000 164 107 120 97.000000 1.000000 4.000000 1.000000 -60.708740 114.000000 149.000000 0.154797 0.441244 0.883935
290.00000000 7700.00000000 100.00000000 164 107 120 97.000000 1.000000 4.000000 1.000000 -60.708740 114.000000 149.000000 0.612284 0.264216 0.745183
330.00000000 7710.00000000 90.00000000 164 107 120 97.000000 1.000000 4.000000 1.000000 -60.708740 114.000000 149.000000 0.397181 0.445421 0.802401
320.00000000 7650.00000000 130.00000000 164 107 120 97.000000 1.000000 4.000000 1.000000 -60.708740 114.000000 149.000000 0.079898 0.684215 0.724890
310.00000000 7650.00000000 130.00000000 164 107 120 97.000000 1.000000 4.000000 1.000000 -60.708740 114.000000 149.000000 -0.026412 0.585236 0.810433
330.00000000 7650.00000000 120.00000000 164 107 120 97.000000 1.000000 4.000000 1.000000 -60.708740 114.000000 149.000000 0.463989 0.716771 0.520532
320.00000000 7660.00000000 120.00000000 164 107 120 97.000000 1.000000 4.000000 1.000000 -60.708740 114.000000 149.000000 0.265320 0.630732 0.729234
320.00000000 7660.00000000 110.00000000 164 107 120 97.000000 1.000000 4.000000 1.000000 -60.708740 114.000000 149.000000 0.279525 0.781723 0.557471
280.00000000 7710.00000000 120.00000000 164 107 120 97.000000 1.000000 4.000000 1.000000 -60.708740 114.000000 149.000000 0.891757 0.228467 0.390604
280.00000000 7680.00000000 140.00000000 164 107 120 97.000000 1.000000 4.000000 1.000000 -60.708740 114.000000 149.000000 0.416470 0.231372 0.879215
280.00000000 7700.00000000 130.00000000 164 107 120 97.000000 1.000000 4.000000 1.000000 -60.708740 114.000000 149.000000 0.859877 0.276444 0.429175
270.00000000 7700.00000000 130.00000000 164 107 120 97.000000 1.000000 4.000000 1.000000 -60.708740 114.000000 149.000000 0.713389 0.182566 0.676569
250.00000000 7680.00000000 90.00000000 164 107 120 97.000000 1.000000 4.000000 1.000000 -60.708740 114.000000 149.000000 0.388401 0.472206 0.791307
280.00000000 7640.00000000 120.00000000 164 107 120 97.000000 1.000000 4.000000 1.000000 -60.708740 114.000000 149.000000 0.404562 0.515940 0.755073
310.00000000 7680.00000000 60.00000000 164 107 120 97.000000 1.000000 4.000000 1.000000 -60.708740 114.000000 149.000000 0.532908 0.382977 0.754545
310.00000000 7610.00000000 130.00000000 164 107 120 97.000000 1.000000 4.000000 1.000000 -60.708740 114.000000 149.000000 0.417729 0.634082 0.650725
220.00000000 7680.00000000 140.00000000 164 107 120 97.000000 1.000000 4.000000 1.000000 -60.708740 114.000000 149.000000 0.434849 0.460908 0.773609
210.00000000 7700.00000000 130.00000000 164 107 120 97.000000 1.000000 4.000000 1.000000 -60.708740 114.000000 149.000000 0.828521 0.231251 0.509977
180.00000000 7700.00000000 90.00000000 164 107 120 97.000000 1.000000 4.000000 1.000000 -60.708740 114.000000 149.000000 0.591064 0.510235 0.624743
240.00000000 7600.00000000 140.00000000 164 107 120 97.000000 1.000000 4.000000 1.000000 -60.708740 114.000000 149.000000 0.702355 0.589978 0.398276
290.00000000 7510.00000000 260.00000000 164 107 120 97.000000 1.000000 4.000000 1.000000 -60.708740 114.000000 149.000000 -0.247462 0.742386 0.622596
300.00000000 7520.00000000 250.00000000 164 107 120 97.000000 1.000000 4.000000 1.000000 -60.708740 114.000000 149.000000 0.314455 0.895676 0.314455
290.00000000 7470.00000000 310.00000000 164 107 120 97.000000 1.000000 4.000000 1.000000 -60.708740 114.000000 149.000000 0.283182 0.815127 0.505347
310.00000000 7490.00000000 290.00000000 164 107 120 97.000000 1.000000 4.000000 1.000000 -60.708740 114.000000 149.000000 -0.264574 0.833951 0.484279
300.00000000 7490.00000000 290.00000000 164 107 120 97.000000 1.000000 4.000000 1.000000 -60.708740 114.000000 149.000000 0.358551 0.679446 0.640152
320.00000000 7490.00000000 290.00000000 164 107 120 97.000000 1.000000 4.000000 1.000000 -60.708740 114.000000 149.000000 0.175778 0.907474 0.381568
320.00000000 7490.00000000 290.00000000 164 107 120 97.000000 1.000000 4.000000 1.000000 -60.708740 114.000000 149.000000 0.175778 0.907474 0.381568
330.00000000 7490.00000000 280.00000000 164 107 120 97.000000 1.000000 4.000000 1.000000 -60.708740 114.000000 149.000000 0.104789 0.671536 0.733524
300.00000000 7500.00000000 280.00000000 164 107 120 97.000000 1.000000 4.000000 1.000000 -60.708740 114.000000 149.000000 0.296534 0.742137 0.601083
310.00000000 7470.00000000 300.00000000 164 107 120 97.000000 1.000000 4.000000 1.000000 -60.708740 114.000000 149.000000 0.055751 0.764796 0.641856
320.00000000 7470.00000000 250.00000000 164 107 120 97.000000 1.000000 4.000000 1.000000 -60.708740 114.000000 149.000000 0.015325 0.737010 0.675708
320.00000000 7470.00000000 240.00000000 164 107 120 97.000000 1.000000 4.000000 1.000000 -60.708740 114.000000 149.000000 0.057127 0.516930 0.854119
250.00000000 7510.00000000 280.00000000 164 107 120 97.000000 1.000000 4.000000 1.000000 -60.708740 114.000000 149.000000 0.018179 0.672631 0.739754
280.00000000 7480.00000000 310.00000000 164 107 120 97.000000 1.000000 4.000000 1.000000 -60.708740 114.000000 149.000000 0.253451 0.913872 0.317176
310.00000000 7540.00000000 170.00000000 164 107 120 97.000000 1.000000 4.000000 1.000000 -60.708740 114.000000 149.000000 0.361388 0.708058 0.606673
330.00000000 7530.00000000 210.00000000 164 107 120 97.000000 1.000000 4.000000 1.000000 -60.708740 114.000000 149.000000 0.223719 0.841609 0.491573
320.00000000 7470.00000000 170.00000000 164 107 120 97.000000 1.000000 4.000000 1.000000 -60.708740 114.000000 149.000000 0.226946 0.488923 0.842288
320.00000000 7430.00000000 280.00000000 164 107 120 97.000000 1.000000 4.000000 1.000000 -60.708740 114.000000 149.000000 -0.023793 0.751583 0.659209
290.00000000 7450.00000000 290.00000000 164 107 120 97.000000 1.000000 4.000000 1.000000 -60.708740 114.000000 149.000000 0.120505 0.659061 0.742373
290.00000000 7450.00000000 280.00000000 164 107 120 97.000000 1.000000 4.000000 1.000000 -60.708740 114.000000 149.000000 0.086155 -0.912153 -0.400691
320.00000000 7440.00000000 270.00000000 164 107 120 97.000000 1.000000 4.000000 1.000000 -60.708740 114.000000 149.000000 -0.167961 0.779278 0.603751
250.00000000 7440.00000000 310.00000000 164 107 120 97.000000 1.000000 4.000000 1.000000 -60.708740 114.000000 149.000000 0.214056 0.866701 0.450565
260.00000000 7450.00000000 290.00000000 164 107 120 97.000000 1.000000 4.000000 1.000000 -60.708740 114.000000 149.000000 0.455170 0.568546 0.685256
190.00000000 7540.00000000 280.00000000 164 107 120 97.000000 1.000000 4.000000 1.000000 -60.708740 114.000000 149.000000 0.455661 0.317867 0.831465
240.00000000 7490.00000000 290.00000000 164 107 120 97.000000 1.000000 4.000000 1.000000 -60.708740 114.000000 149.000000 0.175067 0.607406 0.774861
230.00000000 7430.00000000 300.00000000 164 107 120 97.000000 1.000000 4.000000 1.000000 -60.708740 114.000000 149.000000 -0.035403 0.700976 0.712305
250.00000000 7470.00000000 50.00000000 164 107 120 97.000000 1.000000 4.000000 1.000000 -60.708740 114.000000 149.000000 0.365913 0.608761 0.703931
250.00000000 7440.00000000 40.00000000 164 107 120 97.000000 1.000000 4.000000 1.000000 -60.708740 114.000000 149.000000 0.207629 0.416731 0.885000
240.00000000 7480.00000000 60.00000000 164 107 120 97.000000 1.000000 4.000000 1.000000 -60.708740 114.000000 149.000000 0.169772 0.548380 0.818814
220.00000000 7490.00000000 60.00000000 164 107 120 97.000000 1.000000 4.000000 1.000000 -60.708740 114.000000 149.000000 0.536112 0.395116 0.745967
190.00000000 7440.00000000 70.00000000 164 107 120 97.000000 1.000000 4.000000 1.000000 -60.708740 114.000000 149.000000 0.436507 0.562646 0.702062
190.00000000 7440.00000000 70.00000000 164 107 120 97.000000 1.000000 4.000000 1.000000 -60.708740 114.000000 149.000000 0.436507 0.562646 0.702062
220.00000000 7440.00000000 30.00000000 164 107 120 97.000000 1.000000 4.000000 1.000000 -60.708740 114.000000 149.000000 0.245031 0.510097 0.824476
180.00000000 7450.00000000 40.00000000 164 107 120 97.000000 1.000000 4.000000 1.000000 -60.708740 114.000000 149.000000 0.697487 0.612148 0.372540
140.00000000 7470.00000000 40.00000000 164 107 120 97.000000 1.000000 4.000000 1.000000 -60.708740 114.000000 149.000000 0.212630 0.619264 0.755844
330.00000000 7370.00000000 250.00000000 164 107 120 97.000000 1.000000 4.000000 1.000000 -60.708740 114.000000 149.000000 -0.189975 0.810054 0.554727
330.00000000 7300.00000000 270.00000000 164 107 120 97.000000 1.000000 4.000000 1.000000 -60.708740 114.000000 149.000000 -0.037994 0.623386 0.780991
320.00000000 7330.00000000 240.00000000 164 107 120 97.000000 1.000000 4.000000 1.000000 -60.708740 114.000000 149.000000 -0.175239 0.614099 0.769528
280.00000000 7340.00000000 230.00000000 164 107 120 97.000000 1.000000 4.000000 1.000000 -60.708740 114.000000 149.000000 0.316413 0.563762 0.762926
330.00000000 7290.00000000 230.00000000 164 107 120 97.000000 1.000000 4.000000 1.000000 -60.708740 114.000000 149.000000 -0.326171 0.803494 0.498007
310.00000000 8470.00000000 -250.00000000 164 107 120 97.000000 1.000000 4.000000 1.000000 -60.708740 114.000000 149.000000 -0.518244 0.672543 0.528307
300.00000000 8410.00000000 -260.00000000 164 107 120 97.000000 1.000000 4.000000 1.000000 -60.708740 114.000000 149.000000 0.793061 -0.608433 0.029373
290.00000000 8460.00000000 -300.00000000 164 107 120 97.000000 1.000000 4.000000 1.000000 -60.708740 114.000000 149.000000 -0.712821 0.695257 -0.092213
300.00000000 8460.00000000 -320.00000000 164 107 120 97.000000 1.000000 4.000000 1.000000 -60.708740 114.000000 149.000000 0.780479 -0.616476 0.103966
290.00000000 8420.00000000 -280.00000000 164 107 120 97.000000 1.000000 4.000000 1.000000 -60.708740 114.000000 149.000000 0.761919 -0.633186 -0.136217
230.00000000 8440.00000000 -280.00000000 164 107 120 97.000000 1.000000 4.000000 1.000000 -60.708740 114.000000 149.000000 0.786933 -0.584447 0.197884
240.00000000 8440.00000000 -290.00000000 164 107 120 97.000000 1.000000 4.000000 1.000000 -60.708740 114.000000 149.000000 0.799540 -0.594973 0.082115
330.00000000 8230.00000000 -180.00000000 164 107 120 97.000000 1.000000 4.000000 1.000000 -60.708740 114.000000 149.000000 0.823906 -0.467878 0.319795
220.00000000 8240.00000000 -140.00000000 164 107 120 97.000000 1.000000 4.000000 1.000000 -60.708740 114.000000 149.000000 0.932462 -0.360994 0.014032
170.00000000 8280.00000000 -110.00000000 164 107 120 97.000000 1.000000 4.000000 1.000000 -60.708740 114.000000 149.000000 0.714151 -0.633910 -0.296894
170.00000000 8270.00000000 -160.00000000 164 107 120 97.000000 1.000000 4.000000 1.000000 -60.708740 114.000000 149.000000 0.833820 -0.462887 -0.300799
200.00000000 8220.00000000 -130.00000000 164 107 120 97.000000 1.000000 4.000000 1.000000 -60.708740 114.000000 149.000000 0.717162 -0.606579 -0.343132
180.00000000 8240.00000000 -140.00000000 164 107 120 97.000000 1.000000 4.000000 1.000000 -60.708740 114.000000 149.000000 0.937612 -0.347682 0.001255
180.00000000 8240.00000000 -140.00000000 164 107 120 97.000000 1.000000 4.000000 1.000000 -60.708740 114.000000 149.000000 0.937612 -0.347682 0.001255
180.00000000 8240.00000000 -170.00000000 164 107 120 97.000000 1.000000 4.000000 1.000000 -60.708740 114.000000 149.000000 -0.662540 0.744083 0.085912
180.00000000 8240.00000000 -150.00000000 164 107 120 97.000000 1.000000 4.000000 1.000000 -60.708740 114.000000 149.000000 0.881545 -0.450120 -0.142370
190.00000000 8250.00000000 -170.00000000 164 107 120 97.000000 1.000000 4.000000 1.000000 -60.708740 114.000000 149.000000 0.756274 -0.635512 -0.155481
330.00000000 8320.00000000 -190.00000000 164 107 120 97.000000 1.000000 4.000000 1.000000 -60.708740 114.000000 149.000000 0.854779 -0.467481 -0.225420
320.00000000 8210.00000000 -140.00000000 164 107 120 97.000000 1.000000 4.000000 1.000000 -60.708740 114.000000 149.000000 -0.638117 0.753311 -0.159150
290.00000000 8190.00000000 -120.00000000 164 107 120 97.000000 1.000000 4.000000 1.000000 -60.708740 114.000000 149.000000 0.856357 -0.287502 -0.428947
290.00000000 8180.00000000 -110.00000000 164 107 120 97.000000 1.000000 4.000000 1.000000 -60.708740 114.000000 149.000000 0.852514 -0.374237 -0.364920
320.00000000 8090.00000000 -50.00000000 164 107 120 97.000000 1.000000 4.000000 1.000000 -60.708740 114.000000 149.000000 0.885605 -0.456052 -0.087863
280.00000000 8120.00000000 -80.00000000 164 107 120 97.000000 1.000000 4.000000 1.000000 -60.708740 114.000000 149.000000 0.706293 -0.614948 -0.350700
330.00000000 8110.00000000 -120.00000000 164 107 120 97.000000 1.000000 4.000000 1.000000 -60.708740 114.000000 149.000000 0.718057 -0.695574 0.023888
180.00000000 8160.00000000 -90.00000000 164 107 120 97.000000 1.000000 4.000000 1.000000 -60.708740 114.000000 149.000000 0.785994 -0.586814 0.194583
240.00000000 8190.00000000 -140.00000000 164 107 120 97.000000 1.000000 4.000000 1.000000 -60.708740 114.000000 149.000000 0.826252 -0.563166 -0.012332
180.00000000 8190.00000000 -140.00000000 164 107 120 97.000000 1.000000 4.000000 1.000000 -60.708740 114.000000 149.000000 0.823095 -0.532056 0.198574
180.00000000 8190.00000000 -140.00000000 164 107 120 97.000000 1.000000 4.000000 1.000000 -60.708740 114.000000 149.000000 0.823095 -0.532056 0.198574
200.00000000 8190.00000000 -130.00000000 164 107 120 97.000000 1.000000 4.000000 1.000000 -60.708740 114.000000 149.000000 0.958429 -0.285203 -0.008568
190.00000000 8210.00000000 -130.00000000 164 107 120 97.000000 1.000000 4.000000 1.000000 -60.708740 114.000000 149.000000 -0.763771 0.616242 0.192095
160.00000000 8280.00000000 -130.00000000 164 107 120 97.000000 1.000000 4.000000 1.000000 -60.708740 114.000000 149.000000 0.711181 -0.696518 -0.095313
160.00000000 8270.00000000 -130.00000000 164 107 120 97.000000 1.000000 4.000000 1.000000 -60.708740 114.000000 149.000000 0.791345 -0.611179 -0.015245
160.00000000 8270.00000000 -120.00000000 164 107 120 97.000000 1.000000 4.000000 1.000000 -60.708740 114.000000 149.000000 0.747248 -0.544494 -0.380982
150.00000000 8270.00000000 -120.00000000 164 107 120 97.000000 1.000000 4.000000 1.000000 -60.708740 114.000000 149.000000 0.864903 -0.361016 -0.348726
160.00000000 8280.00000000 -140.00000000 164 107 120 97.000000 1.000000 4.000000 1.000000 -60.708740 114.000000 149.000000 0.809240 -0.582135 0.079055
150.00000000 8260.00000000 -110.00000000 164 107 120 97.000000 1.000000 4.000000 1.000000 -60.708740 114.000000 149.000000 0.853162 -0.521602 -0.006739
120.00000000 8190.00000000 -70.00000000 164 107 120 97.000000 1.000000 4.000000 1.000000 -60.708740 114.000000 149.000000 0.713095 -0.679502 0.172548
160.00000000 8180.00000000 -90.00000000 164 107 120 97.000000 1.000000 4.000000 1.000000 -60.708740 114.000000 149.000000 0.816731 -0.543982 -0.192439
110.00000000 8160.00000000 -60.00000000 164 107 120 97.000000 1.000000 4.000000 1.000000 -60.708740 114.000000 149.000000 0.997621 -0.062683 -0.028686
310.00000000 8040.00000000 -60.00000000 164 107 120 97.000000 1.000000 4.000000 1.000000 -60.708740 114.000000 149.000000 0.888534 -0.436397 -0.141650
330.00000000 8020.00000000 -20.00000000 164 107 120 97.000000 1.000000 4.000000 1.000000 -60.708740 114.000000 149.000000 0.821272 -0.535876 -0.195830
310.00000000 8040.00000000 -60.00000000 164 107 120 97.000000 1.000000 4.000000 1.000000 -60.708740 114.000000 149.000000 0.888534 -0.436397 -0.141650
290.00000000 8000.00000000 -30.00000000 164 107 120 97.000000 1.000000 4.000000 1.000000 -60.708740 114.000000 149.000000 0.832772 -0.443832 0.330913
710.00000000 7770.00000000 180.00000000 164 107 120 97.000000 1.000000 4.000000 1.000000 -60.708740 114.000000 149.000000 0.959424 0.112950 0.258356
800.00000000 7830.00000000 30.00000000 164 107 120 97.000000 1.000000 4.000000 1.000000 -60.708740 114.000000 149.000000 0.846576 -0.397563 0.353909
760.00000000 7780.00000000 100.00000000 164 107 120 97.000000 1.000000 4.000000 1.000000 -60.708740 114.000000 149.000000 0.996509 0.083483 0.001057
710.00000000 7860.00000000 130.00000000 164 107 120 97.000000 1.000000 4.000000 1.000000 -60.708740 114.000000 149.000000 0.909201 0.003891 0.416339
670.00000000 7870.00000000 70.00000000 164 107 120 97.000000 1.000000 4.000000 1.000000 -60.708740 114.000000 149.000000 0.838122 -0.366383 0.404123
710.00000000 7780.00000000 90.00000000 164 107 120 97.000000 1.000000 4.000000 1.000000 -60.708740 114.000000 149.000000 0.781426 -0.469506 0.411020
700.00000000 7780.00000000 130.00000000 164 107 120 97.000000 1.000000 4.000000 1.000000 -60.708740 114.000000 149.000000 0.906509 -0.052532 0.418907
590.00000000 8300.00000000 0.00000000 164 107 120 97.000000 1.000000 4.000000 1.000000 -60.708740 114.000000 149.000000 -0.073775 0.875556 0.477450
530.00000000 8310.00000000 -10.00000000 164 107 120 97.000000 1.000000 4.000000 1.000000 -60.708740 114.000000 149.000000 -0.125369 0.585546 0.800886
500.00000000 8250.00000000 -10.00000000 164 107 120 97.000000 1.000000 4.000000 1.000000 -60.708740 114.000000 149.000000 -0.250480 0.606508 0.754591
550.00000000 8100.00000000 -10.00000000 164 107 120 97.000000 1.000000 4.000000 1.000000 -60.708740 114.000000 149.000000 0.308655 0.651246 0.693261
560.00000000 8080.00000000 10.00000000 164 107 120 97.000000 1.000000 4.000000 1.000000 -60.708740 114.000000 149.000000 0.299303 0.477944 0.825825
540.00000000 8080.00000000 0.00000000 164 107 120 97.000000 1.000000 4.000000 1.000000 -60.708740 114.000000 149.000000 0.201407 0.601147 0.773342
470.00000000 8210.00000000 10.00000000 164 107 120 97.000000 1.000000 4.000000 1.000000 -60.708740 114.000000 149.000000 0.076605 0.776171 0.625851
450.00000000 8160.00000000 10.00000000 164 107 120 97.000000 1.000000 4.000000 1.000000 -60.708740 114.000000 149.000000 0.012541 0.678632 0.734372
390.00000000 8130.00000000 10.00000000 164 107 120 97.000000 1.000000 4.000000 1.000000 -60.708740 114.000000 149.000000 -0.331521 0.903212 0.272584
400.00000000 8110.00000000 0.00000000 164 107 120 97.000000 1.000000 4.000000 1.000000 -60.708740 114.000000 149.000000 -0.678566 0.684922 0.265387
370.00000000 8070.00000000 -10.00000000 164 107 120 97.000000 1.000000 4.000000 1.000000 -60.708740 114.000000 149.000000 -0.457965 0.707764 0.537901
450.00000000 7760.00000000 330.00000000 164 107 120 97.000000 1.000000 4.000000 1.000000 -60.708740 114.000000 149.000000 0.567650 0.447794 0.690835
620.00000000 7750.00000000 310.00000000 164 107 120 97.000000 1.000000 4.000000 1.000000 -60.708740 114.000000 149.000000 0.961921 0.226411 0.153122
560.00000000 7730.00000000 280.00000000 164 107 120 97.000000 1.000000 4.000000 1.000000 -60.708740 114.000000 149.000000 0.975774 -0.108143 -0.190183
550.00000000 7720.00000000 280.00000000 164 107 120 97.000000 1.000000 4.000000 1.000000 -60.708740 114.000000 149.000000 0.946306 0.144032 0.289411
500.00000000 7770.00000000 270.00000000 164 107 120 97.000000 1.000000 4.000000 1.000000 -60.708740 114.000000 149.000000 0.834436 0.281253 0.473935
630.00000000 7860.00000000 120.00000000 164 107 120 97.000000 1.000000 4.000000 1.000000 -60.708740 114.000000 149.000000 0.863136 0.037050 0.503610
620.00000000 7870.00000000 140.00000000 164 107 120 97.000000 1.000000 4.000000 1.000000 -60.708740 114.000000 149.000000 0.811201 0.176742 0.557418
610.00000000 7810.00000000 120.00000000 164 107 120 97.000000 1.000000 4.000000 1.000000 -60.708740 114.000000 149.000000 0.948411 -0.104206 0.299429
550.00000000 7720.00000000 10.00000000 164 107 120 97.000000 1.000000 4.000000 1.000000 -60.708740 114.000000 149.000000 -0.392692 0.767460 0.506752
440.00000000 7950.00000000 20.00000000 164 107 120 97.000000 1.000000 4.000000 1.000000 -60.708740 114.000000 149.000000 -0.444085 0.874891 0.193273
470.00000000 7900.00000000 -10.00000000 164 107 120 97.000000 1.000000 4.000000 1.000000 -60.708740 114.000000 149.000000 -0.398921 0.904316 0.151902
490.00000000 7940.00000000 0.00000000 164 107 120 97.000000 1.000000 4.000000 1.000000 -60.708740 114.000000 149.000000 0.857044 -0.507404 -0.089542
480.00000000 7890.00000000 0.00000000 164 107 120 97.000000 1.000000 4.000000 1.000000 -60.708740 114.000000 149.000000 -0.705227 0.689995 0.162979
370.00000000 7760.00000000 300.00000000 164 107 120 97.000000 1.000000 4.000000 1.000000 -60.708740 114.000000 149.000000 0.038144 0.752991 0.656924
370.00000000 7780.00000000 280.00000000 164 107 120 97.000000 1.000000 4.000000 1.000000 -60.708740 114.000000 149.000000 0.126787 0.750279 0.648850
420.00000000 7840.00000000 -10.00000000 164 107 120 97.000000 1.000000 4.000000 1.000000 -60.708740 114.000000 149.000000 -0.046934 0.669876 0.740988
460.00000000 7740.00000000 40.00000000 164 107 120 97.000000 1.000000 4.000000 1.000000 -60.708740 114.000000 149.000000 -0.250935 0.550187 0.796446
380.00000000 7850.00000000 30.00000000 164 107 120 97.000000 1.000000 4.000000 1.000000 -60.708740 114.000000 149.000000 0.574835 0.661982 0.480984
380.00000000 7860.00000000 10.00000000 164 107 120 97.000000 1.000000 4.000000 1.000000 -60.708740 114.000000 149.000000 0.465032 0.273457 0.842001
410.00000000 7800.00000000 60.00000000 164 107 120 97.000000 1.000000 4.000000 1.000000 -60.708740 114.000000 149.000000 -0.061465 0.627515 0.776175
340.00000000 7870.00000000 10.00000000 164 107 120 97.000000 1.000000 4.000000 1.000000 -60.708740 114.000000 149.000000 0.679545 0.058903 0.731265
360.00000000 7800.00000000 30.00000000 164 107 120 97.000000 1.000000 4.000000 1.000000 -60.708740 114.000000 149.000000 0.234528 0.570011 0.787454
350.00000000 7800.00000000 40.00000000 164 107 120 97.000000 1.000000 4.000000 1.000000 -60.708740 114.000000 149.000000 0.299410 0.353575 0.886193
340.00000000 7800.00000000 40.00000000 164 107 120 97.000000 1.000000 4.000000 1.000000 -60.708740 114.000000 149.000000 0.518787 0.423264 0.742771
390.00000000 7720.00000000 90.00000000 164 107 120 97.000000 1.000000 4.000000 1.000000 -60.708740 114.000000 149.000000 0.116365 0.608341 0.785099
360.00000000 7770.00000000 70.00000000 164 107 120 97.000000 1.000000 4.000000 1.000000 -60.708740 114.000000 149.000000 0.583289 0.423757 0.692967
340.00000000 7720.00000000 70.00000000 164 107 120 97.000000 1.000000 4.000000 1.000000 -60.708740 114.000000 149.000000 0.083148 0.491839 0.866707
370.00000000 7760.00000000 50.00000000 164 107 120 97.000000 1.000000 4.000000 1.000000 -60.708740 114.000000 149.000000 0.113870 0.634419 0.764556
340.00000000 7730.00000000 60.00000000 164 107 120 97.000000 1.000000 4.000000 1.000000 -60.708740 114.000000 149.000000 0.382628 0.324235 0.865140
370.00000000 7730.00000000 60.00000000 164 107 120 97.000000 1.000000 4.000000 1.000000 -60.708740 114.000000 149.000000 0.114451 0.522996 0.844616
370.00000000 7760.00000000 50.00000000 164 107 120 97.000000 1.000000 4.000000 1.000000 -60.708740 114.000000 149.000000 0.113870 0.634419 0.764556
360.00000000 7750.00000000 60.00000000 164 107 120 97.000000 1.000000 4.000000 1.000000 -60.708740 114.000000 149.000000 0.178496 0.461729 0.868876
710.00000000 7640.00000000 270.00000000 164 107 120 97.000000 1.000000 4.000000 1.000000 -60.708740 114.000000 149.000000 0.948288 -0.160521 -0.273830
670.00000000 7680.00000000 280.00000000 164 107 120 97.000000 1.000000 4.000000 1.000000 -60.708740 114.000000 149.000000 0.883464 -0.463162 -0.070511
680.00000000 7710.00000000 290.00000000 164 107 120 97.000000 1.000000 4.000000 1.000000 -60.708740 114.000000 149.000000 0.923704 0.125271 0.362048
700.00000000 7640.00000000 260.00000000 164 107 120 97.000000 1.000000 4.000000 1.000000 -60.708740 114.000000 149.000000 0.933898 -0.256997 -0.248571
360.00000000 7700.00000000 320.00000000 164 107 120 97.000000 1.000000 4.000000 1.000000 -60.708740 114.000000 149.000000 0.925495 0.104953 0.363928
400.00000000 7390.00000000 370.00000000 164 107 120 97.000000 1.000000 4.000000 1.000000 -60.708740 114.000000 149.000000 -0.357826 0.609449 0.707483
400.00000000 7390.00000000 370.00000000 164 107 120 97.000000 1.000000 4.000000 1.000000 -60.708740 114.000000 149.000000 -0.357826 0.609449 0.707483
340.00000000 7430.00000000 360.00000000 164 107 120 97.000000 1.000000 4.000000 1.000000 -60.708740 114.000000 149.000000 0.089090 0.682047 0.725861
350.00000000 7420.00000000 330.00000000 164 107 120 97.000000 1.000000 4.000000 1.000000 -60.708740 114.000000 149.000000 0.100837 0.781854 0.615253
340.00000000 7430.00000000 350.00000000 164 107 120 97.000000 1.000000 4.000000 1.000000 -60.708740 114.000000 149.000000 0.144838 0.798850 0.583833
360.00000000 7420.00000000 330.00000000 164 107 120 97.000000 1.000000 4.000000 1.000000 -60.708740 114.000000 149.000000 0.065474 0.865091 0.497323
340.00000000 7450.00000000 320.00000000 164 107 120 97.000000 1.000000 4.000000 1.000000 -60.708740 114.000000 149.000000 -0.349612 0.806184 0.477325
350.00000000 7380.00000000 340.00000000 164 107 120 97.000000 1.000000 4.000000 1.000000 -60.708740 114.000000 149.000000 -0.244019 0.741502 0.625003
640.00000000 7640.00000000 240.00000000 164 107 120 97.000000 1.000000 4.000000 1.000000 -60.708740 114.000000 149.000000 0.892662 -0.330449 -0.306525
650.00000000 7560.00000000 210.00000000 164 107 120 97.000000 1.000000 4.000000 1.000000 -60.708740 114.000000 149.000000 -0.713208 0.510385 0.480460
560.00000000 7700.00000000 280.00000000 164 107 120 97.000000 1.000000 4.000000 1.000000 -60.708740 114.000000 149.000000 0.997802 0.022220 0.062429
630.00000000 7710.00000000 50.00000000 164 107 120 97.000000 1.000000 4.000000 1.000000 -60.708740 114.000000 149.000000 -0.660485 0.738366 -0.136291
630.00000000 7710.00000000 50.00000000 164 107 120 97.000000 1.000000 4.000000 1.000000 -60.708740 114.000000 149.000000 -0.660485 0.738366 -0.136291
640.00000000 7620.00000000 20.00000000 164 107 120 97.000000 1.000000 4.000000 1.000000 -60.708740 114.000000 149.000000 -0.687381 0.726264 -0.006943
620.00000000 7600.00000000 0.00000000 164 107 120 97.000000 1.000000 4.000000 1.000000 -60.708740 114.000000 149.000000 -0.537412 0.811508 0.229440
500.00000000 7690.00000000 20.00000000 164 107 120 97.000000 1.000000 4.000000 1.000000 -60.708740 114.000000 149.000000 -0.014561 0.896178 0.443456
500.00000000 7660.00000000 40.00000000 164 107 120 97.000000 1.000000 4.000000 1.000000 -60.708740 114.000000 149.000000 -0.179279 0.740099 0.648161
520.00000000 7610.00000000 20.00000000 164 107 120 97.000000 1.000000 4.000000 1.000000 -60.708740 114.000000 149.000000 -0.386645 0.869568 0.307176
540.00000000 7490.00000000 150.00000000 164 107 120 97.000000 1.000000 4.000000 1.000000 -60.708740 114.000000 149.000000 -0.709421 0.456887 0.536634
600.00000000 7480.00000000 110.00000000 164 107 120 97.000000 1.000000 4.000000 1.000000 -60.708740 114.000000 149.000000 -0.504806 0.854844 0.120054
520.00000000 7480.00000000 100.00000000 164 107 120 97.000000 1.000000 4.000000 1.000000 -60.708740 114.000000 149.000000 -0.573444 0.804019 0.157210
510.00000000 7430.00000000 90.00000000 164 107 120 97.000000 1.000000 4.000000 1.000000 -60.708740 114.000000 149.000000 -0.231759 0.586398 0.776160
520.00000000 7430.00000000 110.00000000 164 107 120 97.000000 1.000000 4.000000 1.000000 -60.708740 114.000000 149.000000 -0.344854 0.844189 0.410391
490.00000000 7700.00000000 270.00000000 164 107 120 97.000000 1.000000 4.000000 1.000000 -60.708740 114.000000 149.000000 0.878098 -0.476604 0.042334
380.00000000 7670.00000000 300.00000000 164 107 120 97.000000 1.000000 4.000000 1.000000 -60.708740 114.000000 149.000000 -0.493972 0.836541 0.237045
340.00000000 7700.00000000 300.00000000 164 107 120 97.000000 1.000000 4.000000 1.000000 -60.708740 114.000000 149.000000 0.777586 0.478889 0.407462
390.00000000 7600.00000000 230.00000000 164 107 120 97.000000 1.000000 4.000000 1.000000 -60.708740 114.000000 149.000000 0.621816 -0.700155 -0.350894
380.00000000 7560.00000000 210.00000000 164 107 120 97.000000 1.000000 4.000000 1.000000 -60.708740 114.000000 149.000000 -0.148206 0.794922 0.588332
410.00000000 7570.00000000 210.00000000 164 107 120 97.000000 1.000000 4.000000 1.000000 -60.708740 114.000000 149.000000 -0.176237 0.675831 0.715676
380.00000000 7570.00000000 170.00000000 164 107 120 97.000000 1.000000 4.000000 1.000000 -60.708740 114.000000 149.000000 0.244821 0.674443 0.696556
400.00000000 7570.00000000 160.00000000 164 107 120 97.000000 1.000000 4.000000 1.000000 -60.708740 114.000000 149.000000 0.020336 0.860883 0.508396
380.00000000 7570.00000000 170.00000000 164 107 120 97.000000 1.000000 4.000000 1.000000 -60.708740 114.000000 149.000000 0.244821 0.674443 0.696556
370.00000000 7610.00000000 210.00000000 164 107 120 97.000000 1.000000 4.000000 1.000000 -60.708740 114.000000 149.000000 -0.028035 0.966600 0.254753
340.00000000 7620.00000000 210.00000000 164 107 120 97.000000 1.000000 4.000000 1.000000 -60.708740 114.000000 149.000000 0.184160 0.786865 0.589007
350.00000000 7560.00000000 210.00000000 164 107 120 97.000000 1.000000 4.000000 1.000000 -60.708740 114.000000 149.000000 0.108035 0.702968 0.702968
470.00000000 7630.00000000 70.00000000 164 107 120 97.000000 1.000000 4.000000 1.000000 -60.708740 114.000000 149.000000 -0.052869 0.753027 0.655862
480.00000000 7630.00000000 70.00000000 164 107 120 97.000000 1.000000 4.000000 1.000000 -60.708740 114.000000 149.000000 -0.192043 0.631436 0.751271
450.00000000 7630.00000000 60.00000000 164 107 120 97.000000 1.000000 4.000000 1.000000 -60.708740 114.000000 149.000000 0.297231 -0.724602 -0.621776
450.00000000 7640.00000000 50.00000000 164 107 120 97.000000 1.000000 4.000000 1.000000 -60.708740 114.000000 149.000000 0.107580 0.764849 0.635164
470.00000000 7590.00000000 120.00000000 164 107 120 97.000000 1.000000 4.000000 1.000000 -60.708740 114.000000 149.000000 -0.317771 0.939791 0.125756
460.00000000 7590.00000000 110.00000000 164 107 120 97.000000 1.000000 4.000000 1.000000 -60.708740 114.000000 149.000000 -0.558883 0.813601 0.160323
480.00000000 7620.00000000 80.00000000 164 107 120 97.000000 1.000000 4.000000 1.000000 -60.708740 114.000000 149.000000 -0.366926 0.515637 0.774263
480.00000000 7560.00000000 120.00000000 164 107 120 97.000000 1.000000 4.000000 1.000000 -60.708740 114.000000 149.000000 -0.114354 0.699492 0.705432
460.00000000 7570.00000000 100.00000000 164 107 120 97.000000 1.000000 4.000000 1.000000 -60.708740 114.000000 149.000000 -0.529555 0.823921 0.201807
