//X Y Z R G B PointSourceId ScanDirectionFlag NumberOfReturns ReturnNumber GpsTime Intensity Classification Nx Ny Nz
-12790.00000000 15940.00000000 -240.00000000 237 126 74 97.000000 1.000000 4.000000 1.000000 195.291260 114.000000 54.000000 0.563205 -0.613944 0.553057
-12800.00000000 15940.00000000 -280.00000000 237 126 74 97.000000 1.000000 4.000000 1.000000 195.291260 114.000000 54.000000 -0.408919 0.747221 -0.523876
-12800.00000000 15940.00000000 -340.00000000 237 126 74 97.000000 1.000000 4.000000 1.000000 195.291260 114.000000 54.000000 -0.633734 0.766068 -0.107338
-12800.00000000 15940.00000000 -340.00000000 237 126 74 97.000000 1.000000 4.000000 1.000000 195.291260 114.000000 54.000000 -0.633734 0.766068 -0.107338
-12800.00000000 15930.00000000 -320.00000000 237 126 74 97.000000 1.000000 4.000000 1.000000 195.291260 114.000000 54.000000 -0.549881 0.832596 -0.066438
-12790.00000000 15940.00000000 -350.00000000 237 126 74 97.000000 1.000000 4.000000 1.000000 195.291260 114.000000 54.000000 -0.599712 0.659850 -0.452707
-12800.00000000 15940.00000000 -340.00000000 237 126 74 97.000000 1.000000 4.000000 1.000000 195.291260 114.000000 54.000000 -0.633734 0.766068 -0.107338
-12760.00000000 16070.00000000 -430.00000000 237 126 74 97.000000 1.000000 4.000000 1.000000 195.291260 114.000000 54.000000 0.830421 0.521849 -0.195126
-12760.00000000 16060.00000000 -420.00000000 237 126 74 97.000000 1.000000 4.000000 1.000000 195.291260 114.000000 54.000000 0.851940 0.522688 0.031553
-12760.00000000 16070.00000000 -410.00000000 237 126 74 97.000000 1.000000 4.000000 1.000000 195.291260 114.000000 54.000000 0.764796 0.642769 0.043986
-12760.00000000 16060.00000000 -440.00000000 237 126 74 97.000000 1.000000 4.000000 1.000000 195.291260 114.000000 54.000000 0.848720 0.466414 -0.249264
-12790.00000000 16100.00000000 -370.00000000 237 126 74 97.000000 1.000000 4.000000 1.000000 195.291260 114.000000 54.000000 0.751628 0.639263 0.162473
-12800.00000000 16110.00000000 -370.00000000 237 126 74 97.000000 1.000000 4.000000 1.000000 195.291260 114.000000 54.000000 0.799081 0.600361 0.032187
-12800.00000000 16110.00000000 -370.00000000 237 126 74 97.000000 1.000000 4.000000 1.000000 195.291260 114.000000 54.000000 0.799081 0.600361 0.032187
-12790.00000000 16100.00000000 -410.00000000 237 126 74 97.000000 1.000000 4.000000 1.000000 195.291260 114.000000 54.000000 0.626716 0.728777 -0.275883
-12800.00000000 16060.00000000 -440.00000000 237 126 74 97.000000 1.000000 4.000000 1.000000 195.291260 114.000000 54.000000 0.491076 0.871091 0.006690
-12770.00000000 16060.00000000 -460.00000000 237 126 74 97.000000 1.000000 4.000000 1.000000 195.291260 114.000000 54.000000 0.764878 0.635686 -0.104235
-12770.00000000 16070.00000000 -460.00000000 237 126 74 97.000000 1.000000 4.000000 1.000000 195.291260 114.000000 54.000000 0.763421 0.642653 0.064697
-12800.00000000 16100.00000000 -500.00000000 237 126 74 97.000000 1.000000 4.000000 1.000000 195.291260 114.000000 54.000000 -0.135876 0.931916 -0.336258
-12790.00000000 16060.00000000 -470.00000000 237 126 74 97.000000 1.000000 4.000000 1.000000 195.291260 114.000000 54.000000 0.711058 0.633664 -0.304739
-12790.00000000 16090.00000000 -520.00000000 237 126 74 97.000000 1.000000 4.000000 1.000000 195.291260 114.000000 54.000000 -0.137317 0.988912 -0.056542
-12760.00000000 16060.00000000 -480.00000000 237 126 74 97.000000 1.000000 4.000000 1.000000 195.291260 114.000000 54.000000 0.824068 0.566290 -0.015083
-12760.00000000 16030.00000000 -380.00000000 237 126 74 97.000000 1.000000 4.000000 1.000000 195.291260 114.000000 54.000000 0.918983 0.292863 0.264009
-12760.00000000 16030.00000000 -390.00000000 237 126 74 97.000000 1.000000 4.000000 1.000000 195.291260 114.000000 54.000000 0.933331 0.287719 0.214736
-12750.00000000 16050.00000000 -420.00000000 237 126 74 97.000000 1.000000 4.000000 1.000000 195.291260 114.000000 54.000000 0.922463 0.345043 -0.173226
-12750.00000000 16030.00000000 -420.00000000 237 126 74 97.000000 1.000000 4.000000 1.000000 195.291260 114.000000 54.000000 0.958320 0.273256 0.083388
-12760.00000000 15990.00000000 -360.00000000 237 126 74 97.000000 1.000000 4.000000 1.000000 195.291260 114.000000 54.000000 0.808133 -0.277747 0.519402
-12750.00000000 15980.00000000 -370.00000000 237 126 74 97.000000 1.000000 4.000000 1.000000 195.291260 114.000000 54.000000 0.702227 -0.702227 0.117285
-12740.00000000 15990.00000000 -360.00000000 237 126 74 97.000000 1.000000 4.000000 1.000000 195.291260 114.000000 54.000000 0.741615 -0.639430 0.202822
-12750.00000000 15980.00000000 -430.00000000 237 126 74 97.000000 1.000000 4.000000 1.000000 195.291260 114.000000 54.000000 0.866594 -0.384982 0.317495
-12790.00000000 16050.00000000 -360.00000000 237 126 74 97.000000 1.000000 4.000000 1.000000 195.291260 114.000000 54.000000 0.951164 0.294377 0.092892
-12770.00000000 15970.00000000 -370.00000000 237 126 74 97.000000 1.000000 4.000000 1.000000 195.291260 114.000000 54.000000 0.833637 -0.507498 0.217934
-12780.00000000 15970.00000000 -360.00000000 237 126 74 97.000000 1.000000 4.000000 1.000000 195.291260 114.000000 54.000000 0.810292 -0.550877 0.199903
-12770.00000000 15970.00000000 -370.00000000 237 126 74 97.000000 1.000000 4.000000 1.000000 195.291260 114.000000 54.000000 0.833637 -0.507498 0.217934
-12770.00000000 15970.00000000 -360.00000000 237 126 74 97.000000 1.000000 4.000000 1.000000 195.291260 114.000000 54.000000 -0.573915 0.785440 -0.231744
-12750.00000000 16030.00000000 -450.00000000 237 126 74 97.000000 1.000000 4.000000 1.000000 195.291260 114.000000 54.000000 0.960095 0.184073 -0.210559
-12760.00000000 16050.00000000 -460.00000000 237 126 74 97.000000 1.000000 4.000000 1.000000 195.291260 114.000000 54.000000 0.912061 0.383656 0.144749
-12760.00000000 16040.00000000 -450.00000000 237 126 74 97.000000 1.000000 4.000000 1.000000 195.291260 114.000000 54.000000 0.899880 0.394330 -0.186332
-12760.00000000 16050.00000000 -460.00000000 237 126 74 97.000000 1.000000 4.000000 1.000000 195.291260 114.000000 54.000000 0.912061 0.383656 0.144749
-12760.00000000 16040.00000000 -450.00000000 237 126 74 97.000000 1.000000 4.000000 1.000000 195.291260 114.000000 54.000000 0.899880 0.394330 -0.186332
-12740.00000000 16020.00000000 -480.00000000 237 126 74 97.000000 1.000000 4.000000 1.000000 195.291260 114.000000 54.000000 0.837029 0.276947 0.471893
-12750.00000000 16020.00000000 -470.00000000 237 126 74 97.000000 1.000000 4.000000 1.000000 195.291260 114.000000 54.000000 0.951833 0.084405 0.294770
-12760.00000000 16050.00000000 -510.00000000 237 126 74 97.000000 1.000000 4.000000 1.000000 195.291260 114.000000 54.000000 0.865416 0.448456 -0.223478
-12760.00000000 16050.00000000 -490.00000000 237 126 74 97.000000 1.000000 4.000000 1.000000 195.291260 114.000000 54.000000 0.809848 0.564349 -0.160173
-12760.00000000 16040.00000000 -510.00000000 237 126 74 97.000000 1.000000 4.000000 1.000000 195.291260 114.000000 54.000000 0.685018 0.703491 -0.189342
-12740.00000000 15990.00000000 -480.00000000 237 126 74 97.000000 1.000000 4.000000 1.000000 195.291260 114.000000 54.000000 0.990098 -0.135272 0.037512
-12730.00000000 16000.00000000 -510.00000000 237 126 74 97.000000 1.000000 4.000000 1.000000 195.291260 114.000000 54.000000 0.876158 0.199463 0.438818
-12740.00000000 16000.00000000 -490.00000000 237 126 74 97.000000 1.000000 4.000000 1.000000 195.291260 114.000000 54.000000 0.954738 0.089385 0.283701
-12740.00000000 15990.00000000 -490.00000000 237 126 74 97.000000 1.000000 4.000000 1.000000 195.291260 114.000000 54.000000 0.954454 0.106050 0.278873
-12770.00000000 16040.00000000 -500.00000000 237 126 74 97.000000 1.000000 4.000000 1.000000 195.291260 114.000000 54.000000 0.640367 0.762897 0.088980
-12720.00000000 16000.00000000 -650.00000000 237 126 74 97.000000 1.000000 4.000000 1.000000 195.291260 114.000000 54.000000 0.713999 0.700135 0.004159
-12720.00000000 15990.00000000 -610.00000000 237 126 74 97.000000 1.000000 4.000000 1.000000 195.291260 114.000000 54.000000 0.973665 0.114327 0.197246
-12720.00000000 15970.00000000 -670.00000000 237 126 74 97.000000 1.000000 4.000000 1.000000 195.291260 114.000000 54.000000 0.950701 0.308506 -0.031480
-12720.00000000 15990.00000000 -690.00000000 237 126 74 97.000000 1.000000 4.000000 1.000000 195.291260 114.000000 54.000000 0.972458 0.228168 0.047586
-12720.00000000 15980.00000000 -630.00000000 237 126 74 97.000000 1.000000 4.000000 1.000000 195.291260 114.000000 54.000000 0.978727 0.119718 0.166618
-12720.00000000 15980.00000000 -630.00000000 237 126 74 97.000000 1.000000 4.000000 1.000000 195.291260 114.000000 54.000000 0.978727 0.119718 0.166618
-12780.00000000 16060.00000000 -560.00000000 237 126 74 97.000000 1.000000 4.000000 1.000000 195.291260 114.000000 54.000000 0.347967 0.811923 -0.468722
-12790.00000000 16070.00000000 -560.00000000 237 126 74 97.000000 1.000000 4.000000 1.000000 195.291260 114.000000 54.000000 0.346590 0.913214 -0.214282
-12780.00000000 16070.00000000 -530.00000000 237 126 74 97.000000 1.000000 4.000000 1.000000 195.291260 114.000000 54.000000 0.249915 0.943051 -0.219539
-12800.00000000 16070.00000000 -590.00000000 237 126 74 97.000000 1.000000 4.000000 1.000000 195.291260 114.000000 54.000000 0.144672 0.954307 -0.261472
-12780.00000000 16060.00000000 -560.00000000 237 126 74 97.000000 1.000000 4.000000 1.000000 195.291260 114.000000 54.000000 0.347967 0.811923 -0.468722
-12800.00000000 16070.00000000 -560.00000000 237 126 74 97.000000 1.000000 4.000000 1.000000 195.291260 114.000000 54.000000 0.038305 0.999030 -0.021741
-12780.00000000 16070.00000000 -530.00000000 237 126 74 97.000000 1.000000 4.000000 1.000000 195.291260 114.000000 54.000000 0.249915 0.943051 -0.219539
-12790.00000000 16070.00000000 -570.00000000 237 126 74 97.000000 1.000000 4.000000 1.000000 195.291260 114.000000 54.000000 0.378796 0.899458 -0.217918
-12800.00000000 16070.00000000 -540.00000000 237 126 74 97.000000 1.000000 4.000000 1.000000 195.291260 114.000000 54.000000 -0.052545 0.949654 -0.308862
-12800.00000000 16070.00000000 -580.00000000 237 126 74 97.000000 1.000000 4.000000 1.000000 195.291260 114.000000 54.000000 0.221233 0.971175 -0.088743
-12790.00000000 16070.00000000 -550.00000000 237 126 74 97.000000 1.000000 4.000000 1.000000 195.291260 114.000000 54.000000 0.114066 0.979989 -0.163127
-12770.00000000 16060.00000000 -580.00000000 237 126 74 97.000000 1.000000 4.000000 1.000000 195.291260 114.000000 54.000000 0.276909 0.954089 0.114176
-12780.00000000 16070.00000000 -540.00000000 237 126 74 97.000000 1.000000 4.000000 1.000000 195.291260 114.000000 54.000000 0.301752 0.943144 -0.139374
-12800.00000000 16060.00000000 -640.00000000 237 126 74 97.000000 1.000000 4.000000 1.000000 195.291260 114.000000 54.000000 0.017183 0.999668 -0.019205
-12750.00000000 16020.00000000 -560.00000000 237 126 74 97.000000 1.000000 4.000000 1.000000 195.291260 114.000000 54.000000 0.964907 0.167980 -0.201836
-12740.00000000 16020.00000000 -550.00000000 237 126 74 97.000000 1.000000 4.000000 1.000000 195.291260 114.000000 54.000000 0.907744 0.334740 -0.252882
-12740.00000000 16020.00000000 -560.00000000 237 126 74 97.000000 1.000000 4.000000 1.000000 195.291260 114.000000 54.000000 0.946411 0.321399 -0.031759
-12750.00000000 16030.00000000 -580.00000000 237 126 74 97.000000 1.000000 4.000000 1.000000 195.291260 114.000000 54.000000 0.797308 0.598341 -0.079298
-12740.00000000 16010.00000000 -590.00000000 237 126 74 97.000000 1.000000 4.000000 1.000000 195.291260 114.000000 54.000000 0.982925 0.149075 0.107867
-12730.00000000 16020.00000000 -600.00000000 237 126 74 97.000000 1.000000 4.000000 1.000000 195.291260 114.000000 54.000000 0.904126 0.426174 0.030536
-12750.00000000 15990.00000000 -530.00000000 237 126 74 97.000000 1.000000 4.000000 1.000000 195.291260 114.000000 54.000000 0.952059 -0.062957 0.299365
-12780.00000000 16040.00000000 -590.00000000 237 126 74 97.000000 1.000000 4.000000 1.000000 195.291260 114.000000 54.000000 0.309082 0.823695 -0.475390
-12750.00000000 16010.00000000 -640.00000000 237 126 74 97.000000 1.000000 4.000000 1.000000 195.291260 114.000000 54.000000 0.629971 0.633313 -0.449502
-12740.00000000 16010.00000000 -630.00000000 237 126 74 97.000000 1.000000 4.000000 1.000000 195.291260 114.000000 54.000000 0.850157 0.487303 0.199420
-12760.00000000 16020.00000000 -640.00000000 237 126 74 97.000000 1.000000 4.000000 1.000000 195.291260 114.000000 54.000000 0.276757 0.960656 0.023371
-12740.00000000 16020.00000000 -630.00000000 237 126 74 97.000000 1.000000 4.000000 1.000000 195.291260 114.000000 54.000000 0.695240 0.616347 0.369808
-12740.00000000 16010.00000000 -660.00000000 237 126 74 97.000000 1.000000 4.000000 1.000000 195.291260 114.000000 54.000000 0.861652 0.500633 0.083204
-12740.00000000 16010.00000000 -660.00000000 237 126 74 97.000000 1.000000 4.000000 1.000000 195.291260 114.000000 54.000000 0.861652 0.500633 0.083204
-12730.00000000 15980.00000000 -610.00000000 237 126 74 97.000000 1.000000 4.000000 1.000000 195.291260 114.000000 54.000000 0.953472 0.301420 0.006151
-12730.00000000 15990.00000000 -630.00000000 237 126 74 97.000000 1.000000 4.000000 1.000000 195.291260 114.000000 54.000000 0.958160 0.281515 -0.051758
-12730.00000000 15980.00000000 -610.00000000 237 126 74 97.000000 1.000000 4.000000 1.000000 195.291260 114.000000 54.000000 0.953472 0.301420 0.006151
-12760.00000000 15990.00000000 -680.00000000 237 126 74 97.000000 1.000000 4.000000 1.000000 195.291260 114.000000 54.000000 0.465471 0.864022 -0.191840
-12740.00000000 15980.00000000 -680.00000000 237 126 74 97.000000 1.000000 4.000000 1.000000 195.291260 114.000000 54.000000 0.762721 0.607381 -0.222137
-12730.00000000 15990.00000000 -670.00000000 237 126 74 97.000000 1.000000 4.000000 1.000000 195.291260 114.000000 54.000000 0.783627 0.619249 0.049597
-12790.00000000 16050.00000000 -630.00000000 237 126 74 97.000000 1.000000 4.000000 1.000000 195.291260 114.000000 54.000000 0.249198 0.965168 -0.079693
-12780.00000000 16040.00000000 -670.00000000 237 126 74 97.000000 1.000000 4.000000 1.000000 195.291260 114.000000 54.000000 -0.123076 0.951522 -0.281883
-12770.00000000 16020.00000000 -660.00000000 237 126 74 97.000000 1.000000 4.000000 1.000000 195.291260 114.000000 54.000000 0.443662 0.858356 -0.257659
-12770.00000000 16040.00000000 -670.00000000 237 126 74 97.000000 1.000000 4.000000 1.000000 195.291260 114.000000 54.000000 0.284400 0.941130 -0.182730
-12770.00000000 16000.00000000 -660.00000000 237 126 74 97.000000 1.000000 4.000000 1.000000 195.291260 114.000000 54.000000 0.655540 0.697213 -0.290105
-12710.00000000 15910.00000000 -490.00000000 237 126 74 97.000000 1.000000 4.000000 1.000000 195.291260 114.000000 54.000000 -0.467448 0.858241 -0.211930
-12760.00000000 15950.00000000 -430.00000000 237 126 74 97.000000 1.000000 4.000000 1.000000 195.291260 114.000000 54.000000 0.773141 -0.493183 0.398778
-12760.00000000 15960.00000000 -440.00000000 237 126 74 97.000000 1.000000 4.000000 1.000000 195.291260 114.000000 54.000000 0.883210 -0.427644 0.192513
-12760.00000000 15960.00000000 -430.00000000 237 126 74 97.000000 1.000000 4.000000 1.000000 195.291260 114.000000 54.000000 0.685073 -0.649273 0.330332
-12770.00000000 15960.00000000 -380.00000000 237 126 74 97.000000 1.000000 4.000000 1.000000 195.291260 114.000000 54.000000 0.781269 -0.472660 0.407689
-12780.00000000 15950.00000000 -380.00000000 237 126 74 97.000000 1.000000 4.000000 1.000000 195.291260 114.000000 54.000000 0.721551 -0.615013 0.317999
-12790.00000000 15930.00000000 -400.00000000 237 126 74 97.000000 1.000000 4.000000 1.000000 195.291260 114.000000 54.000000 -0.287314 0.769873 -0.569865
-12800.00000000 15930.00000000 -400.00000000 237 126 74 97.000000 1.000000 4.000000 1.000000 195.291260 114.000000 54.000000 -0.370498 0.921426 0.117072
-12770.00000000 15960.00000000 -430.00000000 237 126 74 97.000000 1.000000 4.000000 1.000000 195.291260 114.000000 54.000000 0.792650 -0.609410 0.018046
-12800.00000000 15890.00000000 -440.00000000 237 126 74 97.000000 1.000000 4.000000 1.000000 195.291260 114.000000 54.000000 -0.001075 0.994546 0.104293
-12790.00000000 15890.00000000 -400.00000000 237 126 74 97.000000 1.000000 4.000000 1.000000 195.291260 114.000000 54.000000 -0.056422 0.932937 -0.355592
-12750.00000000 15950.00000000 -450.00000000 237 126 74 97.000000 1.000000 4.000000 1.000000 195.291260 114.000000 54.000000 0.856795 -0.430697 0.283555
-12750.00000000 15950.00000000 -450.00000000 237 126 74 97.000000 1.000000 4.000000 1.000000 195.291260 114.000000 54.000000 0.856795 -0.430697 0.283555
-12750.00000000 15900.00000000 -470.00000000 237 126 74 97.000000 1.000000 4.000000 1.000000 195.291260 114.000000 54.000000 -0.334468 0.792160 -0.510503
-12760.00000000 15890.00000000 -480.00000000 237 126 74 97.000000 1.000000 4.000000 1.000000 195.291260 114.000000 54.000000 -0.369203 0.894093 -0.253549
-12780.00000000 15940.00000000 -470.00000000 237 126 74 97.000000 1.000000 4.000000 1.000000 195.291260 114.000000 54.000000 -0.698806 0.643935 -0.311477
-12770.00000000 15910.00000000 -460.00000000 237 126 74 97.000000 1.000000 4.000000 1.000000 195.291260 114.000000 54.000000 -0.269353 0.865887 -0.421530
-12790.00000000 15890.00000000 -450.00000000 237 126 74 97.000000 1.000000 4.000000 1.000000 195.291260 114.000000 54.000000 -0.392274 0.909682 -0.136382
-12790.00000000 15900.00000000 -470.00000000 237 126 74 97.000000 1.000000 4.000000 1.000000 195.291260 114.000000 54.000000 -0.099308 0.991935 -0.078761
-12780.00000000 15900.00000000 -480.00000000 237 126 74 97.000000 1.000000 4.000000 1.000000 195.291260 114.000000 54.000000 -0.110014 0.990128 -0.086853
-12800.00000000 15900.00000000 -490.00000000 237 126 74 97.000000 1.000000 4.000000 1.000000 195.291260 114.000000 54.000000 -0.430596 0.902264 -0.022523
-12790.00000000 15890.00000000 -520.00000000 237 126 74 97.000000 1.000000 4.000000 1.000000 195.291260 114.000000 54.000000 -0.275375 0.850738 -0.447676
-12790.00000000 15900.00000000 -490.00000000 237 126 74 97.000000 1.000000 4.000000 1.000000 195.291260 114.000000 54.000000 -0.311764 0.945814 0.090767
-12790.00000000 15900.00000000 -500.00000000 237 126 74 97.000000 1.000000 4.000000 1.000000 195.291260 114.000000 54.000000 -0.372228 0.840262 -0.394216
-12790.00000000 15880.00000000 -480.00000000 237 126 74 97.000000 1.000000 4.000000 1.000000 195.291260 114.000000 54.000000 -0.423034 0.885591 -0.191756
-12720.00000000 15910.00000000 -560.00000000 237 126 74 97.000000 1.000000 4.000000 1.000000 195.291260 114.000000 54.000000 0.864797 -0.458536 0.204624
-12710.00000000 15930.00000000 -560.00000000 237 126 74 97.000000 1.000000 4.000000 1.000000 195.291260 114.000000 54.000000 0.690135 -0.624564 0.365559
-12720.00000000 15910.00000000 -530.00000000 237 126 74 97.000000 1.000000 4.000000 1.000000 195.291260 114.000000 54.000000 -0.748668 0.631351 -0.202218
-12680.00000000 15920.00000000 -610.00000000 237 126 74 97.000000 1.000000 4.000000 1.000000 195.291260 114.000000 54.000000 0.862963 -0.493735 -0.107334
-12710.00000000 15930.00000000 -630.00000000 237 126 74 97.000000 1.000000 4.000000 1.000000 195.291260 114.000000 54.000000 0.819163 -0.109125 0.563084
-12710.00000000 15900.00000000 -640.00000000 237 126 74 97.000000 1.000000 4.000000 1.000000 195.291260 114.000000 54.000000 0.919193 -0.391679 0.040882
-12720.00000000 15880.00000000 -530.00000000 237 126 74 97.000000 1.000000 4.000000 1.000000 195.291260 114.000000 54.000000 0.452127 -0.582260 0.675688
-12740.00000000 15890.00000000 -600.00000000 237 126 74 97.000000 1.000000 4.000000 1.000000 195.291260 114.000000 54.000000 -0.486857 0.680931 -0.547087
-12740.00000000 15890.00000000 -600.00000000 237 126 74 97.000000 1.000000 4.000000 1.000000 195.291260 114.000000 54.000000 -0.486857 0.680931 -0.547087
-12730.00000000 15950.00000000 -530.00000000 237 126 74 97.000000 1.000000 4.000000 1.000000 195.291260 114.000000 54.000000 0.904828 -0.110141 0.411285
-12730.00000000 15960.00000000 -590.00000000 237 126 74 97.000000 1.000000 4.000000 1.000000 195.291260 114.000000 54.000000 0.894693 -0.244007 0.374145
-12750.00000000 15890.00000000 -530.00000000 237 126 74 97.000000 1.000000 4.000000 1.000000 195.291260 114.000000 54.000000 -0.665456 0.608750 -0.431963
-12750.00000000 15900.00000000 -560.00000000 237 126 74 97.000000 1.000000 4.000000 1.000000 195.291260 114.000000 54.000000 -0.763872 0.554812 -0.329671
-12750.00000000 15910.00000000 -620.00000000 237 126 74 97.000000 1.000000 4.000000 1.000000 195.291260 114.000000 54.000000 -0.114550 0.973046 -0.200148
-12730.00000000 15890.00000000 -610.00000000 237 126 74 97.000000 1.000000 4.000000 1.000000 195.291260 114.000000 54.000000 0.546042 -0.562948 0.620426
-12780.00000000 15880.00000000 -560.00000000 237 126 74 97.000000 1.000000 4.000000 1.000000 195.291260 114.000000 54.000000 -0.422079 0.836312 -0.349902
-12800.00000000 15850.00000000 -530.00000000 237 126 74 97.000000 1.000000 4.000000 1.000000 195.291260 114.000000 54.000000 0.052888 0.945534 -0.321198
-12800.00000000 15850.00000000 -540.00000000 237 126 74 97.000000 1.000000 4.000000 1.000000 195.291260 114.000000 54.000000 -0.051212 0.991236 -0.121771
-12770.00000000 15860.00000000 -550.00000000 237 126 74 97.000000 1.000000 4.000000 1.000000 195.291260 114.000000 54.000000 -0.370304 0.919519 -0.131756
-12790.00000000 15870.00000000 -560.00000000 237 126 74 97.000000 1.000000 4.000000 1.000000 195.291260 114.000000 54.000000 0.003433 0.982879 -0.184218
-12780.00000000 15870.00000000 -560.00000000 237 126 74 97.000000 1.000000 4.000000 1.000000 195.291260 114.000000 54.000000 0.205589 0.978031 -0.034463
-12770.00000000 15880.00000000 -530.00000000 237 126 74 97.000000 1.000000 4.000000 1.000000 195.291260 114.000000 54.000000 -0.411533 0.792403 -0.450265
-12770.00000000 15880.00000000 -560.00000000 237 126 74 97.000000 1.000000 4.000000 1.000000 195.291260 114.000000 54.000000 -0.300961 0.936169 -0.181686
-12780.00000000 15860.00000000 -590.00000000 237 126 74 97.000000 1.000000 4.000000 1.000000 195.291260 114.000000 54.000000 -0.355090 0.934515 -0.024356
-12790.00000000 15860.00000000 -600.00000000 237 126 74 97.000000 1.000000 4.000000 1.000000 195.291260 114.000000 54.000000 0.050770 0.983514 -0.173561
-12790.00000000 15860.00000000 -600.00000000 237 126 74 97.000000 1.000000 4.000000 1.000000 195.291260 114.000000 54.000000 0.050770 0.983514 -0.173561
-12760.00000000 15880.00000000 -610.00000000 237 126 74 97.000000 1.000000 4.000000 1.000000 195.291260 114.000000 54.000000 -0.419495 0.905512 -0.063807
-12760.00000000 15880.00000000 -620.00000000 237 126 74 97.000000 1.000000 4.000000 1.000000 195.291260 114.000000 54.000000 -0.287512 0.937541 -0.195842
-12750.00000000 15870.00000000 -670.00000000 237 126 74 97.000000 1.000000 4.000000 1.000000 195.291260 114.000000 54.000000 -0.556497 0.829864 -0.040447
-12760.00000000 15820.00000000 -680.00000000 237 126 74 97.000000 1.000000 4.000000 1.000000 195.291260 114.000000 54.000000 -0.188118 0.909000 -0.371929
-12740.00000000 15840.00000000 -660.00000000 237 126 74 97.000000 1.000000 4.000000 1.000000 195.291260 114.000000 54.000000 -0.137560 0.949562 -0.281797
-12790.00000000 15860.00000000 -620.00000000 237 126 74 97.000000 1.000000 4.000000 1.000000 195.291260 114.000000 54.000000 0.233324 0.972381 -0.005922
-12800.00000000 15860.00000000 -610.00000000 237 126 74 97.000000 1.000000 4.000000 1.000000 195.291260 114.000000 54.000000 0.098028 0.994598 -0.034145
-12890.00000000 16220.00000000 -30.00000000 237 126 74 97.000000 1.000000 4.000000 1.000000 195.291260 114.000000 54.000000 0.288192 0.949574 0.123511
-12850.00000000 16180.00000000 -30.00000000 237 126 74 97.000000 1.000000 4.000000 1.000000 195.291260 114.000000 54.000000 0.756496 0.535241 -0.375808
-12850.00000000 16210.00000000 -40.00000000 237 126 74 97.000000 1.000000 4.000000 1.000000 195.291260 114.000000 54.000000 0.296764 0.950429 -0.092820
-12850.00000000 16200.00000000 -50.00000000 237 126 74 97.000000 1.000000 4.000000 1.000000 195.291260 114.000000 54.000000 0.298915 0.916961 -0.264258
-12820.00000000 16170.00000000 -40.00000000 237 126 74 97.000000 1.000000 4.000000 1.000000 195.291260 114.000000 54.000000 0.836755 0.547372 -0.015015
-12810.00000000 16150.00000000 -30.00000000 237 126 74 97.000000 1.000000 4.000000 1.000000 195.291260 114.000000 54.000000 0.951967 0.246407 0.181776
-12820.00000000 16160.00000000 -30.00000000 237 126 74 97.000000 1.000000 4.000000 1.000000 195.291260 114.000000 54.000000 0.977307 0.177579 0.115489
-12820.00000000 16160.00000000 -50.00000000 237 126 74 97.000000 1.000000 4.000000 1.000000 195.291260 114.000000 54.000000 0.905333 0.301778 -0.298834
-12820.00000000 16140.00000000 -60.00000000 237 126 74 97.000000 1.000000 4.000000 1.000000 195.291260 114.000000 54.000000 0.874404 0.484885 0.017461
-12830.00000000 16160.00000000 -20.00000000 237 126 74 97.000000 1.000000 4.000000 1.000000 195.291260 114.000000 54.000000 0.909843 0.336278 0.243110
-12830.00000000 16170.00000000 -60.00000000 237 126 74 97.000000 1.000000 4.000000 1.000000 195.291260 114.000000 54.000000 0.771266 0.567715 -0.287833
-12820.00000000 16150.00000000 -80.00000000 237 126 74 97.000000 1.000000 4.000000 1.000000 195.291260 114.000000 54.000000 0.711101 0.702686 0.023844
-12830.00000000 16160.00000000 -90.00000000 237 126 74 97.000000 1.000000 4.000000 1.000000 195.291260 114.000000 54.000000 0.841224 0.540298 -0.020518
-12820.00000000 16150.00000000 -90.00000000 237 126 74 97.000000 1.000000 4.000000 1.000000 195.291260 114.000000 54.000000 0.743326 0.609623 0.275365
-12820.00000000 16150.00000000 -80.00000000 237 126 74 97.000000 1.000000 4.000000 1.000000 195.291260 114.000000 54.000000 0.711101 0.702686 0.023844
-12830.00000000 16160.00000000 -80.00000000 237 126 74 97.000000 1.000000 4.000000 1.000000 195.291260 114.000000 54.000000 0.900850 0.434034 -0.009179
-12830.00000000 16170.00000000 -100.00000000 237 126 74 97.000000 1.000000 4.000000 1.000000 195.291260 114.000000 54.000000 0.556408 0.828241 0.066542
-12830.00000000 16170.00000000 -70.00000000 237 126 74 97.000000 1.000000 4.000000 1.000000 195.291260 114.000000 54.000000 0.951394 0.299009 0.073782
-12830.00000000 16150.00000000 -70.00000000 237 126 74 97.000000 1.000000 4.000000 1.000000 195.291260 114.000000 54.000000 0.884140 0.410229 0.223627
-12850.00000000 16170.00000000 -90.00000000 237 126 74 97.000000 1.000000 4.000000 1.000000 195.291260 114.000000 54.000000 0.399425 0.916173 0.032956
-12880.00000000 16210.00000000 -60.00000000 237 126 74 97.000000 1.000000 4.000000 1.000000 195.291260 114.000000 54.000000 0.232497 0.820669 -0.521964
-12880.00000000 16210.00000000 -60.00000000 237 126 74 97.000000 1.000000 4.000000 1.000000 195.291260 114.000000 54.000000 0.232497 0.820669 -0.521964
-12870.00000000 16210.00000000 -40.00000000 237 126 74 97.000000 1.000000 4.000000 1.000000 195.291260 114.000000 54.000000 0.427155 0.897725 0.107839
-12860.00000000 16200.00000000 -30.00000000 237 126 74 97.000000 1.000000 4.000000 1.000000 195.291260 114.000000 54.000000 0.452318 0.889513 0.064617
-12890.00000000 16200.00000000 -80.00000000 237 126 74 97.000000 1.000000 4.000000 1.000000 195.291260 114.000000 54.000000 0.397137 0.915956 -0.057498
-12880.00000000 16210.00000000 -100.00000000 237 126 74 97.000000 1.000000 4.000000 1.000000 195.291260 114.000000 54.000000 0.313152 0.925287 -0.213964
-12870.00000000 16200.00000000 -80.00000000 237 126 74 97.000000 1.000000 4.000000 1.000000 195.291260 114.000000 54.000000 0.111085 0.974799 -0.193462
-12890.00000000 16200.00000000 -90.00000000 237 126 74 97.000000 1.000000 4.000000 1.000000 195.291260 114.000000 54.000000 0.043063 0.994860 -0.091646
-12820.00000000 16180.00000000 -180.00000000 237 126 74 97.000000 1.000000 4.000000 1.000000 195.291260 114.000000 54.000000 0.498382 0.865610 0.048320
-12850.00000000 16200.00000000 -160.00000000 237 126 74 97.000000 1.000000 4.000000 1.000000 195.291260 114.000000 54.000000 0.592402 0.784286 -0.184269
-12820.00000000 16150.00000000 -140.00000000 237 126 74 97.000000 1.000000 4.000000 1.000000 195.291260 114.000000 54.000000 0.898642 0.414429 0.143840
-12820.00000000 16140.00000000 -130.00000000 237 126 74 97.000000 1.000000 4.000000 1.000000 195.291260 114.000000 54.000000 0.911527 0.408246 -0.049525
-12820.00000000 16160.00000000 -120.00000000 237 126 74 97.000000 1.000000 4.000000 1.000000 195.291260 114.000000 54.000000 0.695950 0.707872 0.120711
-12820.00000000 16170.00000000 -110.00000000 237 126 74 97.000000 1.000000 4.000000 1.000000 195.291260 114.000000 54.000000 0.527614 0.832525 -0.168896
-12820.00000000 16160.00000000 -130.00000000 237 126 74 97.000000 1.000000 4.000000 1.000000 195.291260 114.000000 54.000000 0.689957 0.723546 0.020993
-12810.00000000 16150.00000000 -110.00000000 237 126 74 97.000000 1.000000 4.000000 1.000000 195.291260 114.000000 54.000000 0.764433 0.625719 -0.155299
-12810.00000000 16160.00000000 -150.00000000 237 126 74 97.000000 1.000000 4.000000 1.000000 195.291260 114.000000 54.000000 0.891912 0.393621 0.222610
-12820.00000000 16140.00000000 -170.00000000 237 126 74 97.000000 1.000000 4.000000 1.000000 195.291260 114.000000 54.000000 0.653566 0.669946 0.352172
-12840.00000000 16170.00000000 -150.00000000 237 126 74 97.000000 1.000000 4.000000 1.000000 195.291260 114.000000 54.000000 0.606725 0.792312 0.064241
-12880.00000000 16200.00000000 -120.00000000 237 126 74 97.000000 1.000000 4.000000 1.000000 195.291260 114.000000 54.000000 -0.175989 0.945428 -0.274215
-12880.00000000 16210.00000000 -110.00000000 237 126 74 97.000000 1.000000 4.000000 1.000000 195.291260 114.000000 54.000000 0.065417 0.971381 -0.228342
-12860.00000000 16200.00000000 -140.00000000 237 126 74 97.000000 1.000000 4.000000 1.000000 195.291260 114.000000 54.000000 0.474354 0.879785 -0.031083
-12870.00000000 16200.00000000 -160.00000000 237 126 74 97.000000 1.000000 4.000000 1.000000 195.291260 114.000000 54.000000 0.201861 0.936913 -0.285389
-12870.00000000 16190.00000000 -150.00000000 237 126 74 97.000000 1.000000 4.000000 1.000000 195.291260 114.000000 54.000000 0.166169 0.818867 -0.549404
-12880.00000000 16180.00000000 -160.00000000 237 126 74 97.000000 1.000000 4.000000 1.000000 195.291260 114.000000 54.000000 0.170126 0.945899 -0.276284
-12870.00000000 16210.00000000 -150.00000000 237 126 74 97.000000 1.000000 4.000000 1.000000 195.291260 114.000000 54.000000 0.078466 0.981430 0.175040
-12880.00000000 16170.00000000 -170.00000000 237 126 74 97.000000 1.000000 4.000000 1.000000 195.291260 114.000000 54.000000 -0.128846 0.987031 -0.095748
-12920.00000000 16220.00000000 -70.00000000 237 126 74 97.000000 1.000000 4.000000 1.000000 195.291260 114.000000 54.000000 0.046045 0.924837 -0.377565
-12920.00000000 16230.00000000 -70.00000000 237 126 74 97.000000 1.000000 4.000000 1.000000 195.291260 114.000000 54.000000 0.072033 0.941672 -0.328734
-12930.00000000 16210.00000000 -50.00000000 237 126 74 97.000000 1.000000 4.000000 1.000000 195.291260 114.000000 54.000000 0.021696 0.999034 0.038226
-12910.00000000 16210.00000000 -80.00000000 237 126 74 97.000000 1.000000 4.000000 1.000000 195.291260 114.000000 54.000000 -0.045930 0.844828 -0.533063
-12920.00000000 16210.00000000 -90.00000000 237 126 74 97.000000 1.000000 4.000000 1.000000 195.291260 114.000000 54.000000 0.191968 0.940505 -0.280356
-12900.00000000 16200.00000000 -100.00000000 237 126 74 97.000000 1.000000 4.000000 1.000000 195.291260 114.000000 54.000000 -0.379646 0.916436 -0.126549
-12900.00000000 16200.00000000 -90.00000000 237 126 74 97.000000 1.000000 4.000000 1.000000 195.291260 114.000000 54.000000 -0.152453 0.921713 -0.356657
-12970.00000000 16200.00000000 -40.00000000 237 126 74 97.000000 1.000000 4.000000 1.000000 195.291260 114.000000 54.000000 -0.521732 0.815884 -0.249255
-12950.00000000 16200.00000000 -60.00000000 237 126 74 97.000000 1.000000 4.000000 1.000000 195.291260 114.000000 54.000000 0.296090 -0.737825 0.606585
-12970.00000000 16190.00000000 -70.00000000 237 126 74 97.000000 1.000000 4.000000 1.000000 195.291260 114.000000 54.000000 0.662369 -0.568463 0.487973
-12970.00000000 16190.00000000 -80.00000000 237 126 74 97.000000 1.000000 4.000000 1.000000 195.291260 114.000000 54.000000 -0.395941 0.888272 -0.232819
-12970.00000000 16180.00000000 -100.00000000 237 126 74 97.000000 1.000000 4.000000 1.000000 195.291260 114.000000 54.000000 -0.573673 0.696722 -0.430671
-12970.00000000 16180.00000000 -80.00000000 237 126 74 97.000000 1.000000 4.000000 1.000000 195.291260 114.000000 54.000000 0.771034 -0.632161 -0.076669
-12970.00000000 16170.00000000 -20.00000000 237 126 74 97.000000 1.000000 4.000000 1.000000 195.291260 114.000000 54.000000 0.752636 -0.312930 0.579321
-12900.00000000 16200.00000000 -120.00000000 237 126 74 97.000000 1.000000 4.000000 1.000000 195.291260 114.000000 54.000000 0.115666 0.976318 -0.182826
-12900.00000000 16210.00000000 -130.00000000 237 126 74 97.000000 1.000000 4.000000 1.000000 195.291260 114.000000 54.000000 0.023331 0.961494 -0.273835
-12930.00000000 16190.00000000 -120.00000000 237 126 74 97.000000 1.000000 4.000000 1.000000 195.291260 114.000000 54.000000 -0.495091 0.803925 -0.329530
-12920.00000000 16190.00000000 -150.00000000 237 126 74 97.000000 1.000000 4.000000 1.000000 195.291260 114.000000 54.000000 -0.109010 0.994040 0.001079
-12920.00000000 16190.00000000 -150.00000000 237 126 74 97.000000 1.000000 4.000000 1.000000 195.291260 114.000000 54.000000 -0.109010 0.994040 0.001079
-12900.00000000 16190.00000000 -150.00000000 237 126 74 97.000000 1.000000 4.000000 1.000000 195.291260 114.000000 54.000000 0.210896 0.955077 -0.208209
-12920.00000000 16160.00000000 -130.00000000 237 126 74 97.000000 1.000000 4.000000 1.000000 195.291260 114.000000 54.000000 0.666766 -0.562636 0.488738
-12920.00000000 16170.00000000 -170.00000000 237 126 74 97.000000 1.000000 4.000000 1.000000 195.291260 114.000000 54.000000 -0.332914 0.722666 -0.605741
-12930.00000000 16170.00000000 -170.00000000 237 126 74 97.000000 1.000000 4.000000 1.000000 195.291260 114.000000 54.000000 -0.373120 0.672273 -0.639399
-12940.00000000 16190.00000000 -130.00000000 237 126 74 97.000000 1.000000 4.000000 1.000000 195.291260 114.000000 54.000000 -0.320227 0.926825 -0.196086
-12970.00000000 16190.00000000 -130.00000000 237 126 74 97.000000 1.000000 4.000000 1.000000 195.291260 114.000000 54.000000 -0.622213 0.752551 -0.215680
-12960.00000000 16180.00000000 -130.00000000 237 126 74 97.000000 1.000000 4.000000 1.000000 195.291260 114.000000 54.000000 -0.472660 0.781269 -0.407689
-12940.00000000 16200.00000000 -140.00000000 237 126 74 97.000000 1.000000 4.000000 1.000000 195.291260 114.000000 54.000000 -0.669331 0.715705 -0.199408
-12950.00000000 16180.00000000 -150.00000000 237 126 74 97.000000 1.000000 4.000000 1.000000 195.291260 114.000000 54.000000 0.583506 -0.724070 0.367756
-12970.00000000 16170.00000000 -120.00000000 237 126 74 97.000000 1.000000 4.000000 1.000000 195.291260 114.000000 54.000000 -0.683816 0.728934 -0.032428
-12970.00000000 16170.00000000 -130.00000000 237 126 74 97.000000 1.000000 4.000000 1.000000 195.291260 114.000000 54.000000 0.829160 -0.514599 0.218361
-12960.00000000 16140.00000000 -150.00000000 237 126 74 97.000000 1.000000 4.000000 1.000000 195.291260 114.000000 54.000000 0.792488 -0.547680 0.268347
-12970.00000000 16150.00000000 -170.00000000 237 126 74 97.000000 1.000000 4.000000 1.000000 195.291260 114.000000 54.000000 0.755949 -0.341553 0.558464
-12970.00000000 16160.00000000 -180.00000000 237 126 74 97.000000 1.000000 4.000000 1.000000 195.291260 114.000000 54.000000 0.832392 -0.402770 0.380657
-12820.00000000 16180.00000000 -250.00000000 237 126 74 97.000000 1.000000 4.000000 1.000000 195.291260 114.000000 54.000000 0.404302 0.881706 -0.243178
-12840.00000000 16150.00000000 -200.00000000 237 126 74 97.000000 1.000000 4.000000 1.000000 195.291260 114.000000 54.000000 0.538618 0.842523 -0.006784
-12840.00000000 16170.00000000 -190.00000000 237 126 74 97.000000 1.000000 4.000000 1.000000 195.291260 114.000000 54.000000 0.342020 0.934855 -0.095229
-12850.00000000 16160.00000000 -220.00000000 237 126 74 97.000000 1.000000 4.000000 1.000000 195.291260 114.000000 54.000000 0.380245 0.863634 -0.330983
-12830.00000000 16160.00000000 -210.00000000 237 126 74 97.000000 1.000000 4.000000 1.000000 195.291260 114.000000 54.000000 0.520382 0.811045 -0.267223
-12840.00000000 16150.00000000 -230.00000000 237 126 74 97.000000 1.000000 4.000000 1.000000 195.291260 114.000000 54.000000 0.491882 0.785399 -0.375766
-12830.00000000 16150.00000000 -220.00000000 237 126 74 97.000000 1.000000 4.000000 1.000000 195.291260 114.000000 54.000000 0.549748 0.745504 -0.376830
-12840.00000000 16140.00000000 -240.00000000 237 126 74 97.000000 1.000000 4.000000 1.000000 195.291260 114.000000 54.000000 0.227291 0.953547 -0.197703
-12830.00000000 16160.00000000 -260.00000000 237 126 74 97.000000 1.000000 4.000000 1.000000 195.291260 114.000000 54.000000 0.582579 0.811097 0.052192
-12880.00000000 16180.00000000 -220.00000000 237 126 74 97.000000 1.000000 4.000000 1.000000 195.291260 114.000000 54.000000 0.165269 0.838255 -0.519629
-12880.00000000 16180.00000000 -220.00000000 237 126 74 97.000000 1.000000 4.000000 1.000000 195.291260 114.000000 54.000000 0.165269 0.838255 -0.519629
-12860.00000000 16180.00000000 -200.00000000 237 126 74 97.000000 1.000000 4.000000 1.000000 195.291260 114.000000 54.000000 0.335757 0.941881 0.011318
-12870.00000000 16200.00000000 -190.00000000 237 126 74 97.000000 1.000000 4.000000 1.000000 195.291260 114.000000 54.000000 0.323395 0.885953 -0.332420
-12880.00000000 16180.00000000 -210.00000000 237 126 74 97.000000 1.000000 4.000000 1.000000 195.291260 114.000000 54.000000 0.160521 0.948288 -0.273830
-12870.00000000 16180.00000000 -250.00000000 237 126 74 97.000000 1.000000 4.000000 1.000000 195.291260 114.000000 54.000000 -0.135983 0.912625 -0.385518
-12890.00000000 16170.00000000 -220.00000000 237 126 74 97.000000 1.000000 4.000000 1.000000 195.291260 114.000000 54.000000 -0.139097 0.987708 0.071302
-12890.00000000 16170.00000000 -210.00000000 237 126 74 97.000000 1.000000 4.000000 1.000000 195.291260 114.000000 54.000000 -0.322488 0.918731 -0.227891
-12860.00000000 16150.00000000 -260.00000000 237 126 74 97.000000 1.000000 4.000000 1.000000 195.291260 114.000000 54.000000 -0.083453 0.996016 0.031430
-12860.00000000 16170.00000000 -240.00000000 237 126 74 97.000000 1.000000 4.000000 1.000000 195.291260 114.000000 54.000000 0.414377 0.858021 -0.303465
-12860.00000000 16150.00000000 -240.00000000 237 126 74 97.000000 1.000000 4.000000 1.000000 195.291260 114.000000 54.000000 -0.219655 0.967254 -0.127169
-12880.00000000 16160.00000000 -270.00000000 237 126 74 97.000000 1.000000 4.000000 1.000000 195.291260 114.000000 54.000000 -0.001030 0.998393 -0.056668
-12890.00000000 16170.00000000 -240.00000000 237 126 74 97.000000 1.000000 4.000000 1.000000 195.291260 114.000000 54.000000 0.198797 0.926309 -0.320049
-12840.00000000 16150.00000000 -290.00000000 237 126 74 97.000000 1.000000 4.000000 1.000000 195.291260 114.000000 54.000000 0.188417 0.889504 -0.416270
-12880.00000000 16140.00000000 -290.00000000 237 126 74 97.000000 1.000000 4.000000 1.000000 195.291260 114.000000 54.000000 -0.171212 0.780300 -0.601513
-12830.00000000 16150.00000000 -330.00000000 237 126 74 97.000000 1.000000 4.000000 1.000000 195.291260 114.000000 54.000000 0.077587 0.990101 -0.116959
-12820.00000000 16150.00000000 -320.00000000 237 126 74 97.000000 1.000000 4.000000 1.000000 195.291260 114.000000 54.000000 0.212084 0.976545 0.037145
-12860.00000000 16140.00000000 -320.00000000 237 126 74 97.000000 1.000000 4.000000 1.000000 195.291260 114.000000 54.000000 -0.246022 0.897170 -0.366823
-12810.00000000 16140.00000000 -310.00000000 237 126 74 97.000000 1.000000 4.000000 1.000000 195.291260 114.000000 54.000000 0.506050 0.860978 0.051298
-12850.00000000 16150.00000000 -350.00000000 237 126 74 97.000000 1.000000 4.000000 1.000000 195.291260 114.000000 54.000000 0.083504 0.991753 0.097231
-12870.00000000 16140.00000000 -300.00000000 237 126 74 97.000000 1.000000 4.000000 1.000000 195.291260 114.000000 54.000000 -0.398893 0.860931 -0.315726
-12880.00000000 16140.00000000 -340.00000000 237 126 74 97.000000 1.000000 4.000000 1.000000 195.291260 114.000000 54.000000 0.072773 0.989946 -0.121289
-12810.00000000 16140.00000000 -290.00000000 237 126 74 97.000000 1.000000 4.000000 1.000000 195.291260 114.000000 54.000000 0.604021 0.796527 0.026504
-12870.00000000 16150.00000000 -280.00000000 237 126 74 97.000000 1.000000 4.000000 1.000000 195.291260 114.000000 54.000000 -0.084513 0.967482 -0.238402
-12910.00000000 16150.00000000 -230.00000000 237 126 74 97.000000 1.000000 4.000000 1.000000 195.291260 114.000000 54.000000 -0.352975 0.775255 -0.523821
-12920.00000000 16170.00000000 -210.00000000 237 126 74 97.000000 1.000000 4.000000 1.000000 195.291260 114.000000 54.000000 -0.318198 0.885222 -0.339310
-12920.00000000 16160.00000000 -230.00000000 237 126 74 97.000000 1.000000 4.000000 1.000000 195.291260 114.000000 54.000000 -0.315780 0.857997 -0.405122
-12920.00000000 16170.00000000 -210.00000000 237 126 74 97.000000 1.000000 4.000000 1.000000 195.291260 114.000000 54.000000 -0.318198 0.885222 -0.339310
-12930.00000000 16160.00000000 -210.00000000 237 126 74 97.000000 1.000000 4.000000 1.000000 195.291260 114.000000 54.000000 -0.491822 0.868655 -0.059573
-12910.00000000 16160.00000000 -230.00000000 237 126 74 97.000000 1.000000 4.000000 1.000000 195.291260 114.000000 54.000000 -0.546230 0.613874 -0.569905
-12900.00000000 16140.00000000 -260.00000000 237 126 74 97.000000 1.000000 4.000000 1.000000 195.291260 114.000000 54.000000 -0.110651 0.975967 -0.187734
-12960.00000000 16140.00000000 -230.00000000 237 126 74 97.000000 1.000000 4.000000 1.000000 195.291260 114.000000 54.000000 0.891817 -0.407229 0.197046
-12950.00000000 16160.00000000 -200.00000000 237 126 74 97.000000 1.000000 4.000000 1.000000 195.291260 114.000000 54.000000 0.768686 -0.409639 0.491241
-12950.00000000 16140.00000000 -230.00000000 237 126 74 97.000000 1.000000 4.000000 1.000000 195.291260 114.000000 54.000000 -0.701371 0.701371 -0.127114
-12950.00000000 16160.00000000 -200.00000000 237 126 74 97.000000 1.000000 4.000000 1.000000 195.291260 114.000000 54.000000 0.768686 -0.409639 0.491241
-12950.00000000 16160.00000000 -200.00000000 237 126 74 97.000000 1.000000 4.000000 1.000000 195.291260 114.000000 54.000000 0.768686 -0.409639 0.491241
-12950.00000000 16150.00000000 -270.00000000 237 126 74 97.000000 1.000000 4.000000 1.000000 195.291260 114.000000 54.000000 0.736892 -0.673934 -0.052942
-12950.00000000 16140.00000000 -250.00000000 237 126 74 97.000000 1.000000 4.000000 1.000000 195.291260 114.000000 54.000000 -0.541974 0.636524 -0.548727
-12910.00000000 16150.00000000 -330.00000000 237 126 74 97.000000 1.000000 4.000000 1.000000 195.291260 114.000000 54.000000 -0.133527 0.831973 -0.538508
-12980.00000000 16180.00000000 -60.00000000 237 126 74 97.000000 1.000000 4.000000 1.000000 195.291260 114.000000 54.000000 0.916707 -0.273709 0.291087
-12980.00000000 16200.00000000 -60.00000000 237 126 74 97.000000 1.000000 4.000000 1.000000 195.291260 114.000000 54.000000 -0.599406 0.585899 -0.545375
-12990.00000000 16180.00000000 -30.00000000 237 126 74 97.000000 1.000000 4.000000 1.000000 195.291260 114.000000 54.000000 0.574480 -0.664923 0.477337
-12980.00000000 16180.00000000 -60.00000000 237 126 74 97.000000 1.000000 4.000000 1.000000 195.291260 114.000000 54.000000 0.916707 -0.273709 0.291087
-12990.00000000 16170.00000000 -40.00000000 237 126 74 97.000000 1.000000 4.000000 1.000000 195.291260 114.000000 54.000000 0.835181 -0.200866 0.511982
-12980.00000000 16140.00000000 -50.00000000 237 126 74 97.000000 1.000000 4.000000 1.000000 195.291260 114.000000 54.000000 0.989704 0.098854 0.103506
-12990.00000000 16160.00000000 -30.00000000 237 126 74 97.000000 1.000000 4.000000 1.000000 195.291260 114.000000 54.000000 0.973338 0.030078 0.227393
-12990.00000000 16160.00000000 -30.00000000 237 126 74 97.000000 1.000000 4.000000 1.000000 195.291260 114.000000 54.000000 0.973338 0.030078 0.227393
-12990.00000000 16150.00000000 -60.00000000 237 126 74 97.000000 1.000000 4.000000 1.000000 195.291260 114.000000 54.000000 0.886698 0.151388 0.436861
-13010.00000000 16160.00000000 -60.00000000 237 126 74 97.000000 1.000000 4.000000 1.000000 195.291260 114.000000 54.000000 0.989682 -0.121825 0.075415
-12990.00000000 16150.00000000 -90.00000000 237 126 74 97.000000 1.000000 4.000000 1.000000 195.291260 114.000000 54.000000 0.995516 -0.076069 -0.056225
-12980.00000000 16150.00000000 -100.00000000 237 126 74 97.000000 1.000000 4.000000 1.000000 195.291260 114.000000 54.000000 0.968379 -0.211633 -0.132110
-12990.00000000 16140.00000000 -80.00000000 237 126 74 97.000000 1.000000 4.000000 1.000000 195.291260 114.000000 54.000000 0.895181 -0.441440 -0.061501
-12980.00000000 16160.00000000 -100.00000000 237 126 74 97.000000 1.000000 4.000000 1.000000 195.291260 114.000000 54.000000 0.879780 -0.465932 -0.094312
-13030.00000000 16140.00000000 -40.00000000 237 126 74 97.000000 1.000000 4.000000 1.000000 195.291260 114.000000 54.000000 0.976803 -0.208369 0.049382
-13040.00000000 16160.00000000 -20.00000000 237 126 74 97.000000 1.000000 4.000000 1.000000 195.291260 114.000000 54.000000 0.968734 -0.176720 0.174140
-13060.00000000 16140.00000000 -30.00000000 237 126 74 97.000000 1.000000 4.000000 1.000000 195.291260 114.000000 54.000000 0.929345 -0.262487 0.259649
-12980.00000000 16160.00000000 -110.00000000 237 126 74 97.000000 1.000000 4.000000 1.000000 195.291260 114.000000 54.000000 0.735344 -0.675141 0.058770
-12990.00000000 16150.00000000 -140.00000000 237 126 74 97.000000 1.000000 4.000000 1.000000 195.291260 114.000000 54.000000 0.875108 -0.380679 0.298780
-13000.00000000 16150.00000000 -120.00000000 237 126 74 97.000000 1.000000 4.000000 1.000000 195.291260 114.000000 54.000000 0.855515 -0.517129 0.025925
-12980.00000000 16160.00000000 -120.00000000 237 126 74 97.000000 1.000000 4.000000 1.000000 195.291260 114.000000 54.000000 0.723554 -0.682292 0.104628
-13000.00000000 16150.00000000 -120.00000000 237 126 74 97.000000 1.000000 4.000000 1.000000 195.291260 114.000000 54.000000 0.855515 -0.517129 0.025925
-13000.00000000 16140.00000000 -140.00000000 237 126 74 97.000000 1.000000 4.000000 1.000000 195.291260 114.000000 54.000000 0.911033 -0.295904 0.287158
-12990.00000000 16140.00000000 -150.00000000 237 126 74 97.000000 1.000000 4.000000 1.000000 195.291260 114.000000 54.000000 0.751089 -0.474978 0.458542
-13020.00000000 16150.00000000 -190.00000000 237 126 74 97.000000 1.000000 4.000000 1.000000 195.291260 114.000000 54.000000 0.813184 -0.520873 0.259659
-12860.00000000 16150.00000000 -360.00000000 237 126 74 97.000000 1.000000 4.000000 1.000000 195.291260 114.000000 54.000000 -0.274214 0.961575 0.013406
-12860.00000000 16150.00000000 -370.00000000 237 126 74 97.000000 1.000000 4.000000 1.000000 195.291260 114.000000 54.000000 -0.452825 0.769967 -0.449556
-12850.00000000 16150.00000000 -370.00000000 237 126 74 97.000000 1.000000 4.000000 1.000000 195.291260 114.000000 54.000000 0.282127 0.846381 -0.451712
-12820.00000000 16130.00000000 -50.00000000 237 126 74 97.000000 1.000000 4.000000 1.000000 195.291260 114.000000 54.000000 0.816430 0.306751 0.489229
-12820.00000000 16120.00000000 -50.00000000 237 126 74 97.000000 1.000000 4.000000 1.000000 195.291260 114.000000 54.000000 0.981166 -0.008090 0.192997
-12820.00000000 16130.00000000 -40.00000000 237 126 74 97.000000 1.000000 4.000000 1.000000 195.291260 114.000000 54.000000 0.845571 -0.083847 0.527238
-12810.00000000 16130.00000000 -90.00000000 237 126 74 97.000000 1.000000 4.000000 1.000000 195.291260 114.000000 54.000000 0.860598 0.350729 0.369269
