//X Y Z R G B PointSourceId ScanDirectionFlag NumberOfReturns ReturnNumber GpsTime Intensity Classification Nx Ny Nz
1370.00000000 1300.00000000 -1130.00000000 191 187 66 97.000000 1.000000 4.000000 1.000000 -60.708740 114.000000 50.000000 -0.717284 0.694284 0.058935
1350.00000000 1300.00000000 -1180.00000000 191 187 66 97.000000 1.000000 4.000000 1.000000 -60.708740 114.000000 50.000000 -0.586450 0.808654 -0.046410
1350.00000000 1280.00000000 -1160.00000000 191 187 66 97.000000 1.000000 4.000000 1.000000 -60.708740 114.000000 50.000000 0.735877 -0.552317 0.391703
1350.00000000 1270.00000000 -1180.00000000 191 187 66 97.000000 1.000000 4.000000 1.000000 -60.708740 114.000000 50.000000 -0.618690 0.780970 -0.085487
1360.00000000 1230.00000000 -1190.00000000 191 187 66 97.000000 1.000000 4.000000 1.000000 -60.708740 114.000000 50.000000 0.953595 -0.298550 0.039051
1350.00000000 1270.00000000 -1180.00000000 191 187 66 97.000000 1.000000 4.000000 1.000000 -60.708740 114.000000 50.000000 -0.618690 0.780970 -0.085487
1360.00000000 1230.00000000 -1180.00000000 191 187 66 97.000000 1.000000 4.000000 1.000000 -60.708740 114.000000 50.000000 0.950342 -0.274781 0.146103
1420.00000000 1150.00000000 -1070.00000000 191 187 66 97.000000 1.000000 4.000000 1.000000 -60.708740 114.000000 50.000000 0.998016 0.058086 0.024290
1370.00000000 1190.00000000 -1060.00000000 191 187 66 97.000000 1.000000 4.000000 1.000000 -60.708740 114.000000 50.000000 0.962193 -0.109780 0.249266
1360.00000000 1190.00000000 -1100.00000000 191 187 66 97.000000 1.000000 4.000000 1.000000 -60.708740 114.000000 50.000000 0.992266 -0.007675 0.123896
1360.00000000 1150.00000000 -1090.00000000 191 187 66 97.000000 1.000000 4.000000 1.000000 -60.708740 114.000000 50.000000 0.984128 0.065292 0.165011
1390.00000000 1220.00000000 -1140.00000000 191 187 66 97.000000 1.000000 4.000000 1.000000 -60.708740 114.000000 50.000000 0.834277 -0.446096 0.324006
1350.00000000 1220.00000000 -1170.00000000 191 187 66 97.000000 1.000000 4.000000 1.000000 -60.708740 114.000000 50.000000 -0.819844 0.425046 -0.383655
1350.00000000 1220.00000000 -1170.00000000 191 187 66 97.000000 1.000000 4.000000 1.000000 -60.708740 114.000000 50.000000 -0.819844 0.425046 -0.383655
1360.00000000 1220.00000000 -1190.00000000 191 187 66 97.000000 1.000000 4.000000 1.000000 -60.708740 114.000000 50.000000 0.812840 -0.543424 0.209716
1370.00000000 1200.00000000 -1170.00000000 191 187 66 97.000000 1.000000 4.000000 1.000000 -60.708740 114.000000 50.000000 0.804424 -0.565067 -0.183306
1350.00000000 1210.00000000 -1170.00000000 191 187 66 97.000000 1.000000 4.000000 1.000000 -60.708740 114.000000 50.000000 0.870699 -0.379692 0.312598
1350.00000000 1150.00000000 -1140.00000000 191 187 66 97.000000 1.000000 4.000000 1.000000 -60.708740 114.000000 50.000000 0.951914 -0.271022 0.142854
1440.00000000 1230.00000000 -1210.00000000 191 187 66 97.000000 1.000000 4.000000 1.000000 -60.708740 114.000000 50.000000 -0.488782 0.845911 0.213369
1410.00000000 1250.00000000 -1230.00000000 191 187 66 97.000000 1.000000 4.000000 1.000000 -60.708740 114.000000 50.000000 -0.699745 0.590565 -0.401981
1380.00000000 1230.00000000 -1210.00000000 191 187 66 97.000000 1.000000 4.000000 1.000000 -60.708740 114.000000 50.000000 0.863045 -0.343064 0.370756
1360.00000000 1270.00000000 -1270.00000000 191 187 66 97.000000 1.000000 4.000000 1.000000 -60.708740 114.000000 50.000000 0.923195 -0.376017 0.079516
1360.00000000 1200.00000000 -1240.00000000 191 187 66 97.000000 1.000000 4.000000 1.000000 -60.708740 114.000000 50.000000 0.888222 -0.450386 0.090635
1380.00000000 1200.00000000 -1200.00000000 191 187 66 97.000000 1.000000 4.000000 1.000000 -60.708740 114.000000 50.000000 0.749107 -0.650814 0.123610
1370.00000000 1210.00000000 -1240.00000000 191 187 66 97.000000 1.000000 4.000000 1.000000 -60.708740 114.000000 50.000000 0.867680 -0.322893 0.377984
1370.00000000 1200.00000000 -1210.00000000 191 187 66 97.000000 1.000000 4.000000 1.000000 -60.708740 114.000000 50.000000 -0.590580 0.721457 -0.361546
1350.00000000 1220.00000000 -1210.00000000 191 187 66 97.000000 1.000000 4.000000 1.000000 -60.708740 114.000000 50.000000 0.869185 -0.470263 -0.152872
1360.00000000 1150.00000000 -1220.00000000 191 187 66 97.000000 1.000000 4.000000 1.000000 -60.708740 114.000000 50.000000 0.914033 -0.256393 0.314335
1370.00000000 1180.00000000 -1210.00000000 191 187 66 97.000000 1.000000 4.000000 1.000000 -60.708740 114.000000 50.000000 0.951720 -0.277419 0.131409
1370.00000000 1180.00000000 -1210.00000000 191 187 66 97.000000 1.000000 4.000000 1.000000 -60.708740 114.000000 50.000000 0.951720 -0.277419 0.131409
1480.00000000 1100.00000000 -1040.00000000 191 187 66 97.000000 1.000000 4.000000 1.000000 -60.708740 114.000000 50.000000 0.701070 0.646274 -0.301380
1480.00000000 1070.00000000 -1110.00000000 191 187 66 97.000000 1.000000 4.000000 1.000000 -60.708740 114.000000 50.000000 0.586275 0.802656 0.109653
1490.00000000 1070.00000000 -1080.00000000 191 187 66 97.000000 1.000000 4.000000 1.000000 -60.708740 114.000000 50.000000 0.656090 0.718724 0.230179
1440.00000000 1130.00000000 -1060.00000000 191 187 66 97.000000 1.000000 4.000000 1.000000 -60.708740 114.000000 50.000000 0.951146 0.162785 -0.262339
1440.00000000 1130.00000000 -1080.00000000 191 187 66 97.000000 1.000000 4.000000 1.000000 -60.708740 114.000000 50.000000 0.951339 -0.220581 -0.215168
1450.00000000 1080.00000000 -1060.00000000 191 187 66 97.000000 1.000000 4.000000 1.000000 -60.708740 114.000000 50.000000 0.778673 0.623799 -0.067399
1440.00000000 1080.00000000 -1040.00000000 191 187 66 97.000000 1.000000 4.000000 1.000000 -60.708740 114.000000 50.000000 0.877945 0.456993 -0.142720
1450.00000000 1070.00000000 -1040.00000000 191 187 66 97.000000 1.000000 4.000000 1.000000 -60.708740 114.000000 50.000000 0.582741 0.785701 0.207573
1440.00000000 1070.00000000 -1040.00000000 191 187 66 97.000000 1.000000 4.000000 1.000000 -60.708740 114.000000 50.000000 0.548585 0.829391 -0.105664
1440.00000000 1070.00000000 -1100.00000000 191 187 66 97.000000 1.000000 4.000000 1.000000 -60.708740 114.000000 50.000000 0.894786 0.323076 -0.308188
1460.00000000 1080.00000000 -1100.00000000 191 187 66 97.000000 1.000000 4.000000 1.000000 -60.708740 114.000000 50.000000 0.723570 0.661858 0.195935
1430.00000000 1070.00000000 -1110.00000000 191 187 66 97.000000 1.000000 4.000000 1.000000 -60.708740 114.000000 50.000000 0.857342 0.441661 0.264385
1430.00000000 1070.00000000 -1110.00000000 191 187 66 97.000000 1.000000 4.000000 1.000000 -60.708740 114.000000 50.000000 0.857342 0.441661 0.264385
1480.00000000 1070.00000000 -1120.00000000 191 187 66 97.000000 1.000000 4.000000 1.000000 -60.708740 114.000000 50.000000 0.821942 0.554333 -0.130864
1490.00000000 1070.00000000 -1190.00000000 191 187 66 97.000000 1.000000 4.000000 1.000000 -60.708740 114.000000 50.000000 0.812189 0.559975 -0.163639
1480.00000000 1080.00000000 -1190.00000000 191 187 66 97.000000 1.000000 4.000000 1.000000 -60.708740 114.000000 50.000000 0.750413 0.660307 -0.029566
1430.00000000 1120.00000000 -1160.00000000 191 187 66 97.000000 1.000000 4.000000 1.000000 -60.708740 114.000000 50.000000 0.967817 0.158934 -0.195114
1430.00000000 1120.00000000 -1160.00000000 191 187 66 97.000000 1.000000 4.000000 1.000000 -60.708740 114.000000 50.000000 0.967817 0.158934 -0.195114
1430.00000000 1080.00000000 -1120.00000000 191 187 66 97.000000 1.000000 4.000000 1.000000 -60.708740 114.000000 50.000000 0.969059 0.131853 -0.208661
1430.00000000 1090.00000000 -1140.00000000 191 187 66 97.000000 1.000000 4.000000 1.000000 -60.708740 114.000000 50.000000 0.845795 0.412773 0.338007
1490.00000000 1020.00000000 -1060.00000000 191 187 66 97.000000 1.000000 4.000000 1.000000 -60.708740 114.000000 50.000000 0.001183 0.971313 -0.237800
1470.00000000 1050.00000000 -1050.00000000 191 187 66 97.000000 1.000000 4.000000 1.000000 -60.708740 114.000000 50.000000 0.783664 0.621147 0.006886
1490.00000000 1020.00000000 -1060.00000000 191 187 66 97.000000 1.000000 4.000000 1.000000 -60.708740 114.000000 50.000000 0.001183 0.971313 -0.237800
1470.00000000 1050.00000000 -1100.00000000 191 187 66 97.000000 1.000000 4.000000 1.000000 -60.708740 114.000000 50.000000 0.595627 0.779368 0.194459
1470.00000000 1050.00000000 -1100.00000000 191 187 66 97.000000 1.000000 4.000000 1.000000 -60.708740 114.000000 50.000000 0.595627 0.779368 0.194459
1470.00000000 1020.00000000 -1080.00000000 191 187 66 97.000000 1.000000 4.000000 1.000000 -60.708740 114.000000 50.000000 0.436228 0.852418 0.288250
1460.00000000 1060.00000000 -1050.00000000 191 187 66 97.000000 1.000000 4.000000 1.000000 -60.708740 114.000000 50.000000 0.607468 0.752629 0.254032
1460.00000000 1030.00000000 -1060.00000000 191 187 66 97.000000 1.000000 4.000000 1.000000 -60.708740 114.000000 50.000000 0.607019 0.723567 -0.328600
1460.00000000 1020.00000000 -1070.00000000 191 187 66 97.000000 1.000000 4.000000 1.000000 -60.708740 114.000000 50.000000 0.704658 0.704658 -0.083158
1460.00000000 1060.00000000 -1050.00000000 191 187 66 97.000000 1.000000 4.000000 1.000000 -60.708740 114.000000 50.000000 0.607468 0.752629 0.254032
1460.00000000 1020.00000000 -1070.00000000 191 187 66 97.000000 1.000000 4.000000 1.000000 -60.708740 114.000000 50.000000 0.704658 0.704658 -0.083158
1440.00000000 1050.00000000 -1040.00000000 191 187 66 97.000000 1.000000 4.000000 1.000000 -60.708740 114.000000 50.000000 0.769596 0.598575 -0.222328
1440.00000000 1060.00000000 -1090.00000000 191 187 66 97.000000 1.000000 4.000000 1.000000 -60.708740 114.000000 50.000000 0.697790 0.691628 -0.186385
1440.00000000 1060.00000000 -1090.00000000 191 187 66 97.000000 1.000000 4.000000 1.000000 -60.708740 114.000000 50.000000 0.697790 0.691628 -0.186385
1440.00000000 1060.00000000 -1100.00000000 191 187 66 97.000000 1.000000 4.000000 1.000000 -60.708740 114.000000 50.000000 0.694841 0.652924 0.301474
1460.00000000 1010.00000000 -1050.00000000 191 187 66 97.000000 1.000000 4.000000 1.000000 -60.708740 114.000000 50.000000 0.498433 0.863482 -0.077222
1460.00000000 1010.00000000 -1050.00000000 191 187 66 97.000000 1.000000 4.000000 1.000000 -60.708740 114.000000 50.000000 0.498433 0.863482 -0.077222
1460.00000000 1010.00000000 -1090.00000000 191 187 66 97.000000 1.000000 4.000000 1.000000 -60.708740 114.000000 50.000000 0.772244 0.591274 -0.232453
1440.00000000 990.00000000 -1090.00000000 191 187 66 97.000000 1.000000 4.000000 1.000000 -60.708740 114.000000 50.000000 0.324765 0.846875 -0.421107
1480.00000000 1060.00000000 -1130.00000000 191 187 66 97.000000 1.000000 4.000000 1.000000 -60.708740 114.000000 50.000000 0.518403 0.792758 -0.320612
1470.00000000 1020.00000000 -1130.00000000 191 187 66 97.000000 1.000000 4.000000 1.000000 -60.708740 114.000000 50.000000 0.322963 0.946270 0.016337
1480.00000000 1060.00000000 -1130.00000000 191 187 66 97.000000 1.000000 4.000000 1.000000 -60.708740 114.000000 50.000000 0.518403 0.792758 -0.320612
1470.00000000 1040.00000000 -1190.00000000 191 187 66 97.000000 1.000000 4.000000 1.000000 -60.708740 114.000000 50.000000 0.853061 0.503087 -0.138531
1500.00000000 1030.00000000 -1190.00000000 191 187 66 97.000000 1.000000 4.000000 1.000000 -60.708740 114.000000 50.000000 0.587986 0.742634 -0.320573
1500.00000000 1030.00000000 -1170.00000000 191 187 66 97.000000 1.000000 4.000000 1.000000 -60.708740 114.000000 50.000000 0.620153 0.781306 0.070505
1500.00000000 1030.00000000 -1160.00000000 191 187 66 97.000000 1.000000 4.000000 1.000000 -60.708740 114.000000 50.000000 0.526721 0.850028 0.004041
1490.00000000 1000.00000000 -1150.00000000 191 187 66 97.000000 1.000000 4.000000 1.000000 -60.708740 114.000000 50.000000 0.532505 0.825156 -0.188564
1500.00000000 1000.00000000 -1180.00000000 191 187 66 97.000000 1.000000 4.000000 1.000000 -60.708740 114.000000 50.000000 0.078759 0.995025 -0.061010
1500.00000000 1000.00000000 -1180.00000000 191 187 66 97.000000 1.000000 4.000000 1.000000 -60.708740 114.000000 50.000000 0.078759 0.995025 -0.061010
1500.00000000 1000.00000000 -1180.00000000 191 187 66 97.000000 1.000000 4.000000 1.000000 -60.708740 114.000000 50.000000 0.078759 0.995025 -0.061010
1450.00000000 1060.00000000 -1130.00000000 191 187 66 97.000000 1.000000 4.000000 1.000000 -60.708740 114.000000 50.000000 0.921899 0.387428 0.001279
1450.00000000 1020.00000000 -1130.00000000 191 187 66 97.000000 1.000000 4.000000 1.000000 -60.708740 114.000000 50.000000 0.813932 0.538023 -0.219194
1460.00000000 1020.00000000 -1120.00000000 191 187 66 97.000000 1.000000 4.000000 1.000000 -60.708740 114.000000 50.000000 0.441474 0.881491 -0.167556
1450.00000000 1050.00000000 -1120.00000000 191 187 66 97.000000 1.000000 4.000000 1.000000 -60.708740 114.000000 50.000000 0.824228 0.550954 0.130760
1460.00000000 1000.00000000 -1190.00000000 191 187 66 97.000000 1.000000 4.000000 1.000000 -60.708740 114.000000 50.000000 0.765843 0.571596 -0.294555
1390.00000000 1120.00000000 -1100.00000000 191 187 66 97.000000 1.000000 4.000000 1.000000 -60.708740 114.000000 50.000000 0.909196 0.336039 0.245847
1420.00000000 1110.00000000 -1110.00000000 191 187 66 97.000000 1.000000 4.000000 1.000000 -60.708740 114.000000 50.000000 0.948804 0.286910 0.132112
1410.00000000 1120.00000000 -1080.00000000 191 187 66 97.000000 1.000000 4.000000 1.000000 -60.708740 114.000000 50.000000 0.990257 0.019065 -0.137941
1390.00000000 1120.00000000 -1100.00000000 191 187 66 97.000000 1.000000 4.000000 1.000000 -60.708740 114.000000 50.000000 0.909196 0.336039 0.245847
1390.00000000 1100.00000000 -1050.00000000 191 187 66 97.000000 1.000000 4.000000 1.000000 -60.708740 114.000000 50.000000 0.954838 0.268094 -0.128104
1400.00000000 1070.00000000 -1080.00000000 191 187 66 97.000000 1.000000 4.000000 1.000000 -60.708740 114.000000 50.000000 0.814826 0.572541 -0.090857
1400.00000000 1070.00000000 -1090.00000000 191 187 66 97.000000 1.000000 4.000000 1.000000 -60.708740 114.000000 50.000000 0.818586 0.573149 0.037652
1380.00000000 1110.00000000 -1040.00000000 191 187 66 97.000000 1.000000 4.000000 1.000000 -60.708740 114.000000 50.000000 0.915181 0.355507 0.189889
1380.00000000 1120.00000000 -1050.00000000 191 187 66 97.000000 1.000000 4.000000 1.000000 -60.708740 114.000000 50.000000 0.980995 0.187140 -0.051255
1380.00000000 1130.00000000 -1050.00000000 191 187 66 97.000000 1.000000 4.000000 1.000000 -60.708740 114.000000 50.000000 0.991490 -0.012186 -0.129614
1380.00000000 1120.00000000 -1040.00000000 191 187 66 97.000000 1.000000 4.000000 1.000000 -60.708740 114.000000 50.000000 0.978223 0.122743 0.167376
1380.00000000 1120.00000000 -1040.00000000 191 187 66 97.000000 1.000000 4.000000 1.000000 -60.708740 114.000000 50.000000 0.978223 0.122743 0.167376
1370.00000000 1110.00000000 -1110.00000000 191 187 66 97.000000 1.000000 4.000000 1.000000 -60.708740 114.000000 50.000000 0.920929 0.383160 -0.071254
1350.00000000 1110.00000000 -1100.00000000 191 187 66 97.000000 1.000000 4.000000 1.000000 -60.708740 114.000000 50.000000 0.929002 0.318075 -0.189163
1370.00000000 1080.00000000 -1040.00000000 191 187 66 97.000000 1.000000 4.000000 1.000000 -60.708740 114.000000 50.000000 0.881247 0.268728 -0.388830
1420.00000000 1110.00000000 -1120.00000000 191 187 66 97.000000 1.000000 4.000000 1.000000 -60.708740 114.000000 50.000000 0.932040 0.341521 -0.121097
1420.00000000 1140.00000000 -1140.00000000 191 187 66 97.000000 1.000000 4.000000 1.000000 -60.708740 114.000000 50.000000 0.881725 -0.378313 -0.281851
1390.00000000 1140.00000000 -1160.00000000 191 187 66 97.000000 1.000000 4.000000 1.000000 -60.708740 114.000000 50.000000 0.998248 0.059086 -0.003110
1350.00000000 1140.00000000 -1140.00000000 191 187 66 97.000000 1.000000 4.000000 1.000000 -60.708740 114.000000 50.000000 0.986948 0.160138 -0.017036
1350.00000000 1140.00000000 -1150.00000000 191 187 66 97.000000 1.000000 4.000000 1.000000 -60.708740 114.000000 50.000000 0.971848 0.025227 0.234253
1380.00000000 1110.00000000 -1120.00000000 191 187 66 97.000000 1.000000 4.000000 1.000000 -60.708740 114.000000 50.000000 0.968840 0.113307 -0.220249
1350.00000000 1140.00000000 -1160.00000000 191 187 66 97.000000 1.000000 4.000000 1.000000 -60.708740 114.000000 50.000000 0.976889 0.191426 -0.095095
1380.00000000 1110.00000000 -1190.00000000 191 187 66 97.000000 1.000000 4.000000 1.000000 -60.708740 114.000000 50.000000 0.974883 0.199944 -0.098109
1380.00000000 1100.00000000 -1150.00000000 191 187 66 97.000000 1.000000 4.000000 1.000000 -60.708740 114.000000 50.000000 0.944432 -0.261809 -0.198756
1410.00000000 1030.00000000 -1060.00000000 191 187 66 97.000000 1.000000 4.000000 1.000000 -60.708740 114.000000 50.000000 0.609453 0.751187 0.253545
1410.00000000 1060.00000000 -1090.00000000 191 187 66 97.000000 1.000000 4.000000 1.000000 -60.708740 114.000000 50.000000 0.810700 0.497798 0.308161
1380.00000000 1060.00000000 -1090.00000000 191 187 66 97.000000 1.000000 4.000000 1.000000 -60.708740 114.000000 50.000000 0.727633 0.677452 -0.107743
1420.00000000 1020.00000000 -1120.00000000 191 187 66 97.000000 1.000000 4.000000 1.000000 -60.708740 114.000000 50.000000 0.564539 0.823579 -0.054905
1500.00000000 1120.00000000 -1210.00000000 191 187 66 97.000000 1.000000 4.000000 1.000000 -60.708740 114.000000 50.000000 0.716151 -0.689572 -0.107792
1440.00000000 1080.00000000 -1210.00000000 191 187 66 97.000000 1.000000 4.000000 1.000000 -60.708740 114.000000 50.000000 0.973700 -0.145234 -0.175544
1440.00000000 1090.00000000 -1220.00000000 191 187 66 97.000000 1.000000 4.000000 1.000000 -60.708740 114.000000 50.000000 0.993990 0.061495 -0.090566
1440.00000000 1070.00000000 -1200.00000000 191 187 66 97.000000 1.000000 4.000000 1.000000 -60.708740 114.000000 50.000000 0.865883 0.489288 0.104134
1470.00000000 1040.00000000 -1200.00000000 191 187 66 97.000000 1.000000 4.000000 1.000000 -60.708740 114.000000 50.000000 0.496954 0.816760 -0.293156
1470.00000000 1040.00000000 -1200.00000000 191 187 66 97.000000 1.000000 4.000000 1.000000 -60.708740 114.000000 50.000000 0.496954 0.816760 -0.293156
1500.00000000 1030.00000000 -1230.00000000 191 187 66 97.000000 1.000000 4.000000 1.000000 -60.708740 114.000000 50.000000 0.274959 0.867414 -0.414718
1470.00000000 1040.00000000 -1210.00000000 191 187 66 97.000000 1.000000 4.000000 1.000000 -60.708740 114.000000 50.000000 0.427663 0.898511 -0.098906
1500.00000000 1030.00000000 -1200.00000000 191 187 66 97.000000 1.000000 4.000000 1.000000 -60.708740 114.000000 50.000000 0.708486 0.705724 -0.001381
1490.00000000 980.00000000 -1240.00000000 191 187 66 97.000000 1.000000 4.000000 1.000000 -60.708740 114.000000 50.000000 0.019397 0.999432 0.027563
1440.00000000 1010.00000000 -1200.00000000 191 187 66 97.000000 1.000000 4.000000 1.000000 -60.708740 114.000000 50.000000 0.739798 0.612521 -0.278419
1420.00000000 1130.00000000 -1280.00000000 191 187 66 97.000000 1.000000 4.000000 1.000000 -60.708740 114.000000 50.000000 0.833600 -0.549642 -0.054824
1360.00000000 1130.00000000 -1210.00000000 191 187 66 97.000000 1.000000 4.000000 1.000000 -60.708740 114.000000 50.000000 0.959505 0.228328 0.164977
1370.00000000 1130.00000000 -1280.00000000 191 187 66 97.000000 1.000000 4.000000 1.000000 -60.708740 114.000000 50.000000 0.788445 -0.613549 -0.043724
1360.00000000 1090.00000000 -1220.00000000 191 187 66 97.000000 1.000000 4.000000 1.000000 -60.708740 114.000000 50.000000 0.892272 0.444061 0.081619
1360.00000000 1090.00000000 -1220.00000000 191 187 66 97.000000 1.000000 4.000000 1.000000 -60.708740 114.000000 50.000000 0.892272 0.444061 0.081619
1340.00000000 1390.00000000 -740.00000000 191 187 66 97.000000 1.000000 4.000000 1.000000 -60.708740 114.000000 50.000000 -0.223737 0.913715 -0.339215
1340.00000000 1390.00000000 -770.00000000 191 187 66 97.000000 1.000000 4.000000 1.000000 -60.708740 114.000000 50.000000 -0.321281 0.945924 0.044800
1330.00000000 1380.00000000 -740.00000000 191 187 66 97.000000 1.000000 4.000000 1.000000 -60.708740 114.000000 50.000000 -0.471258 0.753684 -0.458122
1340.00000000 1340.00000000 -750.00000000 191 187 66 97.000000 1.000000 4.000000 1.000000 -60.708740 114.000000 50.000000 -0.418735 0.854467 -0.307485
1290.00000000 1330.00000000 -700.00000000 191 187 66 97.000000 1.000000 4.000000 1.000000 -60.708740 114.000000 50.000000 0.813893 -0.344278 0.468028
1320.00000000 1370.00000000 -780.00000000 191 187 66 97.000000 1.000000 4.000000 1.000000 -60.708740 114.000000 50.000000 -0.516316 0.851992 -0.086764
1330.00000000 1370.00000000 -850.00000000 191 187 66 97.000000 1.000000 4.000000 1.000000 -60.708740 114.000000 50.000000 -0.439396 0.894039 -0.087325
1340.00000000 1360.00000000 -830.00000000 191 187 66 97.000000 1.000000 4.000000 1.000000 -60.708740 114.000000 50.000000 -0.488190 0.787871 -0.375407
1330.00000000 1370.00000000 -850.00000000 191 187 66 97.000000 1.000000 4.000000 1.000000 -60.708740 114.000000 50.000000 -0.439396 0.894039 -0.087325
1320.00000000 1380.00000000 -850.00000000 191 187 66 97.000000 1.000000 4.000000 1.000000 -60.708740 114.000000 50.000000 -0.489875 0.849417 -0.196250
1310.00000000 1350.00000000 -820.00000000 191 187 66 97.000000 1.000000 4.000000 1.000000 -60.708740 114.000000 50.000000 0.842457 -0.529585 -0.099028
1340.00000000 1410.00000000 -880.00000000 191 187 66 97.000000 1.000000 4.000000 1.000000 -60.708740 114.000000 50.000000 -0.711605 0.644442 -0.279845
1340.00000000 1400.00000000 -970.00000000 191 187 66 97.000000 1.000000 4.000000 1.000000 -60.708740 114.000000 50.000000 -0.207376 0.956605 -0.204700
1330.00000000 1400.00000000 -1000.00000000 191 187 66 97.000000 1.000000 4.000000 1.000000 -60.708740 114.000000 50.000000 -0.572453 0.818789 -0.043389
1340.00000000 1410.00000000 -990.00000000 191 187 66 97.000000 1.000000 4.000000 1.000000 -60.708740 114.000000 50.000000 -0.560171 0.826919 0.049138
1330.00000000 1360.00000000 -880.00000000 191 187 66 97.000000 1.000000 4.000000 1.000000 -60.708740 114.000000 50.000000 -0.807122 0.455505 -0.375592
1340.00000000 1380.00000000 -900.00000000 191 187 66 97.000000 1.000000 4.000000 1.000000 -60.708740 114.000000 50.000000 0.816005 -0.573061 -0.075741
1320.00000000 1360.00000000 -870.00000000 191 187 66 97.000000 1.000000 4.000000 1.000000 -60.708740 114.000000 50.000000 0.690652 -0.546836 0.473255
1330.00000000 1390.00000000 -920.00000000 191 187 66 97.000000 1.000000 4.000000 1.000000 -60.708740 114.000000 50.000000 -0.386003 0.907320 0.166651
1320.00000000 1360.00000000 -940.00000000 191 187 66 97.000000 1.000000 4.000000 1.000000 -60.708740 114.000000 50.000000 -0.671326 0.733294 0.107707
1330.00000000 1390.00000000 -930.00000000 191 187 66 97.000000 1.000000 4.000000 1.000000 -60.708740 114.000000 50.000000 -0.608361 0.779604 0.148711
1320.00000000 1330.00000000 -870.00000000 191 187 66 97.000000 1.000000 4.000000 1.000000 -60.708740 114.000000 50.000000 -0.465638 0.724142 -0.508722
1280.00000000 1330.00000000 -900.00000000 191 187 66 97.000000 1.000000 4.000000 1.000000 -60.708740 114.000000 50.000000 -0.596504 0.679583 -0.427024
1280.00000000 1340.00000000 -930.00000000 191 187 66 97.000000 1.000000 4.000000 1.000000 -60.708740 114.000000 50.000000 0.829527 -0.491514 0.265139
1330.00000000 1370.00000000 -960.00000000 191 187 66 97.000000 1.000000 4.000000 1.000000 -60.708740 114.000000 50.000000 -0.542870 0.816586 -0.196163
1320.00000000 1360.00000000 -950.00000000 191 187 66 97.000000 1.000000 4.000000 1.000000 -60.708740 114.000000 50.000000 0.861735 -0.501859 -0.074506
1320.00000000 1360.00000000 -1000.00000000 191 187 66 97.000000 1.000000 4.000000 1.000000 -60.708740 114.000000 50.000000 -0.592707 0.765645 -0.249974
1300.00000000 1370.00000000 -1010.00000000 191 187 66 97.000000 1.000000 4.000000 1.000000 -60.708740 114.000000 50.000000 0.815937 -0.578126 -0.004100
1310.00000000 1380.00000000 -1010.00000000 191 187 66 97.000000 1.000000 4.000000 1.000000 -60.708740 114.000000 50.000000 -0.693549 0.714077 0.095308
1340.00000000 1380.00000000 -1010.00000000 191 187 66 97.000000 1.000000 4.000000 1.000000 -60.708740 114.000000 50.000000 -0.557429 0.823836 -0.102799
1340.00000000 1370.00000000 -1020.00000000 191 187 66 97.000000 1.000000 4.000000 1.000000 -60.708740 114.000000 50.000000 -0.410525 0.720480 -0.558908
1340.00000000 1370.00000000 -1010.00000000 191 187 66 97.000000 1.000000 4.000000 1.000000 -60.708740 114.000000 50.000000 0.728418 -0.667842 0.152953
1340.00000000 1380.00000000 -1010.00000000 191 187 66 97.000000 1.000000 4.000000 1.000000 -60.708740 114.000000 50.000000 -0.557429 0.823836 -0.102799
1310.00000000 1390.00000000 -1000.00000000 191 187 66 97.000000 1.000000 4.000000 1.000000 -60.708740 114.000000 50.000000 0.890801 -0.447479 0.078967
1310.00000000 1340.00000000 -990.00000000 191 187 66 97.000000 1.000000 4.000000 1.000000 -60.708740 114.000000 50.000000 0.936627 -0.343825 0.067184
1310.00000000 1350.00000000 -1010.00000000 191 187 66 97.000000 1.000000 4.000000 1.000000 -60.708740 114.000000 50.000000 0.766972 -0.626435 0.139042
1320.00000000 1350.00000000 -1010.00000000 191 187 66 97.000000 1.000000 4.000000 1.000000 -60.708740 114.000000 50.000000 -0.506719 0.851347 -0.135807
1320.00000000 1350.00000000 -1000.00000000 191 187 66 97.000000 1.000000 4.000000 1.000000 -60.708740 114.000000 50.000000 -0.613065 0.787410 0.064308
1290.00000000 1320.00000000 -980.00000000 191 187 66 97.000000 1.000000 4.000000 1.000000 -60.708740 114.000000 50.000000 -0.646000 0.715838 -0.265066
1340.00000000 1360.00000000 -1050.00000000 191 187 66 97.000000 1.000000 4.000000 1.000000 -60.708740 114.000000 50.000000 -0.599166 0.767244 0.228772
1320.00000000 1380.00000000 -1040.00000000 191 187 66 97.000000 1.000000 4.000000 1.000000 -60.708740 114.000000 50.000000 -0.400762 0.900636 -0.168061
1320.00000000 1360.00000000 -1060.00000000 191 187 66 97.000000 1.000000 4.000000 1.000000 -60.708740 114.000000 50.000000 -0.496045 0.862003 0.104355
1330.00000000 1380.00000000 -1050.00000000 191 187 66 97.000000 1.000000 4.000000 1.000000 -60.708740 114.000000 50.000000 -0.284607 0.958218 0.028585
1340.00000000 1360.00000000 -1050.00000000 191 187 66 97.000000 1.000000 4.000000 1.000000 -60.708740 114.000000 50.000000 -0.599166 0.767244 0.228772
1330.00000000 1380.00000000 -1050.00000000 191 187 66 97.000000 1.000000 4.000000 1.000000 -60.708740 114.000000 50.000000 -0.284607 0.958218 0.028585
1330.00000000 1390.00000000 -1070.00000000 191 187 66 97.000000 1.000000 4.000000 1.000000 -60.708740 114.000000 50.000000 -0.361468 0.795229 -0.486777
1320.00000000 1370.00000000 -1090.00000000 191 187 66 97.000000 1.000000 4.000000 1.000000 -60.708740 114.000000 50.000000 0.754851 -0.632855 0.172320
1340.00000000 1320.00000000 -1100.00000000 191 187 66 97.000000 1.000000 4.000000 1.000000 -60.708740 114.000000 50.000000 0.888740 -0.423279 0.176002
1330.00000000 1330.00000000 -1080.00000000 191 187 66 97.000000 1.000000 4.000000 1.000000 -60.708740 114.000000 50.000000 -0.712113 0.648389 -0.269233
1330.00000000 1330.00000000 -1080.00000000 191 187 66 97.000000 1.000000 4.000000 1.000000 -60.708740 114.000000 50.000000 -0.712113 0.648389 -0.269233
1290.00000000 1330.00000000 -1090.00000000 191 187 66 97.000000 1.000000 4.000000 1.000000 -60.708740 114.000000 50.000000 0.747122 -0.596737 0.292769
1340.00000000 1350.00000000 -1120.00000000 191 187 66 97.000000 1.000000 4.000000 1.000000 -60.708740 114.000000 50.000000 -0.501739 0.852811 0.144817
1310.00000000 1340.00000000 -1200.00000000 191 187 66 97.000000 1.000000 4.000000 1.000000 -60.708740 114.000000 50.000000 0.845543 -0.464972 0.262410
1320.00000000 1310.00000000 -710.00000000 191 187 66 97.000000 1.000000 4.000000 1.000000 -60.708740 114.000000 50.000000 0.699638 -0.583859 0.411844
1330.00000000 1310.00000000 -710.00000000 191 187 66 97.000000 1.000000 4.000000 1.000000 -60.708740 114.000000 50.000000 0.730980 -0.469087 0.495607
1330.00000000 1280.00000000 -760.00000000 191 187 66 97.000000 1.000000 4.000000 1.000000 -60.708740 114.000000 50.000000 0.742324 -0.615701 0.264324
1310.00000000 1290.00000000 -770.00000000 191 187 66 97.000000 1.000000 4.000000 1.000000 -60.708740 114.000000 50.000000 0.794111 -0.582348 -0.173948
1320.00000000 1250.00000000 -710.00000000 191 187 66 97.000000 1.000000 4.000000 1.000000 -60.708740 114.000000 50.000000 0.714192 -0.660824 0.230739
1270.00000000 1300.00000000 -700.00000000 191 187 66 97.000000 1.000000 4.000000 1.000000 -60.708740 114.000000 50.000000 0.982939 -0.168812 0.073032
1340.00000000 1280.00000000 -780.00000000 191 187 66 97.000000 1.000000 4.000000 1.000000 -60.708740 114.000000 50.000000 -0.563410 0.801600 -0.200018
1340.00000000 1280.00000000 -820.00000000 191 187 66 97.000000 1.000000 4.000000 1.000000 -60.708740 114.000000 50.000000 0.765781 -0.632986 -0.113613
1330.00000000 1290.00000000 -860.00000000 191 187 66 97.000000 1.000000 4.000000 1.000000 -60.708740 114.000000 50.000000 -0.696825 0.702846 0.142977
1290.00000000 1290.00000000 -860.00000000 191 187 66 97.000000 1.000000 4.000000 1.000000 -60.708740 114.000000 50.000000 -0.645738 0.595421 -0.478014
1260.00000000 1310.00000000 -860.00000000 191 187 66 97.000000 1.000000 4.000000 1.000000 -60.708740 114.000000 50.000000 0.845719 -0.521888 -0.111317
1330.00000000 1160.00000000 -760.00000000 191 187 66 97.000000 1.000000 4.000000 1.000000 -60.708740 114.000000 50.000000 0.936992 0.175255 0.302211
1320.00000000 1190.00000000 -720.00000000 191 187 66 97.000000 1.000000 4.000000 1.000000 -60.708740 114.000000 50.000000 0.927253 -0.364710 -0.084785
1220.00000000 1310.00000000 -720.00000000 191 187 66 97.000000 1.000000 4.000000 1.000000 -60.708740 114.000000 50.000000 0.670158 -0.724865 0.159561
1220.00000000 1310.00000000 -710.00000000 191 187 66 97.000000 1.000000 4.000000 1.000000 -60.708740 114.000000 50.000000 0.977320 -0.017684 0.211026
1240.00000000 1270.00000000 -700.00000000 191 187 66 97.000000 1.000000 4.000000 1.000000 -60.708740 114.000000 50.000000 0.845989 -0.504025 -0.173956
1210.00000000 1280.00000000 -750.00000000 191 187 66 97.000000 1.000000 4.000000 1.000000 -60.708740 114.000000 50.000000 0.767870 -0.514619 0.381500
1250.00000000 1300.00000000 -780.00000000 191 187 66 97.000000 1.000000 4.000000 1.000000 -60.708740 114.000000 50.000000 0.816015 -0.473764 0.331160
1220.00000000 1280.00000000 -850.00000000 191 187 66 97.000000 1.000000 4.000000 1.000000 -60.708740 114.000000 50.000000 0.948488 -0.214263 -0.233369
1230.00000000 1280.00000000 -860.00000000 191 187 66 97.000000 1.000000 4.000000 1.000000 -60.708740 114.000000 50.000000 0.784072 -0.579935 0.221149
1220.00000000 1280.00000000 -860.00000000 191 187 66 97.000000 1.000000 4.000000 1.000000 -60.708740 114.000000 50.000000 0.856761 -0.170168 0.486830
1330.00000000 1310.00000000 -900.00000000 191 187 66 97.000000 1.000000 4.000000 1.000000 -60.708740 114.000000 50.000000 0.810549 -0.480619 0.334688
1300.00000000 1310.00000000 -880.00000000 191 187 66 97.000000 1.000000 4.000000 1.000000 -60.708740 114.000000 50.000000 -0.616257 0.770700 0.162014
1330.00000000 1310.00000000 -910.00000000 191 187 66 97.000000 1.000000 4.000000 1.000000 -60.708740 114.000000 50.000000 0.905365 -0.372286 0.204250
1290.00000000 1290.00000000 -880.00000000 191 187 66 97.000000 1.000000 4.000000 1.000000 -60.708740 114.000000 50.000000 0.702588 -0.708359 -0.067806
1260.00000000 1310.00000000 -880.00000000 191 187 66 97.000000 1.000000 4.000000 1.000000 -60.708740 114.000000 50.000000 0.938023 -0.335672 0.086240
1280.00000000 1280.00000000 -940.00000000 191 187 66 97.000000 1.000000 4.000000 1.000000 -60.708740 114.000000 50.000000 -0.709286 0.624886 -0.326239
1270.00000000 1310.00000000 -930.00000000 191 187 66 97.000000 1.000000 4.000000 1.000000 -60.708740 114.000000 50.000000 -0.670098 0.742241 -0.006937
1270.00000000 1270.00000000 -940.00000000 191 187 66 97.000000 1.000000 4.000000 1.000000 -60.708740 114.000000 50.000000 0.778152 -0.619884 -0.101116
1330.00000000 1280.00000000 -1030.00000000 191 187 66 97.000000 1.000000 4.000000 1.000000 -60.708740 114.000000 50.000000 -0.690960 0.625311 -0.362713
1330.00000000 1250.00000000 -960.00000000 191 187 66 97.000000 1.000000 4.000000 1.000000 -60.708740 114.000000 50.000000 0.806343 -0.591318 -0.012405
1300.00000000 1260.00000000 -1020.00000000 191 187 66 97.000000 1.000000 4.000000 1.000000 -60.708740 114.000000 50.000000 -0.774266 0.336427 -0.536030
1290.00000000 1290.00000000 -980.00000000 191 187 66 97.000000 1.000000 4.000000 1.000000 -60.708740 114.000000 50.000000 -0.843368 0.309080 -0.439545
1290.00000000 1310.00000000 -970.00000000 191 187 66 97.000000 1.000000 4.000000 1.000000 -60.708740 114.000000 50.000000 -0.716740 0.667203 -0.202792
1290.00000000 1290.00000000 -1010.00000000 191 187 66 97.000000 1.000000 4.000000 1.000000 -60.708740 114.000000 50.000000 0.759949 -0.454657 0.464505
1290.00000000 1310.00000000 -990.00000000 191 187 66 97.000000 1.000000 4.000000 1.000000 -60.708740 114.000000 50.000000 0.780320 -0.593288 0.197763
1290.00000000 1300.00000000 -1030.00000000 191 187 66 97.000000 1.000000 4.000000 1.000000 -60.708740 114.000000 50.000000 -0.686330 0.704755 -0.179643
1270.00000000 1240.00000000 -1000.00000000 191 187 66 97.000000 1.000000 4.000000 1.000000 -60.708740 114.000000 50.000000 0.895281 -0.243363 0.373157
1270.00000000 1240.00000000 -1000.00000000 191 187 66 97.000000 1.000000 4.000000 1.000000 -60.708740 114.000000 50.000000 0.895281 -0.243363 0.373157
1340.00000000 1170.00000000 -990.00000000 191 187 66 97.000000 1.000000 4.000000 1.000000 -60.708740 114.000000 50.000000 0.917310 -0.159226 0.364951
1310.00000000 1170.00000000 -1000.00000000 191 187 66 97.000000 1.000000 4.000000 1.000000 -60.708740 114.000000 50.000000 0.957924 -0.272035 0.091538
1260.00000000 1220.00000000 -970.00000000 191 187 66 97.000000 1.000000 4.000000 1.000000 -60.708740 114.000000 50.000000 0.928212 -0.151233 0.339928
1260.00000000 1220.00000000 -1030.00000000 191 187 66 97.000000 1.000000 4.000000 1.000000 -60.708740 114.000000 50.000000 0.844165 -0.514160 -0.151743
1230.00000000 1310.00000000 -880.00000000 191 187 66 97.000000 1.000000 4.000000 1.000000 -60.708740 114.000000 50.000000 -0.704089 0.709710 0.023891
1230.00000000 1260.00000000 -920.00000000 191 187 66 97.000000 1.000000 4.000000 1.000000 -60.708740 114.000000 50.000000 0.828408 -0.388069 0.403908
1240.00000000 1240.00000000 -940.00000000 191 187 66 97.000000 1.000000 4.000000 1.000000 -60.708740 114.000000 50.000000 0.881244 -0.221426 0.417588
1230.00000000 1270.00000000 -930.00000000 191 187 66 97.000000 1.000000 4.000000 1.000000 -60.708740 114.000000 50.000000 0.995056 -0.014045 0.098317
1230.00000000 1290.00000000 -950.00000000 191 187 66 97.000000 1.000000 4.000000 1.000000 -60.708740 114.000000 50.000000 0.970064 -0.172997 -0.170434
1230.00000000 1300.00000000 -970.00000000 191 187 66 97.000000 1.000000 4.000000 1.000000 -60.708740 114.000000 50.000000 0.901762 -0.314362 0.296652
1250.00000000 1280.00000000 -950.00000000 191 187 66 97.000000 1.000000 4.000000 1.000000 -60.708740 114.000000 50.000000 0.858312 -0.388173 0.335592
1240.00000000 1310.00000000 -980.00000000 191 187 66 97.000000 1.000000 4.000000 1.000000 -60.708740 114.000000 50.000000 0.670874 -0.600957 0.434487
1250.00000000 1310.00000000 -970.00000000 191 187 66 97.000000 1.000000 4.000000 1.000000 -60.708740 114.000000 50.000000 0.635428 -0.690967 0.344667
1250.00000000 1300.00000000 -1010.00000000 191 187 66 97.000000 1.000000 4.000000 1.000000 -60.708740 114.000000 50.000000 0.692686 -0.617001 0.373491
1240.00000000 1300.00000000 -990.00000000 191 187 66 97.000000 1.000000 4.000000 1.000000 -60.708740 114.000000 50.000000 -0.700528 0.595037 -0.393944
1250.00000000 1250.00000000 -950.00000000 191 187 66 97.000000 1.000000 4.000000 1.000000 -60.708740 114.000000 50.000000 0.960356 -0.246949 -0.129354
1220.00000000 1260.00000000 -980.00000000 191 187 66 97.000000 1.000000 4.000000 1.000000 -60.708740 114.000000 50.000000 0.900817 -0.396359 -0.177281
1250.00000000 1260.00000000 -1020.00000000 191 187 66 97.000000 1.000000 4.000000 1.000000 -60.708740 114.000000 50.000000 0.803739 -0.594904 0.009617
1250.00000000 1260.00000000 -1030.00000000 191 187 66 97.000000 1.000000 4.000000 1.000000 -60.708740 114.000000 50.000000 0.824129 -0.561321 0.075700
1230.00000000 1240.00000000 -1030.00000000 191 187 66 97.000000 1.000000 4.000000 1.000000 -60.708740 114.000000 50.000000 0.758127 -0.611794 0.225726
1240.00000000 1150.00000000 -1030.00000000 191 187 66 97.000000 1.000000 4.000000 1.000000 -60.708740 114.000000 50.000000 0.960571 -0.248941 -0.123819
1250.00000000 1210.00000000 -970.00000000 191 187 66 97.000000 1.000000 4.000000 1.000000 -60.708740 114.000000 50.000000 0.993503 -0.003250 -0.113760
1290.00000000 1070.00000000 -860.00000000 191 187 66 97.000000 1.000000 4.000000 1.000000 -60.708740 114.000000 50.000000 0.990261 0.127368 -0.056226
1290.00000000 1070.00000000 -860.00000000 191 187 66 97.000000 1.000000 4.000000 1.000000 -60.708740 114.000000 50.000000 0.990261 0.127368 -0.056226
1280.00000000 1100.00000000 -860.00000000 191 187 66 97.000000 1.000000 4.000000 1.000000 -60.708740 114.000000 50.000000 0.942749 0.258117 0.211187
1310.00000000 1030.00000000 -700.00000000 191 187 66 97.000000 1.000000 4.000000 1.000000 -60.708740 114.000000 50.000000 0.918997 0.393482 0.024838
1320.00000000 1000.00000000 -710.00000000 191 187 66 97.000000 1.000000 4.000000 1.000000 -60.708740 114.000000 50.000000 0.668325 0.740499 0.070730
1320.00000000 1000.00000000 -700.00000000 191 187 66 97.000000 1.000000 4.000000 1.000000 -60.708740 114.000000 50.000000 0.570981 0.792601 0.213925
1320.00000000 1000.00000000 -720.00000000 191 187 66 97.000000 1.000000 4.000000 1.000000 -60.708740 114.000000 50.000000 0.676373 0.724364 0.133475
1320.00000000 1000.00000000 -720.00000000 191 187 66 97.000000 1.000000 4.000000 1.000000 -60.708740 114.000000 50.000000 0.676373 0.724364 0.133475
1310.00000000 1000.00000000 -710.00000000 191 187 66 97.000000 1.000000 4.000000 1.000000 -60.708740 114.000000 50.000000 0.569076 0.813176 0.122050
1320.00000000 1000.00000000 -720.00000000 191 187 66 97.000000 1.000000 4.000000 1.000000 -60.708740 114.000000 50.000000 0.676373 0.724364 0.133475
1330.00000000 1000.00000000 -740.00000000 191 187 66 97.000000 1.000000 4.000000 1.000000 -60.708740 114.000000 50.000000 0.639942 0.768209 -0.018125
1300.00000000 1000.00000000 -740.00000000 191 187 66 97.000000 1.000000 4.000000 1.000000 -60.708740 114.000000 50.000000 0.805483 0.577040 -0.134989
1300.00000000 1010.00000000 -740.00000000 191 187 66 97.000000 1.000000 4.000000 1.000000 -60.708740 114.000000 50.000000 0.757878 0.596493 -0.264229
1280.00000000 1020.00000000 -700.00000000 191 187 66 97.000000 1.000000 4.000000 1.000000 -60.708740 114.000000 50.000000 0.890218 0.445808 0.093634
1270.00000000 1040.00000000 -730.00000000 191 187 66 97.000000 1.000000 4.000000 1.000000 -60.708740 114.000000 50.000000 0.671452 0.711770 0.206243
1290.00000000 1040.00000000 -710.00000000 191 187 66 97.000000 1.000000 4.000000 1.000000 -60.708740 114.000000 50.000000 0.544345 0.818779 -0.182454
1280.00000000 1020.00000000 -710.00000000 191 187 66 97.000000 1.000000 4.000000 1.000000 -60.708740 114.000000 50.000000 0.736712 0.647133 0.196148
1270.00000000 1030.00000000 -720.00000000 191 187 66 97.000000 1.000000 4.000000 1.000000 -60.708740 114.000000 50.000000 0.814042 0.580674 0.012355
1260.00000000 1050.00000000 -720.00000000 191 187 66 97.000000 1.000000 4.000000 1.000000 -60.708740 114.000000 50.000000 0.798045 0.552253 0.241125
1280.00000000 1020.00000000 -700.00000000 191 187 66 97.000000 1.000000 4.000000 1.000000 -60.708740 114.000000 50.000000 0.890218 0.445808 0.093634
1280.00000000 1020.00000000 -770.00000000 191 187 66 97.000000 1.000000 4.000000 1.000000 -60.708740 114.000000 50.000000 0.804172 0.499633 -0.321986
1290.00000000 1040.00000000 -740.00000000 191 187 66 97.000000 1.000000 4.000000 1.000000 -60.708740 114.000000 50.000000 0.888127 0.439058 0.135865
1290.00000000 1040.00000000 -750.00000000 191 187 66 97.000000 1.000000 4.000000 1.000000 -60.708740 114.000000 50.000000 0.940186 0.310682 0.139739
1290.00000000 1010.00000000 -710.00000000 191 187 66 97.000000 1.000000 4.000000 1.000000 -60.708740 114.000000 50.000000 0.881476 0.426711 0.202282
1290.00000000 1010.00000000 -710.00000000 191 187 66 97.000000 1.000000 4.000000 1.000000 -60.708740 114.000000 50.000000 0.881476 0.426711 0.202282
1290.00000000 1010.00000000 -770.00000000 191 187 66 97.000000 1.000000 4.000000 1.000000 -60.708740 114.000000 50.000000 0.919179 0.379452 -0.105480
1300.00000000 1040.00000000 -810.00000000 191 187 66 97.000000 1.000000 4.000000 1.000000 -60.708740 114.000000 50.000000 0.724162 0.659034 -0.203137
1300.00000000 1040.00000000 -820.00000000 191 187 66 97.000000 1.000000 4.000000 1.000000 -60.708740 114.000000 50.000000 0.634480 0.723530 0.271920
1340.00000000 1020.00000000 -780.00000000 191 187 66 97.000000 1.000000 4.000000 1.000000 -60.708740 114.000000 50.000000 0.667300 0.708123 -0.230807
1310.00000000 1040.00000000 -780.00000000 191 187 66 97.000000 1.000000 4.000000 1.000000 -60.708740 114.000000 50.000000 0.743518 0.617230 0.257311
1330.00000000 1020.00000000 -790.00000000 191 187 66 97.000000 1.000000 4.000000 1.000000 -60.708740 114.000000 50.000000 0.689064 0.685925 -0.233874
1310.00000000 1020.00000000 -820.00000000 191 187 66 97.000000 1.000000 4.000000 1.000000 -60.708740 114.000000 50.000000 0.756626 0.635807 -0.152533
1340.00000000 1020.00000000 -780.00000000 191 187 66 97.000000 1.000000 4.000000 1.000000 -60.708740 114.000000 50.000000 0.667300 0.708123 -0.230807
1340.00000000 1020.00000000 -780.00000000 191 187 66 97.000000 1.000000 4.000000 1.000000 -60.708740 114.000000 50.000000 0.667300 0.708123 -0.230807
1340.00000000 1030.00000000 -850.00000000 191 187 66 97.000000 1.000000 4.000000 1.000000 -60.708740 114.000000 50.000000 0.944013 0.329715 0.011283
1330.00000000 1030.00000000 -830.00000000 191 187 66 97.000000 1.000000 4.000000 1.000000 -60.708740 114.000000 50.000000 0.785180 0.529317 0.321428
1310.00000000 1060.00000000 -830.00000000 191 187 66 97.000000 1.000000 4.000000 1.000000 -60.708740 114.000000 50.000000 0.705591 0.708386 0.018164
1340.00000000 990.00000000 -790.00000000 191 187 66 97.000000 1.000000 4.000000 1.000000 -60.708740 114.000000 50.000000 0.492503 0.820839 0.289248
1320.00000000 1000.00000000 -790.00000000 191 187 66 97.000000 1.000000 4.000000 1.000000 -60.708740 114.000000 50.000000 0.932849 0.315584 -0.173780
1340.00000000 990.00000000 -780.00000000 191 187 66 97.000000 1.000000 4.000000 1.000000 -60.708740 114.000000 50.000000 0.619468 0.784473 0.029365
1270.00000000 1020.00000000 -780.00000000 191 187 66 97.000000 1.000000 4.000000 1.000000 -60.708740 114.000000 50.000000 0.815504 0.537040 0.215734
1280.00000000 1020.00000000 -790.00000000 191 187 66 97.000000 1.000000 4.000000 1.000000 -60.708740 114.000000 50.000000 0.695997 0.623941 0.355368
1280.00000000 1030.00000000 -780.00000000 191 187 66 97.000000 1.000000 4.000000 1.000000 -60.708740 114.000000 50.000000 0.948932 0.298762 0.101342
1270.00000000 1050.00000000 -790.00000000 191 187 66 97.000000 1.000000 4.000000 1.000000 -60.708740 114.000000 50.000000 0.802025 0.469049 0.369796
1280.00000000 1020.00000000 -780.00000000 191 187 66 97.000000 1.000000 4.000000 1.000000 -60.708740 114.000000 50.000000 0.527525 0.842596 -0.108396
1280.00000000 1030.00000000 -780.00000000 191 187 66 97.000000 1.000000 4.000000 1.000000 -60.708740 114.000000 50.000000 0.948932 0.298762 0.101342
1290.00000000 1050.00000000 -860.00000000 191 187 66 97.000000 1.000000 4.000000 1.000000 -60.708740 114.000000 50.000000 0.976695 0.206958 0.056883
1270.00000000 1040.00000000 -840.00000000 191 187 66 97.000000 1.000000 4.000000 1.000000 -60.708740 114.000000 50.000000 0.643950 0.764603 -0.026656
1290.00000000 1020.00000000 -850.00000000 191 187 66 97.000000 1.000000 4.000000 1.000000 -60.708740 114.000000 50.000000 0.889428 0.445417 0.102572
1290.00000000 1020.00000000 -830.00000000 191 187 66 97.000000 1.000000 4.000000 1.000000 -60.708740 114.000000 50.000000 0.888610 0.379557 -0.257503
1290.00000000 990.00000000 -790.00000000 191 187 66 97.000000 1.000000 4.000000 1.000000 -60.708740 114.000000 50.000000 0.783734 0.619334 -0.046769
1290.00000000 1010.00000000 -780.00000000 191 187 66 97.000000 1.000000 4.000000 1.000000 -60.708740 114.000000 50.000000 0.840343 0.535023 -0.087030
1300.00000000 1070.00000000 -890.00000000 191 187 66 97.000000 1.000000 4.000000 1.000000 -60.708740 114.000000 50.000000 0.829904 0.512003 0.221613
1340.00000000 1090.00000000 -900.00000000 191 187 66 97.000000 1.000000 4.000000 1.000000 -60.708740 114.000000 50.000000 0.944922 0.326749 0.018924
1330.00000000 1120.00000000 -1030.00000000 191 187 66 97.000000 1.000000 4.000000 1.000000 -60.708740 114.000000 50.000000 0.977964 -0.061652 -0.199461
1300.00000000 1130.00000000 -1010.00000000 191 187 66 97.000000 1.000000 4.000000 1.000000 -60.708740 114.000000 50.000000 0.930336 -0.138795 0.339428
1300.00000000 1100.00000000 -980.00000000 191 187 66 97.000000 1.000000 4.000000 1.000000 -60.708740 114.000000 50.000000 0.961375 0.109982 -0.252312
1290.00000000 1080.00000000 -980.00000000 191 187 66 97.000000 1.000000 4.000000 1.000000 -60.708740 114.000000 50.000000 0.996438 0.024723 -0.080618
1270.00000000 1100.00000000 -990.00000000 191 187 66 97.000000 1.000000 4.000000 1.000000 -60.708740 114.000000 50.000000 0.892143 0.291404 0.345201
1340.00000000 1030.00000000 -870.00000000 191 187 66 97.000000 1.000000 4.000000 1.000000 -60.708740 114.000000 50.000000 0.585559 0.765488 -0.266737
1320.00000000 1040.00000000 -880.00000000 191 187 66 97.000000 1.000000 4.000000 1.000000 -60.708740 114.000000 50.000000 0.633680 0.731655 0.251259
1320.00000000 1040.00000000 -880.00000000 191 187 66 97.000000 1.000000 4.000000 1.000000 -60.708740 114.000000 50.000000 0.633680 0.731655 0.251259
1340.00000000 1010.00000000 -870.00000000 191 187 66 97.000000 1.000000 4.000000 1.000000 -60.708740 114.000000 50.000000 0.716571 0.690086 0.101526
1290.00000000 1040.00000000 -920.00000000 191 187 66 97.000000 1.000000 4.000000 1.000000 -60.708740 114.000000 50.000000 0.880149 0.420037 0.221150
1320.00000000 1050.00000000 -960.00000000 191 187 66 97.000000 1.000000 4.000000 1.000000 -60.708740 114.000000 50.000000 0.760442 0.649226 -0.015292
1310.00000000 1050.00000000 -980.00000000 191 187 66 97.000000 1.000000 4.000000 1.000000 -60.708740 114.000000 50.000000 0.699685 0.711226 -0.067805
1330.00000000 1050.00000000 -970.00000000 191 187 66 97.000000 1.000000 4.000000 1.000000 -60.708740 114.000000 50.000000 0.706796 0.706796 -0.029626
1330.00000000 1040.00000000 -970.00000000 191 187 66 97.000000 1.000000 4.000000 1.000000 -60.708740 114.000000 50.000000 0.628083 0.771561 0.101020
1300.00000000 1060.00000000 -990.00000000 191 187 66 97.000000 1.000000 4.000000 1.000000 -60.708740 114.000000 50.000000 0.839781 0.423800 0.339353
1300.00000000 1060.00000000 -1000.00000000 191 187 66 97.000000 1.000000 4.000000 1.000000 -60.708740 114.000000 50.000000 0.900696 0.379777 0.210987
1310.00000000 1030.00000000 -1000.00000000 191 187 66 97.000000 1.000000 4.000000 1.000000 -60.708740 114.000000 50.000000 0.750045 0.661315 0.009705
1220.00000000 1110.00000000 -990.00000000 191 187 66 97.000000 1.000000 4.000000 1.000000 -60.708740 114.000000 50.000000 0.987329 0.095777 -0.126520
1200.00000000 1140.00000000 -990.00000000 191 187 66 97.000000 1.000000 4.000000 1.000000 -60.708740 114.000000 50.000000 0.970337 -0.017991 -0.241085
1340.00000000 1290.00000000 -1040.00000000 191 187 66 97.000000 1.000000 4.000000 1.000000 -60.708740 114.000000 50.000000 0.724916 -0.688318 -0.026744
1320.00000000 1310.00000000 -1040.00000000 191 187 66 97.000000 1.000000 4.000000 1.000000 -60.708740 114.000000 50.000000 -0.575766 0.808428 0.122221
