//X Y Z R G B PointSourceId ScanDirectionFlag NumberOfReturns ReturnNumber GpsTime Intensity Classification Nx Ny Nz
9210.00000000 -8670.00000000 530.00000000 4 225 141 0.000000 0.000000 0.000000 0.000000 -60.708740 0.000000 130.000000 0.826420 0.361855 -0.431382
9210.00000000 -8680.00000000 520.00000000 4 225 141 0.000000 0.000000 0.000000 0.000000 -60.708740 0.000000 130.000000 0.835035 0.366409 -0.410441
9200.00000000 -8750.00000000 640.00000000 4 225 141 0.000000 0.000000 0.000000 0.000000 -60.708740 0.000000 130.000000 0.791623 0.241064 -0.561446
9250.00000000 -8710.00000000 530.00000000 4 225 141 0.000000 0.000000 0.000000 0.000000 -60.708740 0.000000 130.000000 0.807824 0.493582 -0.322177
9240.00000000 -8790.00000000 510.00000000 4 225 141 0.000000 0.000000 0.000000 0.000000 -60.708740 0.000000 130.000000 0.789664 0.334766 -0.514162
9230.00000000 -8770.00000000 520.00000000 4 225 141 0.000000 0.000000 0.000000 0.000000 -60.708740 0.000000 130.000000 0.725923 0.406583 -0.554730
9350.00000000 -8530.00000000 50.00000000 4 225 141 0.000000 0.000000 0.000000 0.000000 -60.708740 0.000000 130.000000 0.368098 -0.530255 0.763762
9370.00000000 -8540.00000000 40.00000000 4 225 141 0.000000 0.000000 0.000000 0.000000 -60.708740 0.000000 130.000000 0.506169 0.059959 0.860348
9390.00000000 -8590.00000000 40.00000000 4 225 141 0.000000 0.000000 0.000000 0.000000 -60.708740 0.000000 130.000000 0.693114 -0.255358 0.674081
9400.00000000 -8610.00000000 0.00000000 4 225 141 0.000000 0.000000 0.000000 0.000000 -60.708740 0.000000 130.000000 0.165634 -0.332660 0.928387
9390.00000000 -8620.00000000 10.00000000 4 225 141 0.000000 0.000000 0.000000 0.000000 -60.708740 0.000000 130.000000 0.288581 -0.521968 0.802664
9370.00000000 -8560.00000000 40.00000000 4 225 141 0.000000 0.000000 0.000000 0.000000 -60.708740 0.000000 130.000000 0.348293 -0.029560 0.936920
9380.00000000 -8580.00000000 60.00000000 4 225 141 0.000000 0.000000 0.000000 0.000000 -60.708740 0.000000 130.000000 0.271184 -0.212775 0.938715
9360.00000000 -8570.00000000 30.00000000 4 225 141 0.000000 0.000000 0.000000 0.000000 -60.708740 0.000000 130.000000 0.597578 -0.368370 0.712182
9360.00000000 -8580.00000000 30.00000000 4 225 141 0.000000 0.000000 0.000000 0.000000 -60.708740 0.000000 130.000000 0.705184 -0.210154 0.677164
9370.00000000 -8560.00000000 30.00000000 4 225 141 0.000000 0.000000 0.000000 0.000000 -60.708740 0.000000 130.000000 0.521964 -0.232497 0.820669
9370.00000000 -8560.00000000 30.00000000 4 225 141 0.000000 0.000000 0.000000 0.000000 -60.708740 0.000000 130.000000 0.521964 -0.232497 0.820669
9350.00000000 -8590.00000000 40.00000000 4 225 141 0.000000 0.000000 0.000000 0.000000 -60.708740 0.000000 130.000000 0.331123 -0.141517 0.932915
9380.00000000 -8600.00000000 50.00000000 4 225 141 0.000000 0.000000 0.000000 0.000000 -60.708740 0.000000 130.000000 0.542146 -0.121289 0.831485
9350.00000000 -8590.00000000 40.00000000 4 225 141 0.000000 0.000000 0.000000 0.000000 -60.708740 0.000000 130.000000 0.331123 -0.141517 0.932915
9360.00000000 -8590.00000000 30.00000000 4 225 141 0.000000 0.000000 0.000000 0.000000 -60.708740 0.000000 130.000000 0.667452 -0.179522 0.722689
9360.00000000 -8620.00000000 30.00000000 4 225 141 0.000000 0.000000 0.000000 0.000000 -60.708740 0.000000 130.000000 -0.402303 0.640705 -0.653949
9360.00000000 -8620.00000000 20.00000000 4 225 141 0.000000 0.000000 0.000000 0.000000 -60.708740 0.000000 130.000000 0.397638 -0.595633 0.697930
9380.00000000 -8620.00000000 20.00000000 4 225 141 0.000000 0.000000 0.000000 0.000000 -60.708740 0.000000 130.000000 -0.337679 0.667202 -0.663939
9340.00000000 -8510.00000000 30.00000000 4 225 141 0.000000 0.000000 0.000000 0.000000 -60.708740 0.000000 130.000000 0.455246 -0.504909 0.733360
9330.00000000 -8560.00000000 50.00000000 4 225 141 0.000000 0.000000 0.000000 0.000000 -60.708740 0.000000 130.000000 0.816319 -0.186284 0.546737
9310.00000000 -8580.00000000 40.00000000 4 225 141 0.000000 0.000000 0.000000 0.000000 -60.708740 0.000000 130.000000 0.522534 -0.201440 0.828481
9320.00000000 -8580.00000000 10.00000000 4 225 141 0.000000 0.000000 0.000000 0.000000 -60.708740 0.000000 130.000000 0.812893 -0.219742 0.539368
9320.00000000 -8610.00000000 50.00000000 4 225 141 0.000000 0.000000 0.000000 0.000000 -60.708740 0.000000 130.000000 0.804132 -0.052290 0.592146
9330.00000000 -8610.00000000 40.00000000 4 225 141 0.000000 0.000000 0.000000 0.000000 -60.708740 0.000000 130.000000 0.487167 -0.233657 0.841470
9290.00000000 -8600.00000000 30.00000000 4 225 141 0.000000 0.000000 0.000000 0.000000 -60.708740 0.000000 130.000000 0.579168 -0.455657 0.675974
9400.00000000 -8640.00000000 30.00000000 4 225 141 0.000000 0.000000 0.000000 0.000000 -60.708740 0.000000 130.000000 -0.626274 0.481878 -0.612842
9410.00000000 -8630.00000000 50.00000000 4 225 141 0.000000 0.000000 0.000000 0.000000 -60.708740 0.000000 130.000000 -0.423080 0.688542 -0.588994
9400.00000000 -8650.00000000 10.00000000 4 225 141 0.000000 0.000000 0.000000 0.000000 -60.708740 0.000000 130.000000 0.667625 -0.113985 0.735720
9390.00000000 -8640.00000000 -10.00000000 4 225 141 0.000000 0.000000 0.000000 0.000000 -60.708740 0.000000 130.000000 0.417283 -0.410888 0.810584
9370.00000000 -8660.00000000 30.00000000 4 225 141 0.000000 0.000000 0.000000 0.000000 -60.708740 0.000000 130.000000 0.454005 -0.111733 0.883966
9370.00000000 -8650.00000000 40.00000000 4 225 141 0.000000 0.000000 0.000000 0.000000 -60.708740 0.000000 130.000000 0.452825 -0.449556 0.769967
9350.00000000 -8640.00000000 10.00000000 4 225 141 0.000000 0.000000 0.000000 0.000000 -60.708740 0.000000 130.000000 0.345977 -0.342929 0.873326
9360.00000000 -8630.00000000 20.00000000 4 225 141 0.000000 0.000000 0.000000 0.000000 -60.708740 0.000000 130.000000 -0.351193 0.687685 -0.635415
9350.00000000 -8660.00000000 0.00000000 4 225 141 0.000000 0.000000 0.000000 0.000000 -60.708740 0.000000 130.000000 0.434849 -0.460908 0.773609
9370.00000000 -8660.00000000 -10.00000000 4 225 141 0.000000 0.000000 0.000000 0.000000 -60.708740 0.000000 130.000000 0.396709 -0.236243 0.887024
9360.00000000 -8700.00000000 0.00000000 4 225 141 0.000000 0.000000 0.000000 0.000000 -60.708740 0.000000 130.000000 0.285474 -0.482030 0.828343
9360.00000000 -8790.00000000 70.00000000 4 225 141 0.000000 0.000000 0.000000 0.000000 -60.708740 0.000000 130.000000 0.458254 -0.207483 0.864265
9390.00000000 -8710.00000000 10.00000000 4 225 141 0.000000 0.000000 0.000000 0.000000 -60.708740 0.000000 130.000000 0.438683 -0.678874 0.588802
9360.00000000 -8820.00000000 590.00000000 4 225 141 0.000000 0.000000 0.000000 0.000000 -60.708740 0.000000 130.000000 -0.503001 -0.469800 0.725450
9380.00000000 -8850.00000000 650.00000000 4 225 141 0.000000 0.000000 0.000000 0.000000 -60.708740 0.000000 130.000000 -0.349075 -0.034779 0.936449
9270.00000000 -8810.00000000 620.00000000 4 225 141 0.000000 0.000000 0.000000 0.000000 -60.708740 0.000000 130.000000 -0.475526 -0.229407 0.849263
9330.00000000 -8880.00000000 640.00000000 4 225 141 0.000000 0.000000 0.000000 0.000000 -60.708740 0.000000 130.000000 -0.584070 -0.334910 0.739390
9330.00000000 -8890.00000000 640.00000000 4 225 141 0.000000 0.000000 0.000000 0.000000 -60.708740 0.000000 130.000000 -0.539182 -0.257869 0.801740
9340.00000000 -8890.00000000 620.00000000 4 225 141 0.000000 0.000000 0.000000 0.000000 -60.708740 0.000000 130.000000 -0.551743 -0.381472 0.741660
9320.00000000 -8880.00000000 620.00000000 4 225 141 0.000000 0.000000 0.000000 0.000000 -60.708740 0.000000 130.000000 -0.368066 -0.200632 0.907896
9320.00000000 -8930.00000000 630.00000000 4 225 141 0.000000 0.000000 0.000000 0.000000 -60.708740 0.000000 130.000000 -0.626681 -0.148780 0.764941
9320.00000000 -8930.00000000 620.00000000 4 225 141 0.000000 0.000000 0.000000 0.000000 -60.708740 0.000000 130.000000 0.582523 0.327568 -0.743886
9270.00000000 -8900.00000000 600.00000000 4 225 141 0.000000 0.000000 0.000000 0.000000 -60.708740 0.000000 130.000000 0.595217 0.409523 -0.691381
9260.00000000 -8890.00000000 600.00000000 4 225 141 0.000000 0.000000 0.000000 0.000000 -60.708740 0.000000 130.000000 -0.542454 -0.321632 0.776077
9260.00000000 -8890.00000000 600.00000000 4 225 141 0.000000 0.000000 0.000000 0.000000 -60.708740 0.000000 130.000000 -0.542454 -0.321632 0.776077
9290.00000000 -8910.00000000 550.00000000 4 225 141 0.000000 0.000000 0.000000 0.000000 -60.708740 0.000000 130.000000 0.585990 0.488605 -0.646437
9370.00000000 -8910.00000000 450.00000000 4 225 141 0.000000 0.000000 0.000000 0.000000 -60.708740 0.000000 130.000000 -0.592215 -0.035001 0.805020
9290.00000000 -8950.00000000 440.00000000 4 225 141 0.000000 0.000000 0.000000 0.000000 -60.708740 0.000000 130.000000 0.947642 -0.192255 -0.254977
9290.00000000 -8950.00000000 440.00000000 4 225 141 0.000000 0.000000 0.000000 0.000000 -60.708740 0.000000 130.000000 0.947642 -0.192255 -0.254977
9260.00000000 -8960.00000000 320.00000000 4 225 141 0.000000 0.000000 0.000000 0.000000 -60.708740 0.000000 130.000000 0.976497 -0.202161 -0.074738
9300.00000000 -9000.00000000 590.00000000 4 225 141 0.000000 0.000000 0.000000 0.000000 -60.708740 0.000000 130.000000 -0.488243 -0.397407 0.776972
9340.00000000 -9030.00000000 510.00000000 4 225 141 0.000000 0.000000 0.000000 0.000000 -60.708740 0.000000 130.000000 -0.462921 -0.376423 0.802502
9260.00000000 -9010.00000000 490.00000000 4 225 141 0.000000 0.000000 0.000000 0.000000 -60.708740 0.000000 130.000000 0.811444 -0.061107 -0.581227
9260.00000000 -9010.00000000 490.00000000 4 225 141 0.000000 0.000000 0.000000 0.000000 -60.708740 0.000000 130.000000 0.811444 -0.061107 -0.581227
9270.00000000 -9060.00000000 520.00000000 4 225 141 0.000000 0.000000 0.000000 0.000000 -60.708740 0.000000 130.000000 -0.545818 -0.289521 0.786295
9270.00000000 -8980.00000000 480.00000000 4 225 141 0.000000 0.000000 0.000000 0.000000 -60.708740 0.000000 130.000000 0.901529 -0.161447 -0.401473
9260.00000000 -8990.00000000 320.00000000 4 225 141 0.000000 0.000000 0.000000 0.000000 -60.708740 0.000000 130.000000 0.873225 -0.146261 -0.464851
9260.00000000 -9020.00000000 400.00000000 4 225 141 0.000000 0.000000 0.000000 0.000000 -60.708740 0.000000 130.000000 -0.674122 -0.153003 0.722599
9290.00000000 -9020.00000000 340.00000000 4 225 141 0.000000 0.000000 0.000000 0.000000 -60.708740 0.000000 130.000000 0.978295 -0.189308 -0.084273
9240.00000000 -8860.00000000 630.00000000 4 225 141 0.000000 0.000000 0.000000 0.000000 -60.708740 0.000000 130.000000 0.675633 0.605912 -0.419988
9210.00000000 -8820.00000000 560.00000000 4 225 141 0.000000 0.000000 0.000000 0.000000 -60.708740 0.000000 130.000000 0.667610 0.516262 -0.536442
9250.00000000 -8910.00000000 630.00000000 4 225 141 0.000000 0.000000 0.000000 0.000000 -60.708740 0.000000 130.000000 0.575866 0.525204 -0.626529
9240.00000000 -8940.00000000 640.00000000 4 225 141 0.000000 0.000000 0.000000 0.000000 -60.708740 0.000000 130.000000 0.792667 0.437500 -0.424585
9180.00000000 -8890.00000000 640.00000000 4 225 141 0.000000 0.000000 0.000000 0.000000 -60.708740 0.000000 130.000000 -0.682906 -0.326043 0.653708
9190.00000000 -8900.00000000 590.00000000 4 225 141 0.000000 0.000000 0.000000 0.000000 -60.708740 0.000000 130.000000 0.770057 0.392355 -0.503061
9180.00000000 -8930.00000000 570.00000000 4 225 141 0.000000 0.000000 0.000000 0.000000 -60.708740 0.000000 130.000000 0.794250 0.397930 -0.459150
9230.00000000 -8890.00000000 530.00000000 4 225 141 0.000000 0.000000 0.000000 0.000000 -60.708740 0.000000 130.000000 -0.695442 -0.089309 0.713011
9220.00000000 -8950.00000000 530.00000000 4 225 141 0.000000 0.000000 0.000000 0.000000 -60.708740 0.000000 130.000000 -0.686778 0.029615 0.726264
9150.00000000 -8870.00000000 510.00000000 4 225 141 0.000000 0.000000 0.000000 0.000000 -60.708740 0.000000 130.000000 0.734321 0.038202 -0.677726
9100.00000000 -8850.00000000 540.00000000 4 225 141 0.000000 0.000000 0.000000 0.000000 -60.708740 0.000000 130.000000 0.797948 0.364455 -0.480053
9250.00000000 -9030.00000000 650.00000000 4 225 141 0.000000 0.000000 0.000000 0.000000 -60.708740 0.000000 130.000000 -0.538262 -0.254309 0.803493
9220.00000000 -9040.00000000 540.00000000 4 225 141 0.000000 0.000000 0.000000 0.000000 -60.708740 0.000000 130.000000 0.754183 -0.178985 -0.631801
9220.00000000 -9040.00000000 540.00000000 4 225 141 0.000000 0.000000 0.000000 0.000000 -60.708740 0.000000 130.000000 0.754183 -0.178985 -0.631801
9200.00000000 -9040.00000000 520.00000000 4 225 141 0.000000 0.000000 0.000000 0.000000 -60.708740 0.000000 130.000000 0.741128 0.387742 -0.548075
9220.00000000 -9070.00000000 620.00000000 4 225 141 0.000000 0.000000 0.000000 0.000000 -60.708740 0.000000 130.000000 0.749750 0.551335 -0.365930
9240.00000000 -9070.00000000 590.00000000 4 225 141 0.000000 0.000000 0.000000 0.000000 -60.708740 0.000000 130.000000 -0.514256 -0.568211 0.642399
9210.00000000 -9050.00000000 590.00000000 4 225 141 0.000000 0.000000 0.000000 0.000000 -60.708740 0.000000 130.000000 0.751969 0.352435 -0.557074
9190.00000000 -9110.00000000 640.00000000 4 225 141 0.000000 0.000000 0.000000 0.000000 -60.708740 0.000000 130.000000 -0.420626 -0.191993 0.886686
9190.00000000 -9110.00000000 640.00000000 4 225 141 0.000000 0.000000 0.000000 0.000000 -60.708740 0.000000 130.000000 -0.420626 -0.191993 0.886686
9210.00000000 -9100.00000000 610.00000000 4 225 141 0.000000 0.000000 0.000000 0.000000 -60.708740 0.000000 130.000000 -0.612194 -0.347726 0.710145
9250.00000000 -9050.00000000 550.00000000 4 225 141 0.000000 0.000000 0.000000 0.000000 -60.708740 0.000000 130.000000 0.739782 0.509115 -0.439915
9240.00000000 -9100.00000000 550.00000000 4 225 141 0.000000 0.000000 0.000000 0.000000 -60.708740 0.000000 130.000000 -0.709924 -0.092217 0.698214
9180.00000000 -9080.00000000 540.00000000 4 225 141 0.000000 0.000000 0.000000 0.000000 -60.708740 0.000000 130.000000 0.695778 -0.165951 -0.698823
9210.00000000 -9070.00000000 530.00000000 4 225 141 0.000000 0.000000 0.000000 0.000000 -60.708740 0.000000 130.000000 0.839602 -0.139689 -0.524935
9200.00000000 -9060.00000000 560.00000000 4 225 141 0.000000 0.000000 0.000000 0.000000 -60.708740 0.000000 130.000000 0.766706 -0.009705 -0.641925
9190.00000000 -9070.00000000 550.00000000 4 225 141 0.000000 0.000000 0.000000 0.000000 -60.708740 0.000000 130.000000 0.829100 0.374280 -0.415340
9210.00000000 -9070.00000000 530.00000000 4 225 141 0.000000 0.000000 0.000000 0.000000 -60.708740 0.000000 130.000000 0.839602 -0.139689 -0.524935
9200.00000000 -9080.00000000 550.00000000 4 225 141 0.000000 0.000000 0.000000 0.000000 -60.708740 0.000000 130.000000 0.670750 0.573733 -0.470026
9190.00000000 -9060.00000000 540.00000000 4 225 141 0.000000 0.000000 0.000000 0.000000 -60.708740 0.000000 130.000000 -0.630348 -0.188644 0.753044
9180.00000000 -9070.00000000 520.00000000 4 225 141 0.000000 0.000000 0.000000 0.000000 -60.708740 0.000000 130.000000 0.845065 0.305464 -0.438814
9180.00000000 -9100.00000000 560.00000000 4 225 141 0.000000 0.000000 0.000000 0.000000 -60.708740 0.000000 130.000000 0.743175 0.556973 -0.370771
9200.00000000 -9100.00000000 550.00000000 4 225 141 0.000000 0.000000 0.000000 0.000000 -60.708740 0.000000 130.000000 0.778629 -0.161773 -0.606272
9150.00000000 -9070.00000000 520.00000000 4 225 141 0.000000 0.000000 0.000000 0.000000 -60.708740 0.000000 130.000000 0.761035 -0.192181 -0.619590
9240.00000000 -9030.00000000 420.00000000 4 225 141 0.000000 0.000000 0.000000 0.000000 -60.708740 0.000000 130.000000 0.907026 -0.191180 -0.375172
9210.00000000 -9010.00000000 440.00000000 4 225 141 0.000000 0.000000 0.000000 0.000000 -60.708740 0.000000 130.000000 0.767384 -0.049830 -0.639249
9190.00000000 -9010.00000000 420.00000000 4 225 141 0.000000 0.000000 0.000000 0.000000 -60.708740 0.000000 130.000000 0.960835 -0.139877 -0.239228
9250.00000000 -9040.00000000 380.00000000 4 225 141 0.000000 0.000000 0.000000 0.000000 -60.708740 0.000000 130.000000 0.979329 -0.161374 -0.121954
9250.00000000 -9010.00000000 390.00000000 4 225 141 0.000000 0.000000 0.000000 0.000000 -60.708740 0.000000 130.000000 0.901605 -0.270039 -0.337917
9250.00000000 -9040.00000000 380.00000000 4 225 141 0.000000 0.000000 0.000000 0.000000 -60.708740 0.000000 130.000000 0.979329 -0.161374 -0.121954
9200.00000000 -9030.00000000 360.00000000 4 225 141 0.000000 0.000000 0.000000 0.000000 -60.708740 0.000000 130.000000 0.973886 -0.134807 -0.182682
9200.00000000 -9010.00000000 370.00000000 4 225 141 0.000000 0.000000 0.000000 0.000000 -60.708740 0.000000 130.000000 0.972365 -0.233320 0.008291
9180.00000000 -9030.00000000 400.00000000 4 225 141 0.000000 0.000000 0.000000 0.000000 -60.708740 0.000000 130.000000 0.976200 -0.202607 -0.077359
9230.00000000 -9070.00000000 460.00000000 4 225 141 0.000000 0.000000 0.000000 0.000000 -60.708740 0.000000 130.000000 0.686232 -0.111161 -0.718839
9220.00000000 -9060.00000000 430.00000000 4 225 141 0.000000 0.000000 0.000000 0.000000 -60.708740 0.000000 130.000000 0.912014 -0.221138 -0.345438
9230.00000000 -9100.00000000 480.00000000 4 225 141 0.000000 0.000000 0.000000 0.000000 -60.708740 0.000000 130.000000 0.840197 -0.111351 -0.530727
9210.00000000 -9100.00000000 420.00000000 4 225 141 0.000000 0.000000 0.000000 0.000000 -60.708740 0.000000 130.000000 0.738307 -0.012514 -0.674348
9210.00000000 -9100.00000000 420.00000000 4 225 141 0.000000 0.000000 0.000000 0.000000 -60.708740 0.000000 130.000000 0.738307 -0.012514 -0.674348
9250.00000000 -9050.00000000 370.00000000 4 225 141 0.000000 0.000000 0.000000 0.000000 -60.708740 0.000000 130.000000 0.994753 0.005377 -0.102164
9250.00000000 -9050.00000000 370.00000000 4 225 141 0.000000 0.000000 0.000000 0.000000 -60.708740 0.000000 130.000000 0.994753 0.005377 -0.102164
9250.00000000 -9050.00000000 360.00000000 4 225 141 0.000000 0.000000 0.000000 0.000000 -60.708740 0.000000 130.000000 0.965065 -0.237101 -0.111502
9180.00000000 -9060.00000000 370.00000000 4 225 141 0.000000 0.000000 0.000000 0.000000 -60.708740 0.000000 130.000000 0.983767 -0.145699 -0.104759
9170.00000000 -9040.00000000 380.00000000 4 225 141 0.000000 0.000000 0.000000 0.000000 -60.708740 0.000000 130.000000 0.896642 0.064143 -0.438085
9400.00000000 -8820.00000000 190.00000000 4 225 141 0.000000 0.000000 0.000000 0.000000 -60.708740 0.000000 130.000000 0.699571 -0.600808 0.386821
9370.00000000 -8820.00000000 90.00000000 4 225 141 0.000000 0.000000 0.000000 0.000000 -60.708740 0.000000 130.000000 -0.517152 0.628332 -0.581165
9360.00000000 -8870.00000000 90.00000000 4 225 141 0.000000 0.000000 0.000000 0.000000 -60.708740 0.000000 130.000000 0.585627 0.006857 0.810552
9360.00000000 -8930.00000000 130.00000000 4 225 141 0.000000 0.000000 0.000000 0.000000 -60.708740 0.000000 130.000000 0.907902 -0.237541 0.345382
9330.00000000 -8800.00000000 120.00000000 4 225 141 0.000000 0.000000 0.000000 0.000000 -60.708740 0.000000 130.000000 0.612658 -0.142304 0.777431
9320.00000000 -8830.00000000 90.00000000 4 225 141 0.000000 0.000000 0.000000 0.000000 -60.708740 0.000000 130.000000 0.634235 -0.587130 0.503014
9310.00000000 -8910.00000000 70.00000000 4 225 141 0.000000 0.000000 0.000000 0.000000 -60.708740 0.000000 130.000000 0.814115 -0.492878 0.307065
9280.00000000 -8890.00000000 110.00000000 4 225 141 0.000000 0.000000 0.000000 0.000000 -60.708740 0.000000 130.000000 0.757393 -0.468237 0.455093
9260.00000000 -8930.00000000 100.00000000 4 225 141 0.000000 0.000000 0.000000 0.000000 -60.708740 0.000000 130.000000 0.756778 -0.277644 0.591778
9270.00000000 -8940.00000000 70.00000000 4 225 141 0.000000 0.000000 0.000000 0.000000 -60.708740 0.000000 130.000000 0.874822 -0.414073 0.251455
9320.00000000 -8900.00000000 60.00000000 4 225 141 0.000000 0.000000 0.000000 0.000000 -60.708740 0.000000 130.000000 0.749684 -0.462992 0.472877
9310.00000000 -8920.00000000 10.00000000 4 225 141 0.000000 0.000000 0.000000 0.000000 -60.708740 0.000000 130.000000 0.788851 -0.289298 0.542236
9260.00000000 -8960.00000000 30.00000000 4 225 141 0.000000 0.000000 0.000000 0.000000 -60.708740 0.000000 130.000000 0.565831 -0.196744 0.800704
9350.00000000 -9040.00000000 250.00000000 4 225 141 0.000000 0.000000 0.000000 0.000000 -60.708740 0.000000 130.000000 0.921426 -0.370498 -0.117072
9390.00000000 -9050.00000000 190.00000000 4 225 141 0.000000 0.000000 0.000000 0.000000 -60.708740 0.000000 130.000000 0.922027 0.006430 0.387071
9380.00000000 -9080.00000000 190.00000000 4 225 141 0.000000 0.000000 0.000000 0.000000 -60.708740 0.000000 130.000000 0.913481 -0.406713 0.011695
9330.00000000 -9040.00000000 240.00000000 4 225 141 0.000000 0.000000 0.000000 0.000000 -60.708740 0.000000 130.000000 0.969377 -0.242649 -0.037800
9330.00000000 -9040.00000000 240.00000000 4 225 141 0.000000 0.000000 0.000000 0.000000 -60.708740 0.000000 130.000000 0.969377 -0.242649 -0.037800
9290.00000000 -8970.00000000 240.00000000 4 225 141 0.000000 0.000000 0.000000 0.000000 -60.708740 0.000000 130.000000 0.984667 -0.172403 -0.026613
9260.00000000 -9040.00000000 240.00000000 4 225 141 0.000000 0.000000 0.000000 0.000000 -60.708740 0.000000 130.000000 0.940965 -0.105441 -0.321663
9260.00000000 -9020.00000000 240.00000000 4 225 141 0.000000 0.000000 0.000000 0.000000 -60.708740 0.000000 130.000000 0.943720 -0.254873 0.210787
9330.00000000 -9100.00000000 250.00000000 4 225 141 0.000000 0.000000 0.000000 0.000000 -60.708740 0.000000 130.000000 -0.853759 0.042896 0.518898
9340.00000000 -9060.00000000 160.00000000 4 225 141 0.000000 0.000000 0.000000 0.000000 -60.708740 0.000000 130.000000 0.865428 0.068507 0.496328
9390.00000000 -9010.00000000 40.00000000 4 225 141 0.000000 0.000000 0.000000 0.000000 -60.708740 0.000000 130.000000 0.533864 -0.641648 0.550706
9380.00000000 -9020.00000000 60.00000000 4 225 141 0.000000 0.000000 0.000000 0.000000 -60.708740 0.000000 130.000000 0.658695 -0.297943 0.690905
9370.00000000 -9060.00000000 140.00000000 4 225 141 0.000000 0.000000 0.000000 0.000000 -60.708740 0.000000 130.000000 0.784092 -0.265554 0.560964
9390.00000000 -9060.00000000 60.00000000 4 225 141 0.000000 0.000000 0.000000 0.000000 -60.708740 0.000000 130.000000 0.735318 -0.484153 0.474239
9310.00000000 -9040.00000000 90.00000000 4 225 141 0.000000 0.000000 0.000000 0.000000 -60.708740 0.000000 130.000000 0.823135 -0.503802 0.261977
9310.00000000 -9040.00000000 90.00000000 4 225 141 0.000000 0.000000 0.000000 0.000000 -60.708740 0.000000 130.000000 0.823135 -0.503802 0.261977
9280.00000000 -8980.00000000 0.00000000 4 225 141 0.000000 0.000000 0.000000 0.000000 -60.708740 0.000000 130.000000 0.690241 -0.133257 0.711203
9340.00000000 -9050.00000000 110.00000000 4 225 141 0.000000 0.000000 0.000000 0.000000 -60.708740 0.000000 130.000000 0.856730 0.048442 0.513485
9340.00000000 -9060.00000000 100.00000000 4 225 141 0.000000 0.000000 0.000000 0.000000 -60.708740 0.000000 130.000000 0.783855 -0.496172 0.373341
9340.00000000 -9100.00000000 100.00000000 4 225 141 0.000000 0.000000 0.000000 0.000000 -60.708740 0.000000 130.000000 0.850402 -0.352909 0.390221
9340.00000000 -9090.00000000 60.00000000 4 225 141 0.000000 0.000000 0.000000 0.000000 -60.708740 0.000000 130.000000 0.852808 0.120175 0.508210
9230.00000000 -8930.00000000 280.00000000 4 225 141 0.000000 0.000000 0.000000 0.000000 -60.708740 0.000000 130.000000 0.911615 -0.378540 0.160206
9230.00000000 -8880.00000000 160.00000000 4 225 141 0.000000 0.000000 0.000000 0.000000 -60.708740 0.000000 130.000000 0.896405 -0.439361 0.058491
9250.00000000 -8910.00000000 150.00000000 4 225 141 0.000000 0.000000 0.000000 0.000000 -60.708740 0.000000 130.000000 0.869593 -0.414309 0.268618
9240.00000000 -8950.00000000 150.00000000 4 225 141 0.000000 0.000000 0.000000 0.000000 -60.708740 0.000000 130.000000 -0.809217 0.277043 -0.518087
9220.00000000 -8960.00000000 180.00000000 4 225 141 0.000000 0.000000 0.000000 0.000000 -60.708740 0.000000 130.000000 0.929976 -0.351626 -0.107253
9180.00000000 -8910.00000000 160.00000000 4 225 141 0.000000 0.000000 0.000000 0.000000 -60.708740 0.000000 130.000000 0.799082 -0.496037 0.339729
9240.00000000 -8910.00000000 130.00000000 4 225 141 0.000000 0.000000 0.000000 0.000000 -60.708740 0.000000 130.000000 0.878490 -0.400952 0.259793
9240.00000000 -8910.00000000 130.00000000 4 225 141 0.000000 0.000000 0.000000 0.000000 -60.708740 0.000000 130.000000 0.878490 -0.400952 0.259793
9240.00000000 -8920.00000000 110.00000000 4 225 141 0.000000 0.000000 0.000000 0.000000 -60.708740 0.000000 130.000000 0.868061 -0.455546 0.197354
9250.00000000 -8920.00000000 -10.00000000 4 225 141 0.000000 0.000000 0.000000 0.000000 -60.708740 0.000000 130.000000 0.497489 -0.387296 0.776213
9210.00000000 -8960.00000000 40.00000000 4 225 141 0.000000 0.000000 0.000000 0.000000 -60.708740 0.000000 130.000000 0.691549 -0.366307 0.622558
9210.00000000 -8960.00000000 10.00000000 4 225 141 0.000000 0.000000 0.000000 0.000000 -60.708740 0.000000 130.000000 0.747443 -0.223141 0.625730
9220.00000000 -8970.00000000 240.00000000 4 225 141 0.000000 0.000000 0.000000 0.000000 -60.708740 0.000000 130.000000 0.944077 -0.267192 0.193200
9250.00000000 -9020.00000000 300.00000000 4 225 141 0.000000 0.000000 0.000000 0.000000 -60.708740 0.000000 130.000000 0.975449 -0.193097 -0.105892
9240.00000000 -9000.00000000 180.00000000 4 225 141 0.000000 0.000000 0.000000 0.000000 -60.708740 0.000000 130.000000 0.984102 -0.176515 0.019613
9240.00000000 -9040.00000000 180.00000000 4 225 141 0.000000 0.000000 0.000000 0.000000 -60.708740 0.000000 130.000000 0.993853 -0.108720 -0.020865
9210.00000000 -9030.00000000 200.00000000 4 225 141 0.000000 0.000000 0.000000 0.000000 -60.708740 0.000000 130.000000 0.994800 -0.058779 0.083177
9180.00000000 -9030.00000000 230.00000000 4 225 141 0.000000 0.000000 0.000000 0.000000 -60.708740 0.000000 130.000000 0.917958 -0.350441 -0.185862
9190.00000000 -9030.00000000 230.00000000 4 225 141 0.000000 0.000000 0.000000 0.000000 -60.708740 0.000000 130.000000 0.996979 -0.067902 -0.037724
9200.00000000 -9040.00000000 200.00000000 4 225 141 0.000000 0.000000 0.000000 0.000000 -60.708740 0.000000 130.000000 0.973059 -0.034967 0.227891
9190.00000000 -9030.00000000 230.00000000 4 225 141 0.000000 0.000000 0.000000 0.000000 -60.708740 0.000000 130.000000 0.996979 -0.067902 -0.037724
9180.00000000 -9030.00000000 230.00000000 4 225 141 0.000000 0.000000 0.000000 0.000000 -60.708740 0.000000 130.000000 0.917958 -0.350441 -0.185862
9180.00000000 -9010.00000000 200.00000000 4 225 141 0.000000 0.000000 0.000000 0.000000 -60.708740 0.000000 130.000000 0.982501 -0.169149 -0.077976
9210.00000000 -9020.00000000 210.00000000 4 225 141 0.000000 0.000000 0.000000 0.000000 -60.708740 0.000000 130.000000 0.905849 -0.395512 0.151684
9210.00000000 -9020.00000000 200.00000000 4 225 141 0.000000 0.000000 0.000000 0.000000 -60.708740 0.000000 130.000000 0.965957 -0.258631 -0.006015
9180.00000000 -9020.00000000 150.00000000 4 225 141 0.000000 0.000000 0.000000 0.000000 -60.708740 0.000000 130.000000 0.975653 -0.218783 0.015374
9230.00000000 -9060.00000000 280.00000000 4 225 141 0.000000 0.000000 0.000000 0.000000 -60.708740 0.000000 130.000000 0.961386 -0.271288 -0.046257
9230.00000000 -9080.00000000 280.00000000 4 225 141 0.000000 0.000000 0.000000 0.000000 -60.708740 0.000000 130.000000 0.981904 -0.163449 -0.095648
9220.00000000 -9070.00000000 210.00000000 4 225 141 0.000000 0.000000 0.000000 0.000000 -60.708740 0.000000 130.000000 0.950532 -0.278627 -0.137314
9230.00000000 -9060.00000000 220.00000000 4 225 141 0.000000 0.000000 0.000000 0.000000 -60.708740 0.000000 130.000000 0.976583 -0.207448 0.057018
9230.00000000 -9070.00000000 210.00000000 4 225 141 0.000000 0.000000 0.000000 0.000000 -60.708740 0.000000 130.000000 0.920982 -0.387156 0.043605
9230.00000000 -9050.00000000 230.00000000 4 225 141 0.000000 0.000000 0.000000 0.000000 -60.708740 0.000000 130.000000 0.997373 0.003146 -0.072365
9230.00000000 -9060.00000000 230.00000000 4 225 141 0.000000 0.000000 0.000000 0.000000 -60.708740 0.000000 130.000000 0.992004 -0.025607 -0.123583
9230.00000000 -9060.00000000 230.00000000 4 225 141 0.000000 0.000000 0.000000 0.000000 -60.708740 0.000000 130.000000 0.992004 -0.025607 -0.123583
9190.00000000 -9050.00000000 150.00000000 4 225 141 0.000000 0.000000 0.000000 0.000000 -60.708740 0.000000 130.000000 0.922811 -0.348680 -0.163837
9160.00000000 -9040.00000000 160.00000000 4 225 141 0.000000 0.000000 0.000000 0.000000 -60.708740 0.000000 130.000000 0.949983 -0.285659 0.126221
9170.00000000 -9020.00000000 180.00000000 4 225 141 0.000000 0.000000 0.000000 0.000000 -60.708740 0.000000 130.000000 0.936270 -0.190028 0.295445
9170.00000000 -9030.00000000 170.00000000 4 225 141 0.000000 0.000000 0.000000 0.000000 -60.708740 0.000000 130.000000 0.907872 -0.415604 -0.055145
9170.00000000 -9050.00000000 270.00000000 4 225 141 0.000000 0.000000 0.000000 0.000000 -60.708740 0.000000 130.000000 0.963452 -0.245687 0.106764
9220.00000000 -8980.00000000 80.00000000 4 225 141 0.000000 0.000000 0.000000 0.000000 -60.708740 0.000000 130.000000 0.940860 -0.287065 0.179931
9250.00000000 -9030.00000000 140.00000000 4 225 141 0.000000 0.000000 0.000000 0.000000 -60.708740 0.000000 130.000000 0.843001 -0.236284 0.483239
9250.00000000 -9030.00000000 70.00000000 4 225 141 0.000000 0.000000 0.000000 0.000000 -60.708740 0.000000 130.000000 0.905337 -0.222338 0.361844
9180.00000000 -9000.00000000 140.00000000 4 225 141 0.000000 0.000000 0.000000 0.000000 -60.708740 0.000000 130.000000 0.924566 -0.374896 0.068042
9220.00000000 -8980.00000000 60.00000000 4 225 141 0.000000 0.000000 0.000000 0.000000 -60.708740 0.000000 130.000000 0.862507 -0.234131 0.448625
9240.00000000 -8980.00000000 50.00000000 4 225 141 0.000000 0.000000 0.000000 0.000000 -60.708740 0.000000 130.000000 0.628826 -0.303959 0.715672
9230.00000000 -8970.00000000 30.00000000 4 225 141 0.000000 0.000000 0.000000 0.000000 -60.708740 0.000000 130.000000 0.643863 -0.282788 0.710965
9210.00000000 -8990.00000000 10.00000000 4 225 141 0.000000 0.000000 0.000000 0.000000 -60.708740 0.000000 130.000000 -0.690653 0.380766 -0.614830
9210.00000000 -8980.00000000 10.00000000 4 225 141 0.000000 0.000000 0.000000 0.000000 -60.708740 0.000000 130.000000 0.815393 -0.235832 0.528695
9220.00000000 -9050.00000000 100.00000000 4 225 141 0.000000 0.000000 0.000000 0.000000 -60.708740 0.000000 130.000000 0.772356 -0.404877 0.489430
9230.00000000 -9070.00000000 80.00000000 4 225 141 0.000000 0.000000 0.000000 0.000000 -60.708740 0.000000 130.000000 0.878855 -0.393450 0.269837
9200.00000000 -9060.00000000 140.00000000 4 225 141 0.000000 0.000000 0.000000 0.000000 -60.708740 0.000000 130.000000 0.934901 -0.245289 0.256502
9190.00000000 -9070.00000000 0.00000000 4 225 141 0.000000 0.000000 0.000000 0.000000 -60.708740 0.000000 130.000000 0.820794 -0.518964 0.238692
9160.00000000 -9050.00000000 40.00000000 4 225 141 0.000000 0.000000 0.000000 0.000000 -60.708740 0.000000 130.000000 0.819064 -0.396014 0.415099
9050.00000000 -8820.00000000 10.00000000 4 225 141 0.000000 0.000000 0.000000 0.000000 -60.708740 0.000000 130.000000 -0.759377 0.487116 -0.431352
9860.00000000 -9250.00000000 680.00000000 4 225 141 0.000000 0.000000 0.000000 0.000000 -60.708740 0.000000 130.000000 0.206923 -0.366095 0.907280
9850.00000000 -9290.00000000 720.00000000 4 225 141 0.000000 0.000000 0.000000 0.000000 -60.708740 0.000000 130.000000 0.116471 -0.309252 0.943821
9810.00000000 -9190.00000000 700.00000000 4 225 141 0.000000 0.000000 0.000000 0.000000 -60.708740 0.000000 130.000000 0.697174 -0.297869 0.652091
9810.00000000 -9290.00000000 780.00000000 4 225 141 0.000000 0.000000 0.000000 0.000000 -60.708740 0.000000 130.000000 0.484099 -0.153566 0.861432
9810.00000000 -9250.00000000 690.00000000 4 225 141 0.000000 0.000000 0.000000 0.000000 -60.708740 0.000000 130.000000 0.585412 -0.511181 0.629275
9840.00000000 -9280.00000000 730.00000000 4 225 141 0.000000 0.000000 0.000000 0.000000 -60.708740 0.000000 130.000000 0.261153 -0.450528 0.853712
9870.00000000 -9370.00000000 720.00000000 4 225 141 0.000000 0.000000 0.000000 0.000000 -60.708740 0.000000 130.000000 0.399834 -0.504281 0.765397
9850.00000000 -9410.00000000 710.00000000 4 225 141 0.000000 0.000000 0.000000 0.000000 -60.708740 0.000000 130.000000 0.340719 -0.557099 0.757332
9820.00000000 -9380.00000000 740.00000000 4 225 141 0.000000 0.000000 0.000000 0.000000 -60.708740 0.000000 130.000000 0.632532 -0.336592 0.697574
9800.00000000 -9340.00000000 770.00000000 4 225 141 0.000000 0.000000 0.000000 0.000000 -60.708740 0.000000 130.000000 0.333030 -0.100310 0.937566
9820.00000000 -9300.00000000 710.00000000 4 225 141 0.000000 0.000000 0.000000 0.000000 -60.708740 0.000000 130.000000 0.552765 -0.472606 0.686364
9830.00000000 -9320.00000000 720.00000000 4 225 141 0.000000 0.000000 0.000000 0.000000 -60.708740 0.000000 130.000000 0.335524 -0.132840 0.932619
9840.00000000 -9300.00000000 700.00000000 4 225 141 0.000000 0.000000 0.000000 0.000000 -60.708740 0.000000 130.000000 0.361371 -0.303914 0.881503
9810.00000000 -9340.00000000 680.00000000 4 225 141 0.000000 0.000000 0.000000 0.000000 -60.708740 0.000000 130.000000 0.449703 -0.495826 0.742916
9810.00000000 -9320.00000000 690.00000000 4 225 141 0.000000 0.000000 0.000000 0.000000 -60.708740 0.000000 130.000000 0.462849 -0.576473 0.673387
9830.00000000 -9340.00000000 690.00000000 4 225 141 0.000000 0.000000 0.000000 0.000000 -60.708740 0.000000 130.000000 -0.016182 -0.304962 0.952227
9840.00000000 -9340.00000000 690.00000000 4 225 141 0.000000 0.000000 0.000000 0.000000 -60.708740 0.000000 130.000000 0.419730 -0.317508 0.850303
9810.00000000 -9350.00000000 700.00000000 4 225 141 0.000000 0.000000 0.000000 0.000000 -60.708740 0.000000 130.000000 0.190593 -0.110868 0.975388
9840.00000000 -9380.00000000 720.00000000 4 225 141 0.000000 0.000000 0.000000 0.000000 -60.708740 0.000000 130.000000 0.626286 -0.518248 0.582396
9800.00000000 -9320.00000000 660.00000000 4 225 141 0.000000 0.000000 0.000000 0.000000 -60.708740 0.000000 130.000000 0.508956 -0.167674 0.844304
9800.00000000 -9320.00000000 660.00000000 4 225 141 0.000000 0.000000 0.000000 0.000000 -60.708740 0.000000 130.000000 0.508956 -0.167674 0.844304
9780.00000000 -9330.00000000 690.00000000 4 225 141 0.000000 0.000000 0.000000 0.000000 -60.708740 0.000000 130.000000 0.272590 -0.108253 0.956021
9800.00000000 -9360.00000000 730.00000000 4 225 141 0.000000 0.000000 0.000000 0.000000 -60.708740 0.000000 130.000000 0.468355 -0.215353 0.856894
9800.00000000 -9360.00000000 730.00000000 4 225 141 0.000000 0.000000 0.000000 0.000000 -60.708740 0.000000 130.000000 0.468355 -0.215353 0.856894
9780.00000000 -9350.00000000 670.00000000 4 225 141 0.000000 0.000000 0.000000 0.000000 -60.708740 0.000000 130.000000 0.074701 -0.204509 0.976010
9790.00000000 -9350.00000000 660.00000000 4 225 141 0.000000 0.000000 0.000000 0.000000 -60.708740 0.000000 130.000000 0.612521 -0.278419 0.739798
9780.00000000 -9350.00000000 670.00000000 4 225 141 0.000000 0.000000 0.000000 0.000000 -60.708740 0.000000 130.000000 0.074701 -0.204509 0.976010
9840.00000000 -9410.00000000 710.00000000 4 225 141 0.000000 0.000000 0.000000 0.000000 -60.708740 0.000000 130.000000 0.376334 -0.542507 0.751038
9970.00000000 -9280.00000000 510.00000000 4 225 141 0.000000 0.000000 0.000000 0.000000 -60.708740 0.000000 130.000000 0.913640 -0.041107 0.404441
9990.00000000 -9250.00000000 420.00000000 4 225 141 0.000000 0.000000 0.000000 0.000000 -60.708740 0.000000 130.000000 0.630732 -0.265320 0.729234
10000.00000000 -9250.00000000 420.00000000 4 225 141 0.000000 0.000000 0.000000 0.000000 -60.708740 0.000000 130.000000 0.885819 0.085094 0.456162
9990.00000000 -9260.00000000 420.00000000 4 225 141 0.000000 0.000000 0.000000 0.000000 -60.708740 0.000000 130.000000 0.641730 -0.269113 0.718165
10000.00000000 -9250.00000000 400.00000000 4 225 141 0.000000 0.000000 0.000000 0.000000 -60.708740 0.000000 130.000000 0.824388 0.020644 0.565649
9960.00000000 -9280.00000000 400.00000000 4 225 141 0.000000 0.000000 0.000000 0.000000 -60.708740 0.000000 130.000000 0.584826 -0.520782 0.621904
9840.00000000 -9200.00000000 600.00000000 4 225 141 0.000000 0.000000 0.000000 0.000000 -60.708740 0.000000 130.000000 0.749541 -0.136144 0.647807
9800.00000000 -9180.00000000 570.00000000 4 225 141 0.000000 0.000000 0.000000 0.000000 -60.708740 0.000000 130.000000 0.436933 -0.219212 0.872374
9830.00000000 -9230.00000000 570.00000000 4 225 141 0.000000 0.000000 0.000000 0.000000 -60.708740 0.000000 130.000000 0.764129 -0.175399 0.620759
9810.00000000 -9240.00000000 580.00000000 4 225 141 0.000000 0.000000 0.000000 0.000000 -60.708740 0.000000 130.000000 -0.406717 0.629166 -0.662368
9820.00000000 -9230.00000000 580.00000000 4 225 141 0.000000 0.000000 0.000000 0.000000 -60.708740 0.000000 130.000000 0.513499 -0.389607 0.764543
9810.00000000 -9240.00000000 580.00000000 4 225 141 0.000000 0.000000 0.000000 0.000000 -60.708740 0.000000 130.000000 -0.406717 0.629166 -0.662368
9800.00000000 -9230.00000000 620.00000000 4 225 141 0.000000 0.000000 0.000000 0.000000 -60.708740 0.000000 130.000000 0.718076 -0.193031 0.668660
9800.00000000 -9230.00000000 620.00000000 4 225 141 0.000000 0.000000 0.000000 0.000000 -60.708740 0.000000 130.000000 0.718076 -0.193031 0.668660
9790.00000000 -9240.00000000 640.00000000 4 225 141 0.000000 0.000000 0.000000 0.000000 -60.708740 0.000000 130.000000 0.313934 0.016260 0.949306
9780.00000000 -9250.00000000 570.00000000 4 225 141 0.000000 0.000000 0.000000 0.000000 -60.708740 0.000000 130.000000 0.626773 -0.052586 0.777426
9800.00000000 -9250.00000000 600.00000000 4 225 141 0.000000 0.000000 0.000000 0.000000 -60.708740 0.000000 130.000000 0.575898 -0.429849 0.695393
9800.00000000 -9250.00000000 600.00000000 4 225 141 0.000000 0.000000 0.000000 0.000000 -60.708740 0.000000 130.000000 0.575898 -0.429849 0.695393
9780.00000000 -9250.00000000 570.00000000 4 225 141 0.000000 0.000000 0.000000 0.000000 -60.708740 0.000000 130.000000 0.626773 -0.052586 0.777426
9780.00000000 -9250.00000000 570.00000000 4 225 141 0.000000 0.000000 0.000000 0.000000 -60.708740 0.000000 130.000000 0.626773 -0.052586 0.777426
9800.00000000 -9260.00000000 620.00000000 4 225 141 0.000000 0.000000 0.000000 0.000000 -60.708740 0.000000 130.000000 0.111459 -0.441603 0.890260
9790.00000000 -9270.00000000 620.00000000 4 225 141 0.000000 0.000000 0.000000 0.000000 -60.708740 0.000000 130.000000 0.664094 -0.395807 0.634284
9790.00000000 -9270.00000000 620.00000000 4 225 141 0.000000 0.000000 0.000000 0.000000 -60.708740 0.000000 130.000000 0.664094 -0.395807 0.634284
9770.00000000 -9270.00000000 570.00000000 4 225 141 0.000000 0.000000 0.000000 0.000000 -60.708740 0.000000 130.000000 0.080448 -0.509503 0.856700
9800.00000000 -9270.00000000 610.00000000 4 225 141 0.000000 0.000000 0.000000 0.000000 -60.708740 0.000000 130.000000 0.208285 -0.385983 0.898685
9770.00000000 -9260.00000000 580.00000000 4 225 141 0.000000 0.000000 0.000000 0.000000 -60.708740 0.000000 130.000000 -0.539354 0.613748 -0.576551
9780.00000000 -9240.00000000 540.00000000 4 225 141 0.000000 0.000000 0.000000 0.000000 -60.708740 0.000000 130.000000 0.428764 -0.384135 0.817681
9790.00000000 -9250.00000000 530.00000000 4 225 141 0.000000 0.000000 0.000000 0.000000 -60.708740 0.000000 130.000000 0.644818 -0.365889 0.671070
9770.00000000 -9250.00000000 490.00000000 4 225 141 0.000000 0.000000 0.000000 0.000000 -60.708740 0.000000 130.000000 0.149763 -0.409351 0.900002
9780.00000000 -9220.00000000 520.00000000 4 225 141 0.000000 0.000000 0.000000 0.000000 -60.708740 0.000000 130.000000 0.490066 -0.614688 0.618056
9890.00000000 -9240.00000000 360.00000000 4 225 141 0.000000 0.000000 0.000000 0.000000 -60.708740 0.000000 130.000000 0.570376 -0.386278 0.724887
9900.00000000 -9260.00000000 390.00000000 4 225 141 0.000000 0.000000 0.000000 0.000000 -60.708740 0.000000 130.000000 0.688317 -0.354786 0.632729
9910.00000000 -9270.00000000 380.00000000 4 225 141 0.000000 0.000000 0.000000 0.000000 -60.708740 0.000000 130.000000 0.871063 0.068291 0.486401
9870.00000000 -9290.00000000 360.00000000 4 225 141 0.000000 0.000000 0.000000 0.000000 -60.708740 0.000000 130.000000 0.548279 -0.087324 0.831724
9810.00000000 -9230.00000000 450.00000000 4 225 141 0.000000 0.000000 0.000000 0.000000 -60.708740 0.000000 130.000000 0.660710 -0.374018 0.650824
9810.00000000 -9250.00000000 410.00000000 4 225 141 0.000000 0.000000 0.000000 0.000000 -60.708740 0.000000 130.000000 0.384650 -0.198857 0.901388
9810.00000000 -9260.00000000 440.00000000 4 225 141 0.000000 0.000000 0.000000 0.000000 -60.708740 0.000000 130.000000 0.422324 -0.159993 0.892213
9810.00000000 -9260.00000000 440.00000000 4 225 141 0.000000 0.000000 0.000000 0.000000 -60.708740 0.000000 130.000000 0.422324 -0.159993 0.892213
9800.00000000 -9250.00000000 450.00000000 4 225 141 0.000000 0.000000 0.000000 0.000000 -60.708740 0.000000 130.000000 0.670742 -0.280143 0.686750
9770.00000000 -9240.00000000 450.00000000 4 225 141 0.000000 0.000000 0.000000 0.000000 -60.708740 0.000000 130.000000 0.366254 -0.116598 0.923181
9770.00000000 -9240.00000000 460.00000000 4 225 141 0.000000 0.000000 0.000000 0.000000 -60.708740 0.000000 130.000000 0.240499 -0.068536 0.968227
9790.00000000 -9270.00000000 420.00000000 4 225 141 0.000000 0.000000 0.000000 0.000000 -60.708740 0.000000 130.000000 0.671728 -0.557819 0.487463
9790.00000000 -9250.00000000 350.00000000 4 225 141 0.000000 0.000000 0.000000 0.000000 -60.708740 0.000000 130.000000 0.809140 -0.219558 0.545056
9800.00000000 -9240.00000000 320.00000000 4 225 141 0.000000 0.000000 0.000000 0.000000 -60.708740 0.000000 130.000000 0.775690 -0.527340 0.346722
9820.00000000 -9360.00000000 650.00000000 4 225 141 0.000000 0.000000 0.000000 0.000000 -60.708740 0.000000 130.000000 0.462863 -0.391901 0.795092
9770.00000000 -9340.00000000 650.00000000 4 225 141 0.000000 0.000000 0.000000 0.000000 -60.708740 0.000000 130.000000 0.036595 -0.301594 0.952734
9770.00000000 -9300.00000000 630.00000000 4 225 141 0.000000 0.000000 0.000000 0.000000 -60.708740 0.000000 130.000000 0.143323 -0.545217 0.825952
9800.00000000 -9330.00000000 650.00000000 4 225 141 0.000000 0.000000 0.000000 0.000000 -60.708740 0.000000 130.000000 0.570558 -0.580716 0.580716
9780.00000000 -9350.00000000 620.00000000 4 225 141 0.000000 0.000000 0.000000 0.000000 -60.708740 0.000000 130.000000 0.085595 -0.259340 0.961986
9770.00000000 -9350.00000000 620.00000000 4 225 141 0.000000 0.000000 0.000000 0.000000 -60.708740 0.000000 130.000000 0.299484 -0.031327 0.953587
9800.00000000 -9350.00000000 640.00000000 4 225 141 0.000000 0.000000 0.000000 0.000000 -60.708740 0.000000 130.000000 0.426048 -0.308304 0.850548
9800.00000000 -9300.00000000 550.00000000 4 225 141 0.000000 0.000000 0.000000 0.000000 -60.708740 0.000000 130.000000 -0.355059 0.662669 -0.659396
9770.00000000 -9340.00000000 530.00000000 4 225 141 0.000000 0.000000 0.000000 0.000000 -60.708740 0.000000 130.000000 -0.450131 0.657626 -0.604079
9890.00000000 -9300.00000000 350.00000000 4 225 141 0.000000 0.000000 0.000000 0.000000 -60.708740 0.000000 130.000000 0.930594 -0.335014 0.147516
9890.00000000 -9300.00000000 350.00000000 4 225 141 0.000000 0.000000 0.000000 0.000000 -60.708740 0.000000 130.000000 0.930594 -0.335014 0.147516
9870.00000000 -9300.00000000 360.00000000 4 225 141 0.000000 0.000000 0.000000 0.000000 -60.708740 0.000000 130.000000 0.498245 -0.432470 0.751479
9880.00000000 -9300.00000000 350.00000000 4 225 141 0.000000 0.000000 0.000000 0.000000 -60.708740 0.000000 130.000000 0.735860 -0.202942 0.646007
9880.00000000 -9280.00000000 310.00000000 4 225 141 0.000000 0.000000 0.000000 0.000000 -60.708740 0.000000 130.000000 0.867687 0.181815 0.462668
9880.00000000 -9280.00000000 310.00000000 4 225 141 0.000000 0.000000 0.000000 0.000000 -60.708740 0.000000 130.000000 0.867687 0.181815 0.462668
9880.00000000 -9230.00000000 230.00000000 4 225 141 0.000000 0.000000 0.000000 0.000000 -60.708740 0.000000 130.000000 0.933589 0.295333 0.202954
9830.00000000 -9220.00000000 290.00000000 4 225 141 0.000000 0.000000 0.000000 0.000000 -60.708740 0.000000 130.000000 0.615861 -0.394614 0.681905
9810.00000000 -9240.00000000 300.00000000 4 225 141 0.000000 0.000000 0.000000 0.000000 -60.708740 0.000000 130.000000 -0.738787 0.331403 -0.586827
9780.00000000 -9270.00000000 270.00000000 4 225 141 0.000000 0.000000 0.000000 0.000000 -60.708740 0.000000 130.000000 0.650218 -0.244029 0.719491
9770.00000000 -9260.00000000 270.00000000 4 225 141 0.000000 0.000000 0.000000 0.000000 -60.708740 0.000000 130.000000 0.500256 -0.247819 0.829656
9820.00000000 -9270.00000000 210.00000000 4 225 141 0.000000 0.000000 0.000000 0.000000 -60.708740 0.000000 130.000000 0.958273 0.195376 0.208667
9790.00000000 -9250.00000000 150.00000000 4 225 141 0.000000 0.000000 0.000000 0.000000 -60.708740 0.000000 130.000000 0.888878 -0.355251 0.289297
9790.00000000 -9270.00000000 230.00000000 4 225 141 0.000000 0.000000 0.000000 0.000000 -60.708740 0.000000 130.000000 0.959610 -0.262181 0.102031
9790.00000000 -9280.00000000 220.00000000 4 225 141 0.000000 0.000000 0.000000 0.000000 -60.708740 0.000000 130.000000 0.942258 0.156816 0.295904
9770.00000000 -9280.00000000 170.00000000 4 225 141 0.000000 0.000000 0.000000 0.000000 -60.708740 0.000000 130.000000 0.840863 -0.014991 0.541041
9800.00000000 -9260.00000000 180.00000000 4 225 141 0.000000 0.000000 0.000000 0.000000 -60.708740 0.000000 130.000000 0.954928 -0.229022 -0.188843
9810.00000000 -9290.00000000 110.00000000 4 225 141 0.000000 0.000000 0.000000 0.000000 -60.708740 0.000000 130.000000 0.898811 0.193121 -0.393502
9790.00000000 -9240.00000000 140.00000000 4 225 141 0.000000 0.000000 0.000000 0.000000 -60.708740 0.000000 130.000000 0.927854 -0.372924 -0.003818
9790.00000000 -9290.00000000 130.00000000 4 225 141 0.000000 0.000000 0.000000 0.000000 -60.708740 0.000000 130.000000 0.953448 -0.139626 0.267285
9800.00000000 -9280.00000000 110.00000000 4 225 141 0.000000 0.000000 0.000000 0.000000 -60.708740 0.000000 130.000000 0.946889 0.169815 -0.273063
9790.00000000 -9270.00000000 130.00000000 4 225 141 0.000000 0.000000 0.000000 0.000000 -60.708740 0.000000 130.000000 0.967437 0.234569 -0.095095
9770.00000000 -9260.00000000 110.00000000 4 225 141 0.000000 0.000000 0.000000 0.000000 -60.708740 0.000000 130.000000 0.994937 0.074315 -0.067660
9770.00000000 -9260.00000000 110.00000000 4 225 141 0.000000 0.000000 0.000000 0.000000 -60.708740 0.000000 130.000000 0.994937 0.074315 -0.067660
9770.00000000 -9270.00000000 70.00000000 4 225 141 0.000000 0.000000 0.000000 0.000000 -60.708740 0.000000 130.000000 0.943268 -0.288031 -0.165174
9770.00000000 -9280.00000000 80.00000000 4 225 141 0.000000 0.000000 0.000000 0.000000 -60.708740 0.000000 130.000000 0.946861 0.090615 -0.308616
9790.00000000 -9290.00000000 100.00000000 4 225 141 0.000000 0.000000 0.000000 0.000000 -60.708740 0.000000 130.000000 0.967050 -0.185125 -0.174768
9770.00000000 -9270.00000000 70.00000000 4 225 141 0.000000 0.000000 0.000000 0.000000 -60.708740 0.000000 130.000000 0.943268 -0.288031 -0.165174
9770.00000000 -9290.00000000 60.00000000 4 225 141 0.000000 0.000000 0.000000 0.000000 -60.708740 0.000000 130.000000 0.861790 0.276078 -0.425557
9770.00000000 -9280.00000000 10.00000000 4 225 141 0.000000 0.000000 0.000000 0.000000 -60.708740 0.000000 130.000000 0.972627 -0.117321 -0.200581
9770.00000000 -9270.00000000 0.00000000 4 225 141 0.000000 0.000000 0.000000 0.000000 -60.708740 0.000000 130.000000 0.833809 -0.017799 -0.551766
9770.00000000 -9250.00000000 60.00000000 4 225 141 0.000000 0.000000 0.000000 0.000000 -60.708740 0.000000 130.000000 0.786743 0.341296 -0.514347
9770.00000000 -9280.00000000 50.00000000 4 225 141 0.000000 0.000000 0.000000 0.000000 -60.708740 0.000000 130.000000 0.945435 -0.268760 -0.184176
